# .PCD v0.7 - Point Cloud Data file format
VERSION 0.7
FIELDS x y z rgb
SIZE 4 4 4 4
TYPE F F F F
COUNT 1 1 1 1
WIDTH 943
HEIGHT 1
VIEWPOINT 0 0 0 1 0 0 0
POINTS 943
DATA ascii
0.084973 -0.1064329 0.024964068 1.1247568e-38
0.087128721 -0.10718934 0.021978352 5.2552238e-39
0.089297317 -0.10795029 0.018974874 4.5180259e-39
0.091465034 -0.10869022 0.016054366 4.9790152e-39
0.093235902 -0.10869022 0.016054366 4.7949757e-39
0.095867269 -0.11023484 0.0099577643 5.9924175e-39
0.098073669 -0.1109881 0.0069846846 7.098751e-39
0.099860437 -0.1109881 0.0069846846 6.1767919e-39
0.10208503 -0.11174576 0.0039940812 5.4392269e-39
0.10477104 -0.11327456 -0.0020400546 6.5455744e-39
0.10657363 -0.11327456 -0.0020400546 8.113619e-39
0.10882192 -0.11401908 -0.0049786828 8.8508281e-39
0.11062966 -0.11401908 -0.0049786828 8.6667928e-39
0.11291244 -0.11479472 -0.0080400966 8.5745957e-39
-0.12877163 -0.13087155 -0.063952118 1.0138634e-38
-0.1268605 -0.13087155 -0.063952118 9.8627744e-39
-0.12494934 -0.13087155 -0.063952118 1.0692902e-38
-0.1230382 -0.13087155 -0.063952118 9.2188609e-39
-0.12112705 -0.13087155 -0.063952118 3.5032462e-44
-0.11921591 -0.13087155 -0.063952118 1.3815654e-39
-0.11730476 -0.13087155 -0.063952118 8.2768675e-40
-0.11521106 -0.13012333 -0.061019208 5.5109705e-40
-0.11330507 -0.13012333 -0.061019208 1.1153212e-38
-0.11139906 -0.13012333 -0.061019208 2.0373087e-38
-0.10949305 -0.13012333 -0.061019208 2.3415884e-38
-0.10741951 -0.12934943 -0.05798557 2.3509168e-38
-0.10551883 -0.12934943 -0.05798557 1.9268535e-38
-0.10341427 -0.1283439 -0.054044034 2.1481947e-38
-0.10137085 -0.12757985 -0.051049139 2.3142544e-38
-0.09948232 -0.12757985 -0.051049139 2.2958873e-38
-0.097407706 -0.12655805 -0.047043826 2.2867037e-38
-0.095526204 -0.12655805 -0.047043826 2.1392271e-38
-0.093644701 -0.12655805 -0.047043826 2.1759975e-38
-0.091763206 -0.12655805 -0.047043826 2.3417691e-38
-0.089760609 -0.12577499 -0.043974306 2.3048556e-38
-0.087773696 -0.12502514 -0.041034963 2.3509168e-38
-0.085902736 -0.12502514 -0.041034963 2.2955644e-38
-0.083893523 -0.12399365 -0.036991622 2.2034767e-38
-0.081931934 -0.12322514 -0.033979204 2.0191933e-38
-0.080073342 -0.12322514 -0.033979204 2.0562155e-38
-0.078214757 -0.12322514 -0.033979204 1.93647e-38
-0.076356165 -0.12322514 -0.033979204 1.7428975e-38
-0.074497573 -0.12322514 -0.033979204 2.3092684e-39
-0.072568074 -0.12246101 -0.030983832 1.1518673e-42
-0.070714742 -0.12246101 -0.030983832 1.5710097e-39
-0.068801343 -0.12170117 -0.028005388 3.3350903e-42
-0.066953227 -0.12170117 -0.028005388 1.9390902e-39
-0.06510511 -0.12170117 -0.028005388 5.719111e-39
-0.063196562 -0.12066682 -0.023950841 7.2864367e-39
-0.061355554 -0.12066682 -0.023950841 8.485333e-39
-0.059481047 -0.11991702 -0.021011736 9.3150937e-39
-0.057645191 -0.11991702 -0.021011736 9.0385068e-39
-0.055785425 -0.11914389 -0.017981198 1.478112e-39
-0.053936392 -0.11837523 -0.014968064 1.55404e-42
-0.052111134 -0.11837523 -0.014968064 4.625406e-40
-0.050277993 -0.11761098 -0.011972334 1.1997567e-39
-0.048457988 -0.11761098 -0.011972334 1.1104379e-39
-0.046641428 -0.11660783 -0.0080400966 6.5973132e-42
-0.044828318 -0.11660783 -0.0080400966 1.0903503e-41
-0.043015204 -0.11660783 -0.0080400966 4.7330817e-40
-0.041202091 -0.11660783 -0.0080400966 5.6478073e-40
-0.039413135 -0.11582683 -0.0049786828 4.7151732e-40
-0.037633728 -0.11507715 -0.0020400546 3.782539e-40
-0.035831135 -0.11507715 -0.0020400546 2.2207386e-39
-0.034028545 -0.11507715 -0.0020400546 5.9082078e-39
-0.032225952 -0.11507715 -0.0020400546 5.9081994e-39
-0.030473761 -0.11430521 0.00098583475 4.2486781e-39
-0.028676474 -0.11430521 0.00098583475 3.1408998e-39
-0.026939843 -0.11353777 0.0039940812 1.2966341e-39
-0.025213376 -0.11277486 0.0069846846 2.1263962e-39
-0.023426607 -0.11277486 0.0069846846 1.4813785e-39
-0.021639837 -0.11277486 0.0069846846 1.3909625e-39
-0.019933868 -0.11201639 0.0099577643 6.5231845e-40
-0.018152311 -0.11201639 0.0099577643 1.2033566e-39
-0.016370755 -0.11201639 0.0099577643 3.322417e-39
-0.014688373 -0.11123641 0.013015244 4.9826376e-39
-0.013016086 -0.11046107 0.016054366 6.2733568e-39
-0.011245221 -0.11046107 0.016054366 3.5074711e-39
-0.0095844455 -0.10971604 0.018974874 2.1241723e-39
-0.0078186989 -0.10971604 0.018974874 8.3235868e-40
-0.0061767064 -0.10894983 0.021978352 7.3945819e-40
-0.0044162273 -0.10894983 0.021978352 1.1997371e-39
-0.0026557483 -0.10894983 0.021978352 1.8443988e-39
-0.00089526922 -0.10894983 0.021978352 2.0287943e-39
0.00086520985 -0.10894983 0.021978352 1.4766925e-39
0.0024764948 -0.10818814 0.024964068 5.1652198e-39
0.0042317398 -0.10818814 0.024964068 9.9604491e-39
0.0058229938 -0.10740583 0.028030667 8.8551609e-39
0.0075728633 -0.10740583 0.028030667 4.892904e-39
0.0089819878 -0.10588033 0.034010325 3.5117871e-39
0.010544486 -0.10511206 0.037021849 2.9586189e-39
0.01227859 -0.10511206 0.037021849 3.9695226e-39
0.014012694 -0.10511206 0.037021849 1.3001466e-38
0.015746798 -0.10511206 0.037021849 1.1522042e-38
0.017347451 -0.10459428 0.039051507 4.7910563e-39
0.019077998 -0.10459428 0.039051507 2.118476e-39
0.020808537 -0.10459428 0.039051507 1.4766953e-39
0.022327404 -0.10383381 0.042032514 8.3597963e-40
0.024052721 -0.10383381 0.042032514 6.9168092e-42
0.025557246 -0.1030779 0.04499558 1.118295e-39
0.027277369 -0.1030779 0.04499558 1.0890663e-38
0.028997492 -0.1030779 0.04499558 1.7986841e-38
0.030717615 -0.1030779 0.04499558 2.2132353e-38
0.032437738 -0.1030779 0.04499558 2.2314948e-38
0.033904675 -0.10230236 0.048035596 2.3049624e-38
0.035619475 -0.10230236 0.048035596 2.3508439e-38
0.037334256 -0.10230236 0.048035596 2.2771602e-38
0.039049052 -0.10230236 0.048035596 2.2131277e-38
0.040499546 -0.10155563 0.05096266 2.158134e-38
0.042209201 -0.10155563 0.05096266 1.8823764e-38
0.043725006 -0.1010284 0.053029332 1.6706526e-38
0.04543104 -0.1010284 0.053029332 1.6246631e-38
0.046846084 -0.10026552 0.056019757 1.3756298e-38
0.048546873 -0.10026552 0.056019757 1.3476125e-38
0.050247662 -0.10026552 0.056019757 2.5923797e-39
0.051948465 -0.10026552 0.056019757 3.7162435e-42
0.053649254 -0.10026552 0.056019757 1.8882777e-40
0.055350043 -0.10026552 0.056019757 4.6102719e-43
0.057050847 -0.10026552 0.056019757 1.2025831e-39
0.058751635 -0.10026552 0.056019757 4.8921782e-39
0.060452424 -0.10026552 0.056019757 1.4851097e-38
0.062153228 -0.10026552 0.056019757 1.4485557e-38
0.063854016 -0.10026552 0.056019757 1.8910577e-38
0.065903492 -0.1010284 0.053029332 2.0015832e-38
0.067854114 -0.10155563 0.05096266 1.8723669e-38
0.07028044 -0.1030779 0.04499558 1.7799191e-38
0.072724886 -0.10459428 0.039051507 1.9917164e-38
0.075078569 -0.10588033 0.034010325 2.194366e-38
0.076817952 -0.10588033 0.034010325 2.3417333e-38
0.078942485 -0.10665329 0.030980442 2.267942e-38
0.080687188 -0.10665329 0.030980442 2.3232585e-38
0.082431875 -0.10665329 0.030980442 2.1388335e-38
0.084567063 -0.10740583 0.028030667 1.2077311e-38
0.087128721 -0.10894983 0.021978352 6.8232543e-39
0.088889204 -0.10894983 0.021978352 3.8730082e-39
0.091465034 -0.11046107 0.016054366 3.8740984e-39
0.093235902 -0.11046107 0.016054366 4.7031346e-39
0.095867269 -0.11201639 0.0099577643 4.5176391e-39
0.098073669 -0.11277486 0.0069846846 8.3887626e-39
0.10029302 -0.11353777 0.0039940812 1.0878047e-38
0.10252545 -0.11430521 0.00098583475 1.2814156e-38
0.10477104 -0.11507715 -0.0020400546 1.4658068e-38
0.10657363 -0.11507715 -0.0020400546 1.4381481e-38
0.10882192 -0.11582683 -0.0049786828 1.1892199e-38
0.11062966 -0.11582683 -0.0049786828 8.7575451e-39
0.11291244 -0.11660783 -0.0080400966 8.2965641e-39
-0.12877163 -0.13278268 -0.063952118 1.0046438e-38
-0.1268605 -0.13278268 -0.063952118 1.0047163e-38
-0.12494934 -0.13278268 -0.063952118 1.1247154e-38
-0.1230382 -0.13278268 -0.063952118 1.0325927e-38
-0.12112705 -0.13278268 -0.063952118 6.4540584e-40
-0.11921591 -0.13278268 -0.063952118 9.213061e-40
-0.11730476 -0.13278268 -0.063952118 1.0124409e-39
-0.11521106 -0.13202934 -0.061019208 8.4077908e-44
-0.11330507 -0.13202934 -0.061019208 1.013907e-38
-0.11139906 -0.13202934 -0.061019208 2.0189423e-38
-0.10949305 -0.13202934 -0.061019208 2.1848922e-38
-0.10741951 -0.1312501 -0.05798557 2.1481216e-38
-0.10530805 -0.13023765 -0.054044034 2.0928761e-38
-0.10341427 -0.13023765 -0.054044034 2.3234376e-38
-0.10137085 -0.1294684 -0.051049139 2.3142541e-38
-0.09948232 -0.1294684 -0.051049139 2.2222384e-38
-0.097407706 -0.12843956 -0.047043826 2.2867037e-38
-0.095526204 -0.12843956 -0.047043826 2.2130191e-38
-0.093644701 -0.12843956 -0.047043826 2.286632e-38
-0.091636732 -0.12765111 -0.043974306 2.231171e-38
-0.089644656 -0.1268961 -0.041034963 2.2310994e-38
-0.087773696 -0.1268961 -0.041034963 2.3509168e-38
-0.085757405 -0.12585752 -0.036991622 2.3509168e-38
-0.083893523 -0.12585752 -0.036991622 2.3048197e-38
-0.081931934 -0.12508373 -0.033979204 2.2403555e-38
-0.080073342 -0.12508373 -0.033979204 2.2497184e-38
-0.078214757 -0.12508373 -0.033979204 2.0378499e-38
-0.076356165 -0.12508373 -0.033979204 1.8811912e-38
-0.074421421 -0.12431435 -0.030983832 3.5081745e-39
-0.072568074 -0.12431435 -0.030983832 7.0064923e-44
-0.070714742 -0.12431435 -0.030983832 1.2022314e-39
-0.068801343 -0.1235493 -0.028005388 4.6396011e-40
-0.066953227 -0.1235493 -0.028005388 1.9085685e-42
-0.06510511 -0.1235493 -0.028005388 2.4004383e-39
-0.063196562 -0.12250783 -0.023950841 8.6697411e-39
-0.061355554 -0.12250783 -0.023950841 1.0974626e-38
-0.059481047 -0.12175287 -0.021011736 9.5920477e-39
-0.057645191 -0.12175287 -0.021011736 5.8120227e-39
-0.055785425 -0.12097444 -0.017981198 9.2565433e-40
-0.053936392 -0.12020047 -0.014968064 1.8737462e-40
-0.052111134 -0.12020047 -0.014968064 7.4019528e-40
-0.050277993 -0.11943097 -0.011972334 1.2011776e-39
-0.048457988 -0.11943097 -0.011972334 6.4980592e-40
-0.046641428 -0.11842094 -0.0080400966 1.016642e-40
-0.044828318 -0.11842094 -0.0080400966 8.4066557e-40
-0.043028623 -0.11763458 -0.0049786828 1.1258032e-41
-0.041220881 -0.11763458 -0.0049786828 8.7384972e-42
-0.039413135 -0.11763458 -0.0049786828 8.4029983e-40
-0.037633728 -0.11687975 -0.0020400546 1.9455754e-39
-0.035831135 -0.11687975 -0.0020400546 3.6962176e-39
-0.034028545 -0.11687975 -0.0020400546 6.2773421e-39
-0.032225952 -0.11687975 -0.0020400546 6.368823e-39
-0.03042336 -0.11687975 -0.0020400546 3.3263701e-39
-0.028676474 -0.1161025 0.00098583475 2.3111419e-39
-0.026939843 -0.11532979 0.0039940812 2.4033348e-39
-0.025213376 -0.11456163 0.0069846846 3.5100369e-39
-0.023426607 -0.11456163 0.0069846846 2.9568575e-39
-0.021639837 -0.11456163 0.0069846846 2.6806223e-39
-0.019933868 -0.11379795 0.0099577643 1.8501316e-39
-0.018152311 -0.11379795 0.0099577643 5.0744479e-39
-0.016370755 -0.11379795 0.0099577643 7.2853339e-39
-0.014688373 -0.1130126 0.013015244 8.3923877e-39
-0.013016086 -0.11223195 0.016054366 9.4980038e-39
-0.011245221 -0.11223195 0.016054366 7.2856632e-39
-0.0095844455 -0.11148177 0.018974874 5.9020099e-39
-0.0078186989 -0.11148177 0.018974874 3.5042117e-39
-0.0061767064 -0.11071031 0.021978352 2.5815505e-39
-0.0044162273 -0.11071031 0.021978352 2.119513e-39
-0.0026557483 -0.11071031 0.021978352 1.84258e-39
-0.00089526922 -0.11071031 0.021978352 1.6581985e-39
0.00086520985 -0.11071031 0.021978352 2.027337e-39
0.0024764948 -0.10994337 0.024964068 3.7794029e-39
0.0042317398 -0.10994337 0.024964068 6.7310839e-39
0.0058229938 -0.10915567 0.028030667 6.91618e-39
0.0074099451 -0.10839801 0.030980442 5.6286782e-39
0.0089819878 -0.10761972 0.034010325 1.3909415e-39
0.010544486 -0.10684617 0.037021849 6.530261e-40
0.01227859 -0.10684617 0.037021849 1.6642984e-39
0.014012694 -0.10684617 0.037021849 5.3485348e-39
0.015746798 -0.10684617 0.037021849 5.0690879e-39
0.017347451 -0.10632484 0.039051507 3.039719e-39
0.019077998 -0.10632484 0.039051507 2.4872725e-39
0.020808537 -0.10632484 0.039051507 1.1079282e-39
0.022327404 -0.10555913 0.042032514 1.2047804e-39
0.024052721 -0.10555913 0.042032514 5.5000965e-42
0.025557246 -0.104798 0.04499558 2.8783091e-40
0.027277369 -0.104798 0.04499558 1.3563632e-38
0.028997492 -0.104798 0.04499558 1.9370114e-38
0.030717615 -0.104798 0.04499558 2.1763935e-38
0.032437738 -0.104798 0.04499558 2.2130918e-38
0.033904675 -0.10401715 0.048035596 2.2958873e-38
0.035619475 -0.10401715 0.048035596 2.2958873e-38
0.037080221 -0.1032653 0.05096266 2.2591531e-38
0.038789876 -0.1032653 0.05096266 2.1856847e-38
0.040499546 -0.1032653 0.05096266 2.0938492e-38
0.042018972 -0.10273445 0.053029332 1.781178e-38
0.043725006 -0.10273445 0.053029332 1.5509077e-38
0.04543104 -0.10273445 0.053029332 1.5602706e-38
0.046846084 -0.10196631 0.056019757 1.4403462e-38
0.048546873 -0.10196631 0.056019757 1.200351e-38
0.049948014 -0.10120286 0.058991943 5.822461e-39
0.051643603 -0.10120286 0.058991943 2.7757032e-39
0.053339191 -0.10120286 0.058991943 4.6757546e-40
0.055350043 -0.10196631 0.056019757 2.9847657e-42
0.057050847 -0.10196631 0.056019757 2.0319907e-39
0.058751635 -0.10196631 0.056019757 4.9829445e-39
0.060452424 -0.10196631 0.056019757 1.6600296e-38
0.062153228 -0.10196631 0.056019757 1.8261245e-38
0.063854016 -0.10196631 0.056019757 1.9828923e-38
0.065903492 -0.10273445 0.053029332 2.1579547e-38
0.067854114 -0.1032653 0.05096266 2.1578829e-38
0.07028044 -0.104798 0.04499558 2.2222754e-38
0.072724886 -0.10632484 0.039051507 2.2406066e-38
0.075078569 -0.10761972 0.034010325 2.3050349e-38
0.076817952 -0.10761972 0.034010325 2.3141466e-38
0.078557335 -0.10761972 0.034010325 2.341805e-38
0.080687188 -0.10839801 0.030980442 2.2219513e-38
0.082431875 -0.10839801 0.030980442 2.1667066e-38
0.084567063 -0.10915567 0.028030667 1.5305579e-38
0.086728252 -0.10994337 0.024964068 1.217202e-38
0.088889204 -0.11071031 0.021978352 5.9038078e-39
0.091063075 -0.11148177 0.018974874 4.3364933e-39
0.093235902 -0.11223195 0.016054366 4.428326e-39
0.095867269 -0.11379795 0.0099577643 6.3619006e-39
0.098073669 -0.11456163 0.0069846846 1.041814e-38
0.10029302 -0.11532979 0.0039940812 1.2538642e-38
0.10252545 -0.1161025 0.00098583475 1.447475e-38
0.10477104 -0.11687975 -0.0020400546 1.5396709e-38
0.10701417 -0.11763458 -0.0049786828 1.4105615e-38
0.10882192 -0.11763458 -0.0049786828 1.1431941e-38
0.11109933 -0.11842094 -0.0080400966 8.2054503e-39
0.11291244 -0.11842094 -0.0080400966 7.0069043e-39
-0.12907076 -0.13573201 -0.067966491 1.1153862e-38
-0.12715259 -0.13573201 -0.067966491 1.1430813e-38
-0.12494934 -0.13469382 -0.063952118 1.2630085e-38
-0.1230382 -0.13469382 -0.063952118 9.7727508e-39
-0.12112705 -0.13469382 -0.063952118 1.2914913e-39
-0.11921591 -0.13469382 -0.063952118 1.8446132e-40
-0.11711707 -0.13393532 -0.061019208 5.525446e-40
-0.11521106 -0.13393532 -0.061019208 2.7560038e-40
-0.11330507 -0.13393532 -0.061019208 7.8349063e-39
-0.11139906 -0.13393532 -0.061019208 1.5948438e-38
-0.10949305 -0.13393532 -0.061019208 1.7240231e-38
-0.10741951 -0.13315077 -0.05798557 1.724058e-38
-0.10530805 -0.13213144 -0.054044034 2.1205708e-38
-0.10341427 -0.13213144 -0.054044034 2.2406049e-38
-0.10137085 -0.13135691 -0.051049139 2.2222381e-38
-0.099289201 -0.13032107 -0.047043826 2.27752e-38
-0.097407706 -0.13032107 -0.047043826 2.2407494e-38
-0.095526204 -0.13032107 -0.047043826 2.2222747e-38
-0.093644701 -0.13032107 -0.047043826 2.3142544e-38
-0.091636732 -0.12952723 -0.043974306 2.341805e-38
-0.089485146 -0.12772138 -0.036991622 2.3509527e-38
-0.087621272 -0.12772138 -0.036991622 2.3232227e-38
-0.085757405 -0.12772138 -0.036991622 2.2771256e-38
-0.083893523 -0.12772138 -0.036991622 2.3509168e-38
-0.081931934 -0.12694232 -0.033979204 2.3233303e-38
-0.080073342 -0.12694232 -0.033979204 2.3050349e-38
-0.078214757 -0.12694232 -0.033979204 1.4385426e-38
-0.076356165 -0.12694232 -0.033979204 1.0515028e-38
-0.074421421 -0.12616767 -0.030983832 6.3669607e-39
-0.072568074 -0.12616767 -0.030983832 1.5720817e-39
-0.070714742 -0.12616767 -0.030983832 4.0511539e-42
-0.068801343 -0.1253974 -0.028005388 8.3310697e-40
-0.066953227 -0.1253974 -0.028005388 1.8738864e-40
-0.065037571 -0.12434883 -0.023950841 8.3937778e-43
-0.063196562 -0.12434883 -0.023950841 7.1942593e-39
-0.061316904 -0.12358873 -0.021011736 1.0605492e-38
-0.05944651 -0.12280498 -0.017981198 8.0243689e-39
-0.057615966 -0.12280498 -0.017981198 2.6773755e-39
-0.055785425 -0.12280498 -0.017981198 3.7248055e-40
-0.053936392 -0.12202574 -0.014968064 4.6467618e-40
-0.052111134 -0.12202574 -0.014968064 8.334587e-40
-0.050277993 -0.121251 -0.011972334 8.334629e-40
-0.048457988 -0.121251 -0.011972334 9.7336994e-41
-0.046641428 -0.12023406 -0.0080400966 6.5804976e-42
-0.044828318 -0.12023406 -0.0080400966 1.0181835e-41
-0.043028623 -0.11944233 -0.0049786828 6.2259691e-42
-0.041220881 -0.11944233 -0.0049786828 7.3077715e-42
-0.039436318 -0.11868234 -0.0020400546 2.4991051e-39
-0.037633728 -0.11868234 -0.0020400546 6.3713188e-39
-0.03586562 -0.11789979 0.00098583475 7.753177e-39
-0.034068335 -0.11789979 0.00098583475 5.4479345e-39
-0.032271046 -0.11789979 0.00098583475 2.4044138e-39
-0.030473761 -0.11789979 0.00098583475 5.1735939e-42
-0.028731856 -0.1171218 0.0039940812 1.0204031e-39
-0.027000144 -0.1163484 0.0069846846 5.722732e-39
-0.025278535 -0.1155795 0.0099577643 9.226512e-39
-0.02349698 -0.1155795 0.0099577643 9.7800389e-39
-0.021639837 -0.1163484 0.0069846846 1.0148824e-38
-0.019933868 -0.1155795 0.0099577643 1.0607991e-38
-0.018152311 -0.1155795 0.0099577643 8.9455699e-39
-0.016370755 -0.1155795 0.0099577643 1.0880222e-38
-0.014688373 -0.11478879 0.013015244 1.1801814e-38
-0.013016086 -0.11400281 0.016054366 1.392267e-38
-0.011350192 -0.11324753 0.018974874 1.4474764e-38
-0.0095844455 -0.11324753 0.018974874 1.4474767e-38
-0.0079371892 -0.11247079 0.021978352 1.1984777e-38
-0.0061767064 -0.11247079 0.021978352 1.0785885e-38
-0.0044162273 -0.11247079 0.021978352 1.0508594e-38
-0.0027892403 -0.11169861 0.024964068 5.3452894e-39
-0.0010339953 -0.11169861 0.024964068 2.580145e-39
0.00072124973 -0.11169861 0.024964068 2.9489275e-39
0.0024764948 -0.11169861 0.024964068 3.7797588e-39
0.0042317398 -0.11169861 0.024964068 4.2414488e-39
0.0059869848 -0.11169861 0.024964068 5.348504e-39
0.0074099451 -0.11014269 0.030980442 1.3464956e-38
0.0091546401 -0.11014269 0.030980442 1.2362217e-38
0.010721374 -0.1093591 0.034010325 1.0150249e-38
0.01227859 -0.10858028 0.037021849 6.0904103e-39
0.014012694 -0.10858028 0.037021849 3.7105262e-40
0.015746798 -0.10858028 0.037021849 1.1050387e-39
0.017480899 -0.10858028 0.037021849 1.7500592e-39
0.019077998 -0.10805537 0.039051507 1.1983288e-39
0.020808537 -0.10805537 0.039051507 1.2233336e-42
0.022327404 -0.10728444 0.042032514 3.7431204e-40
0.024052721 -0.10728444 0.042032514 2.9903709e-42
0.025557246 -0.10651813 0.04499558 3.7931888e-40
0.027277369 -0.10651813 0.04499558 1.7067052e-38
0.028997492 -0.10651813 0.04499558 2.1489505e-38
0.030717615 -0.10651813 0.04499558 2.1211846e-38
0.032437738 -0.10651813 0.04499558 1.8166892e-38
0.033904675 -0.10573195 0.048035596 1.6968334e-38
0.035619475 -0.10573195 0.048035596 1.6233635e-38
0.037080221 -0.10497494 0.05096266 1.7527255e-38
0.038789876 -0.10497494 0.05096266 1.7252844e-38
0.040312923 -0.10444047 0.053029332 1.5043044e-38
0.042018972 -0.10444047 0.053029332 1.1819448e-38
0.043725006 -0.10444047 0.053029332 1.1269157e-38
0.045145281 -0.1036671 0.056019757 1.3298182e-38
0.046846084 -0.1036671 0.056019757 1.2929048e-38
0.048252441 -0.10289843 0.058991943 1.3019097e-38
0.049948014 -0.10289843 0.058991943 8.2220599e-39
0.051643603 -0.10289843 0.058991943 4.2533472e-39
0.053339191 -0.10289843 0.058991943 1.9278644e-40
0.055350043 -0.1036671 0.056019757 4.0665681e-42
0.057050847 -0.1036671 0.056019757 1.1096798e-39
0.058751635 -0.1036671 0.056019757 2.952491e-39
0.060452424 -0.1036671 0.056019757 1.678145e-38
0.062153228 -0.1036671 0.056019757 1.9640568e-38
0.063854016 -0.1036671 0.056019757 2.0286643e-38
0.065903492 -0.10444047 0.053029332 2.2037639e-38
0.067609526 -0.10444047 0.053029332 2.3142544e-38
0.069915332 -0.10573195 0.048035596 2.2774481e-38
0.072724886 -0.10805537 0.039051507 2.2774116e-38
0.075078569 -0.1093591 0.034010325 2.3142539e-38
0.076817952 -0.1093591 0.034010325 2.3234374e-38
0.078557335 -0.1093591 0.034010325 2.2589724e-38
0.080687188 -0.11014269 0.030980442 2.0746175e-38
0.082431875 -0.11014269 0.030980442 2.0746901e-38
0.084567063 -0.11090554 0.028030667 1.4293576e-38
0.086316921 -0.11090554 0.028030667 1.2174167e-38
0.088889204 -0.11247079 0.021978352 5.4438946e-39
0.091063075 -0.11324753 0.018974874 3.4163208e-39
0.093235902 -0.11400281 0.016054366 2.7698696e-39
0.095867269 -0.1155795 0.0099577643 5.9023518e-39
0.098073669 -0.1163484 0.0069846846 9.5887351e-39
0.10029302 -0.1171218 0.0039940812 1.1524843e-38
0.10252545 -0.11789979 0.00098583475 1.4382552e-38
0.10477104 -0.11868234 -0.0020400546 1.512012e-38
0.10701417 -0.11944233 -0.0049786828 1.2815232e-38
0.10882192 -0.11944233 -0.0049786828 1.1339746e-38
0.11109933 -0.12023406 -0.0080400966 9.3114419e-39
0.11291244 -0.12023406 -0.0080400966 8.1132547e-39
-0.12907076 -0.13765021 -0.067966491 1.1707392e-38
-0.12715259 -0.13765021 -0.067966491 1.1523366e-38
-0.12494934 -0.13660498 -0.063952118 1.1616647e-38
-0.1230382 -0.13660498 -0.063952118 7.9299116e-39
-0.12112705 -0.13660498 -0.063952118 1.66135e-39
-0.11921591 -0.13660498 -0.063952118 1.5077971e-42
-0.11711707 -0.13584132 -0.061019208 3.6923654e-40
-0.11521106 -0.13584132 -0.061019208 1.0135368e-39
-0.11330507 -0.13584132 -0.061019208 4.4247611e-39
-0.11139906 -0.13584132 -0.061019208 7.8359601e-39
-0.10949305 -0.13584132 -0.061019208 9.6802034e-39
-0.10741951 -0.13505147 -0.05798557 1.3185065e-38
-0.10530805 -0.1340252 -0.054044034 1.9086656e-38
-0.10341427 -0.1340252 -0.054044034 1.7059431e-38
-0.10137085 -0.13324542 -0.051049139 1.8627839e-38
-0.099289201 -0.13220255 -0.047043826 2.2039797e-38
-0.097407706 -0.13220255 -0.047043826 1.9734907e-38
-0.095526204 -0.13220255 -0.047043826 2.028736e-38
-0.093644701 -0.13220255 -0.047043826 2.2222032e-38
-0.091636732 -0.13140334 -0.043974306 2.2589017e-38
-0.089485146 -0.12958528 -0.036991622 2.3325138e-38
-0.087621272 -0.12958528 -0.036991622 2.3047837e-38
-0.085757405 -0.12958528 -0.036991622 2.3416615e-38
-0.083893523 -0.12958528 -0.036991622 2.3509527e-38
-0.081931934 -0.12880091 -0.033979204 2.3234379e-38
-0.080073342 -0.12880091 -0.033979204 2.3142544e-38
-0.078214757 -0.12880091 -0.033979204 1.4754563e-38
-0.076356165 -0.12880091 -0.033979204 9.3172069e-39
-0.074497573 -0.12880091 -0.033979204 8.1194022e-39
-0.072638981 -0.12880091 -0.033979204 2.955742e-39
-0.070714742 -0.12802102 -0.030983832 4.4168928e-42
-0.068801343 -0.12724553 -0.028005388 8.3383284e-40
-0.066953227 -0.12724553 -0.028005388 7.4128549e-40
-0.065037571 -0.12618984 -0.023950841 1.2331426e-43
-0.063196562 -0.12618984 -0.023950841 7.0105939e-39
-0.061316904 -0.12542458 -0.021011736 9.9608485e-39
-0.05944651 -0.12463553 -0.017981198 7.0109414e-39
-0.057615966 -0.12463553 -0.017981198 1.7561423e-39
-0.055785425 -0.12463553 -0.017981198 4.7798291e-42
-0.053936392 -0.12385099 -0.014968064 3.7391548e-40
-0.052111134 -0.12385099 -0.014968064 4.661083e-40
-0.050277993 -0.123071 -0.011972334 4.661083e-40
-0.048457988 -0.123071 -0.011972334 6.5720898e-42
-0.046641428 -0.12204717 -0.0080400966 7.6524909e-42
-0.044836368 -0.12125005 -0.0049786828 8.3825674e-42
-0.043041505 -0.12048493 -0.0020400546 8.3887892e-40
-0.041238911 -0.12048493 -0.0020400546 3.6958644e-39
-0.039436318 -0.12048493 -0.0020400546 5.724876e-39
-0.037633728 -0.12048493 -0.0020400546 8.5832908e-39
-0.03586562 -0.11969708 0.00098583475 8.8598763e-39
-0.034068335 -0.11969708 0.00098583475 3.0512027e-39
-0.032271046 -0.11969708 0.00098583475 2.2196666e-39
-0.030473761 -0.11969708 0.00098583475 6.2596002e-42
-0.028731856 -0.11891381 0.0039940812 1.29699e-39
-0.027000144 -0.11813517 0.0069846846 6.6446827e-39
-0.025278535 -0.11736105 0.0099577643 9.687479e-39
-0.02349698 -0.11736105 0.0099577643 9.7800277e-39
-0.021639837 -0.11813517 0.0069846846 9.4108935e-39
-0.019933868 -0.11736105 0.0099577643 1.0607993e-38
-0.018152311 -0.11736105 0.0099577643 8.9452182e-39
-0.016370755 -0.11736105 0.0099577643 1.0695129e-38
-0.014688373 -0.11656497 0.013015244 1.0418182e-38
-0.013016086 -0.11577369 0.016054366 1.1063195e-38
-0.011350192 -0.11501329 0.018974874 1.1062118e-38
-0.0095844455 -0.11501329 0.018974874 1.1983721e-38
-0.0079371892 -0.11423124 0.021978352 1.2075565e-38
-0.0061767064 -0.11423124 0.021978352 1.3828008e-38
-0.0045444854 -0.11345388 0.024964068 1.2260685e-38
-0.0027892403 -0.11345388 0.024964068 4.5166134e-39
-0.0010339953 -0.11345388 0.024964068 1.5670749e-39
0.00072124973 -0.11345388 0.024964068 3.5953759e-39
0.0024764948 -0.11345388 0.024964068 6.2704827e-39
0.0042317398 -0.11345388 0.024964068 4.9804572e-39
0.0058229938 -0.11265542 0.028030667 3.0447035e-39
0.0075728633 -0.11265542 0.028030667 1.6693244e-38
0.0091546401 -0.11188738 0.030980442 1.8542159e-38
0.010721374 -0.11109848 0.034010325 1.6144735e-38
0.012460757 -0.11109848 0.034010325 8.7658618e-39
0.014012694 -0.11031438 0.037021849 2.6134216e-42
0.015746798 -0.11031438 0.037021849 1.2919271e-39
0.017480899 -0.11031438 0.037021849 1.2908593e-39
0.019077998 -0.10978593 0.039051507 1.2079193e-42
0.020808537 -0.10978593 0.039051507 1.108996e-39
0.022539083 -0.10978593 0.039051507 4.4491226e-42
0.024052721 -0.10900976 0.042032514 2.9973774e-42
0.025557246 -0.10823826 0.04499558 1.1161679e-39
0.027277369 -0.10823826 0.04499558 1.6974857e-38
0.028997492 -0.10823826 0.04499558 2.0753027e-38
0.030717615 -0.10823826 0.04499558 1.9921844e-38
0.032437738 -0.10823826 0.04499558 1.7153821e-38
0.033904675 -0.10744675 0.048035596 1.5310619e-38
0.035619475 -0.10744675 0.048035596 1.3104027e-38
0.037080221 -0.10668461 0.05096266 1.4673873e-38
0.038789876 -0.10668461 0.05096266 1.4766809e-38
0.040312923 -0.1061465 0.053029332 1.3569357e-38
0.042018972 -0.1061465 0.053029332 1.1542861e-38
0.043725006 -0.1061465 0.053029332 1.1176239e-38
0.045145281 -0.10536788 0.056019757 1.2652449e-38
0.046846084 -0.10536788 0.056019757 1.2376226e-38
0.048252441 -0.10459404 0.058991943 1.3666257e-38
0.049948014 -0.10459404 0.058991943 1.099044e-38
0.051643603 -0.10459404 0.058991943 6.8369786e-39
0.053339191 -0.10459404 0.058991943 9.8301087e-42
0.055034764 -0.10459404 0.058991943 2.2673009e-42
0.056730352 -0.10459404 0.058991943 1.5699447e-39
0.058425941 -0.10459404 0.058991943 2.9499799e-39
0.060452424 -0.10536788 0.056019757 1.6778216e-38
0.062153228 -0.10536788 0.056019757 2.2126246e-38
0.063854016 -0.10536788 0.056019757 2.1849999e-38
0.065903492 -0.1061465 0.053029332 2.1020238e-38
0.067609526 -0.1061465 0.053029332 2.3233652e-38
0.069915332 -0.10744675 0.048035596 2.2311696e-38
0.072724886 -0.10978593 0.039051507 2.3418045e-38
0.074706323 -0.11031438 0.037021849 2.30507e-38
0.076817952 -0.11109848 0.034010325 2.3142541e-38
0.078557335 -0.11109848 0.034010325 2.166921e-38
0.080687188 -0.11188738 0.030980442 2.0194443e-38
0.082431875 -0.11188738 0.030980442 1.8719677e-38
0.084567063 -0.11265542 0.028030667 9.6852341e-39
0.086316921 -0.11265542 0.028030667 7.8416886e-39
0.08848349 -0.11345388 0.024964068 4.3389792e-39
0.090649687 -0.11423124 0.021978352 5.1683867e-39
0.093235902 -0.11577369 0.016054366 4.9829164e-39
0.095867269 -0.11736105 0.0099577643 6.1789359e-39
0.098073669 -0.11813517 0.0069846846 8.3909093e-39
0.10072816 -0.11969708 0.00098583475 9.4968996e-39
0.10296846 -0.12048493 -0.0020400546 1.3922293e-38
0.10477104 -0.12048493 -0.0020400546 1.5397425e-38
0.10701417 -0.12125005 -0.0049786828 1.1985831e-38
0.10928621 -0.12204717 -0.0080400966 1.0418508e-38
0.1117026 -0.123071 -0.011972334 8.6667914e-39
0.11352261 -0.123071 -0.011972334 6.3619006e-39
-0.12930101 -0.14037828 -0.071056277 1.0970187e-38
-0.12737742 -0.14037828 -0.071056277 1.0602486e-38
-0.12494934 -0.13851611 -0.063952118 9.4968631e-39
-0.1230382 -0.13851611 -0.063952118 7.0086727e-39
-0.12112705 -0.13851611 -0.063952118 1.2932864e-39
-0.11921591 -0.13851611 -0.063952118 2.7881495e-40
-0.11730476 -0.13851611 -0.063952118 8.3093776e-40
-0.11521106 -0.13774733 -0.061019208 1.5670777e-39
-0.11330507 -0.13774733 -0.061019208 1.6589034e-39
-0.11139906 -0.13774733 -0.061019208 9.2130189e-40
-0.10949305 -0.13774733 -0.061019208 3.4116405e-39
-0.10741951 -0.13695215 -0.05798557 8.5760209e-39
-0.10551883 -0.13695215 -0.05798557 1.8165436e-38
-0.10341427 -0.13591899 -0.054044034 1.7520785e-38
-0.10137085 -0.13513394 -0.051049139 1.7522224e-38
-0.099289201 -0.13408406 -0.047043826 1.9735997e-38
-0.097407706 -0.13408406 -0.047043826 1.8260867e-38
-0.095526204 -0.13408406 -0.047043826 1.91821e-38
-0.093644701 -0.13408406 -0.047043826 1.9365052e-38
-0.091636732 -0.13327946 -0.043974306 2.0008261e-38
-0.089485146 -0.13144915 -0.036991622 1.6411912e-38
-0.087621272 -0.13144915 -0.036991622 2.0744384e-38
-0.085757405 -0.13144915 -0.036991622 2.2588296e-38
-0.083893523 -0.13144915 -0.036991622 2.2127317e-38
-0.081931934 -0.13065951 -0.033979204 2.12068e-38
-0.080073342 -0.13065951 -0.033979204 2.1853248e-38
-0.078214757 -0.13065951 -0.033979204 2.2315665e-38
-0.076356165 -0.13065951 -0.033979204 1.6969808e-38
-0.074497573 -0.13065951 -0.033979204 7.750628e-39
-0.072568074 -0.12987436 -0.030983832 6.5121422e-40
-0.070714742 -0.12987436 -0.030983832 7.4234207e-40
-0.068801343 -0.12909363 -0.028005388 9.6267803e-41
-0.06687858 -0.12803085 -0.023950841 3.7204474e-42
-0.065037571 -0.12803085 -0.023950841 1.8811451e-40
-0.06315276 -0.12726043 -0.021011736 8.5779168e-39
-0.061316904 -0.12726043 -0.021011736 1.0698414e-38
-0.059481047 -0.12726043 -0.021011736 7.6563109e-39
-0.057615966 -0.12646608 -0.017981198 3.5078592e-39
-0.055785425 -0.12646608 -0.017981198 1.8917109e-40
-0.053936392 -0.12567626 -0.014968064 3.7391548e-40
-0.052111134 -0.12567626 -0.014968064 2.8243591e-40
-0.050277993 -0.124891 -0.011972334 3.7463154e-40
-0.048457988 -0.124891 -0.011972334 5.5974307e-40
-0.046644114 -0.1230578 -0.0049786828 1.2061971e-39
-0.044844098 -0.12228753 -0.0020400546 4.6900339e-40
-0.043041505 -0.12228753 -0.0020400546 2.6809965e-39
-0.041238911 -0.12228753 -0.0020400546 8.3056487e-39
-0.039436318 -0.12228753 -0.0020400546 9.5048968e-39
-0.037662908 -0.12149437 0.00098583475 8.2145083e-39
-0.03586562 -0.12149437 0.00098583475 6.2783959e-39
-0.034068335 -0.12149437 0.00098583475 2.8533099e-40
-0.032271046 -0.12149437 0.00098583475 4.6794961e-40
-0.030473761 -0.12149437 0.00098583475 2.6806489e-39
-0.028731856 -0.12070583 0.0039940812 4.8926168e-39
-0.027000144 -0.11992194 0.0069846846 7.3826008e-39
-0.025213376 -0.11992194 0.0069846846 7.3829385e-39
-0.023426607 -0.11992194 0.0069846846 6.5528135e-39
-0.021639837 -0.11992194 0.0069846846 6.1836793e-39
-0.019853069 -0.11992194 0.0069846846 8.8555575e-39
-0.018152311 -0.11914261 0.0099577643 4.8893377e-39
-0.016370755 -0.11914261 0.0099577643 5.5332666e-39
-0.014688373 -0.11834116 0.013015244 3.5968067e-39
-0.013016086 -0.11754455 0.016054366 3.5031803e-39
-0.011350192 -0.11677901 0.018974874 2.8578165e-39
-0.0095844455 -0.11677901 0.018974874 3.2262445e-39
-0.0079371892 -0.11599173 0.021978352 3.9634536e-39
-0.0061767064 -0.11599173 0.021978352 7.2835753e-39
-0.0045444854 -0.11520912 0.024964068 7.9293006e-39
-0.0027892403 -0.11520912 0.024964068 3.0436497e-39
-0.0010339953 -0.11520912 0.024964068 1.5695958e-39
0.00072124973 -0.11520912 0.024964068 4.7053234e-39
0.0024764948 -0.11520912 0.024964068 8.3013089e-39
0.0042317398 -0.11520912 0.024964068 7.933604e-39
0.0058229938 -0.11440529 0.028030667 5.906019e-39
0.0075728633 -0.11440529 0.028030667 2.0290621e-38
0.0091546401 -0.11363207 0.030980442 1.974176e-38
0.010721374 -0.11283787 0.034010325 1.9004565e-38
0.012460757 -0.11283787 0.034010325 1.0426459e-38
0.014012694 -0.11204849 0.037021849 2.249084e-42
0.015746798 -0.11204849 0.037021849 9.4817459e-41
0.017480899 -0.11204849 0.037021849 9.242236e-40
0.019215006 -0.11204849 0.037021849 6.4800245e-40
0.020808537 -0.11151646 0.039051507 2.1242199e-39
0.022539083 -0.11151646 0.039051507 9.8081083e-41
0.024052721 -0.11073507 0.042032514 5.6121303e-40
0.025778044 -0.11073507 0.042032514 4.5274034e-39
0.027277369 -0.1099584 0.04499558 1.5776683e-38
0.028997492 -0.1099584 0.04499558 1.6143999e-38
0.030717615 -0.1099584 0.04499558 1.6143623e-38
0.032437738 -0.1099584 0.04499558 1.7524036e-38
0.033904675 -0.10916151 0.048035596 1.9092798e-38
0.035619475 -0.10916151 0.048035596 1.6793657e-38
0.037080221 -0.10839428 0.05096266 1.6704701e-38
0.038789876 -0.10839428 0.05096266 1.6795114e-38
0.040312923 -0.10785256 0.053029332 1.7625239e-38
0.042018972 -0.10785256 0.053029332 1.6888044e-38
0.043725006 -0.10785256 0.053029332 1.4492758e-38
0.045145281 -0.1070687 0.056019757 1.3664434e-38
0.046846084 -0.1070687 0.056019757 1.3020149e-38
0.048252441 -0.10628961 0.058991943 1.2099283e-38
0.049948014 -0.10628961 0.058991943 1.2006023e-38
0.051643603 -0.10628961 0.058991943 9.5128029e-39
0.053339191 -0.10628961 0.058991943 3.8112796e-40
0.055034764 -0.10628961 0.058991943 1.1840972e-42
0.056730352 -0.10628961 0.058991943 2.5840967e-39
0.058425941 -0.10628961 0.058991943 3.3169688e-39
0.060121514 -0.10628961 0.058991943 1.4747398e-38
0.062153228 -0.1070687 0.056019757 2.018798e-38
0.063854016 -0.1070687 0.056019757 2.3046024e-38
0.065903492 -0.10785256 0.053029332 2.3139298e-38
0.067854114 -0.10839428 0.05096266 2.3509524e-38
0.07028044 -0.1099584 0.04499558 2.0559623e-38
0.072724886 -0.11151646 0.039051507 2.0100086e-38
0.074706323 -0.11204849 0.037021849 1.7520409e-38
0.076440416 -0.11204849 0.037021849 1.8166143e-38
0.078557335 -0.11283787 0.034010325 1.7890998e-38
0.080296718 -0.11283787 0.034010325 1.7706973e-38
0.0820361 -0.11283787 0.034010325 1.577051e-38
0.084176578 -0.11363207 0.030980442 6.0906947e-39
0.086316921 -0.11440529 0.028030667 4.1545879e-39
0.08848349 -0.11520912 0.024964068 3.3244713e-39
0.090238743 -0.11520912 0.024964068 4.7996042e-39
0.092828818 -0.11677901 0.018974874 4.4297427e-39
0.095435731 -0.11834116 0.013015244 6.9172198e-39
0.098073669 -0.11992194 0.0069846846 8.2983564e-39
0.10029302 -0.12070583 0.0039940812 8.2061636e-39
0.10296846 -0.12228753 -0.0020400546 1.3461317e-38
0.10477104 -0.12228753 -0.0020400546 1.5304874e-38
0.10701417 -0.1230578 -0.0049786828 1.0971682e-38
0.10882192 -0.1230578 -0.0049786828 8.3902045e-39
0.1117026 -0.124891 -0.011972334 5.4399443e-39
0.11352261 -0.124891 -0.011972334 4.7945749e-39
-0.1268605 -0.14042725 -0.063952118 1.2077616e-38
-0.12494934 -0.14042725 -0.063952118 1.0234428e-38
-0.1230382 -0.14042725 -0.063952118 7.6554771e-39
-0.12112705 -0.14042725 -0.063952118 3.2650254e-42
-0.11921591 -0.14042725 -0.063952118 2.7953382e-40
-0.11730476 -0.14042725 -0.063952118 1.0160479e-39
-0.11521106 -0.13965334 -0.061019208 7.3840161e-40
-0.11330507 -0.13965334 -0.061019208 5.5364602e-40
-0.11139906 -0.13965334 -0.061019208 7.1466222e-44
-0.10949305 -0.13965334 -0.061019208 2.5826155e-39
-0.10741951 -0.13885282 -0.05798557 5.9027288e-39
-0.10551883 -0.13885282 -0.05798557 1.3372724e-38
-0.10341427 -0.13781275 -0.054044034 1.7245661e-38
-0.10137085 -0.13702248 -0.051049139 1.7891747e-38
-0.099289201 -0.13596557 -0.047043826 1.8445636e-38
-0.097407706 -0.13596557 -0.047043826 1.9183555e-38
-0.095526204 -0.13596557 -0.047043826 1.9920758e-38
-0.093644701 -0.13596557 -0.047043826 1.9273944e-38
-0.091636732 -0.13515557 -0.043974306 2.120861e-38
-0.089644656 -0.13437997 -0.041034963 1.8257267e-38
-0.087773696 -0.13437997 -0.041034963 2.1299e-38
-0.085757405 -0.13331302 -0.036991622 1.9178496e-38
-0.083893523 -0.13331302 -0.036991622 1.8072504e-38
-0.082029656 -0.13331302 -0.036991622 2.0563581e-38
-0.080073342 -0.1325181 -0.033979204 2.2499688e-38
-0.078214757 -0.1325181 -0.033979204 2.1487711e-38
-0.076356165 -0.1325181 -0.033979204 1.8999184e-38
-0.074497573 -0.1325181 -0.033979204 7.9357452e-39
-0.072568074 -0.13172771 -0.030983832 6.2091535e-42
-0.07064946 -0.13094176 -0.028005388 7.4306093e-40
-0.068801343 -0.13094176 -0.028005388 4.0637655e-42
-0.06687858 -0.12987186 -0.023950841 1.891823e-40
-0.064988613 -0.12909628 -0.021011736 6.4944298e-40
-0.06315276 -0.12909628 -0.021011736 8.6704628e-39
-0.061316904 -0.12909628 -0.021011736 1.060657e-38
-0.059481047 -0.12909628 -0.021011736 7.6566654e-39
-0.057615966 -0.1282966 -0.017981198 5.4446863e-39
-0.055785425 -0.1282966 -0.017981198 9.7336994e-41
-0.053936392 -0.1275015 -0.014968064 3.7392388e-40
-0.052111134 -0.1275015 -0.014968064 1.9061022e-40
-0.050277993 -0.126711 -0.011972334 9.8414592e-41
-0.048457988 -0.126711 -0.011972334 4.6791598e-40
-0.046644114 -0.12486555 -0.0049786828 9.2889413e-40
-0.044844098 -0.12409012 -0.0020400546 3.0497608e-39
-0.043041505 -0.12409012 -0.0020400546 5.1695526e-39
-0.041238911 -0.12409012 -0.0020400546 1.0333587e-38
-0.039436318 -0.12409012 -0.0020400546 1.0887831e-38
-0.037662908 -0.12329166 0.00098583475 6.1862044e-39
-0.03586562 -0.12329166 0.00098583475 3.6047268e-39
-0.034068335 -0.12329166 0.00098583475 1.022896e-39
-0.032271046 -0.12329166 0.00098583475 1.9243471e-40
-0.030473761 -0.12329166 0.00098583475 6.3684699e-39
-0.028731856 -0.12249784 0.0039940812 7.4744489e-39
-0.027000144 -0.12170871 0.0069846846 5.7227152e-39
-0.025213376 -0.12170871 0.0069846846 3.9713373e-39
-0.023426607 -0.12170871 0.0069846846 4.2471969e-39
-0.021563808 -0.12249784 0.0039940812 3.7855055e-39
-0.019853069 -0.12170871 0.0069846846 5.8134548e-39
-0.018152311 -0.12092416 0.0099577643 3.4163713e-39
-0.016370755 -0.12092416 0.0099577643 3.0468783e-39
-0.014688373 -0.12011738 0.013015244 1.1104239e-39
-0.013016086 -0.11931543 0.016054366 2.3997348e-39
-0.011350192 -0.11854477 0.018974874 2.952201e-39
-0.0095844455 -0.11854477 0.018974874 2.3079133e-39
-0.0079371892 -0.11775221 0.021978352 1.385957e-39
-0.0061767064 -0.11775221 0.021978352 4.1525406e-39
-0.0045444854 -0.11696436 0.024964068 4.9826516e-39
-0.0027892403 -0.11696436 0.024964068 2.5869959e-39
-0.0010339953 -0.11696436 0.024964068 1.1129365e-39
0.00072124973 -0.11696436 0.024964068 4.8943936e-39
0.0024764948 -0.11696436 0.024964068 6.1851324e-39
0.0040731244 -0.11615516 0.028030667 6.0014628e-39
0.0058229938 -0.11615516 0.028030667 6.0021873e-39
0.0075728633 -0.11615516 0.028030667 1.6052915e-38
0.0091546401 -0.11537679 0.030980442 1.808334e-38
0.010721374 -0.11457725 0.034010325 1.7529816e-38
0.012460757 -0.11457725 0.034010325 9.7818158e-39
0.014012694 -0.1137826 0.037021849 4.6755304e-40
0.015746798 -0.1137826 0.037021849 2.6204281e-42
0.017480899 -0.1137826 0.037021849 1.0171353e-39
0.019215006 -0.1137826 0.037021849 1.4788323e-39
0.020808537 -0.11324702 0.039051507 4.6576919e-40
0.022539083 -0.11324702 0.039051507 5.5225172e-42
0.024052721 -0.11246039 0.042032514 8.0350454e-42
0.025557246 -0.1116785 0.04499558 6.0032439e-39
0.027277369 -0.1116785 0.04499558 1.6145092e-38
0.028997492 -0.1116785 0.04499558 1.6606756e-38
0.030717615 -0.1116785 0.04499558 1.6513825e-38
0.032437738 -0.1116785 0.04499558 1.6419114e-38
0.034157861 -0.1116785 0.04499558 1.6604947e-38
0.035619475 -0.11087631 0.048035596 1.6793657e-38
0.037080221 -0.11010392 0.05096266 1.6979491e-38
0.038789876 -0.11010392 0.05096266 1.6977708e-38
0.040312923 -0.1095586 0.053029332 1.8267729e-38
0.042018972 -0.1095586 0.053029332 1.8359206e-38
0.043725006 -0.1095586 0.053029332 1.6331988e-38
0.045145281 -0.10876949 0.056019757 1.5412903e-38
0.046846084 -0.10876949 0.056019757 1.5046281e-38
0.048546873 -0.10876949 0.056019757 1.4955897e-38
0.049948014 -0.10798518 0.058991943 1.1175533e-38
0.051643603 -0.10798518 0.058991943 8.3153317e-39
0.053339191 -0.10798518 0.058991943 9.3465346e-40
0.055034764 -0.10798518 0.058991943 1.5414283e-42
0.056730352 -0.10798518 0.058991943 1.9376483e-39
0.058425941 -0.10798518 0.058991943 2.3017378e-39
0.060121514 -0.10798518 0.058991943 1.3824727e-38
0.062153228 -0.10876949 0.056019757 1.834264e-38
0.063854016 -0.10876949 0.056019757 2.2401028e-38
0.065903492 -0.1095586 0.053029332 2.3139312e-38
0.067854114 -0.11010392 0.05096266 2.2403186e-38
0.07028044 -0.1116785 0.04499558 1.9638762e-38
0.072361626 -0.11246039 0.042032514 1.8994835e-38
0.074455433 -0.11324702 0.039051507 1.7612983e-38
0.076440416 -0.1137826 0.037021849 1.8536026e-38
0.078174524 -0.1137826 0.037021849 1.7061623e-38
0.080296718 -0.11457725 0.034010325 1.6785402e-38
0.0820361 -0.11457725 0.034010325 1.4480512e-38
0.084176578 -0.11537679 0.030980442 6.4591367e-39
0.086316921 -0.11615516 0.028030667 4.614864e-39
0.08848349 -0.11696436 0.024964068 4.614864e-39
0.090238743 -0.11696436 0.024964068 5.6279369e-39
0.092828818 -0.11854477 0.018974874 5.442824e-39
0.095435731 -0.12011738 0.013015244 6.2715001e-39
0.097648822 -0.12092416 0.0099577643 8.5756719e-39
0.099860437 -0.12170871 0.0069846846 8.2068894e-39
0.10252545 -0.12329166 0.00098583475 1.2171304e-38
0.10432274 -0.12329166 0.00098583475 1.3000708e-38
0.10657363 -0.12409012 -0.0020400546 8.4831218e-39
0.10882192 -0.12486555 -0.0049786828 6.6392092e-39
0.1117026 -0.126711 -0.011972334 3.5045578e-39
0.11352261 -0.126711 -0.011972334 2.8584667e-39
-0.12715259 -0.14340474 -0.067966491 1.3368355e-38
-0.1252344 -0.14340474 -0.067966491 1.1065268e-38
-0.1230382 -0.14233841 -0.063952118 8.8547363e-39
-0.12112705 -0.14233841 -0.063952118 7.3988559e-43
-0.11921591 -0.14233841 -0.063952118 2.9455294e-42
-0.11730476 -0.14233841 -0.063952118 7.4018407e-40
-0.11521106 -0.14155935 -0.061019208 1.2191297e-43
-0.11330507 -0.14155935 -0.061019208 1.0146284e-39
-0.11139906 -0.14155935 -0.061019208 9.2240612e-40
-0.10949305 -0.14155935 -0.061019208 5.0722674e-39
-0.10741951 -0.14075352 -0.05798557 6.0882102e-39
-0.10551883 -0.14075352 -0.05798557 3.8773074e-39
-0.10341427 -0.13970654 -0.054044034 9.2253714e-39
-0.10137085 -0.13891099 -0.051049139 1.3744033e-38
-0.099289201 -0.13784705 -0.047043826 1.4482315e-38
-0.097407706 -0.13784705 -0.047043826 1.4943647e-38
-0.095526204 -0.13784705 -0.047043826 1.4482306e-38
-0.093644701 -0.13784705 -0.047043826 1.5495013e-38
-0.091636732 -0.13703169 -0.043974306 1.7706265e-38
-0.089644656 -0.13625093 -0.041034963 1.7704823e-38
-0.087621272 -0.13517688 -0.036991622 1.9087392e-38
-0.085757405 -0.13517688 -0.036991622 1.9272138e-38
-0.083893523 -0.13517688 -0.036991622 1.9826027e-38
-0.081931934 -0.13437669 -0.033979204 2.0933451e-38
-0.080073342 -0.13437669 -0.033979204 2.0473191e-38
-0.078214757 -0.13437669 -0.033979204 1.1623512e-38
-0.076356165 -0.13437669 -0.033979204 1.0978906e-38
-0.074497573 -0.13437669 -0.033979204 7.014156e-39
-0.072568074 -0.13358103 -0.030983832 6.519415e-40
-0.07064946 -0.13278987 -0.028005388 5.131555e-42
-0.068801343 -0.13278987 -0.028005388 8.3525656e-40
-0.06687858 -0.13171287 -0.023950841 3.6011283e-39
-0.064988613 -0.13093217 -0.021011736 3.1394312e-39
-0.06315276 -0.13093217 -0.021011736 1.0515082e-38
-0.061316904 -0.13093217 -0.021011736 9.3161811e-39
-0.059481047 -0.13093217 -0.021011736 6.8268991e-39
-0.057615966 -0.13012715 -0.017981198 6.4588383e-39
-0.055785425 -0.13012715 -0.017981198 4.784033e-42
-0.053936392 -0.12932678 -0.014968064 2.8245693e-40
-0.052111134 -0.12932678 -0.014968064 2.8317579e-40
-0.050277993 -0.12853102 -0.011972334 5.1511732e-42
-0.048457988 -0.12853102 -0.011972334 9.8784535e-41
-0.046641428 -0.12748651 -0.0080400966 2.3114768e-39
-0.044828318 -0.12748651 -0.0080400966 9.3183447e-39
-0.043041505 -0.12589271 -0.0020400546 1.0977869e-38
-0.041238911 -0.12589271 -0.0020400546 1.1900185e-38
-0.039436318 -0.12589271 -0.0020400546 9.1353926e-39
-0.037662908 -0.12508895 0.00098583475 1.6682626e-39
-0.03586562 -0.12508895 0.00098583475 8.3839687e-42
-0.034068335 -0.12508895 0.00098583475 1.2991284e-39
-0.032271046 -0.12508895 0.00098583475 3.5114732e-39
-0.030523868 -0.12428986 0.0039940812 9.8726115e-39
-0.028731856 -0.12428986 0.0039940812 8.3967556e-39
-0.027000144 -0.12349547 0.0069846846 5.4461255e-39
-0.025213376 -0.12349547 0.0069846846 7.473695e-39
-0.023426607 -0.12349547 0.0069846846 1.263628e-38
-0.021563808 -0.12428986 0.0039940812 1.2912144e-38
-0.019853069 -0.12349547 0.0069846846 1.3465318e-38
-0.0180663 -0.12349547 0.0069846846 9.2268399e-39
-0.016370755 -0.12270571 0.0099577643 6.829762e-39
-0.014688373 -0.12189357 0.013015244 2.1267227e-39
-0.013016086 -0.12108628 0.016054366 1.3884528e-39
-0.011245221 -0.12108628 0.016054366 1.2955523e-39
-0.0095844455 -0.1203105 0.018974874 1.1108065e-39
-0.0079371892 -0.11951269 0.021978352 1.7572521e-39
-0.0061767064 -0.11951269 0.021978352 6.4592236e-39
-0.0045444854 -0.11871959 0.024964068 5.814922e-39
-0.0027892403 -0.11871959 0.024964068 5.0787849e-39
-0.0010339953 -0.11871959 0.024964068 4.6188773e-39
0.00057338923 -0.11790501 0.028030667 1.1995607e-38
0.0023232587 -0.11790501 0.028030667 1.0797428e-38
0.0040731244 -0.11790501 0.028030667 6.2802077e-39
0.0058229938 -0.11790501 0.028030667 2.6849495e-39
0.0074099451 -0.11712147 0.030980442 3.9763932e-39
0.0089819878 -0.11631663 0.034010325 3.7923284e-39
0.010721374 -0.11631663 0.034010325 1.9473368e-39
0.012460757 -0.11631663 0.034010325 5.8574276e-42
0.014012694 -0.11551671 0.037021849 4.4337083e-42
0.015746798 -0.11551671 0.037021849 7.4163861e-40
0.017480899 -0.11551671 0.037021849 1.5706776e-39
0.019077998 -0.11497755 0.039051507 2.3093188e-39
0.020808537 -0.11497755 0.039051507 1.0189444e-39
0.022327404 -0.11418571 0.042032514 9.8081083e-41
0.023837123 -0.11339863 0.04499558 7.676313e-42
0.025330711 -0.1125911 0.048035596 7.8460747e-39
0.027045507 -0.1125911 0.048035596 1.7251434e-38
0.028997492 -0.11339863 0.04499558 1.8358822e-38
0.030717615 -0.11339863 0.04499558 1.8082218e-38
0.032437738 -0.11339863 0.04499558 1.7343219e-38
0.034157861 -0.11339863 0.04499558 1.7527976e-38
0.035619475 -0.1125911 0.048035596 1.8267348e-38
0.037080221 -0.11181359 0.05096266 2.020309e-38
0.03860689 -0.11126463 0.053029332 1.9739967e-38
0.040312923 -0.11126463 0.053029332 1.8908784e-38
0.042018972 -0.11126463 0.053029332 1.8446727e-38
0.043725006 -0.11126463 0.053029332 1.7803152e-38
0.045145281 -0.11047028 0.056019757 1.854323e-38
0.046846084 -0.11047028 0.056019757 1.845427e-38
0.048546873 -0.11047028 0.056019757 1.5046284e-38
0.049948014 -0.10968079 0.058991943 1.3017637e-38
0.051643603 -0.10968079 0.058991943 1.0434742e-38
0.053339191 -0.10968079 0.058991943 5.6622547e-40
0.055034764 -0.10968079 0.058991943 1.5372244e-42
0.056730352 -0.10968079 0.058991943 5.0719367e-39
0.058425941 -0.10968079 0.058991943 3.5921137e-39
0.060121514 -0.10968079 0.058991943 9.2149457e-39
0.061817102 -0.10968079 0.058991943 1.6038836e-38
0.063854016 -0.11047028 0.056019757 1.7423555e-38
0.065554805 -0.11047028 0.056019757 1.6318286e-38
0.067854114 -0.11181359 0.05096266 1.5490323e-38
0.07028044 -0.11339863 0.04499558 1.8718256e-38
0.072361626 -0.11418571 0.042032514 1.9826047e-38
0.074455433 -0.11497755 0.039051507 1.7614797e-38
0.076440416 -0.11551671 0.037021849 1.558722e-38
0.078174524 -0.11551671 0.037021849 1.2084515e-38
0.080296718 -0.11631663 0.034010325 1.0424639e-38
0.0820361 -0.11631663 0.034010325 7.1967158e-39
0.084176578 -0.11712147 0.030980442 1.1114441e-39
0.085921265 -0.11712147 0.030980442 8.3413833e-40
0.08848349 -0.11871959 0.024964068 3.5992813e-39
0.090238743 -0.11871959 0.024964068 6.4566256e-39
0.092828818 -0.1203105 0.018974874 8.576402e-39
0.095435731 -0.12189357 0.013015244 9.6823866e-39
0.097648822 -0.12270571 0.0099577643 1.1433385e-38
0.099860437 -0.12349547 0.0069846846 7.7455596e-39
0.10208503 -0.12428986 0.0039940812 6.8236061e-39
0.10387705 -0.12428986 0.0039940812 4.7953022e-39
0.10612003 -0.12508895 0.00098583475 1.6606508e-39
0.10837623 -0.12589271 -0.0020400546 3.5967562e-39
0.11109933 -0.12748651 -0.0080400966 2.951384e-39
0.11291244 -0.12748651 -0.0080400966 3.780423e-39
-0.1252344 -0.14532293 -0.067966491 1.1987224e-38
-0.1230382 -0.14424954 -0.063952118 8.8547363e-39
-0.12112705 -0.14424954 -0.063952118 3.2608215e-42
-0.11921591 -0.14424954 -0.063952118 4.0245292e-42
-0.11730476 -0.14424954 -0.063952118 8.183583e-43
-0.11539362 -0.14424954 -0.063952118 1.5681679e-39
-0.11348247 -0.14424954 -0.063952118 8.2988398e-40
