# .PCD v0.7 - Point Cloud Data file format
VERSION 0.7
FIELDS x y z rgb
SIZE 4 4 4 4
TYPE F F F F
COUNT 1 1 1 1
WIDTH 922
HEIGHT 1
VIEWPOINT 0 0 0 1 0 0 0
POINTS 922
DATA ascii
-0.0036205016 -0.092730328 -0.12723276 2.3509883e-38
-0.0017709397 -0.091889992 -0.12322208 2.350988e-38
-0.00022784248 -0.089562759 -0.11211476 2.3325847e-38
0.0012855008 -0.087280393 -0.10122165 2.350988e-38
0.0030653961 -0.086426154 -0.097144574 2.350988e-38
0.0048835166 -0.085808769 -0.094197959 2.3509883e-38
0.0066392459 -0.084965169 -0.090171665 2.3509883e-38
0.0084306039 -0.084330142 -0.087140888 2.3509886e-38
0.010368094 -0.084330142 -0.087140888 2.3509886e-38
0.012092993 -0.083497211 -0.083165497 2.3509527e-38
0.014023516 -0.083497211 -0.083165497 2.3509886e-38
0.015729133 -0.082670271 -0.079218715 2.3509886e-38
0.01747125 -0.08202289 -0.07612893 2.3509886e-38
0.019146603 -0.08118178 -0.072114557 2.3509886e-38
0.020686369 -0.079931647 -0.066148013 2.3509886e-38
0.022587057 -0.079931647 -0.066148013 2.3509886e-38
0.024228584 -0.079105809 -0.062206477 2.3509886e-38
0.026122358 -0.079105809 -0.062206477 2.3509886e-38
0.028016131 -0.079105809 -0.062206477 2.3509886e-38
0.030189786 -0.079931647 -0.066148013 2.3509886e-38
0.031803671 -0.079105809 -0.062206477 2.341769e-38
0.033697445 -0.079105809 -0.062206477 2.2864516e-38
0.035591219 -0.079105809 -0.062206477 2.3509886e-38
0.037484989 -0.079105809 -0.062206477 2.3509886e-38
0.039378762 -0.079105809 -0.062206477 2.2956712e-38
0.041593894 -0.079931647 -0.066148013 2.3509886e-38
0.043494567 -0.079931647 -0.066148013 2.341805e-38
0.045395255 -0.079931647 -0.066148013 2.341805e-38
0.047295943 -0.079931647 -0.066148013 2.3234379e-38
0.049196616 -0.079931647 -0.066148013 2.3234362e-38
0.050741404 -0.079105809 -0.062206477 2.3142525e-38
0.052359492 -0.078478307 -0.059211582 2.2773763e-38
0.053584367 -0.076995969 -0.052136749 2.3141826e-38
0.055460483 -0.076995969 -0.052136749 2.2957438e-38
0.057336599 -0.076995969 -0.052136749 8.2043685e-39
-0.035321243 -0.10402371 -0.17118272 4.518386e-39
-0.033328302 -0.1023199 -0.16311833 3.8733935e-39
-0.0312576 -0.1023199 -0.16311833 3.5978969e-39
-0.029246379 -0.10147664 -0.15912709 4.335829e-39
-0.027182672 -0.10147664 -0.15912709 1.7547171e-39
-0.025118966 -0.10147664 -0.15912709 3.4142385e-39
-0.023055259 -0.10147664 -0.15912709 3.137646e-39
-0.020991553 -0.10147664 -0.15912709 2.031653e-39
-0.019021682 -0.10063905 -0.15516266 3.2316269e-39
-0.016964927 -0.10063905 -0.15516266 2.3089447e-39
-0.015125141 -0.098952278 -0.14717898 5.7197991e-39
-0.013198625 -0.098103389 -0.14316103 1.5397777e-38
-0.011285346 -0.097260326 -0.13917074 2.1112802e-38
-0.009385176 -0.096423045 -0.13520774 2.2495736e-38
-0.0075024478 -0.095563844 -0.13114104 1.6779605e-38
-0.0054878108 -0.095563844 -0.13114104 1.539667e-38
-0.0034731738 -0.095563844 -0.13114104 2.2772318e-38
-0.0017709397 -0.093890756 -0.12322208 2.3233652e-38
-0.00022784248 -0.091544032 -0.11211476 2.3418043e-38
0.0012855008 -0.089242578 -0.10122165 2.3509883e-38
0.0030653961 -0.088381186 -0.097144574 2.3509883e-38
0.0048835166 -0.087758631 -0.094197959 2.3509883e-38
0.0064931139 -0.086267635 -0.087140888 2.3509883e-38
0.0084306039 -0.086267635 -0.087140888 2.3509886e-38
0.010162473 -0.085427731 -0.083165497 2.3509886e-38
0.012092993 -0.085427731 -0.083165497 2.3509886e-38
0.014023516 -0.085427731 -0.083165497 2.3509886e-38
0.015553068 -0.083941072 -0.07612893 2.3509886e-38
0.017063189 -0.082473263 -0.069181651 2.3509886e-38
0.018785689 -0.081832334 -0.066148013 2.3509886e-38
0.020441037 -0.080999583 -0.062206477 2.3509886e-38
0.02233481 -0.080999583 -0.062206477 2.3509886e-38
0.024228584 -0.080999583 -0.062206477 2.3509886e-38
0.026122358 -0.080999583 -0.062206477 2.3509886e-38
0.028016131 -0.080999583 -0.062206477 2.3509886e-38
0.029909898 -0.080999583 -0.062206477 2.3509886e-38
0.031803671 -0.080999583 -0.062206477 2.3509886e-38
0.033697445 -0.080999583 -0.062206477 2.3509886e-38
0.035591219 -0.080999583 -0.062206477 2.3509886e-38
0.037484989 -0.080999583 -0.062206477 2.3509886e-38
0.039378762 -0.080999583 -0.062206477 2.3509886e-38
0.041593894 -0.081832334 -0.066148013 2.3509886e-38
0.04316631 -0.080999583 -0.062206477 2.341805e-38
0.045060083 -0.080999583 -0.062206477 2.3325856e-38
0.046953857 -0.080999583 -0.062206477 2.3050347e-38
0.048847631 -0.080999583 -0.062206477 2.323436e-38
0.050470963 -0.08036682 -0.059211582 2.3326194e-38
0.051990807 -0.079520598 -0.055206269 2.3049624e-38
0.053584367 -0.078872085 -0.052136749 2.3417691e-38
0.055460483 -0.078872085 -0.052136749 2.3232944e-38
0.057336599 -0.078872085 -0.052136749 7.4664405e-39
0.058520988 -0.077396795 -0.045154065 6.5434276e-39
-0.035321243 -0.10610856 -0.17118272 3.5053243e-39
-0.033328302 -0.10439061 -0.16311833 3.5057012e-39
-0.031362217 -0.10269581 -0.15516266 3.874495e-39
-0.029364146 -0.10185695 -0.15122494 2.5841261e-39
-0.027381686 -0.10099503 -0.14717898 3.2302186e-39
-0.025338929 -0.10099503 -0.14717898 3.0461818e-39
-0.023214592 -0.10185695 -0.15122494 2.4933584e-39
-0.021078439 -0.10269581 -0.15516266 3.6000549e-39
-0.019114889 -0.10185695 -0.15122494 2.9553931e-39
-0.0171679 -0.10099503 -0.14717898 6.4977229e-40
-0.015234336 -0.1001391 -0.14316103 4.0599064e-39
-0.013314065 -0.099289045 -0.13917074 1.3369468e-38
-0.011285346 -0.099289045 -0.13917074 1.4474714e-38
-0.009385176 -0.098444805 -0.13520774 1.3644953e-38
-0.0075024478 -0.097578481 -0.13114104 1.1616649e-38
-0.0056282878 -0.096745893 -0.12723276 1.5212276e-38
-0.0036205016 -0.096745893 -0.12723276 2.3509883e-38
-0.0017709397 -0.095891505 -0.12322208 2.350988e-38
-0.00051259622 -0.092053071 -0.10520384 2.350988e-38
0.00098378956 -0.089708492 -0.094197959 2.3509883e-38
0.0027536377 -0.088850766 -0.090171665 2.3509883e-38
0.0045556203 -0.088205129 -0.087140888 2.3509883e-38
0.0063014328 -0.087358251 -0.083165497 2.3509886e-38
0.0080347322 -0.086517468 -0.079218715 2.3509886e-38
0.0099583343 -0.086517468 -0.079218715 2.3509886e-38
0.011716701 -0.085859254 -0.07612893 2.3509886e-38
0.013634887 -0.085859254 -0.07612893 2.3509886e-38
0.015157189 -0.084379271 -0.069181651 2.3509886e-38
0.016885009 -0.083733007 -0.066148013 2.3509886e-38
0.018785689 -0.083733007 -0.066148013 2.3509886e-38
0.020441037 -0.082893357 -0.062206477 2.3509886e-38
0.02233481 -0.082893357 -0.062206477 2.3509886e-38
0.024228584 -0.082893357 -0.062206477 2.3509886e-38
0.026122358 -0.082893357 -0.062206477 2.3509886e-38
0.027808715 -0.082255349 -0.059211582 2.3509886e-38
0.029697236 -0.082255349 -0.059211582 2.3509886e-38
0.031585757 -0.082255349 -0.059211582 2.3509886e-38
0.033474278 -0.082255349 -0.059211582 2.3509886e-38
0.035362799 -0.082255349 -0.059211582 2.3509886e-38
0.037251323 -0.082255349 -0.059211582 2.3509886e-38
0.039139837 -0.082255349 -0.059211582 2.3509886e-38
0.041272536 -0.082893357 -0.062206477 2.3509886e-38
0.04316631 -0.082893357 -0.062206477 2.3509886e-38
0.045060083 -0.082893357 -0.062206477 2.341805e-38
0.046953857 -0.082893357 -0.062206477 2.3234379e-38
0.04858245 -0.082255349 -0.059211582 2.3418031e-38
0.050470963 -0.082255349 -0.059211582 2.3418031e-38
0.051990807 -0.081402093 -0.055206269 2.3418047e-38
0.053584367 -0.0807482 -0.052136749 2.314075e-38
0.054793239 -0.079260677 -0.045154065 2.3048197e-38
0.056657121 -0.079260677 -0.045154065 8.3887513e-39
-0.031362217 -0.10475256 -0.15516266 3.2302158e-39
-0.029364146 -0.1039068 -0.15122494 1.3863088e-39
-0.027381686 -0.10303779 -0.14717898 2.4004607e-39
-0.025486361 -0.10131776 -0.13917074 2.677042e-39
-0.023457645 -0.10131776 -0.13917074 3.2309206e-39
-0.021078439 -0.10475256 -0.15516266 4.3368926e-39
-0.019114889 -0.1039068 -0.15122494 2.7706277e-39
-0.0171679 -0.10303779 -0.14717898 1.7564604e-39
-0.015234336 -0.1021748 -0.14316103 4.7974546e-39
-0.013314065 -0.10131776 -0.13917074 1.3830437e-38
-0.011285346 -0.10131776 -0.13917074 1.6134232e-38
-0.009385176 -0.10046658 -0.13520774 1.8254732e-38
-0.007636074 -0.098753676 -0.12723276 1.8254732e-38
-0.0057724454 -0.097892255 -0.12322208 1.9637666e-38
-0.0037716925 -0.097892255 -0.12322208 2.3325492e-38
-0.0016127154 -0.098753676 -0.12723276 2.2680122e-38
-0.00067667663 -0.093166932 -0.10122165 2.3509883e-38
0.00098378956 -0.091658354 -0.094197959 2.3509883e-38
0.0026181303 -0.090142623 -0.087140888 2.3509883e-38
0.0041875318 -0.088441074 -0.079218715 2.3509886e-38
0.005962152 -0.087777436 -0.07612893 2.3509886e-38
0.0076797381 -0.08691521 -0.072114557 2.3509886e-38
0.0095908828 -0.08691521 -0.072114557 2.3509886e-38
0.011502028 -0.08691521 -0.072114557 2.3509886e-38
0.013251185 -0.086285278 -0.069181651 2.3509886e-38
0.014984321 -0.085633695 -0.066148013 2.3509886e-38
0.016653489 -0.084787115 -0.062206477 2.3509886e-38
0.018547263 -0.084787115 -0.062206477 2.3509886e-38
0.020254623 -0.084143862 -0.059211582 2.3509886e-38
0.022143144 -0.084143862 -0.059211582 2.3509886e-38
0.024031665 -0.084143862 -0.059211582 2.3509886e-38
0.025920186 -0.084143862 -0.059211582 2.3509886e-38
0.027808715 -0.084143862 -0.059211582 2.3509886e-38
0.029697236 -0.084143862 -0.059211582 2.3509886e-38
0.031585757 -0.084143862 -0.059211582 2.3509886e-38
0.033474278 -0.084143862 -0.059211582 2.3509886e-38
0.035362799 -0.084143862 -0.059211582 2.3509886e-38
0.037251323 -0.084143862 -0.059211582 2.3509886e-38
0.039139837 -0.084143862 -0.059211582 2.3509886e-38
0.041272536 -0.084787115 -0.062206477 2.3509886e-38
0.04316631 -0.084787115 -0.062206477 2.3509886e-38
0.044805408 -0.084143862 -0.059211582 2.3141467e-38
0.046693921 -0.084143862 -0.059211582 2.3418047e-38
0.048227802 -0.083283588 -0.055206269 2.3049608e-38
0.050109297 -0.083283588 -0.055206269 2.2773021e-38
0.051708251 -0.082624316 -0.052136749 2.3509886e-38
0.053308651 -0.081992984 -0.049197406 2.3509168e-38
0.054793239 -0.081124544 -0.045154065 2.3509168e-38
0.056657121 -0.081124544 -0.045154065 5.5303183e-39
-0.027515078 -0.10334648 -0.13917074 2.2164324e-39
-0.025559321 -0.10248834 -0.13520774 3.9681353e-39
-0.023537552 -0.10248834 -0.13520774 4.2443453e-39
-0.021515785 -0.10248834 -0.13520774 5.3510305e-39
-0.019210657 -0.10508056 -0.14717898 1.309652e-38
-0.017270049 -0.10421051 -0.14316103 1.9733865e-38
-0.015234336 -0.10421051 -0.14316103 2.2038007e-38
-0.013314065 -0.10334648 -0.13917074 2.2404983e-38
-0.011285346 -0.10334648 -0.13917074 2.3141456e-38
-0.009385176 -0.10248834 -0.13520774 2.3509883e-38
-0.007636074 -0.10076147 -0.12723276 2.3325492e-38
-0.0057724454 -0.099893004 -0.12322208 2.3417687e-38
-0.0037716925 -0.099893004 -0.12322208 2.3509883e-38
-0.0011417642 -0.10334648 -0.13917074 2.2772318e-38
-0.00067667663 -0.095129102 -0.10122165 2.3509883e-38
0.00081083179 -0.092736378 -0.090171665 2.3509883e-38
0.0026181303 -0.092080101 -0.087140888 2.3509883e-38
0.0041875318 -0.090364665 -0.079218715 2.3509886e-38
0.0056271777 -0.088191271 -0.069181651 2.3509886e-38
0.007034976 -0.086032391 -0.059211582 2.3509886e-38
0.0089234971 -0.086032391 -0.059211582 2.3509886e-38
0.011182956 -0.087534383 -0.066148013 2.3509886e-38
0.012865949 -0.086680889 -0.062206477 2.3509886e-38
0.01458906 -0.086032391 -0.059211582 2.3509886e-38
0.016477581 -0.086032391 -0.059211582 2.3509886e-38
0.018366102 -0.086032391 -0.059211582 2.3509886e-38
0.020005319 -0.085165098 -0.055206269 2.3509886e-38
0.021886822 -0.085165098 -0.055206269 2.3509886e-38
0.023768317 -0.085165098 -0.055206269 2.3509886e-38
0.025920186 -0.086032391 -0.059211582 2.3509886e-38
0.027808715 -0.086032391 -0.059211582 2.3509886e-38
0.029697236 -0.086032391 -0.059211582 2.3509886e-38
0.031585757 -0.086032391 -0.059211582 2.3509886e-38
0.033474278 -0.086032391 -0.059211582 2.3509886e-38
0.035362799 -0.086032391 -0.059211582 2.3509886e-38
0.036938816 -0.085165098 -0.055206269 2.3509886e-38
0.038820311 -0.085165098 -0.055206269 2.3509886e-38
0.041028365 -0.086032391 -0.059211582 2.3509886e-38
0.042916879 -0.086032391 -0.059211582 2.3509886e-38
0.044805408 -0.086032391 -0.059211582 2.304927e-38
0.046346307 -0.085165098 -0.055206269 2.3418047e-38
0.048227802 -0.085165098 -0.055206269 2.3234004e-38
0.049832135 -0.084500432 -0.052136749 2.3233648e-38
0.051708251 -0.084500432 -0.052136749 2.3324778e-38
0.053308651 -0.083863959 -0.049197406 2.3509168e-38
0.054793239 -0.082988426 -0.045154065 2.2954917e-38
0.056657121 -0.082988426 -0.045154065 1.1963964e-39
-0.029484326 -0.10624625 -0.14316103 3.8766754e-39
-0.027515078 -0.10537519 -0.13917074 3.3231331e-39
-0.025559321 -0.10451011 -0.13520774 4.9826404e-39
-0.023537552 -0.10451011 -0.13520774 4.4287253e-39
-0.021515785 -0.10451011 -0.13520774 6.0889375e-39
-0.019210657 -0.1071233 -0.14717898 1.9181049e-38
-0.017270049 -0.10624625 -0.14316103 2.2775202e-38
-0.015234336 -0.10624625 -0.14316103 2.2867037e-38
-0.013314065 -0.10537519 -0.13917074 2.3418047e-38
-0.011285346 -0.10537519 -0.13917074 2.3509879e-38
-0.009385176 -0.10451011 -0.13520774 2.3418043e-38
-0.0075024478 -0.10362239 -0.13114104 2.2496087e-38
-0.0057724454 -0.10189377 -0.12322208 2.350988e-38
-0.0037716925 -0.10189377 -0.12322208 2.350988e-38
-0.0011417642 -0.10537519 -0.13917074 2.3417687e-38
0.00088695064 -0.10537519 -0.13917074 2.3509883e-38
0.00081083179 -0.094679192 -0.090171665 2.3509886e-38
0.0027536377 -0.094679192 -0.090171665 2.3509886e-38
0.0037211739 -0.090097278 -0.069181651 2.3509886e-38
0.0048053302 -0.086376548 -0.052136749 2.3509886e-38
0.006534569 -0.085734919 -0.049197406 2.3509886e-38
0.008405529 -0.085734919 -0.049197406 2.3509886e-38
0.010276493 -0.085734919 -0.049197406 2.3509886e-38
0.012479328 -0.087046593 -0.055206269 2.3509886e-38
0.014360826 -0.087046593 -0.055206269 2.3509886e-38
0.016242322 -0.087046593 -0.055206269 2.3509886e-38
0.017938148 -0.086376548 -0.052136749 2.3509886e-38
0.019814264 -0.086376548 -0.052136749 2.3509886e-38
0.02169038 -0.086376548 -0.052136749 2.3509886e-38
0.023768317 -0.087046593 -0.055206269 2.3509886e-38
0.02564982 -0.087046593 -0.055206269 2.3509886e-38
0.027531315 -0.087046593 -0.055206269 2.3509886e-38
0.029412817 -0.087046593 -0.055206269 2.3509886e-38
0.031294312 -0.087046593 -0.055206269 2.3509886e-38
0.033175815 -0.087046593 -0.055206269 2.3509886e-38
0.03505731 -0.087046593 -0.055206269 2.3509886e-38
0.03669931 -0.086376548 -0.052136749 2.3509886e-38
0.038575426 -0.086376548 -0.052136749 2.3509886e-38
0.040701807 -0.087046593 -0.055206269 2.3509886e-38
0.042583302 -0.087046593 -0.055206269 2.3509886e-38
0.044464812 -0.087046593 -0.055206269 2.3509886e-38
0.046346307 -0.087046593 -0.055206269 2.2956709e-38
0.04795602 -0.086376548 -0.052136749 2.3509879e-38
0.049832135 -0.086376548 -0.052136749 2.3509883e-38
0.051708251 -0.086376548 -0.052136749 2.2862369e-38
0.053308651 -0.085734919 -0.049197406 2.2770174e-38
0.054793239 -0.084852293 -0.045154065 2.1663812e-38
0.056657121 -0.084852293 -0.045154065 3.6734479e-40
-0.029484326 -0.10828196 -0.14316103 1.1111638e-39
-0.027448613 -0.10828196 -0.14316103 5.5726137e-40
-0.025486361 -0.10740392 -0.13917074 2.4015145e-39
-0.023457645 -0.10740392 -0.13917074 1.0882768e-38
-0.021253414 -0.10916607 -0.14717898 1.5953494e-38
-0.019210657 -0.10916607 -0.14717898 2.2775202e-38
-0.0171679 -0.10916607 -0.14717898 2.2591524e-38
-0.015342779 -0.10740392 -0.13917074 2.2314205e-38
-0.013314065 -0.10740392 -0.13917074 2.1759236e-38
-0.011285346 -0.10740392 -0.13917074 2.3049259e-38
-0.0092566311 -0.10740392 -0.13917074 2.3509879e-38
-0.0072279125 -0.10740392 -0.13917074 2.3325846e-38
-0.005055774 -0.10828196 -0.14316103 2.350988e-38
-0.0030200593 -0.10828196 -0.14316103 2.3325847e-38
-0.00098434836 -0.10828196 -0.14316103 2.3233296e-38
0.0010513663 -0.10828196 -0.14316103 2.3233296e-38
0.00068064034 -0.095955089 -0.087140888 2.3509886e-38
0.0026181303 -0.095955089 -0.087140888 2.3509886e-38
0.0037211739 -0.092003286 -0.069181651 2.3509886e-38
0.0046636052 -0.087605879 -0.049197406 2.3509886e-38
0.0063325204 -0.086716175 -0.045154065 2.3509886e-38
0.0081963949 -0.086716175 -0.045154065 2.3509886e-38
0.010276493 -0.087605879 -0.049197406 2.3509886e-38
0.012147456 -0.087605879 -0.049197406 2.3509886e-38
0.014185913 -0.088252664 -0.052136749 2.3509886e-38
0.016062032 -0.088252664 -0.052136749 2.3509886e-38
0.017760348 -0.087605879 -0.049197406 2.3509886e-38
0.019631308 -0.087605879 -0.049197406 2.3509886e-38
0.02169038 -0.088252664 -0.052136749 2.3509886e-38
0.023566496 -0.088252664 -0.052136749 2.3509886e-38
0.02564982 -0.088928089 -0.055206269 2.3509886e-38
0.027531315 -0.088928089 -0.055206269 2.3509886e-38
0.029412817 -0.088928089 -0.055206269 2.3509886e-38
0.031294312 -0.088928089 -0.055206269 2.3509886e-38
0.033175815 -0.088928089 -0.055206269 2.3509886e-38
0.034823198 -0.088252664 -0.052136749 2.3509886e-38
0.03669931 -0.088252664 -0.052136749 2.3509886e-38
0.038575426 -0.088252664 -0.052136749 2.3509886e-38
0.040701807 -0.088928089 -0.055206269 2.3509886e-38
0.042583302 -0.088928089 -0.055206269 2.3509886e-38
0.044203788 -0.088252664 -0.052136749 2.3509886e-38
0.046079904 -0.088252664 -0.052136749 2.3325494e-38
0.04795602 -0.088252664 -0.052136749 2.3509883e-38
0.049832135 -0.088252664 -0.052136749 2.314039e-38
0.051708251 -0.088252664 -0.052136749 2.3138956e-38
0.052929372 -0.086716175 -0.045154065 2.3508809e-38
0.054793239 -0.086716175 -0.045154065 2.2217342e-38
0.056657121 -0.086716175 -0.045154065 3.6734198e-40
-0.017472249 -0.10855366 -0.13520774 2.2683342e-38
-0.015450481 -0.10855366 -0.13520774 2.3234354e-38
-0.01342871 -0.10855366 -0.13520774 2.3418035e-38
-0.011406943 -0.10855366 -0.13520774 2.3509876e-38
-0.0092566311 -0.10943262 -0.13917074 2.3418042e-38
-0.0072279125 -0.10943262 -0.13917074 2.2680477e-38
-0.005055774 -0.11031766 -0.14316103 2.350988e-38
-0.0030200593 -0.11031766 -0.14316103 2.350988e-38
-0.00098434836 -0.11031766 -0.14316103 2.3509883e-38
0.0010513663 -0.11031766 -0.14316103 2.3233296e-38
0.00068064034 -0.097892582 -0.087140888 2.3509886e-38
0.0026181303 -0.097892582 -0.087140888 2.3509886e-38
0.0029292144 -0.090128779 -0.052136749 2.3509886e-38
0.0046636052 -0.089476839 -0.049197406 2.3509886e-38
0.0063325204 -0.088580042 -0.045154065 2.3509886e-38
0.0081963949 -0.088580042 -0.045154065 2.3509886e-38
0.010276493 -0.089476839 -0.049197406 2.3509886e-38
0.012147456 -0.089476839 -0.049197406 2.3509886e-38
0.01401842 -0.089476839 -0.049197406 2.3509886e-38
0.01588938 -0.089476839 -0.049197406 2.3509886e-38
0.017760348 -0.089476839 -0.049197406 2.3509886e-38
0.019631308 -0.089476839 -0.049197406 2.3509886e-38
0.021502275 -0.089476839 -0.049197406 2.3509886e-38
0.023373235 -0.089476839 -0.049197406 2.3509886e-38
0.025442611 -0.090128779 -0.052136749 2.3509886e-38
0.027318735 -0.090128779 -0.052136749 2.3509886e-38
0.02919485 -0.090128779 -0.052136749 2.3509886e-38
0.031294312 -0.090809584 -0.055206269 2.3509886e-38
0.033175815 -0.090809584 -0.055206269 2.3509886e-38
0.034823198 -0.090128779 -0.052136749 2.3509886e-38
0.036469981 -0.089476839 -0.049197406 2.3509886e-38
0.038340941 -0.089476839 -0.049197406 2.3509886e-38
0.040451556 -0.090128779 -0.052136749 2.3509886e-38
0.042327672 -0.090128779 -0.052136749 2.3509886e-38
0.044203788 -0.090128779 -0.052136749 2.3509883e-38
0.046079904 -0.090128779 -0.052136749 2.3509886e-38
0.047695756 -0.089476839 -0.049197406 2.3509527e-38
0.049566716 -0.089476839 -0.049197406 2.2310275e-38
0.051437691 -0.089476839 -0.049197406 2.3508451e-38
0.052929372 -0.088580042 -0.045154065 2.3322627e-38
0.054793239 -0.088580042 -0.045154065 1.751464e-38
0.056657121 -0.088580042 -0.045154065 9.1943116e-40
-0.017776964 -0.10789602 -0.12322208 2.3234357e-38
-0.01577621 -0.10789602 -0.12322208 2.2589698e-38
-0.013775457 -0.10789602 -0.12322208 2.3233282e-38
-0.011406943 -0.11057542 -0.13520774 2.3325127e-38
-0.009385176 -0.11057542 -0.13520774 2.3417324e-38
-0.0073634088 -0.11057542 -0.13520774 2.2864869e-38
-0.005055774 -0.11235337 -0.14316103 2.3509883e-38
-0.0030200593 -0.11235337 -0.14316103 2.2587927e-38
-0.00098434836 -0.11235337 -0.14316103 2.3509886e-38
0.0010513663 -0.11235337 -0.14316103 2.341805e-38
-0.00094928592 -0.091347814 -0.049197406 2.341805e-38
0.0009216778 -0.091347814 -0.049197406 2.341805e-38
0.0027926415 -0.091347814 -0.049197406 2.341805e-38
0.0044686496 -0.090443924 -0.045154065 2.3509886e-38
0.0063325204 -0.090443924 -0.045154065 2.3509886e-38
0.0081963949 -0.090443924 -0.045154065 2.3509886e-38
0.010060269 -0.090443924 -0.045154065 2.3509886e-38
0.011924144 -0.090443924 -0.045154065 2.3509886e-38
0.01401842 -0.091347814 -0.049197406 2.3509883e-38
0.015651893 -0.090443924 -0.045154065 2.350988e-38
0.017515767 -0.090443924 -0.045154065 2.3509883e-38
0.019379642 -0.090443924 -0.045154065 2.3509883e-38
0.021243516 -0.090443924 -0.045154065 2.3509886e-38
0.023373235 -0.091347814 -0.049197406 2.3509886e-38
0.025244202 -0.091347814 -0.049197406 2.3509886e-38
0.027115162 -0.091347814 -0.049197406 2.3509886e-38
0.028986122 -0.091347814 -0.049197406 2.3509527e-38
0.03085709 -0.091347814 -0.049197406 2.3509886e-38
0.03272805 -0.091347814 -0.049197406 2.3509886e-38
0.034599017 -0.091347814 -0.049197406 2.3509886e-38
0.036469981 -0.091347814 -0.049197406 2.3509883e-38
0.038340941 -0.091347814 -0.049197406 2.3509883e-38
0.040451556 -0.092004895 -0.052136749 2.350988e-38
0.042327672 -0.092004895 -0.052136749 2.350988e-38
0.044203788 -0.092004895 -0.052136749 2.3509883e-38
0.045824796 -0.091347814 -0.049197406 2.2587927e-38
0.047337741 -0.090443924 -0.045154065 2.3509886e-38
0.049201623 -0.090443924 -0.045154065 2.3509527e-38
0.051437691 -0.091347814 -0.049197406 2.3508809e-38
0.052929372 -0.090443924 -0.045154065 1.4934275e-38
0.054793239 -0.090443924 -0.045154065 7.5586221e-39
0.056657121 -0.090443924 -0.045154065 1.4737092e-39
-0.017776964 -0.10989676 -0.12322208 2.3509869e-38
-0.01577621 -0.10989676 -0.12322208 2.3418028e-38
-0.013775457 -0.10989676 -0.12322208 2.35088e-38
-0.011990931 -0.10830905 -0.11617503 2.3508445e-38
-0.010002535 -0.10830905 -0.11617503 2.3509527e-38
-0.0075024478 -0.11168094 -0.13114104 2.3416971e-38
-0.005055774 -0.11438908 -0.14316103 2.3325497e-38
-0.0030200593 -0.11438908 -0.14316103 2.3509886e-38
-0.00098434836 -0.11438908 -0.14316103 2.3325856e-38
0.0010513663 -0.11438908 -0.14316103 2.3142544e-38
-0.0011229739 -0.092307791 -0.045154065 2.3234379e-38
0.00074090064 -0.092307791 -0.045154065 2.3234379e-38
0.0026047751 -0.092307791 -0.045154065 2.3234379e-38
0.0044686496 -0.092307791 -0.045154065 2.341805e-38
0.0063325204 -0.092307791 -0.045154065 2.341805e-38
0.0081963949 -0.092307791 -0.045154065 2.341805e-38
0.010060269 -0.092307791 -0.045154065 2.3509886e-38
0.011924144 -0.092307791 -0.045154065 2.3509883e-38
0.013788018 -0.092307791 -0.045154065 2.3509876e-38
0.015651893 -0.092307791 -0.045154065 2.3509873e-38
0.017515767 -0.092307791 -0.045154065 2.3509876e-38
0.019379642 -0.092307791 -0.045154065 2.3509521e-38
0.021243516 -0.092307791 -0.045154065 2.3509527e-38
0.023107383 -0.092307791 -0.045154065 2.3509527e-38
0.024971258 -0.092307791 -0.045154065 2.3417691e-38
0.026835132 -0.092307791 -0.045154065 2.3417691e-38
0.028986122 -0.093218774 -0.049197406 2.3417691e-38
0.03085709 -0.093218774 -0.049197406 2.3417691e-38
0.03272805 -0.093218774 -0.049197406 2.341805e-38
0.034599017 -0.093218774 -0.049197406 2.341805e-38
0.036154505 -0.092307791 -0.045154065 2.350988e-38
0.038018376 -0.092307791 -0.045154065 2.3509876e-38
0.040211901 -0.093218774 -0.049197406 2.3509873e-38
0.042082861 -0.093218774 -0.049197406 2.3509873e-38
0.043610007 -0.092307791 -0.045154065 2.3417324e-38
0.045473874 -0.092307791 -0.045154065 2.3233652e-38
0.047071025 -0.091629088 -0.042141646 2.3509873e-38
0.048929617 -0.091629088 -0.042141646 2.341804e-38
0.05106549 -0.092307791 -0.045154065 2.2773763e-38
0.056657121 -0.092307791 -0.045154065 2.4890017e-39
-0.013979327 -0.11029746 -0.11617503 2.3508086e-38
-0.011990931 -0.11029746 -0.11617503 2.3508451e-38
-0.010002535 -0.11029746 -0.11617503 2.3509168e-38
-0.0075024478 -0.11369558 -0.13114104 2.3508809e-38
-0.0049113557 -0.11733709 -0.14717898 2.3509527e-38
-0.0028685965 -0.11733709 -0.14717898 2.3509527e-38
-0.00082583725 -0.11733709 -0.14717898 2.3141467e-38
-0.0029868484 -0.094171658 -0.045154065 2.3050349e-38
-0.0011229739 -0.094171658 -0.045154065 2.3234379e-38
0.00074090064 -0.094171658 -0.045154065 2.3234379e-38
0.0026047751 -0.094171658 -0.045154065 2.3234379e-38
0.0044686496 -0.094171658 -0.045154065 2.3234379e-38
0.0063325204 -0.094171658 -0.045154065 2.341805e-38
0.0080405846 -0.09348768 -0.042141646 2.341805e-38
0.0098991767 -0.09348768 -0.042141646 2.3509886e-38
0.011757769 -0.09348768 -0.042141646 2.3509883e-38
0.013616361 -0.09348768 -0.042141646 2.3509873e-38
0.015474953 -0.09348768 -0.042141646 2.350987e-38
0.017333541 -0.09348768 -0.042141646 2.3509517e-38
0.019192133 -0.09348768 -0.042141646 2.3509879e-38
0.021050725 -0.09348768 -0.042141646 2.3509883e-38
0.023107383 -0.094171658 -0.045154065 2.341805e-38
0.024971258 -0.094171658 -0.045154065 2.341805e-38
0.026835132 -0.094171658 -0.045154065 2.3234379e-38
0.028986122 -0.095089734 -0.049197406 2.3234379e-38
0.03085709 -0.095089734 -0.049197406 2.3234379e-38
0.032426756 -0.094171658 -0.045154065 2.341805e-38
0.03429063 -0.094171658 -0.045154065 2.3418047e-38
0.035919461 -0.09348768 -0.042141646 2.3509879e-38
0.03777805 -0.09348768 -0.042141646 2.3509876e-38
0.039882258 -0.094171658 -0.045154065 2.350987e-38
0.041495249 -0.09348768 -0.042141646 2.3509873e-38
0.04309912 -0.092807561 -0.039146274 2.3509527e-38
0.044952452 -0.092807561 -0.039146274 2.3509883e-38
0.046542078 -0.092131287 -0.03616783 2.3234001e-38
0.048024088 -0.091210663 -0.032113284 2.2221288e-38
0.049865097 -0.091210663 -0.032113284 2.2867036e-38
-0.040644526 -0.081859455 0.016801625 7.3708299e-42
-0.038889281 -0.081859455 0.016801625 8.075683e-42
-0.037134036 -0.081859455 0.016801625 9.8637399e-42
-0.013732661 -0.085973322 -0.001177758 2.3508451e-38
-0.0085996874 -0.084593475 0.0048528016 2.3509886e-38
-0.0029868484 -0.09603554 -0.045154065 2.341805e-38
-0.0011229739 -0.09603554 -0.045154065 2.341805e-38
0.00074090064 -0.09603554 -0.045154065 2.341805e-38
0.0026047751 -0.09603554 -0.045154065 2.3418047e-38
0.0044686496 -0.09603554 -0.045154065 2.3418047e-38
0.0063325204 -0.09603554 -0.045154065 2.3509883e-38
0.0080405846 -0.095346272 -0.042141646 2.3509883e-38
0.0098991767 -0.095346272 -0.042141646 2.3509527e-38
0.011757769 -0.095346272 -0.042141646 2.3509883e-38
0.013616361 -0.095346272 -0.042141646 2.3509879e-38
0.015299015 -0.094660893 -0.039146274 2.3509879e-38
0.01715235 -0.094660893 -0.039146274 2.3509879e-38
0.019005697 -0.094660893 -0.039146274 2.3509879e-38
0.020859037 -0.094660893 -0.039146274 2.3418043e-38
0.022909317 -0.095346272 -0.042141646 2.3234374e-38
0.024767909 -0.095346272 -0.042141646 2.3234374e-38
0.026626501 -0.095346272 -0.042141646 2.3142538e-38
0.028485093 -0.095346272 -0.042141646 2.3142541e-38
0.030343685 -0.095346272 -0.042141646 2.3142538e-38
0.032202277 -0.095346272 -0.042141646 2.3234374e-38
0.034060869 -0.095346272 -0.042141646 2.3234372e-38
0.035685759 -0.094660893 -0.039146274 2.3418043e-38
0.037539095 -0.094660893 -0.039146274 2.3418043e-38
0.039149597 -0.093979403 -0.03616783 2.3509879e-38
0.040997729 -0.093979403 -0.03616783 2.350988e-38
0.042845845 -0.093979403 -0.03616783 2.2955641e-38
0.044693962 -0.093979403 -0.03616783 2.3509527e-38
0.046183079 -0.093051672 -0.032113284 2.350988e-38
0.047758684 -0.092379183 -0.029174179 2.3234374e-38
0.049594551 -0.092379183 -0.029174179 2.3142544e-38
-0.040644526 -0.083614707 0.016801625 1.1686829e-41
-0.038889281 -0.083614707 0.016801625 1.1314084e-41
-0.037134036 -0.083614707 0.016801625 3.8080286e-40
-0.035378791 -0.083614707 0.016801625 1.208037e-39
-0.033623546 -0.083614707 0.016801625 1.2977145e-39
-0.031868301 -0.083614707 0.016801625 1.5703567e-39
-0.0085996874 -0.086369663 0.0048528016 2.3324778e-38
-0.0068234913 -0.086369663 0.0048528016 2.3509886e-38
-0.0011229739 -0.097899407 -0.045154065 2.350988e-38
0.00074090064 -0.097899407 -0.045154065 2.3418045e-38
0.0026047751 -0.097899407 -0.045154065 2.3509879e-38
0.0044686496 -0.097899407 -0.045154065 2.3509879e-38
0.0063325204 -0.097899407 -0.045154065 2.350988e-38
0.0080405846 -0.097204864 -0.042141646 2.3509883e-38
0.0098991767 -0.097204864 -0.042141646 2.3509883e-38
0.011757769 -0.097204864 -0.042141646 2.3509527e-38
0.013616361 -0.097204864 -0.042141646 2.3509527e-38
0.015299015 -0.09651424 -0.039146274 2.3509886e-38
0.01715235 -0.09651424 -0.039146274 2.3509886e-38
0.019005697 -0.09651424 -0.039146274 2.3418047e-38
0.020859037 -0.09651424 -0.039146274 2.3234374e-38
0.022909317 -0.097204864 -0.042141646 2.3234372e-38
0.024767909 -0.097204864 -0.042141646 2.3142537e-38
0.026626501 -0.097204864 -0.042141646 2.3142534e-38
0.028485093 -0.097204864 -0.042141646 2.3142537e-38
0.030343685 -0.097204864 -0.042141646 2.3142537e-38
0.031757135 -0.09582752 -0.03616783 2.3234372e-38
0.033071842 -0.094215035 -0.029174179 2.3234374e-38
0.034907702 -0.094215035 -0.029174179 2.3418047e-38
0.036743551 -0.094215035 -0.029174179 2.341805e-38
0.038579404 -0.094215035 -0.029174179 2.3509886e-38
0.040415272 -0.094215035 -0.029174179 2.3509168e-38
0.042251125 -0.094215035 -0.029174179 2.3508809e-38
0.044086978 -0.094215035 -0.029174179 2.3509168e-38
0.045654505 -0.093516305 -0.02614364 2.3509886e-38
0.047485039 -0.093516305 -0.02614364 1.8716076e-38
0.049315587 -0.093516305 -0.02614364 1.4015193e-38
0.051146135 -0.093516305 -0.02614364 1.8516898e-40
-0.040626206 -0.086063579 0.01381591 1.3118956e-41
-0.038889281 -0.085369945 0.016801625 7.342804e-42
-0.037134036 -0.085369945 0.016801625 7.6931286e-42
-0.035378791 -0.085369945 0.016801625 2.8643522e-40
-0.033623546 -0.085369945 0.016801625 6.5305974e-40
-0.031868301 -0.085369945 0.016801625 1.1108093e-39
-0.030113058 -0.085369945 0.016801625 2.0298845e-39
-0.020650297 -0.091643453 -0.010202497 2.055105e-38
-0.018847706 -0.091643453 -0.010202497 2.2579692e-38
-0.017045114 -0.091643453 -0.010202497 2.2950981e-38
-0.015519429 -0.089546859 -0.001177758 2.3507374e-38
-0.013732661 -0.089546859 -0.001177758 2.3507733e-38
-0.012047544 -0.088856161 0.0017953217 2.3508451e-38
-0.010375883 -0.088145852 0.0048528016 2.3509168e-38
-0.0085996874 -0.088145852 0.0048528016 2.3232583e-38
-0.0068234913 -0.088145852 0.0048528016 2.3048542e-38
-0.00094928592 -0.10070263 -0.049197406 2.3509876e-38
0.0009216778 -0.10070263 -0.049197406 2.3509873e-38
0.0026047751 -0.099763289 -0.045154065 2.3509873e-38
0.0044686496 -0.099763289 -0.045154065 2.3509876e-38
0.0063325204 -0.099763289 -0.045154065 2.3509879e-38
0.0081963949 -0.099763289 -0.045154065 2.3509521e-38
0.010060269 -0.099763289 -0.045154065 2.3509524e-38
0.011924144 -0.099763289 -0.045154065 2.3509168e-38
0.013788018 -0.099763289 -0.045154065 2.3509168e-38
0.015474953 -0.099063456 -0.042141646 2.3417333e-38
0.017333541 -0.099063456 -0.042141646 2.3417691e-38
0.019192133 -0.099063456 -0.042141646 2.341805e-38
0.021050725 -0.099063456 -0.042141646 2.3234379e-38
0.022909317 -0.099063456 -0.042141646 2.3234379e-38
0.024767909 -0.099063456 -0.042141646 2.3142538e-38
0.026626501 -0.099063456 -0.042141646 2.3142537e-38
0.028485093 -0.099063456 -0.042141646 2.3234374e-38
0.030343685 -0.099063456 -0.042141646 2.3234374e-38
0.031757135 -0.097675636 -0.03616783 2.341805e-38
0.033071842 -0.096050888 -0.029174179 2.341805e-38
0.034671251 -0.095346853 -0.02614364 2.3509527e-38
0.036501795 -0.095346853 -0.02614364 2.3509168e-38
0.038086668 -0.094646841 -0.023130506 2.3508809e-38
0.039911926 -0.094646841 -0.023130506 2.3508809e-38
0.041148052 -0.093037367 -0.016202539 2.2769821e-38
0.042695478 -0.092326149 -0.013141125 2.2863091e-38
0.044503212 -0.092326149 -0.013141125 2.2495382e-38
0.046310961 -0.092326149 -0.013141125 8.2054223e-39
0.048118711 -0.092326149 -0.013141125 4.3335828e-39
0.050582483 -0.093950883 -0.020134777 1.6588669e-39
0.052688748 -0.094646841 -0.023130506 2.7634811e-39
-0.040626206 -0.087824062 0.01381591 2.2232819e-39
-0.038865723 -0.087824062 0.01381591 1.117642e-39
-0.037134036 -0.087125197 0.016801625 2.5002093e-39
-0.035378791 -0.087125197 0.016801625 5.9100015e-39
-0.033623546 -0.087125197 0.016801625 7.5680851e-39
-0.031868301 -0.087125197 0.016801625 7.8414448e-39
-0.030113058 -0.087125197 0.016801625 6.7325791e-39
-0.022524513 -0.092737779 -0.0071766078 2.576894e-39
-0.020727227 -0.092737779 -0.0071766078 3.1289916e-39
-0.019011693 -0.09203364 -0.0041683614 4.6030286e-39
-0.017306199 -0.091333628 -0.001177758 1.1150329e-38
-0.015519429 -0.091333628 -0.001177758 1.7604726e-38
-0.013732661 -0.091333628 -0.001177758 1.9817415e-38
-0.012047544 -0.090637714 0.0017953217 2.1754954e-38
-0.010375883 -0.089922056 0.0048528016 2.3508451e-38
-0.0085996874 -0.089922056 0.0048528016 2.3508451e-38
-0.0068234913 -0.089922056 0.0048528016 2.3509521e-38
-0.0051725209 -0.089210689 0.0078919232 2.3509876e-38
-0.00082302094 -0.1032616 -0.052136749 2.3509873e-38
0.0010530949 -0.1032616 -0.052136749 2.350987e-38
0.0026047751 -0.10162716 -0.045154065 2.350987e-38
0.0044686496 -0.10162716 -0.045154065 2.3509873e-38
0.0063325204 -0.10162716 -0.045154065 2.3509879e-38
0.0081963949 -0.10162716 -0.045154065 2.3509521e-38
0.010060269 -0.10162716 -0.045154065 2.3509165e-38
0.011924144 -0.10162716 -0.045154065 2.3509168e-38
0.013788018 -0.10162716 -0.045154065 2.3509168e-38
0.015651893 -0.10162716 -0.045154065 2.3417333e-38
0.017515767 -0.10162716 -0.045154065 2.3417333e-38
0.019192133 -0.10092205 -0.042141646 2.3417691e-38
0.021050725 -0.10092205 -0.042141646 2.341805e-38
0.022909317 -0.10092205 -0.042141646 2.3234379e-38
0.024767909 -0.10092205 -0.042141646 2.3234376e-38
0.026626501 -0.10092205 -0.042141646 2.3234374e-38
0.028485093 -0.10092205 -0.042141646 2.3418045e-38
0.030343685 -0.10092205 -0.042141646 2.3418047e-38
0.031979073 -0.10022092 -0.039146274 2.341805e-38
0.033071842 -0.097886756 -0.029174179 2.3509527e-38
0.034671251 -0.097177386 -0.02614364 2.3509168e-38
0.036501795 -0.097177386 -0.02614364 2.3508809e-38
0.038086668 -0.096472099 -0.023130506 2.3508809e-38
0.038835242 -0.093446046 -0.010202497 2.3508092e-38
0.040380523 -0.092737779 -0.0071766078 2.3508451e-38
0.042177811 -0.092737779 -0.0071766078 2.3508809e-38
0.0439751 -0.092737779 -0.0071766078 2.3509527e-38
0.045772389 -0.092737779 -0.0071766078 2.3041859e-39
0.047569677 -0.092737779 -0.0071766078 1.1056581e-39
0.049650788 -0.093446046 -0.010202497 2.4879115e-39
0.052026734 -0.094850481 -0.016202539 3.2237334e-39
-0.040607773 -0.090292826 0.010812432 8.1201869e-39
-0.038865723 -0.089584544 0.01381591 5.631258e-39
-0.037134036 -0.088880435 0.016801625 5.5394169e-39
-0.035378791 -0.088880435 0.016801625 7.9365005e-39
-0.033623546 -0.088880435 0.016801625 9.0428508e-39
-0.031868301 -0.088880435 0.016801625 9.5016794e-39
-0.030113058 -0.088880435 0.016801625 6.5507032e-39
-0.028302845 -0.089584544 0.01381591 4.1518217e-39
-0.022524513 -0.094535068 -0.0071766078 1.5678162e-39
-0.020803707 -0.093825653 -0.0041683614 1.3452465e-43
-0.019011693 -0.093825653 -0.0041683614 1.1043073e-39
-0.017306199 -0.093120396 -0.001177758 8.9390959e-39
-0.015519429 -0.093120396 -0.001177758 1.8066078e-38
-0.013829097 -0.092419267 0.0017953217 2.1108885e-38
-0.012152079 -0.091698244 0.0048528016 2.2860939e-38
-0.01048512 -0.090981558 0.0078919232 2.3508092e-38
-0.0087142512 -0.090981558 0.0078919232 2.3508451e-38
-0.006943386 -0.090981558 0.0078919232 2.3509524e-38
-0.0051725209 -0.090981558 0.0078919232 2.3324407e-38
-0.00094928592 -0.10444455 -0.049197406 2.3509873e-38
0.0009216778 -0.10444455 -0.049197406 2.350987e-38
0.0024648085 -0.10278064 -0.042141646 2.3509873e-38
0.0043234006 -0.10278064 -0.042141646 2.3509876e-38
0.0063325204 -0.10349102 -0.045154065 2.3509521e-38
0.0081963949 -0.10349102 -0.045154065 2.3509524e-38
0.010060269 -0.10349102 -0.045154065 2.3509168e-38
0.011924144 -0.10349102 -0.045154065 2.3509168e-38
0.013788018 -0.10349102 -0.045154065 2.3509168e-38
0.015651893 -0.10349102 -0.045154065 2.3509168e-38
0.017515767 -0.10349102 -0.045154065 2.3509527e-38
0.019192133 -0.10278064 -0.042141646 2.3509527e-38
0.021050725 -0.10278064 -0.042141646 2.3509886e-38
0.023107383 -0.10349102 -0.045154065 2.341805e-38
0.024971258 -0.10349102 -0.045154065 2.3418047e-38
0.026835132 -0.10349102 -0.045154065 2.3418047e-38
0.028986122 -0.10444455 -0.049197406 2.3509883e-38
0.030562881 -0.10349102 -0.045154065 2.3509883e-38
0.032426756 -0.10349102 -0.045154065 2.3509886e-38
0.03429063 -0.10349102 -0.045154065 2.3509527e-38
0.036154505 -0.10349102 -0.045154065 2.3509168e-38
0.036501795 -0.099007934 -0.02614364 2.3508809e-38
0.038086668 -0.098297372 -0.023130506 2.3508809e-38
0.038835242 -0.09524864 -0.010202497 2.3508809e-38
0.040124714 -0.093825653 -0.0041683614 2.3508092e-38
0.041916728 -0.093825653 -0.0041683614 2.2402473e-38
0.043708742 -0.093825653 -0.0041683614 2.0928055e-38
0.045500755 -0.093825653 -0.0041683614 6.8221277e-39
0.047569677 -0.094535068 -0.0071766078 7.5593508e-39
0.049366951 -0.094535068 -0.0071766078 4.885351e-39
0.051453382 -0.09524864 -0.010202497 3.5925047e-39
0.053255975 -0.09524864 -0.010202497 3.5010223e-39
-0.044115551 -0.094200835 0.0017953217 8.3938899e-39
-0.042347394 -0.093474448 0.0048528016 9.0392593e-39
-0.040607773 -0.092058569 0.010812432 9.5013151e-39
-0.038865723 -0.091345012 0.01381591 7.3811687e-39
-0.037105244 -0.091345012 0.01381591 6.5521241e-39
-0.035344765 -0.091345012 0.01381591 8.1194498e-39
-0.033623546 -0.090635687 0.016801625 8.5811468e-39
-0.031868301 -0.090635687 0.016801625 9.0417746e-39
-0.030113058 -0.090635687 0.016801625 1.0147768e-38
-0.028357813 -0.090635687 0.016801625 9.3172937e-39
-0.026602568 -0.090635687 0.016801625 5.5361995e-39
-0.024847323 -0.090635687 0.016801625 3.6912107e-39
-0.022666506 -0.094907165 -0.001177758 5.5347688e-39
-0.020879736 -0.094907165 -0.001177758 3.2291648e-39
-0.019173767 -0.094200835 0.0017953217 1.6596587e-39
-0.017392211 -0.094200835 0.0017953217 7.0033632e-39
-0.015610654 -0.094200835 0.0017953217 1.7420723e-38
-0.01402685 -0.092752427 0.0078919232 2.0832307e-38
-0.012355838 -0.092058569 0.010812432 2.2399968e-38
-0.010590091 -0.092058569 0.010812432 2.3508092e-38
-0.0088243447 -0.092058569 0.010812432 2.3415539e-38
-0.0070585981 -0.092058569 0.010812432 2.3509168e-38
-0.0052928552 -0.092058569 0.010812432 2.3508804e-38
-0.0035271086 -0.092058569 0.010812432 2.3509879e-38
0.0009216778 -0.10631551 -0.049197406 2.3509876e-38
0.0024648085 -0.10463922 -0.042141646 2.3509879e-38
0.0043234006 -0.10463922 -0.042141646 2.3509521e-38
0.0061819926 -0.10463922 -0.042141646 2.3509527e-38
0.008405529 -0.10631551 -0.049197406 2.3509168e-38
0.010276493 -0.10631551 -0.049197406 2.3509168e-38
0.012147456 -0.10631551 -0.049197406 2.3509168e-38
0.01401842 -0.10631551 -0.049197406 2.3509527e-38
0.01588938 -0.10631551 -0.049197406 2.3509886e-38
0.017515767 -0.10535492 -0.045154065 2.3509886e-38
0.019379642 -0.10535492 -0.045154065 2.3509886e-38
0.021243516 -0.10535492 -0.045154065 2.3509886e-38
0.023107383 -0.10535492 -0.045154065 2.3509886e-38
0.025244202 -0.10631551 -0.049197406 2.3509527e-38
0.027115162 -0.10631551 -0.049197406 2.3509527e-38
0.028986122 -0.10631551 -0.049197406 2.3509527e-38
0.03085709 -0.10631551 -0.049197406 2.3509527e-38
0.03272805 -0.10631551 -0.049197406 2.3509527e-38
0.034599017 -0.10631551 -0.049197406 2.3509527e-38
0.036469981 -0.10631551 -0.049197406 2.3509527e-38
0.034748677 -0.095617667 -0.0041683614 2.3509527e-38
0.036540687 -0.095617667 -0.0041683614 2.3509168e-38
0.038332701 -0.095617667 -0.0041683614 2.3509168e-38
0.039870396 -0.094907165 -0.001177758 2.3416615e-38
0.041657165 -0.094907165 -0.001177758 2.3509527e-38
0.043708742 -0.095617667 -0.0041683614 2.3509527e-38
0.045500755 -0.095617667 -0.0041683614 2.3233303e-38
0.047292754 -0.095617667 -0.0041683614 2.3325138e-38
0.049366951 -0.096332356 -0.0071766078 1.2536862e-38
0.051453382 -0.097051233 -0.010202497 4.6070055e-39
0.053541943 -0.097749382 -0.013141125 4.0541849e-39
-0.045897104 -0.095982388 0.0017953217 9.4998759e-39
-0.044131584 -0.094523281 0.0078919232 6.7329294e-39
-0.042360716 -0.094523281 0.0078919232 5.7187761e-39
-0.040607773 -0.093824327 0.010812432 9.038895e-39
-0.038865723 -0.093105495 0.01381591 8.6708313e-39
-0.037105244 -0.093105495 0.01381591 5.2606692e-39
-0.035378791 -0.092390925 0.016801625 8.3038439e-39
-0.033623546 -0.092390925 0.016801625 5.6301678e-39
-0.031914003 -0.091656998 0.019868225 5.9993133e-39
-0.030164137 -0.091656998 0.019868225 8.765185e-39
-0.028414268 -0.091656998 0.019868225 8.580442e-39
-0.0266644 -0.091656998 0.019868225 4.430568e-39
-0.024914533 -0.091656998 0.019868225 1.4799576e-39
-0.023164663 -0.091656998 0.019868225 2.0327796e-39
-0.021033054 -0.095250636 0.0048528016 2.7696286e-39
-0.019256858 -0.095250636 0.0048528016 2.3983111e-39
-0.017568585 -0.094523281 0.0078919232 6.3590854e-39
-0.015797719 -0.094523281 0.0078919232 1.2811315e-38
-0.01402685 -0.094523281 0.0078919232 1.8896577e-38
-0.012458526 -0.093105495 0.01381591 2.1939355e-38
-0.010698047 -0.093105495 0.01381591 2.2954209e-38
-0.0088243447 -0.093824327 0.010812432 2.2954927e-38
-0.0070585981 -0.093824327 0.010812432 2.3139674e-38
-0.0052928552 -0.093824327 0.010812432 2.3509168e-38
-0.0035271086 -0.093824327 0.010812432 2.3509527e-38
0.0010530949 -0.10888995 -0.052136749 2.3509168e-38
0.0029292144 -0.10888995 -0.052136749 2.3232585e-38
0.0048053302 -0.10888995 -0.052136749 2.3232227e-38
0.006681446 -0.10888995 -0.052136749 2.3509168e-38
0.0085575618 -0.10888995 -0.052136749 2.3508809e-38
0.010433681 -0.10888995 -0.052136749 2.3231868e-38
0.012309797 -0.10888995 -0.052136749 2.3509168e-38
0.01401842 -0.10818647 -0.049197406 2.350988e-38
0.01588938 -0.10818647 -0.049197406 2.3509873e-38
0.017515767 -0.10721879 -0.045154065 2.3233288e-38
0.019379642 -0.10721879 -0.045154065 2.3509879e-38
0.021243516 -0.10721879 -0.045154065 2.350988e-38
0.020946432 -0.086869225 0.039873153 2.3509168e-38
0.036540687 -0.09740968 -0.0041683614 2.3509873e-38
0.038332701 -0.09740968 -0.0041683614 2.3509876e-38
0.039870396 -0.096693933 -0.001177758 2.3417691e-38
0.041657165 -0.096693933 -0.001177758 2.341805e-38
0.043443933 -0.096693933 -0.001177758 2.2680488e-38
0.045500755 -0.09740968 -0.0041683614 2.3141467e-38
0.047292754 -0.09740968 -0.0041683614 2.3417333e-38
0.049084768 -0.09740968 -0.0041683614 1.2353902e-38
0.051453382 -0.098853827 -0.010202497 6.2672317e-39
0.053541943 -0.099557132 -0.013141125 3.4091616e-39
-0.045899786 -0.09702684 0.0048528016 2.7699593e-39
-0.044131584 -0.09629415 0.0078919232 3.2309374e-39
-0.042360716 -0.09629415 0.0078919232 3.5075201e-39
-0.040607773 -0.09559007 0.010812432 3.4156804e-39
-0.038865723 -0.094865978 0.01381591 4.522751e-39
-0.037105244 -0.094865978 0.01381591 4.1539699e-39
-0.035378791 -0.094146177 0.016801625 4.7078612e-39
-0.033623546 -0.094146177 0.016801625 2.6795545e-39
-0.031914003 -0.093406871 0.019868225 2.7721005e-39
-0.030164137 -0.093406871 0.019868225 5.4457737e-39
-0.028468573 -0.092695728 0.022817999 6.3670168e-39
-0.026723878 -0.092695728 0.022817999 4.3383612e-39
-0.024979182 -0.092695728 0.022817999 2.9547219e-39
-0.023234485 -0.092695728 0.022817999 3.6912135e-39
-0.021033054 -0.09702684 0.0048528016 3.3220737e-39
-0.019418821 -0.09559007 0.010812432 2.1220788e-39
-0.017739967 -0.094865978 0.01381591 4.8846826e-39
-0.015979486 -0.094865978 0.01381591 9.0316671e-39
-0.014219005 -0.094865978 0.01381591 1.2996431e-38
-0.01256061 -0.094146177 0.016801625 1.5209834e-38
-0.01102161 -0.092695728 0.022817999 1.613142e-38
-0.0092769153 -0.092695728 0.022817999 1.5947734e-38
-0.0072948746 -0.094146177 0.016801625 1.6778202e-38
-0.0057875216 -0.092695728 0.022817999 1.8530271e-38
-0.0040428266 -0.092695728 0.022817999 2.0097591e-38
-0.0022981316 -0.092695728 0.022817999 2.2310642e-38
-0.00092844293 -0.090749919 0.030889064 2.3508809e-38
0.00080210343 -0.090749919 0.030889064 2.3324421e-38
0.0025326461 -0.090749919 0.030889064 2.3232227e-38
0.0085575618 -0.11076607 -0.052136749 2.3508451e-38
0.010433681 -0.11076607 -0.052136749 2.3324062e-38
0.012309797 -0.11076607 -0.052136749 2.3140033e-38
0.01401842 -0.11005743 -0.049197406 2.2864519e-38
0.01588938 -0.11005743 -0.049197406 2.350988e-38
0.017760348 -0.11005743 -0.049197406 2.3141103e-38
0.019631308 -0.11005743 -0.049197406 2.3509527e-38
0.021502275 -0.11005743 -0.049197406 2.3508809e-38
0.033439416 -0.090031251 0.033870071 2.350988e-38
0.038083628 -0.098480701 -0.001177758 2.3325492e-38
0.039870396 -0.098480701 -0.001177758 2.3049273e-38
0.041657165 -0.098480701 -0.001177758 2.3234379e-38
0.043443933 -0.098480701 -0.001177758 2.3325856e-38
0.045230702 -0.098480701 -0.001177758 2.3234379e-38
0.04701747 -0.098480701 -0.001177758 2.3049273e-38
0.049084768 -0.099201679 -0.0041683614 1.0141204e-38
-0.054639019 -0.094440416 0.022817999 3.2301933e-39
-0.05289432 -0.094440416 0.022817999 4.5213119e-39
-0.051149625 -0.094440416 0.022817999 3.9681465e-39
-0.049396962 -0.093704656 0.025847882 4.1528937e-39
-0.047657575 -0.093704656 0.025847882 3.1401837e-39
-0.045902453 -0.098065019 0.0078919232 2.6806489e-39
-0.044131584 -0.098065019 0.0078919232 2.8650402e-39
-0.042360716 -0.098065019 0.0078919232 4.8015001e-39
-0.04058985 -0.098065019 0.0078919232 2.6809979e-39
-0.038842026 -0.097355813 0.010812432 2.8639598e-39
-0.037105244 -0.096626461 0.01381591 3.2327437e-39
-0.035344765 -0.096626461 0.01381591 3.4167734e-39
-0.033663873 -0.095156729 0.019868225 2.86395e-39
-0.031914003 -0.095156729 0.019868225 3.4160293e-39
-0.030164137 -0.095156729 0.019868225 4.7063996e-39
-0.028468573 -0.094440416 0.022817999 5.0741059e-39
-0.026723878 -0.094440416 0.022817999 4.2436334e-39
-0.024979182 -0.094440416 0.022817999 4.3344053e-39
-0.023234485 -0.094440416 0.022817999 5.5318723e-39
-0.021414796 -0.095156729 0.019868225 5.5322282e-39
-0.019664928 -0.095156729 0.019868225 4.7021004e-39
-0.017915059 -0.095156729 0.019868225 4.7006543e-39
-0.016071098 -0.095901415 0.016801625 5.6225994e-39
-0.014315855 -0.095901415 0.016801625 6.4527132e-39
-0.012665454 -0.095156729 0.019868225 7.8349204e-39
-0.011238761 -0.092973351 0.028859407 9.3100392e-39
-0.0095811673 -0.092480466 0.030889064 1.0508931e-38
-0.0078506246 -0.092480466 0.030889064 1.3366267e-38
-0.0060364492 -0.092973351 0.028859407 1.6778216e-38
-0.0043023452 -0.092973351 0.028859407 1.6870406e-38
-0.0025682412 -0.092973351 0.028859407 1.9452241e-38
-0.00092844293 -0.092480466 0.030889064 2.1296148e-38
0.00080210343 -0.092480466 0.030889064 2.1203595e-38
0.0025326461 -0.092480466 0.030889064 2.0835894e-38
0.0045239367 -0.093704656 0.025847882 2.1480895e-38
0.0064253509 -0.094440416 0.022817999 2.1941866e-38
0.0081700459 -0.094440416 0.022817999 2.1665642e-38
0.0099147409 -0.094440416 0.022817999 2.2125896e-38
0.011010278 -0.091756567 0.033870071 2.3416974e-38
0.012735594 -0.091756567 0.033870071 2.3416974e-38
0.019631308 -0.11192839 -0.049197406 2.3508092e-38
0.021502275 -0.11192839 -0.049197406 2.3507733e-38
0.017716732 -0.091037035 0.036833137 2.3138956e-38
0.019231644 -0.090298802 0.039873153 2.3507374e-38
0.020946432 -0.090298802 0.039873153 2.3322986e-38
0.028645623 -0.092973351 0.028859407 2.3231868e-38
0.029988777 -0.091756567 0.033870071 2.3324421e-38
0.031714093 -0.091756567 0.033870071 2.3233303e-38
0.033439416 -0.091756567 0.033870071 2.3233662e-38
0.035413001 -0.092480466 0.030889064 2.3142185e-38
0.037143543 -0.092480466 0.030889064 2.2588302e-38
0.038615376 -0.091756567 0.033870071 2.3142185e-38
0.043443933 -0.10026747 -0.001177758 2.323402e-38
0.045230702 -0.10026747 -0.001177758 2.3142185e-38
0.04701747 -0.10026747 -0.001177758 2.148233e-38
-0.056383714 -0.096185118 0.022817999 1.2018643e-39
-0.054639019 -0.096185118 0.022817999 1.3862723e-39
-0.05289432 -0.096185118 0.022817999 1.7547171e-39
-0.051149625 -0.096185118 0.022817999 1.8776278e-40
-0.049396962 -0.095444039 0.025847882 9.5567154e-41
-0.047657575 -0.095444039 0.025847882 2.8139755e-40
-0.045918193 -0.095444039 0.025847882 1.113319e-39
-0.044163082 -0.096906602 0.019868225 4.084785e-42
