# .PCD v0.7 - Point Cloud Data file format
VERSION 0.7
FIELDS x y z rgb
SIZE 4 4 4 4
TYPE F F F F
COUNT 1 1 1 1
WIDTH 941
HEIGHT 1
VIEWPOINT 0 0 0 1 0 0 0
POINTS 941
DATA ascii
-0.02354626 -0.12626885 0.0094026551 5.1385615e-42
-0.021764703 -0.12626885 0.0094026551 5.8658354e-42
-0.019983148 -0.12626885 0.0094026551 5.5975988e-40
-0.018201591 -0.12626885 0.0094026551 2.7731711e-39
-0.01644952 -0.12544595 0.012460135 9.2272169e-39
-0.014673324 -0.12544595 0.012460135 1.2731001e-38
-0.01289713 -0.12544595 0.012460135 1.3560762e-38
-0.011120934 -0.12544595 0.012460135 1.1993086e-38
-0.009344738 -0.12544595 0.012460135 3.3259917e-39
-0.0075685442 -0.12544595 0.012460135 5.5281224e-42
-0.0057923482 -0.12544595 0.012460135 4.9325706e-43
-0.0040827603 -0.12462802 0.015499257 6.526968e-40
-0.0023118951 -0.12462802 0.015499257 7.7521092e-39
-0.0005410281 -0.12462802 0.015499257 9.2279399e-39
0.0012298389 -0.12462802 0.015499257 1.0334994e-38
0.003000706 -0.12462802 0.015499257 8.9509789e-39
0.0047715711 -0.12462802 0.015499257 1.7589939e-39
0.0064477059 -0.12384202 0.018419765 6.91978e-39
0.008213453 -0.12384202 0.018419765 1.5122666e-38
0.0099791996 -0.12384202 0.018419765 1.6687462e-38
0.011744946 -0.12384202 0.018419765 1.7884561e-38
0.013392203 -0.12303366 0.021423243 1.5486758e-38
0.015152685 -0.12303366 0.021423243 8.8483184e-39
0.016913164 -0.12303366 0.021423243 8.7575703e-39
0.018673643 -0.12303366 0.021423243 1.7609438e-38
0.020434123 -0.12303366 0.021423243 1.807222e-38
0.022194602 -0.12303366 0.021423243 1.3648274e-38
0.023955084 -0.12303366 0.021423243 1.2082386e-38
0.025715563 -0.12303366 0.021423243 7.2889338e-39
0.027316377 -0.1222301 0.024408959 1.171468e-38
0.029071622 -0.1222301 0.024408959 2.0566127e-38
0.030826867 -0.1222301 0.024408959 2.1212563e-38
0.032582112 -0.1222301 0.024408959 1.9091711e-38
0.034337357 -0.1222301 0.024408959 1.8813693e-38
0.036092602 -0.1222301 0.024408959 1.9549829e-38
0.037847847 -0.1222301 0.024408959 2.1391571e-38
0.039603092 -0.1222301 0.024408959 2.2313154e-38
0.041358337 -0.1222301 0.024408959 2.1206824e-38
0.043113582 -0.1222301 0.024408959 2.102387e-38
0.044441603 -0.12061088 0.030425332 1.9827497e-38
0.046186298 -0.12061088 0.030425332 1.26377e-38
0.047930993 -0.12061088 0.030425332 1.3377071e-38
0.049444601 -0.1197954 0.033455215 1.6789034e-38
0.051183984 -0.1197954 0.033455215 1.6050763e-38
0.053165086 -0.12061088 0.030425332 6.6464637e-39
0.054909781 -0.12061088 0.030425332 4.5245363e-39
0.056654476 -0.12061088 0.030425332 9.5934869e-39
0.058399167 -0.12061088 0.030425332 1.4936128e-38
0.059880909 -0.1197954 0.033455215 1.5487851e-38
0.061620291 -0.1197954 0.033455215 1.6686039e-38
0.06335967 -0.1197954 0.033455215 1.2076977e-38
0.065099053 -0.1197954 0.033455215 9.2203519e-39
0.066838436 -0.1197954 0.033455215 2.2280646e-42
0.068577819 -0.1197954 0.033455215 2.6776992e-39
0.070317201 -0.1197954 0.033455215 1.3098318e-38
0.072056584 -0.1197954 0.033455215 1.5313521e-38
0.073795967 -0.1197954 0.033455215 1.448627e-38
0.075226463 -0.11898489 0.03646674 1.3934171e-38
0.076960571 -0.11898489 0.03646674 1.6793305e-38
0.078479372 -0.11843865 0.038496397 1.8452462e-38
0.080209918 -0.11843865 0.038496397 1.9098185e-38
0.081940465 -0.11843865 0.038496397 1.8636125e-38
0.083671011 -0.11843865 0.038496397 2.0386401e-38
0.085064434 -0.11763634 0.041477405 1.9186776e-38
0.08678975 -0.11763634 0.041477405 1.605105e-38
0.088515066 -0.11763634 0.041477405 1.5404976e-38
0.090240382 -0.11763634 0.041477405 1.6418774e-38
0.091965698 -0.11763634 0.041477405 1.7156693e-38
0.093691014 -0.11763634 0.041477405 1.6142541e-38
0.095416345 -0.11763634 0.041477405 1.5496102e-38
0.097141661 -0.11763634 0.041477405 6.5517023e-39
0.098866977 -0.11763634 0.041477405 3.7837048e-39
0.10059229 -0.11763634 0.041477405 1.8931542e-42
0.10231761 -0.11763634 0.041477405 1.1071533e-39
-0.11266892 -0.13399105 -0.012527443 1.134224e-38
-0.11084891 -0.13399105 -0.012527443 8.2083103e-39
-0.1090289 -0.13399105 -0.012527443 6.4569563e-39
-0.10744264 -0.13480256 -0.015523173 7.5810247e-43
-0.10561738 -0.13480256 -0.015523173 3.7138053e-40
-0.10379211 -0.13480256 -0.015523173 2.7776678e-40
-0.10174888 -0.13399105 -0.012527443 7.3766873e-40
-0.099928863 -0.13399105 -0.012527443 5.5184114e-40
-0.098108865 -0.13399105 -0.012527443 1.5649169e-39
-0.096288852 -0.13399105 -0.012527443 8.2663297e-40
-0.094468854 -0.13399105 -0.012527443 9.2485699e-44
-0.092648841 -0.13399105 -0.012527443 4.0563289e-39
-0.090828843 -0.13399105 -0.012527443 9.7756501e-39
-0.08900883 -0.13399105 -0.012527443 1.3742555e-38
-0.086957857 -0.13292582 -0.0085952058 1.7432893e-38
-0.085144743 -0.13292582 -0.0085952058 1.6326545e-38
-0.083331637 -0.13292582 -0.0085952058 1.6141802e-38
-0.081518523 -0.13292582 -0.0085952058 1.6970848e-38
-0.07970541 -0.13292582 -0.0085952058 1.9644522e-38
-0.077892296 -0.13292582 -0.0085952058 1.7985e-38
-0.075931571 -0.13209651 -0.0055337921 1.9828557e-38
-0.074123822 -0.13209651 -0.0055337921 1.8353067e-38
-0.072184697 -0.13130049 -0.0025951639 2.0104784e-38
-0.070382103 -0.13130049 -0.0025951639 1.9275023e-38
-0.068579517 -0.13130049 -0.0025951639 1.8536376e-38
-0.066776916 -0.13130049 -0.0025951639 1.8905516e-38
-0.064860262 -0.13048081 0.00043072551 1.8444535e-38
-0.063062973 -0.13048081 0.00043072551 1.9735271e-38
-0.061265685 -0.13048081 0.00043072551 2.093417e-38
-0.0594684 -0.13048081 0.00043072551 1.7430735e-38
-0.057671111 -0.13048081 0.00043072551 1.4940734e-38
-0.055873822 -0.13048081 0.00043072551 1.7336745e-38
-0.054076537 -0.13048081 0.00043072551 1.5766557e-38
-0.052279253 -0.13048081 0.00043072551 8.1136176e-39
-0.050481964 -0.13048081 0.00043072551 4.9797019e-39
-0.048684675 -0.13048081 0.00043072551 2.7882056e-40
-0.04688739 -0.13048081 0.00043072551 1.1714855e-42
-0.045090105 -0.13048081 0.00043072551 9.6689594e-44
-0.043292817 -0.13048081 0.00043072551 2.2687022e-42
-0.041495532 -0.13048081 0.00043072551 3.9677612e-39
-0.039658684 -0.1296659 0.0034389719 6.5488731e-39
-0.037866674 -0.1296659 0.0034389719 1.0605479e-38
-0.036074661 -0.1296659 0.0034389719 7.9314432e-39
-0.034282647 -0.1296659 0.0034389719 6.3644818e-39
-0.032490637 -0.1296659 0.0034389719 7.2868067e-39
-0.030698624 -0.1296659 0.0034389719 4.0603282e-39
-0.028898746 -0.12885578 0.0064295754 1.2948292e-39
-0.027111977 -0.12885578 0.0064295754 5.5834037e-40
-0.025325209 -0.12885578 0.0064295754 5.5975708e-40
-0.02354626 -0.1280504 0.0094026551 4.0553578e-42
-0.021764703 -0.1280504 0.0094026551 4.784033e-42
-0.019983148 -0.1280504 0.0094026551 1.3898835e-39
-0.018225715 -0.12722217 0.012460135 3.8795158e-39
-0.01644952 -0.12722217 0.012460135 1.2361865e-38
-0.014673324 -0.12722217 0.012460135 1.4575268e-38
-0.01289713 -0.12722217 0.012460135 1.0979636e-38
-0.011120934 -0.12722217 0.012460135 9.22757e-39
-0.0093953609 -0.12639888 0.015499257 2.0356088e-39
-0.0076244944 -0.12639888 0.015499257 3.7260526e-42
-0.0058536273 -0.12639888 0.015499257 1.1133232e-39
-0.0040827603 -0.12639888 0.015499257 3.7869923e-39
-0.0023118951 -0.12639888 0.015499257 1.1624323e-38
-0.0005410281 -0.12639888 0.015499257 1.1440985e-38
0.0012298389 -0.12639888 0.015499257 8.7669436e-39
0.003000706 -0.12639888 0.015499257 7.5673298e-39
0.0047715711 -0.12639888 0.015499257 1.3887835e-39
0.0064477059 -0.12560774 0.018419765 5.720169e-39
0.008213453 -0.12560774 0.018419765 1.5306703e-38
0.0099791996 -0.12560774 0.018419765 1.705589e-38
0.011631723 -0.12479414 0.021423243 1.6502349e-38
0.013392203 -0.12479414 0.021423243 1.4657716e-38
0.015152685 -0.12479414 0.021423243 6.821811e-39
0.016913164 -0.12479414 0.021423243 6.5466674e-39
0.018673643 -0.12479414 0.021423243 1.7149891e-38
0.020434123 -0.12479414 0.021423243 1.6690355e-38
0.022194602 -0.12479414 0.021423243 1.7060932e-38
0.023955084 -0.12479414 0.021423243 1.7338588e-38
0.025561132 -0.12398534 0.024408959 1.1346224e-38
0.027316377 -0.12398534 0.024408959 1.5310988e-38
0.029071622 -0.12398534 0.024408959 2.1764652e-38
0.030826867 -0.12398534 0.024408959 2.1856845e-38
0.032582112 -0.12398534 0.024408959 2.0749412e-38
0.034337357 -0.12398534 0.024408959 2.1208243e-38
0.036092602 -0.12398534 0.024408959 2.1851822e-38
0.037847847 -0.12398534 0.024408959 2.2863809e-38
0.039603092 -0.12398534 0.024408959 2.3232585e-38
0.041358337 -0.12398534 0.024408959 2.1942942e-38
0.043113582 -0.12398534 0.024408959 2.1852901e-38
0.044441603 -0.12235557 0.030425332 2.1395876e-38
0.046186298 -0.12235557 0.030425332 1.5037621e-38
0.047930993 -0.12235557 0.030425332 1.4578804e-38
0.049675688 -0.12235557 0.030425332 1.891201e-38
0.051420391 -0.12235557 0.030425332 1.9648849e-38
0.053165086 -0.12235557 0.030425332 1.1442398e-38
0.054909781 -0.12235557 0.030425332 5.7237661e-39
0.056654476 -0.12235557 0.030425332 8.3023627e-39
0.058399167 -0.12235557 0.030425332 1.6687111e-38
0.059880909 -0.12153481 0.033455215 1.806752e-38
0.061620291 -0.12153481 0.033455215 2.2953492e-38
0.06335967 -0.12153481 0.033455215 1.5302015e-38
0.065099053 -0.12153481 0.033455215 1.4012721e-38
0.066838436 -0.12153481 0.033455215 1.84434e-39
0.068577819 -0.12153481 0.033455215 2.9455294e-42
0.070317201 -0.12153481 0.033455215 9.2257455e-39
0.072056584 -0.12153481 0.033455215 1.2917524e-38
0.073795967 -0.12153481 0.033455215 1.4302969e-38
0.075226463 -0.120719 0.03646674 1.2277178e-38
0.076960571 -0.120719 0.03646674 1.4675694e-38
0.078694664 -0.120719 0.03646674 1.5689121e-38
0.080428772 -0.120719 0.03646674 1.6426318e-38
0.081940465 -0.12016918 0.038496397 1.7992922e-38
0.083671011 -0.12016918 0.038496397 1.8545374e-38
0.085064434 -0.11936165 0.041477405 1.9281497e-38
0.08678975 -0.11936165 0.041477405 1.4394058e-38
0.088515066 -0.11936165 0.041477405 1.1995546e-38
0.090240382 -0.11936165 0.041477405 1.2917506e-38
0.091965698 -0.11936165 0.041477405 1.5129836e-38
0.093691014 -0.11936165 0.041477405 1.3469596e-38
0.095416345 -0.11936165 0.041477405 1.5035488e-38
0.097141661 -0.11936165 0.041477405 5.5371973e-39
0.098866977 -0.11936165 0.041477405 8.3273002e-40
0.10059229 -0.11936165 0.041477405 1.1798933e-42
0.10231761 -0.11936165 0.041477405 1.4752198e-39
-0.11266892 -0.13581105 -0.012527443 1.2448945e-38
-0.11084891 -0.13581105 -0.012527443 8.9465942e-39
-0.1090289 -0.13581105 -0.012527443 6.6413476e-39
-0.10744264 -0.13662781 -0.015523173 1.8413062e-42
-0.10538889 -0.13581105 -0.012527443 2.7882897e-40
-0.10356889 -0.13581105 -0.012527443 1.8521662e-40
-0.10174888 -0.13581105 -0.012527443 5.5292295e-40
-0.099928863 -0.13581105 -0.012527443 7.3587647e-40
-0.098108865 -0.13581105 -0.012527443 1.0509738e-43
-0.096288852 -0.13581105 -0.012527443 9.9492191e-44
-0.094468854 -0.13581105 -0.012527443 2.2102835e-39
-0.092648841 -0.13581105 -0.012527443 7.8472714e-44
-0.090828843 -0.13581105 -0.012527443 3.4155963e-39
-0.08900883 -0.13581105 -0.012527443 9.963979e-39
-0.086957857 -0.13473894 -0.0085952058 1.3930902e-38
-0.085144743 -0.13473894 -0.0085952058 1.6696771e-38
-0.083331637 -0.13473894 -0.0085952058 1.8446338e-38
-0.081518523 -0.13473894 -0.0085952058 1.9829279e-38
-0.07970541 -0.13473894 -0.0085952058 2.0566125e-38
-0.077892296 -0.13473894 -0.0085952058 2.0012954e-38
-0.075931571 -0.13390426 -0.0055337921 1.9275031e-38
-0.074123822 -0.13390426 -0.0055337921 1.7984293e-38
-0.072184697 -0.13310309 -0.0025951639 1.8260882e-38
-0.070382103 -0.13310309 -0.0025951639 1.752332e-38
-0.068579517 -0.13310309 -0.0025951639 1.8628949e-38
-0.066776916 -0.13310309 -0.0025951639 1.9643101e-38
-0.064860262 -0.1322781 0.00043072551 1.8444555e-38
-0.063062973 -0.1322781 0.00043072551 1.8353078e-38
-0.061265685 -0.1322781 0.00043072551 1.9920041e-38
-0.0594684 -0.1322781 0.00043072551 1.6785749e-38
-0.057671111 -0.1322781 0.00043072551 1.1161454e-38
-0.055873822 -0.1322781 0.00043072551 8.9469656e-39
-0.054076537 -0.1322781 0.00043072551 8.5745972e-39
-0.052279253 -0.1322781 0.00043072551 9.40329e-39
-0.050481964 -0.1322781 0.00043072551 6.6388729e-39
-0.048684675 -0.1322781 0.00043072551 9.2455431e-40
-0.04688739 -0.1322781 0.00043072551 1.0174842e-39
-0.045090105 -0.1322781 0.00043072551 1.8987594e-42
-0.043292817 -0.1322781 0.00043072551 2.9819631e-42
-0.041495532 -0.1322781 0.00043072551 8.4857002e-39
-0.039658684 -0.13145791 0.0034389719 9.4987717e-39
-0.037866674 -0.13145791 0.0034389719 7.930367e-39
-0.036074661 -0.13145791 0.0034389719 3.8737593e-39
-0.034282647 -0.13145791 0.0034389719 3.1361956e-39
-0.032490637 -0.13145791 0.0034389719 6.0868257e-39
-0.030685514 -0.13064255 0.0064295754 7.5630418e-39
-0.028898746 -0.13064255 0.0064295754 4.5216735e-39
-0.027111977 -0.13064255 0.0064295754 4.8050524e-42
-0.025327815 -0.12983195 0.0094026551 6.9420326e-42
-0.02354626 -0.12983195 0.0094026551 4.4126889e-42
-0.021764703 -0.12983195 0.0094026551 8.3706284e-40
-0.019983148 -0.12983195 0.0094026551 8.1205148e-39
-0.018225715 -0.12899835 0.012460135 9.7803907e-39
-0.01644952 -0.12899835 0.012460135 1.3929544e-38
-0.014673324 -0.12899835 0.012460135 1.420648e-38
-0.01289713 -0.12899835 0.012460135 6.8308326e-39
-0.011166228 -0.12816976 0.015499257 2.8660715e-39
-0.0093953609 -0.12816976 0.015499257 6.9448352e-42
-0.0076244944 -0.12816976 0.015499257 6.6071223e-42
-0.0058536273 -0.12816976 0.015499257 5.1699295e-39
-0.0040827603 -0.12816976 0.015499257 6.4610215e-39
-0.0023118951 -0.12816976 0.015499257 1.2454439e-38
-0.0005410281 -0.12816976 0.015499257 1.125695e-38
0.0012298389 -0.12816976 0.015499257 5.9085231e-39
0.003000706 -0.12816976 0.015499257 1.2958802e-39
0.0046819611 -0.1273735 0.018419765 1.8773756e-40
0.0064477059 -0.1273735 0.018419765 2.307507e-39
0.008213453 -0.1273735 0.018419765 1.6135038e-38
0.0099791996 -0.1273735 0.018419765 1.7978218e-38
0.011631723 -0.12655462 0.021423243 1.0601843e-38
0.013392203 -0.12655462 0.021423243 8.5738951e-39
0.015152685 -0.12655462 0.021423243 6.4459729e-44
0.016913164 -0.12655462 0.021423243 4.8878762e-39
0.018673643 -0.12655462 0.021423243 1.8165486e-38
0.020434123 -0.12655462 0.021423243 1.7982893e-38
0.022194602 -0.12655462 0.021423243 1.7246039e-38
0.023955084 -0.12655462 0.021423243 1.5495027e-38
0.025561132 -0.12574057 0.024408959 1.1254014e-38
0.027316377 -0.12574057 0.024408959 1.5955977e-38
0.029071622 -0.12574057 0.024408959 2.2224189e-38
0.030826867 -0.12574057 0.024408959 2.2775199e-38
0.032582112 -0.12574057 0.024408959 2.2222737e-38
0.034337357 -0.12574057 0.024408959 2.3326213e-38
0.036092602 -0.12574057 0.024408959 2.3509527e-38
0.037847847 -0.12574057 0.024408959 2.3509168e-38
0.039603092 -0.12574057 0.024408959 2.3509168e-38
0.041358337 -0.12574057 0.024408959 2.2864163e-38
0.043113582 -0.12574057 0.024408959 2.295887e-38
0.044441603 -0.12410025 0.030425332 2.1487693e-38
0.046186298 -0.12410025 0.030425332 2.029131e-38
0.047930993 -0.12410025 0.030425332 1.9371519e-38
0.049675688 -0.12410025 0.030425332 1.955664e-38
0.051420391 -0.12410025 0.030425332 1.9187155e-38
0.053165086 -0.12410025 0.030425332 1.5406069e-38
0.054909781 -0.12410025 0.030425332 1.1440233e-38
0.056654476 -0.12410025 0.030425332 1.3557854e-38
0.058399167 -0.12410025 0.030425332 1.4658437e-38
0.059880909 -0.12327419 0.033455215 1.8342659e-38
0.061620291 -0.12327419 0.033455215 2.2860221e-38
0.06335967 -0.12327419 0.033455215 1.2903486e-38
0.065099053 -0.12327419 0.033455215 1.161419e-38
0.066838436 -0.12327419 0.033455215 2.1198451e-39
0.068577819 -0.12327419 0.033455215 1.1462621e-42
0.070024155 -0.12245311 0.03646674 3.6943721e-39
0.071758263 -0.12245311 0.03646674 8.6768919e-39
0.073492356 -0.12245311 0.03646674 1.4488454e-38
0.075226463 -0.12245311 0.03646674 1.5505118e-38
0.076960571 -0.12245311 0.03646674 1.6151198e-38
0.078479372 -0.12189974 0.038496397 1.5137401e-38
0.080209918 -0.12189974 0.038496397 1.6612162e-38
0.081940465 -0.12189974 0.038496397 1.8915958e-38
0.083671011 -0.12189974 0.038496397 1.92833e-38
0.085064434 -0.12108697 0.041477405 1.8913806e-38
0.08678975 -0.12108697 0.041477405 1.6884432e-38
0.088515066 -0.12108697 0.041477405 1.5962128e-38
0.090240382 -0.12108697 0.041477405 1.6237638e-38
0.091965698 -0.12108697 0.041477405 1.6973757e-38
0.093691014 -0.12108697 0.041477405 1.1994114e-38
0.095416345 -0.12108697 0.041477405 1.1992681e-38
0.097141661 -0.12108697 0.041477405 2.8169182e-40
0.098866977 -0.12108697 0.041477405 2.7848285e-40
0.10059229 -0.12108697 0.041477405 1.8413762e-40
0.10231761 -0.12108697 0.041477405 6.443857e-40
0.10443754 -0.12189974 0.038496397 3.3173177e-39
-0.11266892 -0.13763104 -0.012527443 1.32787e-38
-0.11084891 -0.13763104 -0.012527443 9.4075682e-39
-0.1090289 -0.13763104 -0.012527443 6.5491519e-39
-0.10744264 -0.13845308 -0.015523173 2.2070451e-42
-0.10538889 -0.13763104 -0.012527443 8.0995051e-43
-0.10356889 -0.13763104 -0.012527443 1.1350518e-43
-0.10174888 -0.13763104 -0.012527443 1.1350518e-43
-0.099928863 -0.13763104 -0.012527443 5.5149082e-40
-0.098108865 -0.13763104 -0.012527443 1.0113872e-39
-0.096023418 -0.13655205 -0.0085952058 4.5928398e-40
-0.094210304 -0.13655205 -0.0085952058 8.9683102e-44
-0.092397191 -0.13655205 -0.0085952058 1.0153094e-39
-0.090584077 -0.13655205 -0.0085952058 5.4342354e-42
-0.088770963 -0.13655205 -0.0085952058 4.9868583e-39
-0.086957857 -0.13655205 -0.0085952058 5.4499944e-39
-0.085144743 -0.13655205 -0.0085952058 1.3931992e-38
-0.083331637 -0.13655205 -0.0085952058 1.4481932e-38
-0.081518523 -0.13655205 -0.0085952058 1.5218778e-38
-0.07970541 -0.13655205 -0.0085952058 1.549465e-38
-0.077739321 -0.13571201 -0.0055337921 1.5309903e-38
-0.075931571 -0.13571201 -0.0055337921 1.5125518e-38
-0.074123822 -0.13571201 -0.0055337921 1.2912466e-38
-0.072184697 -0.13490568 -0.0025951639 1.4111374e-38
-0.070382103 -0.13490568 -0.0025951639 1.383479e-38
-0.068579517 -0.13490568 -0.0025951639 1.3465653e-38
-0.066776916 -0.13490568 -0.0025951639 1.4295416e-38
-0.064860262 -0.13407536 0.00043072551 1.447981e-38
-0.063062973 -0.13407536 0.00043072551 1.4848953e-38
-0.061265685 -0.13407536 0.00043072551 1.6876897e-38
-0.0594684 -0.13407536 0.00043072551 1.7246039e-38
-0.057671111 -0.13407536 0.00043072551 1.309652e-38
-0.055873822 -0.13407536 0.00043072551 7.9317697e-39
-0.054076537 -0.13407536 0.00043072551 9.1263612e-39
-0.052279253 -0.13407536 0.00043072551 9.6795406e-39
-0.050481964 -0.13407536 0.00043072551 4.979367e-39
-0.048684675 -0.13407536 0.00043072551 1.5274153e-42
-0.04688739 -0.13407536 0.00043072551 2.9693514e-42
-0.045090105 -0.13407536 0.00043072551 5.1357589e-42
-0.043292817 -0.13407536 0.00043072551 1.7572157e-39
-0.041495532 -0.13407536 0.00043072551 1.1712546e-38
-0.039658684 -0.13324992 0.0034389719 1.0789508e-38
-0.037866674 -0.13324992 0.0034389719 5.2563308e-39
-0.036074661 -0.13324992 0.0034389719 2.5815813e-39
-0.034282647 -0.13324992 0.0034389719 1.9369336e-39
-0.032490637 -0.13324992 0.0034389719 4.1499944e-39
-0.030685514 -0.13242932 0.0064295754 9.2221974e-39
-0.028898746 -0.13242932 0.0064295754 8.1169359e-39
-0.027111977 -0.13242932 0.0064295754 1.2962543e-39
-0.025327815 -0.13161351 0.0094026551 4.6242849e-43
-0.02354626 -0.13161351 0.0094026551 2.2546892e-42
-0.021764703 -0.13161351 0.0094026551 1.0092852e-40
-0.019983148 -0.13161351 0.0094026551 1.0795616e-38
-0.018225715 -0.13077454 0.012460135 1.3100858e-38
-0.01644952 -0.13077454 0.012460135 1.3377798e-38
-0.014673324 -0.13077454 0.012460135 1.4023168e-38
-0.01289713 -0.13077454 0.012460135 4.8032518e-39
-0.011166228 -0.12994061 0.015499257 1.0228848e-39
-0.0093953609 -0.12994061 0.015499257 6.2273704e-42
-0.0076244944 -0.12994061 0.015499257 9.9518816e-41
-0.0058536273 -0.12994061 0.015499257 8.2127356e-39
-0.0040827603 -0.12994061 0.015499257 1.0516899e-38
-0.0023118951 -0.12994061 0.015499257 1.4297625e-38
-0.0005410281 -0.12994061 0.015499257 1.1716848e-38
0.0012298389 -0.12994061 0.015499257 3.3263308e-39
0.003000706 -0.12994061 0.015499257 6.4908986e-40
0.0046819611 -0.12913923 0.018419765 1.3845025e-39
0.0064477059 -0.12913923 0.018419765 2.3975628e-39
0.008213453 -0.12913923 0.018419765 1.6134339e-38
0.0099791996 -0.12913923 0.018419765 1.806935e-38
0.011631723 -0.12831511 0.021423243 6.9140403e-39
0.013392203 -0.12831511 0.021423243 4.702064e-39
0.015152685 -0.12831511 0.021423243 8.3128949e-40
0.016913164 -0.12831511 0.021423243 5.1659274e-39
0.018673643 -0.12831511 0.021423243 1.5860981e-38
0.020434123 -0.12831511 0.021423243 1.5309959e-38
0.022194602 -0.12831511 0.021423243 1.4388349e-38
0.023955084 -0.12831511 0.021423243 1.3650766e-38
0.025715563 -0.12831511 0.021423243 1.4111366e-38
0.027316377 -0.12749584 0.024408959 1.724564e-38
0.029071622 -0.12749584 0.024408959 2.2867037e-38
0.030826867 -0.12749584 0.024408959 2.3141109e-38
0.032582112 -0.12749584 0.024408959 2.2864164e-38
0.034337357 -0.12749584 0.024408959 2.3509527e-38
0.036092602 -0.12749584 0.024408959 2.3418043e-38
0.037847847 -0.12749584 0.024408959 2.3234004e-38
0.039603092 -0.12749584 0.024408959 2.3418033e-38
0.041358337 -0.12749584 0.024408959 2.2865936e-38
0.043113582 -0.12749584 0.024408959 2.3142528e-38
0.044441603 -0.12584494 0.030425332 2.2958866e-38
0.046186298 -0.12584494 0.030425332 2.2775202e-38
0.047930993 -0.12584494 0.030425332 2.2224189e-38
0.049675688 -0.12584494 0.030425332 2.1672099e-38
0.051420391 -0.12584494 0.030425332 2.1396234e-38
0.053165086 -0.12584494 0.030425332 1.807758e-38
0.054909781 -0.12584494 0.030425332 1.3283771e-38
0.056654476 -0.12584494 0.030425332 1.3926983e-38
0.058399167 -0.12584494 0.030425332 1.5857332e-38
0.059880909 -0.12501357 0.033455215 1.9910702e-38
0.061620291 -0.12501357 0.033455215 2.1846802e-38
0.06335967 -0.12501357 0.033455215 1.3734325e-38
0.065099053 -0.12501357 0.033455215 9.6780819e-39
0.066838436 -0.12501357 0.033455215 1.0135003e-39
0.068577819 -0.12501357 0.033455215 1.8698506e-40
0.070024155 -0.12418722 0.03646674 9.2923044e-40
0.071758263 -0.12418722 0.03646674 2.223572e-39
0.073492356 -0.12418722 0.03646674 9.5106239e-39
0.075226463 -0.12418722 0.03646674 1.4491702e-38
0.076748826 -0.12363027 0.038496397 1.606009e-38
0.078479372 -0.12363027 0.038496397 1.5137776e-38
0.080209918 -0.12363027 0.038496397 1.6703656e-38
0.081940465 -0.12363027 0.038496397 1.6794764e-38
0.083671011 -0.12363027 0.038496397 1.7162104e-38
0.085064434 -0.12281232 0.041477405 1.8268446e-38
0.08678975 -0.12281232 0.041477405 1.7069554e-38
0.088515066 -0.12281232 0.041477405 1.6146532e-38
0.090240382 -0.12281232 0.041477405 1.5777032e-38
0.091965698 -0.12281232 0.041477405 1.5591553e-38
0.093691014 -0.12281232 0.041477405 9.1360582e-39
0.095416345 -0.12281232 0.041477405 9.6874397e-39
0.097141661 -0.12281232 0.041477405 4.6573276e-40
0.098866977 -0.12281232 0.041477405 2.7920872e-40
0.10059229 -0.12281232 0.041477405 1.848635e-40
0.10231761 -0.12281232 0.041477405 9.8090893e-44
0.10443754 -0.12363027 0.038496397 3.1336509e-39
0.11032303 -0.12501357 0.033455215 4.5161776e-39
-0.11266892 -0.13945107 -0.012527443 1.217306e-38
-0.11084891 -0.13945107 -0.012527443 8.301571e-39
-0.1090289 -0.13945107 -0.012527443 5.3509647e-39
-0.10744264 -0.14027832 -0.015523173 1.1308479e-42
-0.10538889 -0.13945107 -0.012527443 9.8090893e-44
-0.10356889 -0.13945107 -0.012527443 1.2611686e-43
-0.10174888 -0.13945107 -0.012527443 1.8379291e-40
-0.099928863 -0.13945107 -0.012527443 1.1972218e-39
-0.098108865 -0.13945107 -0.012527443 1.0229479e-43
-0.096023418 -0.13836516 -0.0085952058 2.764888e-39
-0.094210304 -0.13836516 -0.0085952058 4.0566974e-39
-0.092397191 -0.13836516 -0.0085952058 1.2817421e-38
-0.090584077 -0.13836516 -0.0085952058 1.3190486e-38
-0.088770963 -0.13836516 -0.0085952058 8.8605139e-39
-0.086957857 -0.13836516 -0.0085952058 7.5715813e-39
-0.085144743 -0.13836516 -0.0085952058 1.2457229e-38
-0.083331637 -0.13836516 -0.0085952058 1.2729859e-38
-0.081518523 -0.13836516 -0.0085952058 1.189794e-38
-0.07970541 -0.13836516 -0.0085952058 1.2727702e-38
-0.077739321 -0.13751976 -0.0055337921 1.0238067e-38
-0.075789876 -0.13670824 -0.0025951639 9.7767375e-39
-0.07398729 -0.13670824 -0.0025951639 5.5790036e-40
-0.072184697 -0.13670824 -0.0025951639 9.2633115e-40
-0.070382103 -0.13670824 -0.0025951639 5.8854536e-44
-0.068579517 -0.13670824 -0.0025951639 1.8679309e-42
-0.066776916 -0.13670824 -0.0025951639 4.3300123e-43
-0.064974323 -0.13670824 -0.0025951639 3.6798098e-42
-0.063062973 -0.13587265 0.00043072551 7.4196792e-40
-0.061265685 -0.13587265 0.00043072551 1.4795358e-39
-0.0594684 -0.13587265 0.00043072551 3.1386998e-39
-0.057671111 -0.13587265 0.00043072551 2.4011375e-39
-0.055873822 -0.13587265 0.00043072551 9.10844e-44
-0.054076537 -0.13587265 0.00043072551 8.6880505e-44
-0.052279253 -0.13587265 0.00043072551 1.1964833e-39
-0.050481964 -0.13587265 0.00043072551 1.2908369e-39
-0.048684675 -0.13587265 0.00043072551 4.6431324e-40
-0.04688739 -0.13587265 0.00043072551 9.768872e-41
-0.045090105 -0.13587265 0.00043072551 5.7227011e-39
-0.043292817 -0.13587265 0.00043072551 8.7640779e-39
-0.041450698 -0.13504194 0.0034389719 1.1712543e-38
-0.039658684 -0.13504194 0.0034389719 1.1433798e-38
-0.037866674 -0.13504194 0.0034389719 3.1347523e-39
-0.036074661 -0.13504194 0.0034389719 1.1057324e-39
-0.034259055 -0.13421609 0.0064295754 1.1057324e-39
-0.032472283 -0.13421609 0.0064295754 2.9510883e-39
-0.030685514 -0.13421609 0.0064295754 9.5906128e-39
-0.028898746 -0.13421609 0.0064295754 9.8682815e-39
-0.027111977 -0.13421609 0.0064295754 3.8780865e-39
-0.025327815 -0.13339506 0.0094026551 4.5245349e-39
-0.02354626 -0.13339506 0.0094026551 5.2635293e-39
-0.021764703 -0.13339506 0.0094026551 5.7252123e-39
-0.019983148 -0.13339506 0.0094026551 1.3654385e-38
-0.018225715 -0.13255073 0.012460135 1.5314258e-38
-0.01644952 -0.13255073 0.012460135 1.1626433e-38
-0.01470796 -0.1317115 0.015499257 1.0519734e-38
-0.012937095 -0.1317115 0.015499257 4.7006137e-40
-0.011166228 -0.1317115 0.015499257 2.8496806e-40
-0.0093953609 -0.1317115 0.015499257 5.6120322e-40
-0.0076244944 -0.1317115 0.015499257 1.8515889e-39
-0.0058536273 -0.1317115 0.015499257 1.1716519e-38
-0.0040827603 -0.1317115 0.015499257 1.4482019e-38
-0.0023118951 -0.1317115 0.015499257 1.4482371e-38
-0.00061527686 -0.13090499 0.018419765 1.0979283e-38
0.0011504698 -0.13090499 0.018419765 1.5738978e-39
0.0029162145 -0.13090499 0.018419765 1.2930229e-39
0.0046819611 -0.13090499 0.018419765 1.6600118e-39
0.0064477059 -0.13090499 0.018419765 2.7649104e-39
0.008213453 -0.13090499 0.018419765 9.0342048e-39
0.0099791996 -0.13090499 0.018419765 9.3111406e-39
0.011631723 -0.13007559 0.021423243 2.5812156e-39
0.013392203 -0.13007559 0.021423243 1.1075275e-39
0.015152685 -0.13007559 0.021423243 1.9387301e-39
0.016913164 -0.13007559 0.021423243 2.769218e-39
0.018673643 -0.13007559 0.021423243 7.748861e-39
0.020434123 -0.13007559 0.021423243 7.1964005e-39
0.022194602 -0.13007559 0.021423243 1.0239561e-38
0.023955084 -0.13007559 0.021423243 1.3096887e-38
0.025715563 -0.13007559 0.021423243 1.7521896e-38
0.027316377 -0.12925108 0.024408959 1.8350917e-38
0.029071622 -0.12925108 0.024408959 2.2404631e-38
0.030826867 -0.12925108 0.024408959 2.3508451e-38
0.032582112 -0.12925108 0.024408959 2.3507016e-38
0.034337357 -0.12925108 0.024408959 2.3509168e-38
0.036092602 -0.12925108 0.024408959 2.3509879e-38
0.037847847 -0.12925108 0.024408959 2.3142525e-38
0.039603092 -0.12925108 0.024408959 2.3142518e-38
0.041358337 -0.12925108 0.024408959 2.3050682e-38
0.043113582 -0.12925108 0.024408959 2.3234362e-38
0.044651069 -0.12840421 0.027475558 2.3326208e-38
0.046186298 -0.12758966 0.030425332 2.166634e-38
0.047930993 -0.12758966 0.030425332 2.0098312e-38
0.049675688 -0.12758966 0.030425332 1.8347686e-38
0.051420391 -0.12758966 0.030425332 1.9179253e-38
0.053400405 -0.12840421 0.027475558 1.6415551e-38
0.054909781 -0.12758966 0.030425332 1.0424995e-38
0.056654476 -0.12758966 0.030425332 7.288903e-39
0.058399167 -0.12758966 0.030425332 1.3921944e-38
0.060143869 -0.12758966 0.030425332 1.6593458e-38
0.061620291 -0.12675296 0.033455215 1.7422501e-38
0.06335967 -0.12675296 0.033455215 1.5670794e-38
0.065099053 -0.12675296 0.033455215 1.2259922e-38
0.066838436 -0.12675296 0.033455215 2.1205696e-39
0.068577819 -0.12675296 0.033455215 8.3307894e-40
0.070024155 -0.12592132 0.03646674 3.764252e-40
0.071758263 -0.12592132 0.03646674 6.2063509e-42
0.073492356 -0.12592132 0.03646674 3.7023132e-39
0.075226463 -0.12592132 0.03646674 9.0521737e-39
0.076748826 -0.12536083 0.038496397 1.3754504e-38
0.078479372 -0.12536083 0.038496397 1.495268e-38
0.080209918 -0.12536083 0.038496397 1.5965743e-38
0.081940465 -0.12536083 0.038496397 1.531821e-38
0.083671011 -0.12536083 0.038496397 1.6331639e-38
0.085064434 -0.12453763 0.041477405 1.540968e-38
0.08678975 -0.12453763 0.041477405 1.4579925e-38
0.088515066 -0.12453763 0.041477405 1.4486661e-38
0.090240382 -0.12453763 0.041477405 1.5500096e-38
0.091965698 -0.12453763 0.041477405 1.4761441e-38
0.093691014 -0.12453763 0.041477405 6.0932521e-39
0.095416345 -0.12453763 0.041477405 4.8929152e-39
0.097141661 -0.12453763 0.041477405 3.3224787e-42
0.098866977 -0.12453763 0.041477405 9.4465733e-41
0.10059229 -0.12453763 0.041477405 2.7706333e-40
0.10231761 -0.12453763 0.041477405 1.8413762e-40
0.10443754 -0.12536083 0.038496397 3.4109622e-39
-0.11266892 -0.14127107 -0.012527443 1.1435844e-38
-0.11084891 -0.14127107 -0.012527443 7.7491048e-39
-0.1090289 -0.14127107 -0.012527443 5.0743736e-39
-0.1072089 -0.14127107 -0.012527443 9.5128548e-41
-0.10538889 -0.14127107 -0.012527443 9.3023797e-41
-0.10356889 -0.14127107 -0.012527443 5.5258944e-40
-0.10174888 -0.14127107 -0.012527443 4.593106e-40
-0.099928863 -0.14127107 -0.012527443 1.6582027e-39
-0.098108865 -0.14127107 -0.012527443 1.6581845e-39
-0.096023418 -0.14017828 -0.0085952058 7.7071416e-44
-0.094210304 -0.14017828 -0.0085952058 4.9797187e-39
-0.092397191 -0.14017828 -0.0085952058 1.4754597e-38
-0.090584077 -0.14017828 -0.0085952058 1.715633e-38
-0.088770963 -0.14017828 -0.0085952058 1.3840516e-38
-0.086957857 -0.14017828 -0.0085952058 1.7161374e-38
-0.085144743 -0.14017828 -0.0085952058 1.2365407e-38
-0.083331637 -0.14017828 -0.0085952058 1.2637303e-38
-0.081518523 -0.14017828 -0.0085952058 1.1805382e-38
-0.07970541 -0.14017828 -0.0085952058 1.4017722e-38
-0.077739321 -0.13932751 -0.0055337921 1.3372003e-38
-0.075789876 -0.13851084 -0.0025951639 1.2634086e-38
-0.07398729 -0.13851084 -0.0025951639 8.3341245e-40
-0.072184697 -0.13851084 -0.0025951639 7.4051057e-40
-0.070382103 -0.13851084 -0.0025951639 7.1466222e-44
-0.068579517 -0.13851084 -0.0025951639 1.8771514e-40
-0.066776916 -0.13851084 -0.0025951639 8.1135181e-43
-0.064974323 -0.13851084 -0.0025951639 2.263097e-42
-0.063062973 -0.13766994 0.00043072551 1.870215e-40
-0.061265685 -0.13766994 0.00043072551 1.1911037e-42
-0.0594684 -0.13766994 0.00043072551 1.5568426e-42
-0.057671111 -0.13766994 0.00043072551 3.7204474e-42
-0.055873822 -0.13766994 0.00043072551 1.5624478e-42
-0.054076537 -0.13766994 0.00043072551 5.5113629e-40
-0.052279253 -0.13766994 0.00043072551 1.1957826e-39
-0.050481964 -0.13766994 0.00043072551 3.6817856e-40
-0.048684675 -0.13766994 0.00043072551 2.7957306e-40
-0.04688739 -0.13766994 0.00043072551 4.7784278e-42
-0.045090105 -0.13766994 0.00043072551 8.1197875e-39
-0.043292817 -0.13766994 0.00043072551 1.0792382e-38
-0.041450698 -0.13683395 0.0034389719 9.6845951e-39
-0.039658684 -0.13683395 0.0034389719 9.4058502e-39
-0.037866674 -0.13683395 0.0034389719 1.1064485e-39
-0.036074661 -0.13683395 0.0034389719 9.9492191e-44
-0.034259055 -0.13600285 0.0064295754 2.7561159e-40
-0.032472283 -0.13600285 0.0064295754 2.3971901e-39
-0.030685514 -0.13600285 0.0064295754 8.2069539e-39
-0.028898746 -0.13600285 0.0064295754 9.4998479e-39
-0.027111977 -0.13600285 0.0064295754 8.6726096e-39
-0.025327815 -0.13517661 0.0094026551 4.6167319e-39
-0.02354626 -0.13517661 0.0094026551 6.2780469e-39
-0.021764703 -0.13517661 0.0094026551 9.7825346e-39
-0.019983148 -0.13517661 0.0094026551 1.5038388e-38
-0.018225715 -0.13432692 0.012460135 1.6697898e-38
-0.01644952 -0.13432692 0.012460135 1.0243851e-38
-0.01470796 -0.13348235 0.015499257 6.6475175e-39
-0.012937095 -0.13348235 0.015499257 7.6524909e-42
-0.011166228 -0.13348235 0.015499257 1.0369609e-43
-0.0093953609 -0.13348235 0.015499257 9.2963261e-40
-0.0076244944 -0.13348235 0.015499257 4.0646372e-39
-0.0058536273 -0.13348235 0.015499257 1.4206508e-38
-0.0041467682 -0.13267075 0.018419765 1.5773104e-38
-0.0023810235 -0.13267075 0.018419765 1.1071483e-38
-0.00061527686 -0.13267075 0.018419765 8.5821978e-39
0.0011504698 -0.13267075 0.018419765 8.3633556e-40
0.0029162145 -0.13267075 0.018419765 6.4728498e-40
0.0046819611 -0.13267075 0.018419765 2.0273454e-39
0.0064477059 -0.13267075 0.018419765 6.0846607e-39
0.008213453 -0.13267075 0.018419765 1.1523839e-38
0.0098712444 -0.13183604 0.021423243 8.7583228e-39
0.011631723 -0.13183604 0.021423243 2.0284019e-39
0.013392203 -0.13183604 0.021423243 8.313035e-40
0.015152685 -0.13183604 0.021423243 1.0167822e-39
0.016913164 -0.13183604 0.021423243 1.2951781e-39
0.018673643 -0.13183604 0.021423243 6.0904327e-39
0.020434123 -0.13183604 0.021423243 7.1045818e-39
0.022194602 -0.13183604 0.021423243 1.2451554e-38
0.023805887 -0.13100632 0.024408959 1.3464968e-38
0.025561132 -0.13100632 0.024408959 1.8074368e-38
0.027316377 -0.13100632 0.024408959 1.973207e-38
0.029071622 -0.13100632 0.024408959 2.3416615e-38
0.030826867 -0.13100632 0.024408959 2.3507016e-38
0.032582112 -0.13100632 0.024408959 2.3505581e-38
0.03415186 -0.13015409 0.027475558 2.3508809e-38
0.035901725 -0.13015409 0.027475558 2.2958507e-38
0.037847847 -0.13100632 0.024408959 2.2499678e-38
0.039603092 -0.13100632 0.024408959 2.2591514e-38
0.041358337 -0.13100632 0.024408959 2.259151e-38
0.043113582 -0.13100632 0.024408959 2.3234369e-38
0.044651069 -0.13015409 0.027475558 2.3047115e-38
0.046400934 -0.13015409 0.027475558 2.2214493e-38
0.0481508 -0.13015409 0.027475558 2.0922336e-38
0.049900673 -0.13015409 0.027475558 1.5022191e-38
0.051650539 -0.13015409 0.027475558 1.3088615e-38
0.053400405 -0.13015409 0.027475558 1.1063916e-38
0.054909781 -0.12933435 0.030425332 9.4076383e-39
0.056654476 -0.12933435 0.030425332 7.6566318e-39
0.058399167 -0.12933435 0.030425332 1.0327403e-38
0.060143869 -0.12933435 0.030425332 1.419781e-38
0.061620291 -0.12849234 0.033455215 1.4381124e-38
0.06335967 -0.12849234 0.033455215 1.2813448e-38
0.065099053 -0.12849234 0.033455215 1.1800026e-38
0.066838436 -0.12849234 0.033455215 2.3053266e-39
0.068577819 -0.12849234 0.033455215 2.802709e-40
0.070024155 -0.12765543 0.03646674 6.2105548e-42
0.071758263 -0.12765543 0.03646674 8.0140259e-42
0.073492356 -0.12765543 0.03646674 4.1636613e-39
0.075226463 -0.12765543 0.03646674 7.6685344e-39
0.076748826 -0.12709136 0.038496397 1.310843e-38
0.078479372 -0.12709136 0.038496397 1.3476125e-38
0.080209918 -0.12709136 0.038496397 1.1999909e-38
0.081940465 -0.12709136 0.038496397 1.2550196e-38
0.083671011 -0.12709136 0.038496397 1.3195201e-38
0.085064434 -0.12626295 0.041477405 1.2827853e-38
0.08678975 -0.12626295 0.041477405 1.3012247e-38
0.088515066 -0.12626295 0.041477405 1.2550201e-38
0.090240382 -0.12626295 0.041477405 1.2456211e-38
0.091965698 -0.12626295 0.041477405 1.03357e-38
0.093691014 -0.12626295 0.041477405 2.2206839e-39
0.095416345 -0.12626295 0.041477405 1.0207044e-39
0.097141661 -0.12626295 0.041477405 4.650265e-40
0.098866977 -0.12626295 0.041477405 2.2743074e-42
0.10059229 -0.12626295 0.041477405 4.6182033e-40
0.10231761 -0.12626295 0.041477405 4.6180632e-40
-0.11084891 -0.14309107 -0.012527443 9.0387605e-39
-0.1090289 -0.14309107 -0.012527443 6.180361e-39
-0.1072089 -0.14309107 -0.012527443 1.2929501e-39
-0.10538889 -0.14309107 -0.012527443 6.465493e-40
-0.10356889 -0.14309107 -0.012527443 6.4549553e-40
-0.10174888 -0.14309107 -0.012527443 1.1770907e-43
-0.099928863 -0.14309107 -0.012527443 8.2915671e-40
-0.098108865 -0.14309107 -0.012527443 8.9683102e-44
-0.096288852 -0.14309107 -0.012527443 5.5361239e-40
-0.094210304 -0.14199139 -0.0085952058 4.2425054e-39
-0.092397191 -0.14199139 -0.0085952058 1.0513952e-38
-0.090584077 -0.14199139 -0.0085952058 1.4112795e-38
-0.088770963 -0.14199139 -0.0085952058 1.2824932e-38
-0.086957857 -0.14199139 -0.0085952058 1.1904428e-38
-0.085144743 -0.14199139 -0.0085952058 1.1533849e-38
-0.083331637 -0.14199139 -0.0085952058 1.1345491e-38
-0.081518523 -0.14199139 -0.0085952058 1.0881632e-38
-0.07970541 -0.14199139 -0.0085952058 1.1711039e-38
-0.077739321 -0.14113526 -0.0055337921 1.3370208e-38
-0.075931571 -0.14113526 -0.0055337921 1.0604706e-38
-0.074123822 -0.14113526 -0.0055337921 1.8567205e-42
-0.072184697 -0.14031343 -0.0025951639 4.2599473e-43
-0.070382103 -0.14031343 -0.0025951639 2.7774156e-40
-0.068579517 -0.14031343 -0.0025951639 8.2676609e-44
-0.066776916 -0.14031343 -0.0025951639 1.1700842e-42
-0.064974323 -0.14031343 -0.0025951639 9.3375523e-41
-0.063062973 -0.13946722 0.00043072551 9.3020995e-41
-0.061265685 -0.13946722 0.00043072551 8.2816739e-43
-0.0594684 -0.13946722 0.00043072551 1.0369609e-43
-0.057671111 -0.13946722 0.00043072551 1.0649868e-43
-0.055873822 -0.13946722 0.00043072551 1.848677e-40
-0.054076537 -0.13946722 0.00043072551 1.1490647e-43
-0.05235618 -0.14031343 -0.0025951639 9.1953205e-41
-0.050481964 -0.13946722 0.00043072551 4.7644148e-43
-0.048684675 -0.13946722 0.00043072551 5.8109549e-39
-0.04688739 -0.13946722 0.00043072551 9.2239855e-39
-0.045090105 -0.13946722 0.00043072551 1.3650449e-38
-0.043292817 -0.13946722 0.00043072551 1.0054101e-38
-0.041495532 -0.13946722 0.00043072551 7.8399664e-39
-0.039658684 -0.13862596 0.0034389719 6.1772081e-39
-0.037866674 -0.13862596 0.0034389719 2.7597172e-40
-0.036074661 -0.13862596 0.0034389719 5.5183974e-40
-0.034259055 -0.13778962 0.0064295754 5.5183974e-40
-0.032472283 -0.13778962 0.0064295754 1.659625e-39
-0.030685514 -0.13778962 0.0064295754 5.3499656e-39
-0.028898746 -0.13778962 0.0064295754 8.4871309e-39
-0.027109371 -0.13695817 0.0094026551 1.4572405e-38
-0.025327815 -0.13695817 0.0094026551 1.595534e-38
-0.02354626 -0.13695817 0.0094026551 1.4758226e-38
-0.021764703 -0.13695817 0.0094026551 1.7064533e-38
-0.019983148 -0.13695817 0.0094026551 1.6235478e-38
-0.018225715 -0.13610314 0.012460135 1.4576674e-38
-0.016478827 -0.13525321 0.015499257 4.9886996e-39
-0.01470796 -0.13525321 0.015499257 7.4736572e-40
-0.012937095 -0.13525321 0.015499257 6.2189626e-42
-0.011166228 -0.13525321 0.015499257 8.3887612e-40
-0.0093953609 -0.13525321 0.015499257 4.8954866e-39
-0.0076244944 -0.13525321 0.015499257 7.5695088e-39
-0.0058536273 -0.13525321 0.015499257 1.623551e-38
-0.0041467682 -0.13443647 0.018419765 1.568234e-38
-0.0023810235 -0.13443647 0.018419765 7.6613163e-39
-0.00061527686 -0.13443647 0.018419765 5.9085231e-39
0.0011504698 -0.13443647 0.018419765 5.1287524e-42
0.0029162145 -0.13443647 0.018419765 8.3274263e-40
0.0046819611 -0.13443647 0.018419765 7.38389e-40
0.0063502858 -0.13359652 0.021423243 6.5470668e-39
0.0081107654 -0.13359652 0.021423243 1.8717221e-38
0.0098712444 -0.13359652 0.021423243 1.3647201e-38
0.011631723 -0.13359652 0.021423243 9.2492565e-40
0.013392203 -0.13359652 0.021423243 1.4788309e-39
0.015152685 -0.13359652 0.021423243 1.5721167e-39
0.016913164 -0.13359652 0.021423243 1.1129477e-39
0.018673643 -0.13359652 0.021423243 6.1844304e-39
0.020434123 -0.13359652 0.021423243 7.1056608e-39
0.022050641 -0.13276155 0.024408959 1.3651537e-38
0.023805887 -0.13276155 0.024408959 1.4664587e-38
0.025561132 -0.13276155 0.024408959 2.0103004e-38
0.027316377 -0.13276155 0.024408959 2.2037289e-38
0.029071622 -0.13276155 0.024408959 2.3416974e-38
0.030826867 -0.13276155 0.024408959 2.3507374e-38
0.032582112 -0.13276155 0.024408959 2.3506298e-38
0.03415186 -0.13190396 0.027475558 2.3508809e-38
0.035901725 -0.13190396 0.027475558 2.3142542e-38
0.037847847 -0.13276155 0.024408959 2.286703e-38
0.039603092 -0.13276155 0.024408959 2.2775189e-38
0.041358337 -0.13276155 0.024408959 2.2775189e-38
0.042901196 -0.13190396 0.027475558 2.3418047e-38
0.044651069 -0.13190396 0.027475558 2.3507016e-38
0.046400934 -0.13190396 0.027475558 2.0646814e-38
0.0481508 -0.13190396 0.027475558 1.9631962e-38
0.049900673 -0.13190396 0.027475558 1.3455594e-38
0.051650539 -0.13190396 0.027475558 1.0138366e-38
0.053400405 -0.13190396 0.027475558 4.7942708e-39
0.054909781 -0.13107903 0.030425332 2.3093132e-39
0.056654476 -0.13107903 0.030425332 5.5830393e-40
0.058399167 -0.13107903 0.030425332 6.5473933e-39
0.060143869 -0.13107903 0.030425332 1.4013783e-38
0.061888572 -0.13107903 0.030425332 1.3460964e-38
0.063633256 -0.13107903 0.030425332 5.9931195e-39
0.065099053 -0.13023172 0.033455215 5.716904e-39
0.066838436 -0.13023172 0.033455215 6.7262326e-44
0.068577819 -0.13023172 0.033455215 1.5302179e-42
0.070024155 -0.12938951 0.03646674 3.7608469e-40
0.071758263 -0.12938951 0.03646674 9.8259048e-42
0.073492356 -0.12938951 0.03646674 7.5734661e-39
0.075226463 -0.12938951 0.03646674 9.3258949e-39
0.076748826 -0.12882192 0.038496397 1.1907727e-38
0.078479372 -0.12882192 0.038496397 7.2968568e-39
0.080209918 -0.12882192 0.038496397 1.1183076e-39
0.081940465 -0.12882192 0.038496397 1.0235981e-39
0.083671011 -0.12882192 0.038496397 7.2853507e-42
0.085401557 -0.12882192 0.038496397 1.0307531e-40
0.08678975 -0.12798826 0.041477405 5.4504218e-39
0.088515066 -0.12798826 0.041477405 9.3212076e-39
0.090240382 -0.12798826 0.041477405 1.0242445e-38
0.091965698 -0.12798826 0.041477405 8.5821964e-39
0.093691014 -0.12798826 0.041477405 1.6664424e-39
0.095416345 -0.12798826 0.041477405 2.9637463e-42
0.097141661 -0.12798826 0.041477405 3.3378929e-42
0.098866977 -0.12798826 0.041477405 2.7850246e-40
0.10059229 -0.12798826 0.041477405 5.5401316e-40
0.10231761 -0.12798826 0.041477405 4.6180351e-40
-0.11291841 -0.14575411 -0.015523173 1.2539311e-38
-0.11109316 -0.14575411 -0.015523173 1.0234428e-38
-0.1090289 -0.14491107 -0.012527443 6.7317369e-39
-0.1072089 -0.14491107 -0.012527443 9.2379901e-40
-0.10538889 -0.14491107 -0.012527443 2.7846463e-40
-0.10356889 -0.14491107 -0.012527443 2.7920311e-40
-0.10174888 -0.14491107 -0.012527443 1.8701309e-40
-0.099928863 -0.14491107 -0.012527443 1.8593129e-40
-0.098108865 -0.14491107 -0.012527443 9.2348512e-40
-0.096288852 -0.14491107 -0.012527443 9.33503e-41
-0.094210304 -0.14380451 -0.0085952058 5.1644589e-39
-0.092397191 -0.14380451 -0.0085952058 1.1711056e-38
-0.090584077 -0.14380451 -0.0085952058 1.1620289e-38
-0.088770963 -0.14380451 -0.0085952058 8.8551329e-39
-0.086957857 -0.14380451 -0.0085952058 8.1190126e-39
-0.085144743 -0.14380451 -0.0085952058 8.5792733e-39
-0.083331637 -0.14380451 -0.0085952058 7.9313843e-39
-0.081518523 -0.14380451 -0.0085952058 1.0419587e-38
-0.079547055 -0.14294298 -0.0055337921 1.2078751e-38
-0.077739321 -0.14294298 -0.0055337921 1.3092906e-38
-0.075931571 -0.14294298 -0.0055337921 8.574244e-39
-0.074123822 -0.14294298 -0.0055337921 1.7514129e-39
-0.072184697 -0.14211603 -0.0025951639 1.0131318e-39
-0.070382103 -0.14211603 -0.0025951639 2.0272865e-39
-0.068579517 -0.14211603 -0.0025951639 1.381564e-39
-0.066776916 -0.14211603 -0.0025951639 6.0255834e-44
-0.064974323 -0.14211603 -0.0025951639 1.8414645e-39
-0.063171737 -0.14211603 -0.0025951639 9.1878936e-40
-0.06136914 -0.14211603 -0.0025951639 3.6740925e-40
-0.059566546 -0.14211603 -0.0025951639 9.1878936e-40
-0.057671111 -0.14126451 0.00043072551 1.9325812e-39
-0.055873822 -0.14126451 0.00043072551 3.6741906e-40
-0.054076537 -0.14126451 0.00043072551 9.2205439e-40
-0.05235618 -0.14211603 -0.0025951639 1.0649868e-43
-0.050481964 -0.14126451 0.00043072551 1.9390916e-39
-0.048684675 -0.14126451 0.00043072551 8.1161988e-39
-0.04688739 -0.14126451 0.00043072551 9.314742e-39
-0.045090105 -0.14126451 0.00043072551 1.1527437e-38
-0.043292817 -0.14126451 0.00043072551 1.1986976e-38
-0.041450698 -0.14041798 0.0034389719 2.6734224e-39
-0.039658684 -0.14041798 0.0034389719 1.7500284e-39
-0.037866674 -0.14041798 0.0034389719 1.3805256e-39
-0.036074661 -0.14041798 0.0034389719 3.6745269e-40
-0.034259055 -0.13957639 0.0064295754 5.5220408e-40
-0.032472283 -0.13957639 0.0064295754 2.0305712e-39
-0.030685514 -0.13957639 0.0064295754 7.4198754e-40
-0.028898746 -0.13957639 0.0064295754 7.7513707e-39
-0.027109371 -0.13873972 0.0094026551 1.512593e-38
-0.025327815 -0.13873972 0.0094026551 1.6689637e-38
-0.02354626 -0.13873972 0.0094026551 2.000794e-38
-0.021764703 -0.13873972 0.0094026551 1.9549832e-38
-0.019983148 -0.13873972 0.0094026551 1.8722229e-38
-0.018225715 -0.13787933 0.012460135 1.5220961e-38
-0.016478827 -0.13702409 0.015499257 3.0525956e-39
-0.01470796 -0.13702409 0.015499257 5.6406467e-40
-0.012937095 -0.13702409 0.015499257 9.4685737e-42
-0.011166228 -0.13702409 0.015499257 8.0392493e-42
-0.0093953609 -0.13702409 0.015499257 7.3876483e-39
-0.0076244944 -0.13702409 0.015499257 9.8776324e-39
-0.0058536273 -0.13702409 0.015499257 1.5223884e-38
-0.0041467682 -0.13620223 0.018419765 1.6145109e-38
-0.0023810235 -0.13620223 0.018419765 6.5560407e-39
-0.00061527686 -0.13620223 0.018419765 3.4206732e-39
0.0011504698 -0.13620223 0.018419765 6.5594781e-42
0.0029162145 -0.13620223 0.018419765 4.0413448e-42
0.0046819611 -0.13620223 0.018419765 5.5685779e-40
0.0063502858 -0.13535701 0.021423243 6.5499269e-39
0.0081107654 -0.13535701 0.021423243 1.6968751e-38
0.0098712444 -0.13535701 0.021423243 1.3282004e-38
0.011631723 -0.13535701 0.021423243 1.3891324e-39
0.013392203 -0.13535701 0.021423243 2.8387504e-40
0.015152685 -0.13535701 0.021423243 9.3033466e-40
0.016913164 -0.13535701 0.021423243 9.3142487e-40
0.018540151 -0.13451682 0.024408959 4.9883955e-39
0.020295396 -0.13451682 0.024408959 7.9386445e-39
0.022050641 -0.13451682 0.024408959 1.4760384e-38
0.023805887 -0.13451682 0.024408959 1.6325525e-38
0.025561132 -0.13451682 0.024408959 2.2132353e-38
0.027316377 -0.13451682 0.024408959 2.20398e-38
0.029071622 -0.13451682 0.024408959 2.3142544e-38
0.030826867 -0.13451682 0.024408959 2.3415895e-38
0.032582112 -0.13451682 0.024408959 2.3508809e-38
0.03415186 -0.13365383 0.027475558 2.3509168e-38
0.035901725 -0.13365383 0.027475558 2.3416248e-38
0.037847847 -0.13451682 0.024408959 2.350952e-38
0.039603092 -0.13451682 0.024408959 2.350988e-38
0.041358337 -0.13451682 0.024408959 2.3509883e-38
0.042901196 -0.13365383 0.027475558 2.2680125e-38
0.044651069 -0.13365383 0.027475558 2.0835861e-38
0.046400934 -0.13365383 0.027475558 1.9913918e-38
0.0481508 -0.13365383 0.027475558 1.9361482e-38
0.049900673 -0.13365383 0.027475558 1.2355352e-38
0.051650539 -0.13365383 0.027475558 7.3789687e-39
0.053400405 -0.13365383 0.027475558 4.5223629e-39
0.054909781 -0.13282375 0.030425332 1.7583059e-39
0.056654476 -0.13282375 0.030425332 7.4270921e-40
0.058399167 -0.13282375 0.030425332 6.8232768e-39
0.060143869 -0.13282375 0.030425332 1.6779301e-38
0.061620291 -0.13197111 0.033455215 1.585948e-38
0.06335967 -0.13197111 0.033455215 1.088163e-38
0.065099053 -0.13197111 0.033455215 5.9045126e-39
0.066838436 -0.13197111 0.033455215 4.6607467e-40
0.068577819 -0.13197111 0.033455215 4.0567591e-42
0.070024155 -0.13112362 0.03646674 4.4365109e-42
0.071557187 -0.13055246 0.038496397 1.0023908e-40
0.073287733 -0.13055246 0.038496397 1.079636e-38
0.075226463 -0.13112362 0.03646674 1.3747674e-38
0.076748826 -0.13055246 0.038496397 9.5995755e-39
0.078479372 -0.13055246 0.038496397 9.137517e-39
0.080209918 -0.13055246 0.038496397 6.5445122e-40
0.081940465 -0.13055246 0.038496397 1.1868998e-42
0.083671011 -0.13055246 0.038496397 2.8282407e-40
0.085064434 -0.12971358 0.041477405 5.868638e-42
0.08678975 -0.12971358 0.041477405 8.3963856e-39
0.088515066 -0.12971358 0.041477405 9.5949288e-39
0.090240382 -0.12971358 0.041477405 8.2116342e-39
0.091965698 -0.12971358 0.041477405 6.6432267e-39
0.093691014 -0.12971358 0.041477405 4.7798291e-42
0.095416345 -0.12971358 0.041477405 3.3406955e-42
0.097141661 -0.12971358 0.041477405 2.263097e-42
0.098866977 -0.12971358 0.041477405 1.016422e-39
0.10059229 -0.12971358 0.041477405 1.5442309e-42
0.10231761 -0.12971358 0.041477405 3.6995681e-40
-0.11291841 -0.14757936 -0.015523173 1.097019e-38
-0.11109316 -0.14757936 -0.015523173 8.5738306e-39
-0.1092679 -0.14757936 -0.015523173 5.4402806e-39
