# .PCD v0.7 - Point Cloud Data file format
VERSION 0.7
FIELDS x y z rgb
SIZE 4 4 4 4
TYPE F F F F
COUNT 1 1 1 1
WIDTH 945
HEIGHT 1
VIEWPOINT 0 0 0 1 0 0 0
POINTS 945
DATA ascii
0.092996709 -0.14230187 -0.09085983 6.1804031e-39
0.0949203 -0.14230187 -0.09085983 2.1237953e-39
0.096843906 -0.14230187 -0.09085983 2.1238009e-39
0.099788435 -0.14439236 -0.098782003 6.5861028e-44
0.10212182 -0.1451921 -0.10181278 4.3720512e-43
0.10459761 -0.14625455 -0.10583907 2.7702269e-40
0.10694271 -0.1470321 -0.10878569 1.8481305e-40
0.10945175 -0.14810793 -0.11286277 5.2555503e-39
0.11141392 -0.14810793 -0.11286277 6.8224906e-39
-0.10511417 -0.11951269 0.0021747947 9.5901364e-39
-0.10317308 -0.11871959 0.0051605105 1.0604288e-38
-0.10141783 -0.11871959 0.0051605105 1.0512093e-38
-0.099662594 -0.11871959 0.0051605105 3.5038193e-39
-0.097907342 -0.11871959 0.0051605105 1.4734219e-39
-0.09598811 -0.11790501 0.0082271099 1.1046618e-39
-0.094238244 -0.11790501 0.0082271099 7.3730019e-40
-0.092488371 -0.11790501 0.0082271099 7.0064923e-44
-0.090596281 -0.11712147 0.011176884 5.9952957e-39
-0.088851579 -0.11712147 0.011176884 1.457091e-38
-0.086971417 -0.11631663 0.014206767 1.614038e-38
-0.08510267 -0.11551671 0.017218292 2.1027456e-38
-0.08336857 -0.11551671 0.017218292 2.1580623e-38
-0.08155439 -0.11497755 0.019247949 2.2316024e-38
-0.079823852 -0.11497755 0.019247949 2.1302597e-38
-0.077986158 -0.11418571 0.022228956 2.2591531e-38
-0.076260835 -0.11418571 0.022228956 2.2407854e-38
-0.074439406 -0.11339863 0.025192022 2.2775193e-38
-0.072719283 -0.11339863 0.025192022 2.2498243e-38
-0.07099916 -0.11339863 0.025192022 2.1852511e-38
-0.069279037 -0.11339863 0.025192022 2.341804e-38
-0.06748163 -0.1125911 0.028232038 2.3418045e-38
-0.065766834 -0.1125911 0.028232038 2.3234379e-38
-0.064052045 -0.1125911 0.028232038 2.2773767e-38
-0.06233725 -0.1125911 0.028232038 2.0837688e-38
-0.060530521 -0.11126463 0.033225775 1.2171677e-38
-0.058824487 -0.11126463 0.033225775 1.2725231e-38
-0.057073884 -0.11047028 0.036216199 7.3778981e-39
-0.055373088 -0.11047028 0.036216199 7.1016825e-39
-0.053638421 -0.10968079 0.039188385 5.6269196e-39
-0.05194284 -0.10968079 0.039188385 6.6407184e-39
-0.050247256 -0.10968079 0.039188385 2.3997208e-39
-0.048551671 -0.10968079 0.039188385 2.3997208e-39
-0.04685609 -0.10968079 0.039188385 7.4019808e-40
-0.045152497 -0.10887168 0.042234361 1.2011762e-39
-0.043462254 -0.10887168 0.042234361 8.239635e-43
-0.041773703 -0.10835941 0.04416281 6.5446524e-40
-0.04009477 -0.10755859 0.047177613 1.2088502e-38
-0.038413197 -0.10755859 0.047177613 1.6695736e-38
-0.036750004 -0.10676278 0.050173581 1.6785388e-38
-0.035073683 -0.10676278 0.050173581 1.7427859e-38
-0.033397362 -0.10676278 0.050173581 2.009901e-38
-0.031744711 -0.10621105 0.052250624 2.1020971e-38
-0.03007203 -0.10621105 0.052250624 1.9824593e-38
-0.02844353 -0.10542361 0.055215001 1.9181751e-38
-0.026776047 -0.10542361 0.055215001 2.0199503e-38
-0.02516444 -0.10461743 0.05825007 1.7713819e-38
-0.023502279 -0.10461743 0.05825007 1.8453192e-38
-0.021840118 -0.10461743 0.05825007 1.6241592e-38
-0.020224197 -0.10409851 0.060203612 1.1815143e-38
-0.018565461 -0.10409851 0.060203612 4.9916101e-39
-0.016906725 -0.10409851 0.060203612 8.7370959e-42
-0.015334874 -0.10330074 0.063206911 3.7140155e-40
-0.013681404 -0.10330074 0.063206911 3.4106091e-39
-0.012027934 -0.10330074 0.063206911 3.2272828e-39
-0.010374462 -0.10330074 0.063206911 1.3833731e-39
-0.0086130444 -0.10409851 0.060203612 1.6599726e-39
-0.0068806652 -0.10461743 0.05825007 1.0369609e-43
-0.005218504 -0.10461743 0.05825007 3.6817996e-40
-0.0035563428 -0.10461743 0.05825007 1.1630777e-43
-0.0017638076 -0.10542361 0.055215001 1.0229479e-43
3.6211684e-05 -0.10621105 0.052250624 4.6382979e-43
0.0018054005 -0.10676278 0.050173581 1.1350518e-43
0.0034817215 -0.10676278 0.050173581 1.2191297e-43
0.0053077508 -0.10755859 0.047177613 1.3872855e-43
0.0071452614 -0.10835941 0.04416281 1.2163271e-42
0.0090981405 -0.10968079 0.039188385 1.1981102e-42
0.010957876 -0.11047028 0.036216199 1.0930128e-43
0.012946842 -0.11181359 0.031159103 1.1070258e-43
0.014828427 -0.1125911 0.028232038 1.8414043e-40
0.01672711 -0.11339863 0.025192022 9.9492191e-44
0.018631665 -0.11418571 0.022228956 8.5479206e-44
0.020356985 -0.11418571 0.022228956 7.3764912e-40
0.022278303 -0.11497755 0.019247949 2.0280236e-39
0.024145858 -0.11551671 0.017218292 1.5674014e-39
0.02608853 -0.11631663 0.014206767 9.22713e-41
0.028043063 -0.11712147 0.011176884 9.1916771e-41
0.030002395 -0.11790501 0.0082271099 2.759549e-40
0.032203257 -0.11951269 0.0021747947 6.1768396e-39
0.03396374 -0.11951269 0.0021747947 7.1913572e-39
0.035958558 -0.1203105 -0.00082868338 6.3615994e-39
0.038199745 -0.12189357 -0.0067883134 9.3019593e-41
0.039975941 -0.12189357 -0.0067883134 9.9492191e-44
0.041752137 -0.12189357 -0.0067883134 1.0156962e-39
0.044041149 -0.12349547 -0.012818873 1.6607152e-39
0.046348564 -0.12508895 -0.018817723 7.5633879e-39
0.048413776 -0.12589271 -0.021843612 7.0159511e-39
0.050481714 -0.1266733 -0.02478224 1.0257561e-39
0.052571259 -0.12748651 -0.027843654 1.6704276e-39
0.054384373 -0.12748651 -0.027843654 3.7902069e-39
0.056573234 -0.12853102 -0.031775892 3.3263308e-39
0.058393247 -0.12853102 -0.031775892 5.9985495e-39
0.060808502 -0.13012715 -0.037784755 4.1535481e-39
0.063240893 -0.13171287 -0.043754399 3.6643955e-42
0.065497778 -0.13278987 -0.047808945 2.1270492e-39
0.067656614 -0.13358103 -0.050787389 1.1623904e-38
0.069827698 -0.13437669 -0.053782761 1.5034387e-38
0.072011106 -0.13517688 -0.05679518 2.1208246e-38
0.073874988 -0.13517688 -0.05679518 2.1109948e-38
0.076516293 -0.13703169 -0.063777864 1.8803621e-38
0.079192497 -0.13891099 -0.070852697 1.7238813e-38
0.081424959 -0.13970654 -0.073847592 9.9564414e-39
0.084132008 -0.14155935 -0.080822766 4.6098291e-39
0.086038016 -0.14155935 -0.080822766 2.8588422e-39
0.088296272 -0.14233841 -0.083755672 7.2845982e-39
0.090696596 -0.14340474 -0.087770045 7.6540968e-39
0.092614777 -0.14340474 -0.087770045 6.1800401e-39
0.0949203 -0.14422549 -0.09085983 1.1308479e-42
0.096843906 -0.14422549 -0.09085983 3.7207837e-40
0.10017901 -0.14713491 -0.10181278 6.1657132e-44
0.10212182 -0.14713491 -0.10181278 6.4652408e-40
0.10459761 -0.14820443 -0.10583907 2.7737582e-40
0.10654748 -0.14820443 -0.10583907 5.1848043e-44
0.10889774 -0.14898713 -0.10878569 4.1495586e-39
0.11085277 -0.14898713 -0.10878569 6.3615097e-39
-0.10317308 -0.12047486 0.0051605105 1.078868e-38
-0.10141783 -0.12047486 0.0051605105 1.1249658e-38
-0.099662594 -0.12047486 0.0051605105 3.6889294e-39
-0.097907342 -0.12047486 0.0051605105 2.4893717e-39
-0.09598811 -0.11965488 0.0082271099 1.0135494e-39
-0.094238244 -0.11965488 0.0082271099 3.6960788e-40
-0.092488371 -0.11965488 0.0082271099 1.4773778e-39
-0.090596281 -0.11886616 0.011176884 7.4159097e-40
-0.088851579 -0.11886616 0.011176884 1.2635892e-38
-0.086836778 -0.11725079 0.017218292 1.411209e-38
-0.08510267 -0.11725079 0.017218292 2.0473933e-38
-0.08336857 -0.11725079 0.017218292 2.0843069e-38
-0.08155439 -0.11670811 0.019247949 2.2132353e-38
-0.079823852 -0.11670811 0.019247949 2.1764652e-38
-0.077986158 -0.11591102 0.022228956 2.2224189e-38
-0.076260835 -0.11591102 0.022228956 2.1394441e-38
-0.074439406 -0.11511876 0.025192022 2.1947247e-38
-0.072719283 -0.11511876 0.025192022 2.0748711e-38
-0.07099916 -0.11511876 0.025192022 2.1669221e-38
-0.069279037 -0.11511876 0.025192022 2.2130185e-38
-0.06748163 -0.1143059 0.028232038 2.2774832e-38
-0.065766834 -0.1143059 0.028232038 2.1668857e-38
-0.064052045 -0.1143059 0.028232038 1.9548727e-38
-0.06233725 -0.1143059 0.028232038 1.4385429e-38
-0.060568571 -0.11352326 0.031159103 8.6703955e-39
-0.058824487 -0.11297067 0.033225775 7.3796749e-39
-0.057073884 -0.11217107 0.036216199 8.0254143e-39
-0.055373088 -0.11217107 0.036216199 8.0254255e-39
-0.053638421 -0.11137636 0.039188385 6.3666286e-39
-0.05194284 -0.11137636 0.039188385 5.2602839e-39
-0.050247256 -0.11137636 0.039188385 7.4305813e-40
-0.048532978 -0.11056192 0.042234361 1.019645e-39
-0.046842739 -0.11056192 0.042234361 3.3280839e-42
-0.045152497 -0.11056192 0.042234361 4.6682437e-40
-0.043460563 -0.11004628 0.04416281 2.6078164e-42
-0.041773703 -0.11004628 0.04416281 8.7356946e-42
-0.04009477 -0.10924016 0.047177613 1.2640602e-38
-0.038413197 -0.10924016 0.047177613 1.8540724e-38
-0.036750004 -0.1084391 0.050173581 1.6972301e-38
-0.035073683 -0.1084391 0.050173581 1.7523658e-38
-0.033397362 -0.1084391 0.050173581 1.9181733e-38
-0.031744711 -0.10788374 0.052250624 2.0747621e-38
-0.03007203 -0.10788374 0.052250624 2.0562158e-38
-0.02844353 -0.10709111 0.055215001 2.0746194e-38
-0.026776047 -0.10709111 0.055215001 2.0655439e-38
-0.02516444 -0.1062796 0.05825007 1.8629654e-38
-0.023502279 -0.1062796 0.05825007 1.9737806e-38
-0.021840118 -0.1062796 0.05825007 1.9278996e-38
-0.020224197 -0.10575725 0.060203612 1.2273226e-38
-0.018641815 -0.1049542 0.063206911 8.9545662e-39
-0.016988344 -0.1049542 0.063206911 7.6426818e-42
-0.015334874 -0.1049542 0.063206911 8.3344889e-40
-0.013681404 -0.1049542 0.063206911 3.3205687e-39
-0.012027934 -0.1049542 0.063206911 3.5978632e-39
-0.010374462 -0.1049542 0.063206911 8.3163841e-40
-0.0086130444 -0.10575725 0.060203612 1.0153262e-39
-0.0068806652 -0.1062796 0.05825007 4.6803369e-43
-0.005218504 -0.1062796 0.05825007 1.1911037e-43
-0.0035563428 -0.1062796 0.05825007 4.7504018e-43
-0.0017638076 -0.10709111 0.055215001 1.8701309e-40
3.6211684e-05 -0.10788374 0.052250624 1.1756894e-42
0.0018054005 -0.1084391 0.050173581 1.8665576e-40
0.0034817215 -0.1084391 0.050173581 1.0509738e-43
0.0053077508 -0.10924016 0.047177613 1.8458408e-39
0.0071452614 -0.11004628 0.04416281 3.7106664e-40
0.0090981405 -0.11137636 0.039188385 8.2956869e-43
0.010957876 -0.11217107 0.036216199 8.183583e-43
0.012829075 -0.11297067 0.033225775 9.2485699e-44
0.014656501 -0.11352326 0.031159103 5.5290613e-40
0.01672711 -0.11511876 0.025192022 3.6850646e-40
0.018447233 -0.11511876 0.025192022 6.8663625e-44
0.020356985 -0.11591102 0.022228956 1.84434e-39
0.022278303 -0.11670811 0.019247949 7.0065694e-39
0.024145858 -0.11725079 0.017218292 9.0348733e-39
0.02608853 -0.11805601 0.014206767 5.5251937e-40
0.028043063 -0.11886616 0.011176884 4.6105102e-40
0.030002395 -0.11965488 0.0082271099 1.0138731e-39
0.031980775 -0.12047486 0.0051605105 2.212782e-39
0.03396374 -0.12127317 0.0021747947 6.4541453e-39
0.035958558 -0.12207626 -0.00082868338 5.6251077e-39
0.038199745 -0.12366976 -0.0067883134 1.8628441e-40
0.039975941 -0.12366976 -0.0067883134 8.0854921e-43
0.041752137 -0.12366976 -0.0067883134 1.1096826e-39
0.043788336 -0.1244873 -0.0098457932 3.4138685e-39
0.046348564 -0.12688623 -0.018817723 7.5662648e-39
0.048413776 -0.12769531 -0.021843612 4.2518787e-39
0.050758146 -0.1292996 -0.027843654 3.9778113e-39
0.052571259 -0.1292996 -0.027843654 4.9909081e-39
0.054384373 -0.1292996 -0.027843654 2.5923797e-39
0.056573234 -0.13035102 -0.031775892 1.9239548e-40
0.058393247 -0.13035102 -0.031775892 4.155353e-39
0.060808502 -0.13195769 -0.037784755 3.2330296e-39
0.062944584 -0.13276802 -0.040815294 2.2210581e-42
0.065497778 -0.134638 -0.047808945 2.3125166e-39
0.067656614 -0.13543437 -0.050787389 1.2270349e-38
0.069509946 -0.13543437 -0.050787389 1.4851435e-38
0.072011106 -0.13704078 -0.05679518 2.0656511e-38
0.073874988 -0.13704078 -0.05679518 2.0650767e-38
0.076516293 -0.13890781 -0.063777864 1.7883103e-38
0.079192497 -0.14079951 -0.070852697 1.6040989e-38
0.081424959 -0.1416003 -0.073847592 7.9288578e-39
0.083778299 -0.1426542 -0.077789128 5.7161767e-39
0.086038016 -0.14346536 -0.080822766 2.4900597e-39
0.087944023 -0.14346536 -0.080822766 8.2987473e-39
0.090696596 -0.14532293 -0.087770045 8.0228765e-39
0.092614777 -0.14532293 -0.087770045 5.7190606e-39
0.0949203 -0.14614908 -0.09085983 7.4085249e-40
0.096843906 -0.14614908 -0.09085983 1.8511153e-42
0.099788435 -0.14826734 -0.098782003 2.2154529e-42
0.10212182 -0.14907773 -0.10181278 9.3703427e-41
-0.10317308 -0.1222301 0.0051605105 1.0696484e-38
-0.10141783 -0.1222301 0.0051605105 1.1526245e-38
-0.099662594 -0.1222301 0.0051605105 5.0718611e-39
-0.097907342 -0.1222301 0.0051605105 1.7525171e-39
-0.09598811 -0.12140475 0.0082271099 1.3841227e-39
-0.094238244 -0.12140475 0.0082271099 2.4908248e-39
-0.092488371 -0.12140475 0.0082271099 1.1618897e-38
-0.090596281 -0.12061088 0.011176884 1.2634827e-38
-0.088851579 -0.12061088 0.011176884 1.2728088e-38
-0.086836778 -0.11898489 0.017218292 9.2250112e-39
-0.08510267 -0.11898489 0.017218292 8.1193769e-39
-0.08336857 -0.11898489 0.017218292 1.1530612e-38
-0.08155439 -0.11843865 0.019247949 1.0424622e-38
-0.079823852 -0.11843865 0.019247949 9.5948587e-39
-0.077986158 -0.11763634 0.022228956 9.226079e-39
-0.076260835 -0.11763634 0.022228956 1.0146965e-38
-0.074439406 -0.11683889 0.025192022 1.2359663e-38
-0.072719283 -0.11683889 0.025192022 1.3005029e-38
-0.07099916 -0.11683889 0.025192022 1.5678691e-38
-0.069279037 -0.11683889 0.025192022 1.8627133e-38
-0.067558914 -0.11683889 0.025192022 2.0471397e-38
-0.065766834 -0.11602069 0.028232038 1.9180306e-38
-0.064052045 -0.11602069 0.028232038 9.7770808e-39
-0.06233725 -0.11602069 0.028232038 7.2878128e-39
-0.060568571 -0.11523293 0.031159103 5.9052511e-39
-0.058824487 -0.1146767 0.033225775 7.1960039e-39
-0.057073884 -0.11387186 0.036216199 5.3521011e-39
-0.055373088 -0.11387186 0.036216199 6.9201541e-39
-0.053638421 -0.11307193 0.039188385 6.182952e-39
-0.05194284 -0.11307193 0.039188385 4.6167067e-39
-0.050247256 -0.11307193 0.039188385 4.7644148e-42
-0.048532978 -0.11225216 0.042234361 6.9224144e-42
-0.046842739 -0.11225216 0.042234361 6.9224144e-42
-0.045152497 -0.11225216 0.042234361 1.3905743e-39
-0.043460563 -0.11173315 0.04416281 6.563682e-42
-0.041776344 -0.11092176 0.047177613 8.388579e-40
-0.04009477 -0.11092176 0.047177613 1.2732446e-38
-0.038413197 -0.11092176 0.047177613 1.8449248e-38
-0.036750004 -0.11011542 0.050173581 1.8633986e-38
-0.035073683 -0.11011542 0.050173581 1.8541411e-38
-0.033397362 -0.11011542 0.050173581 2.0290959e-38
-0.031721041 -0.11011542 0.050173581 2.1763575e-38
-0.03007203 -0.10955642 0.052250624 2.2867037e-38
-0.02844353 -0.10875858 0.055215001 2.166743e-38
-0.026776047 -0.10875858 0.055215001 2.2312796e-38
-0.02516444 -0.10794173 0.05825007 2.120753e-38
-0.023502279 -0.10794173 0.05825007 2.1024222e-38
-0.021882933 -0.10741599 0.060203612 1.9275034e-38
-0.020224197 -0.10741599 0.060203612 1.2270698e-38
-0.018641815 -0.10660769 0.063206911 9.5992028e-39
-0.016988344 -0.10660769 0.063206911 8.7146751e-42
-0.015334874 -0.10660769 0.063206911 2.8063804e-40
-0.013681404 -0.10660769 0.063206911 2.5844498e-39
-0.012027934 -0.10660769 0.063206911 3.1368935e-39
-0.010374462 -0.10660769 0.063206911 5.5541866e-40
-0.0087209921 -0.10660769 0.063206911 1.0156948e-39
-0.0069543105 -0.10741599 0.060203612 9.3389536e-41
-0.005218504 -0.10794173 0.05825007 1.5624478e-42
-0.0035563428 -0.10794173 0.05825007 9.4111205e-41
-0.0017638076 -0.10875858 0.055215001 8.5479206e-44
3.6211684e-05 -0.10955642 0.052250624 4.4281031e-43
0.0018054005 -0.11011542 0.050173581 2.6064151e-42
0.0034817215 -0.11011542 0.050173581 8.4853302e-39
0.0053077508 -0.11092176 0.047177613 1.1250849e-38
0.0071452614 -0.11173315 0.04416281 9.9608261e-39
0.0090981405 -0.11307193 0.039188385 1.0178359e-39
0.010957876 -0.11387186 0.036216199 7.9453623e-43
0.012829075 -0.1146767 0.033225775 7.9733883e-43
0.014656501 -0.11523293 0.031159103 9.223921e-40
0.016543219 -0.11602069 0.028232038 1.1893661e-38
0.018447233 -0.11683889 0.025192022 1.8900879e-38
0.020356985 -0.11763634 0.022228956 1.8715761e-38
0.022278303 -0.11843865 0.019247949 1.57655e-38
0.024145858 -0.11898489 0.017218292 1.3645004e-38
0.02608853 -0.1197954 0.014206767 4.9045446e-44
0.027827913 -0.1197954 0.014206767 6.0255834e-44
0.029787758 -0.12061088 0.011176884 6.7262326e-44
0.031980775 -0.1222301 0.0051605105 2.9510631e-39
0.03396374 -0.12303366 0.0021747947 9.0367005e-39
0.035724223 -0.12303366 0.0021747947 7.2857024e-39
0.037957296 -0.12462802 -0.0037491918 1.8807527e-40
0.039728165 -0.12462802 -0.0037491918 2.5994087e-42
0.041499026 -0.12462802 -0.0037491918 2.0327095e-39
0.043788336 -0.12626885 -0.0098457932 4.9829865e-39
0.046348564 -0.12868352 -0.018817723 7.4747852e-39
0.048413776 -0.1294979 -0.021843612 4.160762e-39
0.050758146 -0.13111271 -0.027843654 4.9008452e-39
0.052571259 -0.13111271 -0.027843654 5.2689271e-39
0.054753236 -0.13217102 -0.031775892 1.4874643e-39
0.056573234 -0.13217102 -0.031775892 5.6117659e-40
0.058684759 -0.13297729 -0.034771621 6.5524394e-39
0.060808502 -0.13378824 -0.037784755 5.5379203e-39
0.062944584 -0.13460387 -0.040815294 2.8312535e-40
0.065497778 -0.13648613 -0.047808945 2.4976239e-39
0.067656614 -0.13728772 -0.050787389 1.3192666e-38
0.069509946 -0.13728772 -0.050787389 1.5128743e-38
0.072011106 -0.13890465 -0.05679518 1.8259789e-38
0.073874988 -0.13890465 -0.05679518 1.8530631e-38
0.076516293 -0.14078392 -0.063777864 1.6501249e-38
0.078739531 -0.14161004 -0.066847384 1.4842806e-38
0.081424959 -0.14349405 -0.073847592 7.1920144e-39
0.083778299 -0.14455487 -0.077789128 4.7031066e-39
0.086038016 -0.14537133 -0.080822766 1.5684636e-39
0.087944023 -0.14537133 -0.080822766 6.8236173e-39
0.090696596 -0.1472411 -0.087770045 6.7321377e-39
0.092614777 -0.1472411 -0.087770045 5.0740471e-39
0.0949203 -0.14807267 -0.09085983 7.4084968e-40
0.096843906 -0.14807267 -0.09085983 9.5483076e-41
-0.10317308 -0.12398534 0.0051605105 1.1157462e-38
-0.10141783 -0.12398534 0.0051605105 1.1341853e-38
-0.099662594 -0.12398534 0.0051605105 4.0591427e-39
-0.097737975 -0.12315463 0.0082271099 1.8623257e-42
-0.09598811 -0.12315463 0.0082271099 1.1672816e-42
-0.094238244 -0.12315463 0.0082271099 2.3993341e-39
-0.092488371 -0.12315463 0.0082271099 1.4016334e-38
-0.090596281 -0.12235557 0.011176884 1.6690708e-38
-0.088710807 -0.12153481 0.014206767 1.3741155e-38
-0.086836778 -0.120719 0.017218292 1.309543e-38
-0.08510267 -0.120719 0.017218292 1.3372018e-38
-0.083284937 -0.12016918 0.019247949 1.3557488e-38
-0.08155439 -0.12016918 0.019247949 1.2451141e-38
-0.079823852 -0.12016918 0.019247949 1.1345511e-38
-0.077986158 -0.11936165 0.022228956 4.5230453e-39
-0.076260835 -0.11936165 0.022228956 1.5728048e-39
-0.074439406 -0.11855899 0.025192022 2.586605e-39
-0.072719283 -0.11855899 0.025192022 3.1404962e-39
-0.07099916 -0.11855899 0.025192022 6.4595277e-39
-0.069279037 -0.11855899 0.025192022 1.2451139e-38
-0.067558914 -0.11855899 0.025192022 1.4386876e-38
-0.065838791 -0.11855899 0.025192022 1.5216282e-38
-0.064052045 -0.11773549 0.028232038 8.1179462e-39
-0.06233725 -0.11773549 0.028232038 7.5647822e-39
-0.060568571 -0.11694257 0.031159103 7.0119756e-39
-0.058824487 -0.11638273 0.033225775 6.6439204e-39
-0.057073884 -0.11557265 0.036216199 6.4595389e-39
-0.055373088 -0.11557265 0.036216199 6.552459e-39
-0.053638421 -0.11476754 0.039188385 5.4468331e-39
-0.05194284 -0.11476754 0.039188385 3.972066e-39
-0.050247256 -0.11476754 0.039188385 6.5706885e-42
-0.048532978 -0.1139424 0.042234361 8.0070194e-42
-0.046842739 -0.1139424 0.042234361 6.9266183e-42
-0.045152497 -0.1139424 0.042234361 6.5445263e-40
-0.043460563 -0.11341999 0.04416281 5.8490198e-42
-0.041776344 -0.11260332 0.047177613 8.3867713e-42
-0.04009477 -0.11260332 0.047177613 1.1810138e-38
-0.038413197 -0.11260332 0.047177613 1.7159963e-38
-0.036750004 -0.11179174 0.050173581 1.8636147e-38
-0.035073683 -0.11179174 0.050173581 1.7897846e-38
-0.033397362 -0.11179174 0.050173581 1.9740669e-38
-0.031721041 -0.11179174 0.050173581 2.0382804e-38
-0.03007203 -0.11122911 0.052250624 2.1394441e-38
-0.02844353 -0.11042608 0.055215001 2.2405707e-38
-0.026776047 -0.11042608 0.055215001 2.2588661e-38
-0.02516444 -0.1096039 0.05825007 2.1759262e-38
-0.023502279 -0.1096039 0.05825007 2.0653277e-38
-0.021882933 -0.1090747 0.060203612 1.9181035e-38
-0.020224197 -0.1090747 0.060203612 1.3467078e-38
-0.018641815 -0.10826115 0.063206911 1.0703387e-38
-0.016988344 -0.10826115 0.063206911 5.8322042e-42
-0.015334874 -0.10826115 0.063206911 3.7022305e-42
-0.013681404 -0.10826115 0.063206911 2.2153254e-39
-0.012027934 -0.10826115 0.063206911 2.6762923e-39
-0.010374462 -0.10826115 0.063206911 1.8701309e-40
-0.0087209921 -0.10826115 0.063206911 7.3948061e-40
-0.0069543105 -0.1090747 0.060203612 1.2051167e-42
-0.005218504 -0.1096039 0.05825007 9.3763683e-41
-0.0035563428 -0.1096039 0.05825007 1.8630543e-40
-0.0018941816 -0.1096039 0.05825007 9.551951e-41
3.6211684e-05 -0.11122911 0.052250624 1.1448608e-42
0.0018054005 -0.11179174 0.050173581 1.8595231e-42
0.0036261771 -0.11260332 0.047177613 1.4755681e-38
0.0053077508 -0.11260332 0.047177613 1.8535343e-38
0.0072450098 -0.1139424 0.042234361 1.5401411e-38
0.0090981405 -0.11476754 0.039188385 2.863147e-39
0.010957876 -0.11557265 0.036216199 2.4010871e-39
0.012658669 -0.11557265 0.036216199 3.6900364e-39
0.014535112 -0.11638273 0.033225775 3.87299e-39
0.016543219 -0.11773549 0.028232038 1.5304878e-38
0.018447233 -0.11855899 0.025192022 2.1297942e-38
0.020356985 -0.11936165 0.022228956 2.0928798e-38
0.022278303 -0.12016918 0.019247949 1.622682e-38
0.024145858 -0.120719 0.017218292 1.4474753e-38
0.02608853 -0.12153481 0.014206767 4.6242849e-44
0.027827913 -0.12153481 0.014206767 9.2238089e-40
0.029787758 -0.12235557 0.011176884 2.7702269e-40
0.031980775 -0.12398534 0.0051605105 3.5053159e-39
0.03373602 -0.12398534 0.0051605105 9.0374194e-39
0.035724223 -0.12479414 0.0021747947 5.9964e-39
0.037957296 -0.12639888 -0.0037491918 7.9313493e-43
0.039728165 -0.12639888 -0.0037491918 5.1105355e-42
0.041499026 -0.12639888 -0.0037491918 5.1691504e-39
0.043788336 -0.1280504 -0.0098457932 8.1197875e-39
0.046348564 -0.13048081 -0.018817723 5.4482751e-39
0.048413776 -0.13130049 -0.021843612 1.67148e-39
0.050758146 -0.13292582 -0.027843654 5.454019e-39
0.052571259 -0.13292582 -0.027843654 7.0209958e-39
0.054753236 -0.13399105 -0.031775892 1.6711283e-39
0.056859501 -0.13480256 -0.034771621 3.764224e-40
0.058684759 -0.13480256 -0.034771621 6.8275871e-39
0.060808502 -0.13561879 -0.037784755 8.2101545e-39
0.062944584 -0.13643973 -0.040815294 2.863524e-39
0.065497778 -0.13833423 -0.047808945 3.8801968e-39
0.067656614 -0.13914107 -0.050787389 1.5036934e-38
0.069827698 -0.13995247 -0.053782761 1.641913e-38
0.072011106 -0.14076851 -0.05679518 1.632441e-38
0.073874988 -0.14076851 -0.05679518 1.6872553e-38
0.076516293 -0.14266007 -0.063777864 1.5211592e-38
0.078739531 -0.14349155 -0.066847384 1.33684e-38
0.081081025 -0.14457656 -0.070852697 7.9292235e-39
0.084132008 -0.14727734 -0.080822766 5.6247069e-39
0.086038016 -0.14727734 -0.080822766 2.2138358e-39
0.087944023 -0.14727734 -0.080822766 4.6109222e-39
0.090696596 -0.1491593 -0.087770045 3.9662688e-39
0.092614777 -0.1491593 -0.087770045 3.4145258e-39
0.0949203 -0.1499963 -0.09085983 8.3304531e-40
0.096843906 -0.1499963 -0.09085983 1.865969e-40
-0.10317308 -0.12574057 0.0051605105 1.2171614e-38
-0.10141783 -0.12574057 0.0051605105 1.1709916e-38
-0.099662594 -0.12574057 0.0051605105 2.8598736e-39
-0.097737975 -0.1249045 0.0082271099 2.0312354e-39
-0.09598811 -0.1249045 0.0082271099 1.1532686e-42
-0.094238244 -0.1249045 0.0082271099 1.5692077e-39
-0.092488371 -0.1249045 0.0082271099 1.0973514e-38
-0.090596281 -0.12410025 0.011176884 1.4937184e-38
-0.088710807 -0.12327419 0.014206767 1.5306317e-38
-0.086836778 -0.12245311 0.017218292 1.4106705e-38
-0.08510267 -0.12245311 0.017218292 1.493683e-38
-0.083284937 -0.12189974 0.019247949 1.5766591e-38
-0.08155439 -0.12189974 0.019247949 1.5582918e-38
-0.079823852 -0.12189974 0.019247949 1.447801e-38
-0.077986158 -0.12108697 0.022228956 3.5081787e-39
-0.076260835 -0.12108697 0.022228956 2.972154e-42
-0.074439406 -0.12027912 0.025192022 2.8173386e-40
-0.072719283 -0.12027912 0.025192022 8.211609e-43
-0.07099916 -0.12027912 0.025192022 2.2504853e-42
-0.069279037 -0.12027912 0.025192022 5.5792838e-40
-0.067558914 -0.12027912 0.025192022 7.4195391e-40
-0.065838791 -0.12027912 0.025192022 1.663913e-39
-0.064052045 -0.11945029 0.028232038 8.3451527e-40
-0.06233725 -0.11945029 0.028232038 3.6784085e-42
-0.060568571 -0.11865224 0.031159103 5.1245485e-42
-0.058824487 -0.11808877 0.033225775 8.4077908e-44
-0.057073884 -0.11727346 0.036216199 2.7724438e-39
-0.055373088 -0.11727346 0.036216199 6.6443043e-39
-0.053672291 -0.11727346 0.036216199 4.2479382e-39
-0.05194284 -0.11646311 0.039188385 2.9575623e-39
-0.050247256 -0.11646311 0.039188385 1.0225331e-39
-0.048551671 -0.11646311 0.039188385 1.2069216e-39
-0.046842739 -0.11563264 0.042234361 5.8560263e-42
-0.045152497 -0.11563264 0.042234361 6.21616e-42
-0.043460563 -0.11510687 0.04416281 4.7798291e-42
-0.041776344 -0.11428489 0.047177613 7.3105741e-42
-0.04009477 -0.11428489 0.047177613 1.0335731e-38
-0.038413197 -0.11428489 0.047177613 1.494764e-38
-0.036750004 -0.11346807 0.050173581 1.734578e-38
-0.035073683 -0.11346807 0.050173581 1.642416e-38
-0.033397362 -0.11346807 0.050173581 1.9281134e-38
-0.031721041 -0.11346807 0.050173581 1.9463011e-38
-0.03007203 -0.11290176 0.052250624 2.0289535e-38
-0.02844353 -0.11209355 0.055215001 2.2223471e-38
-0.026776047 -0.11209355 0.055215001 2.1853259e-38
-0.02516444 -0.11126606 0.05825007 2.1484117e-38
-0.023502279 -0.11126606 0.05825007 1.9456174e-38
-0.021882933 -0.11073343 0.060203612 1.87197e-38
-0.020295285 -0.10991462 0.063206911 1.3558555e-38
-0.018641815 -0.10991462 0.063206911 1.107073e-38
-0.016988344 -0.10991462 0.063206911 4.3958733e-42
-0.015334874 -0.10991462 0.063206911 3.7213162e-40
-0.013681404 -0.10991462 0.063206911 2.4912004e-39
-0.012027934 -0.10991462 0.063206911 2.6759406e-39
-0.010374462 -0.10991462 0.063206911 9.4462931e-41
-0.0087209921 -0.10991462 0.063206911 5.5473903e-40
-0.0069543105 -0.11073343 0.060203612 1.2891946e-43
-0.0052955728 -0.11073343 0.060203612 1.2891946e-43
-0.0036368351 -0.11073343 0.060203612 8.2816739e-43
-0.0018941816 -0.11126606 0.05825007 1.0167457e-39
-9.6322969e-05 -0.11209355 0.055215001 1.392519e-38
0.0017088931 -0.11290176 0.052250624 1.9734223e-38
0.0034817215 -0.11346807 0.050173581 2.2499695e-38
0.0053077508 -0.11428489 0.047177613 1.9734223e-38
0.0072450098 -0.11563264 0.042234361 1.8167247e-38
0.0090981405 -0.11646311 0.039188385 1.5124776e-38
0.010793721 -0.11646311 0.039188385 1.779845e-38
0.012658669 -0.11727346 0.036216199 2.0285586e-38
0.014535112 -0.11808877 0.033225775 2.0100479e-38
0.016543219 -0.11945029 0.028232038 2.2681214e-38
0.018447233 -0.12027912 0.025192022 2.2773408e-38
0.020356985 -0.12108697 0.022228956 2.3049632e-38
0.022411751 -0.12245311 0.017218292 1.6595952e-38
0.024145858 -0.12245311 0.017218292 1.1617039e-38
0.02608853 -0.12327419 0.014206767 3.6918609e-40
0.027827913 -0.12327419 0.014206767 6.45794e-40
0.029787758 -0.12410025 0.011176884 2.5826351e-39
0.031980775 -0.12574057 0.0051605105 5.3495914e-39
0.03373602 -0.12574057 0.0051605105 8.4856848e-39
0.035724223 -0.12655462 0.0021747947 6.2747847e-39
0.037957296 -0.12816976 -0.0037491918 4.0315357e-42
0.039728165 -0.12816976 -0.0037491918 5.8209938e-42
0.041752137 -0.12899835 -0.0067883134 6.8308213e-39
0.043788336 -0.12983195 -0.0098457932 7.8442712e-39
0.046348564 -0.1322781 -0.018817723 3.1437346e-39
0.048413776 -0.13310309 -0.021843612 1.4870888e-39
0.050758146 -0.13473894 -0.027843654 7.665991e-39
0.052571259 -0.13473894 -0.027843654 7.2961351e-39
0.054753236 -0.13581105 -0.031775892 5.1189433e-42
0.056859501 -0.13662781 -0.034771621 2.5938035e-42
0.058684759 -0.13662781 -0.034771621 8.4845918e-39
0.060808502 -0.13744931 -0.037784755 7.7459407e-39
0.062944584 -0.13827558 -0.040815294 3.8755179e-39
0.065497778 -0.14018236 -0.047808945 4.3397303e-39
0.067656614 -0.14099441 -0.050787389 1.4390125e-38
0.069827698 -0.14181106 -0.053782761 1.5035844e-38
0.072447114 -0.14373477 -0.060838521 1.3466712e-38
0.074318074 -0.14373477 -0.060838521 1.3738624e-38
0.076516293 -0.14453618 -0.063777864 1.0694732e-38
0.078392409 -0.14453618 -0.063777864 8.7589842e-39
0.080621041 -0.14537306 -0.066847384 4.887495e-39
0.083318733 -0.1472816 -0.073847592 3.1350732e-39
0.085678987 -0.14835624 -0.077789128 8.305482e-40
0.087944023 -0.14918335 -0.080822766 1.845419e-39
-0.10317308 -0.12749584 0.0051605105 1.2170894e-38
-0.10141783 -0.12749584 0.0051605105 1.1893589e-38
-0.099662594 -0.12749584 0.0051605105 4.4264804e-39
-0.097737975 -0.12665437 0.0082271099 8.3196631e-40
-0.09598811 -0.12665437 0.0082271099 7.397931e-40
-0.094085671 -0.12584494 0.011176884 2.3978865e-39
-0.092340969 -0.12584494 0.011176884 1.1801113e-38
-0.090596281 -0.12584494 0.011176884 1.3367698e-38
-0.088710807 -0.12501357 0.014206767 1.4196371e-38
-0.086836778 -0.12418722 0.017218292 1.2720171e-38
-0.08510267 -0.12418722 0.017218292 1.3365185e-38
-0.083284937 -0.12363027 0.019247949 1.2997122e-38
-0.08155439 -0.12363027 0.019247949 1.4289657e-38
-0.079823852 -0.12363027 0.019247949 1.5305604e-38
-0.077986158 -0.12281232 0.022228956 4.9811466e-39
-0.076159529 -0.12199925 0.025192022 1.8844241e-40
-0.074439406 -0.12199925 0.025192022 1.8953543e-40
-0.072719283 -0.12199925 0.025192022 2.2574918e-42
-0.07099916 -0.12199925 0.025192022 6.577695e-42
-0.069279037 -0.12199925 0.025192022 4.0553578e-42
-0.067558914 -0.12199925 0.025192022 2.6134216e-42
-0.065838791 -0.12199925 0.025192022 3.7248055e-40
-0.064052045 -0.12116508 0.028232038 4.7770265e-42
-0.06233725 -0.12116508 0.028232038 9.6689594e-44
-0.060568571 -0.12036191 0.031159103 5.5831514e-40
-0.058824487 -0.1197948 0.033225775 5.1441667e-42
-0.057118446 -0.1197948 0.033225775 5.0766269e-39
-0.055373088 -0.11897425 0.036216199 6.1829772e-39
-0.053672291 -0.11897425 0.036216199 3.6940568e-39
-0.05194284 -0.11815868 0.039188385 2.1274527e-39
-0.050247256 -0.11815868 0.039188385 8.3743698e-40
-0.048551671 -0.11815868 0.039188385 8.3743698e-40
-0.046842739 -0.11732288 0.042234361 5.5155108e-42
-0.045152497 -0.11732288 0.042234361 6.2343769e-42
-0.043460563 -0.11679374 0.04416281 6.9574469e-42
-0.041776344 -0.11596648 0.047177613 6.2343769e-42
-0.04009477 -0.11596648 0.047177613 6.2802049e-39
-0.038413197 -0.11596648 0.047177613 1.0337501e-38
-0.036750004 -0.11514439 0.050173581 1.550115e-38
-0.035073683 -0.11514439 0.050173581 1.6146497e-38
-0.033397362 -0.11514439 0.050173581 1.8726528e-38
-0.031721041 -0.11514439 0.050173581 1.9094595e-38
-0.03007203 -0.11457445 0.052250624 2.0752668e-38
-0.028399352 -0.11457445 0.052250624 2.0844145e-38
-0.026726671 -0.11457445 0.052250624 1.9921118e-38
-0.02516444 -0.11292823 0.05825007 2.001367e-38
-0.023502279 -0.11292823 0.05825007 1.7708779e-38
-0.021882933 -0.11239217 0.060203612 1.752368e-38
-0.020295285 -0.11156808 0.063206911 1.171573e-38
-0.018717686 -0.1107492 0.066191256 9.7796396e-39
-0.01706945 -0.1107492 0.066191256 5.4846822e-42
-0.015421212 -0.1107492 0.066191256 7.4019528e-40
-0.013772974 -0.1107492 0.066191256 2.8589011e-39
-0.012027934 -0.11156808 0.063206911 2.8592528e-39
-0.010374462 -0.11156808 0.063206911 1.8557956e-40
-0.0087209921 -0.11156808 0.063206911 6.4585566e-40
-0.007067522 -0.11156808 0.063206911 1.2751816e-43
-0.0052955728 -0.11239217 0.060203612 1.2051167e-43
-0.0036368351 -0.11239217 0.060203612 9.9492191e-44
-0.0018941816 -0.11292823 0.05825007 4.0581113e-39
-9.6322969e-05 -0.11376105 0.055215001 1.7611923e-38
0.0017088931 -0.11457445 0.052250624 2.2037289e-38
0.0034817215 -0.11514439 0.050173581 2.166887e-38
0.0053077508 -0.11596648 0.047177613 2.0470326e-38
0.0072450098 -0.11732288 0.042234361 1.9272135e-38
0.0090981405 -0.11815868 0.039188385 1.8627107e-38
0.010793721 -0.11815868 0.039188385 2.1300781e-38
0.012658669 -0.11897425 0.036216199 2.2406066e-38
0.014535112 -0.1197948 0.033225775 2.3142544e-38
0.016543219 -0.12116508 0.028232038 2.2313152e-38
0.018447233 -0.12199925 0.025192022 2.2774125e-38
0.020356985 -0.12281232 0.022228956 2.3234379e-38
0.022278303 -0.12363027 0.019247949 1.9546567e-38
0.02400885 -0.12363027 0.019247949 1.1433365e-38
0.025879959 -0.12418722 0.017218292 1.1063952e-39
0.027827913 -0.12501357 0.014206767 6.3058431e-44
0.029787758 -0.12584494 0.011176884 5.1648372e-39
0.031752259 -0.12665437 0.0082271099 6.0878809e-39
0.03373602 -0.12749584 0.0051605105 5.2592021e-39
0.035724223 -0.12831511 0.0021747947 5.1698763e-39
0.037957296 -0.12994061 -0.0037491918 1.115058e-39
0.039728165 -0.12994061 -0.0037491918 6.555078e-40
0.041752137 -0.13077454 -0.0067883134 8.7687246e-39
0.043788336 -0.13161351 -0.0098457932 1.0149512e-38
0.046348564 -0.13407536 -0.018817723 6.5372815e-40
0.048413776 -0.13490568 -0.021843612 5.4776757e-42
0.050758146 -0.13655205 -0.027843654 7.8485844e-39
0.052571259 -0.13655205 -0.027843654 9.3229886e-39
0.054753236 -0.13763104 -0.031775892 9.9468369e-41
0.056859501 -0.13845308 -0.034771621 1.8698787e-40
0.058684759 -0.13845308 -0.034771621 8.2976824e-39
0.060808502 -0.13927986 -0.037784755 9.217838e-39
0.062944584 -0.14011143 -0.040815294 7.0072953e-39
0.065497778 -0.14203046 -0.047808945 7.1959899e-39
0.067656614 -0.14284773 -0.050787389 1.4296487e-38
0.070147239 -0.14449625 -0.05679518 1.4388327e-38
0.072447114 -0.14560573 -0.060838521 1.2451493e-38
0.074318074 -0.14560573 -0.060838521 1.1618491e-38
0.076516293 -0.1464123 -0.063777864 6.6384875e-39
0.078392409 -0.1464123 -0.063777864 5.5328644e-39
0.080268525 -0.1464123 -0.063777864 3.0439496e-39
0.082969539 -0.14835359 -0.070852697 1.475919e-39
0.085212506 -0.14917539 -0.073847592 1.3833703e-39
-0.10141783 -0.12925108 0.0051605105 1.1156024e-38
-0.099662594 -0.12925108 0.0051605105 6.3615125e-39
-0.097737975 -0.12840421 0.0082271099 4.3346842e-39
-0.09598811 -0.12840421 0.0082271099 7.6526731e-39
-0.094085671 -0.12758966 0.011176884 8.1115044e-39
-0.092340969 -0.12758966 0.011176884 1.7790958e-38
-0.09045019 -0.12675296 0.014206767 1.6314721e-38
-0.088710807 -0.12675296 0.014206767 1.3824349e-38
-0.086836778 -0.12592132 0.017218292 1.5298767e-38
-0.08510267 -0.12592132 0.017218292 1.6220007e-38
-0.083284937 -0.12536083 0.019247949 1.5390963e-38
-0.08155439 -0.12536083 0.019247949 1.4839943e-38
-0.079823852 -0.12536083 0.019247949 1.4658419e-38
-0.077879652 -0.12371938 0.025192022 7.7462784e-39
-0.076159529 -0.12371938 0.025192022 2.8613828e-39
-0.074439406 -0.12371938 0.025192022 4.6647124e-40
-0.072719283 -0.12371938 0.025192022 2.2420775e-42
-0.07099916 -0.12371938 0.025192022 8.3776489e-40
-0.069279037 -0.12371938 0.025192022 1.2040391e-39
-0.067558914 -0.12371938 0.025192022 1.901562e-42
-0.065838791 -0.12371938 0.025192022 2.8100939e-40
-0.064052045 -0.12287988 0.028232038 4.6102719e-43
-0.06233725 -0.12287988 0.028232038 1.1798933e-42
-0.060568571 -0.12207155 0.031159103 1.8953262e-40
-0.058858909 -0.12207155 0.031159103 2.6788174e-39
-0.057118446 -0.12150083 0.033225775 6.4588383e-39
-0.055373088 -0.12067504 0.036216199 5.8141919e-39
-0.053672291 -0.12067504 0.036216199 5.1695442e-39
-0.05194284 -0.11985429 0.039188385 3.4174727e-39
-0.050247256 -0.11985429 0.039188385 5.5977109e-40
-0.048551671 -0.11985429 0.039188385 5.1595809e-42
-0.046842739 -0.11901312 0.042234361 5.882651e-42
-0.045147426 -0.11848058 0.04416281 1.9171445e-40
-0.043460563 -0.11848058 0.04416281 7.3203832e-42
-0.041776344 -0.11764805 0.047177613 4.0721733e-42
-0.04009477 -0.11764805 0.047177613 1.4878272e-39
-0.038413197 -0.11764805 0.047177613 6.1886973e-39
-0.036750004 -0.11682071 0.050173581 1.5039092e-38
-0.035073683 -0.11682071 0.050173581 1.8080091e-38
-0.033397362 -0.11682071 0.050173581 1.8172278e-38
-0.031721041 -0.11682071 0.050173581 1.7711661e-38
-0.030044718 -0.11682071 0.050173581 1.9463741e-38
-0.028399352 -0.11624713 0.052250624 1.9280431e-38
-0.026726671 -0.11624713 0.052250624 1.6146497e-38
-0.025108565 -0.11542852 0.055215001 1.5317812e-38
-0.023502279 -0.11459039 0.05825007 1.3933801e-38
-0.021882933 -0.11405091 0.060203612 1.6052154e-38
-0.020295285 -0.11322157 0.063206911 9.5970364e-39
-0.018717686 -0.11239742 0.066191256 7.4736768e-39
-0.01706945 -0.11239742 0.066191256 3.3280839e-42
-0.015421212 -0.11239742 0.066191256 1.1078904e-39
-0.013772974 -0.11239742 0.066191256 2.8588899e-39
-0.012124736 -0.11239742 0.066191256 3.0425539e-39
-0.010374462 -0.11322157 0.063206911 3.6888622e-40
-0.0087209921 -0.11322157 0.063206911 1.0135494e-39
-0.007067522 -0.11322157 0.063206911 1.8379431e-40
-0.0052955728 -0.11405091 0.060203612 2.756242e-40
-0.0035563428 -0.11459039 0.05825007 1.8412641e-40
-0.0018941816 -0.11459039 0.05825007 4.3339695e-39
-9.6322969e-05 -0.11542852 0.055215001 2.2219884e-38
0.0017088931 -0.11624713 0.052250624 2.3142544e-38
0.0034817215 -0.11682071 0.050173581 2.0007539e-38
0.0053077508 -0.11764805 0.047177613 1.9454365e-38
0.0072450098 -0.11901312 0.042234361 2.341805e-38
0.0090981405 -0.11985429 0.039188385 2.3049972e-38
0.010793721 -0.11985429 0.039188385 2.2036897e-38
0.012829075 -0.12150083 0.033225775 2.3050707e-38
0.014535112 -0.12150083 0.033225775 2.3142544e-38
0.016543219 -0.12287988 0.028232038 2.3142544e-38
0.018447233 -0.12371938 0.025192022 2.1944715e-38
0.020356985 -0.12453763 0.022228956 2.1851803e-38
0.022278303 -0.12536083 0.019247949 2.1021691e-38
0.02400885 -0.12536083 0.019247949 1.429143e-38
0.025879959 -0.12592132 0.017218292 4.3440252e-44
0.027827913 -0.12675296 0.014206767 6.5861028e-44
0.029567296 -0.12675296 0.014206767 7.0091156e-39
0.031532452 -0.12758966 0.011176884 6.0882467e-39
0.03373602 -0.12925108 0.0051605105 7.4305813e-40
0.035724223 -0.13007559 0.0021747947 2.4969247e-39
0.037957296 -0.1317115 -0.0037491918 2.8674967e-39
0.039975941 -0.13255073 -0.0067883134 2.8696421e-39
0.042006783 -0.13339506 -0.0098457932 9.8757869e-39
0.044041149 -0.13421609 -0.012818873 9.8732771e-39
0.046348564 -0.13587265 -0.018817723 1.0018864e-40
0.048413776 -0.13670824 -0.021843612 2.8638757e-40
0.050481714 -0.13751976 -0.02478224 9.8758093e-39
0.052571259 -0.13836516 -0.027843654 9.5048547e-39
0.054753236 -0.13945107 -0.031775892 2.2210581e-42
0.056859501 -0.14027832 -0.034771621 1.7517926e-39
0.058684759 -0.14027832 -0.034771621 1.1704968e-38
0.060808502 -0.14111041 -0.037784755 9.7677776e-39
0.06263905 -0.14111041 -0.037784755 7.1884495e-39
0.065497778 -0.14387859 -0.047808945 6.7324922e-39
0.067656614 -0.14470108 -0.050787389 1.0791615e-38
0.070147239 -0.14636014 -0.05679518 1.0607591e-38
0.072447114 -0.14747669 -0.060838521 8.6707641e-39
0.074318074 -0.14747669 -0.060838521 7.1009062e-39
0.076516293 -0.14828841 -0.063777864 2.1209031e-39
0.078392409 -0.14828841 -0.063777864 2.21347e-39
0.080268525 -0.14828841 -0.063777864 2.3056783e-39
-0.10141783 -0.13100632 0.0051605105 1.1155305e-38
-0.099662594 -0.13100632 0.0051605105 5.3473633e-39
-0.097737975 -0.13015409 0.0082271099 4.6094802e-39
-0.09598811 -0.13015409 0.0082271099 6.2675918e-39
-0.094085671 -0.12933435 0.011176884 7.1874042e-39
-0.092340969 -0.12933435 0.011176884 1.5483561e-38
-0.09045019 -0.12849234 0.014206767 1.7234524e-38
-0.088570878 -0.12765543 0.017218292 1.6495148e-38
-0.086836778 -0.12765543 0.017218292 1.8521658e-38
-0.08510267 -0.12765543 0.017218292 1.8060677e-38
-0.083284937 -0.12709136 0.019247949 1.9075903e-38
-0.08155439 -0.12709136 0.019247949 1.6220705e-38
-0.079711474 -0.12626295 0.022228956 1.3827198e-38
-0.077879652 -0.12543948 0.025192022 1.2355316e-38
-0.076159529 -0.12543948 0.025192022 1.0882736e-38
-0.074439406 -0.12543948 0.025192022 9.0413557e-39
-0.072719283 -0.12543948 0.025192022 5.4482386e-39
-0.07099916 -0.12543948 0.025192022 5.6329928e-39
-0.069279037 -0.12543948 0.025192022 6.7364817e-39
-0.067558914 -0.12543948 0.025192022 3.6929553e-39
-0.065838791 -0.12543948 0.025192022 2.7709962e-39
-0.064052045 -0.12459467 0.028232038 2.0334312e-39
-0.06233725 -0.12459467 0.028232038 8.3524535e-40
-0.060622454 -0.12459467 0.028232038 1.7572016e-39
-0.058858909 -0.12378122 0.031159103 4.9840487e-39
-0.057118446 -0.1232069 0.033225775 6.5517359e-39
-0.055373088 -0.12237583 0.036216199 4.8000218e-39
-0.053672291 -0.12237583 0.036216199 6.1836793e-39
-0.051971503 -0.12237583 0.036216199 5.9989349e-39
-0.050247256 -0.12154986 0.039188385 3.325626e-39
-0.048532978 -0.12070335 0.042234361 9.285452e-40
-0.046842739 -0.12070335 0.042234361 2.8353733e-40
-0.045147426 -0.12016745 0.04416281 2.831842e-40
-0.043457918 -0.11932962 0.047177613 6.9546443e-42
-0.041776344 -0.11932962 0.047177613 7.6693065e-42
-0.04009477 -0.11932962 0.047177613 1.269156e-41
-0.038413197 -0.11932962 0.047177613 3.8841639e-39
-0.036750004 -0.11849703 0.050173581 1.3009348e-38
-0.035073683 -0.11849703 0.050173581 1.8262321e-38
-0.033397362 -0.11849703 0.050173581 1.8447067e-38
-0.031721041 -0.11849703 0.050173581 1.7987532e-38
-0.03007203 -0.11791982 0.052250624 1.8358476e-38
-0.02844353 -0.11709599 0.055215001 1.845427e-38
-0.026776047 -0.11709599 0.055215001 1.4123598e-38
-0.02516444 -0.11625256 0.05825007 1.3018326e-38
-0.023502279 -0.11625256 0.05825007 1.1265533e-38
-0.021948755 -0.11487503 0.063206911 1.3382807e-38
-0.020365924 -0.11404566 0.066191256 4.8972256e-39
-0.018717686 -0.11404566 0.066191256 3.3252434e-39
-0.01706945 -0.11404566 0.066191256 1.8917529e-42
-0.015421212 -0.11404566 0.066191256 1.292269e-39
-0.013772974 -0.11404566 0.066191256 3.1354572e-39
-0.012124736 -0.11404566 0.066191256 3.1350914e-39
-0.010476498 -0.11404566 0.066191256 4.6106503e-40
-0.0088282619 -0.11404566 0.066191256 1.1972092e-39
-0.007067522 -0.11487503 0.063206911 4.5929239e-40
-0.0052955728 -0.11570965 0.060203612 6.4296058e-40
-0.0035563428 -0.11625256 0.05825007 5.5110546e-40
-0.0018941816 -0.11625256 0.05825007 5.7147404e-39
-9.6322969e-05 -0.11709599 0.055215001 2.1850029e-38
0.0017088931 -0.11791982 0.052250624 2.2402833e-38
0.0034817215 -0.11849703 0.050173581 2.0558555e-38
0.0053077508 -0.11932962 0.047177613 2.0466362e-38
0.0072450098 -0.12070335 0.042234361 2.3323702e-38
0.0090981405 -0.12154986 0.039188385 2.2586839e-38
0.010957876 -0.12237583 0.036216199 2.3509873e-38
0.012829075 -0.1232069 0.033225775 2.2866308e-38
0.014535112 -0.1232069 0.033225775 2.2497889e-38
0.016543219 -0.12459467 0.028232038 2.3234372e-38
0.018447233 -0.12543948 0.025192022 2.2497525e-38
0.020356985 -0.12626295 0.022228956 2.1205708e-38
0.022278303 -0.12709136 0.019247949 1.9454723e-38
0.02400885 -0.12709136 0.019247949 1.5489973e-38
0.025879959 -0.12765543 0.017218292 6.4649886e-40
0.027614066 -0.12765543 0.017218292 6.8663625e-44
0.029567296 -0.12849234 0.014206767 7.1931523e-39
0.031306677 -0.12849234 0.014206767 6.8261774e-39
0.033502132 -0.13015409 0.0082271099 6.2189626e-42
0.035491265 -0.13100632 0.0051605105 1.9441152e-39
0.037957296 -0.13348235 -0.0037491918 6.2794566e-39
0.039975941 -0.13432692 -0.0067883134 6.7425788e-39
0.042006783 -0.13517661 -0.0098457932 9.8768659e-39
0.044295467 -0.13683395 -0.015809476 1.1532434e-38
0.046348564 -0.13766994 -0.018817723 5.8322042e-42
0.048145853 -0.13766994 -0.018817723 7.6440831e-42
0.050481714 -0.13932751 -0.02478224 1.0518661e-38
0.052571259 -0.14017828 -0.027843654 1.0978181e-38
0.054753236 -0.14127107 -0.031775892 7.408637e-40
0.056859501 -0.1421036 -0.034771621 3.0392945e-39
0.058684759 -0.1421036 -0.034771621 1.087197e-38
0.060808502 -0.14294095 -0.037784755 1.0594661e-38
0.06263905 -0.14294095 -0.037784755 5.5267702e-39
0.065081902 -0.14459993 -0.043754399 4.7020248e-39
0.067656614 -0.14655443 -0.050787389 7.6555219e-39
0.070147239 -0.14822401 -0.05679518 7.9321256e-39
-0.10317308 -0.13276155 0.0051605105 1.364495e-38
-0.10141783 -0.13276155 0.0051605105 1.216982e-38
-0.099662594 -0.13276155 0.0051605105 3.3187022e-39
-0.097737975 -0.13190396 0.0082271099 1.4759176e-39
-0.09598811 -0.13190396 0.0082271099 9.2169145e-40
-0.094085671 -0.13107903 0.011176884 3.5003034e-39
-0.092189573 -0.13023172 0.014206767 3.8679985e-39
-0.09045019 -0.13023172 0.014206767 4.6044566e-39
-0.088570878 -0.12938951 0.017218292 6.1699732e-39
-0.086836778 -0.12938951 0.017218292 8.1053612e-39
-0.08510267 -0.12938951 0.017218292 1.0040748e-38
-0.083284937 -0.12882192 0.019247949 1.0502799e-38
-0.08155439 -0.12882192 0.019247949 1.2625446e-38
-0.079711474 -0.12798826 0.022228956 1.3642102e-38
-0.077879652 -0.12715961 0.025192022 1.4567299e-38
-0.076159529 -0.12715961 0.025192022 1.2448267e-38
-0.074439406 -0.12715961 0.025192022 1.1344806e-38
-0.072719283 -0.12715961 0.025192022 1.0332446e-38
-0.071084879 -0.12798826 0.022228956 1.2361116e-38
-0.069279037 -0.12715961 0.025192022 1.3005066e-38
-0.067558914 -0.12715961 0.025192022 1.3465692e-38
-0.065838791 -0.12715961 0.025192022 1.2267149e-38
-0.064118668 -0.12715961 0.025192022 1.3189102e-38
-0.06233725 -0.12630944 0.028232038 8.3030914e-39
-0.060622454 -0.12630944 0.028232038 9.5938274e-39
-0.058858909 -0.12549089 0.031159103 7.934306e-39
-0.057118446 -0.12491293 0.033225775 4.3386765e-39
-0.055373088 -0.12407662 0.036216199 2.9557448e-39
-0.053672291 -0.12407662 0.036216199 5.6290608e-39
-0.051971503 -0.12407662 0.036216199 7.6577304e-39
-0.050247256 -0.12324543 0.039188385 7.2889535e-39
-0.048532978 -0.12239362 0.042234361 4.1539503e-39
-0.046842739 -0.12239362 0.042234361 1.2966089e-39
-0.045147426 -0.12185432 0.04416281 2.821024e-40
-0.043457918 -0.12101121 0.047177613 2.842604e-40
-0.041776344 -0.12101121 0.047177613 8.7441024e-42
-0.04009477 -0.12101121 0.047177613 9.0902231e-42
-0.038413197 -0.12101121 0.047177613 1.0253819e-39
-0.036750004 -0.12017335 0.050173581 7.2006745e-39
-0.035073683 -0.12017335 0.050173581 1.3836948e-38
-0.033397362 -0.12017335 0.050173581 1.6971952e-38
-0.031721041 -0.12017335 0.050173581 1.8725111e-38
-0.03007203 -0.1195925 0.052250624 1.7806036e-38
-0.028488763 -0.11791472 0.05825007 1.8363152e-38
-0.026826601 -0.11791472 0.05825007 1.6060079e-38
-0.02516444 -0.11791472 0.05825007 1.5969681e-38
-0.023541668 -0.11736839 0.060203612 1.2280779e-38
-0.021948755 -0.1165285 0.063206911 1.0893539e-38
-0.020365924 -0.11569391 0.066191256 7.2671338e-42
-0.018768739 -0.11513235 0.068199337 3.6840137e-42
-0.017124021 -0.11513235 0.068199337 5.5650887e-40
-0.015421212 -0.11569391 0.066191256 1.4770204e-39
-0.013772974 -0.11569391 0.066191256 3.3198456e-39
-0.012124736 -0.11569391 0.066191256 3.2272828e-39
-0.010476498 -0.11569391 0.066191256 6.4508915e-40
-0.0088282619 -0.11569391 0.066191256 1.3808745e-39
-0.007067522 -0.1165285 0.063206911 9.1846286e-40
-0.0052955728 -0.11736839 0.060203612 9.1845866e-40
-0.0035563428 -0.11791472 0.05825007 8.2660494e-40
-0.0018941816 -0.11791472 0.05825007 5.0675815e-39
-9.6322969e-05 -0.11876349 0.055215001 2.2585791e-38
0.0017088931 -0.1195925 0.052250624 2.3509168e-38
0.0034817215 -0.12017335 0.050173581 1.9729152e-38
0.0054584015 -0.12185432 0.04416281 2.1203927e-38
0.0072450098 -0.12239362 0.042234361 2.3232944e-38
0.0090981405 -0.12324543 0.039188385 2.3048905e-38
0.010793721 -0.12324543 0.039188385 2.2497525e-38
0.012829075 -0.12491293 0.033225775 2.0103315e-38
0.014656501 -0.12549089 0.031159103 1.558681e-38
0.016543219 -0.12630944 0.028232038 1.7890268e-38
0.018447233 -0.12715961 0.025192022 1.9273208e-38
0.020356985 -0.12798826 0.022228956 1.8902989e-38
0.022278303 -0.12882192 0.019247949 1.1342597e-38
0.02400885 -0.12882192 0.019247949 9.4054298e-39
0.025879959 -0.12938951 0.017218292 1.2918767e-39
0.027614066 -0.12938951 0.017218292 1.9372657e-39
0.029567296 -0.13023172 0.014206767 7.7463233e-39
0.031306677 -0.13023172 0.014206767 7.0102058e-39
0.033277147 -0.13107903 0.011176884 2.2560905e-42
0.035491265 -0.13276155 0.0051605105 8.3632996e-40
0.037957296 -0.13525321 -0.0037491918 9.3201146e-39
0.039975941 -0.13610314 -0.0067883134 1.2641656e-38
0.042006783 -0.13695817 -0.0098457932 1.411642e-38
0.044041149 -0.13778962 -0.012818873 1.0610838e-38
0.046348564 -0.13946722 -0.018817723 5.4720705e-42
0.048145853 -0.13946722 -0.018817723 1.206546e-39
0.050481714 -0.14113526 -0.02478224 1.1625008e-38
0.052289464 -0.14113526 -0.02478224 1.079379e-38
0.054753236 -0.14309107 -0.031775892 2.5811918e-42
0.056859501 -0.14392884 -0.034771621 2.2098939e-39
0.058684759 -0.14392884 -0.034771621 9.4911935e-39
0.060510017 -0.14392884 -0.034771621 8.6607139e-39
0.06263905 -0.1447715 -0.037784755 1.5627182e-39
