# .PCD v0.7 - Point Cloud Data file format
VERSION 0.7
FIELDS x y z rgb
SIZE 4 4 4 4
TYPE F F F F
COUNT 1 1 1 1
WIDTH 944
HEIGHT 1
VIEWPOINT 0 0 0 1 0 0 0
POINTS 944
DATA ascii
0.038199477 -0.10208866 0.074447811 2.3509876e-38
0.039866954 -0.10208866 0.074447811 2.3234379e-38
0.041534439 -0.10208866 0.074447811 2.3142544e-38
0.043464404 -0.10286568 0.071483433 2.2314582e-38
0.045324635 -0.10341014 0.06940639 2.2958873e-38
0.047000956 -0.10341014 0.06940639 2.2867037e-38
0.048958298 -0.10419546 0.066410422 2.2039077e-38
0.050927963 -0.1049857 0.063395619 2.2775202e-38
0.052614819 -0.1049857 0.063395619 2.2775199e-38
0.05430169 -0.1049857 0.063395619 2.2775199e-38
0.056182962 -0.10549118 0.061467171 2.2499695e-38
0.057873216 -0.10549118 0.061467171 2.2315307e-38
0.059881222 -0.10628961 0.058421195 2.2407142e-38
0.061892074 -0.1070687 0.055449009 2.2775202e-38
0.063592881 -0.1070687 0.055449009 1.7888849e-38
0.065621376 -0.10785256 0.052458584 1.4661651e-38
0.06732741 -0.10785256 0.052458584 7.9303137e-39
0.069267169 -0.10839428 0.050391912 5.5325435e-39
0.070976824 -0.10839428 0.050391912 5.7162271e-39
0.073027775 -0.10916151 0.047464848 6.0849985e-39
0.074742571 -0.10916151 0.047464848 6.3612196e-39
0.076822475 -0.1099584 0.044424832 5.4392661e-39
0.078542605 -0.1099584 0.044424832 3.6879149e-39
0.080262721 -0.1099584 0.044424832 2.490106e-39
0.081982851 -0.1099584 0.044424832 2.2156785e-39
0.083702967 -0.1099584 0.044424832 3.0479489e-39
0.085804939 -0.11073507 0.041461766 1.4482707e-38
0.087530255 -0.11073507 0.041461766 1.6790093e-38
-0.1063264 -0.14625455 -0.086606264 1.1522647e-38
-0.10437654 -0.14625455 -0.086606264 1.0693974e-38
-0.10242668 -0.14625455 -0.086606264 9.7741927e-39
-0.10085241 -0.14810793 -0.093629956 7.4707593e-39
-0.099096209 -0.14915876 -0.097612143 4.7052758e-39
-0.09692806 -0.14810793 -0.093629956 2.5910009e-42
-0.094769299 -0.1470321 -0.089552879 2.813429e-40
-0.092677355 -0.14625455 -0.086606264 1.3373471e-38
-0.090411961 -0.14439236 -0.079549193 1.3651115e-38
-0.0883037 -0.14334334 -0.075573802 1.6785385e-38
-0.086210564 -0.14230187 -0.071627021 1.7337824e-38
-0.084165066 -0.14148657 -0.068537235 1.5585026e-38
-0.082246892 -0.14148657 -0.068537235 1.4938589e-38
-0.080184415 -0.14042725 -0.064522862 9.2414793e-40
-0.078273274 -0.14042725 -0.064522862 1.6617326e-39
-0.076266997 -0.13965334 -0.061589956 4.9818627e-39
-0.074360996 -0.13965334 -0.061589956 7.2874793e-39
-0.072454989 -0.13965334 -0.061589956 9.5948952e-39
-0.070466548 -0.13885282 -0.058556318 7.0170217e-39
-0.06846565 -0.13781275 -0.054614782 4.9894437e-39
-0.066500992 -0.13702248 -0.051619887 3.2348499e-39
-0.064524688 -0.13596557 -0.047614574 4.7074702e-39
-0.062581301 -0.13515557 -0.044545054 5.3499796e-39
-0.060651068 -0.13437997 -0.041605711 8.2080441e-39
-0.058712754 -0.13331302 -0.03756237 7.2885849e-39
-0.056803986 -0.1325181 -0.034549952 6.460985e-39
-0.054906007 -0.13172771 -0.03155458 3.6051009e-39
-0.053018723 -0.13094176 -0.028576136 8.3951791e-42
-0.051131502 -0.12987186 -0.024521589 4.4196954e-42
-0.049267307 -0.12909628 -0.021582484 5.3596906e-39
-0.04743145 -0.12909628 -0.021582484 8.3989206e-39
-0.045582309 -0.1282966 -0.018551946 1.2637038e-38
-0.043743841 -0.1275015 -0.015538812 9.9601114e-39
-0.041915957 -0.126711 -0.012543082 1.8479862e-39
-0.04010208 -0.12486555 -0.0055494308 6.6253391e-42
-0.038302064 -0.12409012 -0.0026108027 7.385168e-39
-0.036512736 -0.12329166 0.00041508675 7.7532134e-39
-0.034715451 -0.12329166 0.00041508675 5.6312566e-39
-0.0329419 -0.12249784 0.0034233332 3.8780837e-39
-0.031178726 -0.12170871 0.0064139366 5.1677323e-39
-0.029425841 -0.12092416 0.0093870163 5.721262e-39
-0.027644284 -0.12092416 0.0093870163 2.4947807e-39
-0.025908295 -0.12011738 0.012444496 9.8065669e-41
-0.024132099 -0.12011738 0.012444496 5.1595809e-42
-0.022411855 -0.11931543 0.015483618 4.8106576e-42
-0.020699875 -0.11854477 0.018404126 3.0497916e-39
-0.018999957 -0.11775221 0.021407604 3.8791921e-39
-0.017239476 -0.11775221 0.021407604 1.8508869e-39
-0.015554903 -0.11696436 0.02439332 3.5096823e-39
-0.013799658 -0.11696436 0.02439332 9.0403187e-39
-0.012133129 -0.11615516 0.027459919 9.4983835e-39
-0.010473771 -0.11537679 0.030409694 1.4290393e-38
-0.0089250356 -0.1137826 0.036451101 1.6224723e-38
-0.0073622502 -0.11246039 0.041461766 5.5300492e-39
-0.0057434328 -0.1116785 0.044424832 3.7783519e-39
-0.0041379072 -0.11087631 0.047464848 3.7812343e-39
-0.0025385879 -0.11010392 0.050391912 9.2604248e-40
-0.00082892552 -0.11010392 0.050391912 1.0229479e-43
0.00079195574 -0.1095586 0.052458584 1.3923778e-39
0.0023642927 -0.10876949 0.055449009 1.568376e-38
0.0039269887 -0.10798518 0.058421195 1.9370114e-38
0.0054757036 -0.10718144 0.061467171 1.9092452e-38
0.0070695803 -0.10667257 0.063395619 1.7339294e-38
0.0087564401 -0.10667257 0.063395619 1.7522968e-38
0.010282081 -0.10587703 0.066410422 1.6508466e-38
0.011798188 -0.10508646 0.06940639 1.8169788e-38
0.013356153 -0.10453837 0.071483433 1.540895e-38
0.015028834 -0.10453837 0.071483433 1.4856859e-38
0.016522199 -0.10375614 0.074447811 1.7529458e-38
0.01800077 -0.10295527 0.077482879 1.2087781e-38
0.019537911 -0.10243976 0.079436421 8.7662387e-39
0.021196645 -0.10243976 0.079436421 4.4238993e-42
0.027831592 -0.10243976 0.079436421 1.6567117e-39
0.029490329 -0.10243976 0.079436421 9.7691845e-39
0.031298056 -0.10295527 0.077482879 2.3508092e-38
0.032960221 -0.10295527 0.077482879 2.3508809e-38
0.034622379 -0.10295527 0.077482879 1.9819525e-38
0.036531992 -0.10375614 0.074447811 1.8806081e-38
0.038199477 -0.10375614 0.074447811 2.3140002e-38
0.039866954 -0.10375614 0.074447811 2.2863077e-38
0.041534439 -0.10375614 0.074447811 2.3509168e-38
0.043464404 -0.10453837 0.071483433 2.3417333e-38
0.045137074 -0.10453837 0.071483433 2.3325492e-38
0.047000956 -0.10508646 0.06940639 2.350987e-38
0.048958298 -0.10587703 0.066410422 2.3050324e-38
0.050639879 -0.10587703 0.066410422 2.3418035e-38
0.052614819 -0.10667257 0.063395619 2.2589e-38
0.05430169 -0.10667257 0.063395619 2.341805e-38
0.056182962 -0.10718144 0.061467171 2.2957075e-38
0.057873216 -0.10718144 0.061467171 2.3509527e-38
0.059881222 -0.10798518 0.058421195 2.3417333e-38
0.061892074 -0.10876949 0.055449009 2.3508809e-38
0.063592881 -0.10876949 0.055449009 2.1203944e-38
0.065621376 -0.1095586 0.052458584 1.9544417e-38
0.06732741 -0.1095586 0.052458584 1.0418145e-38
0.069033444 -0.1095586 0.052458584 8.2980467e-39
0.070976824 -0.11010392 0.050391912 7.6534144e-39
0.072686493 -0.11010392 0.050391912 6.0849956e-39
0.074742571 -0.11087631 0.047464848 3.5038725e-39
0.076457366 -0.11087631 0.047464848 3.1350914e-39
0.078542605 -0.1116785 0.044424832 3.8730222e-39
0.080262721 -0.1116785 0.044424832 3.0439958e-39
0.081982851 -0.1116785 0.044424832 2.2156771e-39
0.083702967 -0.1116785 0.044424832 2.1259926e-39
0.085804939 -0.11246039 0.041461766 1.3468915e-38
0.087530255 -0.11246039 0.041461766 1.6145443e-38
-0.1063264 -0.14820443 -0.086606264 1.1430452e-38
-0.10437654 -0.14820443 -0.086606264 1.1247148e-38
-0.10242668 -0.14820443 -0.086606264 1.0972018e-38
-0.094769299 -0.14898713 -0.089552879 1.4795217e-39
-0.092677355 -0.14820443 -0.086606264 1.2174564e-38
-0.090547472 -0.14713491 -0.08257997 1.1714279e-38
-0.0883037 -0.14527388 -0.075573802 1.3281225e-38
-0.08637318 -0.14527388 -0.075573802 1.4018057e-38
-0.084286958 -0.14422549 -0.071627021 1.5308077e-38
-0.082246892 -0.14340474 -0.068537235 1.4384696e-38
-0.080184415 -0.14233841 -0.064522862 1.1182362e-42
-0.078273274 -0.14233841 -0.064522862 1.8553192e-40
-0.076266997 -0.14155935 -0.061589956 7.0064923e-44
-0.074267909 -0.14075352 -0.058556318 8.3308175e-40
-0.072367229 -0.14075352 -0.058556318 2.8243311e-40
-0.070359424 -0.13970654 -0.054614782 7.2895546e-42
-0.06846565 -0.13970654 -0.054614782 4.7714213e-42
-0.066500992 -0.13891099 -0.051619887 4.0553578e-42
-0.064524688 -0.13784705 -0.047614574 7.1967578e-39
-0.062581301 -0.13703169 -0.044545054 9.3140231e-39
-0.060651068 -0.13625093 -0.041605711 8.2076756e-39
-0.058712754 -0.13517688 -0.03756237 5.2588489e-39
-0.056803986 -0.13437669 -0.034549952 6.0911305e-39
-0.054906007 -0.13358103 -0.03155458 4.0660749e-39
-0.053018723 -0.13278987 -0.028576136 9.8273061e-42
-0.051131502 -0.13171287 -0.024521589 1.4141904e-41
-0.049267307 -0.13093217 -0.021582484 1.0431529e-38
-0.04743145 -0.13093217 -0.021582484 1.0704881e-38
-0.045582309 -0.13012715 -0.018551946 9.8722374e-39
-0.043743841 -0.12932678 -0.015538812 6.4573949e-39
-0.041915957 -0.12853102 -0.012543082 8.3383424e-40
-0.040099397 -0.12748651 -0.0086108446 2.4062313e-39
-0.038302064 -0.12589271 -0.0026108027 1.0337223e-38
-0.036512736 -0.12508895 0.00041508675 9.414527e-39
-0.03473391 -0.12428986 0.0034233332 1.0427222e-38
-0.032965496 -0.12349547 0.0064139366 1.1993089e-38
-0.031178726 -0.12349547 0.0064139366 1.558835e-38
-0.029425841 -0.12270571 0.0093870163 1.2914674e-38
-0.027644284 -0.12270571 0.0093870163 7.3833015e-39
-0.025908295 -0.12189357 0.012444496 2.5895029e-39
-0.024132099 -0.12189357 0.012444496 1.6679165e-39
-0.022411855 -0.12108628 0.015483618 1.2073097e-39
-0.020699875 -0.1203105 0.018404126 5.3561159e-39
-0.018999957 -0.11951269 0.021407604 7.0156344e-39
-0.017239476 -0.11951269 0.021407604 7.1993012e-39
-0.015554903 -0.11871959 0.02439332 7.1982124e-39
-0.013882998 -0.11790501 0.027459919 1.1438481e-38
-0.012133129 -0.11790501 0.027459919 9.7760691e-39
-0.010566738 -0.11631663 0.033439577 1.1158287e-38
-0.0089908727 -0.11497755 0.038480759 1.0603334e-38
-0.0074635558 -0.11339863 0.044424832 2.8592809e-39
-0.0057434328 -0.11339863 0.044424832 2.1206536e-39
-0.0041379072 -0.1125911 0.047464848 7.3988279e-40
-0.0025385879 -0.11181359 0.050391912 1.2033707e-39
-0.00082892552 -0.11181359 0.050391912 5.6049837e-40
0.00079195574 -0.11126463 0.052458584 1.0232478e-39
0.0023642927 -0.11047028 0.055449009 1.5500094e-38
0.0039269887 -0.10968079 0.058421195 1.8265218e-38
0.0054757036 -0.10887168 0.061467171 1.7065587e-38
0.0070695803 -0.10835941 0.063395619 1.7340015e-38
0.0087564401 -0.10835941 0.063395619 2.0841275e-38
0.010282081 -0.10755859 0.066410422 2.056254e-38
0.011798188 -0.10676278 0.06940639 2.0933828e-38
0.013356153 -0.10621105 0.071483433 1.9094964e-38
0.014854718 -0.10542361 0.074447811 1.7622715e-38
0.016338609 -0.10461743 0.077482879 1.6330554e-38
0.017879173 -0.10409851 0.079436421 1.3655459e-38
0.019537911 -0.10409851 0.079436421 8.6743934e-39
0.020999178 -0.10330074 0.082439721 1.0203709e-39
0.026172854 -0.10409851 0.079436421 2.8556375e-39
0.027831592 -0.10409851 0.079436421 2.7557095e-40
0.029490329 -0.10409851 0.079436421 7.7401646e-39
0.031298056 -0.10461743 0.077482879 2.3507733e-38
0.032960221 -0.10461743 0.077482879 2.3508451e-38
0.034622379 -0.10461743 0.077482879 2.1478328e-38
0.036531992 -0.10542361 0.074447811 2.1018776e-38
0.038199477 -0.10542361 0.074447811 2.3509863e-38
0.039866954 -0.10542361 0.074447811 2.3509879e-38
0.041534439 -0.10542361 0.074447811 2.3416974e-38
0.043464404 -0.10621105 0.071483433 2.3140033e-38
0.045137074 -0.10621105 0.071483433 2.3509527e-38
0.047000956 -0.10676278 0.06940639 2.350987e-38
0.048958298 -0.10755859 0.066410422 2.3325832e-38
0.050639879 -0.10755859 0.066410422 2.3509876e-38
0.05232146 -0.10755859 0.066410422 2.3417327e-38
0.05430169 -0.10835941 0.063395619 2.3324778e-38
0.055988546 -0.10835941 0.063395619 2.3509168e-38
0.057873216 -0.10887168 0.061467171 2.3509524e-38
0.059563454 -0.10887168 0.061467171 2.3415898e-38
0.061576795 -0.10968079 0.058421195 2.3138239e-38
0.063592881 -0.11047028 0.055449009 2.0556428e-38
0.06529367 -0.11047028 0.055449009 1.9266039e-38
0.06732741 -0.11126463 0.052458584 8.2040196e-39
0.069033444 -0.11126463 0.052458584 8.4828009e-39
0.070739478 -0.11126463 0.052458584 8.8526764e-39
0.072686493 -0.11181359 0.050391912 7.1005895e-39
0.074742571 -0.1125911 0.047464848 3.3202001e-39
0.076457366 -0.1125911 0.047464848 2.5822778e-39
0.078172147 -0.1125911 0.047464848 3.7815468e-39
0.080262721 -0.11339863 0.044424832 2.7684879e-39
0.081982851 -0.11339863 0.044424832 1.6632222e-39
0.083702967 -0.11339863 0.044424832 1.020724e-39
0.085423082 -0.11339863 0.044424832 1.0796324e-38
0.087530255 -0.11418571 0.041461766 1.2365422e-38
-0.090547472 -0.14907773 -0.08257997 1.3279807e-38
-0.088474482 -0.14826734 -0.079549193 1.2818811e-38
-0.08637318 -0.14720438 -0.075573802 1.254221e-38
-0.084286958 -0.14614908 -0.071627021 1.4660914e-38
-0.082246892 -0.14532293 -0.068537235 1.0418494e-38
-0.080184415 -0.14424954 -0.064522862 2.397134e-39
-0.078273274 -0.14424954 -0.064522862 2.3053181e-39
-0.076266997 -0.14346536 -0.061589956 1.3837346e-39
-0.074267909 -0.1426542 -0.058556318 9.4443313e-41
-0.072367229 -0.1426542 -0.058556318 1.8945555e-42
-0.070359424 -0.1416003 -0.054614782 6.2203639e-42
-0.06846565 -0.1416003 -0.054614782 5.5014978e-42
-0.066500992 -0.14079951 -0.051619887 5.1469693e-42
-0.064612478 -0.14079951 -0.051619887 1.0238856e-38
-0.062581301 -0.13890781 -0.044545054 1.0697309e-38
-0.060651068 -0.13812189 -0.041605711 5.1648512e-39
-0.058712754 -0.13704078 -0.03756237 1.846896e-39
-0.056803986 -0.13623528 -0.034549952 7.013091e-39
-0.054906007 -0.13543437 -0.03155458 4.8965432e-39
-0.053018723 -0.134638 -0.028576136 2.4094206e-39
-0.051131502 -0.13355388 -0.024521589 3.8292162e-40
-0.049290493 -0.13355388 -0.024521589 1.2183243e-38
-0.04743145 -0.13276802 -0.021582484 1.3932794e-38
-0.045582309 -0.13195769 -0.018551946 5.3560794e-39
-0.043743841 -0.13115202 -0.015538812 3.5082138e-39
-0.041915957 -0.13035102 -0.012543082 4.1546734e-39
-0.040099397 -0.1292996 -0.0086108446 6.0025615e-39
-0.038302064 -0.12769531 -0.0026108027 1.042975e-38
-0.036512736 -0.12688623 0.00041508675 7.3865567e-39
-0.03473391 -0.12608187 0.0034233332 9.8754604e-39
-0.032965496 -0.12528224 0.0064139366 1.2546959e-38
-0.031178726 -0.12528224 0.0064139366 1.5128425e-38
-0.029425841 -0.1244873 0.0093870163 1.3745491e-38
-0.027644284 -0.1244873 0.0093870163 1.2547313e-38
-0.025908295 -0.12366976 0.012444496 1.0242794e-38
-0.024132099 -0.12366976 0.012444496 4.2504479e-39
-0.022465622 -0.12207626 0.018404126 5.4486394e-39
-0.020699875 -0.12207626 0.018404126 9.6896384e-39
-0.018999957 -0.12127317 0.021407604 1.070307e-38
-0.017239476 -0.12127317 0.021407604 1.0426113e-38
-0.015554903 -0.12047486 0.02439332 1.1346983e-38
-0.013882998 -0.11965488 0.027459919 1.1807966e-38
-0.012133129 -0.11965488 0.027459919 8.7644549e-39
-0.010566738 -0.11805601 0.033439577 5.1677659e-39
-0.0089908727 -0.11670811 0.038480759 3.7841308e-39
-0.0074635558 -0.11511876 0.044424832 2.3082959e-39
-0.0057434328 -0.11511876 0.044424832 8.328197e-40
-0.0041379072 -0.1143059 0.047464848 1.1097667e-39
-0.0025385879 -0.11352326 0.050391912 7.4240653e-40
-0.00091408193 -0.11297067 0.052458584 7.3357975e-42
0.00079195574 -0.11297067 0.052458584 1.9459285e-39
0.0023642927 -0.11217107 0.055449009 1.5593009e-38
0.0039269887 -0.11137636 0.058421195 1.8175535e-38
0.0054757036 -0.11056192 0.061467171 1.734504e-38
0.0070695803 -0.11004628 0.063395619 1.7710218e-38
0.0087564401 -0.11004628 0.063395619 1.8813689e-38
0.010282081 -0.10924016 0.066410422 2.0469977e-38
0.011798188 -0.1084391 0.06940639 2.1300094e-38
0.013356153 -0.10788374 0.071483433 1.9647403e-38
0.014854718 -0.10709111 0.074447811 1.8820522e-38
0.016338609 -0.1062796 0.077482879 1.7252494e-38
0.017879173 -0.10575725 0.079436421 1.3379218e-38
0.019345708 -0.1049542 0.082439721 1.0888519e-38
0.020999178 -0.1049542 0.082439721 4.6826911e-40
0.027831592 -0.10575725 0.079436421 5.5108725e-40
0.029490329 -0.10575725 0.079436421 7.5546999e-39
0.031298056 -0.1062796 0.077482879 2.3507374e-38
0.032960221 -0.1062796 0.077482879 2.3508092e-38
0.034622379 -0.1062796 0.077482879 2.120211e-38
0.036531992 -0.10709111 0.074447811 2.2402081e-38
0.038199477 -0.10709111 0.074447811 2.2864854e-38
0.039866954 -0.10709111 0.074447811 2.2773386e-38
0.041534439 -0.10709111 0.074447811 2.3234379e-38
0.043464404 -0.10788374 0.071483433 2.323402e-38
0.045324635 -0.1084391 0.06940639 2.3233662e-38
0.047000956 -0.1084391 0.06940639 2.3049991e-38
0.048958298 -0.10924016 0.066410422 2.3142185e-38
0.050639879 -0.10924016 0.066410422 2.3325497e-38
0.05232146 -0.10924016 0.066410422 2.3417691e-38
0.05430169 -0.11004628 0.063395619 2.3509527e-38
0.055988546 -0.11004628 0.063395619 2.2403538e-38
0.057873216 -0.11056192 0.061467171 2.3509876e-38
0.059563454 -0.11056192 0.061467171 2.3509167e-38
0.061576795 -0.11137636 0.058421195 2.2309208e-38
0.063272387 -0.11137636 0.058421195 1.7329955e-38
0.06529367 -0.11217107 0.055449009 1.1613471e-38
0.066994458 -0.11217107 0.055449009 6.9133032e-39
0.068695262 -0.11217107 0.055449009 6.271196e-39
0.070739478 -0.11297067 0.052458584 7.2867898e-39
0.072445527 -0.11297067 0.052458584 6.2726267e-39
0.074396148 -0.11352326 0.050391912 2.3074888e-39
0.076457366 -0.1143059 0.047464848 2.9521421e-39
0.078172147 -0.1143059 0.047464848 2.3993341e-39
0.079886943 -0.1143059 0.047464848 2.5844596e-39
0.081982851 -0.11511876 0.044424832 2.0327264e-39
0.083702967 -0.11511876 0.044424832 1.2976738e-39
0.085423082 -0.11511876 0.044424832 5.6337313e-39
0.087530255 -0.11591102 0.041461766 9.4158849e-39
-0.08637318 -0.14913492 -0.075573802 1.2908492e-38
-0.084286958 -0.14807267 -0.071627021 1.5673645e-38
-0.082246892 -0.1472411 -0.068537235 1.5948807e-38
-0.080184415 -0.14616071 -0.064522862 1.3736485e-38
-0.078273274 -0.14616071 -0.064522862 1.3090773e-38
-0.076168597 -0.14455487 -0.058556318 9.3118427e-39
-0.074267909 -0.14455487 -0.058556318 6.178636e-39
-0.072253197 -0.14349405 -0.054614782 5.5365148e-39
-0.070359424 -0.14349405 -0.054614782 1.6697074e-39
-0.06838952 -0.14268802 -0.051619887 6.5592259e-40
-0.066500992 -0.14268802 -0.051619887 2.5891511e-39
-0.064524688 -0.14161004 -0.047614574 1.0607642e-38
-0.062581301 -0.14078392 -0.044545054 1.1158639e-38
-0.060651068 -0.13999285 -0.041605711 2.5844456e-39
-0.058712754 -0.13890465 -0.03756237 1.1089778e-39
-0.056803986 -0.13809387 -0.034549952 7.0120148e-39
-0.054906007 -0.13728772 -0.03155458 7.9382675e-39
-0.053018723 -0.13648613 -0.028576136 5.912479e-39
-0.051131502 -0.13539489 -0.024521589 5.913572e-39
-0.049290493 -0.13539489 -0.024521589 1.4303374e-38
-0.04743145 -0.13460387 -0.021582484 1.4117891e-38
-0.045582309 -0.13378824 -0.018551946 9.4433504e-42
-0.043743841 -0.13297729 -0.015538812 5.4986952e-42
-0.041915957 -0.13217102 -0.012543082 6.8290627e-39
-0.040099397 -0.13111271 -0.0086108446 1.0611966e-38
-0.038302064 -0.1294979 -0.0026108027 1.0244257e-38
-0.036512736 -0.12868352 0.00041508675 5.7255752e-39
-0.03473391 -0.12787388 0.0034233332 7.2918079e-39
-0.032965496 -0.12706901 0.0064139366 1.2362192e-38
-0.031178726 -0.12706901 0.0064139366 1.4389767e-38
-0.029425841 -0.12626885 0.0093870163 1.3836233e-38
-0.027644284 -0.12626885 0.0093870163 1.4574161e-38
-0.025908295 -0.12544595 0.012444496 1.5958186e-38
-0.024132099 -0.12544595 0.012444496 1.3468551e-38
-0.022465622 -0.12384202 0.018404126 1.7064182e-38
-0.020760436 -0.12303366 0.021407604 2.1396593e-38
-0.018999957 -0.12303366 0.021407604 2.0105156e-38
-0.017239476 -0.12303366 0.021407604 1.7522629e-38
-0.015632866 -0.12140475 0.027459919 1.7798487e-38
-0.013882998 -0.12140475 0.027459919 1.8720808e-38
-0.012133129 -0.12140475 0.027459919 1.2360798e-38
-0.010566738 -0.1197954 0.033439577 5.7231005e-39
-0.0089908727 -0.11843865 0.038480759 2.219682e-39
-0.0074635558 -0.11683889 0.044424832 4.665413e-40
-0.0057434328 -0.11683889 0.044424832 3.4135631e-42
-0.0041379072 -0.11602069 0.047464848 1.0186445e-39
-0.0025385879 -0.11523293 0.050391912 7.4275965e-40
-0.00091408193 -0.1146767 0.052458584 2.6498554e-42
0.00079195574 -0.1146767 0.052458584 1.0243268e-39
0.0023642927 -0.11387186 0.055449009 1.60547e-38
0.0039269887 -0.11307193 0.058421195 1.8822688e-38
0.0056225695 -0.11307193 0.058421195 1.7807809e-38
0.0071659461 -0.11225216 0.061467171 1.9648476e-38
0.0087564401 -0.11173315 0.063395619 2.2040518e-38
0.010282081 -0.11092176 0.066410422 2.2220601e-38
0.011798188 -0.11011542 0.06940639 2.0838744e-38
0.013356153 -0.10955642 0.071483433 2.0936328e-38
0.014854718 -0.10875858 0.074447811 2.0201647e-38
0.016220439 -0.10741599 0.079436421 1.8910924e-38
0.017879173 -0.10741599 0.079436421 1.4762144e-38
0.019345708 -0.10660769 0.082439721 1.1626436e-38
0.029490329 -0.10741599 0.079436421 7.9231307e-39
0.031298056 -0.10794173 0.077482879 2.2029397e-38
0.032960221 -0.10794173 0.077482879 2.3507733e-38
0.034622379 -0.10794173 0.077482879 2.2401027e-38
0.036531992 -0.10875858 0.074447811 2.1573412e-38
0.038199477 -0.10875858 0.074447811 2.1483373e-38
0.039866954 -0.10875858 0.074447811 2.0287708e-38
0.041534439 -0.10875858 0.074447811 1.8813669e-38
0.043464404 -0.10955642 0.071483433 1.8167599e-38
0.045324635 -0.11011542 0.06940639 1.7060184e-38
0.047000956 -0.11011542 0.06940639 2.0010444e-38
0.048958298 -0.11092176 0.066410422 2.0746929e-38
0.050639879 -0.11092176 0.066410422 2.2682649e-38
0.052614819 -0.11173315 0.063395619 2.1668153e-38
0.05430169 -0.11173315 0.063395619 2.2129125e-38
0.055988546 -0.11173315 0.063395619 2.2958873e-38
0.057873216 -0.11225216 0.061467171 2.3050708e-38
0.059563454 -0.11225216 0.061467171 1.6873256e-38
0.061576795 -0.11307193 0.058421195 1.5581464e-38
0.063272387 -0.11307193 0.058421195 1.2630503e-38
0.06529367 -0.11387186 0.055449009 1.0785885e-38
0.066994458 -0.11387186 0.055449009 2.8588703e-39
0.068695262 -0.11387186 0.055449009 2.8614024e-39
0.070739478 -0.1146767 0.052458584 6.2740799e-39
0.072445527 -0.1146767 0.052458584 6.2729896e-39
0.074396148 -0.11523293 0.050391912 1.1096658e-39
0.076457366 -0.11602069 0.047464848 8.3200275e-40
0.078172147 -0.11602069 0.047464848 7.4053439e-40
0.079886943 -0.11602069 0.047464848 9.2493826e-40
0.081601739 -0.11602069 0.047464848 2.9847657e-42
0.083702967 -0.11683889 0.044424832 6.2175613e-42
0.085423082 -0.11683889 0.044424832 1.3005395e-39
-0.084286958 -0.1499963 -0.071627021 1.2722333e-38
-0.082246892 -0.1491593 -0.068537235 1.3919447e-38
-0.080184415 -0.14807184 -0.064522862 1.4841771e-38
-0.078273274 -0.14807184 -0.064522862 1.3828344e-38
-0.076168597 -0.14645557 -0.058556318 1.1156111e-38
-0.074146971 -0.14538784 -0.054614782 8.4827981e-39
-0.072253197 -0.14538784 -0.054614782 8.0254255e-39
-0.070359424 -0.14538784 -0.054614782 7.3836784e-39
-0.06838952 -0.14457656 -0.051619887 5.0798751e-39
-0.066500992 -0.14457656 -0.051619887 7.3826036e-39
-0.064524688 -0.14349155 -0.047614574 1.0792033e-38
-0.062581301 -0.14266007 -0.044545054 1.106716e-38
-0.060651068 -0.14186381 -0.041605711 9.5879644e-41
-0.058712754 -0.14076851 -0.03756237 1.9113711e-42
-0.056803986 -0.13995247 -0.034549952 5.0759066e-39
-0.054906007 -0.13914107 -0.03155458 8.8591364e-39
-0.053018723 -0.13833423 -0.028576136 9.5066554e-39
-0.051131502 -0.13723589 -0.024521589 1.1074715e-38
-0.049290493 -0.13723589 -0.024521589 1.4671064e-38
-0.04743145 -0.13643973 -0.021582484 1.4394466e-38
-0.045582309 -0.13561879 -0.018551946 4.7518031e-42
-0.043743841 -0.13480256 -0.015538812 6.9378287e-42
-0.041918583 -0.13480256 -0.015538812 1.1623954e-38
-0.040095951 -0.13399105 -0.012543082 1.3928475e-38
-0.038302064 -0.13130049 -0.0026108027 8.3956471e-39
-0.036512736 -0.13048081 0.00041508675 3.7858544e-39
-0.03473391 -0.1296659 0.0034233332 6.4584389e-39
-0.0329419 -0.1296659 0.0034233332 1.3924836e-38
-0.031178726 -0.12885578 0.0064139366 1.3279821e-38
-0.029425841 -0.1280504 0.0093870163 1.0144807e-38
-0.027644284 -0.1280504 0.0093870163 1.2266025e-38
-0.025908295 -0.12722217 0.012444496 1.8720444e-38
-0.024132099 -0.12722217 0.012444496 1.6600304e-38
-0.022465622 -0.12560774 0.018404126 1.8812639e-38
-0.020760436 -0.12479414 0.021407604 2.2499695e-38
-0.018999957 -0.12479414 0.021407604 2.2129483e-38
-0.017310148 -0.12398534 0.02439332 1.9546949e-38
-0.015632866 -0.12315463 0.027459919 1.9084884e-38
-0.013882998 -0.12315463 0.027459919 1.9270729e-38
-0.012218466 -0.12235557 0.030409694 1.67858e-38
-0.010566738 -0.12153481 0.033439577 1.0611595e-38
-0.0089908727 -0.12016918 0.038480759 7.5691571e-39
-0.0074635558 -0.11855899 0.044424832 3.5122005e-39
-0.0057434328 -0.11855899 0.044424832 3.7344604e-42
-0.0041379072 -0.11773549 0.047464848 5.5351289e-42
-0.0025385879 -0.11694257 0.050391912 5.5905923e-40
-0.00091408193 -0.11638273 0.052458584 2.2673009e-42
0.00079195574 -0.11638273 0.052458584 1.0159414e-41
0.0023642927 -0.11557265 0.055449009 1.5870661e-38
0.0039269887 -0.11476754 0.058421195 1.9469124e-38
0.0056225695 -0.11476754 0.058421195 1.8454973e-38
0.0070695803 -0.11341999 0.063395619 1.9926855e-38
0.0086005069 -0.11260332 0.066410422 2.2132353e-38
0.010282081 -0.11260332 0.066410422 2.2496821e-38
0.011798188 -0.11179174 0.06940639 2.3233662e-38
0.013356153 -0.11122911 0.071483433 2.1948671e-38
0.014854718 -0.11042608 0.074447811 2.1397664e-38
0.016220439 -0.1090747 0.079436421 2.0016185e-38
0.017879173 -0.1090747 0.079436421 1.5867763e-38
0.019345708 -0.10826115 0.082439721 1.2087767e-38
0.029490329 -0.1090747 0.079436421 8.2915615e-39
0.031298056 -0.1096039 0.077482879 1.9908195e-38
0.032960221 -0.1096039 0.077482879 2.0556062e-38
0.034622379 -0.1096039 0.077482879 2.0097231e-38
0.036531992 -0.11042608 0.074447811 2.0375245e-38
0.038199477 -0.11042608 0.074447811 1.8996267e-38
0.039866954 -0.11042608 0.074447811 1.4391529e-38
0.041534439 -0.11042608 0.074447811 1.4301138e-38
0.043464404 -0.11122911 0.071483433 1.5222378e-38
0.045324635 -0.11179174 0.06940639 1.6236181e-38
0.047000956 -0.11179174 0.06940639 1.8816231e-38
0.048958298 -0.11260332 0.066410422 2.0198068e-38
0.050639879 -0.11260332 0.066410422 2.1948682e-38
0.052614819 -0.11341999 0.063395619 2.1304399e-38
0.05430169 -0.11341999 0.063395619 2.0289545e-38
0.055988546 -0.11341999 0.063395619 2.2132353e-38
0.058185633 -0.11476754 0.058421195 2.121077e-38
0.059881222 -0.11476754 0.058421195 1.5402116e-38
0.061576795 -0.11476754 0.058421195 1.3926988e-38
0.063272387 -0.11476754 0.058421195 8.3023473e-39
0.06529367 -0.11557265 0.055449009 8.4860379e-39
0.066994458 -0.11557265 0.055449009 1.9401622e-39
0.068695262 -0.11557265 0.055449009 4.7812304e-42
0.070739478 -0.11638273 0.052458584 5.2606468e-39
0.072445527 -0.11638273 0.052458584 6.2737085e-39
0.074151561 -0.11638273 0.052458584 9.2599624e-40
0.076105803 -0.11694257 0.050391912 2.6036125e-42
0.077815473 -0.11694257 0.050391912 5.5614313e-40
0.081601739 -0.11773549 0.047464848 4.0679694e-42
0.083702967 -0.11855899 0.044424832 2.6218294e-42
0.085423082 -0.11855899 0.044424832 3.685415e-42
-0.080184415 -0.14998297 -0.064522862 4.6080705e-39
-0.078172997 -0.14918335 -0.061589956 6.176478e-39
-0.076168597 -0.14835624 -0.058556318 1.0418912e-38
-0.074146971 -0.1472816 -0.054614782 1.1895115e-38
-0.072253197 -0.1472816 -0.054614782 1.1989119e-38
-0.070359424 -0.1472816 -0.054614782 1.1162257e-38
-0.06838952 -0.14646508 -0.051619887 9.2261603e-39
-0.066500992 -0.14646508 -0.051619887 1.0332142e-38
-0.064524688 -0.14537306 -0.047614574 9.8700738e-39
-0.062581301 -0.14453618 -0.044545054 9.3172433e-39
-0.060651068 -0.14373477 -0.041605711 2.9651476e-42
-0.058712754 -0.14263238 -0.03756237 1.0789998e-43
-0.056803986 -0.14181106 -0.034549952 3.1390767e-39
-0.054906007 -0.14099441 -0.03155458 9.0428004e-39
-0.053018723 -0.14018236 -0.028576136 1.6050736e-38
-0.051170602 -0.14018236 -0.028576136 1.7435111e-38
-0.049290493 -0.1390769 -0.024521589 1.4301902e-38
-0.04743145 -0.13827558 -0.021582484 1.1813334e-38
-0.045582309 -0.13744931 -0.018551946 5.465064e-42
-0.043743841 -0.13662781 -0.015538812 8.7384972e-42
-0.041915957 -0.13581105 -0.012543082 1.3192722e-38
-0.040095951 -0.13581105 -0.012543082 1.3558604e-38
-0.038302064 -0.13310309 -0.0026108027 6.5499269e-39
-0.036512736 -0.1322781 0.00041508675 3.3216365e-39
-0.03473391 -0.13145791 0.0034233332 5.0729905e-39
-0.0329419 -0.13145791 0.0034233332 7.4686335e-39
-0.031178726 -0.13064255 0.0064139366 4.0577512e-39
-0.029425841 -0.12983195 0.0093870163 2.9514008e-39
-0.027644284 -0.12983195 0.0093870163 1.2447904e-38
-0.025908295 -0.12899835 0.012444496 1.733499e-38
-0.024132099 -0.12899835 0.012444496 1.6136441e-38
-0.022465622 -0.1273735 0.018404126 1.6782165e-38
-0.020760436 -0.12655462 0.021407604 2.1851824e-38
-0.018999957 -0.12655462 0.021407604 2.3233662e-38
-0.017310148 -0.12574057 0.02439332 2.3508809e-38
-0.015632866 -0.1249045 0.027459919 2.3508451e-38
-0.013963163 -0.12410025 0.030409694 2.3417333e-38
-0.012218466 -0.12410025 0.030409694 2.1302605e-38
-0.010566738 -0.12327419 0.033439577 1.669647e-38
-0.0089908727 -0.12189974 0.038480759 1.5498298e-38
-0.0073622502 -0.12108697 0.041461766 1.1533536e-38
-0.0057434328 -0.12027912 0.044424832 6.8301305e-39
-0.0040233098 -0.12027912 0.044424832 7.3825882e-39
-0.0024231151 -0.11945029 0.047464848 5.9982118e-39
-0.00082892552 -0.11865224 0.050391912 3.7570774e-40
0.00079195574 -0.11808877 0.052458584 2.8637356e-40
0.0023642927 -0.11727346 0.055449009 1.384271e-38
0.0039269887 -0.11646311 0.058421195 1.8272034e-38
0.0056225695 -0.11646311 0.058421195 1.8825558e-38
0.0070695803 -0.11510687 0.063395619 1.9927943e-38
0.0086005069 -0.11428489 0.066410422 2.0291685e-38
0.010282081 -0.11428489 0.066410422 2.1206085e-38
0.011798188 -0.11346807 0.06940639 2.3509527e-38
0.013356153 -0.11290176 0.071483433 2.2038706e-38
0.014854718 -0.11209355 0.074447811 2.1119633e-38
0.016220439 -0.11073343 0.079436421 1.9554484e-38
0.017879173 -0.11073343 0.079436421 1.568301e-38
0.019345708 -0.10991462 0.082439721 1.2087766e-38
0.029490329 -0.11073343 0.079436421 4.3275193e-39
0.031298056 -0.11126606 0.077482879 4.4196968e-39
0.032960221 -0.11126606 0.077482879 9.7691873e-39
0.034622379 -0.11126606 0.077482879 1.8161497e-38
0.036531992 -0.11209355 0.074447811 2.0100475e-38
0.038199477 -0.11209355 0.074447811 1.9735648e-38
0.039866954 -0.11209355 0.074447811 1.9003489e-38
0.041534439 -0.11209355 0.074447811 2.0203808e-38
0.045324635 -0.11346807 0.06940639 2.0754821e-38
0.047000956 -0.11346807 0.06940639 1.7435829e-38
0.048958298 -0.11428489 0.066410422 1.6051823e-38
0.050639879 -0.11428489 0.066410422 1.4391934e-38
0.05232146 -0.11428489 0.066410422 1.2086318e-38
0.05430169 -0.11510687 0.063395619 1.0703024e-38
0.055988546 -0.11510687 0.063395619 1.0426084e-38
0.058185633 -0.11646311 0.058421195 9.3179538e-39
0.059881222 -0.11646311 0.058421195 7.1974543e-39
0.061576795 -0.11646311 0.058421195 5.7230304e-39
0.063272387 -0.11646311 0.058421195 4.0217266e-42
0.06529367 -0.11727346 0.055449009 9.8396376e-41
0.066994458 -0.11727346 0.055449009 2.6120203e-42
0.068695262 -0.11727346 0.055449009 2.7720893e-39
0.070396051 -0.11727346 0.055449009 6.1833262e-39
0.07209684 -0.11727346 0.055449009 6.9187206e-39
0.074151561 -0.11808877 0.052458584 2.9539442e-39
0.076105803 -0.11865224 0.050391912 5.5541866e-40
0.077815473 -0.11865224 0.050391912 1.5330205e-42
0.081601739 -0.11945029 0.047464848 8.3237129e-43
0.085423082 -0.12027912 0.044424832 4.7742239e-42
-0.076040745 -0.14917539 -0.054614782 6.8236537e-39
-0.074146971 -0.14917539 -0.054614782 9.1303353e-39
-0.072253197 -0.14917539 -0.054614782 9.4080054e-39
-0.070359424 -0.14917539 -0.054614782 1.0606926e-38
-0.06838952 -0.14835359 -0.051619887 1.0976072e-38
-0.066500992 -0.14835359 -0.051619887 1.1160818e-38
-0.064524688 -0.14725454 -0.047614574 7.8421272e-39
-0.062581301 -0.1464123 -0.044545054 5.7226983e-39
-0.060651068 -0.14560573 -0.041605711 5.1329563e-42
-0.058712754 -0.14449625 -0.03756237 2.6232307e-42
-0.056803986 -0.14366965 -0.034549952 2.5862547e-39
-0.054906007 -0.14284773 -0.03155458 7.4740328e-39
-0.053018723 -0.14203046 -0.028576136 2.1119652e-38
-0.051170602 -0.14203046 -0.028576136 2.1673176e-38
-0.049290493 -0.14091791 -0.024521589 1.5314592e-38
-0.04743145 -0.14011143 -0.021582484 8.4942803e-39
-0.045582309 -0.13927986 -0.018551946 5.8209938e-42
-0.043743841 -0.13845308 -0.015538812 1.2339834e-41
-0.041915957 -0.13763104 -0.012543082 1.4301225e-38
-0.040095951 -0.13763104 -0.012543082 1.6693252e-38
-0.038302064 -0.13490568 -0.0026108027 5.6272545e-39
-0.036512736 -0.13407536 0.00041508675 9.2348231e-40
-0.03473391 -0.13324992 0.0034233332 6.177557e-39
-0.032965496 -0.13242932 0.0064139366 7.5594125e-39
-0.031178726 -0.13242932 0.0064139366 3.687196e-39
-0.029425841 -0.13161351 0.0093870163 7.7071416e-44
-0.027644284 -0.13161351 0.0093870163 9.2199988e-39
-0.025908295 -0.13077454 0.012444496 1.4107435e-38
-0.024182722 -0.12994061 0.015483618 1.6874012e-38
-0.022465622 -0.12913923 0.018404126 1.8256576e-38
-0.020760436 -0.12831511 0.021407604 2.2773049e-38
-0.019065393 -0.12749584 0.02439332 2.3508809e-38
-0.017382734 -0.12665437 0.027459919 2.3322627e-38
-0.01570786 -0.12584494 0.030409694 2.3136801e-38
-0.013963163 -0.12584494 0.030409694 2.3414822e-38
-0.012306122 -0.12501357 0.033439577 2.2406066e-38
-0.010659141 -0.12418722 0.036451101 2.0658318e-38
-0.0089908727 -0.12363027 0.038480759 1.9830003e-38
-0.0073622502 -0.12281232 0.041461766 1.3099732e-38
-0.0057434328 -0.12199925 0.044424832 7.382535e-39
-0.0040233098 -0.12199925 0.044424832 1.1345156e-38
-0.0024231151 -0.12116508 0.047464848 1.4110312e-38
-0.00082892552 -0.12036191 0.050391912 1.0791632e-38
0.00079195574 -0.1197948 0.052458584 3.3277391e-39
0.0023642927 -0.11897425 0.055449009 1.1445624e-38
0.0039269887 -0.11815868 0.058421195 1.5230675e-38
0.0056225695 -0.11815868 0.058421195 1.8273469e-38
0.0070695803 -0.11679374 0.063395619 1.9836466e-38
0.0086005069 -0.11596648 0.066410422 2.0569715e-38
0.010282081 -0.11596648 0.066410422 2.0930591e-38
0.011798188 -0.11514439 0.06940639 2.3232585e-38
0.013356153 -0.11457445 0.071483433 2.2497892e-38
0.014854718 -0.11376105 0.074447811 2.084161e-38
0.016220439 -0.11239217 0.079436421 1.8907317e-38
0.017879173 -0.11239217 0.079436421 1.5313509e-38
0.019345708 -0.11156808 0.082439721 1.2179962e-38
0.029490329 -0.11239217 0.079436421 1.4701751e-39
0.031298056 -0.11292823 0.077482879 2.7556815e-40
0.032960221 -0.11292823 0.077482879 1.7492549e-39
0.034622379 -0.11292823 0.077482879 1.2078754e-38
0.036531992 -0.11376105 0.074447811 1.7520809e-38
0.038199477 -0.11376105 0.074447811 1.7063429e-38
0.039866954 -0.11376105 0.074447811 1.9741043e-38
0.041534439 -0.11376105 0.074447811 2.0479314e-38
0.045137074 -0.11457445 0.071483433 1.9834672e-38
0.046809759 -0.11457445 0.071483433 1.6329484e-38
0.048677277 -0.11514439 0.06940639 1.254839e-38
0.050353598 -0.11514439 0.06940639 9.9661888e-39
0.05232146 -0.11596648 0.066410422 7.1074054e-39
0.054003026 -0.11596648 0.066410422 3.0497299e-39
0.055988546 -0.11679374 0.063395619 3.2326933e-39
0.057873216 -0.11732288 0.061467171 3.1397956e-39
0.059563454 -0.11732288 0.061467171 2.9554015e-39
0.061576795 -0.11815868 0.058421195 1.6657165e-39
0.063272387 -0.11815868 0.058421195 4.0259305e-42
0.06529367 -0.11897425 0.055449009 2.9539372e-42
0.066994458 -0.11897425 0.055449009 1.941953e-39
0.068695262 -0.11897425 0.055449009 5.2606496e-39
0.070396051 -0.11897425 0.055449009 4.5230846e-39
0.07209684 -0.11897425 0.055449009 5.1666435e-39
0.074151561 -0.1197948 0.052458584 5.2584748e-39
0.076105803 -0.12036191 0.050391912 2.7673977e-39
0.077815473 -0.12036191 0.050391912 6.454675e-40
0.081601739 -0.12116508 0.047464848 1.2051167e-43
0.085423082 -0.12199925 0.044424832 2.2658996e-42
-0.064524688 -0.14913605 -0.047614574 4.8007476e-39
-0.062581301 -0.14828841 -0.044545054 1.9430461e-39
-0.060651068 -0.14747669 -0.041605711 5.1371602e-42
-0.058712754 -0.14636014 -0.03756237 3.3378929e-42
-0.05684888 -0.14636014 -0.03756237 1.8490399e-39
-0.054945394 -0.14552824 -0.034549952 6.458083e-39
-0.053018723 -0.14387859 -0.028576136 2.185577e-38
-0.051170602 -0.14387859 -0.028576136 2.1765011e-38
-0.049290493 -0.14275892 -0.024521589 1.6143971e-38
-0.04743145 -0.14194728 -0.021582484 8.2169676e-39
-0.045582309 -0.14111041 -0.018551946 1.9777506e-40
-0.043743841 -0.14027832 -0.015538812 1.858416e-39
-0.041915957 -0.13945107 -0.012543082 1.5225319e-38
-0.040095951 -0.13945107 -0.012543082 1.531176e-38
-0.038286284 -0.13836516 -0.0086108446 4.6138186e-39
-0.036499474 -0.13670824 -0.0026108027 2.6766426e-39
-0.03473391 -0.13504194 0.0034233332 1.2171719e-38
-0.032965496 -0.13421609 0.0064139366 1.2261765e-38
-0.031207398 -0.13339506 0.0093870163 5.9924623e-39
-0.029425841 -0.13339506 0.0093870163 9.3886997e-44
-0.027644284 -0.13339506 0.0093870163 6.6396142e-39
-0.025908295 -0.13255073 0.012444496 8.9459258e-39
-0.024182722 -0.1317115 0.015483618 1.58613e-38
-0.022465622 -0.13090499 0.018404126 1.8350923e-38
-0.020760436 -0.13007559 0.021407604 2.2958873e-38
-0.019065393 -0.12925108 0.02439332 2.3417691e-38
-0.017382734 -0.12840421 0.027459919 2.3508809e-38
-0.01570786 -0.12758966 0.030409694 2.3508092e-38
-0.013963163 -0.12758966 0.030409694 2.3508451e-38
-0.012306122 -0.12675296 0.033439577 2.3509886e-38
-0.010659141 -0.12592132 0.036451101 2.2866674e-38
-0.0089908727 -0.12536083 0.038480759 2.2131993e-38
-0.0073622502 -0.12453763 0.041461766 1.7891358e-38
-0.0057434328 -0.12371938 0.044424832 1.6415161e-38
-0.0040233098 -0.12371938 0.044424832 2.12079e-38
-0.0024231151 -0.12287988 0.047464848 1.9916099e-38
-0.00082892552 -0.12207155 0.050391912 1.1988363e-38
0.00079195574 -0.12150083 0.052458584 7.1063152e-39
0.0023642927 -0.12067504 0.055449009 9.5087994e-39
0.0039269887 -0.11985429 0.058421195 1.2465171e-38
0.0054757036 -0.11901312 0.061467171 1.6154789e-38
0.0070695803 -0.11848058 0.063395619 1.7349727e-38
0.0086005069 -0.11764805 0.066410422 2.0386761e-38
0.010121867 -0.11682071 0.06940639 2.2498978e-38
0.011798188 -0.11682071 0.06940639 2.3509168e-38
0.013356153 -0.11624713 0.071483433 2.3234379e-38
0.014854718 -0.11542852 0.074447811 2.157738e-38
0.016220439 -0.11405091 0.079436421 1.899808e-38
0.017879173 -0.11405091 0.079436421 1.5496822e-38
0.019345708 -0.11322157 0.082439721 1.2271078e-38
0.029490329 -0.11405091 0.079436421 7.3476805e-40
0.031298056 -0.11459039 0.077482879 1.2868586e-39
0.032960221 -0.11459039 0.077482879 8.2874613e-40
0.034864508 -0.11542852 0.074447811 1.4937842e-42
0.036531992 -0.11542852 0.074447811 3.7422797e-40
0.038199477 -0.11542852 0.074447811 8.2140935e-39
0.039866954 -0.11542852 0.074447811 7.4790536e-39
0.041534439 -0.11542852 0.074447811 9.0470996e-39
0.045137074 -0.11624713 0.071483433 8.7690736e-39
0.046809759 -0.11624713 0.071483433 7.937529e-39
0.048677277 -0.11682071 0.06940639 6.1937392e-42
0.050353598 -0.11682071 0.06940639 5.1147394e-42
0.05232146 -0.11764805 0.066410422 7.7071416e-44
0.054003026 -0.11764805 0.066410422 1.5316192e-42
0.055988546 -0.11848058 0.063395619 1.901562e-42
0.057873216 -0.11901312 0.061467171 1.5456322e-42
0.059563454 -0.11901312 0.061467171 2.7957025e-40
0.061576795 -0.11985429 0.058421195 1.526014e-42
0.063272387 -0.11985429 0.058421195 3.6770072e-42
0.06529367 -0.12067504 0.055449009 4.6501809e-40
0.066994458 -0.12067504 0.055449009 5.8127304e-39
0.068695262 -0.12067504 0.055449009 5.1673778e-39
0.070396051 -0.12067504 0.055449009 7.4126727e-40
0.07209684 -0.12067504 0.055449009 2.1234716e-39
0.074151561 -0.12150083 0.052458584 7.1927879e-39
0.075857595 -0.12150083 0.052458584 5.6236658e-39
0.077815473 -0.12207155 0.050391912 3.4099015e-39
0.085423082 -0.12371938 0.044424832 2.7885699e-40
-0.060651068 -0.14934768 -0.041605711 6.9448352e-42
-0.058712754 -0.14822401 -0.03756237 5.4874848e-42
-0.056803986 -0.14738683 -0.034549952 5.5865286e-40
-0.054945394 -0.14738683 -0.034549952 7.5637116e-39
-0.053018723 -0.1457267 -0.028576136 2.2591172e-38
-0.051170602 -0.1457267 -0.028576136 2.157954e-38
-0.049290493 -0.14459993 -0.024521589 1.7617285e-38
-0.04743145 -0.14378314 -0.021582484 9.507342e-39
-0.045582309 -0.14294095 -0.018551946 1.7658224e-39
-0.043743841 -0.1421036 -0.015538812 3.7048496e-39
-0.041915957 -0.14127107 -0.012543082 1.4397724e-38
-0.040095951 -0.14127107 -0.012543082 1.5591938e-38
-0.038286284 -0.14017828 -0.0086108446 1.5749544e-39
-0.036499474 -0.13851084 -0.0026108027 2.2434788e-42
-0.03473391 -0.13683395 0.0034233332 1.033069e-38
-0.032965496 -0.13600285 0.0064139366 1.3002936e-38
-0.031207398 -0.13517661 0.0093870163 6.9176668e-39
-0.029425841 -0.13517661 0.0093870163 8.3310697e-40
-0.027644284 -0.13517661 0.0093870163 4.1528545e-39
-0.025908295 -0.13432692 0.012444496 8.9491628e-39
-0.024182722 -0.13348235 0.015483618 1.7708446e-38
-0.022465622 -0.13267075 0.018404126 1.9183555e-38
-0.020760436 -0.13183604 0.021407604 2.240786e-38
-0.019065393 -0.13100632 0.02439332 2.2314945e-38
-0.017382734 -0.13015409 0.027459919 2.3234379e-38
-0.01570786 -0.12933435 0.030409694 2.3048191e-38
-0.013963163 -0.12933435 0.030409694 2.3231144e-38
-0.012306122 -0.12849234 0.033439577 2.3507373e-38
-0.010659141 -0.12765543 0.036451101 2.3509168e-38
-0.0089908727 -0.12709136 0.038480759 2.3325856e-38
-0.0073622502 -0.12626295 0.041461766 1.890191e-38
-0.0056369305 -0.12626295 0.041461766 1.7610458e-38
-0.0040233098 -0.12543948 0.044424832 2.1481967e-38
-0.0024231151 -0.12459467 0.047464848 2.0005409e-38
-0.00082892552 -0.12378122 0.050391912 1.3185102e-38
0.00079195574 -0.1232069 0.052458584 9.5019625e-39
0.0023642927 -0.12237583 0.055449009 5.35928e-39
0.0039269887 -0.12154986 0.058421195 8.0405035e-39
0.0054757036 -0.12070335 0.061467171 1.4772217e-38
0.0070695803 -0.12016745 0.063395619 1.5507612e-38
0.0086005069 -0.11932962 0.066410422 1.9374418e-38
0.010121867 -0.11849703 0.06940639 2.2591531e-38
0.011798188 -0.11849703 0.06940639 2.3233303e-38
0.013356153 -0.11791982 0.071483433 2.2680492e-38
0.014854718 -0.11709599 0.074447811 2.0653274e-38
0.016338609 -0.11625256 0.077482879 1.8351636e-38
0.017879173 -0.11570965 0.079436421 1.4942577e-38
0.019345708 -0.11487503 0.082439721 1.171755e-38
0.029490329 -0.11570965 0.079436421 7.3477225e-40
0.031298056 -0.11625256 0.077482879 2.3013735e-39
0.032960221 -0.11625256 0.077482879 6.1657132e-44
0.034864508 -0.11709599 0.074447811 3.7207837e-40
0.036531992 -0.11709599 0.074447811 9.2884508e-40
0.038199477 -0.11709599 0.074447811 4.8957669e-39
0.039866954 -0.11709599 0.074447811 7.293205e-39
0.041534439 -0.11709599 0.074447811 1.0150196e-38
0.045137074 -0.11791982 0.071483433 9.7785704e-39
0.046809759 -0.11791982 0.071483433 9.6842251e-39
0.048677277 -0.11849703 0.06940639 8.1275311e-44
0.050353598 -0.11849703 0.06940639 8.239635e-43
0.05232146 -0.11932962 0.066410422 6.4511858e-40
0.054003026 -0.11932962 0.066410422 9.6689594e-44
0.055988546 -0.12016745 0.063395619 8.2877696e-40
0.057873216 -0.12070335 0.061467171 1.841152e-40
0.059563454 -0.12070335 0.061467171 9.2167744e-40
0.061576795 -0.12154986 0.058421195 6.4438289e-40
0.063272387 -0.12154986 0.058421195 8.8281803e-44
0.06529367 -0.12237583 0.055449009 2.2124275e-39
0.066994458 -0.12237583 0.055449009 7.6523354e-39
0.068695262 -0.12237583 0.055449009 6.8247439e-39
0.070396051 -0.12237583 0.055449009 1.1826959e-42
0.07209684 -0.12237583 0.055449009 1.1997175e-39
0.074151561 -0.1232069 0.052458584 8.2976964e-39
0.075857595 -0.1232069 0.052458584 6.6363786e-39
0.085423082 -0.12543948 0.044424832 2.7598433e-40
-0.056803986 -0.14924543 -0.034549952 5.4818796e-42
-0.054906007 -0.14840777 -0.03155458 6.1811317e-39
-0.053018723 -0.14757483 -0.028576136 2.2315665e-38
-0.051131502 -0.14644094 -0.024521589 2.2499695e-38
-0.049267307 -0.14561899 -0.021582484 1.8631081e-38
-0.04741285 -0.1447715 -0.018551946 1.0335676e-38
-0.045582309 -0.1447715 -0.018551946 2.6856319e-39
-0.043743841 -0.14392884 -0.015538812 6.9295274e-39
-0.041915957 -0.14309107 -0.012543082 1.6333085e-38
-0.040095951 -0.14309107 -0.012543082 1.4669611e-38
-0.038286284 -0.14199139 -0.0086108446 6.5299247e-40
-0.036499474 -0.14031343 -0.0026108027 5.1203446e-42
-0.03473391 -0.13862596 0.0034233332 9.6871132e-39
-0.032965496 -0.13778962 0.0064139366 1.1623221e-38
-0.031207398 -0.13695817 0.0093870163 4.7996714e-39
-0.029425841 -0.13695817 0.0093870163 2.033448e-39
-0.027644284 -0.13695817 0.0093870163 5.4450381e-39
-0.025908295 -0.13610314 0.012444496 8.3963548e-39
-0.024182722 -0.13525321 0.015483618 1.9460155e-38
-0.022465622 -0.13443647 0.018404126 2.1396234e-38
-0.020760436 -0.13359652 0.021407604 2.2499695e-38
-0.019065393 -0.13276155 0.02439332 2.2498973e-38
-0.017382734 -0.13190396 0.027459919 2.3234379e-38
-0.01570786 -0.13107903 0.030409694 2.3325492e-38
-0.013963163 -0.13107903 0.030409694 2.3509524e-38
-0.012306122 -0.13023172 0.033439577 2.3508807e-38
-0.010659141 -0.12938951 0.036451101 2.3230062e-38
-0.0089250356 -0.12938951 0.036451101 2.1203924e-38
-0.0073622502 -0.12798826 0.041461766 1.72406e-38
-0.0057434328 -0.12715961 0.044424832 1.705658e-38
-0.0041379072 -0.12630944 0.047464848 2.1112836e-38
-0.0024231151 -0.12630944 0.047464848 1.9637001e-38
-0.00082892552 -0.12549089 0.050391912 1.3922678e-38
0.00079195574 -0.12491293 0.052458584 9.962233e-39
0.0023642927 -0.12407662 0.055449009 1.0377736e-40
0.0039269887 -0.12324543 0.058421195 3.4285752e-39
0.0056225695 -0.12324543 0.058421195 1.4862983e-38
0.0070695803 -0.12185432 0.063395619 1.7074585e-38
0.0086005069 -0.12101121 0.066410422 1.9744272e-38
0.010121867 -0.12017335 0.06940639 2.1028892e-38
0.011798188 -0.12017335 0.06940639 1.9181737e-38
0.013356153 -0.1195925 0.071483433 1.8811878e-38
0.014854718 -0.11876349 0.074447811 1.7337839e-38
0.016220439 -0.11736839 0.079436421 1.6048198e-38
0.017879173 -0.11736839 0.079436421 1.3560732e-38
0.019345708 -0.1165285 0.082439721 1.0888874e-38
0.029490329 -0.11736839 0.079436421 4.5926576e-40
0.031298056 -0.11791472 0.077482879 7.8338301e-39
0.032960221 -0.11791472 0.077482879 1.3737573e-38
0.034864508 -0.11876349 0.074447811 1.8718644e-38
0.036531992 -0.11876349 0.074447811 1.706199e-38
0.038199477 -0.11876349 0.074447811 1.9091006e-38
0.039866954 -0.11876349 0.074447811 1.6602076e-38
0.041534439 -0.11876349 0.074447811 1.8168333e-38
0.045137074 -0.1195925 0.071483433 1.3555354e-38
0.046809759 -0.1195925 0.071483433 1.180292e-38
0.048482444 -0.1195925 0.071483433 6.4581923e-40
0.050353598 -0.12017335 0.06940639 9.3886997e-44
0.05232146 -0.12101121 0.066410422 9.1954466e-40
0.05430169 -0.12185432 0.063395619 8.269847e-40
0.055988546 -0.12185432 0.063395619 7.465419e-39
0.057873216 -0.12239362 0.061467171 1.0139794e-38
0.059563454 -0.12239362 0.061467171 1.1338337e-38
0.061576795 -0.12324543 0.058421195 1.1522027e-38
0.063272387 -0.12324543 0.058421195 7.0040891e-39
0.06529367 -0.12407662 0.055449009 7.6501746e-39
0.066994458 -0.12407662 0.055449009 7.3746695e-39
0.068695262 -0.12407662 0.055449009 6.6396296e-39
0.070396051 -0.12407662 0.055449009 9.3886997e-44
0.07209684 -0.12407662 0.055449009 2.7668498e-40
0.074151561 -0.12491293 0.052458584 7.6519724e-39
0.075857595 -0.12491293 0.052458584 6.3594357e-39
0.085423082 -0.12715961 0.044424832 8.2879377e-40
-0.054866839 -0.14942293 -0.028576136 7.3807441e-39
-0.053018723 -0.14942293 -0.028576136 2.1303323e-38
-0.051131502 -0.14828195 -0.024521589 2.2132353e-38
-0.049267307 -0.14745484 -0.021582484 1.678791e-38
-0.04741285 -0.14660202 -0.018551946 1.1071115e-38
-0.045582309 -0.14660202 -0.018551946 7.5684186e-39
-0.043743841 -0.14575411 -0.015538812 9.2304371e-39
-0.041915957 -0.14491107 -0.012543082 1.6974496e-38
-0.040095951 -0.14491107 -0.012543082 1.4112464e-38
-0.038275942 -0.14491107 -0.012543082 4.6571874e-40
-0.036473174 -0.14380451 -0.0086108446 3.6784085e-42
-0.03473391 -0.14041798 0.0034233332 9.6867363e-39
-0.032965496 -0.13957639 0.0064139366 1.1532784e-38
-0.031207398 -0.13873972 0.0093870163 5.3553213e-39
-0.029425841 -0.13873972 0.0093870163 2.7717179e-39
-0.027644284 -0.13873972 0.0093870163 5.5365176e-39
-0.025908295 -0.13787933 0.012444496 9.5920323e-39
-0.024182722 -0.13702409 0.015483618 2.0378869e-38
-0.022465622 -0.13620223 0.018404126 2.2222381e-38
-0.020760436 -0.13535701 0.021407604 2.3234362e-38
-0.019065393 -0.13451682 0.02439332 2.3509886e-38
-0.017382734 -0.13365383 0.027459919 2.3140033e-38
-0.01570786 -0.13282375 0.030409694 2.3509521e-38
-0.013963163 -0.13282375 0.030409694 2.3233285e-38
-0.012306122 -0.13197111 0.033439577 2.3049608e-38
-0.010659141 -0.13112362 0.036451101 2.0192634e-38
