# .PCD v0.7 - Point Cloud Data file format
VERSION 0.7
FIELDS x y z rgb
SIZE 4 4 4 4
TYPE F F F F
COUNT 1 1 1 1
WIDTH 920
HEIGHT 1
VIEWPOINT 0 0 0 1 0 0 0
POINTS 920
DATA ascii
0.020628724 -0.082624316 -0.01667795 2.3509883e-38
0.02250484 -0.082624316 -0.01667795 2.3509883e-38
0.024539724 -0.083283588 -0.01974747 2.3509883e-38
0.026635412 -0.084143862 -0.023752782 2.3509883e-38
0.028523933 -0.084143862 -0.023752782 2.3509883e-38
0.030412454 -0.084143862 -0.023752782 2.3509886e-38
0.032300975 -0.084143862 -0.023752782 2.3509886e-38
0.034189496 -0.084143862 -0.023752782 2.3509886e-38
0.036078017 -0.084143862 -0.023752782 2.3509886e-38
0.037966538 -0.084143862 -0.023752782 2.3509883e-38
0.040051978 -0.084787115 -0.026747677 2.350988e-38
0.041945752 -0.084787115 -0.026747677 2.3509879e-38
0.0441125 -0.085633695 -0.030689213 2.3509879e-38
0.04601318 -0.085633695 -0.030689213 2.3509879e-38
0.048134606 -0.086285278 -0.033722851 2.3509879e-38
0.050040606 -0.086285278 -0.033722851 2.3509879e-38
0.052170306 -0.08691521 -0.036655758 2.350988e-38
0.05408144 -0.08691521 -0.036655758 2.350988e-38
0.055992588 -0.08691521 -0.036655758 2.3509523e-38
0.058231026 -0.087777436 -0.04067013 2.3232936e-38
0.060149208 -0.087777436 -0.04067013 2.3048545e-38
0.062067389 -0.087777436 -0.04067013 2.3509879e-38
0.063382626 -0.086285278 -0.033722851 2.3418045e-38
0.065288618 -0.086285278 -0.033722851 2.3509883e-38
0.066920698 -0.085633695 -0.030689213 2.304927e-38
0.068458557 -0.084787115 -0.026747677 2.295672e-38
0.070071399 -0.084143862 -0.023752782 2.3417691e-38
0.071959928 -0.084143862 -0.023752782 2.3233662e-38
0.073848441 -0.084143862 -0.023752782 2.3233303e-38
0.07573697 -0.084143862 -0.023752782 1.8439525e-38
-0.093817785 -0.099224806 -0.084677428 5.5325407e-39
-0.091822438 -0.099224806 -0.084677428 6.8221964e-39
-0.089827098 -0.099224806 -0.084677428 8.1129352e-39
-0.087985955 -0.099893004 -0.08776328 4.8860881e-39
-0.085836411 -0.099224806 -0.084677428 5.3477865e-39
-0.083841071 -0.099224806 -0.084677428 8.3902423e-39
-0.081668623 -0.098367065 -0.080716223 8.5742777e-39
-0.079680219 -0.098367065 -0.080716223 9.0352558e-39
-0.077855043 -0.099224806 -0.084677428 1.2077712e-38
-0.043386929 -0.088826358 -0.036655758 1.1062436e-38
-0.04162069 -0.092080101 -0.051682089 2.1297579e-38
-0.03577349 -0.090364665 -0.043759916 2.2867032e-38
-0.033841763 -0.089695618 -0.04067013 2.2867025e-38
-0.031923581 -0.089695618 -0.04067013 2.1854306e-38
-0.030017603 -0.086680889 -0.026747677 2.3417687e-38
-0.02812383 -0.086680889 -0.026747677 2.3140384e-38
-0.02623006 -0.086680889 -0.026747677 2.3416251e-38
-0.024354663 -0.086032391 -0.023752782 2.3509527e-38
-0.022497743 -0.085165098 -0.01974747 2.3509527e-38
-0.020645846 -0.084500432 -0.01667795 2.323258e-38
-0.018803228 -0.083863959 -0.013738606 2.3140384e-38
-0.016932264 -0.083863959 -0.013738606 2.3509527e-38
-0.015121561 -0.082988426 -0.0096952654 2.3509886e-38
-0.013307865 -0.082336128 -0.0066828467 2.3509886e-38
-0.011449273 -0.082336128 -0.0066828467 2.341805e-38
-0.0095906807 -0.082336128 -0.0066828467 2.341805e-38
-0.0077320868 -0.082336128 -0.0066828467 2.341805e-38
-0.0058021909 -0.082988426 -0.0096952654 2.3234379e-38
-0.0039383182 -0.082988426 -0.0096952654 2.341805e-38
-0.0020744437 -0.082988426 -0.0096952654 2.341805e-38
-9.3596987e-05 -0.083863959 -0.013738606 2.3509883e-38
0.0017773667 -0.083863959 -0.013738606 2.3509883e-38
0.0036483305 -0.083863959 -0.013738606 2.3509883e-38
0.0056197913 -0.084500432 -0.01667795 2.3509883e-38
0.0074959071 -0.084500432 -0.01667795 2.3509883e-38
0.0093720229 -0.084500432 -0.01667795 2.3509883e-38
0.011248139 -0.084500432 -0.01667795 2.3509883e-38
0.013124258 -0.084500432 -0.01667795 2.3509883e-38
0.015132231 -0.085165098 -0.01974747 2.3509883e-38
0.016876489 -0.084500432 -0.01667795 2.3509883e-38
0.018752608 -0.084500432 -0.01667795 2.3509883e-38
0.020628724 -0.084500432 -0.01667795 2.3509883e-38
0.02250484 -0.084500432 -0.01667795 2.3509883e-38
0.024746891 -0.086032391 -0.023752782 2.3509883e-38
0.026635412 -0.086032391 -0.023752782 2.3509883e-38
0.028523933 -0.086032391 -0.023752782 2.3509883e-38
0.030412454 -0.086032391 -0.023752782 2.3509886e-38
0.032300975 -0.086032391 -0.023752782 2.3509886e-38
0.034370657 -0.086680889 -0.026747677 2.3509886e-38
0.036264431 -0.086680889 -0.026747677 2.3509886e-38
0.038158204 -0.086680889 -0.026747677 2.3509883e-38
0.040051978 -0.086680889 -0.026747677 2.3509883e-38
0.042211819 -0.087534383 -0.030689213 2.350988e-38
0.044322599 -0.088191271 -0.033722851 2.350988e-38
0.046228599 -0.088191271 -0.033722851 2.2864869e-38
0.048134606 -0.088191271 -0.033722851 2.3141456e-38
0.050040606 -0.088191271 -0.033722851 2.3417327e-38
0.052170306 -0.088826358 -0.036655758 2.31411e-38
0.05408144 -0.088826358 -0.036655758 2.3048189e-38
0.055992588 -0.088826358 -0.036655758 2.3141103e-38
0.058231026 -0.089695618 -0.04067013 2.3509527e-38
0.060149208 -0.089695618 -0.04067013 2.3509886e-38
0.062067389 -0.089695618 -0.04067013 2.2771967e-38
0.063637167 -0.088826358 -0.036655758 2.3417333e-38
0.065288618 -0.088191271 -0.033722851 2.3417691e-38
0.066920698 -0.087534383 -0.030689213 2.3048914e-38
0.068458557 -0.086680889 -0.026747677 2.3417333e-38
0.070071399 -0.086032391 -0.023752782 2.3233662e-38
0.071959928 -0.086032391 -0.023752782 2.3141826e-38
0.074139878 -0.086680889 -0.026747677 2.2865961e-38
0.076033652 -0.086680889 -0.026747677 2.1391212e-38
0.080225483 -0.087534383 -0.030689213 2.3074705e-39
-0.093817785 -0.10122015 -0.084677428 4.3340186e-39
-0.091822438 -0.10122015 -0.084677428 7.2831927e-39
-0.089827098 -0.10122015 -0.084677428 9.1274654e-39
-0.087633818 -0.10035546 -0.080716223 3.2269451e-39
-0.085645415 -0.10035546 -0.080716223 3.7801217e-39
-0.083468363 -0.09946914 -0.076655954 5.2552518e-39
-0.081312463 -0.098616585 -0.0727503 7.2835585e-39
-0.07920894 -0.097960562 -0.069745034 7.6530612e-39
-0.077075697 -0.097091287 -0.065762848 1.189406e-38
-0.07511352 -0.097091287 -0.065762848 1.0603323e-38
-0.073151335 -0.097091287 -0.065762848 9.7735649e-39
-0.071042612 -0.096201301 -0.061685774 6.9158605e-39
-0.052883513 -0.090097278 -0.033722851 2.3060482e-39
-0.050977513 -0.090097278 -0.033722851 7.3760778e-39
-0.045298073 -0.090737507 -0.036655758 1.46577e-38
-0.043386929 -0.090737507 -0.036655758 1.7885614e-38
-0.04162069 -0.094017595 -0.051682089 2.3141109e-38
-0.039683197 -0.094017595 -0.051682089 2.3234379e-38
-0.03772131 -0.093149811 -0.047706697 2.3234379e-38
-0.03577349 -0.092288271 -0.043759916 2.3142538e-38
-0.033841763 -0.091613799 -0.04067013 2.2038344e-38
-0.03191749 -0.090097278 -0.033722851 2.3142538e-38
-0.030017603 -0.088574663 -0.026747677 2.341805e-38
-0.02812383 -0.088574663 -0.026747677 2.3509886e-38
-0.026243187 -0.087920904 -0.023752782 2.3509527e-38
-0.024354663 -0.087920904 -0.023752782 2.3417691e-38
-0.022521963 -0.086376548 -0.01667795 2.2956712e-38
-0.020674191 -0.085734919 -0.013738606 2.2864516e-38
-0.018803228 -0.085734919 -0.013738606 2.341769e-38
-0.016932264 -0.085734919 -0.013738606 2.3509886e-38
-0.015121561 -0.084852293 -0.0096952654 2.3509886e-38
-0.013307865 -0.08419472 -0.0066828467 2.3509886e-38
-0.011449273 -0.08419472 -0.0066828467 2.3509886e-38
-0.0095906807 -0.08419472 -0.0066828467 2.3509886e-38
-0.0077320868 -0.08419472 -0.0066828467 2.3509886e-38
-0.0058021909 -0.084852293 -0.0096952654 2.341805e-38
-0.0039383182 -0.084852293 -0.0096952654 2.3509886e-38
-0.0020744437 -0.084852293 -0.0096952654 2.3509886e-38
-9.3596987e-05 -0.085734919 -0.013738606 2.3509883e-38
0.0017773667 -0.085734919 -0.013738606 2.3509883e-38
0.0036483305 -0.085734919 -0.013738606 2.3509883e-38
0.0056197913 -0.086376548 -0.01667795 2.3509883e-38
0.0074959071 -0.086376548 -0.01667795 2.3509883e-38
0.0093720229 -0.086376548 -0.01667795 2.3509883e-38
0.011248139 -0.086376548 -0.01667795 2.3509883e-38
0.013250732 -0.087046593 -0.01974747 2.3509883e-38
0.015132231 -0.087046593 -0.01974747 2.3509883e-38
0.017013729 -0.087046593 -0.01974747 2.3509883e-38
0.018895227 -0.087046593 -0.01974747 2.3509883e-38
0.020776726 -0.087046593 -0.01974747 2.3509883e-38
0.02285837 -0.087920904 -0.023752782 2.3509883e-38
0.024901796 -0.088574663 -0.026747677 2.3509883e-38
0.02679557 -0.088574663 -0.026747677 2.3509883e-38
0.028523933 -0.087920904 -0.023752782 2.3509883e-38
0.030412454 -0.087920904 -0.023752782 2.3509886e-38
0.032476883 -0.088574663 -0.026747677 2.3509886e-38
0.034370657 -0.088574663 -0.026747677 2.3509886e-38
0.036264431 -0.088574663 -0.026747677 2.3509886e-38
0.038158204 -0.088574663 -0.026747677 2.3509883e-38
0.040311132 -0.089435071 -0.030689213 2.3509883e-38
0.042416599 -0.090097278 -0.033722851 2.3509883e-38
0.044322599 -0.090097278 -0.033722851 2.3509883e-38
0.046228599 -0.090097278 -0.033722851 2.3509883e-38
0.048134606 -0.090097278 -0.033722851 2.341805e-38
0.050259154 -0.090737507 -0.036655758 2.3509886e-38
0.052170306 -0.090737507 -0.036655758 2.341805e-38
0.05408144 -0.090737507 -0.036655758 2.3509527e-38
0.055992588 -0.090737507 -0.036655758 2.341805e-38
0.058231026 -0.091613799 -0.04067013 2.3417333e-38
0.060149208 -0.091613799 -0.04067013 2.3325497e-38
0.062067389 -0.091613799 -0.04067013 2.3417333e-38
0.063985571 -0.091613799 -0.04067013 2.3417333e-38
0.065548316 -0.090737507 -0.036655758 2.2772691e-38
0.067194626 -0.090097278 -0.033722851 2.0191595e-38
0.068458557 -0.088574663 -0.026747677 2.1297583e-38
0.070352331 -0.088574663 -0.026747677 2.2957796e-38
0.072622746 -0.089435071 -0.030689213 2.2128407e-38
0.074523434 -0.089435071 -0.030689213 2.1667795e-38
0.076424122 -0.089435071 -0.030689213 1.7796703e-38
-0.10142849 -0.095080331 -0.047706697 2.1216738e-39
-0.10018466 -0.097507954 -0.058739159 5.5580682e-40
-0.098234802 -0.097507954 -0.058739159 2.8067728e-40
-0.096931383 -0.09992972 -0.069745034 4.6580282e-40
-0.094962224 -0.09992972 -0.069745034 1.8885019e-40
-0.092993066 -0.09992972 -0.069745034 2.9518226e-39
-0.091393478 -0.10145043 -0.076655954 6.2697751e-39
-0.089412197 -0.10145043 -0.076655954 8.021492e-39
-0.087235756 -0.100591 -0.0727503 4.794645e-39
-0.08526133 -0.100591 -0.0727503 4.9790391e-39
-0.083147258 -0.09992972 -0.069745034 2.9514541e-39
-0.081178099 -0.09992972 -0.069745034 4.9790405e-39
-0.079037875 -0.099053472 -0.065762848 6.362335e-39
-0.076907709 -0.098156333 -0.061685774 9.7735761e-39
-0.074952677 -0.098156333 -0.061685774 1.0143082e-38
-0.072997645 -0.098156333 -0.061685774 9.3122449e-39
-0.071042612 -0.098156333 -0.061685774 2.6752413e-39
-0.069087587 -0.098156333 -0.061685774 4.625462e-40
-0.067132555 -0.098156333 -0.061685774 1.1075583e-39
-0.052883513 -0.092003286 -0.033722851 5.4406996e-39
-0.050977513 -0.092003286 -0.033722851 2.2865243e-38
-0.049120367 -0.09264864 -0.036655758 2.3232944e-38
-0.047209218 -0.09264864 -0.036655758 2.3416974e-38
-0.045298073 -0.09264864 -0.036655758 2.3509168e-38
-0.043386929 -0.09264864 -0.036655758 2.3509527e-38
-0.041514497 -0.093531981 -0.04067013 2.2126951e-38
-0.039596315 -0.093531981 -0.04067013 2.3234015e-38
-0.03767813 -0.093531981 -0.04067013 2.332621e-38
-0.035759948 -0.093531981 -0.04067013 2.2958507e-38
-0.033841763 -0.093531981 -0.04067013 2.3142541e-38
-0.03191749 -0.092003286 -0.033722851 2.2221305e-38
-0.030014146 -0.091335744 -0.030689213 2.3141466e-38
-0.02812383 -0.090468436 -0.026747677 2.3509886e-38
-0.026243187 -0.089809433 -0.023752782 2.3509886e-38
-0.024354663 -0.089809433 -0.023752782 2.3325497e-38
-0.022521963 -0.088252664 -0.01667795 2.3509886e-38
-0.020674191 -0.087605879 -0.013738606 2.3509886e-38
-0.018803228 -0.087605879 -0.013738606 2.3509886e-38
-0.016985435 -0.086716175 -0.0096952654 2.3509886e-38
-0.015121561 -0.086716175 -0.0096952654 2.3509886e-38
-0.013307865 -0.086053312 -0.0066828467 2.3509886e-38
-0.011449273 -0.086053312 -0.0066828467 2.3509886e-38
-0.0095299399 -0.086716175 -0.0096952654 2.3509886e-38
-0.0076660654 -0.086716175 -0.0096952654 2.3509886e-38
-0.0058021909 -0.086716175 -0.0096952654 2.3509886e-38
-0.0039383182 -0.086716175 -0.0096952654 2.3509886e-38
-0.0019645588 -0.087605879 -0.013738606 2.3509886e-38
-9.3596987e-05 -0.087605879 -0.013738606 2.3509883e-38
0.0017773667 -0.087605879 -0.013738606 2.3509883e-38
0.0036483305 -0.087605879 -0.013738606 2.3509883e-38
0.0055192942 -0.087605879 -0.013738606 2.3509883e-38
0.0074959071 -0.088252664 -0.01667795 2.3509883e-38
0.0093720229 -0.088252664 -0.01667795 2.3509883e-38
0.011248139 -0.088252664 -0.01667795 2.3509883e-38
0.013250732 -0.088928089 -0.01974747 2.3509883e-38
0.015304287 -0.089809433 -0.023752782 2.3509883e-38
0.017192807 -0.089809433 -0.023752782 2.3509883e-38
0.019081328 -0.089809433 -0.023752782 2.3509883e-38
0.020969849 -0.089809433 -0.023752782 2.3509883e-38
0.023356576 -0.092003286 -0.033722851 2.3509883e-38
0.025105666 -0.091335744 -0.030689213 2.3509883e-38
0.02700635 -0.091335744 -0.030689213 2.3509883e-38
0.028689343 -0.090468436 -0.026747677 2.3509883e-38
0.030583113 -0.090468436 -0.026747677 2.3509886e-38
0.032476883 -0.090468436 -0.026747677 2.3509886e-38
0.034370657 -0.090468436 -0.026747677 2.3509886e-38
0.036264431 -0.090468436 -0.026747677 2.3509886e-38
0.038158204 -0.090468436 -0.026747677 2.3509883e-38
0.040311132 -0.091335744 -0.030689213 2.3509883e-38
0.042416599 -0.092003286 -0.033722851 2.3509883e-38
0.044322599 -0.092003286 -0.033722851 2.341805e-38
0.046228599 -0.092003286 -0.033722851 2.2773039e-38
0.048348013 -0.09264864 -0.036655758 2.2680488e-38
0.050259154 -0.09264864 -0.036655758 2.2772686e-38
0.052170306 -0.09264864 -0.036655758 2.3141467e-38
0.05408144 -0.09264864 -0.036655758 2.3325497e-38
0.055992588 -0.09264864 -0.036655758 2.2404631e-38
0.05848293 -0.094211861 -0.043759916 2.1112816e-38
0.060406536 -0.094211861 -0.043759916 1.9730606e-38
0.062330142 -0.094211861 -0.043759916 1.7886342e-38
0.063985571 -0.093531981 -0.04067013 1.4290359e-38
0.065903753 -0.093531981 -0.04067013 8.2058132e-39
0.067194626 -0.092003286 -0.033722851 1.7528464e-39
0.068821386 -0.091335744 -0.030689213 2.4904227e-39
0.070722058 -0.091335744 -0.030689213 5.3484984e-39
0.072622746 -0.091335744 -0.030689213 3.3209246e-39
0.074523434 -0.091335744 -0.030689213 2.4000557e-39
0.076424122 -0.091335744 -0.030689213 3.8755543e-39
0.078324795 -0.091335744 -0.030689213 3.6000521e-39
-0.10335901 -0.097010851 -0.047706697 2.4893689e-39
-0.10142849 -0.097010851 -0.047706697 8.3094897e-40
-0.10018466 -0.099457815 -0.058739159 1.5708556e-42
-0.098234802 -0.099457815 -0.058739159 2.6694736e-42
-0.096284941 -0.099457815 -0.058739159 3.4023527e-42
-0.094502985 -0.10011137 -0.061685774 5.1707913e-43
-0.092773125 -0.10101564 -0.065762848 2.2146275e-39
-0.091023907 -0.10189888 -0.069745034 7.3764898e-39
-0.089210182 -0.10256544 -0.0727503 8.2984489e-39
-0.087235756 -0.10256544 -0.0727503 9.4047964e-39
-0.08526133 -0.10256544 -0.0727503 7.5605279e-39
-0.08296223 -0.10101564 -0.065762848 3.6893904e-39
-0.08100006 -0.10101564 -0.065762848 5.25564e-39
-0.078862742 -0.10011137 -0.061685774 8.0225879e-39
-0.076907709 -0.10011137 -0.061685774 1.0327121e-38
-0.074836433 -0.099457815 -0.058739159 1.1157604e-38
-0.072886571 -0.099457815 -0.058739159 1.0419323e-38
-0.070936702 -0.099457815 -0.058739159 2.7674482e-39
-0.068986841 -0.099457815 -0.058739159 9.3776295e-41
-0.066906378 -0.098564804 -0.054712866 1.2919636e-39
-0.064963572 -0.098564804 -0.054712866 2.1217242e-39
-0.062933087 -0.097892582 -0.051682089 1.384878e-39
-0.060995597 -0.097892582 -0.051682089 9.249789e-40
-0.054853797 -0.094559789 -0.036655758 3.5982486e-39
-0.052883513 -0.093909279 -0.033722851 8.8519351e-39
-0.050977513 -0.093909279 -0.033722851 2.2865602e-38
-0.049071513 -0.093909279 -0.033722851 2.3233662e-38
-0.047165509 -0.093909279 -0.033722851 2.2957079e-38
-0.045298073 -0.094559789 -0.036655758 2.2864869e-38
-0.043386929 -0.094559789 -0.036655758 2.3509873e-38
-0.041514497 -0.095450163 -0.04067013 2.350987e-38
-0.039596315 -0.095450163 -0.04067013 2.3509873e-38
-0.03767813 -0.095450163 -0.04067013 2.3326208e-38
-0.035759948 -0.095450163 -0.04067013 2.2312782e-38
-0.033831205 -0.094559789 -0.036655758 2.3234379e-38
-0.03191749 -0.093909279 -0.033722851 2.2773765e-38
-0.030017603 -0.09236221 -0.026747677 2.341805e-38
-0.028131709 -0.091697961 -0.023752782 2.341805e-38
-0.026260741 -0.090809584 -0.01974747 2.341805e-38
-0.024379242 -0.090809584 -0.01974747 2.341805e-38
-0.022521963 -0.090128779 -0.01667795 2.341805e-38
-0.020674191 -0.089476839 -0.013738606 2.341805e-38
-0.018803228 -0.089476839 -0.013738606 2.2865235e-38
-0.016985435 -0.088580042 -0.0096952654 2.2312061e-38
-0.015121561 -0.088580042 -0.0096952654 2.3509886e-38
-0.013307865 -0.087911904 -0.0066828467 2.3509886e-38
-0.011449273 -0.087911904 -0.0066828467 2.3509886e-38
-0.0095299399 -0.088580042 -0.0096952654 2.3509886e-38
-0.0075774482 -0.089476839 -0.013738606 2.3509527e-38
-0.0057064863 -0.089476839 -0.013738606 2.3509527e-38
-0.0038355226 -0.089476839 -0.013738606 2.3509527e-38
-0.0019645588 -0.089476839 -0.013738606 2.3509527e-38
-9.3596987e-05 -0.089476839 -0.013738606 2.3509883e-38
0.0017773667 -0.089476839 -0.013738606 2.350988e-38
0.0036483305 -0.089476839 -0.013738606 2.350988e-38
0.0055192942 -0.089476839 -0.013738606 2.350988e-38
0.0074959071 -0.090128779 -0.01667795 2.350988e-38
0.0094877342 -0.090809584 -0.01974747 2.350988e-38
0.011369233 -0.090809584 -0.01974747 2.3509883e-38
0.013415762 -0.091697961 -0.023752782 2.3509883e-38
0.015432936 -0.09236221 -0.026747677 2.3509883e-38
0.017326709 -0.09236221 -0.026747677 2.3509883e-38
0.019220479 -0.09236221 -0.026747677 2.3509883e-38
0.021114253 -0.09236221 -0.026747677 2.3509883e-38
0.023356576 -0.093909279 -0.033722851 2.3509883e-38
0.025262576 -0.093909279 -0.033722851 2.3509883e-38
0.027168579 -0.093909279 -0.033722851 2.3509883e-38
0.028907035 -0.093236431 -0.030689213 2.3509883e-38
0.030807715 -0.093236431 -0.030689213 2.3509886e-38
0.032708403 -0.093236431 -0.030689213 2.3509886e-38
0.034609083 -0.093236431 -0.030689213 2.3509886e-38
0.036509763 -0.093236431 -0.030689213 2.3509886e-38
0.038410451 -0.093236431 -0.030689213 2.3509883e-38
0.040311132 -0.093236431 -0.030689213 2.3509883e-38
0.042416599 -0.093909279 -0.033722851 2.341805e-38
0.044322599 -0.093909279 -0.033722851 2.341805e-38
0.046436865 -0.094559789 -0.036655758 2.341805e-38
0.048348013 -0.094559789 -0.036655758 2.3234379e-38
0.050259154 -0.094559789 -0.036655758 2.3234379e-38
0.052170306 -0.094559789 -0.036655758 2.3234379e-38
0.05408144 -0.094559789 -0.036655758 2.3049632e-38
0.056312844 -0.095450163 -0.04067013 2.166743e-38
0.05848293 -0.096135467 -0.043759916 2.028378e-38
0.060406536 -0.096135467 -0.043759916 1.9177795e-38
0.062330142 -0.096135467 -0.043759916 1.7333531e-38
0.063985571 -0.095450163 -0.04067013 1.3185456e-38
0.065548316 -0.094559789 -0.036655758 6.9161646e-39
0.067194626 -0.093909279 -0.033722851 6.4459729e-44
0.068821386 -0.093236431 -0.030689213 7.7071416e-44
0.070722058 -0.093236431 -0.030689213 8.313035e-40
0.072622746 -0.093236431 -0.030689213 1.0930128e-43
0.074523434 -0.093236431 -0.030689213 1.8775998e-40
0.076424122 -0.093236431 -0.030689213 1.2022776e-39
0.078324795 -0.093236431 -0.030689213 4.7075123e-39
-0.10335901 -0.098941371 -0.047706697 1.6625075e-39
-0.10142849 -0.098941371 -0.047706697 1.018594e-39
-0.099497974 -0.098941371 -0.047706697 8.3493847e-40
-0.097807929 -0.099830076 -0.051682089 1.1126184e-39
-0.096284941 -0.10140768 -0.058739159 6.5273043e-40
-0.094502985 -0.1020664 -0.061685774 5.197416e-42
-0.092773125 -0.10297783 -0.065762848 9.2569356e-40
-0.090810955 -0.10297783 -0.065762848 8.2080595e-39
-0.089054748 -0.10386805 -0.069745034 7.9307538e-39
-0.087085582 -0.10386805 -0.069745034 1.060479e-38
-0.085116416 -0.10386805 -0.069745034 6.363791e-39
-0.08296223 -0.10297783 -0.065762848 3.5979277e-39
-0.08100006 -0.10297783 -0.065762848 5.7180698e-39
-0.078736164 -0.10140768 -0.058739159 1.0143466e-38
-0.076786295 -0.10140768 -0.058739159 6.9162641e-39
-0.074677601 -0.1005076 -0.054712866 2.9514989e-39
-0.072734788 -0.1005076 -0.054712866 2.2139367e-39
-0.070791982 -0.1005076 -0.054712866 8.3100222e-40
-0.068849184 -0.1005076 -0.054712866 1.8451513e-39
-0.066906378 -0.1005076 -0.054712866 1.4763688e-39
-0.064870574 -0.099830076 -0.051682089 1.3845291e-39
-0.062933087 -0.099830076 -0.051682089 2.9522066e-39
-0.060995597 -0.099830076 -0.051682089 1.2930369e-39
-0.059135161 -0.1005076 -0.054712866 6.4801366e-40
-0.05702652 -0.098941371 -0.047706697 8.5768154e-39
-0.054853797 -0.096470937 -0.036655758 2.2037289e-38
-0.052742872 -0.094255984 -0.026747677 2.2865961e-38
-0.050849102 -0.094255984 -0.026747677 2.3141826e-38
-0.049020983 -0.095137119 -0.030689213 2.194365e-38
-0.047120295 -0.095137119 -0.030689213 2.3509883e-38
-0.045298073 -0.096470937 -0.036655758 2.3509876e-38
-0.043386929 -0.096470937 -0.036655758 2.3417676e-38
-0.041475784 -0.096470937 -0.036655758 2.3509876e-38
-0.039564639 -0.096470937 -0.036655758 2.2772672e-38
-0.03767813 -0.097368345 -0.04067013 2.3418045e-38
-0.03574235 -0.096470937 -0.036655758 2.3234376e-38
-0.033823494 -0.095815286 -0.033722851 2.2036551e-38
-0.03191483 -0.095137119 -0.030689213 2.3234376e-38
-0.03002023 -0.093586475 -0.023752782 2.3509883e-38
-0.02814224 -0.092691094 -0.01974747 2.31411e-38
-0.026260741 -0.092691094 -0.01974747 2.3048905e-38
-0.024398081 -0.092004895 -0.01667795 2.3417687e-38
-0.022521963 -0.092004895 -0.01667795 2.3417687e-38
-0.020674191 -0.091347814 -0.013738606 2.3049624e-38
-0.018803228 -0.091347814 -0.013738606 2.332621e-38
-0.016932264 -0.091347814 -0.013738606 2.3418047e-38
-0.015061301 -0.091347814 -0.013738606 2.3509883e-38
-0.013190339 -0.091347814 -0.013738606 2.3509883e-38
-0.011319376 -0.091347814 -0.013738606 2.3509883e-38
-0.0094484119 -0.091347814 -0.013738606 2.3509883e-38
-0.0075774482 -0.091347814 -0.013738606 2.3509883e-38
-0.0057064863 -0.091347814 -0.013738606 2.3509883e-38
-0.0038355226 -0.091347814 -0.013738606 2.3509883e-38
-0.0019645588 -0.091347814 -0.013738606 2.3509883e-38
-9.3596987e-05 -0.091347814 -0.013738606 2.3509883e-38
0.0017773667 -0.091347814 -0.013738606 2.3418045e-38
0.0036483305 -0.091347814 -0.013738606 2.3418045e-38
0.0055192942 -0.091347814 -0.013738606 2.3418045e-38
0.0074959071 -0.092004895 -0.01667795 2.3418045e-38
0.0094877342 -0.092691094 -0.01974747 2.3418045e-38
0.011369233 -0.092691094 -0.01974747 2.3418047e-38
0.013539162 -0.094255984 -0.026747677 2.3509883e-38
0.015602251 -0.095137119 -0.030689213 2.3509883e-38
0.017502934 -0.095137119 -0.030689213 2.3509883e-38
0.019403618 -0.095137119 -0.030689213 2.3509883e-38
0.021450572 -0.095815286 -0.033722851 2.3509883e-38
0.023503132 -0.096470937 -0.036655758 2.3509883e-38
0.025414277 -0.096470937 -0.036655758 2.3509883e-38
0.027325422 -0.096470937 -0.036655758 2.3509883e-38
0.029074579 -0.095815286 -0.033722851 2.350988e-38
0.030980583 -0.095815286 -0.033722851 2.350988e-38
0.032886583 -0.095815286 -0.033722851 2.350988e-38
0.034792591 -0.095815286 -0.033722851 2.3509886e-38
0.036698591 -0.095815286 -0.033722851 2.3509886e-38
0.038604591 -0.095815286 -0.033722851 2.3509527e-38
0.040510591 -0.095815286 -0.033722851 2.3509527e-38
0.042416599 -0.095815286 -0.033722851 2.3509527e-38
0.044322599 -0.095815286 -0.033722851 2.341805e-38
0.046228599 -0.095815286 -0.033722851 2.341805e-38
0.048348013 -0.096470937 -0.036655758 2.341805e-38
0.050259154 -0.096470937 -0.036655758 2.2865958e-38
0.052170306 -0.096470937 -0.036655758 2.019193e-38
0.05408144 -0.096470937 -0.036655758 1.6043496e-38
0.055992588 -0.096470937 -0.036655758 1.2540789e-38
0.058231026 -0.097368345 -0.04067013 1.0973111e-38
0.060149208 -0.097368345 -0.04067013 1.0604695e-38
0.062067389 -0.097368345 -0.04067013 1.0143361e-38
0.063985571 -0.097368345 -0.04067013 1.0512513e-38
0.065548316 -0.096470937 -0.036655758 9.2221484e-39
0.067194626 -0.095815286 -0.033722851 2.8603094e-39
0.068821386 -0.095137119 -0.030689213 1.1840972e-42
0.070722058 -0.095137119 -0.030689213 1.2009128e-42
0.072622746 -0.095137119 -0.030689213 2.2953269e-42
0.074523434 -0.095137119 -0.030689213 5.0737822e-39
0.076424122 -0.095137119 -0.030689213 9.8683179e-39
0.078926325 -0.096470937 -0.036655758 8.8552422e-39
0.080837473 -0.096470937 -0.036655758 9.0403495e-39
0.082748622 -0.096470937 -0.036655758 4.0628589e-39
-0.10625158 -0.097721294 -0.033722851 1.6668207e-39
-0.10434557 -0.097721294 -0.033722851 1.0221912e-39
-0.10263242 -0.098382086 -0.036655758 5.619431e-40
-0.1011759 -0.099982664 -0.043759916 4.6975588e-40
-0.099252313 -0.099982664 -0.043759916 3.7756025e-40
-0.097328708 -0.099982664 -0.043759916 9.4965997e-42
-0.095870435 -0.10176755 -0.051682089 9.136466e-42
-0.094105646 -0.1024504 -0.054712866 1.0132929e-40
-0.092547953 -0.10402142 -0.061685774 6.253995e-42
-0.090810955 -0.10494001 -0.065762848 2.5873729e-39
-0.08884877 -0.10494001 -0.065762848 3.6933603e-39
-0.087085582 -0.10583721 -0.069745034 2.5870128e-39
-0.082898825 -0.095475003 -0.023752782 2.5866582e-39
-0.081010312 -0.095475003 -0.023752782 3.8770439e-39
-0.080817774 -0.10402142 -0.061685774 3.7837833e-39
-0.078736164 -0.10335754 -0.058739159 2.1235543e-39
-0.076786295 -0.10335754 -0.058739159 1.2001701e-39
-0.074558035 -0.10176755 -0.051682089 1.8602237e-40
-0.072620541 -0.10176755 -0.051682089 5.5373009e-40
-0.070683047 -0.10176755 -0.051682089 1.5682352e-39
-0.068745561 -0.10176755 -0.051682089 7.3882621e-40
-0.066808067 -0.10176755 -0.051682089 2.1224683e-39
-0.0647486 -0.10087189 -0.047706697 9.2427685e-40
-0.06281808 -0.10087189 -0.047706697 6.4766754e-40
-0.06088756 -0.10087189 -0.047706697 8.3202797e-40
-0.05895704 -0.10087189 -0.047706697 7.9307033e-39
-0.05702652 -0.10087189 -0.047706697 1.3555693e-38
-0.054723032 -0.097037792 -0.030689213 2.2129125e-38
-0.052742872 -0.096149758 -0.026747677 2.2958873e-38
-0.050720226 -0.094572589 -0.01974747 2.3234379e-38
-0.048838727 -0.094572589 -0.01974747 2.3418045e-38
-0.047016922 -0.095475003 -0.023752782 2.3325847e-38
-0.045167781 -0.096149758 -0.026747677 2.3509886e-38
-0.043386929 -0.098382086 -0.036655758 2.3325138e-38
-0.041475784 -0.098382086 -0.036655758 2.3232944e-38
-0.039564639 -0.098382086 -0.036655758 2.3232944e-38
-0.037653495 -0.098382086 -0.036655758 2.3234018e-38
-0.035729494 -0.097721294 -0.033722851 2.3142532e-38
-0.033815514 -0.097037792 -0.030689213 2.3142523e-38
-0.03191483 -0.097037792 -0.030689213 2.3326191e-38
-0.03002023 -0.095475003 -0.023752782 2.3509869e-38
-0.02814224 -0.094572589 -0.01974747 2.350987e-38
-0.026260741 -0.094572589 -0.01974747 2.350987e-38
-0.024398081 -0.093881011 -0.01667795 2.3324401e-38
-0.022521963 -0.093881011 -0.01667795 2.3509873e-38
-0.020674191 -0.093218774 -0.013738606 2.3509876e-38
-0.018803228 -0.093218774 -0.013738606 2.2681196e-38
-0.016932264 -0.093218774 -0.013738606 2.3418043e-38
-0.015061301 -0.093218774 -0.013738606 2.3418045e-38
-0.013190339 -0.093218774 -0.013738606 2.3049621e-38
-0.011319376 -0.093218774 -0.013738606 2.3141456e-38
-0.0094484119 -0.093218774 -0.013738606 2.350988e-38
-0.0075774482 -0.093218774 -0.013738606 2.350988e-38
-0.0057064863 -0.093218774 -0.013738606 2.350988e-38
-0.0038355226 -0.093218774 -0.013738606 2.3509158e-38
-0.0019645588 -0.093218774 -0.013738606 2.350988e-38
-9.3596987e-05 -0.093218774 -0.013738606 2.3142539e-38
0.0017773667 -0.093218774 -0.013738606 2.3050704e-38
0.0036483305 -0.093218774 -0.013738606 2.3142541e-38
0.0055192942 -0.093218774 -0.013738606 2.3142541e-38
0.0074959071 -0.093881011 -0.01667795 2.3234376e-38
0.0094877342 -0.094572589 -0.01974747 2.3234376e-38
0.011527241 -0.095475003 -0.023752782 2.3142537e-38
0.013701566 -0.097037792 -0.030689213 2.3141816e-38
0.015858553 -0.098382086 -0.036655758 2.3418045e-38
0.017769698 -0.098382086 -0.036655758 2.3418045e-38
0.019680843 -0.098382086 -0.036655758 2.3418045e-38
0.021785546 -0.099286526 -0.04067013 2.3418045e-38
0.023703728 -0.099286526 -0.04067013 2.3326208e-38
0.025414277 -0.098382086 -0.036655758 2.3418045e-38
0.027325422 -0.098382086 -0.036655758 2.3418045e-38
0.029236566 -0.098382086 -0.036655758 2.3418043e-38
0.031147711 -0.098382086 -0.036655758 2.3509873e-38
0.033058856 -0.098382086 -0.036655758 2.3509873e-38
0.034792591 -0.097721294 -0.033722851 2.3509167e-38
0.036698591 -0.097721294 -0.033722851 2.3508809e-38
0.038604591 -0.097721294 -0.033722851 2.3508451e-38
0.040510591 -0.097721294 -0.033722851 2.3508451e-38
0.042416599 -0.097721294 -0.033722851 2.3509168e-38
0.044322599 -0.097721294 -0.033722851 2.3509168e-38
0.046228599 -0.097721294 -0.033722851 2.3509883e-38
0.048134606 -0.097721294 -0.033722851 2.3049259e-38
0.050040606 -0.097721294 -0.033722851 2.3418043e-38
0.051946606 -0.097721294 -0.033722851 1.6781763e-38
0.053852603 -0.097721294 -0.033722851 1.3923718e-38
0.05575861 -0.097721294 -0.033722851 1.1435171e-38
0.058231026 -0.099286526 -0.04067013 1.0880938e-38
0.060149208 -0.099286526 -0.04067013 1.0973863e-38
0.062067389 -0.099286526 -0.04067013 9.2239406e-39
0.063637167 -0.098382086 -0.036655758 1.1621394e-38
0.065548316 -0.098382086 -0.036655758 1.2358617e-38
0.067194626 -0.097721294 -0.033722851 7.2882346e-39
0.068821386 -0.097037792 -0.030689213 1.387371e-39
0.070352331 -0.096149758 -0.026747677 3.3673202e-42
0.072246104 -0.096149758 -0.026747677 1.3312335e-43
0.074523434 -0.097037792 -0.030689213 8.1155108e-39
0.076424122 -0.097037792 -0.030689213 1.2632731e-38
0.078630641 -0.097721294 -0.033722851 9.9586933e-39
0.080536649 -0.097721294 -0.033722851 9.1289298e-39
0.082442641 -0.097721294 -0.033722851 3.1369327e-39
-0.10625158 -0.099627286 -0.033722851 5.6265917e-40
-0.10434557 -0.099627286 -0.033722851 9.5022049e-42
-0.10263242 -0.10029322 -0.036655758 9.1490777e-42
-0.1011759 -0.10190627 -0.043759916 1.0229479e-41
-0.098810121 -0.10029322 -0.036655758 2.8645483e-40
-0.096898973 -0.10029322 -0.036655758 1.024153e-40
-0.094987839 -0.10029322 -0.036655758 1.0204676e-40
-0.093076691 -0.10029322 -0.036655758 2.8571915e-40
-0.090618327 -0.098043531 -0.026747677 5.5407341e-42
-0.088564396 -0.097363517 -0.023752782 5.9008678e-42
-0.086675867 -0.097363517 -0.023752782 4.1016006e-42
-0.084787354 -0.097363517 -0.023752782 5.1820017e-42
-0.082898825 -0.097363517 -0.023752782 2.0349292e-39
-0.081010312 -0.097363517 -0.023752782 4.6149761e-39
-0.080817774 -0.10597645 -0.061685774 3.5079209e-39
-0.078736164 -0.10530742 -0.058739159 7.4098701e-40
-0.076169103 -0.10190627 -0.043759916 1.4774843e-39
-0.074245498 -0.10190627 -0.043759916 1.1083486e-39
-0.07247068 -0.10280241 -0.047706697 1.199824e-39
-0.07054016 -0.10280241 -0.047706697 6.4700052e-40
-0.06860964 -0.10280241 -0.047706697 1.6611384e-39
-0.06667912 -0.10280241 -0.047706697 2.6756379e-39
-0.06453269 -0.10120471 -0.04067013 2.7925636e-40
-0.062614508 -0.10120471 -0.04067013 5.2574322e-39
-0.060696326 -0.10120471 -0.04067013 1.8164414e-38
-0.058856696 -0.10190627 -0.043759916 2.2313513e-38
-0.056623712 -0.09893848 -0.030689213 2.2682649e-38
-0.054636646 -0.098043531 -0.026747677 2.2958873e-38
-0.052682485 -0.097363517 -0.023752782 2.3050701e-38
-0.050663717 -0.095757127 -0.01667795 2.2221291e-38
-0.048787601 -0.095757127 -0.01667795 2.3509876e-38
-0.046957232 -0.096454084 -0.01974747 2.3233652e-38
-0.045075729 -0.096454084 -0.01974747 2.3509527e-38
-0.043194231 -0.096454084 -0.01974747 2.3509168e-38
-0.041312732 -0.096454084 -0.01974747 2.3508809e-38
-0.039564639 -0.10029322 -0.036655758 2.3508809e-38
-0.037653495 -0.10029322 -0.036655758 2.3417691e-38
-0.035729494 -0.099627286 -0.033722851 2.3234376e-38
-0.033805147 -0.098043531 -0.026747677 2.3234362e-38
-0.031911377 -0.098043531 -0.026747677 2.3418028e-38
-0.03002023 -0.097363517 -0.023752782 2.3509869e-38
-0.02814224 -0.096454084 -0.01974747 2.350987e-38
-0.026260741 -0.096454084 -0.01974747 2.3509873e-38
-0.024398081 -0.095757127 -0.01667795 2.3509516e-38
-0.022521963 -0.095757127 -0.01667795 2.3509879e-38
-0.020645846 -0.095757127 -0.01667795 2.350988e-38
-0.01876973 -0.095757127 -0.01667795 2.3141819e-38
-0.016893612 -0.095757127 -0.01667795 2.2958507e-38
-0.015017495 -0.095757127 -0.01667795 2.3234379e-38
-0.01314138 -0.095757127 -0.01667795 2.341805e-38
-0.011265262 -0.095757127 -0.01667795 2.341805e-38
-0.0093891444 -0.095757127 -0.01667795 2.3233299e-38
-0.0075130286 -0.095757127 -0.01667795 2.3233299e-38
-0.0056369109 -0.095757127 -0.01667795 2.3509167e-38
-0.0037607951 -0.095757127 -0.01667795 2.3509883e-38
-0.0019645588 -0.095089734 -0.013738606 2.3417687e-38
-9.3596987e-05 -0.095089734 -0.013738606 2.3234379e-38
0.0017773667 -0.095089734 -0.013738606 2.2958873e-38
0.0036483305 -0.095089734 -0.013738606 2.2682283e-38
0.0056197913 -0.095757127 -0.01667795 2.2405696e-38
0.0077501992 -0.097363517 -0.023752782 2.2497173e-38
0.009900202 -0.09893848 -0.030689213 2.2865955e-38
0.011920561 -0.099627286 -0.033722851 2.3234379e-38
0.013826565 -0.099627286 -0.033722851 2.341805e-38
0.016030997 -0.10120471 -0.04067013 2.3049626e-38
0.017949179 -0.10120471 -0.04067013 2.3234018e-38
0.019867364 -0.10120471 -0.04067013 2.341805e-38
0.021785546 -0.10120471 -0.04067013 2.341805e-38
0.023703728 -0.10120471 -0.04067013 2.341805e-38
0.025621913 -0.10120471 -0.04067013 2.3326213e-38
0.027540095 -0.10120471 -0.04067013 2.3234018e-38
0.029236566 -0.10029322 -0.036655758 2.3141819e-38
0.031147711 -0.10029322 -0.036655758 2.3326201e-38
0.033058856 -0.10029322 -0.036655758 2.3418039e-38
0.034969997 -0.10029322 -0.036655758 2.3509527e-38
0.036698591 -0.099627286 -0.033722851 2.3508809e-38
0.038604591 -0.099627286 -0.033722851 2.3508451e-38
0.040510591 -0.099627286 -0.033722851 2.3508451e-38
0.042416599 -0.099627286 -0.033722851 2.3508092e-38
0.044322599 -0.099627286 -0.033722851 2.3508809e-38
0.046228599 -0.099627286 -0.033722851 2.3416974e-38
0.048134606 -0.099627286 -0.033722851 2.2864513e-38
0.050040606 -0.099627286 -0.033722851 2.3234379e-38
0.051946606 -0.099627286 -0.033722851 1.6689215e-38
0.053852603 -0.099627286 -0.033722851 1.4200675e-38
0.05575861 -0.099627286 -0.033722851 1.2541537e-38
0.058231026 -0.10120471 -0.04067013 1.2080577e-38
0.060149208 -0.10120471 -0.04067013 1.1896555e-38
0.061726019 -0.10029322 -0.036655758 1.392521e-38
0.063637167 -0.10029322 -0.036655758 1.3741541e-38
0.065288618 -0.099627286 -0.033722851 1.3834472e-38
0.067194626 -0.099627286 -0.033722851 1.2360438e-38
0.068821386 -0.09893848 -0.030689213 7.1045846e-39
0.070352331 -0.098043531 -0.026747677 1.5728552e-39
0.072246104 -0.098043531 -0.026747677 9.593009e-41
0.074523434 -0.09893848 -0.030689213 8.6697607e-39
0.076424122 -0.09893848 -0.030689213 1.0973564e-38
0.078630641 -0.099627286 -0.033722851 8.2073294e-39
0.080536649 -0.099627286 -0.033722851 7.1920957e-39
0.082442641 -0.099627286 -0.033722851 3.5975479e-39
-0.10625158 -0.10153329 -0.033722851 2.8465136e-40
-0.10434557 -0.10153329 -0.033722851 7.3596195e-42
-0.10243957 -0.10153329 -0.033722851 7.3652247e-42
-0.10072127 -0.10220437 -0.036655758 8.8057595e-42
-0.098810121 -0.10220437 -0.036655758 4.6942097e-40
-0.096898973 -0.10220437 -0.036655758 3.7757707e-40
-0.09440586 -0.099937305 -0.026747677 3.7721133e-40
-0.092512093 -0.099937305 -0.026747677 5.6123965e-40
-0.090618327 -0.099937305 -0.026747677 9.2787398e-40
-0.088350207 -0.098335579 -0.01974747 1.4810478e-39
-0.086468704 -0.098335579 -0.01974747 1.5725203e-39
-0.084787354 -0.099252045 -0.023752782 1.1115394e-39
-0.082898825 -0.099252045 -0.023752782 1.2959306e-39
-0.081010312 -0.099252045 -0.023752782 2.1249752e-39
-0.079121783 -0.099252045 -0.023752782 2.1246221e-39
-0.077787533 -0.10220437 -0.036655758 1.5707365e-39
-0.075876385 -0.10220437 -0.036655758 1.5703847e-39
-0.073965244 -0.10220437 -0.036655758 2.3068708e-39
-0.072205424 -0.1031229 -0.04067013 2.6752904e-39
-0.070287243 -0.1031229 -0.04067013 1.7536858e-39
-0.068369061 -0.1031229 -0.04067013 2.8596592e-39
-0.066551097 -0.10382988 -0.043759916 1.938049e-39
-0.064409517 -0.10220437 -0.036655758 1.2933859e-39
-0.062498376 -0.10220437 -0.036655758 1.5031223e-38
-0.060696326 -0.1031229 -0.04067013 2.1668871e-38
-0.058856696 -0.10382988 -0.043759916 2.2867037e-38
-0.056623712 -0.10083917 -0.030689213 2.2129483e-38
-0.054636646 -0.099937305 -0.026747677 2.2683365e-38
-0.052601725 -0.098335579 -0.01974747 2.2590439e-38
-0.050609604 -0.096960694 -0.013738606 2.3234369e-38
-0.04873864 -0.096960694 -0.013738606 2.3509879e-38
-0.046911485 -0.097633243 -0.01667795 2.3048907e-38
-0.045035366 -0.097633243 -0.01667795 2.3509168e-38
-0.043194231 -0.098335579 -0.01974747 2.3508092e-38
-0.041312732 -0.098335579 -0.01974747 2.3231868e-38
-0.039304521 -0.094660893 -0.0036874749 2.304748e-38
-0.037451182 -0.094660893 -0.0036874749 2.2863809e-38
-0.03569892 -0.099937305 -0.026747677 2.2773049e-38
-0.033805147 -0.099937305 -0.026747677 2.2957796e-38
-0.031911377 -0.099937305 -0.026747677 2.3325856e-38
-0.030029006 -0.096960694 -0.013738606 2.3509886e-38
-0.028158043 -0.096960694 -0.013738606 2.3509527e-38
-0.026287083 -0.096960694 -0.013738606 2.3509886e-38
-0.024398081 -0.097633243 -0.01667795 2.3232944e-38
-0.022521963 -0.097633243 -0.01667795 2.2864883e-38
-0.020645846 -0.097633243 -0.01667795 2.3234379e-38
-0.01876973 -0.097633243 -0.01667795 2.3142544e-38
-0.016893612 -0.097633243 -0.01667795 2.3142544e-38
-0.015017495 -0.097633243 -0.01667795 2.1759625e-38
-0.01314138 -0.097633243 -0.01667795 2.3049632e-38
-0.011208753 -0.098335579 -0.01974747 2.323402e-38
-0.0093891444 -0.097633243 -0.01667795 2.3417691e-38
-0.0075130286 -0.097633243 -0.01667795 2.3417691e-38
-0.0056369109 -0.097633243 -0.01667795 2.3509168e-38
-0.0036827577 -0.098335579 -0.01974747 2.3509168e-38
-0.0016924078 -0.099252045 -0.023752782 2.2956362e-38
0.00019611325 -0.099252045 -0.023752782 2.3417691e-38
0.0020846361 -0.099252045 -0.023752782 2.3234379e-38
0.0040703015 -0.099937305 -0.026747677 2.3234379e-38
0.0064400816 -0.1031229 -0.04067013 2.3234379e-38
0.0082139755 -0.10220437 -0.036655758 2.341805e-38
0.01012512 -0.10220437 -0.036655758 2.341805e-38
0.012036265 -0.10220437 -0.036655758 2.341805e-38
0.014112816 -0.1031229 -0.04067013 2.3509527e-38
0.016030997 -0.1031229 -0.04067013 2.3232944e-38
0.017949179 -0.1031229 -0.04067013 2.3325138e-38
0.019867364 -0.1031229 -0.04067013 2.3417333e-38
0.021785546 -0.1031229 -0.04067013 2.3509527e-38
0.023703728 -0.1031229 -0.04067013 2.3509527e-38
0.025621913 -0.1031229 -0.04067013 2.3509527e-38
0.027540095 -0.1031229 -0.04067013 2.3509168e-38
0.029236566 -0.10220437 -0.036655758 2.341805e-38
0.031147711 -0.10220437 -0.036655758 2.341805e-38
0.033058856 -0.10220437 -0.036655758 2.341805e-38
0.034969997 -0.10220437 -0.036655758 2.3417691e-38
0.036698591 -0.10153329 -0.033722851 2.3508809e-38
0.038604591 -0.10153329 -0.033722851 2.3508451e-38
0.040510591 -0.10153329 -0.033722851 2.3324062e-38
0.042416599 -0.10153329 -0.033722851 2.3138956e-38
0.044322599 -0.10153329 -0.033722851 2.2863091e-38
0.046228599 -0.10153329 -0.033722851 2.3417333e-38
0.048134606 -0.10153329 -0.033722851 2.2865243e-38
0.049814548 -0.10083917 -0.030689213 2.3142185e-38
0.051715236 -0.10083917 -0.030689213 1.6504849e-38
0.053615913 -0.10083917 -0.030689213 1.4200338e-38
0.055516601 -0.10083917 -0.030689213 1.2817421e-38
0.057417288 -0.10083917 -0.030689213 1.2356462e-38
0.059570611 -0.10153329 -0.033722851 1.198768e-38
0.061476618 -0.10153329 -0.033722851 1.2448641e-38
0.063119337 -0.10083917 -0.030689213 1.5584011e-38
0.06502001 -0.10083917 -0.030689213 1.6691093e-38
0.066920698 -0.10083917 -0.030689213 1.5770233e-38
0.068458557 -0.099937305 -0.026747677 1.0977151e-38
0.070071399 -0.099252045 -0.023752782 5.5376218e-39
0.071959928 -0.099252045 -0.023752782 2.5870072e-39
0.074139878 -0.099937305 -0.026747677 4.7989834e-39
0.076424122 -0.10083917 -0.030689213 8.4860855e-39
0.078630641 -0.10153329 -0.033722851 1.1620375e-38
0.080225483 -0.10083917 -0.030689213 1.088281e-38
0.08212617 -0.10083917 -0.030689213 7.3797366e-39
-0.1057685 -0.10183108 -0.026747677 3.7541627e-40
-0.10387473 -0.10183108 -0.026747677 7.0078936e-42
-0.10224012 -0.10273984 -0.030689213 7.0120975e-42
-0.10053357 -0.10343929 -0.033722851 9.9567861e-41
-0.09843874 -0.10273984 -0.030689213 9.9203523e-41
-0.096538067 -0.10273984 -0.030689213 7.3610208e-42
-0.09440586 -0.10183108 -0.026747677 4.676147e-40
-0.092512093 -0.10183108 -0.026747677 1.0200696e-39
-0.090452909 -0.10114056 -0.023752782 1.6643642e-39
-0.088350207 -0.10021709 -0.01974747 1.4792541e-39
-0.086468704 -0.10021709 -0.01974747 1.2030217e-39
-0.084587201 -0.10021709 -0.01974747 1.2952118e-39
-0.082705706 -0.10021709 -0.01974747 1.4792401e-39
-0.080824211 -0.10021709 -0.01974747 1.5714357e-39
-0.078942709 -0.10021709 -0.01974747 1.8469464e-39
-0.077361912 -0.10183108 -0.026747677 1.8469492e-39
-0.075468138 -0.10183108 -0.026747677 1.3856179e-39
-0.073729865 -0.10273984 -0.030689213 1.9380728e-39
-0.071943536 -0.10343929 -0.033722851 1.7540347e-39
-0.069928497 -0.10273984 -0.030689213 2.3986769e-39
-0.067790657 -0.10114056 -0.023752782 1.7540151e-39
-0.065902136 -0.10114056 -0.023752782 1.1911037e-43
-0.064226449 -0.10273984 -0.030689213 3.9670451e-39
-0.062325764 -0.10273984 -0.030689213 2.2314589e-38
-0.060696326 -0.10504107 -0.04067013 2.2406783e-38
-0.058601521 -0.10343929 -0.033722851 2.2867037e-38
-0.056530416 -0.10183108 -0.026747677 2.268229e-38
-0.054636646 -0.10183108 -0.026747677 2.2958873e-38
-0.052480567 -0.098831654 -0.013738606 2.3142544e-38
-0.050369728 -0.09582752 -0.00070903078 2.3234379e-38
-0.048454076 -0.094892681 0.0033455156 2.2680492e-38
-0.046613067 -0.094892681 0.0033455156 2.0466725e-38
-0.044772059 -0.094892681 0.0033455156 1.7977097e-38
-0.042977259 -0.09582752 -0.00070903078 1.7515767e-38
-0.041129138 -0.09582752 -0.00070903078 1.6870044e-38
-0.039304521 -0.09651424 -0.0036874749 1.6225039e-38
-0.037451182 -0.09651424 -0.0036874749 1.594845e-38
-0.03561097 -0.097204864 -0.0066828467 1.6041723e-38
-0.033752378 -0.097204864 -0.0066828467 1.659525e-38
-0.031896427 -0.097899407 -0.0096952654 1.6964385e-38
-0.030032553 -0.097899407 -0.0096952654 1.7149128e-38
-0.028158043 -0.098831654 -0.013738606 1.7794495e-38
-0.026287083 -0.098831654 -0.013738606 1.973025e-38
-0.024416119 -0.098831654 -0.013738606 2.139049e-38
-0.022521963 -0.099509358 -0.01667795 1.9730614e-38
-0.020645846 -0.099509358 -0.01667795 1.7242411e-38
-0.01876973 -0.099509358 -0.01667795 1.6136067e-38
-0.016893612 -0.099509358 -0.01667795 1.4108123e-38
-0.015061301 -0.098831654 -0.013738606 1.4476189e-38
-0.013190339 -0.098831654 -0.013738606 1.5490341e-38
-0.011265262 -0.099509358 -0.01667795 1.6872556e-38
-0.0094484119 -0.098831654 -0.013738606 1.7701597e-38
-0.0075774482 -0.098831654 -0.013738606 1.8531358e-38
-0.0056369109 -0.099509358 -0.01667795 1.9728822e-38
-0.0036827577 -0.10021709 -0.01974747 2.0742611e-38
-0.0016924078 -0.10114056 -0.023752782 2.1203587e-38
0.00028275605 -0.10183108 -0.026747677 2.1572721e-38
0.0021765279 -0.10183108 -0.026747677 2.1573794e-38
0.0045218999 -0.10504107 -0.04067013 2.1757467e-38
0.0065457234 -0.10575347 -0.043759916 2.1941859e-38
0.0083582671 -0.10504107 -0.04067013 2.1941859e-38
0.010276449 -0.10504107 -0.04067013 2.1573077e-38
0.012194631 -0.10504107 -0.04067013 2.0927707e-38
0.014112816 -0.10504107 -0.04067013 2.0466373e-38
0.016030997 -0.10504107 -0.04067013 2.0374178e-38
0.017949179 -0.10504107 -0.04067013 2.0189789e-38
0.019867364 -0.10504107 -0.04067013 1.9913202e-38
0.021785546 -0.10504107 -0.04067013 1.9821009e-38
0.023703728 -0.10504107 -0.04067013 2.0097596e-38
0.025621913 -0.10504107 -0.04067013 2.0466379e-38
0.027540095 -0.10504107 -0.04067013 2.0834804e-38
0.029458281 -0.10504107 -0.04067013 2.1019913e-38
0.031147711 -0.1041155 -0.036655758 2.0560367e-38
0.033058856 -0.1041155 -0.036655758 2.0468531e-38
0.034969997 -0.1041155 -0.036655758 2.0467819e-38
0.036881145 -0.1041155 -0.036655758 2.0190879e-38
0.038792286 -0.1041155 -0.036655758 1.9912862e-38
0.040703434 -0.1041155 -0.036655758 1.9359691e-38
0.042614575 -0.1041155 -0.036655758 1.8806517e-38
0.044525724 -0.1041155 -0.036655758 1.8529927e-38
0.046436865 -0.1041155 -0.036655758 1.7055876e-38
0.048348013 -0.1041155 -0.036655758 1.6226479e-38
0.049814548 -0.10273984 -0.030689213 1.6688183e-38
0.051715236 -0.10273984 -0.030689213 1.3277311e-38
0.053615913 -0.10273984 -0.030689213 1.2633035e-38
0.055516601 -0.10273984 -0.030689213 1.2356462e-38
0.057417288 -0.10273984 -0.030689213 1.2725619e-38
0.059570611 -0.10343929 -0.033722851 1.3370262e-38
0.061476618 -0.10343929 -0.033722851 1.4659181e-38
0.063119337 -0.10273984 -0.030689213 1.8254805e-38
0.06502001 -0.10273984 -0.030689213 1.7150269e-38
0.066920698 -0.10273984 -0.030689213 1.6045372e-38
0.068458557 -0.10183108 -0.026747677 1.6323758e-38
0.069695696 -0.10021709 -0.01974747 1.5218862e-38
0.071577191 -0.10021709 -0.01974747 9.871178e-39
0.074139878 -0.10183108 -0.026747677 1.6664928e-39
0.076033652 -0.10183108 -0.026747677 5.6301846e-39
0.078324795 -0.10273984 -0.030689213 1.3281703e-38
0.080225483 -0.10273984 -0.030689213 1.530998e-38
0.08212617 -0.10273984 -0.030689213 1.7338971e-38
-0.11577076 -0.099763289 -0.0096952654 7.9277704e-39
-0.10831526 -0.099763289 -0.0096952654 4.1525238e-39
-0.10645138 -0.099763289 -0.0096952654 3.2320248e-39
-0.10458751 -0.099763289 -0.0096952654 2.5877512e-39
-0.10252029 -0.099063456 -0.0066828467 2.4955668e-39
-0.10026892 -0.097675636 -0.00070903078 2.5874093e-39
-0.098420799 -0.097675636 -0.00070903078 2.4030181e-39
-0.097757697 -0.10209858 -0.01974747 2.0338698e-39
-0.095876202 -0.10209858 -0.01974747 1.9420287e-39
-0.094229952 -0.10302909 -0.023752782 2.8632591e-39
-0.091540396 -0.099763289 -0.0096952654 3.9688878e-39
-0.089676514 -0.099763289 -0.0096952654 2.6774329e-39
-0.088186055 -0.10138547 -0.01667795 2.4930417e-39
-0.08630994 -0.10138547 -0.01667795 2.5855904e-39
-0.084433824 -0.10138547 -0.01667795 2.8621731e-39
-0.082557708 -0.10138547 -0.01667795 2.677056e-39
-0.080545016 -0.10070263 -0.013738606 2.1242382e-39
-0.078674048 -0.10070263 -0.013738606 2.4923046e-39
-0.076803088 -0.10070263 -0.013738606 3.2298696e-39
-0.074932128 -0.10070263 -0.013738606 3.6904919e-39
-0.073061161 -0.10070263 -0.013738606 3.8741629e-39
-0.071416713 -0.10209858 -0.01974747 2.2146359e-39
-0.069535211 -0.10209858 -0.01974747 4.2425754e-39
-0.067653716 -0.10209858 -0.01974747 2.5834058e-39
-0.065772213 -0.10209858 -0.01974747 9.4830071e-41
-0.064013615 -0.10302909 -0.023752782 7.0091352e-39
-0.062211737 -0.10372485 -0.026747677 2.1300094e-38
-0.060507525 -0.10534529 -0.033722851 2.2498619e-38
-0.058601521 -0.10534529 -0.033722851 2.2774843e-38
-0.056530416 -0.10372485 -0.026747677 2.268229e-38
-0.054483224 -0.10209858 -0.01974747 2.1298659e-38
-0.052399039 -0.099763289 -0.0096952654 1.8993055e-38
-0.050369728 -0.097675636 -0.00070903078 1.6318663e-38
-0.048454076 -0.096733689 0.0033455156 1.5857688e-38
-0.046613067 -0.096733689 0.0033455156 1.567222e-38
-0.044772059 -0.096733689 0.0033455156 1.5026499e-38
-0.042977259 -0.097675636 -0.00070903078 1.4933947e-38
-0.041129138 -0.097675636 -0.00070903078 1.456481e-38
-0.039281022 -0.097675636 -0.00070903078 1.4012721e-38
-0.037432902 -0.097675636 -0.00070903078 1.3735778e-38
-0.035597838 -0.098367572 -0.0036874749 1.3736497e-38
-0.033744499 -0.098367572 -0.0036874749 1.4197475e-38
-0.03189116 -0.098367572 -0.0036874749 1.438294e-38
-0.030035194 -0.099063456 -0.0066828467 1.6780731e-38
-0.028176602 -0.099063456 -0.0066828467 1.6320468e-38
-0.02631801 -0.099063456 -0.0066828467 1.742682e-38
-0.024459418 -0.099063456 -0.0066828467 2.0469628e-38
-0.022521963 -0.10138547 -0.01667795 2.0008657e-38
-0.020674191 -0.10070263 -0.013738606 1.7795968e-38
-0.018803228 -0.10070263 -0.013738606 1.7611219e-38
-0.016932264 -0.10070263 -0.013738606 1.6136092e-38
-0.015121561 -0.099763289 -0.0096952654 1.6780745e-38
-0.013257687 -0.099763289 -0.0096952654 1.5674398e-38
-0.011449273 -0.099063456 -0.0066828467 1.5028309e-38
-0.0095906807 -0.099063456 -0.0066828467 1.5212701e-38
-0.0077320868 -0.099063456 -0.0066828467 1.5672956e-38
-0.0058734948 -0.099063456 -0.0066828467 1.6501998e-38
-0.0044982294 -0.094646841 0.012328293 1.8622853e-38
