# .PCD v0.7 - Point Cloud Data file format
VERSION 0.7
FIELDS x y z rgb
SIZE 4 4 4 4
TYPE F F F F
COUNT 1 1 1 1
WIDTH 912
HEIGHT 1
VIEWPOINT 0 0 0 1 0 0 0
POINTS 912
DATA ascii
-0.059835561 -0.073537201 -0.034674805 2.3142185e-38
-0.057924412 -0.073537201 -0.034674805 2.2773765e-38
-0.056013271 -0.073537201 -0.034674805 2.3234379e-38
-0.054102123 -0.073537201 -0.034674805 2.3142542e-38
-0.052190982 -0.073537201 -0.034674805 2.3142539e-38
-0.05024641 -0.072943255 -0.031741899 2.3142539e-38
-0.048311152 -0.07232891 -0.028708261 2.332621e-38
-0.046410471 -0.07232891 -0.028708261 2.332621e-38
-0.044509791 -0.07232891 -0.028708261 2.3418047e-38
-0.042609103 -0.07232891 -0.028708261 2.3418047e-38
-0.040708423 -0.07232891 -0.028708261 2.341805e-38
-0.038807739 -0.07232891 -0.028708261 2.3326213e-38
-0.036907054 -0.07232891 -0.028708261 2.3509886e-38
-0.035006374 -0.07232891 -0.028708261 2.3509886e-38
-0.033079535 -0.073537201 -0.034674805 2.3509886e-38
-0.031143755 -0.074350148 -0.038689177 2.3509886e-38
-0.029225573 -0.074350148 -0.038689177 2.3509886e-38
-0.027277593 -0.074975863 -0.041778963 2.3509886e-38
-0.025353992 -0.074975863 -0.041778963 2.3509886e-38
-0.023430392 -0.074975863 -0.041778963 2.3509886e-38
-0.021506792 -0.074975863 -0.041778963 2.3509886e-38
-0.019517452 -0.075775132 -0.045725744 2.3509886e-38
-0.017513743 -0.076580182 -0.049701136 2.3509886e-38
-0.015576253 -0.076580182 -0.049701136 2.3509886e-38
-0.013638761 -0.076580182 -0.049701136 2.3509886e-38
-0.011701271 -0.076580182 -0.049701136 2.3509886e-38
-0.009763781 -0.076580182 -0.049701136 2.3509886e-38
-0.0078262892 -0.076580182 -0.049701136 2.3509886e-38
-0.0058887992 -0.076580182 -0.049701136 2.3509883e-38
-0.0038583148 -0.077193946 -0.052731913 2.3509883e-38
-0.0019155089 -0.077193946 -0.052731913 2.3232936e-38
2.7297065e-05 -0.077193946 -0.052731913 2.3232936e-38
0.0021148194 -0.078009307 -0.056758206 2.3509886e-38
0.0041757617 -0.078606024 -0.059704822 2.3509886e-38
0.0062916335 -0.079431683 -0.063781902 2.3141466e-38
0.0082538109 -0.079431683 -0.063781902 2.2312787e-38
0.01038705 -0.080238104 -0.067764089 2.3234379e-38
0.01217817 -0.079431683 -0.063781902 2.3142544e-38
0.014140347 -0.079431683 -0.063781902 2.2958873e-38
0.015905945 -0.078606024 -0.059704822 2.2958873e-38
0.017860973 -0.078606024 -0.059704822 2.2867037e-38
0.019816006 -0.078606024 -0.059704822 2.2867037e-38
0.021613462 -0.078009307 -0.056758206 2.2867037e-38
0.023563324 -0.078009307 -0.056758206 2.2130201e-38
0.025513189 -0.078009307 -0.056758206 2.0747265e-38
-0.069306433 -0.074849263 -0.031741899 2.3234379e-38
-0.067400433 -0.074849263 -0.031741899 2.2681214e-38
-0.065568991 -0.075448349 -0.034674805 2.3049632e-38
-0.06365785 -0.075448349 -0.034674805 2.2496825e-38
-0.061746702 -0.075448349 -0.034674805 2.2957796e-38
-0.059835561 -0.075448349 -0.034674805 2.2957796e-38
-0.057924412 -0.075448349 -0.034674805 2.2865961e-38
-0.055964418 -0.074849263 -0.031741899 2.3234379e-38
-0.054058418 -0.074849263 -0.031741899 2.3234379e-38
-0.05215241 -0.074849263 -0.031741899 2.3234376e-38
-0.050211839 -0.074229598 -0.028708261 2.3142541e-38
-0.048311152 -0.074229598 -0.028708261 2.3142537e-38
-0.046410471 -0.074229598 -0.028708261 2.3142538e-38
-0.044485599 -0.073424488 -0.024766725 2.3142538e-38
-0.042591825 -0.073424488 -0.024766725 2.3142538e-38
-0.040708423 -0.074229598 -0.028708261 2.3050704e-38
-0.038807739 -0.074229598 -0.028708261 2.3050703e-38
-0.036907054 -0.074229598 -0.028708261 2.341805e-38
-0.035006374 -0.074229598 -0.028708261 2.3509886e-38
-0.033079535 -0.075448349 -0.034674805 2.3509886e-38
-0.031143755 -0.07626833 -0.038689177 2.3509886e-38
-0.029201195 -0.076899469 -0.041778963 2.3509886e-38
-0.027277593 -0.076899469 -0.041778963 2.3509886e-38
-0.025309011 -0.077705652 -0.045725744 2.3509886e-38
-0.023378491 -0.077705652 -0.045725744 2.3509886e-38
-0.021447971 -0.077705652 -0.045725744 2.3509886e-38
-0.019517452 -0.077705652 -0.045725744 2.3509886e-38
-0.017513743 -0.078517675 -0.049701136 2.3509886e-38
-0.015576253 -0.078517675 -0.049701136 2.3509886e-38
-0.013638761 -0.078517675 -0.049701136 2.3509886e-38
-0.011701271 -0.078517675 -0.049701136 2.3509886e-38
-0.009763781 -0.078517675 -0.049701136 2.3509886e-38
-0.0078262892 -0.078517675 -0.049701136 2.3509886e-38
-0.0058887992 -0.078517675 -0.049701136 2.3325494e-38
-0.0039513092 -0.078517675 -0.049701136 2.3509886e-38
-0.0019155089 -0.079136744 -0.052731913 2.3509886e-38
2.7297065e-05 -0.079136744 -0.052731913 2.2772321e-38
0.0021148194 -0.079959169 -0.056758206 2.3141103e-38
0.0041757617 -0.080561057 -0.059704822 2.3509886e-38
0.0062916335 -0.081393853 -0.063781902 2.341805e-38
0.0082538109 -0.081393853 -0.063781902 2.341805e-38
0.010215988 -0.081393853 -0.063781902 2.2957075e-38
0.01217817 -0.081393853 -0.063781902 2.2497178e-38
0.014140347 -0.081393853 -0.063781902 2.2589374e-38
0.016102528 -0.081393853 -0.063781902 2.2958514e-38
0.017860973 -0.080561057 -0.059704822 2.3142544e-38
0.019816006 -0.080561057 -0.059704822 2.3142544e-38
0.021613462 -0.079959169 -0.056758206 2.2958514e-38
0.023563324 -0.079959169 -0.056758206 2.2867037e-38
0.025513189 -0.079959169 -0.056758206 2.2591531e-38
0.027463051 -0.079959169 -0.056758206 1.7706973e-38
0.02941292 -0.079959169 -0.056758206 1.1438394e-38
0.030923525 -0.078517675 -0.049701136 7.9353234e-39
0.032861017 -0.078517675 -0.049701136 2.7720136e-39
0.034798503 -0.078517675 -0.049701136 3.9701952e-39
-0.069306433 -0.076755255 -0.031741899 2.3141822e-38
-0.067400433 -0.076755255 -0.031741899 2.341805e-38
-0.065568991 -0.077359483 -0.034674805 2.3417691e-38
-0.063588426 -0.076755255 -0.031741899 2.2772688e-38
-0.061682425 -0.076755255 -0.031741899 2.341805e-38
-0.059776418 -0.076755255 -0.031741899 2.341805e-38
-0.057870418 -0.076755255 -0.031741899 2.341805e-38
-0.055913888 -0.076130286 -0.028708261 2.3326213e-38
-0.0540132 -0.076130286 -0.028708261 2.2220942e-38
-0.05211252 -0.076130286 -0.028708261 2.3234376e-38
-0.050211839 -0.076130286 -0.028708261 2.3142541e-38
-0.048311152 -0.076130286 -0.028708261 2.3050701e-38
-0.046410471 -0.076130286 -0.028708261 2.3142538e-38
-0.044485599 -0.075318262 -0.024766725 2.3142538e-38
-0.042591825 -0.075318262 -0.024766725 2.295887e-38
-0.040708423 -0.076130286 -0.028708261 2.295887e-38
-0.038807739 -0.076130286 -0.028708261 2.3142541e-38
-0.036907054 -0.076130286 -0.028708261 2.341805e-38
-0.035006374 -0.076130286 -0.028708261 2.3509886e-38
-0.033079535 -0.077359483 -0.034674805 2.3509886e-38
-0.03116839 -0.077359483 -0.034674805 2.3509886e-38
-0.029201195 -0.07882306 -0.041778963 2.3509886e-38
-0.027277593 -0.07882306 -0.041778963 2.3509886e-38
-0.025309011 -0.079636171 -0.045725744 2.3509886e-38
-0.023378491 -0.079636171 -0.045725744 2.3509886e-38
-0.021447971 -0.079636171 -0.045725744 2.3509886e-38
-0.019517452 -0.079636171 -0.045725744 2.3509886e-38
-0.017513743 -0.080455169 -0.049701136 2.3509886e-38
-0.015576253 -0.080455169 -0.049701136 2.3509886e-38
-0.013638761 -0.080455169 -0.049701136 2.3509886e-38
-0.011701271 -0.080455169 -0.049701136 2.3509886e-38
-0.009763781 -0.080455169 -0.049701136 2.3509886e-38
-0.0078262892 -0.080455169 -0.049701136 2.3509886e-38
-0.0058887992 -0.080455169 -0.049701136 2.3325494e-38
-0.0039513092 -0.080455169 -0.049701136 2.3509886e-38
-0.0019155089 -0.081079558 -0.052731913 2.3325494e-38
2.7297065e-05 -0.081079558 -0.052731913 2.3509886e-38
0.0019700993 -0.081079558 -0.052731913 2.3509886e-38
0.0041757617 -0.082516089 -0.059704822 2.341769e-38
0.0062916335 -0.083356038 -0.063781902 2.3233662e-38
0.0082538109 -0.083356038 -0.063781902 2.341805e-38
0.010215988 -0.083356038 -0.063781902 2.341805e-38
0.01217817 -0.083356038 -0.063781902 2.341805e-38
0.014140347 -0.083356038 -0.063781902 2.341805e-38
0.016102528 -0.083356038 -0.063781902 2.3325856e-38
0.018064706 -0.083356038 -0.063781902 2.2864879e-38
0.019816006 -0.082516089 -0.059704822 2.3233662e-38
0.021613462 -0.081909031 -0.056758206 2.341805e-38
0.023563324 -0.081909031 -0.056758206 2.3142544e-38
0.025513189 -0.081909031 -0.056758206 2.2775202e-38
0.027463051 -0.081909031 -0.056758206 2.2132353e-38
0.02941292 -0.081909031 -0.056758206 2.2224189e-38
0.03154619 -0.082516089 -0.059704822 2.1120369e-38
0.032861017 -0.080455169 -0.049701136 2.0935622e-38
0.034798503 -0.080455169 -0.049701136 2.4032339e-39
0.036735997 -0.080455169 -0.049701136 1.4794881e-39
0.038883388 -0.081079558 -0.052731913 3.0442971e-39
-0.06939128 -0.079270631 -0.034674805 2.350988e-38
-0.067480139 -0.079270631 -0.034674805 2.3325131e-38
-0.065568991 -0.079270631 -0.034674805 2.3509524e-38
-0.063588426 -0.078661263 -0.031741899 2.3048545e-38
-0.061682425 -0.078661263 -0.031741899 2.3509883e-38
-0.059776418 -0.078661263 -0.031741899 2.3509883e-38
-0.057870418 -0.078661263 -0.031741899 2.2587564e-38
-0.055913888 -0.078030959 -0.028708261 2.3233652e-38
-0.0540132 -0.078030959 -0.028708261 2.3418045e-38
-0.05211252 -0.078030959 -0.028708261 2.3418045e-38
-0.050211839 -0.078030959 -0.028708261 2.2866308e-38
-0.048311152 -0.078030959 -0.028708261 2.268192e-38
-0.046410471 -0.078030959 -0.028708261 2.3050704e-38
-0.044509791 -0.078030959 -0.028708261 2.3142541e-38
-0.042609103 -0.078030959 -0.028708261 2.3142544e-38
-0.040708423 -0.078030959 -0.028708261 2.3142544e-38
-0.038807739 -0.078030959 -0.028708261 2.3234379e-38
-0.036907054 -0.078030959 -0.028708261 2.341805e-38
-0.035006374 -0.078030959 -0.028708261 2.3509886e-38
-0.033079535 -0.079270631 -0.034674805 2.3509886e-38
-0.03116839 -0.079270631 -0.034674805 2.3509886e-38
-0.029225573 -0.080104694 -0.038689177 2.3509886e-38
-0.027277593 -0.080746666 -0.041778963 2.3509886e-38
-0.025309011 -0.081566691 -0.045725744 2.3509886e-38
-0.023378491 -0.081566691 -0.045725744 2.3509886e-38
-0.021447971 -0.081566691 -0.045725744 2.3509886e-38
-0.019517452 -0.081566691 -0.045725744 2.3509886e-38
-0.017513743 -0.082392648 -0.049701136 2.3509886e-38
-0.015576253 -0.082392648 -0.049701136 2.3509886e-38
-0.013638761 -0.082392648 -0.049701136 2.3509886e-38
-0.011701271 -0.082392648 -0.049701136 2.3509886e-38
-0.0098648481 -0.081566691 -0.045725744 2.3509886e-38
-0.0079343282 -0.081566691 -0.045725744 2.3509886e-38
-0.0058887992 -0.082392648 -0.049701136 2.3509886e-38
-0.0039513092 -0.082392648 -0.049701136 2.2864516e-38
-0.0020138156 -0.082392648 -0.049701136 2.2956712e-38
2.7297065e-05 -0.083022356 -0.052731913 2.3509886e-38
0.0019700993 -0.083022356 -0.052731913 2.3509886e-38
0.0041757617 -0.084471121 -0.059704822 2.3509886e-38
0.0061307903 -0.084471121 -0.059704822 2.3048907e-38
0.0080858227 -0.084471121 -0.059704822 2.3048907e-38
0.010215988 -0.085318208 -0.063781902 2.3048907e-38
0.01217817 -0.085318208 -0.063781902 2.2680125e-38
0.014140347 -0.085318208 -0.063781902 2.2956712e-38
0.015905945 -0.084471121 -0.059704822 2.3509886e-38
0.017860973 -0.084471121 -0.059704822 2.3509886e-38
0.019663597 -0.083858907 -0.056758206 2.341769e-38
0.021613462 -0.083858907 -0.056758206 2.3141103e-38
0.023563324 -0.083858907 -0.056758206 2.3142539e-38
0.025513189 -0.083858907 -0.056758206 2.2683358e-38
0.027463051 -0.083858907 -0.056758206 2.1948308e-38
0.02941292 -0.083858907 -0.056758206 2.2316019e-38
0.031362779 -0.083858907 -0.056758206 2.2224189e-38
0.033312641 -0.083858907 -0.056758206 2.1119652e-38
0.034997776 -0.083022356 -0.052731913 1.6508452e-38
0.036940582 -0.083022356 -0.052731913 4.4286861e-39
0.038883388 -0.083022356 -0.052731913 2.2142015e-39
0.040610977 -0.082392648 -0.049701136 2.673372e-39
-0.069306433 -0.080567271 -0.031741899 1.4750213e-38
-0.067400433 -0.080567271 -0.031741899 2.1295737e-38
-0.065568991 -0.08118178 -0.034674805 2.3509514e-38
-0.063588426 -0.080567271 -0.031741899 2.3509513e-38
-0.061682425 -0.080567271 -0.031741899 2.3508432e-38
-0.059776418 -0.080567271 -0.031741899 2.3509517e-38
-0.057870418 -0.080567271 -0.031741899 2.3509516e-38
-0.055913888 -0.079931647 -0.028708261 2.3509876e-38
-0.0540132 -0.079931647 -0.028708261 2.3509518e-38
-0.05211252 -0.079931647 -0.028708261 2.3141456e-38
-0.050211839 -0.079931647 -0.028708261 2.2588282e-38
-0.048311152 -0.079931647 -0.028708261 2.2404254e-38
-0.046410471 -0.079931647 -0.028708261 2.277376e-38
-0.044509791 -0.079931647 -0.028708261 2.3234379e-38
-0.042609103 -0.079931647 -0.028708261 2.3234379e-38
-0.040716402 -0.080567271 -0.031741899 2.3142544e-38
-0.038810398 -0.080567271 -0.031741899 2.3234379e-38
-0.036904395 -0.080567271 -0.031741899 2.341805e-38
-0.034998395 -0.080567271 -0.031741899 2.3509886e-38
-0.033079535 -0.08118178 -0.034674805 2.3509886e-38
-0.03116839 -0.08118178 -0.034674805 2.3509886e-38
-0.029225573 -0.08202289 -0.038689177 2.3509886e-38
-0.027277593 -0.082670271 -0.041778963 2.3509886e-38
-0.025309011 -0.083497211 -0.045725744 2.3509886e-38
-0.023378491 -0.083497211 -0.045725744 2.3509886e-38
-0.021447971 -0.083497211 -0.045725744 2.3509886e-38
-0.019517452 -0.083497211 -0.045725744 2.3509886e-38
-0.017513743 -0.084330142 -0.049701136 2.3509886e-38
-0.015576253 -0.084330142 -0.049701136 2.3509886e-38
-0.013638761 -0.084330142 -0.049701136 2.3509886e-38
-0.011701271 -0.084330142 -0.049701136 2.3509886e-38
-0.0098648481 -0.083497211 -0.045725744 2.3509886e-38
-0.0079343282 -0.083497211 -0.045725744 2.3509886e-38
-0.0060038064 -0.083497211 -0.045725744 2.3509886e-38
-0.0040732864 -0.083497211 -0.045725744 2.341769e-38
-0.0020138156 -0.084330142 -0.049701136 2.3509886e-38
-7.632561e-05 -0.084330142 -0.049701136 2.3509886e-38
0.0018611643 -0.084330142 -0.049701136 2.2864516e-38
0.0039129052 -0.084965169 -0.052731913 2.3233299e-38
0.0060145464 -0.085808769 -0.056758206 2.3509886e-38
0.0079644118 -0.085808769 -0.056758206 2.3509886e-38
0.010040851 -0.086426154 -0.059704822 2.3509883e-38
0.011995884 -0.086426154 -0.059704822 2.3509883e-38
0.013950912 -0.086426154 -0.059704822 2.3509523e-38
0.015905945 -0.086426154 -0.059704822 2.3509523e-38
0.017860973 -0.086426154 -0.059704822 2.3509883e-38
0.019663597 -0.085808769 -0.056758206 2.3509883e-38
0.021613462 -0.085808769 -0.056758206 2.3509883e-38
0.023563324 -0.085808769 -0.056758206 2.3509879e-38
0.025283756 -0.084965169 -0.052731913 2.3234364e-38
0.027226562 -0.084965169 -0.052731913 2.2316e-38
0.029169368 -0.084965169 -0.052731913 2.2775192e-38
0.031112174 -0.084965169 -0.052731913 2.2040153e-38
0.033054978 -0.084965169 -0.052731913 2.2316024e-38
0.034997776 -0.084965169 -0.052731913 2.2499695e-38
0.036735997 -0.084330142 -0.049701136 1.9824986e-38
0.03867349 -0.084330142 -0.049701136 7.1923998e-39
0.04254847 -0.084330142 -0.049701136 7.3724975e-40
-0.069306433 -0.082473263 -0.031741899 2.9491699e-39
-0.067400433 -0.082473263 -0.031741899 1.9450379e-38
-0.065568991 -0.083092928 -0.034674805 2.3509502e-38
-0.063588426 -0.082473263 -0.031741899 2.3506984e-38
-0.061682425 -0.082473263 -0.031741899 2.3509149e-38
-0.059776418 -0.082473263 -0.031741899 2.350879e-38
-0.057870418 -0.082473263 -0.031741899 2.3508071e-38
-0.055913888 -0.081832334 -0.028708261 2.3509514e-38
-0.0540132 -0.081832334 -0.028708261 2.3508437e-38
-0.05211252 -0.081832334 -0.028708261 2.2125864e-38
-0.050211839 -0.081832334 -0.028708261 2.0281594e-38
-0.048311152 -0.081832334 -0.028708261 1.8991937e-38
-0.046410471 -0.081832334 -0.028708261 2.3509886e-38
-0.044509791 -0.081832334 -0.028708261 2.3509886e-38
-0.042609103 -0.081832334 -0.028708261 2.341805e-38
-0.040716402 -0.082473263 -0.031741899 2.2311708e-38
-0.038810398 -0.082473263 -0.031741899 2.341805e-38
-0.036904395 -0.082473263 -0.031741899 2.3509886e-38
-0.034990679 -0.083092928 -0.034674805 2.3509886e-38
-0.033079535 -0.083092928 -0.034674805 2.3509886e-38
-0.031143755 -0.083941072 -0.038689177 2.3509886e-38
-0.029201195 -0.084593862 -0.041778963 2.3509886e-38
-0.027277593 -0.084593862 -0.041778963 2.3509886e-38
-0.025353992 -0.084593862 -0.041778963 2.3509886e-38
-0.023378491 -0.085427731 -0.045725744 2.3509886e-38
-0.021447971 -0.085427731 -0.045725744 2.3509886e-38
-0.019517452 -0.085427731 -0.045725744 2.3509886e-38
-0.01758693 -0.085427731 -0.045725744 2.3509886e-38
-0.01565641 -0.085427731 -0.045725744 2.3509886e-38
-0.01372589 -0.085427731 -0.045725744 2.3509886e-38
-0.011795368 -0.085427731 -0.045725744 2.3509886e-38
-0.0098648481 -0.085427731 -0.045725744 2.3509886e-38
-0.0079343282 -0.085427731 -0.045725744 2.3509886e-38
-0.0060038064 -0.085427731 -0.045725744 2.3509886e-38
-0.0040732864 -0.085427731 -0.045725744 2.3509886e-38
-0.0021427665 -0.085427731 -0.045725744 2.3509886e-38
-0.00021224655 -0.085427731 -0.045725744 2.3509886e-38
0.0017182771 -0.085427731 -0.045725744 2.3509886e-38
0.0037986543 -0.086267635 -0.049701136 2.3509886e-38
0.0057361443 -0.086267635 -0.049701136 2.3509883e-38
0.0077985134 -0.086907968 -0.052731913 2.3509883e-38
0.0099142771 -0.087758631 -0.056758206 2.3509883e-38
0.011864139 -0.087758631 -0.056758206 2.3509883e-38
0.013950912 -0.088381186 -0.059704822 2.3509521e-38
0.015905945 -0.088381186 -0.059704822 2.3509521e-38
0.017860973 -0.088381186 -0.059704822 2.3509521e-38
0.019663597 -0.087758631 -0.056758206 2.3509521e-38
0.021613462 -0.087758631 -0.056758206 2.3509521e-38
0.023563324 -0.087758631 -0.056758206 2.3509876e-38
0.025283756 -0.086907968 -0.052731913 2.2865207e-38
0.027226562 -0.086907968 -0.052731913 2.3509863e-38
0.029169368 -0.086907968 -0.052731913 2.3234374e-38
0.031112174 -0.086907968 -0.052731913 2.249826e-38
0.033054978 -0.086907968 -0.052731913 2.2867037e-38
0.034997776 -0.086907968 -0.052731913 2.2775202e-38
0.036735997 -0.086267635 -0.049701136 2.1023511e-38
0.03867349 -0.086267635 -0.049701136 1.742752e-38
0.040610977 -0.086267635 -0.049701136 8.5753006e-39
-0.06939128 -0.085004061 -0.034674805 4.6061241e-40
-0.067480139 -0.085004061 -0.034674805 1.4932793e-38
-0.065568991 -0.085004061 -0.034674805 2.350914e-38
-0.06365785 -0.085004061 -0.034674805 2.3508783e-38
-0.061746702 -0.085004061 -0.034674805 2.3507705e-38
-0.059835561 -0.085004061 -0.034674805 2.3508068e-38
-0.057924412 -0.085004061 -0.034674805 2.2768707e-38
-0.055964418 -0.084379271 -0.031741899 2.1293939e-38
-0.054058418 -0.084379271 -0.031741899 2.203187e-38
-0.05211252 -0.083733007 -0.028708261 1.9543669e-38
-0.050211839 -0.083733007 -0.028708261 2.0373073e-38
-0.04834041 -0.084379271 -0.031741899 2.0465991e-38
-0.04643441 -0.084379271 -0.031741899 2.3509168e-38
-0.044528402 -0.084379271 -0.031741899 2.332478e-38
-0.042622402 -0.084379271 -0.031741899 2.3509527e-38
-0.040716402 -0.084379271 -0.031741899 2.3325138e-38
-0.038812969 -0.085004061 -0.034674805 2.3509886e-38
-0.036901824 -0.085004061 -0.034674805 2.3509886e-38
-0.034990679 -0.085004061 -0.034674805 2.3509886e-38
-0.033061936 -0.085859254 -0.038689177 2.3509886e-38
-0.031143755 -0.085859254 -0.038689177 2.3509886e-38
-0.029225573 -0.085859254 -0.038689177 2.3509886e-38
-0.027307389 -0.085859254 -0.038689177 2.3509886e-38
-0.025389206 -0.085859254 -0.038689177 2.3509886e-38
-0.023430392 -0.086517468 -0.041778963 2.3509886e-38
-0.021506792 -0.086517468 -0.041778963 2.3509886e-38
-0.019583192 -0.086517468 -0.041778963 2.3509886e-38
-0.01758693 -0.087358251 -0.045725744 2.3509886e-38
-0.01565641 -0.087358251 -0.045725744 2.3509886e-38
-0.01372589 -0.087358251 -0.045725744 2.3509886e-38
-0.011795368 -0.087358251 -0.045725744 2.3509886e-38
-0.0099651888 -0.086517468 -0.041778963 2.3509886e-38
-0.0080415867 -0.086517468 -0.041778963 2.3509886e-38
-0.0061179865 -0.086517468 -0.041778963 2.3509886e-38
-0.0041943882 -0.086517468 -0.041778963 2.3509886e-38
-0.0022707861 -0.086517468 -0.041778963 2.3509886e-38
-0.00034718402 -0.086517468 -0.041778963 2.3509886e-38
0.0017182771 -0.087358251 -0.045725744 2.3509886e-38
0.0036487971 -0.087358251 -0.045725744 2.3509886e-38
0.0057361443 -0.088205129 -0.049701136 2.3509883e-38
0.0076736379 -0.088205129 -0.049701136 2.3509883e-38
0.0097413193 -0.088850766 -0.052731913 2.3509883e-38
0.011864139 -0.089708492 -0.056758206 2.3509883e-38
0.013814004 -0.089708492 -0.056758206 2.3509521e-38
0.01576387 -0.089708492 -0.056758206 2.3509521e-38
0.017713731 -0.089708492 -0.056758206 2.3509521e-38
0.019663597 -0.089708492 -0.056758206 2.3509521e-38
0.021613462 -0.089708492 -0.056758206 2.3509521e-38
0.023340954 -0.088850766 -0.052731913 2.3509876e-38
0.025283756 -0.088850766 -0.052731913 2.3509506e-38
0.027226562 -0.088850766 -0.052731913 2.3509869e-38
0.029169368 -0.088850766 -0.052731913 2.3509168e-38
0.031112174 -0.088850766 -0.052731913 2.3141109e-38
0.033054978 -0.088850766 -0.052731913 2.3142544e-38
0.034997776 -0.088850766 -0.052731913 2.2958873e-38
0.036940582 -0.088850766 -0.052731913 2.2958873e-38
0.03867349 -0.088205129 -0.049701136 2.1577014e-38
0.040610977 -0.088205129 -0.049701136 2.3142544e-38
-0.067589231 -0.087777436 -0.038689177 5.8972693e-39
-0.065568991 -0.08691521 -0.034674805 1.5576723e-38
-0.063588426 -0.086285278 -0.031741899 2.0554931e-38
-0.061682425 -0.086285278 -0.031741899 2.2122257e-38
-0.059835561 -0.08691521 -0.034674805 2.3229685e-38
-0.057924412 -0.08691521 -0.034674805 2.3506279e-38
-0.056013271 -0.08691521 -0.034674805 2.1293586e-38
-0.054102123 -0.08691521 -0.034674805 2.1017364e-38
-0.052190982 -0.08691521 -0.034674805 2.0096489e-38
-0.050279833 -0.08691521 -0.034674805 1.972771e-38
-0.048368692 -0.08691521 -0.034674805 1.9543678e-38
-0.046457548 -0.08691521 -0.034674805 2.2771607e-38
-0.044546403 -0.08691521 -0.034674805 2.3509168e-38
-0.042635258 -0.08691521 -0.034674805 2.3509527e-38
-0.040724114 -0.08691521 -0.034674805 2.3509527e-38
-0.038812969 -0.08691521 -0.034674805 2.3140387e-38
-0.036901824 -0.08691521 -0.034674805 2.3509886e-38
-0.034990679 -0.08691521 -0.034674805 2.3509886e-38
-0.033079535 -0.08691521 -0.034674805 2.3509886e-38
-0.031143755 -0.087777436 -0.038689177 2.3509886e-38
-0.029225573 -0.087777436 -0.038689177 2.3509886e-38
-0.027307389 -0.087777436 -0.038689177 2.3509886e-38
-0.025389206 -0.087777436 -0.038689177 2.3509886e-38
-0.023471024 -0.087777436 -0.038689177 2.3509886e-38
-0.021506792 -0.088441074 -0.041778963 2.3509886e-38
-0.019583192 -0.088441074 -0.041778963 2.3509886e-38
-0.01758693 -0.089288771 -0.045725744 2.3509886e-38
-0.01565641 -0.089288771 -0.045725744 2.3509886e-38
-0.01372589 -0.089288771 -0.045725744 2.3509886e-38
-0.011795368 -0.089288771 -0.045725744 2.3509886e-38
-0.0099651888 -0.088441074 -0.041778963 2.3509886e-38
-0.0080415867 -0.088441074 -0.041778963 2.3509886e-38
-0.0062073749 -0.087777436 -0.038689177 2.3509886e-38
-0.0042891931 -0.087777436 -0.038689177 2.3509886e-38
-0.0022707861 -0.088441074 -0.041778963 2.3509886e-38
-0.00034718402 -0.088441074 -0.041778963 2.3509886e-38
0.0015764143 -0.088441074 -0.041778963 2.3509886e-38
0.0036487971 -0.089288771 -0.045725744 2.3509886e-38
0.005579317 -0.089288771 -0.045725744 2.3509886e-38
0.0076736379 -0.090142623 -0.049701136 2.3509886e-38
0.0097413193 -0.09079358 -0.052731913 2.3509883e-38
0.011684125 -0.09079358 -0.052731913 2.3509883e-38
0.013626928 -0.09079358 -0.052731913 2.3509883e-38
0.015569733 -0.09079358 -0.052731913 2.3509883e-38
0.017512539 -0.09079358 -0.052731913 2.3509883e-38
0.019455342 -0.09079358 -0.052731913 2.3509883e-38
0.021398148 -0.09079358 -0.052731913 2.3509883e-38
0.023340954 -0.09079358 -0.052731913 2.3509165e-38
0.025283756 -0.09079358 -0.052731913 2.3508451e-38
0.027226562 -0.09079358 -0.052731913 2.3507733e-38
0.029169368 -0.09079358 -0.052731913 2.3507374e-38
0.031112174 -0.09079358 -0.052731913 2.3508809e-38
0.032861017 -0.090142623 -0.049701136 2.3234379e-38
0.034798503 -0.090142623 -0.049701136 2.2958864e-38
0.036735997 -0.090142623 -0.049701136 2.3142527e-38
0.03867349 -0.090142623 -0.049701136 2.3142521e-38
0.040610977 -0.090142623 -0.049701136 2.2958847e-38
-0.063588426 -0.088191271 -0.031741899 7.7401113e-39
-0.061682425 -0.088191271 -0.031741899 9.4925499e-39
-0.059835561 -0.088826358 -0.034674805 1.096768e-38
-0.057924412 -0.088826358 -0.034674805 1.6684172e-38
-0.056080133 -0.089695618 -0.038689177 1.9357848e-38
-0.054208003 -0.090364665 -0.041778963 1.8805397e-38
-0.052284397 -0.090364665 -0.041778963 2.0464919e-38
-0.050360799 -0.090364665 -0.041778963 1.9267094e-38
-0.048407406 -0.089695618 -0.038689177 1.8621725e-38
-0.046489224 -0.089695618 -0.038689177 2.2310629e-38
-0.044546403 -0.088826358 -0.034674805 2.314039e-38
-0.042635258 -0.088826358 -0.034674805 2.3141106e-38
-0.040734671 -0.089695618 -0.038689177 2.3509886e-38
-0.038812969 -0.088826358 -0.034674805 2.3417691e-38
-0.036901824 -0.088826358 -0.034674805 2.3509886e-38
-0.034990679 -0.088826358 -0.034674805 2.3509886e-38
-0.033079535 -0.088826358 -0.034674805 2.3509886e-38
-0.03116839 -0.088826358 -0.034674805 2.3509886e-38
-0.029225573 -0.089695618 -0.038689177 2.3509886e-38
-0.027307389 -0.089695618 -0.038689177 2.3509886e-38
-0.025389206 -0.089695618 -0.038689177 2.3509886e-38
-0.023471024 -0.089695618 -0.038689177 2.3509886e-38
-0.021506792 -0.090364665 -0.041778963 2.3509886e-38
-0.019583192 -0.090364665 -0.041778963 2.3509886e-38
-0.01758693 -0.091219291 -0.045725744 2.3509886e-38
-0.01565641 -0.091219291 -0.045725744 2.3509886e-38
-0.01372589 -0.091219291 -0.045725744 2.3509886e-38
-0.011795368 -0.091219291 -0.045725744 2.3509886e-38
-0.0099651888 -0.090364665 -0.041778963 2.3509886e-38
-0.0081255585 -0.089695618 -0.038689177 2.3509886e-38
-0.0062073749 -0.089695618 -0.038689177 2.3509886e-38
-0.0042891931 -0.089695618 -0.038689177 2.3509886e-38
-0.0023710076 -0.089695618 -0.038689177 2.3509886e-38
-0.0004528258 -0.089695618 -0.038689177 2.3509886e-38
0.0015764143 -0.090364665 -0.041778963 2.3509886e-38
0.0035000164 -0.090364665 -0.041778963 2.3509886e-38
0.0054236148 -0.090364665 -0.041778963 2.3509886e-38
0.0075098369 -0.091219291 -0.045725744 2.3509886e-38
0.0096111279 -0.092080101 -0.049701136 2.3509886e-38
0.011548618 -0.092080101 -0.049701136 2.3509883e-38
0.013626928 -0.092736378 -0.052731913 2.3509527e-38
0.015569733 -0.092736378 -0.052731913 2.3509883e-38
0.017512539 -0.092736378 -0.052731913 2.3509527e-38
0.019455342 -0.092736378 -0.052731913 2.3509883e-38
0.021398148 -0.092736378 -0.052731913 2.3509527e-38
0.023340954 -0.092736378 -0.052731913 2.3509168e-38
0.025111051 -0.092080101 -0.049701136 2.3507733e-38
0.027048545 -0.092080101 -0.049701136 2.3507374e-38
0.028986039 -0.092080101 -0.049701136 2.3507733e-38
0.030923525 -0.092080101 -0.049701136 2.3509527e-38
0.032861017 -0.092080101 -0.049701136 2.341804e-38
0.034798503 -0.092080101 -0.049701136 2.2682623e-38
0.036735997 -0.092080101 -0.049701136 2.2683334e-38
0.03867349 -0.092080101 -0.049701136 2.3142517e-38
0.040610977 -0.092080101 -0.049701136 2.3142517e-38
0.04254847 -0.092080101 -0.049701136 2.2222359e-38
-0.063919425 -0.093149811 -0.045725744 2.4860646e-39
-0.061988905 -0.093149811 -0.045725744 2.6704559e-39
-0.059916504 -0.091613799 -0.038689177 4.6987597e-39
-0.057998322 -0.091613799 -0.038689177 1.1245368e-38
-0.056197338 -0.093149811 -0.045725744 1.5670759e-38
-0.054266818 -0.093149811 -0.045725744 1.6778185e-38
-0.052388579 -0.094017595 -0.049701136 1.7146966e-38
-0.050405778 -0.093149811 -0.045725744 1.67789e-38
-0.048475258 -0.093149811 -0.045725744 1.7148035e-38
-0.046513602 -0.092288271 -0.041778963 2.2957078e-38
-0.044571035 -0.091613799 -0.038689177 2.3233662e-38
-0.042652853 -0.091613799 -0.038689177 2.2865232e-38
-0.040734671 -0.091613799 -0.038689177 2.3418047e-38
-0.038812969 -0.090737507 -0.034674805 2.2773037e-38
-0.036901824 -0.090737507 -0.034674805 2.3509886e-38
-0.034990679 -0.090737507 -0.034674805 2.3509886e-38
-0.033079535 -0.090737507 -0.034674805 2.3509886e-38
-0.03116839 -0.090737507 -0.034674805 2.3509886e-38
-0.029257245 -0.090737507 -0.034674805 2.3509886e-38
-0.027346101 -0.090737507 -0.034674805 2.3509886e-38
-0.025434956 -0.090737507 -0.034674805 2.3509886e-38
-0.023471024 -0.091613799 -0.038689177 2.3509886e-38
-0.02155284 -0.091613799 -0.038689177 2.3509886e-38
-0.019583192 -0.092288271 -0.041778963 2.3509886e-38
-0.01758693 -0.093149811 -0.045725744 2.3509886e-38
-0.01565641 -0.093149811 -0.045725744 2.3509886e-38
-0.01372589 -0.093149811 -0.045725744 2.3509886e-38
-0.011795368 -0.093149811 -0.045725744 2.3509886e-38
-0.0099651888 -0.092288271 -0.041778963 2.3509886e-38
-0.0081255585 -0.091613799 -0.038689177 2.3509886e-38
-0.0062073749 -0.091613799 -0.038689177 2.3509886e-38
-0.0042891931 -0.091613799 -0.038689177 2.3509886e-38
-0.0023710076 -0.091613799 -0.038689177 2.3509886e-38
-0.0004528258 -0.091613799 -0.038689177 2.3509886e-38
0.0014653597 -0.091613799 -0.038689177 2.3509886e-38
0.0035000164 -0.092288271 -0.041778963 2.3509886e-38
0.0054236148 -0.092288271 -0.041778963 2.3509886e-38
0.0073472168 -0.092288271 -0.041778963 2.3509886e-38
0.0096111279 -0.094017595 -0.049701136 2.3509886e-38
0.011548618 -0.094017595 -0.049701136 2.341805e-38
0.013486108 -0.094017595 -0.049701136 2.3509886e-38
0.015569733 -0.094679192 -0.052731913 2.341805e-38
0.017512539 -0.094679192 -0.052731913 2.3509886e-38
0.019455342 -0.094679192 -0.052731913 2.341805e-38
0.021398148 -0.094679192 -0.052731913 2.3509886e-38
0.023340954 -0.094679192 -0.052731913 2.3509168e-38
0.025111051 -0.094017595 -0.049701136 2.3507016e-38
0.027048545 -0.094017595 -0.049701136 2.3507374e-38
0.028986039 -0.094017595 -0.049701136 2.3509168e-38
0.030923525 -0.094017595 -0.049701136 2.3509876e-38
0.032861017 -0.094017595 -0.049701136 2.3234362e-38
0.034798503 -0.094017595 -0.049701136 2.3142521e-38
0.036735997 -0.094017595 -0.049701136 2.3142527e-38
0.03867349 -0.094017595 -0.049701136 2.3142527e-38
0.040610977 -0.094017595 -0.049701136 2.2774819e-38
0.04254847 -0.094017595 -0.049701136 2.2958852e-38
0.044485956 -0.094017595 -0.049701136 2.2682623e-38
0.10696542 -0.091613799 -0.038689177 2.7593248e-40
0.10888362 -0.091613799 -0.038689177 3.6883297e-40
0.1108018 -0.091613799 -0.038689177 3.9937006e-43
-0.061988905 -0.095080331 -0.045725744 2.7554993e-40
-0.060058385 -0.095080331 -0.045725744 1.3811786e-39
-0.058127865 -0.095080331 -0.045725744 1.2889802e-39
-0.056263559 -0.095955089 -0.049701136 2.7554432e-40
-0.054326065 -0.095955089 -0.049701136 1.8432232e-39
-0.052388579 -0.095955089 -0.049701136 2.765534e-39
-0.050451085 -0.095955089 -0.049701136 7.3722452e-40
-0.048475258 -0.095080331 -0.045725744 3.5967226e-39
-0.046513602 -0.094211861 -0.041778963 1.9270331e-38
-0.044571035 -0.093531981 -0.038689177 2.3142544e-38
-0.042652853 -0.093531981 -0.038689177 2.2774832e-38
-0.040734671 -0.093531981 -0.038689177 2.3142534e-38
-0.038812969 -0.09264864 -0.034674805 2.3234372e-38
-0.036901824 -0.09264864 -0.034674805 2.3418047e-38
-0.034990679 -0.09264864 -0.034674805 2.3509886e-38
-0.033079535 -0.09264864 -0.034674805 2.3509886e-38
-0.03116839 -0.09264864 -0.034674805 2.3509886e-38
-0.029257245 -0.09264864 -0.034674805 2.3509886e-38
-0.027346101 -0.09264864 -0.034674805 2.3509886e-38
-0.025434956 -0.09264864 -0.034674805 2.3509886e-38
-0.023471024 -0.093531981 -0.038689177 2.3509886e-38
-0.02155284 -0.093531981 -0.038689177 2.3509886e-38
-0.019634657 -0.093531981 -0.038689177 2.3509886e-38
-0.01765959 -0.094211861 -0.041778963 2.3509886e-38
-0.015735989 -0.094211861 -0.041778963 2.3509886e-38
-0.013812389 -0.094211861 -0.041778963 2.3509886e-38
-0.011888789 -0.094211861 -0.041778963 2.3509886e-38
-0.0099651888 -0.094211861 -0.041778963 2.3509886e-38
-0.0081255585 -0.093531981 -0.038689177 2.3509886e-38
-0.0062073749 -0.093531981 -0.038689177 2.3509886e-38
-0.0042891931 -0.093531981 -0.038689177 2.3509886e-38
-0.0023710076 -0.093531981 -0.038689177 2.3509886e-38
-0.0004528258 -0.093531981 -0.038689177 2.3509886e-38
0.0014653597 -0.093531981 -0.038689177 2.3509886e-38
0.0035000164 -0.094211861 -0.041778963 2.3509886e-38
0.0054236148 -0.094211861 -0.041778963 2.3509886e-38
0.0073472168 -0.094211861 -0.041778963 2.341805e-38
0.0094403569 -0.095080331 -0.045725744 2.341805e-38
0.011370877 -0.095080331 -0.045725744 2.341805e-38
0.0133014 -0.095080331 -0.045725744 2.341805e-38
0.015423601 -0.095955089 -0.049701136 2.341805e-38
0.017361091 -0.095955089 -0.049701136 2.341805e-38
0.019455342 -0.09662199 -0.052731913 2.3234379e-38
0.021236071 -0.095955089 -0.049701136 2.341805e-38
0.023173561 -0.095955089 -0.049701136 2.3509527e-38
0.025111051 -0.095955089 -0.049701136 2.3508451e-38
0.027048545 -0.095955089 -0.049701136 2.3508451e-38
0.028986039 -0.095955089 -0.049701136 2.3509527e-38
0.030923525 -0.095955089 -0.049701136 2.3049978e-38
0.032861017 -0.095955089 -0.049701136 2.3050694e-38
0.034798503 -0.095955089 -0.049701136 2.3142531e-38
0.036735997 -0.095955089 -0.049701136 2.3142537e-38
0.03867349 -0.095955089 -0.049701136 2.2958504e-38
0.040328689 -0.095080331 -0.045725744 2.3418043e-38
0.042259209 -0.095080331 -0.045725744 2.3509873e-38
0.044485956 -0.095955089 -0.049701136 2.3141805e-38
0.10312906 -0.093531981 -0.038689177 2.7633606e-40
0.10504724 -0.093531981 -0.038689177 9.3886997e-44
0.10643402 -0.09264864 -0.034674805 3.688666e-40
0.10834517 -0.09264864 -0.034674805 4.6176708e-40
-0.063752867 -0.095450163 -0.038689177 2.7644984e-39
-0.061834686 -0.095450163 -0.038689177 7.3691063e-40
-0.059916504 -0.095450163 -0.038689177 2.4889835e-39
-0.0580552 -0.096135467 -0.041778963 1.2904347e-39
-0.056263559 -0.097892582 -0.049701136 4.610286e-40
-0.054326065 -0.097892582 -0.049701136 1.3833366e-39
-0.052388579 -0.097892582 -0.049701136 1.6613528e-39
-0.050451085 -0.097892582 -0.049701136 2.2420775e-44
-0.048513599 -0.097892582 -0.049701136 2.3996213e-39
-0.046513602 -0.096135467 -0.041778963 2.1207879e-38
-0.044571035 -0.095450163 -0.038689177 2.295887e-38
-0.042652853 -0.095450163 -0.038689177 2.2958863e-38
-0.040734671 -0.095450163 -0.038689177 2.213089e-38
-0.038812969 -0.094559789 -0.034674805 2.3050694e-38
-0.036901824 -0.094559789 -0.034674805 2.3418045e-38
-0.034990679 -0.094559789 -0.034674805 2.3509886e-38
-0.033079535 -0.094559789 -0.034674805 2.3509886e-38
-0.03116839 -0.094559789 -0.034674805 2.3509886e-38
-0.029257245 -0.094559789 -0.034674805 2.3509886e-38
-0.027346101 -0.094559789 -0.034674805 2.3509886e-38
-0.025434956 -0.094559789 -0.034674805 2.3509886e-38
-0.023471024 -0.095450163 -0.038689177 2.3509886e-38
-0.02155284 -0.095450163 -0.038689177 2.3509886e-38
-0.019634657 -0.095450163 -0.038689177 2.3509886e-38
-0.01765959 -0.096135467 -0.041778963 2.3509886e-38
-0.015798291 -0.095450163 -0.038689177 2.3509886e-38
-0.013880108 -0.095450163 -0.038689177 2.3509886e-38
-0.011961924 -0.095450163 -0.038689177 2.3509886e-38
-0.01004374 -0.095450163 -0.038689177 2.3509886e-38
-0.0081255585 -0.095450163 -0.038689177 2.3509886e-38
-0.0062073749 -0.095450163 -0.038689177 2.3509886e-38
-0.0042891931 -0.095450163 -0.038689177 2.3509886e-38
-0.0023710076 -0.095450163 -0.038689177 2.3509886e-38
-0.0004528258 -0.095450163 -0.038689177 2.3509886e-38
0.0014653597 -0.095450163 -0.038689177 2.3509886e-38
0.0033835415 -0.095450163 -0.038689177 2.3509886e-38
0.0053017233 -0.095450163 -0.038689177 2.341805e-38
0.0072199088 -0.095450163 -0.038689177 2.341805e-38
0.0094403569 -0.097010851 -0.045725744 2.341805e-38
0.011370877 -0.097010851 -0.045725744 2.3234379e-38
0.0133014 -0.097010851 -0.045725744 2.3234379e-38
0.015423601 -0.097892582 -0.049701136 2.3234379e-38
0.017361091 -0.097892582 -0.049701136 2.3234379e-38
0.019298581 -0.097892582 -0.049701136 2.3142544e-38
0.021236071 -0.097892582 -0.049701136 2.3234379e-38
0.023173561 -0.097892582 -0.049701136 2.3234379e-38
0.025111051 -0.097892582 -0.049701136 2.3509879e-38
0.027048545 -0.097892582 -0.049701136 2.3509879e-38
0.028986039 -0.097892582 -0.049701136 2.341805e-38
0.030923525 -0.097892582 -0.049701136 2.2774125e-38
0.032861017 -0.097892582 -0.049701136 2.2590454e-38
0.034798503 -0.097892582 -0.049701136 2.2867037e-38
0.036735997 -0.097892582 -0.049701136 2.3142544e-38
0.03867349 -0.097892582 -0.049701136 2.2958154e-38
0.040328689 -0.097010851 -0.045725744 2.3048907e-38
0.042259209 -0.097010851 -0.045725744 2.3509523e-38
0.10312906 -0.095450163 -0.038689177 5.532999e-40
0.10504724 -0.095450163 -0.038689177 9.1950403e-41
0.10643402 -0.094559789 -0.034674805 2.7668778e-40
0.10834517 -0.094559789 -0.034674805 3.6958827e-40
0.11025631 -0.094559789 -0.034674805 7.9453623e-43
-0.099006101 -0.092691094 -0.017766517 1.1104239e-39
-0.097124606 -0.092691094 -0.017766517 2.1263695e-39
-0.068902127 -0.092691094 -0.017766517 2.2378736e-42
-0.067020625 -0.092691094 -0.017766517 8.3200835e-40
-0.065417305 -0.095137119 -0.028708261 1.8628161e-40
-0.063588426 -0.095815286 -0.031741899 1.4766589e-39
-0.061682425 -0.095815286 -0.031741899 8.3164261e-40
-0.059835561 -0.096470937 -0.034674805 1.5684832e-39
-0.057924412 -0.096470937 -0.034674805 1.3844422e-39
-0.056263559 -0.099830076 -0.049701136 2.3982298e-39
-0.054326065 -0.099830076 -0.049701136 2.7807927e-40
-0.052388579 -0.099830076 -0.049701136 2.3989277e-39
-0.050451085 -0.099830076 -0.049701136 5.9945446e-39
-0.048513599 -0.099830076 -0.049701136 9.3139362e-39
-0.046513602 -0.098059073 -0.041778963 2.2958873e-38
-0.044571035 -0.097368345 -0.038689177 2.203799e-38
-0.042652853 -0.097368345 -0.038689177 2.2958863e-38
-0.040734671 -0.097368345 -0.038689177 2.2958857e-38
-0.038812969 -0.096470937 -0.034674805 2.3050691e-38
-0.036901824 -0.096470937 -0.034674805 2.3418045e-38
-0.034990679 -0.096470937 -0.034674805 2.3509886e-38
-0.033079535 -0.096470937 -0.034674805 2.3509886e-38
-0.03116839 -0.096470937 -0.034674805 2.3509886e-38
-0.029257245 -0.096470937 -0.034674805 2.3509886e-38
-0.027346101 -0.096470937 -0.034674805 2.3509886e-38
-0.025434956 -0.096470937 -0.034674805 2.3509886e-38
-0.023523811 -0.096470937 -0.034674805 2.3509886e-38
-0.02155284 -0.097368345 -0.038689177 2.3509886e-38
-0.019634657 -0.097368345 -0.038689177 2.3509886e-38
-0.017716473 -0.097368345 -0.038689177 2.3509527e-38
-0.015798291 -0.097368345 -0.038689177 2.3509527e-38
-0.013880108 -0.097368345 -0.038689177 2.3509527e-38
-0.011961924 -0.097368345 -0.038689177 2.3509527e-38
-0.01004374 -0.097368345 -0.038689177 2.3509527e-38
-0.0081255585 -0.097368345 -0.038689177 2.3509883e-38
-0.0062073749 -0.097368345 -0.038689177 2.350988e-38
-0.0042891931 -0.097368345 -0.038689177 2.3509879e-38
-0.0023710076 -0.097368345 -0.038689177 2.350988e-38
-0.0004528258 -0.097368345 -0.038689177 2.3509883e-38
0.0014653597 -0.097368345 -0.038689177 2.3509886e-38
0.0033835415 -0.097368345 -0.038689177 2.341805e-38
0.0053017233 -0.097368345 -0.038689177 2.3234379e-38
0.0072199088 -0.097368345 -0.038689177 2.3234379e-38
0.0092708189 -0.098059073 -0.041778963 2.3142544e-38
0.011194417 -0.098059073 -0.041778963 2.3142544e-38
0.0133014 -0.098941371 -0.045725744 2.3142544e-38
0.015041618 -0.098059073 -0.041778963 2.3142544e-38
0.01696522 -0.098059073 -0.041778963 2.323402e-38
0.01909296 -0.098941371 -0.045725744 2.323402e-38
0.021236071 -0.099830076 -0.049701136 2.323402e-38
0.023173561 -0.099830076 -0.049701136 2.3234379e-38
0.025111051 -0.099830076 -0.049701136 2.3142174e-38
0.027048545 -0.099830076 -0.049701136 2.3326206e-38
0.028986039 -0.099830076 -0.049701136 2.3234379e-38
0.030923525 -0.099830076 -0.049701136 2.2958873e-38
0.032861017 -0.099830076 -0.049701136 2.2867037e-38
0.034798503 -0.099830076 -0.049701136 2.2867037e-38
0.036735997 -0.099830076 -0.049701136 2.2867037e-38
0.03867349 -0.099830076 -0.049701136 2.2958873e-38
0.040610977 -0.099830076 -0.049701136 2.3142544e-38
0.04254847 -0.099830076 -0.049701136 2.2865243e-38
0.09804146 -0.095137119 -0.028708261 7.0091632e-39
0.099942133 -0.095137119 -0.028708261 1.9380406e-39
0.10223377 -0.095815286 -0.031741899 6.4693466e-40
0.10413978 -0.095815286 -0.031741899 4.7644148e-43
0.10604577 -0.095815286 -0.031741899 1.5442309e-42
0.10795178 -0.095815286 -0.031741899 2.7704091e-40
0.10985778 -0.095815286 -0.031741899 4.4561291e-43
-0.10630462 -0.087345809 0.014309246 1.2538991e-38
-0.10447936 -0.087345809 0.014309246 7.2852975e-39
-0.1026541 -0.087345809 0.014309246 1.7546667e-39
-0.10064763 -0.086670861 0.017304976 1.8952141e-40
-0.097124606 -0.094572589 -0.017766517 6.5123665e-40
-0.095243111 -0.094572589 -0.017766517 2.4944234e-39
-0.093361609 -0.094572589 -0.017766517 1.9412496e-39
-0.075958535 -0.091629088 -0.0047018938 7.3793344e-39
-0.074099943 -0.091629088 -0.0047018938 6.4577312e-39
-0.07090652 -0.095475003 -0.02177183 2.5938035e-42
-0.068902127 -0.094572589 -0.017766517 2.8098977e-40
-0.067020625 -0.094572589 -0.017766517 9.8415994e-41
-0.065417305 -0.097037792 -0.028708261 2.8317299e-40
-0.063516617 -0.097037792 -0.028708261 9.8418796e-41
-0.061682425 -0.097721294 -0.031741899 4.7798291e-42
-0.059835561 -0.098382086 -0.034674805 1.0182031e-39
-0.057924412 -0.098382086 -0.034674805 2.216019e-39
-0.056013271 -0.098382086 -0.034674805 1.7539506e-39
-0.054371238 -0.1024504 -0.052731913 3.7028611e-40
-0.052428432 -0.1024504 -0.052731913 8.3089012e-40
-0.050485626 -0.1024504 -0.052731913 8.7593401e-39
-0.04854282 -0.1024504 -0.052731913 1.4290708e-38
-0.046576105 -0.10176755 -0.049701136 2.3049991e-38
-0.044614218 -0.10087189 -0.045725744 2.3234379e-38
-0.042666398 -0.099982664 -0.041778963 2.3142532e-38
-0.040734671 -0.099286526 -0.038689177 2.3234361e-38
-0.038812969 -0.098382086 -0.034674805 2.3049972e-38
-0.036901824 -0.098382086 -0.034674805 2.3509883e-38
-0.034998395 -0.097721294 -0.031741899 2.3509886e-38
-0.033092391 -0.097721294 -0.031741899 2.3509527e-38
-0.03116839 -0.098382086 -0.034674805 2.3509527e-38
-0.029257245 -0.098382086 -0.034674805 2.3509527e-38
-0.027346101 -0.098382086 -0.034674805 2.3509527e-38
-0.025434956 -0.098382086 -0.034674805 2.3509527e-38
-0.023523811 -0.098382086 -0.034674805 2.3509527e-38
-0.02155284 -0.099286526 -0.038689177 2.3509527e-38
-0.019634657 -0.099286526 -0.038689177 2.3324778e-38
-0.017716473 -0.099286526 -0.038689177 2.3509527e-38
-0.015798291 -0.099286526 -0.038689177 2.3324055e-38
-0.013880108 -0.099286526 -0.038689177 2.3509164e-38
-0.011961924 -0.099286526 -0.038689177 2.3509524e-38
-0.01004374 -0.099286526 -0.038689177 2.3509524e-38
-0.0081255585 -0.099286526 -0.038689177 2.3509158e-38
-0.0063235108 -0.098382086 -0.034674805 2.3508428e-38
-0.0044123661 -0.098382086 -0.034674805 2.3509866e-38
-0.0025012214 -0.098382086 -0.034674805 2.3509873e-38
-0.0004528258 -0.099286526 -0.038689177 2.350988e-38
0.0014653597 -0.099286526 -0.038689177 2.3049273e-38
0.0033835415 -0.099286526 -0.038689177 2.2127688e-38
0.0054236148 -0.099982664 -0.041778963 2.3142185e-38
0.0073472168 -0.099982664 -0.041778963 2.2958514e-38
0.0092708189 -0.099982664 -0.041778963 2.2958155e-38
0.011194417 -0.099982664 -0.041778963 2.2958155e-38
0.013118019 -0.099982664 -0.041778963 2.2958155e-38
0.01489264 -0.099286526 -0.038689177 2.3049273e-38
0.016810821 -0.099286526 -0.038689177 2.295672e-38
0.018729007 -0.099286526 -0.038689177 2.3416974e-38
0.02102348 -0.10087189 -0.045725744 2.3508451e-38
0.022954004 -0.10087189 -0.045725744 2.3508809e-38
0.024884524 -0.10087189 -0.045725744 2.3417333e-38
0.027048545 -0.10176755 -0.049701136 2.3417333e-38
0.028986039 -0.10176755 -0.049701136 2.3233662e-38
0.030923525 -0.10176755 -0.049701136 2.2958155e-38
0.032861017 -0.10176755 -0.049701136 2.286632e-38
0.034798503 -0.10176755 -0.049701136 2.2774484e-38
0.036735997 -0.10176755 -0.049701136 2.2591172e-38
0.03867349 -0.10176755 -0.049701136 2.2499336e-38
0.040610977 -0.10176755 -0.049701136 2.2499336e-38
0.096140772 -0.097037792 -0.028708261 3.3256456e-39
0.09804146 -0.097037792 -0.028708261 3.048337e-39
0.099942133 -0.097037792 -0.028708261 1.2962543e-39
0.10184282 -0.097037792 -0.028708261 1.5470335e-42
0.10374351 -0.097037792 -0.028708261 3.7248475e-40
0.1056442 -0.097037792 -0.028708261 9.4814657e-41
0.10754487 -0.097037792 -0.028708261 9.10844e-44
0.10944556 -0.097037792 -0.028708261 7.3729739e-40
-0.10812987 -0.089171067 0.014309246 1.0602134e-38
-0.10630462 -0.089171067 0.014309246 1.2630815e-38
-0.10428764 -0.088490874 0.017304976 1.1157147e-38
-0.10246764 -0.088490874 0.017304976 5.8127051e-39
-0.10064763 -0.088490874 0.017304976 3.7462734e-40
-0.10053466 -0.095089734 -0.011757653 4.4267018e-42
-0.098433301 -0.094171658 -0.0077143125 4.4337083e-42
-0.096792735 -0.095089734 -0.011757653 5.5975988e-40
-0.094921768 -0.095089734 -0.011757653 1.4802742e-39
-0.093050808 -0.095089734 -0.011757653 7.4270921e-40
-0.075958535 -0.09348768 -0.0047018938 6.3659041e-39
-0.074099943 -0.09348768 -0.0047018938 5.5361407e-39
-0.072241351 -0.09348768 -0.0047018938 2.813457e-40
-0.07090652 -0.097363517 -0.02177183 1.8914727e-40
-0.068902127 -0.096454084 -0.017766517 6.5121422e-40
-0.067020625 -0.096454084 -0.017766517 6.9420326e-42
-0.065417305 -0.09893848 -0.028708261 8.0294402e-42
-0.063516617 -0.09893848 -0.028708261 6.2287717e-42
-0.061746702 -0.10029322 -0.034674805 4.422498e-42
-0.059835561 -0.10029322 -0.034674805 7.4234487e-40
-0.057187989 -0.091210663 0.0053264685 3.4149265e-39
-0.055346981 -0.091210663 0.0053264685 5.994958e-39
-0.053505972 -0.091210663 0.0053264685 7.3771582e-39
-0.052428432 -0.1043932 -0.052731913 7.4686237e-39
-0.050485626 -0.1043932 -0.052731913 1.3644638e-38
-0.048581652 -0.10530742 -0.056758206 1.7055505e-38
-0.046600018 -0.1043932 -0.052731913 2.3417333e-38
-0.044614218 -0.10280241 -0.045725744 2.3417691e-38
-0.042666398 -0.10190627 -0.041778963 2.341805e-38
-0.040734671 -0.10120471 -0.038689177 2.350988e-38
-0.038812969 -0.10029322 -0.034674805 2.350988e-38
-0.036901824 -0.10029322 -0.034674805 2.3233302e-38
-0.034998395 -0.099627286 -0.031741899 2.3325138e-38
-0.033092391 -0.099627286 -0.031741899 2.3509527e-38
-0.031186389 -0.099627286 -0.031741899 2.3509527e-38
-0.029280387 -0.099627286 -0.031741899 2.3509527e-38
-0.027374383 -0.099627286 -0.031741899 2.3509168e-38
-0.025434956 -0.10029322 -0.034674805 2.3509168e-38
-0.023523811 -0.10029322 -0.034674805 2.3509168e-38
-0.021612667 -0.10029322 -0.034674805 2.3324421e-38
-0.020250665 -0.092807561 -0.001706522 2.3324421e-38
-0.018397324 -0.092807561 -0.001706522 2.3509168e-38
-0.016745055 -0.09054333 0.0082655735 2.3509168e-38
-0.013880108 -0.10120471 -0.038689177 2.3509168e-38
-0.011961924 -0.10120471 -0.038689177 2.3509168e-38
-0.01004374 -0.10120471 -0.038689177 2.3508809e-38
-0.0081255585 -0.10120471 -0.038689177 2.3509527e-38
-0.0063235108 -0.10029322 -0.034674805 2.3140013e-38
-0.0044123661 -0.10029322 -0.034674805 2.3509876e-38
-0.0025012214 -0.10029322 -0.034674805 2.3232936e-38
-0.0004528258 -0.10120471 -0.038689177 2.3509527e-38
0.0014653597 -0.10120471 -0.038689177 2.3233662e-38
0.0033835415 -0.10120471 -0.038689177 2.2681572e-38
0.0053017233 -0.10120471 -0.038689177 2.1114271e-38
0.0073472168 -0.10190627 -0.041778963 1.6689269e-38
0.0092708189 -0.10190627 -0.041778963 1.5582568e-38
0.011194417 -0.10190627 -0.041778963 1.5766961e-38
0.013118019 -0.10190627 -0.041778963 1.5674046e-38
0.014699081 -0.10029322 -0.034674805 1.5397095e-38
0.016610226 -0.10029322 -0.034674805 1.5672959e-38
0.018729007 -0.10120471 -0.038689177 1.6317962e-38
0.02102348 -0.10280241 -0.045725744 1.6961532e-38
0.022954004 -0.10280241 -0.045725744 1.6961532e-38
0.024884524 -0.10280241 -0.045725744 1.7054448e-38
0.027048545 -0.10370506 -0.049701136 1.7423954e-38
0.028986039 -0.10370506 -0.049701136 1.6871502e-38
0.030923525 -0.10370506 -0.049701136 1.3921968e-38
0.032861017 -0.10370506 -0.049701136 9.3121944e-39
0.034798503 -0.10370506 -0.049701136 4.7038563e-39
0.036735997 -0.10370506 -0.049701136 1.9383531e-39
0.03867349 -0.10370506 -0.049701136 7.4053439e-40
0.040610977 -0.10370506 -0.049701136 1.8807948e-40
0.055736288 -0.092807561 -0.001706522 8.3564472e-40
0.05758962 -0.092807561 -0.001706522 2.1242227e-39
0.059442967 -0.092807561 -0.001706522 1.2933859e-39
0.085028261 -0.095757127 -0.014696997 9.9658693e-39
0.086904377 -0.095757127 -0.014696997 1.217857e-38
0.087954089 -0.094171658 -0.0077143125 1.328456e-38
0.089817956 -0.094171658 -0.0077143125 1.079636e-38
0.092174545 -0.095089734 -0.011757653 8.3992737e-39
0.094045505 -0.095089734 -0.011757653 6.4620865e-39
0.096284956 -0.095757127 -0.014696997 6.6461134e-39
0.099060401 -0.097363517 -0.02177183 6.7375831e-39
0.10094893 -0.097363517 -0.02177183 4.984783e-39
0.10283744 -0.097363517 -0.02177183 5.998209e-39
