# .PCD v0.7 - Point Cloud Data file format
VERSION 0.7
FIELDS x y z rgb
SIZE 4 4 4 4
TYPE F F F F
COUNT 1 1 1 1
WIDTH 932
HEIGHT 1
VIEWPOINT 0 0 0 1 0 0 0
POINTS 932
DATA ascii
-0.0087129381 -0.098335579 -0.031345557 2.3416974e-38
-0.0068314392 -0.098335579 -0.031345557 2.3323702e-38
-0.0049499404 -0.098335579 -0.031345557 2.3509168e-38
-0.0028291028 -0.099937305 -0.038345765 2.3509168e-38
-0.00093533285 -0.099937305 -0.038345765 2.3508809e-38
0.00084554218 -0.099252045 -0.03535087 2.3508809e-38
0.0027340632 -0.099252045 -0.03535087 2.3508451e-38
0.0047459844 -0.099937305 -0.038345765 2.3047838e-38
0.0066397581 -0.099937305 -0.038345765 2.3232944e-38
0.0087097567 -0.10083917 -0.042287301 2.3232944e-38
0.010610441 -0.10083917 -0.042287301 2.3232585e-38
0.01279881 -0.10220437 -0.048253845 2.295672e-38
0.014709955 -0.10220437 -0.048253845 2.314075e-38
0.0166211 -0.10220437 -0.048253845 2.2957438e-38
0.018532244 -0.10220437 -0.048253845 2.2957438e-38
0.020443389 -0.10220437 -0.048253845 2.2865602e-38
0.022354534 -0.10220437 -0.048253845 1.7426129e-38
0.024265679 -0.10220437 -0.048253845 1.4476596e-38
0.026606554 -0.10382988 -0.055358004 1.4291851e-38
0.028530153 -0.10382988 -0.055358004 9.1292633e-39
0.027698638 -0.093979403 -0.012307119 7.2846431e-39
0.029280173 -0.093051672 -0.0082525723 3.3198793e-39
0.031121181 -0.093051672 -0.0082525723 3.5049992e-39
0.052855015 -0.096960694 -0.025336694 2.8282127e-40
0.053836018 -0.094660893 -0.015285563 1.4792163e-39
0.05568935 -0.094660893 -0.015285563 1.4774254e-39
0.057542697 -0.094660893 -0.015285563 2.2135597e-39
0.06033887 -0.096960694 -0.025336694 1.0146634e-39
0.06220983 -0.096960694 -0.025336694 1.6596755e-39
0.069278955 -0.09603554 -0.021293353 1.1122428e-39
0.072687164 -0.095346272 -0.018280935 1.4813757e-39
0.074545756 -0.095346272 -0.018280935 1.5732098e-39
0.079375759 -0.097633243 -0.028276037 2.3104091e-39
0.081251875 -0.097633243 -0.028276037 3.5082264e-39
0.082790419 -0.096960694 -0.025336694 3.6922533e-39
0.084661394 -0.096960694 -0.025336694 3.3227407e-39
0.086053818 -0.09603554 -0.021293353 4.3368828e-39
0.087917686 -0.09603554 -0.021293353 4.5209069e-39
0.090632454 -0.097633243 -0.028276037 6.4580886e-39
0.093383089 -0.099252045 -0.03535087 6.4584487e-39
0.095271617 -0.099252045 -0.03535087 6.091464e-39
0.097160131 -0.099252045 -0.03535087 4.3404715e-39
0.09994255 -0.10083917 -0.042287301 9.2959338e-40
0.10132837 -0.099937305 -0.038345765 5.4762744e-42
0.10322215 -0.099937305 -0.038345765 7.0064923e-44
0.1056446 -0.10083917 -0.042287301 1.8609244e-42
0.10700969 -0.099937305 -0.038345765 3.231938e-39
0.10890347 -0.099937305 -0.038345765 5.9960006e-39
0.11134665 -0.10083917 -0.042287301 7.9331822e-39
0.11324733 -0.10083917 -0.042287301 9.9643643e-39
0.11514802 -0.10083917 -0.042287301 1.0243113e-38
0.11748752 -0.10153329 -0.045320939 1.1072888e-38
0.11939351 -0.10153329 -0.045320939 7.937885e-39
0.12129952 -0.10153329 -0.045320939 4.8028832e-39
0.1236452 -0.10220437 -0.048253845 4.0301344e-42
0.12555633 -0.10220437 -0.048253845 4.2038954e-43
0.12746748 -0.10220437 -0.048253845 4.0091149e-42
-0.10617685 -0.098831654 -0.025336694 7.007668e-39
-0.10430589 -0.098831654 -0.025336694 6.8239844e-39
-0.10243493 -0.098831654 -0.025336694 5.3488389e-39
-0.10016191 -0.097204864 -0.018280935 3.5052879e-39
-0.040701926 -0.10114056 -0.03535087 1.2629031e-38
-0.038819611 -0.099509358 -0.028276037 1.3182556e-38
-0.036951222 -0.098831654 -0.025336694 2.3140033e-38
-0.035080262 -0.098831654 -0.025336694 2.3140033e-38
-0.033209294 -0.098831654 -0.025336694 2.314075e-38
-0.031370234 -0.097899407 -0.021293353 2.3509527e-38
-0.029506361 -0.097899407 -0.021293353 2.3509527e-38
-0.027676817 -0.097204864 -0.018280935 2.3325138e-38
-0.025857616 -0.09651424 -0.015285563 2.3233662e-38
-0.024004275 -0.09651424 -0.015285563 2.3509527e-38
-0.022150936 -0.09651424 -0.015285563 2.341805e-38
-0.02018699 -0.097899407 -0.021293353 2.341805e-38
-0.018323118 -0.097899407 -0.021293353 2.3234379e-38
-0.016459243 -0.097899407 -0.021293353 2.341805e-38
-0.014595369 -0.097899407 -0.021293353 2.3234376e-38
-0.012628701 -0.098831654 -0.025336694 2.3418047e-38
-0.010757737 -0.098831654 -0.025336694 2.3509886e-38
-0.0087129381 -0.10021709 -0.031345557 2.3509168e-38
-0.0068314392 -0.10021709 -0.031345557 2.3508451e-38
-0.0049499404 -0.10021709 -0.031345557 2.3508092e-38
-0.0028291028 -0.10183108 -0.038345765 2.3414822e-38
-0.00093533285 -0.10183108 -0.038345765 2.1479457e-38
0.00084554218 -0.10114056 -0.03535087 2.0465674e-38
0.0027340632 -0.10114056 -0.03535087 1.9820672e-38
0.0049083885 -0.10273984 -0.042287301 1.8622497e-38
0.0068090726 -0.10273984 -0.042287301 1.3645381e-38
0.010277899 -0.11082654 -0.077360943 6.2697386e-39
0.012240076 -0.11082654 -0.077360943 3.8726565e-39
0.014005674 -0.10988651 -0.073283866 2.8588703e-39
0.015460821 -0.10758002 -0.06328018 3.1361802e-39
0.017398311 -0.10758002 -0.06328018 3.0443461e-39
0.018532244 -0.1041155 -0.048253845 5.8102178e-39
0.020443389 -0.1041155 -0.048253845 7.0094869e-39
0.022354534 -0.1041155 -0.048253845 9.7750069e-39
0.024265679 -0.1041155 -0.048253845 8.0236542e-39
0.024002405 -0.09582752 -0.012307119 7.8389099e-39
0.025850521 -0.09582752 -0.012307119 3.9663403e-39
0.027698638 -0.09582752 -0.012307119 5.4411186e-39
0.029280173 -0.094892681 -0.0082525723 2.7674496e-39
0.031121181 -0.094892681 -0.0082525723 3.1365978e-39
0.032962188 -0.094892681 -0.0082525723 1.107938e-39
0.034594491 -0.094215035 -0.0053134672 1.477801e-39
0.036209837 -0.093516305 -0.0022829287 2.1231704e-39
0.037815847 -0.092821583 0.00073020533 2.7685384e-39
0.039412625 -0.092130885 0.0037259348 3.0458413e-39
0.041232631 -0.092130885 0.0037259348 2.9539988e-39
0.043532014 -0.093516305 -0.0022829287 2.6774105e-39
0.045362547 -0.093516305 -0.0022829287 2.4930165e-39
0.047445491 -0.094215035 -0.0053134672 2.3100559e-39
0.049531281 -0.094892681 -0.0082525723 2.0345354e-39
0.051724181 -0.09582752 -0.012307119 1.3895234e-39
0.053572297 -0.09582752 -0.012307119 2.3093273e-39
0.055420414 -0.09582752 -0.012307119 2.3075378e-39
0.05726853 -0.09582752 -0.012307119 3.5046475e-39
0.059396043 -0.09651424 -0.015285563 3.1347887e-39
0.061249375 -0.09651424 -0.015285563 4.2411391e-39
0.063102722 -0.09651424 -0.015285563 4.334055e-39
0.064956054 -0.09651424 -0.015285563 2.2149904e-39
0.066809401 -0.09651424 -0.015285563 1.2948264e-39
0.069278955 -0.097899407 -0.021293353 1.7572381e-39
0.071142837 -0.097899407 -0.021293353 1.4813617e-39
0.072687164 -0.097204864 -0.018280935 1.4809973e-39
0.074545756 -0.097204864 -0.018280935 1.5724699e-39
0.077177539 -0.098831654 -0.025336694 9.263788e-40
0.079048499 -0.098831654 -0.025336694 1.6639438e-39
0.080919459 -0.098831654 -0.025336694 4.0609629e-42
0.082790419 -0.098831654 -0.025336694 1.756494e-39
0.084661394 -0.098831654 -0.025336694 3.6918763e-39
0.086532354 -0.098831654 -0.025336694 4.4290742e-39
0.088756338 -0.099509358 -0.028276037 4.1521216e-39
0.090632454 -0.099509358 -0.028276037 7.5644361e-39
0.092887998 -0.10021709 -0.031345557 8.11797e-39
0.094769493 -0.10021709 -0.031345557 5.1691504e-39
0.096650988 -0.10021709 -0.031345557 5.5390147e-39
0.099434599 -0.10183108 -0.038345765 5.5393749e-39
0.10093717 -0.10114056 -0.03535087 5.7241221e-39
0.1028257 -0.10114056 -0.03535087 8.1208413e-39
0.10511592 -0.10183108 -0.038345765 1.2452946e-38
0.10700969 -0.10183108 -0.038345765 2.0565051e-38
0.10890347 -0.10183108 -0.038345765 2.0286675e-38
0.11134665 -0.10273984 -0.042287301 1.8628949e-38
0.11324733 -0.10273984 -0.042287301 1.5313862e-38
0.11514802 -0.10273984 -0.042287301 1.2641993e-38
0.1170487 -0.10273984 -0.042287301 1.1812245e-38
0.11894938 -0.10273984 -0.042287301 8.6772437e-39
0.12085007 -0.10273984 -0.042287301 6.925175e-39
0.12320553 -0.10343929 -0.045320939 2.8529176e-40
0.12555633 -0.1041155 -0.048253845 2.9371216e-42
0.12746748 -0.1041155 -0.048253845 2.5657775e-42
-0.11011204 -0.10138547 -0.028276037 5.0730241e-39
-0.10778907 -0.099763289 -0.021293353 5.8098689e-39
-0.10592519 -0.099763289 -0.021293353 6.5463409e-39
-0.10406132 -0.099763289 -0.021293353 7.0073037e-39
-0.1020205 -0.099063456 -0.018280935 6.3622734e-39
-0.10016191 -0.099063456 -0.018280935 4.9797019e-39
-0.098303318 -0.099063456 -0.018280935 3.1368935e-39
-0.095589206 -0.095346853 -0.0022829287 1.4777491e-39
-0.093602814 -0.094646841 0.00073020533 3.0447203e-39
-0.038819611 -0.10138547 -0.028276037 1.4473308e-38
-0.036951222 -0.10070263 -0.025336694 2.1572726e-38
-0.035097983 -0.099763289 -0.021293353 2.221809e-38
-0.033234108 -0.099763289 -0.021293353 2.3417333e-38
-0.031370234 -0.099763289 -0.021293353 2.3232944e-38
-0.029506361 -0.099763289 -0.021293353 2.2956362e-38
-0.027710956 -0.098367572 -0.015285563 2.3417333e-38
-0.025857616 -0.098367572 -0.015285563 2.323402e-38
-0.024004275 -0.098367572 -0.015285563 2.3325497e-38
-0.022150936 -0.098367572 -0.015285563 2.3234379e-38
-0.020297594 -0.098367572 -0.015285563 2.3234379e-38
-0.018323118 -0.099763289 -0.021293353 2.3142544e-38
-0.016459243 -0.099763289 -0.021293353 2.3050349e-38
-0.014595369 -0.099763289 -0.021293353 2.3050708e-38
-0.014002837 -0.088145852 0.028713513 2.2865958e-38
-0.010594437 -0.10209858 -0.031345557 2.2588295e-38
-0.0087129381 -0.10209858 -0.031345557 1.9634809e-38
-0.0068314392 -0.10209858 -0.031345557 1.9541183e-38
-0.0048200209 -0.10302909 -0.03535087 1.9817415e-38
-0.0029314999 -0.10302909 -0.03535087 1.9633753e-38
-0.0010429788 -0.10302909 -0.03535087 1.898875e-38
0.00084554218 -0.10302909 -0.03535087 1.8621055e-38
0.0027340632 -0.10302909 -0.03535087 1.7607995e-38
0.0049083885 -0.10464053 -0.042287301 1.5857368e-38
0.0068090726 -0.10464053 -0.042287301 1.1433064e-38
0.010095613 -0.11184154 -0.073283866 1.3841115e-39
0.012050642 -0.11184154 -0.073283866 2.2644983e-42
0.014005674 -0.11184154 -0.073283866 2.6302372e-42
0.015612269 -0.11022164 -0.066310957 1.1939063e-42
0.017398311 -0.10951753 -0.06328018 1.4792065e-39
0.019335801 -0.10951753 -0.06328018 6.3659378e-39
0.021273291 -0.10951753 -0.06328018 7.3800925e-39
0.01956326 -0.094646841 0.00073020533 1.0698779e-38
0.021388518 -0.094646841 0.00073020533 1.0237801e-38
0.023213776 -0.094646841 0.00073020533 8.2095014e-39
0.025415214 -0.096050888 -0.0053134672 5.4432766e-39
0.027057128 -0.095346853 -0.0022829287 6.3652371e-39
0.028887669 -0.095346853 -0.0022829287 2.8614473e-39
0.031121181 -0.096733689 -0.0082525723 1.6629097e-39
0.032758638 -0.096050888 -0.0053134672 2.9536485e-39
0.034379296 -0.095346853 -0.0022829287 2.8614529e-39
0.036209837 -0.095346853 -0.0022829287 2.5848632e-39
0.037815847 -0.094646841 0.00073020533 2.2164338e-39
0.039412625 -0.093950883 0.0037259348 1.6643348e-39
0.041232631 -0.093950883 0.0037259348 1.388101e-39
0.043291628 -0.094646841 0.00073020533 1.4806512e-39
0.045362547 -0.095346853 -0.0022829287 1.6650397e-39
0.047445491 -0.096050888 -0.0053134672 1.7579485e-39
0.049531281 -0.096733689 -0.0082525723 8.3634677e-40
0.05137229 -0.096733689 -0.0082525723 1.7579401e-39
0.053572297 -0.097675636 -0.012307119 3.8762886e-39
0.055420414 -0.097675636 -0.012307119 3.8748509e-39
0.05726853 -0.097675636 -0.012307119 4.1496455e-39
0.059116647 -0.097675636 -0.012307119 2.8581906e-39
0.061249375 -0.098367572 -0.015285563 3.5957557e-39
0.063102722 -0.098367572 -0.015285563 3.8727027e-39
0.064956054 -0.098367572 -0.015285563 1.7539955e-39
0.067111388 -0.099063456 -0.018280935 1.478482e-39
0.069278955 -0.099763289 -0.021293353 1.7561423e-39
0.071142837 -0.099763289 -0.021293353 9.2745219e-40
0.072687164 -0.099063456 -0.018280935 1.295869e-39
0.074545756 -0.099063456 -0.018280935 2.7702746e-39
0.077177539 -0.10070263 -0.025336694 2.7695529e-39
0.079048499 -0.10070263 -0.025336694 3.1383354e-39
0.080919459 -0.10070263 -0.025336694 2.4025711e-39
0.082790419 -0.10070263 -0.025336694 3.1401361e-39
0.084661394 -0.10070263 -0.025336694 4.9833228e-39
0.086532354 -0.10070263 -0.025336694 5.0747968e-39
0.088403314 -0.10070263 -0.025336694 4.4290658e-39
0.090632454 -0.10138547 -0.028276037 4.6134571e-39
0.092508569 -0.10138547 -0.028276037 5.9045575e-39
0.094769493 -0.10209858 -0.031345557 5.6297684e-39
0.096650988 -0.10209858 -0.031345557 7.7506309e-39
0.099048659 -0.10302909 -0.03535087 7.6595114e-39
0.10093717 -0.10302909 -0.03535087 7.0148595e-39
0.1028257 -0.10302909 -0.03535087 1.2638782e-38
0.10511592 -0.10372485 -0.038345765 1.5219168e-38
0.10700969 -0.10372485 -0.038345765 1.9643466e-38
0.10890347 -0.10372485 -0.038345765 1.8443832e-38
0.11079724 -0.10372485 -0.038345765 1.8722215e-38
0.11324733 -0.10464053 -0.042287301 1.7343598e-38
0.11514802 -0.10464053 -0.042287301 1.3104767e-38
0.1170487 -0.10464053 -0.042287301 1.1353061e-38
0.11894938 -0.10464053 -0.042287301 8.8634272e-39
0.12085007 -0.10464053 -0.042287301 8.3091842e-39
0.12320553 -0.10534529 -0.045320939 1.6696597e-39
0.12555633 -0.10602666 -0.048253845 5.0909173e-42
0.12746748 -0.10602666 -0.048253845 1.1210388e-42
-0.12160286 -0.10398008 -0.031345557 8.2993765e-39
-0.11972137 -0.10398008 -0.031345557 7.5639793e-39
-0.11783986 -0.10398008 -0.031345557 5.4453001e-39
-0.11595836 -0.10398008 -0.031345557 3.3255447e-39
-0.11386429 -0.1032616 -0.028276037 6.5082887e-40
-0.11198816 -0.1032616 -0.028276037 5.5757946e-40
-0.10991879 -0.10257359 -0.025336694 8.3274403e-40
-0.10778907 -0.10162716 -0.021293353 1.2930061e-39
-0.10592519 -0.10162716 -0.021293353 1.9372853e-39
-0.10387909 -0.10092205 -0.018280935 3.2272871e-39
-0.10184456 -0.10022092 -0.015285563 5.6243552e-39
-0.099590458 -0.098574698 -0.0082525723 7.7455764e-39
-0.097587124 -0.097886756 -0.0053134672 8.39205e-39
-0.095589206 -0.097177386 -0.0022829287 6.2719247e-39
-0.093602814 -0.096472099 0.00073020533 7.4701105e-39
-0.091627859 -0.095770895 0.0037259348 5.4418067e-39
-0.089807853 -0.095770895 0.0037259348 6.0875306e-39
-0.08798784 -0.095770895 0.0037259348 2.5833708e-39
-0.086167842 -0.095770895 0.0037259348 2.4915297e-39
-0.084047407 -0.094133899 0.010719586 3.7067567e-40
-0.081993908 -0.092737779 0.016684104 1.9372993e-39
-0.079959966 -0.091333628 0.022682954 1.753285e-39
-0.038819611 -0.1032616 -0.028276037 1.1246475e-38
-0.036951222 -0.10257359 -0.025336694 1.3182938e-38
-0.035097983 -0.10162716 -0.021293353 1.3367327e-38
-0.033234108 -0.10162716 -0.021293353 1.539563e-38
-0.031370234 -0.10162716 -0.021293353 1.5303432e-38
-0.029535411 -0.10092205 -0.018280935 1.4935726e-38
-0.027710956 -0.10022092 -0.015285563 1.5765842e-38
-0.025857616 -0.10022092 -0.015285563 1.4844603e-38
-0.024004275 -0.10022092 -0.015285563 1.5950229e-38
-0.022150936 -0.10022092 -0.015285563 1.6596315e-38
-0.020297594 -0.10022092 -0.015285563 1.7057649e-38
-0.019209826 -0.091333628 0.022682954 1.678214e-38
-0.017423058 -0.091333628 0.022682954 1.6966531e-38
-0.015636289 -0.091333628 0.022682954 1.7243118e-38
-0.014002837 -0.089922056 0.028713513 1.7058724e-38
-0.012226641 -0.089922056 0.028713513 1.6688146e-38
-0.010450447 -0.089922056 0.028713513 1.880506e-38
-0.0086742509 -0.089922056 0.028713513 1.8158976e-38
-0.0068980549 -0.089922056 0.028713513 1.8066427e-38
-0.0051218625 -0.089922056 0.028713513 1.7974598e-38
-0.0010429788 -0.1049176 -0.03535087 1.7145925e-38
0.00084554218 -0.1049176 -0.03535087 1.5394221e-38
0.0005626101 -0.09203364 0.01969235 1.1431255e-38
0.00235462 -0.09203364 0.01969235 7.0069548e-39
0.0042758565 -0.092737779 0.016684104 7.008045e-39
0.010095613 -0.11379658 -0.073283866 1.4773946e-39
0.012050642 -0.11379658 -0.073283866 4.3365465e-39
0.013863599 -0.11310686 -0.070337251 5.2592273e-39
0.015813461 -0.11310686 -0.070337251 4.6153026e-39
0.017763326 -0.11310686 -0.070337251 9.7786222e-39
0.015542256 -0.094850481 0.0076581724 1.4204367e-38
0.017355369 -0.094850481 0.0076581724 1.3466808e-38
0.019168479 -0.094850481 0.0076581724 1.4480232e-38
0.020981593 -0.094850481 0.0076581724 1.5586563e-38
0.023032563 -0.095770895 0.0037259348 1.1160836e-38
0.025039034 -0.096472099 0.00073020533 5.2603175e-39
0.026864292 -0.096472099 0.00073020533 3.600443e-39
0.028689558 -0.096472099 0.00073020533 2.9550736e-39
0.030514816 -0.096472099 0.00073020533 2.4940983e-39
0.032548748 -0.097177386 -0.0022829287 3.8770327e-39
0.03416533 -0.096472099 0.00073020533 1.8487261e-39
0.035990588 -0.096472099 0.00073020533 1.8487233e-39
0.037815847 -0.096472099 0.00073020533 1.9412734e-39
0.039641112 -0.096472099 0.00073020533 2.1260178e-39
0.04146637 -0.096472099 0.00073020533 2.0341739e-39
0.043291628 -0.096472099 0.00073020533 1.6657445e-39
0.045609623 -0.097886756 -0.0053134672 9.2817666e-40
0.047445491 -0.097886756 -0.0053134672 3.7500288e-40
0.049281344 -0.097886756 -0.0053134672 1.1132868e-39
0.05137229 -0.098574698 -0.0082525723 1.3891576e-39
0.053572297 -0.099523753 -0.012307119 2.7702942e-39
0.055420414 -0.099523753 -0.012307119 2.768139e-39
0.05726853 -0.099523753 -0.012307119 3.5039062e-39
0.059116647 -0.099523753 -0.012307119 2.3042868e-39
0.060964763 -0.099523753 -0.012307119 2.2120912e-39
0.063102722 -0.10022092 -0.015285563 1.3834095e-39
0.064956054 -0.10022092 -0.015285563 2.0294922e-39
0.067111388 -0.10092205 -0.018280935 1.3859164e-39
0.06896998 -0.10092205 -0.018280935 1.2025971e-39
0.071142837 -0.10162716 -0.021293353 1.8879694e-40
0.072687164 -0.10092205 -0.018280935 1.1103847e-39
0.074545756 -0.10092205 -0.018280935 3.5992996e-39
0.076734453 -0.10162716 -0.021293353 4.3361401e-39
0.07859832 -0.10162716 -0.021293353 4.7971197e-39
0.080462202 -0.10162716 -0.021293353 3.5085445e-39
0.082326069 -0.10162716 -0.021293353 1.8497462e-39
0.084661394 -0.10257359 -0.025336694 6.6424798e-39
0.086532354 -0.10257359 -0.025336694 9.5920183e-39
0.088403314 -0.10257359 -0.025336694 8.3923989e-39
0.090274274 -0.10257359 -0.025336694 3.7137913e-40
0.092145234 -0.10257359 -0.025336694 7.9593753e-43
0.094384685 -0.1032616 -0.028276037 5.5793259e-40
0.096260801 -0.1032616 -0.028276037 3.7498046e-40
0.098532483 -0.10398008 -0.031345557 7.014142e-39
0.10093717 -0.1049176 -0.03535087 1.0887429e-38
0.1028257 -0.1049176 -0.03535087 1.964562e-38
0.10471421 -0.1049176 -0.03535087 1.9275767e-38
0.10700969 -0.10561861 -0.038345765 1.8168689e-38
0.10890347 -0.10561861 -0.038345765 1.5770513e-38
0.11079724 -0.10561861 -0.038345765 1.5587558e-38
0.11324733 -0.1065412 -0.042287301 1.2457228e-38
0.11514802 -0.1065412 -0.042287301 9.7857212e-39
0.1170487 -0.1065412 -0.042287301 9.3251102e-39
0.11894938 -0.1065412 -0.042287301 8.4949992e-39
0.12085007 -0.1065412 -0.042287301 8.401733e-39
0.12320553 -0.1072513 -0.045320939 2.9607517e-39
0.12555633 -0.1079378 -0.048253845 2.8419314e-40
-0.12160286 -0.10586159 -0.031345557 7.8384012e-39
-0.11972137 -0.10586159 -0.031345557 7.3795894e-39
-0.11783986 -0.10586159 -0.031345557 5.9970319e-39
-0.11595836 -0.10586159 -0.031345557 4.1538606e-39
-0.11386429 -0.10513772 -0.028276037 1.848642e-39
-0.11198816 -0.10513772 -0.028276037 2.6780649e-39
-0.10991879 -0.10444455 -0.025336694 3.6907945e-39
-0.10778907 -0.10349102 -0.021293353 3.506053e-39
-0.10592519 -0.10349102 -0.021293353 2.3989795e-39
-0.10387909 -0.10278064 -0.018280935 2.1220255e-39
-0.10166962 -0.10137187 -0.012307119 4.0577596e-39
-0.099590458 -0.10041572 -0.0082525723 6.2704575e-39
-0.097587124 -0.099722609 -0.0053134672 6.3633888e-39
-0.095589206 -0.099007934 -0.0022829287 5.8098647e-39
-0.093447864 -0.097590908 0.0037259348 7.5615845e-39
-0.091627859 -0.097590908 0.0037259348 7.8381686e-39
-0.089618251 -0.096663594 0.0076581724 6.7321713e-39
-0.087662891 -0.095941633 0.010719586 3.689354e-39
-0.085855156 -0.095941633 0.010719586 2.9521421e-39
-0.084047407 -0.095941633 0.010719586 2.3067811e-39
-0.081993908 -0.094535068 0.016684104 1.6607124e-39
-0.079959966 -0.093120396 0.022682954 2.0298719e-39
-0.037116945 -0.089584544 0.037676621 1.2906723e-38
-0.035097983 -0.10349102 -0.021293353 1.2076959e-38
-0.033234108 -0.10349102 -0.021293353 1.226135e-38
-0.031370234 -0.10349102 -0.021293353 1.3920872e-38
-0.029535411 -0.10278064 -0.018280935 1.3737196e-38
-0.027710956 -0.10207425 -0.015285563 1.4198175e-38
-0.025857616 -0.10207425 -0.015285563 1.4383642e-38
-0.024004275 -0.10207425 -0.015285563 1.5489268e-38
-0.022832885 -0.092419267 0.025656033 1.6227912e-38
-0.021051329 -0.092419267 0.025656033 1.6781083e-38
-0.019209826 -0.093120396 0.022682954 1.6689606e-38
-0.017423058 -0.093120396 0.022682954 1.6781802e-38
-0.015636289 -0.093120396 0.022682954 1.696619e-38
-0.013925105 -0.092419267 0.025656033 1.6597408e-38
-0.012309235 -0.090981558 0.031752635 1.5859124e-38
-0.010538368 -0.090981558 0.031752635 1.862248e-38
-0.0086742509 -0.091698244 0.028713513 1.8160426e-38
-0.0068980549 -0.091698244 0.028713513 1.8068236e-38
-0.0051218625 -0.091698244 0.028713513 1.7792013e-38
-0.0031289067 -0.093120396 0.022682954 1.677859e-38
-0.0012294035 -0.093825653 0.01969235 1.4659175e-38
0.0005626101 -0.093825653 0.01969235 1.0695132e-38
0.00235462 -0.093825653 0.01969235 6.1786332e-39
0.0042758565 -0.094535068 0.016684104 4.9815362e-39
0.0062084328 -0.09524864 0.013658214 3.2301849e-39
0.0080110263 -0.09524864 0.013658214 4.8907937e-39
0.0098136161 -0.09524864 0.013658214 3.6929722e-39
0.01161621 -0.09524864 0.013658214 3.6936966e-39
0.013418799 -0.09524864 0.013658214 1.1254101e-38
0.01537854 -0.095941633 0.010719586 1.4297276e-38
0.017186286 -0.095941633 0.010719586 1.3836295e-38
0.018994031 -0.095941633 0.010719586 1.3466785e-38
0.020801773 -0.095941633 0.010719586 1.2729217e-38
0.022609519 -0.095941633 0.010719586 9.502373e-39
0.024852576 -0.097590908 0.0037259348 4.3390618e-39
0.026672581 -0.097590908 0.0037259348 2.1263695e-39
0.028689558 -0.098297372 0.00073020533 2.6795447e-39
0.030514816 -0.098297372 0.00073020533 2.86358e-39
0.032340072 -0.098297372 0.00073020533 1.4810015e-39
0.03416533 -0.098297372 0.00073020533 2.1252905e-39
0.035990588 -0.098297372 0.00073020533 1.7568639e-39
0.037815847 -0.098297372 0.00073020533 1.2958802e-39
0.039641112 -0.098297372 0.00073020533 1.1118435e-39
0.04146637 -0.098297372 0.00073020533 1.2043922e-39
0.043291628 -0.098297372 0.00073020533 1.2965836e-39
0.045362547 -0.099007934 -0.0022829287 1.2047439e-39
0.047445491 -0.099722609 -0.0053134672 1.0199967e-39
0.049281344 -0.099722609 -0.0053134672 7.43784e-40
0.051117197 -0.099722609 -0.0053134672 9.7339797e-41
0.053213298 -0.10041572 -0.0082525723 6.4871571e-40
0.055054307 -0.10041572 -0.0082525723 7.3910927e-40
0.056895316 -0.10041572 -0.0082525723 2.8578109e-39
0.058736324 -0.10041572 -0.0082525723 2.857092e-39
0.060964763 -0.10137187 -0.012307119 3.0414833e-39
0.063102722 -0.10207425 -0.015285563 2.0284076e-39
0.064956054 -0.10207425 -0.015285563 2.4904619e-39
0.067111388 -0.10278064 -0.018280935 1.292632e-39
0.06896998 -0.10278064 -0.018280935 1.0171199e-39
0.071142837 -0.10349102 -0.021293353 7.4088331e-40
0.072687164 -0.10278064 -0.018280935 2.215642e-39
0.074545756 -0.10278064 -0.018280935 4.42797e-39
0.076734453 -0.10349102 -0.021293353 5.2570048e-39
0.07859832 -0.10349102 -0.021293353 5.9034532e-39
0.080462202 -0.10349102 -0.021293353 5.628674e-39
0.082326069 -0.10349102 -0.021293353 2.8642485e-39
0.084661394 -0.10444455 -0.025336694 8.5785824e-39
0.086532354 -0.10444455 -0.025336694 8.8544505e-39
0.088403314 -0.10444455 -0.025336694 7.3782442e-39
0.090274274 -0.10444455 -0.025336694 7.9733883e-43
0.092145234 -0.10444455 -0.025336694 9.5516707e-41
0.094384685 -0.10513772 -0.028276037 7.5670117e-44
0.096260801 -0.10513772 -0.028276037 4.3986759e-42
0.098532483 -0.10586159 -0.031345557 9.9644008e-39
0.10093717 -0.10680611 -0.03535087 1.2178165e-38
0.1028257 -0.10680611 -0.03535087 1.8539648e-38
0.10471421 -0.10680611 -0.03535087 1.7432931e-38
0.10700969 -0.1075124 -0.038345765 1.6786468e-38
0.10944597 -0.1084419 -0.042287301 1.595598e-38
0.11134665 -0.1084419 -0.042287301 1.3190827e-38
0.11324733 -0.1084419 -0.042287301 9.5988006e-39
0.11514802 -0.1084419 -0.042287301 8.6779317e-39
0.1170487 -0.1084419 -0.042287301 8.5861046e-39
0.11894938 -0.1084419 -0.042287301 8.6779457e-39
0.12129952 -0.10915731 -0.045320939 8.4010057e-39
0.12320553 -0.10915731 -0.045320939 4.6195457e-39
0.12511152 -0.10915731 -0.045320939 1.4823706e-39
0.12701753 -0.10915731 -0.045320939 4.6533338e-40
-0.12160286 -0.10774307 -0.031345557 8.4826986e-39
-0.11972137 -0.10774307 -0.031345557 8.6685304e-39
-0.11783986 -0.10774307 -0.031345557 8.0235309e-39
-0.11595836 -0.10774307 -0.031345557 6.7335292e-39
-0.11386429 -0.10701384 -0.028276037 1.4846407e-38
-0.11198816 -0.10701384 -0.028276037 1.6321914e-38
-0.11011204 -0.10701384 -0.028276037 1.5399617e-38
-0.10778907 -0.10535492 -0.021293353 1.0697291e-38
-0.10573769 -0.10463922 -0.018280935 5.4428632e-39
-0.1036979 -0.1039276 -0.015285563 2.953584e-39
-0.10166962 -0.10322 -0.012307119 2.6769943e-39
-0.099422976 -0.10155846 -0.0053134672 2.76919e-39
-0.097419746 -0.10083848 -0.0022829287 3.1368963e-39
-0.095428072 -0.10012263 0.00073020533 2.5830065e-39
-0.093447864 -0.099410906 0.0037259348 3.043986e-39
-0.091627859 -0.099410906 0.0037259348 6.3630287e-39
-0.089328945 -0.097051233 0.013658214 6.731807e-39
-0.087526359 -0.097051233 0.013658214 8.2062112e-39
-0.085723765 -0.097051233 0.013658214 8.0221773e-39
-0.083791189 -0.096332356 0.016684104 8.3913283e-39
-0.081993908 -0.096332356 0.016684104 7.9296495e-39
-0.079959966 -0.094907165 0.022682954 3.2273333e-39
-0.077945866 -0.093474448 0.028713513 2.7667335e-39
-0.07616967 -0.093474448 0.028713513 1.8451429e-39
-0.066963963 -0.090635687 0.040662337 6.0882298e-39
-0.065208718 -0.090635687 0.040662337 6.4559362e-39
-0.063453473 -0.090635687 0.040662337 4.7042248e-39
-0.058407716 -0.093474448 0.028713513 1.9398091e-39
-0.05663152 -0.093474448 0.028713513 2.0320061e-39
-0.035356469 -0.091345012 0.037676621 1.3828327e-38
-0.033595987 -0.091345012 0.037676621 1.2353916e-38
-0.03176479 -0.093474448 0.028713513 1.438222e-38
-0.029959109 -0.094200835 0.025656033 1.3553179e-38
-0.028212398 -0.093474448 0.028713513 1.4567331e-38
-0.026436202 -0.093474448 0.028713513 1.7426115e-38
-0.024660008 -0.093474448 0.028713513 1.7333919e-38
-0.022832885 -0.094200835 0.025656033 1.816368e-38
-0.021051329 -0.094200835 0.025656033 1.8348071e-38
-0.019269774 -0.094200835 0.025656033 1.770342e-38
-0.017488217 -0.094200835 0.025656033 1.7242442e-38
-0.015706662 -0.094200835 0.025656033 1.6689989e-38
-0.014002837 -0.093474448 0.028713513 1.5675837e-38
-0.012309235 -0.092752427 0.031752635 1.4660965e-38
-0.010538368 -0.092752427 0.031752635 1.3553179e-38
-0.0086742509 -0.093474448 0.028713513 1.2723422e-38
-0.0068980549 -0.093474448 0.028713513 1.1432685e-38
-0.0051218625 -0.093474448 0.028713513 9.4047432e-39
-0.0031289067 -0.094907165 0.022682954 7.5604775e-39
-0.0012294035 -0.095617667 0.01969235 6.5466899e-39
0.0005626101 -0.095617667 0.01969235 5.0722857e-39
0.0024785716 -0.096332356 0.016684104 2.9525078e-39
0.0042758565 -0.096332356 0.016684104 2.9532323e-39
0.0062084328 -0.097051233 0.013658214 2.8621185e-39
0.0080110263 -0.097051233 0.013658214 2.9550372e-39
0.0098136161 -0.097051233 0.013658214 1.2962375e-39
0.01161621 -0.097051233 0.013658214 3.0479545e-39
0.013418799 -0.097051233 0.013658214 1.0700913e-38
0.01537854 -0.097749382 0.010719586 1.1069696e-38
0.017023986 -0.097051233 0.013658214 1.1254086e-38
0.018826576 -0.097051233 0.013658214 9.501643e-39
0.020629169 -0.097051233 0.013658214 1.9416013e-39
0.022609519 -0.097749382 0.010719586 9.7691522e-41
0.024417261 -0.097749382 0.010719586 8.3525936e-40
0.02642093 -0.098476708 0.0076581724 5.5831514e-40
0.028492587 -0.099410906 0.0037259348 3.3434981e-42
0.030312592 -0.099410906 0.0037259348 1.6646655e-39
0.032132596 -0.099410906 0.0037259348 1.3880786e-39
0.03416533 -0.10012263 0.00073020533 1.4795554e-39
0.035772614 -0.099410906 0.0037259348 1.0185744e-39
0.03759262 -0.099410906 0.0037259348 2.8136392e-40
0.039412625 -0.099410906 0.0037259348 4.77002e-42
0.04146637 -0.10012263 0.00073020533 9.6243981e-41
0.043291628 -0.10012263 0.00073020533 3.731854e-40
0.045362547 -0.10083848 -0.0022829287 7.4232385e-40
0.047445491 -0.10155846 -0.0053134672 6.5085409e-40
0.049281344 -0.10155846 -0.0053134672 5.5831514e-40
0.051117197 -0.10155846 -0.0053134672 7.4271201e-40
0.053213298 -0.10225673 -0.0082525723 2.03129e-39
0.055054307 -0.10225673 -0.0082525723 1.3844787e-39
0.056895316 -0.10225673 -0.0082525723 2.0284076e-39
0.058736324 -0.10225673 -0.0082525723 1.2901208e-39
0.060964763 -0.10322 -0.012307119 2.026967e-39
0.063102722 -0.1039276 -0.015285563 1.7514549e-39
0.064956054 -0.1039276 -0.015285563 2.5815757e-39
0.067111388 -0.10463922 -0.018280935 9.2348652e-40
0.069278955 -0.10535492 -0.021293353 1.2007881e-39
0.071142837 -0.10535492 -0.021293353 2.3074874e-39
0.073006704 -0.10535492 -0.021293353 4.1513887e-39
0.074870571 -0.10535492 -0.021293353 5.902377e-39
0.076734453 -0.10535492 -0.021293353 6.1789527e-39
0.07859832 -0.10535492 -0.021293353 7.2856604e-39
0.080462202 -0.10535492 -0.021293353 7.1963528e-39
0.082326069 -0.10535492 -0.021293353 7.430245e-40
0.084661394 -0.10631551 -0.025336694 7.7491777e-39
0.086532354 -0.10631551 -0.025336694 1.0605447e-38
0.088403314 -0.10631551 -0.025336694 9.0370495e-39
0.090274274 -0.10631551 -0.025336694 7.1466222e-44
0.092508569 -0.10701384 -0.028276037 3.710246e-40
0.094384685 -0.10701384 -0.028276037 7.9874012e-43
0.096650988 -0.10774307 -0.031345557 7.286752e-44
0.099048659 -0.10869466 -0.03535087 1.1438805e-38
0.10093717 -0.10869466 -0.03535087 1.2638779e-38
0.1028257 -0.10869466 -0.03535087 1.5774135e-38
0.10471421 -0.10869466 -0.03535087 1.1532406e-38
0.10700969 -0.10940616 -0.038345765 9.7795989e-39
0.10944597 -0.11034258 -0.042287301 1.2729129e-38
0.11134665 -0.11034258 -0.042287301 1.1807892e-38
0.11324733 -0.11034258 -0.042287301 1.2362872e-38
0.11514802 -0.11034258 -0.042287301 1.1350163e-38
0.11748752 -0.11106332 -0.045320939 9.9675943e-39
0.11939351 -0.11106332 -0.045320939 9.6906543e-39
0.12173405 -0.11176009 -0.048253845 8.8608978e-39
0.12320553 -0.11106332 -0.045320939 6.0013956e-39
0.12511152 -0.11106332 -0.045320939 2.3114068e-39
0.12701753 -0.11106332 -0.045320939 7.4155454e-40
0.12937863 -0.11176009 -0.048253845 9.2305772e-40
-0.12160286 -0.10962458 -0.031345557 8.8507665e-39
-0.11972137 -0.10962458 -0.031345557 8.5741796e-39
-0.11783986 -0.10962458 -0.031345557 6.2692916e-39
-0.11595836 -0.10962458 -0.031345557 9.4957841e-39
-0.11386429 -0.10888995 -0.028276037 1.6134601e-38
-0.11198816 -0.10888995 -0.028276037 2.1022061e-38
-0.10965294 -0.10721879 -0.021293353 2.2866678e-38
-0.10778907 -0.10721879 -0.021293353 1.429361e-38
-0.10555124 -0.10578094 -0.015285563 4.0613525e-39
-0.10351774 -0.1050681 -0.012307119 2.2181742e-39
-0.10143147 -0.10409774 -0.0082525723 1.6660906e-39
-0.099422976 -0.10339431 -0.0053134672 1.8497588e-39
-0.097419746 -0.10266902 -0.0022829287 2.5840742e-39
-0.095428072 -0.10194789 0.00073020533 2.8592164e-39
-0.093447864 -0.10123092 0.0037259348 1.2918963e-39
-0.091627859 -0.10123092 0.0037259348 2.6744734e-39
-0.089328945 -0.098853827 0.013658214 4.8875259e-39
-0.087385759 -0.098129645 0.016684104 7.3760862e-39
-0.085588478 -0.098129645 0.016684104 1.0050115e-38
-0.083661966 -0.09740968 0.01969235 8.7590234e-39
-0.081746735 -0.096693933 0.022682954 9.3114966e-39
-0.079842679 -0.095982388 0.025656033 7.4672421e-39
-0.077945866 -0.095250636 0.028713513 8.0204355e-39
-0.076060429 -0.094523281 0.031752635 4.1489407e-39
-0.073984943 -0.092390925 0.040662337 2.1220647e-39
-0.072229698 -0.092390925 0.040662337 2.8610479e-39
-0.068719208 -0.092390925 0.040662337 7.2881982e-39
-0.066880621 -0.091656998 0.043728936 9.4069012e-39
-0.065130755 -0.091656998 0.043728936 9.406904e-39
-0.06338089 -0.091656998 0.043728936 7.6548339e-39
-0.061829492 -0.093824327 0.034673143 4.1521216e-39
-0.060063742 -0.093824327 0.034673143 4.0602917e-39
-0.058351763 -0.094523281 0.031752635 2.585526e-39
-0.056580901 -0.094523281 0.031752635 2.493336e-39
-0.044145778 -0.092390925 0.040662337 1.2082384e-38
-0.042382471 -0.091656998 0.043728936 1.0976035e-38
-0.040632602 -0.091656998 0.043728936 1.2542276e-38
-0.038877428 -0.093105495 0.037676621 1.2815981e-38
-0.037116945 -0.093105495 0.037676621 1.3000011e-38
-0.035356469 -0.093105495 0.037676621 1.3367715e-38
-0.033633128 -0.091656998 0.043728936 1.3552828e-38
-0.03176479 -0.095250636 0.028713513 1.4013809e-38
-0.029959109 -0.095982388 0.025656033 1.4475506e-38
-0.028177554 -0.095982388 0.025656033 1.5028323e-38
-0.026436202 -0.095250636 0.028713513 1.5305632e-38
-0.024660008 -0.095250636 0.028713513 1.7886752e-38
-0.022883812 -0.095250636 0.028713513 1.7887831e-38
-0.021107618 -0.095250636 0.028713513 1.8256608e-38
-0.019331422 -0.095250636 0.028713513 1.6228676e-38
-0.017555228 -0.095250636 0.028713513 1.4384766e-38
-0.015779031 -0.095250636 0.028713513 1.3739397e-38
-0.014002837 -0.095250636 0.028713513 1.2632692e-38
-0.012226641 -0.095250636 0.028713513 1.2817083e-38
-0.010450447 -0.095250636 0.028713513 1.1065723e-38
-0.0086742509 -0.095250636 0.028713513 9.2225309e-39
-0.0068980549 -0.095250636 0.028713513 6.6410547e-39
-0.0051218625 -0.095250636 0.028713513 4.0595771e-39
-0.0031289067 -0.096693933 0.022682954 2.5844498e-39
-0.0013421383 -0.096693933 0.022682954 2.3078629e-39
0.0005626101 -0.09740968 0.01969235 2.5844498e-39
0.00235462 -0.09740968 0.01969235 2.9532323e-39
0.0042758565 -0.098129645 0.016684104 2.5848099e-39
0.0060731452 -0.098129645 0.016684104 2.308223e-39
0.0080110263 -0.098853827 0.013658214 2.8621129e-39
0.0098136161 -0.098853827 0.013658214 2.1249052e-39
0.01161621 -0.098853827 0.013658214 2.4936877e-39
0.013418799 -0.098853827 0.013658214 1.0975683e-38
0.015221393 -0.098853827 0.013658214 1.27274e-38
0.017023986 -0.098853827 0.013658214 1.0053729e-38
0.018826576 -0.098853827 0.013658214 8.2094622e-39
0.020629169 -0.098853827 0.013658214 1.6635753e-39
0.022431763 -0.098853827 0.013658214 9.5288296e-44
0.024234356 -0.098853827 0.013658214 1.2944396e-39
0.02622501 -0.099557132 0.010719586 2.308237e-39
0.028032752 -0.099557132 0.010719586 1.3862836e-39
0.029840501 -0.099557132 0.010719586 8.3239371e-40
0.031860262 -0.10028981 0.0076581724 5.5580682e-40
0.033952601 -0.10123092 0.0037259348 3.7141556e-40
0.035772614 -0.10123092 0.0037259348 4.6361119e-40
0.03759262 -0.10123092 0.0037259348 3.7141276e-40
0.039412625 -0.10123092 0.0037259348 2.7957306e-40
0.04146637 -0.10194789 0.00073020533 4.6324265e-40
0.043291628 -0.10194789 0.00073020533 8.323825e-40
0.045362547 -0.10266902 -0.0022829287 7.4018407e-40
0.047445491 -0.10339431 -0.0053134672 3.7176588e-40
0.049281344 -0.10339431 -0.0053134672 4.4309057e-42
0.051117197 -0.10339431 -0.0053134672 1.891837e-40
0.053213298 -0.10409774 -0.0082525723 7.4019528e-40
0.055054307 -0.10409774 -0.0082525723 1.0156962e-39
0.056895316 -0.10409774 -0.0082525723 1.1057296e-39
0.058736324 -0.10409774 -0.0082525723 1.1053666e-39
0.060964763 -0.1050681 -0.012307119 1.2897579e-39
0.063102722 -0.10578094 -0.015285563 1.3826724e-39
0.065252796 -0.10649781 -0.018280935 1.5674238e-39
0.067415088 -0.10721879 -0.021293353 1.1997175e-39
0.069278955 -0.10721879 -0.021293353 4.6322583e-40
0.071142837 -0.10721879 -0.021293353 1.3855325e-39
0.073006704 -0.10721879 -0.021293353 6.8247047e-39
0.074870571 -0.10721879 -0.021293353 6.5477464e-39
0.076734453 -0.10721879 -0.021293353 6.1789527e-39
0.07859832 -0.10721879 -0.021293353 7.0090735e-39
0.080462202 -0.10721879 -0.021293353 6.1821981e-39
0.082790419 -0.10818647 -0.025336694 8.3522013e-40
0.084661394 -0.10818647 -0.025336694 3.4152642e-39
0.086532354 -0.10818647 -0.025336694 2.8606583e-39
0.088403314 -0.10818647 -0.025336694 3.2287262e-39
0.090632454 -0.10888995 -0.028276037 1.8819438e-42
0.092508569 -0.10888995 -0.028276037 1.8847464e-42
0.094384685 -0.10888995 -0.028276037 1.5204088e-42
0.096650988 -0.10962458 -0.031345557 1.5134023e-42
0.098532483 -0.10962458 -0.031345557 1.0978183e-38
0.10041399 -0.10962458 -0.031345557 1.4851824e-38
0.10229549 -0.10962458 -0.031345557 1.2731674e-38
0.10471421 -0.11058317 -0.03535087 1.1348368e-38
0.10660274 -0.11058317 -0.03535087 1.0609713e-38
0.10890347 -0.11129995 -0.038345765 1.2176674e-38
0.11134665 -0.11224325 -0.042287301 1.2361065e-38
0.11324733 -0.11224325 -0.042287301 1.2729496e-38
0.11514802 -0.11224325 -0.042287301 1.2637665e-38
0.11748752 -0.11296929 -0.045320939 1.1900826e-38
0.11939351 -0.11296929 -0.045320939 1.0333863e-38
0.12173405 -0.11367123 -0.048253845 1.0149474e-38
0.1236452 -0.11367123 -0.048253845 5.0779959e-39
0.12511152 -0.11296929 -0.045320939 3.9702065e-39
0.12701753 -0.11296929 -0.045320939 1.8838076e-40
0.12937863 -0.11367123 -0.048253845 7.3866646e-40
-0.11972137 -0.11150609 -0.031345557 9.1255611e-39
-0.11783986 -0.11150609 -0.031345557 7.7419008e-39
-0.1157404 -0.11076607 -0.028276037 1.133753e-38
-0.11386429 -0.11076607 -0.028276037 1.8806455e-38
-0.11198816 -0.11076607 -0.028276037 2.3325129e-38
-0.10965294 -0.10908265 -0.021293353 2.0284126e-38
-0.10759628 -0.1083564 -0.018280935 1.4477979e-38
-0.10536586 -0.10691623 -0.012307119 5.0762079e-39
-0.10327248 -0.10593875 -0.0082525723 1.0207016e-39
-0.10143147 -0.10593875 -0.0082525723 5.8462172e-42
-0.099422976 -0.10523017 -0.0053134672 1.2058285e-39
-0.097419746 -0.10449956 -0.0022829287 8.3414113e-40
-0.095428072 -0.10377313 0.00073020533 2.67553e-39
-0.093447864 -0.10305093 0.0037259348 2.3056783e-39
-0.091431364 -0.10210292 0.0076581724 2.3978781e-39
-0.089328945 -0.10065642 0.013658214 2.8585003e-39
-0.087385759 -0.099926919 0.016684104 2.7666606e-39
-0.08545398 -0.099201679 0.01969235 3.1347215e-39
-0.083533496 -0.098480701 0.022682954 3.0425315e-39
-0.081624232 -0.097763941 0.025656033 5.90061e-39
-0.079842679 -0.097763941 0.025656033 7.3750352e-39
-0.077831298 -0.09629415 0.031752635 9.6795826e-39
-0.075955458 -0.09559007 0.034673143 1.1708971e-38
-0.073984943 -0.094146177 0.040662337 1.2816386e-38
-0.072229698 -0.094146177 0.040662337 1.1619266e-38
-0.070474453 -0.094146177 0.040662337 1.0052996e-38
-0.068719208 -0.094146177 0.040662337 1.0145897e-38
-0.066880621 -0.093406871 0.043728936 1.3555337e-38
-0.065130755 -0.093406871 0.043728936 1.4569492e-38
-0.06338089 -0.093406871 0.043728936 1.4753529e-38
-0.061763667 -0.094865978 0.037676621 1.3186925e-38
-0.060003184 -0.094865978 0.037676621 1.4017411e-38
-0.058351763 -0.09629415 0.031752635 1.1989472e-38
-0.056580901 -0.09629415 0.031752635 9.9608148e-39
-0.045901023 -0.094146177 0.040662337 1.328093e-38
-0.044132337 -0.093406871 0.043728936 1.2819949e-38
-0.042382471 -0.093406871 0.043728936 1.1805795e-38
-0.040632602 -0.093406871 0.043728936 1.2634474e-38
-0.038880043 -0.094146177 0.040662337 1.1986584e-38
-0.037132867 -0.093406871 0.043728936 1.2538679e-38
-0.035382997 -0.093406871 0.043728936 1.2815268e-38
-0.033633128 -0.093406871 0.043728936 1.2354653e-38
-0.03176479 -0.09702684 0.028713513 1.1340502e-38
-0.029988594 -0.09702684 0.028713513 1.0142322e-38
-0.028212398 -0.09702684 0.028713513 9.3125644e-39
-0.026436202 -0.09702684 0.028713513 8.8523107e-39
-0.024660008 -0.09702684 0.028713513 6.4548684e-39
-0.022883812 -0.09702684 0.028713513 5.0722997e-39
-0.021107618 -0.09702684 0.028713513 3.9659549e-39
-0.019331422 -0.09702684 0.028713513 1.7539815e-39
-0.017555228 -0.09702684 0.028713513 9.242236e-40
-0.015779031 -0.09702684 0.028713513 8.3239091e-40
-0.014002837 -0.09702684 0.028713513 1.192505e-42
-0.012226641 -0.09702684 0.028713513 1.1210388e-43
-0.010450447 -0.09702684 0.028713513 2.9917722e-42
-0.0086742509 -0.09702684 0.028713513 2.9917722e-42
-0.0068980549 -0.09702684 0.028713513 2.2715048e-42
-0.0050173271 -0.097763941 0.025656033 1.5512374e-42
-0.0031289067 -0.098480701 0.022682954 1.5512374e-42
-0.0013421383 -0.098480701 0.022682954 3.3491033e-42
0.00044463016 -0.098480701 0.022682954 6.4871571e-40
0.00235462 -0.099201679 0.01969235 1.2015266e-39
0.0041466337 -0.099201679 0.01969235 9.2493826e-40
0.0060731452 -0.099926919 0.016684104 9.2457252e-40
0.0078704301 -0.099926919 0.016684104 1.2015125e-39
0.0096677188 -0.099926919 0.016684104 2.7691928e-39
0.011465004 -0.099926919 0.016684104 5.257393e-39
0.013262292 -0.099926919 0.016684104 1.217242e-38
0.015221393 -0.10065642 0.013658214 1.1619246e-38
0.017023986 -0.10065642 0.013658214 5.4421402e-39
0.018826576 -0.10065642 0.013658214 1.1093169e-39
0.020629169 -0.10065642 0.013658214 9.4811854e-41
0.022431763 -0.10065642 0.013658214 5.5579281e-40
0.024234356 -0.10065642 0.013658214 8.3202517e-40
0.02622501 -0.10136487 0.010719586 1.0649868e-43
0.028032752 -0.10136487 0.010719586 1.0509738e-43
0.029840501 -0.10136487 0.010719586 9.3032205e-41
0.031648241 -0.10136487 0.010719586 4.6181753e-40
0.033673376 -0.10210292 0.0076581724 5.5401316e-40
0.035772614 -0.10305093 0.0037259348 2.7742907e-40
0.03759262 -0.10305093 0.0037259348 4.8204667e-43
0.039412625 -0.10305093 0.0037259348 1.1911037e-43
0.04146637 -0.10377313 0.00073020533 2.7742346e-40
0.043291628 -0.10377313 0.00073020533 8.3059724e-40
0.045362547 -0.10449956 -0.0022829287 1.1075415e-39
0.047445491 -0.10523017 -0.0053134672 1.0160675e-39
0.049281344 -0.10523017 -0.0053134672 9.5916077e-41
0.051117197 -0.10523017 -0.0053134672 4.4365109e-42
0.05295305 -0.10523017 -0.0053134672 1.870215e-40
0.055054307 -0.10593875 -0.0082525723 1.8593549e-40
0.056895316 -0.10593875 -0.0082525723 3.6816455e-40
0.058736324 -0.10593875 -0.0082525723 5.5219287e-40
0.060964763 -0.10691623 -0.012307119 9.2097539e-40
0.063102722 -0.10763429 -0.015285563 1.1982811e-39
0.065252796 -0.1083564 -0.018280935 1.1997231e-39
0.067111388 -0.1083564 -0.018280935 4.596259e-43
0.06896998 -0.1083564 -0.018280935 9.5288296e-44
0.071142837 -0.10908265 -0.021293353 3.710274e-40
0.073006704 -0.10908265 -0.021293353 6.0871452e-39
0.074870571 -0.10908265 -0.021293353 8.0225234e-39
0.076734453 -0.10908265 -0.021293353 6.086404e-39
0.07859832 -0.10908265 -0.021293353 3.1368599e-39
0.080462202 -0.10908265 -0.021293353 4.5226796e-39
0.082790419 -0.11005743 -0.025336694 5.0993251e-42
0.084661394 -0.11005743 -0.025336694 2.2294659e-42
0.086532354 -0.11005743 -0.025336694 3.7066026e-40
0.088756338 -0.11076607 -0.028276037 9.2276205e-40
0.090632454 -0.11076607 -0.028276037 8.8281803e-44
0.092508569 -0.11076607 -0.028276037 4.4561291e-43
0.094769493 -0.11150609 -0.031345557 2.6008099e-42
0.096650988 -0.11150609 -0.031345557 5.1105355e-42
0.098532483 -0.11150609 -0.031345557 1.0701232e-38
0.10041399 -0.11150609 -0.031345557 1.2269622e-38
0.10229549 -0.11150609 -0.031345557 1.0427138e-38
0.10471421 -0.11247168 -0.03535087 1.125617e-38
0.10660274 -0.11247168 -0.03535087 1.2639096e-38
0.10890347 -0.11319371 -0.038345765 1.3099349e-38
0.11079724 -0.11319371 -0.038345765 1.2452542e-38
0.11269102 -0.11319371 -0.038345765 1.4295383e-38
0.11514802 -0.11414395 -0.042287301 1.2174529e-38
0.1170487 -0.11414395 -0.042287301 1.0884513e-38
0.11939351 -0.1148753 -0.045320939 1.0516452e-38
0.12129952 -0.1148753 -0.045320939 1.0609011e-38
0.12275074 -0.11414395 -0.042287301 5.3531409e-39
0.12465143 -0.11414395 -0.042287301 4.2464304e-39
0.12655212 -0.11414395 -0.042287301 7.4047273e-40
0.12845281 -0.11414395 -0.042287301 9.2306052e-40
0.13035348 -0.11414395 -0.042287301 1.2907556e-39
-0.11972137 -0.11338757 -0.031345557 9.769497e-39
-0.11783986 -0.11338757 -0.031345557 9.1234003e-39
-0.1157404 -0.11264218 -0.028276037 1.2810498e-38
-0.11386429 -0.11264218 -0.028276037 1.935782e-38
-0.1115168 -0.11094652 -0.021293353 2.3138923e-38
-0.10945487 -0.11021499 -0.018280935 2.1942909e-38
-0.10759628 -0.11021499 -0.018280935 1.6413707e-38
-0.10536586 -0.10876434 -0.012307119 1.4019164e-38
-0.10327248 -0.10777976 -0.0082525723 2.1277512e-39
-0.10125884 -0.10706602 -0.0053134672 9.3031224e-40
-0.099250287 -0.10633011 -0.0022829287 1.9238427e-40
-0.09725333 -0.10559841 0.00073020533 9.2668288e-40
-0.09526787 -0.10487093 0.0037259348 2.6773124e-39
-0.093244478 -0.10391603 0.0076581724 3.7818775e-39
-0.091431364 -0.10391603 0.0076581724 2.951768e-39
-0.089183047 -0.10172421 0.016684104 2.9506988e-39
-0.087245986 -0.10099369 0.01969235 2.8585031e-39
-0.085320264 -0.10026747 0.022682954 2.3049636e-39
-0.083405785 -0.099545494 0.025656033 3.411314e-39
-0.081624232 -0.099545494 0.025656033 3.5031551e-39
-0.079722062 -0.098803028 0.028713513 5.808057e-39
-0.077831298 -0.098065019 0.031752635 5.8995478e-39
-0.075955458 -0.097355813 0.034673143 1.0325663e-38
-0.074087024 -0.096626461 0.037676621 1.3275917e-38
-0.072130226 -0.095156729 0.043728936 1.244794e-38
-0.070196882 -0.093704656 0.049708594 1.4015967e-38
-0.068457499 -0.093704656 0.049708594 1.3186555e-38
-0.06680046 -0.094440416 0.046678711 1.4385454e-38
-0.064978734 -0.093704656 0.049708594 1.5676193e-38
-0.063239351 -0.093704656 0.049708594 1.6044622e-38
-0.061499961 -0.093704656 0.049708594 1.4108159e-38
-0.059881151 -0.095156729 0.043728936 1.4569503e-38
-0.058187738 -0.095901415 0.040662337 1.3739747e-38
-0.056482226 -0.096626461 0.037676621 1.3647195e-38
-0.054721743 -0.096626461 0.037676621 1.2818516e-38
-0.049381942 -0.095156729 0.043728936 1.364864e-38
-0.047632076 -0.095156729 0.043728936 1.2357898e-38
-0.045882203 -0.095156729 0.043728936 1.1805081e-38
-0.044132337 -0.095156729 0.043728936 1.1159708e-38
-0.042374711 -0.094440416 0.046678711 1.0145914e-38
-0.040630013 -0.094440416 0.046678711 1.0052999e-38
-0.038882732 -0.095156729 0.043728936 1.1986589e-38
-0.037140623 -0.094440416 0.046678711 1.2354653e-38
-0.035395928 -0.094440416 0.046678711 1.2078068e-38
-0.033651233 -0.094440416 0.046678711 1.0418909e-38
-0.03176479 -0.098803028 0.028713513 7.9296299e-39
-0.029988594 -0.098803028 0.028713513 5.0722899e-39
-0.028212398 -0.098803028 0.028713513 3.1358257e-39
-0.026436202 -0.098803028 0.028713513 2.2142351e-39
-0.024660008 -0.098803028 0.028713513 8.3094897e-40
-0.022883812 -0.098803028 0.028713513 1.1939063e-42
-0.021107618 -0.098803028 0.028713513 2.2743074e-42
-0.019331422 -0.098803028 0.028713513 1.5596452e-42
-0.017555228 -0.098803028 0.028713513 5.5581803e-40
-0.015779031 -0.098803028 0.028713513 1.754364e-39
-0.014002837 -0.098803028 0.028713513 8.3240912e-40
-0.012226641 -0.098803028 0.028713513 4.6434967e-40
-0.010450447 -0.098803028 0.028713513 2.652658e-42
-0.0086742509 -0.098803028 0.028713513 1.9337919e-42
-0.0068980549 -0.098803028 0.028713513 4.9185576e-43
-0.0050173271 -0.099545494 0.025656033 1.2121232e-42
-0.0032357704 -0.099545494 0.025656033 3.0099891e-42
-0.0014542136 -0.099545494 0.025656033 2.7995561e-40
0.00044463016 -0.10026747 0.022682954 7.4020929e-40
0.0022313986 -0.10026747 0.022682954 9.2423481e-40
0.004018167 -0.10026747 0.022682954 4.7363888e-43
0.0059386473 -0.10099369 0.01969235 9.3383931e-41
0.0078704301 -0.10172421 0.016684104 3.6996241e-40
0.0096677188 -0.10172421 0.016684104 4.795347e-39
0.011465004 -0.10172421 0.016684104 8.2984124e-39
0.013262292 -0.10172421 0.016684104 1.1524538e-38
0.015221393 -0.10245901 0.013658214 9.3121972e-39
0.017023986 -0.10245901 0.013658214 1.1989832e-39
0.018826576 -0.10245901 0.013658214 8.6880505e-44
0.020629169 -0.10245901 0.013658214 3.6995961e-40
0.022431763 -0.10245901 0.013658214 1.47631e-39
0.024234356 -0.10245901 0.013658214 1.1071715e-39
0.026036942 -0.10245901 0.013658214 1.0789998e-43
0.027839536 -0.10245901 0.013658214 1.1210388e-43
0.029642129 -0.10245901 0.013658214 3.6925896e-40
0.031648241 -0.10317262 0.010719586 1.2051167e-43
0.033455983 -0.10317262 0.010719586 1.2331426e-43
0.035263732 -0.10317262 0.010719586 1.2891946e-43
0.037299603 -0.10391603 0.0076581724 2.7635708e-40
0.039412625 -0.10487093 0.0037259348 4.6074834e-40
0.04146637 -0.10559841 0.00073020533 4.6074834e-40
0.043291628 -0.10559841 0.00073020533 5.5294397e-40
0.045362547 -0.10633011 -0.0022829287 8.2953086e-40
0.047445491 -0.10706602 -0.0053134672 9.2352155e-40
0.049281344 -0.10706602 -0.0053134672 8.4218038e-43
0.051117197 -0.10706602 -0.0053134672 1.5554413e-42
0.05295305 -0.10706602 -0.0053134672 1.5498361e-42
0.054788902 -0.10706602 -0.0053134672 1.1826959e-42
0.056895316 -0.10777976 -0.0082525723 9.2293721e-41
0.058736324 -0.10777976 -0.0082525723 9.1930784e-41
0.060964763 -0.10876434 -0.012307119 9.1930784e-41
0.06281288 -0.10876434 -0.012307119 9.2293721e-41
