# .PCD v0.7 - Point Cloud Data file format
VERSION 0.7
FIELDS x y z rgb
SIZE 4 4 4 4
TYPE F F F F
COUNT 1 1 1 1
WIDTH 926
HEIGHT 1
VIEWPOINT 0 0 0 1 0 0 0
POINTS 926
DATA ascii
0.02380646 -0.074248701 -0.049245909 2.2774843e-38
0.025973257 -0.07639426 -0.05923529 1.890412e-38
0.027685586 -0.075750828 -0.05623956 9.8689864e-39
0.029113766 -0.073617533 -0.046307281 6.3659406e-39
0.030916359 -0.073617533 -0.046307281 3.7852014e-39
0.032718949 -0.073617533 -0.046307281 1.5735993e-39
0.034521542 -0.073617533 -0.046307281 2.4033684e-39
0.043769535 -0.098753676 -0.16333754 1.2066217e-39
0.045777321 -0.098753676 -0.16333754 2.7735788e-39
0.047785107 -0.098753676 -0.16333754 1.2995194e-39
0.04979289 -0.098753676 -0.16333754 1.2069566e-39
0.050749999 -0.094667718 -0.14431389 1.5750048e-39
0.052724432 -0.094667718 -0.14431389 2.0327292e-39
0.054522339 -0.094022244 -0.14130862 6.5492276e-39
0.056491505 -0.094022244 -0.14130862 9.5913275e-39
0.058460664 -0.094022244 -0.14130862 7.2871556e-39
0.060429823 -0.094022244 -0.14130862 6.0882579e-39
0.06437175 -0.10046658 -0.17131253 5.1673806e-39
0.06639351 -0.10046658 -0.17131253 3.4163853e-39
0.068133637 -0.099593118 -0.16724582 5.3532166e-39
0.070148274 -0.099593118 -0.16724582 5.2610209e-39
0.072162904 -0.099593118 -0.16724582 4.9844341e-39
0.073886313 -0.098753676 -0.16333754 2.9561302e-39
0.075588204 -0.097892255 -0.15932687 1.757587e-39
0.077588953 -0.097892255 -0.15932687 2.5873449e-39
0.079909675 -0.098753676 -0.16333754 2.2189183e-39
0.081917457 -0.098753676 -0.16333754 7.4378821e-40
0.08392524 -0.098753676 -0.16333754 7.4235608e-40
0.086265378 -0.099593118 -0.16724582 3.8759397e-39
-0.023058556 -0.073465943 -0.037282541 2.3509886e-38
-0.021243114 -0.072822154 -0.034309462 2.3509527e-38
-0.019461559 -0.072822154 -0.034309462 2.3509527e-38
-0.017680004 -0.072822154 -0.034309462 2.3509886e-38
-0.015898447 -0.072822154 -0.034309462 2.3509886e-38
-0.01412471 -0.073465943 -0.037282541 2.350988e-38
-0.012337942 -0.073465943 -0.037282541 2.350988e-38
-0.010551173 -0.073465943 -0.037282541 2.3509883e-38
-0.0087722242 -0.072822154 -0.034309462 2.3509886e-38
-0.0069906674 -0.072822154 -0.034309462 2.3509886e-38
-0.005190867 -0.073465943 -0.037282541 2.3509886e-38
-0.0034040976 -0.073465943 -0.037282541 2.3509886e-38
-0.0016173292 -0.073465943 -0.037282541 2.3509886e-38
0.00016943924 -0.073465943 -0.037282541 2.3509886e-38
0.0019562086 -0.073465943 -0.037282541 2.3509886e-38
0.0037875473 -0.074113518 -0.040273145 2.3509886e-38
0.0056296661 -0.074764907 -0.043281391 2.3509886e-38
0.0074269529 -0.074764907 -0.043281391 2.3509886e-38
0.0092852525 -0.075420126 -0.046307281 2.3509886e-38
0.011087844 -0.075420126 -0.046307281 2.3509886e-38
0.012890436 -0.075420126 -0.046307281 2.3509886e-38
0.014693029 -0.075420126 -0.046307281 2.3509886e-38
0.016495621 -0.075420126 -0.046307281 2.3418047e-38
0.018298212 -0.075420126 -0.046307281 2.3142534e-38
0.020100806 -0.075420126 -0.046307281 2.1669563e-38
0.021903396 -0.075420126 -0.046307281 2.2499695e-38
0.023602534 -0.074764907 -0.043281391 2.2499695e-38
0.025399823 -0.074764907 -0.043281391 2.0195916e-38
0.027798515 -0.078219518 -0.05923529 7.7071416e-44
0.029113766 -0.075420126 -0.046307281 2.1270856e-39
0.030916359 -0.075420126 -0.046307281 4.9858886e-39
0.032718949 -0.075420126 -0.046307281 1.2991564e-39
0.043769535 -0.10076147 -0.16333754 8.2145559e-39
0.045777321 -0.10076147 -0.16333754 2.8675611e-39
0.047785107 -0.10076147 -0.16333754 1.2083943e-39
0.04979289 -0.10076147 -0.16333754 2.4994835e-39
0.050584018 -0.095991403 -0.14130862 2.4976772e-39
0.052553181 -0.095991403 -0.14130862 3.508225e-39
0.054288443 -0.095129102 -0.13732643 6.1804535e-39
0.056003999 -0.094246268 -0.13324936 8.4864232e-39
0.057525013 -0.092736378 -0.12627645 6.6425135e-39
0.059467819 -0.092736378 -0.12627645 6.5506808e-39
0.060030524 -0.088191271 -0.10528643 6.4595641e-39
0.061936531 -0.088191271 -0.10528643 6.0911431e-39
0.068133637 -0.10160775 -0.16724582 1.1900187e-38
0.070148274 -0.10160775 -0.16724582 1.0240665e-38
0.07187853 -0.10076147 -0.16333754 1.0610525e-38
0.073886313 -0.10076147 -0.16333754 9.1343164e-39
0.07535284 -0.099224806 -0.15624101 7.1985641e-39
0.077348195 -0.099224806 -0.15624101 8.9502811e-39
0.079343535 -0.099224806 -0.15624101 1.1808343e-38
0.081338875 -0.099224806 -0.15624101 1.143956e-38
0.083591215 -0.099893004 -0.15932687 9.3183475e-39
0.085933022 -0.10076147 -0.16333754 1.0423627e-38
0.087940805 -0.10076147 -0.16333754 9.5924219e-39
0.089593478 -0.099893004 -0.15932687 8.8533967e-39
0.09331093 -0.099224806 -0.15624101 3.9236357e-44
0.09530627 -0.099224806 -0.15624101 2.7552891e-40
-0.026587784 -0.074603721 -0.034309462 2.2496085e-38
-0.024806228 -0.074603721 -0.034309462 2.3509883e-38
-0.023024671 -0.074603721 -0.034309462 2.3509886e-38
-0.021243114 -0.074603721 -0.034309462 2.3509527e-38
-0.019461559 -0.074603721 -0.034309462 2.3509527e-38
-0.017680004 -0.074603721 -0.034309462 2.3509527e-38
-0.015898447 -0.074603721 -0.034309462 2.3509886e-38
-0.014116891 -0.074603721 -0.034309462 2.3509883e-38
-0.012335336 -0.074603721 -0.034309462 2.3509883e-38
-0.010553779 -0.074603721 -0.034309462 2.3509886e-38
-0.0087722242 -0.074603721 -0.034309462 2.3509886e-38
-0.0069906674 -0.074603721 -0.034309462 2.3509886e-38
-0.0052091116 -0.074603721 -0.034309462 2.3509886e-38
-0.0034275558 -0.074603721 -0.034309462 2.3509886e-38
-0.0016173292 -0.075252712 -0.037282541 2.3509886e-38
0.00016943924 -0.075252712 -0.037282541 2.3509886e-38
0.0019562086 -0.075252712 -0.037282541 2.3509886e-38
0.003742977 -0.075252712 -0.037282541 2.3509886e-38
0.0055297464 -0.075252712 -0.037282541 2.3509886e-38
0.0073715709 -0.075905532 -0.040273145 2.3509886e-38
0.0092242397 -0.076562196 -0.043281391 2.3509886e-38
0.011021527 -0.076562196 -0.043281391 2.3509886e-38
0.012818813 -0.076562196 -0.043281391 2.3509886e-38
0.0146161 -0.076562196 -0.043281391 2.3509886e-38
0.016495621 -0.07722272 -0.046307281 2.3418045e-38
0.018298212 -0.07722272 -0.046307281 2.314253e-38
0.02000796 -0.076562196 -0.043281391 2.3142534e-38
0.021805249 -0.076562196 -0.043281391 2.2683363e-38
0.023602534 -0.076562196 -0.043281391 2.2591531e-38
0.025399823 -0.076562196 -0.043281391 1.8628946e-38
0.043769535 -0.10276926 -0.16333754 4.2497403e-39
0.045777321 -0.10276926 -0.16333754 3.5118123e-39
0.047785107 -0.10276926 -0.16333754 1.483863e-39
0.04979289 -0.10276926 -0.16333754 1.8515637e-39
0.050965708 -0.09946914 -0.14821954 1.6664592e-39
0.052553181 -0.097960562 -0.14130862 2.40116e-39
0.054288443 -0.097091287 -0.13732643 5.0737598e-39
0.056003999 -0.096201301 -0.13324936 8.0247402e-39
0.057525013 -0.094679192 -0.12627645 7.1035056e-39
0.059467819 -0.094679192 -0.12627645 7.2889759e-39
0.060030524 -0.090097278 -0.10528643 6.1829913e-39
0.061936531 -0.090097278 -0.10528643 3.3256456e-39
0.066061512 -0.097091287 -0.13732643 7.0141911e-39
0.068023697 -0.097091287 -0.13732643 7.6599164e-39
0.07187853 -0.10276926 -0.16333754 9.0435669e-39
0.073886313 -0.10276926 -0.16333754 1.125554e-38
0.07535284 -0.10122015 -0.15624101 1.0702723e-38
0.077348195 -0.10122015 -0.15624101 9.6885706e-39
0.079343535 -0.10122015 -0.15624101 1.1348091e-38
0.081338875 -0.10122015 -0.15624101 1.1440283e-38
0.083591215 -0.10189377 -0.15932687 8.3045557e-39
0.085591964 -0.10189377 -0.15932687 9.8715297e-39
0.087592728 -0.10189377 -0.15932687 9.3176287e-39
0.089593478 -0.10189377 -0.15932687 8.3938507e-39
0.09131559 -0.10122015 -0.15624101 7.8192454e-43
-0.026542217 -0.075712487 -0.031251982 2.3509876e-38
-0.02476602 -0.075712487 -0.031251982 2.3509883e-38
-0.022989824 -0.075712487 -0.031251982 2.3509886e-38
-0.021213632 -0.075712487 -0.031251982 2.3509527e-38
-0.019437436 -0.075712487 -0.031251982 2.3509527e-38
-0.01766124 -0.075712487 -0.031251982 2.3509527e-38
-0.015885046 -0.075712487 -0.031251982 2.3509527e-38
-0.014116891 -0.076385275 -0.034309462 2.3509886e-38
-0.012335336 -0.076385275 -0.034309462 2.3509886e-38
-0.010553779 -0.076385275 -0.034309462 2.3509886e-38
-0.0087722242 -0.076385275 -0.034309462 2.3509886e-38
-0.0069906674 -0.076385275 -0.034309462 2.3509886e-38
-0.0052091116 -0.076385275 -0.034309462 2.3509886e-38
-0.0034275558 -0.076385275 -0.034309462 2.3509886e-38
-0.001646 -0.076385275 -0.034309462 2.3509886e-38
0.00013555586 -0.076385275 -0.034309462 2.3509886e-38
0.0019171126 -0.076385275 -0.034309462 2.3509886e-38
0.0036986684 -0.076385275 -0.034309462 2.3509886e-38
0.0055297464 -0.07703948 -0.037282541 2.3509886e-38
0.0073165148 -0.07703948 -0.037282541 2.3509886e-38
0.0091032833 -0.07703948 -0.037282541 2.3509886e-38
0.010955596 -0.077697545 -0.040273145 2.3509886e-38
0.012747608 -0.077697545 -0.040273145 2.3509886e-38
0.01453962 -0.077697545 -0.040273145 2.3509886e-38
0.016413387 -0.078359485 -0.043281391 2.3509883e-38
0.018210674 -0.078359485 -0.043281391 2.3325843e-38
0.019915659 -0.077697545 -0.040273145 2.341804e-38
0.021707669 -0.077697545 -0.040273145 2.3142537e-38
0.023499683 -0.077697545 -0.040273145 2.2130191e-38
0.025291696 -0.077697545 -0.040273145 2.2591531e-38
0.043769535 -0.10477705 -0.16333754 1.4664567e-38
0.045777321 -0.10477705 -0.16333754 1.4479457e-38
0.047785107 -0.10477705 -0.16333754 1.189798e-38
0.04979289 -0.10477705 -0.16333754 1.254263e-38
0.050965708 -0.10145043 -0.14821954 4.6429923e-40
0.052553181 -0.09992972 -0.14130862 2.0305824e-39
0.054048967 -0.098156333 -0.13324936 3.321338e-39
0.056003999 -0.098156333 -0.13324936 3.321338e-39
0.057525013 -0.09662199 -0.12627645 9.593009e-41
0.059467819 -0.09662199 -0.12627645 2.8140035e-40
0.061410617 -0.09662199 -0.12627645 1.2962711e-39
0.063353419 -0.09662199 -0.12627645 1.9064245e-40
0.065296233 -0.09662199 -0.12627645 1.8508841e-39
0.06752494 -0.097507954 -0.13030274 2.8427441e-40
0.07187853 -0.10477705 -0.16333754 3.7682457e-40
0.073886313 -0.10477705 -0.16333754 4.7100164e-39
0.074443169 -0.100591 -0.14431389 8.6747844e-39
0.076417588 -0.100591 -0.14431389 9.0428452e-39
0.078392021 -0.100591 -0.14431389 1.0149549e-38
0.081338875 -0.1032155 -0.15624101 1.0887112e-38
0.083334215 -0.1032155 -0.15624101 8.8588085e-39
0.085329555 -0.1032155 -0.15624101 4.7100052e-39
0.087324895 -0.1032155 -0.15624101 7.2911115e-39
0.08932025 -0.1032155 -0.15624101 7.3814854e-39
0.09331093 -0.1032155 -0.15624101 1.4685608e-42
-0.026496924 -0.076814622 -0.02821286 2.3509876e-38
-0.024726056 -0.076814622 -0.02821286 2.3509883e-38
-0.022989824 -0.077488691 -0.031251982 2.3509886e-38
-0.021213632 -0.077488691 -0.031251982 2.3509527e-38
-0.019437436 -0.077488691 -0.031251982 2.3509527e-38
-0.01766124 -0.077488691 -0.031251982 2.3509527e-38
-0.015885046 -0.077488691 -0.031251982 2.3509527e-38
-0.01410885 -0.077488691 -0.031251982 2.3509886e-38
-0.012332655 -0.077488691 -0.031251982 2.3509886e-38
-0.010556459 -0.077488691 -0.031251982 2.3509886e-38
-0.0087802652 -0.077488691 -0.031251982 2.3509886e-38
-0.0070040692 -0.077488691 -0.031251982 2.3509886e-38
-0.005227875 -0.077488691 -0.031251982 2.3509886e-38
-0.0034516789 -0.077488691 -0.031251982 2.3509886e-38
-0.0016754838 -0.077488691 -0.031251982 2.3509886e-38
0.00013555586 -0.078166828 -0.034309462 2.3509886e-38
0.0019171126 -0.078166828 -0.034309462 2.3509886e-38
0.0036986684 -0.078166828 -0.034309462 2.3509886e-38
0.0055297464 -0.078826249 -0.037282541 2.3509886e-38
0.0073165148 -0.078826249 -0.037282541 2.3509886e-38
0.0091032833 -0.078826249 -0.037282541 2.3509886e-38
0.010890052 -0.078826249 -0.037282541 2.3509883e-38
0.01267682 -0.078826249 -0.037282541 2.3509883e-38
0.01446359 -0.078826249 -0.037282541 2.3509883e-38
0.016331634 -0.079489544 -0.040273145 2.3509883e-38
0.018123645 -0.079489544 -0.040273145 2.3508807e-38
0.019823898 -0.078826249 -0.037282541 2.3507366e-38
0.021610666 -0.078826249 -0.037282541 2.3509165e-38
0.023397435 -0.078826249 -0.037282541 2.314074e-38
0.025291696 -0.079489544 -0.040273145 2.341805e-38
0.045972615 -0.10765167 -0.16724582 2.267942e-38
0.047987256 -0.10765167 -0.16724582 1.7976745e-38
0.04979289 -0.10678484 -0.16333754 1.6592736e-38
0.050965708 -0.10343169 -0.14821954 2.11805e-39
0.052553181 -0.10189888 -0.14130862 7.3768555e-40
0.05387589 -0.099457815 -0.13030274 1.7529445e-39
0.055582207 -0.098564804 -0.12627645 1.5692721e-39
0.057525013 -0.098564804 -0.12627645 9.4862301e-41
0.059467819 -0.098564804 -0.12627645 2.7997243e-40
0.061211344 -0.097892582 -0.12324567 6.5055001e-40
0.063148841 -0.097892582 -0.12324567 2.8248636e-40
0.065296233 -0.098564804 -0.12627645 9.9171294e-41
0.067239031 -0.098564804 -0.12627645 2.1281926e-39
0.069181845 -0.098564804 -0.12627645 6.2469886e-42
0.071644239 -0.10011137 -0.13324936 7.3245871e-42
0.074213959 -0.10189888 -0.14130862 2.4966052e-39
0.076183118 -0.10189888 -0.14130862 4.2475963e-39
0.078392021 -0.10256544 -0.14431389 5.1699085e-39
0.080684878 -0.10343169 -0.14821954 6.2762533e-39
0.083334215 -0.10521083 -0.15624101 6.2773281e-39
0.085329555 -0.10521083 -0.15624101 2.5905749e-39
0.087324895 -0.10521083 -0.15624101 9.2286448e-39
0.08932025 -0.10521083 -0.15624101 9.4108556e-39
0.09131559 -0.10521083 -0.15624101 2.1255792e-39
0.09331093 -0.10521083 -0.15624101 2.1762165e-42
0.09559574 -0.10589527 -0.15932687 9.3637566e-41
-0.026496924 -0.078585491 -0.02821286 2.2864879e-38
-0.024726056 -0.078585491 -0.02821286 2.3509886e-38
-0.02295519 -0.078585491 -0.02821286 2.3509527e-38
-0.021184323 -0.078585491 -0.02821286 2.3509527e-38
-0.019413456 -0.078585491 -0.02821286 2.3509527e-38
-0.01766124 -0.079264879 -0.031251982 2.3509168e-38
-0.015885046 -0.079264879 -0.031251982 2.3509168e-38
-0.01410885 -0.079264879 -0.031251982 2.3509527e-38
-0.012332655 -0.079264879 -0.031251982 2.3509527e-38
-0.010556459 -0.079264879 -0.031251982 2.3509886e-38
-0.0087802652 -0.079264879 -0.031251982 2.3509886e-38
-0.0070040692 -0.079264879 -0.031251982 2.3509886e-38
-0.005227875 -0.079264879 -0.031251982 2.3509886e-38
-0.0034516789 -0.079264879 -0.031251982 2.3509886e-38
-0.0016754838 -0.079264879 -0.031251982 2.3509886e-38
0.00013555586 -0.079948381 -0.034309462 2.3509886e-38
0.0019171126 -0.079948381 -0.034309462 2.3509886e-38
0.0036986684 -0.079948381 -0.034309462 2.3509886e-38
0.0054802243 -0.079948381 -0.034309462 2.3509886e-38
0.007261781 -0.079948381 -0.034309462 2.3509886e-38
0.0091032833 -0.080613017 -0.037282541 2.3509886e-38
0.010824893 -0.079948381 -0.034309462 2.3509886e-38
0.012606448 -0.079948381 -0.034309462 2.3509883e-38
0.01446359 -0.080613017 -0.037282541 2.3509886e-38
0.016250359 -0.080613017 -0.037282541 2.3509527e-38
0.018037127 -0.080613017 -0.037282541 2.3508809e-38
0.019823898 -0.080613017 -0.037282541 2.3508451e-38
0.021514229 -0.079948381 -0.034309462 2.3045673e-38
0.023295783 -0.079948381 -0.034309462 2.3509168e-38
0.025184203 -0.080613017 -0.037282541 2.3416251e-38
0.04979289 -0.10879262 -0.16333754 1.7698009e-38
0.050965708 -0.10541297 -0.14821954 1.7499976e-39
0.052946988 -0.10541297 -0.14821954 9.2244675e-40
0.05387589 -0.10140768 -0.13030274 8.3207842e-40
0.055582207 -0.1005076 -0.12627645 7.4060165e-40
0.057088923 -0.098941371 -0.11927028 1.3866941e-39
0.059019443 -0.098941371 -0.11927028 1.2030217e-39
0.060949963 -0.098941371 -0.11927028 1.8922994e-40
0.062880486 -0.098941371 -0.11927028 4.6725176e-40
0.065086335 -0.099830076 -0.12324567 6.5164022e-40
0.067239031 -0.1005076 -0.12627645 7.4455051e-40
0.069181845 -0.1005076 -0.12627645 7.4490364e-40
0.071644239 -0.1020664 -0.13324936 9.9169892e-41
0.073599271 -0.1020664 -0.13324936 1.9171585e-40
0.075554304 -0.1020664 -0.13324936 1.0207492e-39
0.077834584 -0.10297783 -0.13732643 1.913417e-40
0.080366455 -0.10453986 -0.14431389 4.784033e-42
0.082340889 -0.10453986 -0.14431389 8.3769622e-42
0.085329555 -0.10720618 -0.15624101 3.6050729e-39
0.08698111 -0.10632066 -0.15227981 1.2824982e-38
0.088969506 -0.10632066 -0.15227981 1.2085958e-38
0.09131559 -0.10720618 -0.15624101 3.7858152e-39
0.093594976 -0.10789602 -0.15932687 1.0930128e-42
-0.029929597 -0.079021662 -0.022288874 5.4428296e-39
-0.028169118 -0.079021662 -0.022288874 1.272484e-38
-0.026408635 -0.079021662 -0.022288874 2.3141826e-38
-0.024687652 -0.079698354 -0.025292352 2.3417333e-38
-0.022921905 -0.079698354 -0.025292352 2.3509168e-38
-0.02115616 -0.079698354 -0.025292352 2.3509168e-38
-0.019390415 -0.079698354 -0.025292352 2.3509168e-38
-0.017642591 -0.080356359 -0.02821286 2.3508809e-38
-0.015871724 -0.080356359 -0.02821286 2.3508092e-38
-0.01410885 -0.081041083 -0.031251982 2.3416256e-38
-0.012332655 -0.081041083 -0.031251982 2.3508809e-38
-0.010559125 -0.080356359 -0.02821286 2.3509527e-38
-0.0087882578 -0.080356359 -0.02821286 2.3509527e-38
-0.0070173908 -0.080356359 -0.02821286 2.3509527e-38
-0.0052465238 -0.080356359 -0.02821286 2.3509527e-38
-0.0034756577 -0.080356359 -0.02821286 2.3509527e-38
-0.0016754838 -0.081041083 -0.031251982 2.3509527e-38
0.00010071136 -0.081041083 -0.031251982 2.3509886e-38
0.0018769065 -0.081041083 -0.031251982 2.3509886e-38
0.0036531016 -0.081041083 -0.031251982 2.3509886e-38
0.0054802243 -0.081729934 -0.034309462 2.3509886e-38
0.007261781 -0.081729934 -0.034309462 2.3509886e-38
0.0090433359 -0.081729934 -0.034309462 2.3509886e-38
0.010824893 -0.081729934 -0.034309462 2.3509886e-38
0.012606448 -0.081729934 -0.034309462 2.3509886e-38
0.014388004 -0.081729934 -0.034309462 2.3509886e-38
0.016169559 -0.081729934 -0.034309462 2.3509527e-38
0.017951116 -0.081729934 -0.034309462 2.3508809e-38
0.019732673 -0.081729934 -0.034309462 2.3509168e-38
0.021415055 -0.081041083 -0.031251982 2.3508451e-38
0.023191247 -0.081041083 -0.031251982 2.3415539e-38
0.024967443 -0.081041083 -0.031251982 2.3508809e-38
0.026743639 -0.081041083 -0.031251982 2.2863803e-38
0.051820908 -0.095475003 -0.095316365 7.4312819e-40
0.055158403 -0.10087189 -0.11927028 1.2048308e-39
0.057088923 -0.10087189 -0.11927028 1.0200836e-39
0.059019443 -0.10087189 -0.11927028 4.6655532e-40
0.060690466 -0.099982664 -0.1153235 5.9387029e-42
0.062614068 -0.099982664 -0.1153235 5.9387029e-42
0.064811006 -0.10087189 -0.11927028 6.2918301e-42
0.06624186 -0.099286526 -0.11223371 3.7579041e-40
0.068160042 -0.099286526 -0.11223371 1.2062587e-39
0.071424663 -0.10335754 -0.13030274 5.5407341e-42
0.073067449 -0.1024504 -0.12627645 1.2058706e-39
0.075010248 -0.1024504 -0.12627645 1.2976893e-39
0.077509336 -0.10402142 -0.13324936 9.9494994e-41
0.079796769 -0.10494001 -0.13732643 2.6092177e-42
0.082340889 -0.10651429 -0.14431389 7.4592378e-40
0.084315322 -0.10651429 -0.14431389 4.3419023e-39
0.08698111 -0.10830905 -0.15227981 1.2362911e-38
0.088969506 -0.10830905 -0.15227981 1.1624253e-38
0.090957902 -0.10830905 -0.15227981 3.0489662e-39
0.09331093 -0.10920154 -0.15624101 3.2580189e-42
-0.029929597 -0.080782145 -0.022288874 9.8686052e-39
-0.028169118 -0.080782145 -0.022288874 1.687438e-38
-0.026408635 -0.080782145 -0.022288874 2.286632e-38
-0.024648156 -0.080782145 -0.022288874 2.3049632e-38
-0.022887677 -0.080782145 -0.022288874 2.3416974e-38
-0.021127198 -0.080782145 -0.022288874 2.3508441e-38
-0.019390415 -0.081464097 -0.025292352 2.3507721e-38
-0.017624669 -0.081464097 -0.025292352 2.3507725e-38
-0.015858922 -0.081464097 -0.025292352 2.3508451e-38
-0.014100857 -0.082127213 -0.02821286 2.3508809e-38
-0.01232999 -0.082127213 -0.02821286 2.3508809e-38
-0.010559125 -0.082127213 -0.02821286 2.3509527e-38
-0.0087882578 -0.082127213 -0.02821286 2.3509527e-38
-0.0070173908 -0.082127213 -0.02821286 2.3509527e-38
-0.0052644461 -0.081464097 -0.025292352 2.3509527e-38
-0.0034987004 -0.081464097 -0.025292352 2.3509527e-38
-0.0017047916 -0.082127213 -0.02821286 2.3509527e-38
0.00010071136 -0.082817271 -0.031251982 2.3509886e-38
0.0018369416 -0.082127213 -0.02821286 2.3509886e-38
0.0036078086 -0.082127213 -0.02821286 2.3509886e-38
0.0054292977 -0.082817271 -0.031251982 2.3509886e-38
0.0072054919 -0.082817271 -0.031251982 2.3509886e-38
0.0090433359 -0.083511502 -0.034309462 2.3509886e-38
0.010757882 -0.082817271 -0.031251982 2.3509886e-38
0.012534078 -0.082817271 -0.031251982 2.3509886e-38
0.014310272 -0.082817271 -0.031251982 2.3509886e-38
0.016086468 -0.082817271 -0.031251982 2.3509886e-38
0.017862663 -0.082817271 -0.031251982 2.3509527e-38
0.019545607 -0.082127213 -0.02821286 2.2955641e-38
0.021316476 -0.082127213 -0.02821286 2.3231151e-38
0.023087341 -0.082127213 -0.02821286 2.3507733e-38
0.024967443 -0.082817271 -0.031251982 2.3508809e-38
0.026743639 -0.082817271 -0.031251982 2.3509527e-38
0.051820908 -0.097363517 -0.095316365 9.3003619e-40
0.053709429 -0.097363517 -0.095316365 7.4457293e-40
0.05559795 -0.097363517 -0.095316365 1.2977509e-39
0.057678137 -0.098043531 -0.09831126 5.5983275e-40
0.059831064 -0.09893848 -0.1022528 2.3401684e-42
0.061731752 -0.09893848 -0.1022528 2.7003021e-42
0.063842535 -0.099627286 -0.10528643 4.6763712e-40
0.065748528 -0.099627286 -0.10528643 8.3569237e-40
0.068160042 -0.10120471 -0.11223371 6.5200876e-40
0.070602566 -0.10280241 -0.11927028 1.2051685e-39
0.072836287 -0.10370506 -0.12324567 1.8512372e-39
0.074773781 -0.10370506 -0.12324567 1.0649868e-43
0.077274255 -0.10530742 -0.13030274 1.1728868e-42
0.079464369 -0.10597645 -0.13324936 6.5622807e-42
0.081419401 -0.10597645 -0.13324936 7.2713377e-42
0.084315322 -0.10848872 -0.14431389 6.0006963e-39
0.086289741 -0.10848872 -0.14431389 1.2822441e-38
0.088264175 -0.10848872 -0.14431389 1.1162909e-38
0.090957902 -0.11029746 -0.15227981 2.9564077e-39
0.09331093 -0.11119686 -0.15624101 2.9006878e-42
0.09530627 -0.11119686 -0.15624101 3.7203633e-40
-0.029929597 -0.082542613 -0.022288874 1.2911777e-38
-0.028169118 -0.082542613 -0.022288874 2.0563258e-38
-0.026408635 -0.082542613 -0.022288874 2.2774484e-38
-0.024648156 -0.082542613 -0.022288874 2.3234379e-38
-0.022887677 -0.082542613 -0.022288874 2.350988e-38
-0.021127198 -0.082542613 -0.022288874 2.3509867e-38
-0.019366717 -0.082542613 -0.022288874 2.3509865e-38
-0.017606236 -0.082542613 -0.022288874 2.350987e-38
-0.015858922 -0.08322984 -0.025292352 2.3509879e-38
-0.014093176 -0.08322984 -0.025292352 2.3508809e-38
-0.012327431 -0.08322984 -0.025292352 2.3416974e-38
-0.010561684 -0.08322984 -0.025292352 2.3509527e-38
-0.0087959394 -0.08322984 -0.025292352 2.3509527e-38
-0.0070301928 -0.08322984 -0.025292352 2.3509527e-38
-0.0052828779 -0.082542613 -0.022288874 2.3509527e-38
-0.003522398 -0.082542613 -0.022288874 2.3509886e-38
-0.0017329548 -0.08322984 -0.025292352 2.3509886e-38
6.6075474e-05 -0.083898082 -0.02821286 2.3509886e-38
0.0017985376 -0.08322984 -0.025292352 2.3509886e-38
0.0035642833 -0.08322984 -0.025292352 2.3509886e-38
0.0053786747 -0.083898082 -0.02821286 2.3509886e-38
0.0071495418 -0.083898082 -0.02821286 2.3509886e-38
0.0089816879 -0.084593475 -0.031251982 2.3509886e-38
0.010691276 -0.083898082 -0.02821286 2.3509886e-38
0.012462141 -0.083898082 -0.02821286 2.3509886e-38
0.014233008 -0.083898082 -0.02821286 2.3509886e-38
0.016003875 -0.083898082 -0.02821286 2.3509886e-38
0.017774742 -0.083898082 -0.02821286 2.3232585e-38
0.019545607 -0.083898082 -0.02821286 2.3509527e-38
0.021221742 -0.08322984 -0.025292352 2.3509527e-38
0.022884801 -0.082542613 -0.022288874 2.3416974e-38
0.02464528 -0.082542613 -0.022288874 2.3048189e-38
0.049932387 -0.099252045 -0.095316365 2.8650402e-39
0.051585648 -0.098335579 -0.091311052 2.5895435e-39
0.053281475 -0.097633243 -0.088241532 2.0349376e-39
0.055157591 -0.097633243 -0.088241532 9.2859285e-40
0.057033706 -0.097633243 -0.088241532 4.6726017e-40
0.059831064 -0.10083917 -0.1022528 7.4384986e-40
0.061731752 -0.10083917 -0.1022528 8.3604829e-40
0.063842535 -0.10153329 -0.10528643 4.6726297e-40
0.065748528 -0.10153329 -0.10528643 6.5128709e-40
0.066929087 -0.099252045 -0.095316365 6.268008e-42
0.06807138 -0.096960694 -0.085302189 8.3565733e-40
0.06994234 -0.096960694 -0.085302189 8.3564192e-40
0.074155666 -0.10382988 -0.1153235 1.0089349e-43
0.076079272 -0.10382988 -0.1153235 6.5748924e-42
0.079224132 -0.10725726 -0.13030274 1.7586422e-39
0.081419401 -0.10793148 -0.13324936 1.2047383e-39
0.084315322 -0.11046316 -0.14431389 5.8148631e-39
0.086289741 -0.11046316 -0.14431389 1.2452574e-38
0.088264175 -0.11046316 -0.14431389 1.134586e-38
0.090957902 -0.11228584 -0.15227981 4.1535089e-39
0.09331093 -0.11319222 -0.15624101 1.0177701e-39
0.09530627 -0.11319222 -0.15624101 9.2448844e-40
-0.029929597 -0.084303096 -0.022288874 1.3003975e-38
-0.028169118 -0.084303096 -0.022288874 2.0378869e-38
-0.026408635 -0.084303096 -0.022288874 2.2314231e-38
-0.024648156 -0.084303096 -0.022288874 2.3142544e-38
-0.022887677 -0.084303096 -0.022288874 2.3509876e-38
-0.021127198 -0.084303096 -0.022288874 2.3509863e-38
-0.019366717 -0.084303096 -0.022288874 2.350986e-38
-0.017606236 -0.084303096 -0.022288874 2.3509863e-38
-0.015845757 -0.084303096 -0.022288874 2.350987e-38
-0.014085278 -0.084303096 -0.022288874 2.350952e-38
-0.012324797 -0.084303096 -0.022288874 2.3140384e-38
-0.010561684 -0.084995598 -0.025292352 2.3509527e-38
-0.0087959394 -0.084995598 -0.025292352 2.3509527e-38
-0.0070433579 -0.084303096 -0.022288874 2.3509527e-38
-0.0052828779 -0.084303096 -0.022288874 2.3509527e-38
-0.003522398 -0.084303096 -0.022288874 2.3509886e-38
-0.001761918 -0.084303096 -0.022288874 2.3509886e-38
3.2790937e-05 -0.084995598 -0.025292352 2.3509886e-38
0.0017590411 -0.084303096 -0.022288874 2.3509886e-38
0.0035195211 -0.084303096 -0.022288874 2.3509886e-38
0.0053300299 -0.084995598 -0.025292352 2.3509886e-38
0.0070957746 -0.084995598 -0.025292352 2.3509886e-38
0.0089204088 -0.085668951 -0.02821286 2.3509886e-38
0.010691276 -0.085668951 -0.02821286 2.3509886e-38
0.012393013 -0.084995598 -0.025292352 2.3509886e-38
0.014158759 -0.084995598 -0.025292352 2.3509886e-38
0.015924506 -0.084995598 -0.025292352 2.3509886e-38
0.017690251 -0.084995598 -0.025292352 2.3509168e-38
0.019455997 -0.084995598 -0.025292352 2.3509527e-38
0.021124322 -0.084303096 -0.022288874 2.3325131e-38
0.022884801 -0.084303096 -0.022288874 2.3140737e-38
0.02464528 -0.084303096 -0.022288874 2.350988e-38
0.026629075 -0.085668951 -0.02821286 2.350988e-38
0.049704153 -0.10021709 -0.091311052 3.048707e-39
0.051405359 -0.099509358 -0.088241532 5.7231047e-39
0.053103674 -0.098831654 -0.085302189 8.2120308e-39
0.054974634 -0.098831654 -0.085302189 9.1339899e-39
0.056845602 -0.098831654 -0.085302189 9.8704787e-39
0.058716562 -0.098831654 -0.085302189 9.5013389e-39
0.060587529 -0.098831654 -0.085302189 6.3666875e-39
0.061969828 -0.097204864 -0.07824643 2.587024e-39
0.063828424 -0.097204864 -0.07824643 2.3097154e-39
0.06620042 -0.098831654 -0.085302189 1.6650565e-39
0.06807138 -0.098831654 -0.085302189 4.6614474e-40
0.06994234 -0.098831654 -0.085302189 2.6344411e-42
0.073601373 -0.1041155 -0.10821934 4.0609629e-42
0.075512521 -0.1041155 -0.10821934 6.508625e-40
0.078324653 -0.10666345 -0.11927028 5.5830113e-40
0.080586262 -0.10758002 -0.12324567 1.6653563e-39
0.084315322 -0.11243759 -0.14431389 5.0762163e-39
0.086289741 -0.11243759 -0.14431389 1.2451493e-38
0.088969506 -0.11427425 -0.15227981 1.2081983e-38
0.090957902 -0.11427425 -0.15227981 4.981829e-39
0.092946298 -0.11427425 -0.15227981 1.7542519e-39
0.094934694 -0.11427425 -0.15227981 1.8450028e-39
-0.029929597 -0.086063579 -0.022288874 1.2911791e-38
-0.028119385 -0.085369945 -0.019303158 1.8166917e-38
-0.02636414 -0.085369945 -0.019303158 2.2498619e-38
-0.024648156 -0.086063579 -0.022288874 2.3050708e-38
-0.022887677 -0.086063579 -0.022288874 2.3418039e-38
-0.021127198 -0.086063579 -0.022288874 2.350986e-38
-0.019366717 -0.086063579 -0.022288874 2.3509859e-38
-0.017606236 -0.086063579 -0.022288874 2.3509863e-38
-0.01583267 -0.085369945 -0.019303158 2.3509869e-38
-0.014077425 -0.085369945 -0.019303158 2.3509879e-38
-0.012324797 -0.086063579 -0.022288874 2.3509883e-38
-0.010564318 -0.086063579 -0.022288874 2.3509886e-38
-0.008803837 -0.086063579 -0.022288874 2.3509886e-38
-0.0070433579 -0.086063579 -0.022288874 2.3509886e-38
-0.0052828779 -0.086063579 -0.022288874 2.3509886e-38
-0.003522398 -0.086063579 -0.022288874 2.3509886e-38
-0.001761918 -0.086063579 -0.022288874 2.3509886e-38
3.2790937e-05 -0.08676134 -0.025292352 2.3509886e-38
0.0017590411 -0.086063579 -0.022288874 2.3509886e-38
0.0035195211 -0.086063579 -0.022288874 2.3509886e-38
0.0052800011 -0.086063579 -0.022288874 2.3509886e-38
0.0069855135 -0.085369945 -0.019303158 2.3509886e-38
0.0087407585 -0.085369945 -0.019303158 2.3509886e-38
0.01056144 -0.086063579 -0.022288874 2.3509886e-38
0.012321921 -0.086063579 -0.022288874 2.3509886e-38
0.0140824 -0.086063579 -0.022288874 2.3509886e-38
0.015842881 -0.086063579 -0.022288874 2.3509886e-38
0.01760336 -0.086063579 -0.022288874 2.3509527e-38
0.019363841 -0.086063579 -0.022288874 2.2956349e-38
0.021124322 -0.086063579 -0.022288874 2.3509518e-38
0.022884801 -0.086063579 -0.022288874 2.3509876e-38
0.02464528 -0.086063579 -0.022288874 2.3141452e-38
0.026518982 -0.08676134 -0.025292352 2.2495731e-38
0.049704153 -0.10209858 -0.091311052 4.8000568e-39
0.050995219 -0.099763289 -0.081258848 4.9848096e-39
0.052859094 -0.099763289 -0.081258848 6.5514192e-39
0.054722968 -0.099763289 -0.081258848 9.3172881e-39
0.056586843 -0.099763289 -0.081258848 1.1437072e-38
0.05845071 -0.099763289 -0.081258848 1.1437072e-38
0.060314585 -0.099763289 -0.081258848 1.0422197e-38
0.061762381 -0.098367572 -0.075251058 9.5002375e-39
0.063615724 -0.098367572 -0.075251058 4.5213119e-39
0.06620042 -0.10070263 -0.085302189 1.2022636e-39
0.068290412 -0.10138547 -0.088241532 2.9945748e-42
0.070166528 -0.10138547 -0.088241532 1.0509738e-43
0.073601373 -0.10602666 -0.10821934 3.3378929e-42
0.075512521 -0.10602666 -0.10821934 4.0511539e-42
0.078002863 -0.10767709 -0.1153235 2.2476827e-42
0.080586262 -0.10951753 -0.12324567 1.2029377e-39
0.082781471 -0.11022164 -0.12627645 4.2453738e-39
0.085683309 -0.11278872 -0.13732643 1.2818832e-38
0.087645479 -0.11278872 -0.13732643 1.2818103e-38
0.090238608 -0.11441202 -0.14431389 4.8885516e-39
0.092572547 -0.11531936 -0.14821954 1.4762231e-39
0.094553836 -0.11531936 -0.14821954 2.304539e-39
-0.028119385 -0.087125197 -0.019303158 1.6783631e-38
-0.02636414 -0.087125197 -0.019303158 2.2774843e-38
-0.024648156 -0.087824062 -0.022288874 2.3142544e-38
-0.022887677 -0.087824062 -0.022288874 2.350988e-38
-0.021127198 -0.087824062 -0.022288874 2.350987e-38
-0.019366717 -0.087824062 -0.022288874 2.3509866e-38
-0.017606236 -0.087824062 -0.022288874 2.3509507e-38
-0.01583267 -0.087125197 -0.019303158 2.3417676e-38
-0.014077425 -0.087125197 -0.019303158 2.350988e-38
-0.012324797 -0.087824062 -0.022288874 2.3509886e-38
-0.010564318 -0.087824062 -0.022288874 2.3509886e-38
-0.008803837 -0.087824062 -0.022288874 2.3509886e-38
-0.0070433579 -0.087824062 -0.022288874 2.3509886e-38
-0.0052828779 -0.087824062 -0.022288874 2.3509886e-38
-0.003522398 -0.087824062 -0.022288874 2.3509886e-38
-0.001761918 -0.087824062 -0.022288874 2.3509886e-38
3.2790937e-05 -0.088527083 -0.025292352 2.3509886e-38
0.0017590411 -0.087824062 -0.022288874 2.3509886e-38
0.0034750244 -0.087125197 -0.019303158 2.3509886e-38
0.0051791891 -0.086407393 -0.016236559 2.3509886e-38
0.0069290586 -0.086407393 -0.016236559 2.3509886e-38
0.0086789262 -0.086407393 -0.016236559 2.3509886e-38
0.010496004 -0.087125197 -0.019303158 2.3509886e-38
0.012251249 -0.087125197 -0.019303158 2.3509886e-38
0.014006494 -0.087125197 -0.019303158 2.3509886e-38
0.015761739 -0.087125197 -0.019303158 2.3509883e-38
0.017516984 -0.087125197 -0.019303158 2.350988e-38
0.019363841 -0.087824062 -0.022288874 2.2679758e-38
0.021124322 -0.087824062 -0.022288874 2.3509879e-38
0.022884801 -0.087824062 -0.022288874 2.3509879e-38
0.02464528 -0.087824062 -0.022288874 2.2772318e-38
0.026518982 -0.088527083 -0.025292352 2.341805e-38
0.049131345 -0.10162716 -0.081258848 3.3242079e-39
0.050818279 -0.10092205 -0.07824643 3.785186e-39
0.052676868 -0.10092205 -0.07824643 5.3514327e-39
0.054349024 -0.10022092 -0.075251058 7.7485191e-39
0.056202363 -0.10022092 -0.075251058 1.0421829e-38
0.060314585 -0.10162716 -0.081258848 1.3002581e-38
0.061762381 -0.10022092 -0.075251058 1.291074e-38
0.063615724 -0.10022092 -0.075251058 8.6690194e-39
0.06620042 -0.10257359 -0.085302189 1.1854985e-42
0.071690239 -0.1079378 -0.10821934 1.1756894e-42
0.073601373 -0.1079378 -0.10821934 1.5316192e-42
0.075832777 -0.10887744 -0.11223371 4.639461e-40
0.078002863 -0.10960068 -0.1153235 6.4833736e-40
0.080586262 -0.11145501 -0.12324567 7.286752e-44
0.082781471 -0.11216442 -0.12627645 1.8468441e-39
0.085329451 -0.11379658 -0.13324936 1.1711042e-38
0.087284483 -0.11379658 -0.13324936 1.2909217e-38
0.090238608 -0.11638646 -0.14431389 5.7168703e-39
0.092572547 -0.11730064 -0.14821954 2.5811287e-39
0.094553836 -0.11730064 -0.14821954 3.1339382e-39
-0.028169118 -0.089584544 -0.022288874 1.5769126e-38
-0.026408635 -0.089584544 -0.022288874 2.0654017e-38
-0.024648156 -0.089584544 -0.022288874 2.1113903e-38
-0.022887677 -0.089584544 -0.022288874 2.2218794e-38
-0.021127198 -0.089584544 -0.022288874 2.3416245e-38
-0.019366717 -0.089584544 -0.022288874 2.3509517e-38
-0.017606236 -0.089584544 -0.022288874 2.3509521e-38
-0.015845757 -0.089584544 -0.022288874 2.3416971e-38
-0.014085278 -0.089584544 -0.022288874 2.3417333e-38
-0.012324797 -0.089584544 -0.022288874 2.341805e-38
-0.010564318 -0.089584544 -0.022288874 2.341805e-38
-0.008803837 -0.089584544 -0.022288874 2.341805e-38
-0.0070433579 -0.089584544 -0.022288874 2.341805e-38
-0.0052828779 -0.089584544 -0.022288874 2.341805e-38
-0.003522398 -0.089584544 -0.022288874 2.341805e-38
-0.0017329548 -0.090292826 -0.025292352 2.341805e-38
-1.4379621e-06 -0.089584544 -0.022288874 2.341805e-38
0.0017590411 -0.089584544 -0.022288874 2.341805e-38
0.0034750244 -0.088880435 -0.019303158 2.3509886e-38
0.0051791891 -0.088157266 -0.016236559 2.3509886e-38
0.0069290586 -0.088157266 -0.016236559 2.3509886e-38
0.0086789262 -0.088157266 -0.016236559 2.3509886e-38
0.010496004 -0.088880435 -0.019303158 2.3509886e-38
0.012251249 -0.088880435 -0.019303158 2.3509886e-38
0.014006494 -0.088880435 -0.019303158 2.3509883e-38
0.015761739 -0.088880435 -0.019303158 2.350988e-38
0.017516984 -0.088880435 -0.019303158 2.3509876e-38
0.019272229 -0.088880435 -0.019303158 2.2864505e-38
0.021027472 -0.088880435 -0.019303158 2.286415e-38
0.022884801 -0.089584544 -0.022288874 2.2956715e-38
0.02464528 -0.089584544 -0.022288874 2.3417691e-38
0.026405759 -0.089584544 -0.022288874 2.2126972e-38
0.028399941 -0.090981558 -0.02821286 1.8808682e-38
0.030296028 -0.091698244 -0.031251982 4.0577624e-39
0.032072224 -0.091698244 -0.031251982 2.4904591e-39
0.03384842 -0.091698244 -0.031251982 1.8451065e-39
0.035624616 -0.091698244 -0.031251982 2.1224277e-39
0.037548233 -0.092419267 -0.034309462 3.5057265e-39
0.039177004 -0.091698244 -0.031251982 3.782319e-39
0.0409532 -0.091698244 -0.031251982 3.9674305e-39
0.042729396 -0.091698244 -0.031251982 4.613516e-39
0.049131345 -0.10349102 -0.081258848 4.0606981e-39
0.050818279 -0.10278064 -0.07824643 4.5216735e-39
0.052676868 -0.10278064 -0.07824643 4.1521721e-39
0.054349024 -0.10207425 -0.075251058 3.5060782e-39
0.056202363 -0.10207425 -0.075251058 4.5198644e-39
0.078895859 -0.11410724 -0.12627645 1.2007853e-39
0.080838673 -0.11410724 -0.12627645 3.7101339e-40
0.083123855 -0.11505674 -0.13030274 1.8454022e-39
0.085329451 -0.11575161 -0.13324936 1.1156427e-38
0.087284483 -0.11575161 -0.13324936 1.2538994e-38
0.090238608 -0.11836089 -0.14431389 6.0845711e-39
0.092213042 -0.11836089 -0.14431389 3.1335808e-39
0.094553836 -0.11928193 -0.14821954 3.3172476e-39
0.096535109 -0.11928193 -0.14821954 2.8548275e-39
-0.026408635 -0.091345012 -0.022288874 1.678181e-38
-0.024648156 -0.091345012 -0.022288874 1.6319012e-38
-0.022887677 -0.091345012 -0.022288874 1.8530973e-38
-0.021127198 -0.091345012 -0.022288874 2.1387947e-38
-0.01934316 -0.090635687 -0.019303158 2.3415529e-38
-0.017587915 -0.090635687 -0.019303158 2.3509168e-38
-0.015845757 -0.091345012 -0.022288874 2.3509168e-38
-0.014085278 -0.091345012 -0.022288874 2.3417691e-38
-0.012324797 -0.091345012 -0.022288874 2.3234379e-38
-0.010564318 -0.091345012 -0.022288874 2.341805e-38
-0.008803837 -0.091345012 -0.022288874 2.341805e-38
-0.0070433579 -0.091345012 -0.022288874 2.341805e-38
-0.0052828779 -0.091345012 -0.022288874 2.341805e-38
-0.003522398 -0.091345012 -0.022288874 2.341805e-38
-0.001761918 -0.091345012 -0.022288874 2.341805e-38
-3.5465695e-05 -0.090635687 -0.019303158 2.341805e-38
0.0017197793 -0.090635687 -0.019303158 2.341805e-38
0.0034293216 -0.089907125 -0.016236559 2.3509886e-38
0.0051791891 -0.089907125 -0.016236559 2.3509886e-38
0.0069290586 -0.089907125 -0.016236559 2.3509886e-38
0.0086789262 -0.089907125 -0.016236559 2.3509886e-38
0.010428794 -0.089907125 -0.016236559 2.3509886e-38
0.012178663 -0.089907125 -0.016236559 2.3509886e-38
0.014006494 -0.090635687 -0.019303158 2.3509883e-38
0.015761739 -0.090635687 -0.019303158 2.350988e-38
0.017516984 -0.090635687 -0.019303158 2.2771228e-38
0.019272229 -0.090635687 -0.019303158 2.3509876e-38
0.021027472 -0.090635687 -0.019303158 2.3509527e-38
0.022884801 -0.091345012 -0.022288874 2.3417691e-38
0.02464528 -0.091345012 -0.022288874 2.0006491e-38
0.026405759 -0.091345012 -0.022288874 4.1495811e-39
0.028399941 -0.092752427 -0.02821286 2.8588647e-39
0.030296028 -0.093474448 -0.031251982 1.8450897e-39
0.032072224 -0.093474448 -0.031251982 2.5826687e-39
0.03384842 -0.093474448 -0.031251982 3.9666934e-39
0.035624616 -0.093474448 -0.031251982 3.598278e-39
0.037548233 -0.094200835 -0.034309462 4.059982e-39
0.039177004 -0.093474448 -0.031251982 4.0596261e-39
0.0409532 -0.093474448 -0.031251982 3.9674305e-39
0.042729396 -0.093474448 -0.031251982 4.7057144e-39
0.044505592 -0.093474448 -0.031251982 4.8901056e-39
0.046281785 -0.093474448 -0.031251982 4.8893882e-39
0.048057981 -0.093474448 -0.031251982 4.6120796e-39
0.052676868 -0.10463922 -0.07824643 4.7964653e-39
0.05453546 -0.10463922 -0.07824643 4.8882966e-39
0.056394052 -0.10463922 -0.07824643 3.3209611e-39
0.084059753 -0.11962132 -0.14130862 5.2562775e-39
0.085683309 -0.11867525 -0.13732643 1.2447163e-38
0.087645479 -0.11867525 -0.13732643 1.2169132e-38
0.090238608 -0.12033533 -0.14431389 5.0700576e-39
0.092213042 -0.12033533 -0.14431389 1.842842e-39
0.094553836 -0.12126322 -0.14821954 2.1183415e-39
0.096535109 -0.12126322 -0.14821954 2.3016537e-39
-0.024648156 -0.093105495 -0.022288874 1.7241324e-38
-0.022887677 -0.093105495 -0.022288874 1.9267816e-38
-0.021127198 -0.093105495 -0.022288874 2.0834417e-38
-0.01934316 -0.092390925 -0.019303158 2.3138945e-38
-0.017587915 -0.092390925 -0.019303158 2.3509168e-38
-0.01583267 -0.092390925 -0.019303158 2.3232944e-38
-0.014077425 -0.092390925 -0.019303158 2.323402e-38
-0.01232218 -0.092390925 -0.019303158 2.2589378e-38
-0.010564318 -0.093105495 -0.022288874 2.3142185e-38
-0.008803837 -0.093105495 -0.022288874 2.3234379e-38
-0.0070433579 -0.093105495 -0.022288874 2.3234379e-38
-0.0052828779 -0.093105495 -0.022288874 2.3234379e-38
-0.003522398 -0.093105495 -0.022288874 2.3234379e-38
-0.001761918 -0.093105495 -0.022288874 2.2589374e-38
-3.5465695e-05 -0.092390925 -0.019303158 2.2957078e-38
0.0017197793 -0.092390925 -0.019303158 2.341805e-38
0.0034293216 -0.091656998 -0.016236559 2.3325856e-38
0.0051791891 -0.091656998 -0.016236559 2.341805e-38
0.0068747532 -0.090951025 -0.013286784 2.3509886e-38
0.0086194482 -0.090951025 -0.013286784 2.3509886e-38
0.010364145 -0.090951025 -0.013286784 2.3325494e-38
0.012108842 -0.090951025 -0.013286784 2.3048907e-38
0.013928531 -0.091656998 -0.016236559 2.3233299e-38
0.015678398 -0.091656998 -0.016236559 2.3418043e-38
0.017428268 -0.091656998 -0.016236559 2.350987e-38
0.019178135 -0.091656998 -0.016236559 2.3509876e-38
0.021027472 -0.092390925 -0.019303158 2.3508809e-38
0.022782717 -0.092390925 -0.019303158 2.1203952e-38
0.02464528 -0.093105495 -0.022288874 1.410528e-38
0.026518982 -0.093824327 -0.025292352 8.6880505e-44
0.028399941 -0.094523281 -0.02821286 2.8588927e-39
0.030296028 -0.095250636 -0.031251982 3.6897436e-39
0.032072224 -0.095250636 -0.031251982 3.9666934e-39
0.03384842 -0.095250636 -0.031251982 4.059252e-39
0.035624616 -0.095250636 -0.031251982 3.6915484e-39
0.037400812 -0.095250636 -0.031251982 3.1387376e-39
0.039177004 -0.095250636 -0.031251982 3.2309346e-39
0.0409532 -0.095250636 -0.031251982 3.9681465e-39
0.042729396 -0.095250636 -0.031251982 4.5206043e-39
0.044505592 -0.095250636 -0.031251982 4.6128041e-39
0.046281785 -0.095250636 -0.031251982 5.348937e-39
0.048057981 -0.095250636 -0.031251982 3.4131847e-39
0.049111392 -0.092390925 -0.019303158 3.9659927e-39
0.050866637 -0.092390925 -0.019303158 4.9797775e-39
0.084059753 -0.12159048 -0.14130862 2.5826043e-39
0.085683309 -0.12063743 -0.13732643 1.1340815e-38
0.087645479 -0.12063743 -0.13732643 1.2998893e-38
0.090238608 -0.12230973 -0.14431389 5.1622532e-39
0.092572547 -0.12324448 -0.14821954 9.2088571e-40
0.094553836 -0.12324448 -0.14821954 2.7637109e-39
0.096923091 -0.12421621 -0.15227981 3.5923926e-39
0.098911487 -0.12421621 -0.15227981 2.8544646e-39
-0.021127198 -0.094865978 -0.022288874 2.3416251e-38
-0.019366717 -0.094865978 -0.022288874 2.3509527e-38
-0.017587915 -0.094146177 -0.019303158 2.3509527e-38
-0.01583267 -0.094146177 -0.019303158 2.2864883e-38
-0.01406936 -0.093406871 -0.016236559 2.2865602e-38
-0.012319492 -0.093406871 -0.016236559 2.2036209e-38
-0.010564318 -0.094865978 -0.022288874 2.1667782e-38
-0.008803837 -0.094865978 -0.022288874 2.0100456e-38
-0.0070433579 -0.094865978 -0.022288874 1.8072153e-38
-0.0052828779 -0.094865978 -0.022288874 1.6780695e-38
-0.003522398 -0.094865978 -0.022288874 1.5950934e-38
-0.001761918 -0.094865978 -0.022288874 1.5582149e-38
-3.5465695e-05 -0.094146177 -0.019303158 1.6042407e-38
0.0017197793 -0.094146177 -0.019303158 1.6595579e-38
0.0034293216 -0.093406871 -0.016236559 1.677997e-38
0.0051791891 -0.093406871 -0.016236559 1.7148753e-38
0.0068747532 -0.092695728 -0.013286784 1.7793403e-38
0.0086194482 -0.092695728 -0.013286784 1.8346933e-38
0.010364145 -0.092695728 -0.013286784 1.9084498e-38
0.012108842 -0.092695728 -0.013286784 2.0098647e-38
0.013928531 -0.093406871 -0.016236559 2.1297193e-38
0.015678398 -0.093406871 -0.016236559 2.2218781e-38
0.017428268 -0.093406871 -0.016236559 2.1665235e-38
0.019178135 -0.093406871 -0.016236559 2.2956701e-38
0.020928003 -0.093406871 -0.016236559 2.2218446e-38
0.022677872 -0.093406871 -0.016236559 1.401307e-38
0.02464528 -0.094865978 -0.022288874 7.9281922e-39
0.026518982 -0.09559007 -0.025292352 2.3975586e-39
0.028519835 -0.09702684 -0.031251982 5.0723277e-39
0.030296028 -0.09702684 -0.031251982 4.2432943e-39
0.032072224 -0.09702684 -0.031251982 3.3224114e-39
0.03384842 -0.09702684 -0.031251982 3.3231289e-39
0.035624616 -0.09702684 -0.031251982 3.323482e-39
0.037254274 -0.09629415 -0.02821286 3.5078732e-39
0.039025139 -0.09629415 -0.02821286 4.2454411e-39
0.040796008 -0.09629415 -0.02821286 5.1670429e-39
0.042729396 -0.09702684 -0.031251982 5.5347562e-39
0.044505592 -0.09702684 -0.031251982 5.2578176e-39
0.04577104 -0.094865978 -0.022288874 4.8879603e-39
0.047356147 -0.094146177 -0.019303158 2.6752651e-39
0.049111392 -0.094146177 -0.019303158 2.9514849e-39
0.050866637 -0.094146177 -0.019303158 2.4904983e-39
0.052236851 -0.092695728 -0.013286784 1.567812e-39
0.084315322 -0.12428416 -0.14431389 2.5833231e-39
0.086028926 -0.12355967 -0.14130862 9.9578833e-39
0.087998085 -0.12355967 -0.14130862 1.1524842e-38
0.090238608 -0.12428416 -0.14431389 5.1626148e-39
0.092572547 -0.12522577 -0.14821954 1.2896682e-39
0.094553836 -0.12522577 -0.14821954 1.3811394e-39
0.096923091 -0.12620462 -0.15227981 1.3796974e-39
0.098911487 -0.12620462 -0.15227981 1.8403127e-39
0.1008999 -0.12620462 -0.15227981 2.3931305e-39
-0.017569095 -0.095156729 -0.016236559 2.3509886e-38
-0.015819227 -0.095156729 -0.016236559 2.277376e-38
-0.014061602 -0.094440416 -0.013286784 2.2774481e-38
-0.012316905 -0.094440416 -0.013286784 2.1668858e-38
-0.010564318 -0.096626461 -0.022288874 2.1207524e-38
-0.008803837 -0.096626461 -0.022288874 2.0101179e-38
-0.0070433579 -0.096626461 -0.022288874 1.8626049e-38
-0.0052828779 -0.096626461 -0.022288874 1.7610818e-38
-0.003522398 -0.096626461 -0.022288874 1.6688862e-38
-0.001761918 -0.096626461 -0.022288874 1.6412631e-38
-3.5465695e-05 -0.095901415 -0.019303158 1.6780695e-38
0.0017197793 -0.095901415 -0.019303158 1.7333866e-38
0.0034293216 -0.095156729 -0.016236559 1.7425341e-38
0.0051791891 -0.095156729 -0.016236559 1.7794124e-38
0.0068747532 -0.094440416 -0.013286784 1.8346579e-38
0.0086194482 -0.094440416 -0.013286784 1.8807555e-38
0.010364145 -0.094440416 -0.013286784 1.9452925e-38
0.012108842 -0.094440416 -0.013286784 2.0283041e-38
0.013928531 -0.095156729 -0.016236559 2.1480868e-38
0.015515892 -0.093704656 -0.010256901 2.2218784e-38
0.017255275 -0.093704656 -0.010256901 2.2771583e-38
0.018994659 -0.093704656 -0.010256901 2.2587562e-38
0.020734042 -0.093704656 -0.010256901 2.2771256e-38
0.022677872 -0.095156729 -0.016236559 1.3828327e-38
0.02464528 -0.096626461 -0.022288874 7.5594237e-39
0.026518982 -0.097355813 -0.025292352 4.6102677e-39
0.028284729 -0.097355813 -0.025292352 4.4269709e-39
0.030296028 -0.098803028 -0.031251982 4.4284128e-39
0.032072224 -0.098803028 -0.031251982 4.3369319e-39
0.03384842 -0.098803028 -0.031251982 3.9695787e-39
0.035624616 -0.098803028 -0.031251982 3.877732e-39
0.037113458 -0.097355813 -0.025292352 4.0624792e-39
0.03872912 -0.096626461 -0.022288874 4.8908049e-39
0.040489599 -0.096626461 -0.022288874 5.2592371e-39
0.042250078 -0.096626461 -0.022288874 4.8897427e-39
0.043845657 -0.095901415 -0.019303158 4.1518259e-39
0.045426156 -0.095156729 -0.016236559 5.350016e-39
0.047176026 -0.095156729 -0.016236559 2.5830681e-39
0.048747461 -0.094440416 -0.013286784 2.5827024e-39
0.050492156 -0.094440416 -0.013286784 4.6219448e-40
0.052236851 -0.094440416 -0.013286784 1.2471556e-43
0.054377127 -0.095901415 -0.019303158 2.7598433e-40
0.088264175 -0.1262586 -0.14431389 9.8667611e-39
0.090238608 -0.1262586 -0.14431389 4.3339359e-39
0.092572547 -0.12720706 -0.14821954 1.1059986e-39
0.094934694 -0.12819304 -0.15227981 1.1056343e-39
0.09730161 -0.12915494 -0.15624101 1.1041896e-39
0.099296965 -0.12915494 -0.15624101 2.8548275e-39
-0.061879553 -0.091297671 0.0066954345 1.1251868e-38
-0.060169883 -0.091297671 0.0066954345 1.1342291e-38
-0.05517178 -0.092013597 0.0037683696 1.3643646e-38
-0.053456984 -0.092013597 0.0037683696 1.4289744e-38
-0.051742189 -0.092013597 0.0037683696 1.2354352e-38
-0.050027397 -0.092013597 0.0037683696 1.30008e-38
-0.037888132 -0.090792179 0.0087621063 8.8552058e-39
-0.036182098 -0.090792179 0.0087621063 1.1436664e-38
-0.034476057 -0.090792179 0.0087621063 1.3096535e-38
-0.03270448 -0.090060756 0.011752531 1.5862753e-38
-0.031003688 -0.090060756 0.011752531 1.7430065e-38
-0.029302895 -0.090060756 0.011752531 2.1394441e-38
-0.027686335 -0.091297671 0.0066954345 2.2590813e-38
-0.019318964 -0.096906602 -0.016236559 2.3509168e-38
-0.017569095 -0.096906602 -0.016236559 2.3509886e-38
-0.015819227 -0.096906602 -0.016236559 2.3142544e-38
-0.014061602 -0.096185118 -0.013286784 2.2958873e-38
-0.012316905 -0.096185118 -0.013286784 2.2407141e-38
-0.010564318 -0.098386943 -0.022288874 2.2130201e-38
-0.008803837 -0.098386943 -0.022288874 2.2774484e-38
-0.0070433579 -0.098386943 -0.022288874 2.2958873e-38
-0.0052828779 -0.098386943 -0.022288874 2.2406066e-38
-0.0034987004 -0.099121556 -0.025292352 2.1206451e-38
-0.0017329548 -0.099121556 -0.025292352 2.0376687e-38
-3.5465695e-05 -0.097656667 -0.019303158 2.0929501e-38
0.0017197793 -0.097656667 -0.019303158 2.1759262e-38
0.0034293216 -0.096906602 -0.016236559 2.295672e-38
0.0051791891 -0.096906602 -0.016236559 2.3233303e-38
0.0068747532 -0.096185118 -0.013286784 2.3509527e-38
0.0085583571 -0.095444039 -0.010256901 2.3509527e-38
0.01029774 -0.095444039 -0.010256901 2.3509527e-38
0.012108842 -0.096185118 -0.013286784 2.3417333e-38
0.013776507 -0.095444039 -0.010256901 2.3509168e-38
0.015434049 -0.094707444 -0.0072453767 2.3509527e-38
0.017168151 -0.094707444 -0.0072453767 2.3509873e-38
0.018902255 -0.094707444 -0.0072453767 2.2956346e-38
0.020734042 -0.095444039 -0.010256901 2.3508809e-38
