# .PCD v0.7 - Point Cloud Data file format
VERSION 0.7
FIELDS x y z rgb
SIZE 4 4 4 4
TYPE F F F F
COUNT 1 1 1 1
WIDTH 944
HEIGHT 1
VIEWPOINT 0 0 0 1 0 0 0
POINTS 944
DATA ascii
-0.058985714 -0.12027912 0.036493629 1.5742747e-39
-0.057265591 -0.12027912 0.036493629 2.9568435e-39
-0.055532143 -0.11945029 0.039533645 8.948472e-39
-0.05381735 -0.11945029 0.039533645 1.1713972e-38
-0.052102558 -0.11945029 0.039533645 1.3188731e-38
-0.050390329 -0.11865224 0.04246071 1.1805781e-38
-0.048686102 -0.11808877 0.044527382 8.9484243e-39
-0.046980068 -0.11808877 0.044527382 8.0264652e-39
-0.045292381 -0.11727346 0.047517806 1.4940775e-38
-0.043615036 -0.11646311 0.050489992 1.9919333e-38
-0.041919455 -0.11646311 0.050489992 2.2316024e-38
-0.040223874 -0.11646311 0.050489992 2.2316024e-38
-0.038568344 -0.11563264 0.053535968 1.8628597e-38
-0.036878102 -0.11563264 0.053535968 1.659994e-38
-0.035219982 -0.11510687 0.055464417 1.816763e-38
-0.033533119 -0.11510687 0.055464417 1.6600673e-38
-0.031907048 -0.11428489 0.05847922 1.8260913e-38
-0.030291134 -0.11346807 0.061475188 1.7892136e-38
-0.028614813 -0.11346807 0.061475188 7.8435524e-39
-0.026938491 -0.11346807 0.061475188 7.2907429e-39
-0.02526217 -0.11346807 0.061475188 4.0617379e-39
-0.023645936 -0.11290176 0.063552231 2.3064168e-39
-0.021973256 -0.11290176 0.063552231 5.7162131e-39
-0.020300576 -0.11290176 0.063552231 2.8588675e-39
-0.018556882 -0.11346807 0.061475188 8.8281803e-44
-0.016880561 -0.11346807 0.061475188 4.7504018e-43
-0.015204236 -0.11346807 0.061475188 9.2316142e-41
-0.013527915 -0.11346807 0.061475188 6.4404658e-40
-0.011728149 -0.11428489 0.05847922 1.5666965e-39
-0.010046575 -0.11428489 0.05847922 1.2537214e-38
-0.0083650015 -0.11428489 0.05847922 2.2956003e-38
-0.0065433457 -0.11510687 0.055464417 2.2218076e-38
-0.0047635026 -0.11563264 0.053535968 2.1665621e-38
-0.0029210523 -0.11646311 0.050489992 2.028378e-38
-0.0010717399 -0.11727346 0.047517806 2.2774484e-38
0.00062905625 -0.11727346 0.047517806 2.2590813e-38
0.0024950095 -0.11808877 0.044527382 2.2775202e-38
0.0043188147 -0.11865224 0.04246071 2.2867037e-38
0.0060284734 -0.11865224 0.04246071 2.2774843e-38
0.0079151914 -0.11945029 0.039533645 2.2221305e-38
0.0096299872 -0.11945029 0.039533645 2.3142537e-38
0.011539333 -0.12027912 0.036493629 2.3234364e-38
0.013650276 -0.12189974 0.030549556 2.2313486e-38
0.015517831 -0.12245311 0.028519899 2.3418045e-38
0.017251931 -0.12245311 0.028519899 2.2404631e-38
0.019199885 -0.12327419 0.025508374 1.9730264e-38
0.021159731 -0.12410025 0.022478491 6.5470304e-39
0.023124233 -0.1249045 0.019528717 4.4281031e-43
0.024874106 -0.1249045 0.019528717 4.55422e-43
0.02686324 -0.12574057 0.016462117 7.4055121e-40
0.028618485 -0.12574057 0.016462117 7.5641138e-39
0.030617155 -0.12655462 0.013476402 5.6287245e-39
0.032377634 -0.12655462 0.013476402 6.5517598e-39
0.034393523 -0.1273735 0.010472924 5.0766297e-39
0.036412735 -0.12816976 0.0075524151 7.4450427e-40
0.038723413 -0.12983195 0.0014558136 3.7678954e-40
0.040773425 -0.13064255 -0.001517266 7.292538e-39
0.042835478 -0.13145791 -0.0045078695 8.5825705e-39
0.044909675 -0.1322781 -0.0075161159 8.2141439e-39
0.046996105 -0.13310309 -0.010542005 4.987999e-39
0.048798699 -0.13310309 -0.010542005 1.944467e-39
0.050892401 -0.13390426 -0.013480633 5.4461255e-39
0.052700151 -0.13390426 -0.013480633 1.0147742e-38
0.054821897 -0.13473894 -0.016542047 9.0406536e-39
0.056635011 -0.13473894 -0.016542047 4.3580382e-43
0.05918302 -0.13662781 -0.023470014 9.444051e-41
0.061333183 -0.13744931 -0.026483148 8.8515834e-39
0.063163728 -0.13744931 -0.026483148 7.7448603e-39
0.065331683 -0.13827558 -0.029513687 3.7815286e-39
0.067499921 -0.1390769 -0.032452792 1.5717314e-39
0.069340929 -0.1390769 -0.032452792 7.9350249e-39
0.071654677 -0.14018236 -0.036507338 1.1253326e-38
0.073855296 -0.14099441 -0.039485782 1.6691413e-38
0.075708643 -0.14099441 -0.039485782 1.6966553e-38
0.078294069 -0.14263238 -0.045493573 1.3923737e-38
0.080657735 -0.14373477 -0.049536914 1.0788734e-38
0.082897186 -0.14453618 -0.052476257 8.9444699e-39
0.084773302 -0.14453618 -0.052476257 9.0370284e-39
0.087044984 -0.14537306 -0.055545777 6.0878445e-39
0.088926494 -0.14537306 -0.055545777 5.5357413e-39
0.091338202 -0.14646508 -0.05955109 3.9236357e-44
0.093226716 -0.14646508 -0.05955109 4.0077136e-43
0.096057788 -0.14835624 -0.066487521 1.846121e-39
0.098376006 -0.14918335 -0.069521159 1.8446903e-39
0.10069083 -0.14998297 -0.072454065 5.7453237e-44
-0.1078597 -0.13407536 -0.0075161159 1.3188283e-38
-0.10590154 -0.13324992 -0.0045078695 1.2635123e-38
-0.10410953 -0.13324992 -0.0045078695 1.1988694e-38
-0.10231751 -0.13324992 -0.0045078695 7.5626018e-39
-0.1003813 -0.13242932 -0.001517266 4.2421424e-39
-0.098594531 -0.13242932 -0.001517266 1.936544e-39
-0.096674845 -0.13161351 0.0014558136 6.3619385e-39
-0.094893277 -0.13161351 0.0014558136 1.3552477e-38
-0.092985749 -0.13077454 0.0045132935 1.4198197e-38
-0.091209553 -0.13077454 0.0045132935 1.3644649e-38
-0.089318797 -0.12994061 0.0075524151 1.6226114e-38
-0.087442949 -0.12913923 0.010472924 1.5212313e-38
-0.085574523 -0.12831511 0.013476402 1.5395619e-38
-0.08371719 -0.12749584 0.016462117 1.1339009e-38
-0.081961945 -0.12749584 0.016462117 1.1246813e-38
-0.080206707 -0.12749584 0.016462117 6.0856669e-39
-0.078451455 -0.12749584 0.016462117 4.1531782e-39
-0.076618254 -0.12665437 0.019528717 2.2178e-39
-0.074868381 -0.12665437 0.019528717 1.1103735e-39
-0.073053867 -0.12584494 0.022478491 2.1234492e-39
-0.071309164 -0.12584494 0.022478491 1.6613991e-39
-0.069508687 -0.12501357 0.025508374 8.3164261e-40
-0.067719147 -0.12418722 0.028519899 1.2929865e-39
-0.065985039 -0.12418722 0.028519899 9.5527918e-41
-0.064224243 -0.12363027 0.030549556 6.4591872e-39
-0.06245973 -0.12281232 0.033530563 6.0914865e-39
-0.06073441 -0.12281232 0.033530563 5.0780506e-39
-0.058985714 -0.12199925 0.036493629 4.9858494e-39
-0.057265591 -0.12199925 0.036493629 5.5386588e-39
-0.055532143 -0.12116508 0.039533645 9.0413669e-39
-0.05381735 -0.12116508 0.039533645 9.3179453e-39
-0.052102558 -0.12116508 0.039533645 1.4110675e-38
-0.050390329 -0.12036191 0.04246071 1.4478366e-38
-0.048680671 -0.12036191 0.04246071 6.9179597e-39
-0.046980068 -0.1197948 0.044527382 7.6555191e-39
-0.04527403 -0.1197948 0.044527382 1.6966553e-38
-0.043591589 -0.11897425 0.047517806 1.9456188e-38
-0.041919455 -0.11815868 0.050489992 2.2222036e-38
-0.040223874 -0.11815868 0.050489992 2.2775202e-38
-0.038568344 -0.11732288 0.053535968 1.8720057e-38
-0.036878102 -0.11732288 0.053535968 1.8166529e-38
-0.035219982 -0.11679374 0.055464417 1.7337134e-38
-0.033588625 -0.11596648 0.05847922 1.9642392e-38
-0.031907048 -0.11596648 0.05847922 1.7706655e-38
-0.030225474 -0.11596648 0.05847922 1.6692517e-38
-0.028614813 -0.11514439 0.061475188 7.6580723e-39
-0.026938491 -0.11514439 0.061475188 7.8424734e-39
-0.02526217 -0.11514439 0.061475188 3.6915134e-39
-0.023645936 -0.11457445 0.063552231 2.0283907e-39
-0.021973256 -0.11457445 0.063552231 5.714774e-39
-0.020300576 -0.11457445 0.063552231 2.9503442e-39
-0.018627897 -0.11457445 0.063552231 4.540207e-43
-0.016955215 -0.11457445 0.063552231 4.6037559e-40
-0.015204236 -0.11514439 0.061475188 3.6782683e-40
-0.013527915 -0.11514439 0.061475188 6.4368645e-40
-0.011851594 -0.11514439 0.061475188 1.4734219e-39
-0.010046575 -0.11596648 0.05847922 1.2075514e-38
-0.0083650015 -0.11596648 0.05847922 2.3509168e-38
-0.0065433457 -0.11679374 0.055464417 2.3509527e-38
-0.0047635026 -0.11732288 0.053535968 2.0097931e-38
-0.0029210523 -0.11815868 0.050489992 1.8623534e-38
-0.0010717399 -0.11897425 0.047517806 2.1759626e-38
0.00062905625 -0.11897425 0.047517806 2.2314948e-38
0.0024950095 -0.1197948 0.044527382 2.2499695e-38
0.0043188147 -0.12036191 0.04246071 2.1761422e-38
0.0060284734 -0.12036191 0.04246071 2.2958873e-38
0.0079151914 -0.12116508 0.039533645 2.23135e-38
0.0096299872 -0.12116508 0.039533645 2.2313852e-38
0.011539333 -0.12199925 0.036493629 2.3142527e-38
0.013454273 -0.12281232 0.033530563 2.3050693e-38
0.015517831 -0.12418722 0.028519899 2.3234379e-38
0.017251931 -0.12418722 0.028519899 2.3049632e-38
0.019199885 -0.12501357 0.025508374 2.0745135e-38
0.021159731 -0.12584494 0.022478491 6.1786136e-39
0.023124233 -0.12665437 0.019528717 7.9874012e-44
0.024874106 -0.12665437 0.019528717 9.5288296e-44
0.02686324 -0.12749584 0.016462117 2.6260333e-42
0.028618485 -0.12749584 0.016462117 7.2886017e-39
0.030617155 -0.12831511 0.013476402 5.7227124e-39
0.032377634 -0.12831511 0.013476402 4.1561027e-39
0.034393523 -0.12913923 0.010472924 5.4468415e-39
0.036412735 -0.12994061 0.0075524151 3.7643921e-40
0.038452704 -0.13077454 0.0045132935 6.202147e-42
0.040773425 -0.13242932 -0.001517266 9.3208404e-39
0.042835478 -0.13324992 -0.0045078695 1.2455137e-38
0.044909675 -0.13407536 -0.0075161159 5.6330166e-39
0.046996105 -0.13490568 -0.010542005 2.8602183e-40
0.048798699 -0.13490568 -0.010542005 1.6678801e-39
0.050892401 -0.13571201 -0.013480633 8.4885728e-39
0.052700151 -0.13571201 -0.013480633 1.0330688e-38
0.0545079 -0.13571201 -0.013480633 8.3012935e-39
0.056635011 -0.13655205 -0.016542047 8.1275311e-44
0.058865253 -0.13763104 -0.020474285 2.7667097e-40
0.061008278 -0.13845308 -0.023470014 8.1129352e-39
0.063163728 -0.13927986 -0.026483148 8.6650187e-39
0.065331683 -0.14011143 -0.029513687 7.0998552e-39
0.067167535 -0.14011143 -0.029513687 6.7357657e-39
0.069340929 -0.14091791 -0.032452792 8.0279436e-39
0.071654677 -0.14203046 -0.036507338 1.0977462e-38
0.073855296 -0.14284773 -0.039485782 1.6415549e-38
0.075708643 -0.14284773 -0.039485782 1.503117e-38
0.077926978 -0.14366965 -0.042481154 1.1618855e-38
0.080657735 -0.14560573 -0.049536914 9.0370312e-39
0.082528695 -0.14560573 -0.049536914 6.0860634e-39
0.084773302 -0.1464123 -0.052476257 3.8748103e-39
0.087044984 -0.14725454 -0.055545777 2.9539302e-39
0.088926494 -0.14725454 -0.055545777 1.5717006e-39
0.091338202 -0.14835359 -0.05955109 7.4229442e-40
0.093226716 -0.14835359 -0.05955109 9.2596261e-40
-0.10965697 -0.13587265 -0.0075161159 1.1803901e-38
-0.1078597 -0.13587265 -0.0075161159 1.1527671e-38
-0.10606241 -0.13587265 -0.0075161159 1.1342928e-38
-0.10410953 -0.13504194 -0.0045078695 1.0512834e-38
-0.10231751 -0.13504194 -0.0045078695 7.0083462e-39
-0.1003813 -0.13421609 -0.001517266 4.0577512e-39
-0.098594531 -0.13421609 -0.001517266 7.3764912e-40
-0.096674845 -0.13339506 0.0014558136 1.7518151e-39
-0.094893277 -0.13339506 0.0014558136 4.1489014e-39
-0.092985749 -0.13255073 0.0045132935 4.1481742e-39
-0.091209553 -0.13255073 0.0045132935 5.9917154e-39
-0.089318797 -0.1317115 0.0075524151 7.2824374e-39
-0.087442949 -0.13090499 0.010472924 1.0784778e-38
-0.085574523 -0.13007559 0.013476402 1.1336146e-38
-0.08371719 -0.12925108 0.016462117 1.4101286e-38
-0.081961945 -0.12925108 0.016462117 1.5299469e-38
-0.080206707 -0.12925108 0.016462117 1.3825781e-38
-0.078451455 -0.12925108 0.016462117 1.346061e-38
-0.076618254 -0.12840421 0.019528717 1.5029381e-38
-0.074868381 -0.12840421 0.019528717 1.4659883e-38
-0.073053867 -0.12758966 0.022478491 1.5027589e-38
-0.071309164 -0.12758966 0.022478491 1.4197475e-38
-0.069564477 -0.12758966 0.022478491 1.0601494e-38
-0.067769304 -0.12675296 0.025508374 8.482438e-39
-0.065985039 -0.12592132 0.028519899 8.483524e-39
-0.064224243 -0.12536083 0.030549556 8.3012935e-39
-0.06245973 -0.12453763 0.033530563 1.1121938e-39
-0.060705837 -0.12371938 0.036493629 1.1132714e-39
-0.058985714 -0.12371938 0.036493629 1.0241355e-38
-0.057246935 -0.12287988 0.039533645 1.2084902e-38
-0.055532143 -0.12287988 0.039533645 1.1070025e-38
-0.05380965 -0.12207155 0.04246071 9.1335513e-39
-0.052099992 -0.12207155 0.04246071 1.7706302e-38
-0.050390329 -0.12207155 0.04246071 1.3740082e-38
-0.048686102 -0.12150083 0.044527382 3.9662576e-39
-0.046980068 -0.12150083 0.044527382 7.9303053e-39
-0.04527403 -0.12150083 0.044527382 2.0745848e-38
-0.043591589 -0.12067504 0.047517806 2.2497901e-38
-0.041919455 -0.11985429 0.050489992 2.2958873e-38
-0.040223874 -0.11985429 0.050489992 2.2958873e-38
-0.038568344 -0.11901312 0.053535968 1.8902636e-38
-0.036906842 -0.11848058 0.055464417 1.3740403e-38
-0.035270199 -0.11764805 0.05847922 3.9676743e-39
-0.033588625 -0.11764805 0.05847922 1.1251859e-38
-0.031907048 -0.11764805 0.05847922 1.6414828e-38
-0.030225474 -0.11764805 0.05847922 1.6138616e-38
-0.028614813 -0.11682071 0.061475188 6.5502814e-39
-0.026938491 -0.11682071 0.061475188 5.6283363e-39
-0.02526217 -0.11682071 0.061475188 1.8735921e-40
-0.023645936 -0.11624713 0.063552231 1.5666937e-39
-0.021973256 -0.11624713 0.063552231 5.3452754e-39
-0.020300576 -0.11624713 0.063552231 3.0418266e-39
-0.018627897 -0.11624713 0.063552231 4.6071611e-40
-0.016955215 -0.11624713 0.063552231 1.0128333e-39
-0.015204236 -0.11682071 0.061475188 6.4369766e-40
-0.013527915 -0.11682071 0.061475188 3.6745689e-40
-0.011851594 -0.11682071 0.061475188 5.5110546e-40
-0.010046575 -0.11764805 0.05847922 1.1890762e-38
-0.0083650015 -0.11764805 0.05847922 2.3231151e-38
-0.0065433457 -0.11848058 0.055464417 2.3047468e-38
-0.0046166368 -0.11985429 0.050489992 1.9545111e-38
-0.0029210523 -0.11985429 0.050489992 2.0559639e-38
-0.0010717399 -0.12067504 0.047517806 2.3142544e-38
0.00062905625 -0.12067504 0.047517806 2.2775202e-38
0.0024950095 -0.12150083 0.044527382 2.2499695e-38
0.0043188147 -0.12207155 0.04246071 2.2775202e-38
0.0060284734 -0.12207155 0.04246071 2.2958873e-38
0.0079151914 -0.12287988 0.039533645 2.2036916e-38
0.0096299872 -0.12287988 0.039533645 2.259044e-38
0.011539333 -0.12371938 0.036493629 2.2590076e-38
0.013454273 -0.12453763 0.033530563 2.2405329e-38
0.015517831 -0.12592132 0.028519899 2.0837657e-38
0.017251931 -0.12592132 0.028519899 1.253971e-38
0.019199885 -0.12675296 0.025508374 1.3185105e-38
0.021159731 -0.12758966 0.022478491 4.9797159e-39
0.022904426 -0.12758966 0.022478491 8.3165102e-40
0.024874106 -0.12840421 0.019528717 2.7956885e-40
0.02686324 -0.12925108 0.016462117 2.8101219e-40
0.028618485 -0.12925108 0.016462117 7.4740692e-39
0.030617155 -0.13007559 0.013476402 5.8159814e-39
0.032377634 -0.13007559 0.013476402 6.2119561e-42
0.034393523 -0.13090499 0.010472924 1.9448411e-39
0.036412735 -0.1317115 0.0075524151 8.3063368e-39
0.038452704 -0.13255073 0.0045132935 9.7814641e-39
0.040773425 -0.13421609 -0.001517266 1.1625731e-38
0.042835478 -0.13504194 -0.0045078695 1.1258021e-38
0.044909675 -0.13587265 -0.0075161159 3.4213921e-39
0.046996105 -0.13670824 -0.010542005 1.4834888e-39
0.048798699 -0.13670824 -0.010542005 5.8159674e-39
0.050892401 -0.13751976 -0.013480633 1.0609423e-38
0.052700151 -0.13751976 -0.013480633 1.051435e-38
0.0545079 -0.13751976 -0.013480633 7.1942285e-39
0.056635011 -0.13836516 -0.016542047 7.9874012e-44
0.058865253 -0.13945107 -0.020474285 5.5289492e-40
0.061008278 -0.14027832 -0.023470014 9.5866205e-39
0.063163728 -0.14111041 -0.026483148 1.0783722e-38
0.065331683 -0.14194728 -0.029513687 8.9430518e-39
0.067167535 -0.14194728 -0.029513687 4.1539307e-39
0.069340929 -0.14275892 -0.032452792 3.1422941e-39
0.071654677 -0.14387859 -0.036507338 6.9215736e-39
0.073855296 -0.14470108 -0.039485782 1.2451858e-38
0.075708643 -0.14470108 -0.039485782 1.0883091e-38
0.077926978 -0.14552824 -0.042481154 7.2863877e-39
0.080157936 -0.14636014 -0.045493573 4.8886021e-39
0.082528695 -0.14747669 -0.049536914 1.1078736e-39
0.084773302 -0.14828841 -0.052476257 1.2015111e-39
0.087044984 -0.14913605 -0.055545777 1.47917e-39
0.088926494 -0.14913605 -0.055545777 3.3042618e-42
-0.10769355 -0.13683395 -0.0045078695 1.1987188e-38
-0.10590154 -0.13683395 -0.0045078695 1.2632204e-38
-0.10410953 -0.13683395 -0.0045078695 1.2262732e-38
-0.10231751 -0.13683395 -0.0045078695 8.3909065e-39
-0.1003813 -0.13600285 -0.001517266 4.887509e-39
-0.098594531 -0.13600285 -0.001517266 5.536236e-40
-0.096674845 -0.13517661 0.0014558136 1.0649868e-43
-0.094893277 -0.13517661 0.0014558136 1.0649868e-43
-0.092985749 -0.13432692 0.0045132935 1.0649868e-43
-0.091209553 -0.13432692 0.0045132935 6.4475424e-40
-0.089318797 -0.13348235 0.0075524151 9.1918173e-41
-0.087442949 -0.13267075 0.010472924 2.6690672e-39
-0.085574523 -0.13183604 0.013476402 4.5115266e-39
-0.08371719 -0.13100632 0.016462117 8.7503606e-39
-0.081961945 -0.13100632 0.016462117 1.1883209e-38
-0.080206707 -0.13100632 0.016462117 1.2806244e-38
-0.078451455 -0.13100632 0.016462117 1.0506033e-38
-0.076696217 -0.13100632 0.016462117 1.4380055e-38
-0.074868381 -0.13015409 0.019528717 1.4655924e-38
-0.073118508 -0.13015409 0.019528717 1.4839242e-38
-0.071309164 -0.12933435 0.022478491 1.5392064e-38
-0.069564477 -0.12933435 0.022478491 1.2165946e-38
-0.067769304 -0.12849234 0.025508374 9.4929998e-39
-0.066029921 -0.12849234 0.025508374 9.2185765e-39
-0.064224243 -0.12709136 0.030549556 8.3916955e-39
-0.06245973 -0.12626295 0.033530563 7.41619e-40
-0.060705837 -0.12543948 0.036493629 2.8207998e-40
-0.058985714 -0.12543948 0.036493629 1.4389088e-38
-0.057246935 -0.12459467 0.039533645 1.6970911e-38
-0.055532143 -0.12459467 0.039533645 1.3651154e-38
-0.05380965 -0.12378122 0.04246071 9.5938246e-39
-0.052099992 -0.12378122 0.04246071 1.4847885e-38
-0.050390329 -0.12378122 0.04246071 1.6136092e-38
-0.048686102 -0.1232069 0.044527382 5.901647e-39
-0.046980068 -0.1232069 0.044527382 9.9575274e-39
-0.04527403 -0.1232069 0.044527382 2.2220243e-38
-0.043591589 -0.12237583 0.047517806 2.323402e-38
-0.041919455 -0.12154986 0.050489992 2.3142185e-38
-0.040258586 -0.12070335 0.053535968 2.2128393e-38
-0.038568344 -0.12070335 0.053535968 1.8717155e-38
-0.036906842 -0.12016745 0.055464417 1.3462367e-38
-0.035270199 -0.11932962 0.05847922 6.9172044e-39
-0.033588625 -0.11932962 0.05847922 1.2817739e-38
-0.031907048 -0.11932962 0.05847922 1.4938252e-38
-0.030225474 -0.11932962 0.05847922 1.1435194e-38
-0.028614813 -0.11849703 0.061475188 5.0737094e-39
-0.026938491 -0.11849703 0.061475188 4.9818851e-39
-0.02526217 -0.11849703 0.061475188 9.2420398e-40
-0.023645936 -0.11791982 0.063552231 2.3953782e-39
-0.021973256 -0.11791982 0.063552231 5.8058976e-39
-0.020300576 -0.11791982 0.063552231 3.3173359e-39
-0.018627897 -0.11791982 0.063552231 5.5183974e-40
-0.016955215 -0.11791982 0.063552231 1.1961526e-39
-0.015204236 -0.11849703 0.061475188 7.3517863e-40
-0.013527915 -0.11849703 0.061475188 2.7562139e-40
-0.011728149 -0.11932962 0.05847922 4.5926716e-40
-0.010046575 -0.11932962 0.05847922 1.2535053e-38
-0.0083650015 -0.11932962 0.05847922 2.3508092e-38
-0.0065433457 -0.12016745 0.055464417 2.3509527e-38
-0.0046166368 -0.12154986 0.050489992 2.1942197e-38
-0.0029210523 -0.12154986 0.050489992 2.0928422e-38
-0.0010717399 -0.12237583 0.047517806 2.2497184e-38
0.00062905625 -0.12237583 0.047517806 2.2683366e-38
0.0023298487 -0.12237583 0.047517806 2.2591531e-38
0.0043188147 -0.12378122 0.04246071 2.2867037e-38
0.0060284734 -0.12378122 0.04246071 2.203693e-38
0.0077381358 -0.12378122 0.04246071 1.8901913e-38
0.0096299872 -0.12459467 0.039533645 1.9824221e-38
0.011539333 -0.12543948 0.036493629 2.0653616e-38
0.013454273 -0.12626295 0.033530563 2.1851803e-38
0.015517831 -0.12765543 0.028519899 2.0838021e-38
0.017460503 -0.12849234 0.025508374 1.1065304e-38
0.019199885 -0.12849234 0.025508374 1.1157165e-38
0.021159731 -0.12933435 0.022478491 4.9804418e-39
0.022904426 -0.12933435 0.022478491 2.5840939e-39
0.024874106 -0.13015409 0.019528717 5.1666575e-39
0.02686324 -0.13100632 0.016462117 5.4446835e-39
0.028618485 -0.13100632 0.016462117 5.6308713e-39
0.030862026 -0.13267075 0.010472924 3.6965553e-39
0.03262778 -0.13267075 0.010472924 1.0164178e-40
0.034641866 -0.13348235 0.0075524151 2.8675107e-39
0.0366765 -0.13432692 0.0045132935 9.2290091e-39
0.038723413 -0.13517661 0.0014558136 9.966577e-39
0.040773425 -0.13600285 -0.001517266 1.2271819e-38
0.042835478 -0.13683395 -0.0045078695 1.4669611e-38
0.044909675 -0.13766994 -0.0075161159 2.0388094e-39
0.046996105 -0.13851084 -0.010542005 3.3224787e-42
0.048798699 -0.13851084 -0.010542005 6.0000041e-39
0.050892401 -0.13932751 -0.013480633 1.2544801e-38
0.052700151 -0.13932751 -0.013480633 1.0791645e-38
0.054821897 -0.14017828 -0.016542047 7.2853507e-39
0.056635011 -0.14017828 -0.016542047 9.2485699e-44
0.05918302 -0.1421036 -0.023470014 1.6578019e-39
0.061333183 -0.14294095 -0.026483148 9.6777315e-39
0.06349583 -0.14378314 -0.029513687 9.7681307e-39
0.065331683 -0.14378314 -0.029513687 7.1902558e-39
0.067167535 -0.14378314 -0.029513687 2.9561064e-39
0.069340929 -0.14459993 -0.032452792 1.944111e-39
0.071654677 -0.1457267 -0.036507338 3.6958056e-39
0.073502809 -0.1457267 -0.036507338 6.4595039e-39
0.075708643 -0.14655443 -0.039485782 5.8130541e-39
0.077561975 -0.14655443 -0.039485782 4.4286889e-39
0.080157936 -0.14822401 -0.045493573 3.9666542e-39
0.082528695 -0.14934768 -0.049536914 2.3989823e-39
-0.10769355 -0.13862596 -0.0045078695 1.2540008e-38
-0.10590154 -0.13862596 -0.0045078695 1.3646359e-38
-0.10395484 -0.13778962 -0.001517266 1.2632592e-38
-0.10216807 -0.13778962 -0.001517266 7.8388062e-39
-0.1003813 -0.13778962 -0.001517266 3.7818747e-39
-0.098594531 -0.13778962 -0.001517266 3.7030853e-40
-0.096674845 -0.13695817 0.0014558136 1.1086177e-39
-0.094761938 -0.13610314 0.0045132935 1.10791e-39
-0.092985749 -0.13610314 0.0045132935 1.4759723e-39
-0.091209553 -0.13610314 0.0045132935 9.2243274e-40
-0.089318797 -0.13525321 0.0075524151 1.289402e-39
-0.087442949 -0.13443647 0.010472924 5.5110266e-40
-0.085574523 -0.13359652 0.013476402 3.1293321e-39
-0.08371719 -0.13276155 0.016462117 9.1842082e-40
-0.081961945 -0.13276155 0.016462117 3.4945105e-39
-0.080206707 -0.13276155 0.016462117 3.7718162e-39
-0.078451455 -0.13276155 0.016462117 3.6835737e-39
-0.076696217 -0.13276155 0.016462117 2.7630593e-39
-0.074940965 -0.13276155 0.016462117 4.6066146e-39
-0.073118508 -0.13190396 0.019528717 7.4646847e-39
-0.071309164 -0.13107903 0.022478491 8.4784849e-39
-0.069564477 -0.13107903 0.022478491 1.0507154e-38
-0.067769304 -0.13023172 0.025508374 1.0600075e-38
-0.065985039 -0.12938951 0.028519899 4.7017151e-39
-0.064224243 -0.12882192 0.030549556 2.5826575e-39
-0.06245973 -0.12798826 0.033530563 2.6162242e-42
-0.060705837 -0.12715961 0.036493629 2.9735553e-42
-0.058985714 -0.12715961 0.036493629 1.4386567e-38
-0.057246935 -0.12630944 0.039533645 1.7521566e-38
-0.055532143 -0.12630944 0.039533645 1.6691449e-38
-0.05380965 -0.12549089 0.04246071 1.383302e-38
-0.052099992 -0.12549089 0.04246071 1.4569859e-38
-0.050390329 -0.12549089 0.04246071 1.5121587e-38
-0.048686102 -0.12491293 0.044527382 5.6254272e-39
-0.046980068 -0.12491293 0.044527382 7.5611683e-39
-0.04527403 -0.12491293 0.044527382 1.5951322e-38
-0.043591589 -0.12407662 0.047517806 1.4660932e-38
-0.041919455 -0.12324543 0.050489992 1.4108109e-38
-0.040258586 -0.12239362 0.053535968 1.5583596e-38
-0.038593702 -0.12185432 0.055464417 1.6597391e-38
-0.036906842 -0.12185432 0.055464417 1.3647136e-38
-0.035219982 -0.12185432 0.055464417 9.4061459e-39
-0.033588625 -0.12101121 0.05847922 1.1987993e-38
-0.031907048 -0.12101121 0.05847922 1.6874733e-38
-0.030225474 -0.12101121 0.05847922 1.4108877e-38
-0.028614813 -0.12017335 0.061475188 3.5993024e-39
-0.026938491 -0.12017335 0.061475188 9.5513905e-41
-0.02526217 -0.12017335 0.061475188 1.5695706e-39
-0.023645936 -0.1195925 0.063552231 3.411328e-39
-0.021973256 -0.1195925 0.063552231 6.2683163e-39
-0.020300576 -0.1195925 0.063552231 3.2258605e-39
-0.018627897 -0.1195925 0.063552231 1.8377189e-40
-0.016955215 -0.1195925 0.063552231 8.2772038e-40
-0.015204236 -0.12017335 0.061475188 7.3552755e-40
-0.013527915 -0.12017335 0.061475188 6.4296198e-40
-0.011728149 -0.12101121 0.05847922 9.1880618e-40
-0.010046575 -0.12101121 0.05847922 1.1060649e-38
-0.0083650015 -0.12101121 0.05847922 2.240212e-38
-0.0065433457 -0.12185432 0.055464417 2.3509168e-38
-0.0046166368 -0.12324543 0.050489992 2.3048914e-38
-0.0029210523 -0.12324543 0.050489992 2.0653278e-38
-0.0010717399 -0.12407662 0.047517806 2.1484124e-38
0.00062905625 -0.12407662 0.047517806 1.8996638e-38
0.0023298487 -0.12407662 0.047517806 1.7061252e-38
0.0043188147 -0.12549089 0.04246071 1.7060181e-38
0.0060284734 -0.12549089 0.04246071 2.1854336e-38
0.0077381358 -0.12549089 0.04246071 2.0655811e-38
0.0096299872 -0.12630944 0.039533645 2.0287383e-38
0.011539333 -0.12715961 0.036493629 2.0563964e-38
0.013454273 -0.12798826 0.033530563 2.065616e-38
0.015380822 -0.12882192 0.030549556 1.8350917e-38
0.017460503 -0.13023172 0.025508374 8.5781999e-39
0.019199885 -0.13023172 0.025508374 1.7543108e-39
0.021159731 -0.13107903 0.022478491 1.0171213e-39
0.022904426 -0.13107903 0.022478491 1.5703077e-39
0.024874106 -0.13190396 0.019528717 5.81275e-39
0.02686324 -0.13276155 0.016462117 8.3031054e-39
0.028618485 -0.13276155 0.016462117 5.6305083e-39
0.030862026 -0.13443647 0.010472924 2.3118258e-39
0.03262778 -0.13443647 0.010472924 4.4841551e-43
0.034900311 -0.13610314 0.0045132935 3.7535461e-40
0.03694186 -0.13695817 0.0014558136 1.2268588e-38
0.038723413 -0.13695817 0.0014558136 1.678724e-38
0.040773425 -0.13778962 -0.001517266 1.7894647e-38
0.042560194 -0.13778962 -0.001517266 1.8080471e-38
0.044909675 -0.13946722 -0.0075161159 1.116486e-39
0.046996105 -0.14031343 -0.010542005 2.2392749e-42
0.048798699 -0.14031343 -0.010542005 8.6751165e-39
0.050892401 -0.14113526 -0.013480633 1.2177815e-38
0.052700151 -0.14113526 -0.013480633 9.3183111e-39
0.054821897 -0.14199139 -0.016542047 6.0882439e-39
0.05704524 -0.14309107 -0.020474285 9.3886997e-44
0.05918302 -0.14392884 -0.023470014 1.84111e-40
0.061333183 -0.1447715 -0.026483148 5.1615862e-39
0.06349583 -0.14561899 -0.029513687 3.6846583e-39
0.065331683 -0.14561899 -0.029513687 1.4741267e-39
0.067167535 -0.14561899 -0.029513687 9.6601312e-41
0.069340929 -0.14644094 -0.032452792 1.8508336e-39
0.071654677 -0.14757483 -0.036507338 4.2471815e-39
0.073502809 -0.14757483 -0.036507338 5.6290271e-39
0.07535091 -0.14757483 -0.036507338 5.9041721e-39
0.077561975 -0.14840777 -0.039485782 3.9669947e-39
-0.1078597 -0.14126451 -0.0075161159 1.2725152e-38
-0.10590154 -0.14041798 -0.0045078695 1.2910628e-38
-0.10395484 -0.13957639 -0.001517266 1.254221e-38
-0.10216807 -0.13957639 -0.001517266 8.2090292e-39
-0.1003813 -0.13957639 -0.001517266 2.3088915e-39
-0.098594531 -0.13957639 -0.001517266 1.1103735e-39
-0.096674845 -0.13873972 0.0014558136 9.2457533e-40
-0.094761938 -0.13787933 0.0045132935 2.7922133e-40
-0.092985749 -0.13787933 0.0045132935 1.0164332e-39
-0.091089658 -0.13702409 0.0075524151 8.3203918e-40
-0.089318797 -0.13702409 0.0075524151 8.3202797e-40
-0.087442949 -0.13620223 0.010472924 1.015692e-39
-0.085677207 -0.13620223 0.010472924 7.3766313e-40
-0.08381404 -0.13535701 0.013476402 1.8412922e-40
-0.082053557 -0.13535701 0.013476402 2.7561299e-40
-0.080293074 -0.13535701 0.013476402 6.4403677e-40
-0.078532599 -0.13535701 0.013476402 5.5327187e-40
-0.076696217 -0.13451682 0.016462117 4.6215244e-40
-0.074940965 -0.13451682 0.016462117 2.7776398e-40
-0.073118508 -0.13365383 0.019528717 1.0153318e-39
-0.07136865 -0.13365383 0.019528717 3.319868e-39
-0.069564477 -0.13282375 0.022478491 5.4403675e-39
-0.067769304 -0.13197111 0.025508374 4.8875567e-39
-0.065985039 -0.13112362 0.028519899 3.1361956e-39
-0.064224243 -0.13055246 0.030549556 9.2349913e-40
-0.06245973 -0.12971358 0.033530563 1.1728868e-42
-0.060705837 -0.12887974 0.036493629 3.7031134e-40
-0.058985714 -0.12887974 0.036493629 1.1710002e-38
-0.057246935 -0.12802424 0.039533645 1.8163328e-38
-0.055532143 -0.12802424 0.039533645 1.8070765e-38
-0.05380965 -0.12720053 0.04246071 1.594918e-38
-0.052099992 -0.12720053 0.04246071 1.3091478e-38
-0.050390329 -0.12720053 0.04246071 1.226425e-38
-0.048686102 -0.12661897 0.044527382 7.2860486e-39
-0.046980068 -0.12661897 0.044527382 4.6127284e-39
-0.04527403 -0.12661897 0.044527382 1.0329209e-38
-0.043591589 -0.12577744 0.047517806 1.0513952e-38
-0.041890793 -0.12577744 0.047517806 7.2881841e-39
-0.040258586 -0.12408386 0.053535968 1.0883815e-38
-0.038593702 -0.12354116 0.055464417 1.1621027e-38
-0.036906842 -0.12354116 0.055464417 9.1310374e-39
-0.035219982 -0.12354116 0.055464417 7.74847e-39
-0.033588625 -0.12269278 0.05847922 1.3279855e-38
-0.031907048 -0.12269278 0.05847922 1.4294011e-38
-0.030225474 -0.12269278 0.05847922 1.3925946e-38
-0.028614813 -0.12184967 0.061475188 1.1107504e-39
-0.026938491 -0.12184967 0.061475188 3.7354133e-40
-0.025318617 -0.12126519 0.063552231 7.4232385e-40
-0.023645936 -0.12126519 0.063552231 2.4933219e-39
-0.021973256 -0.12126519 0.063552231 5.5350617e-39
-0.020300576 -0.12126519 0.063552231 1.2007909e-39
-0.018627897 -0.12126519 0.063552231 7.3909526e-40
-0.016880561 -0.12184967 0.061475188 9.2169426e-40
-0.015204236 -0.12184967 0.061475188 1.1053666e-39
-0.013409726 -0.12269278 0.05847922 1.1961175e-39
-0.011728149 -0.12269278 0.05847922 2.7558496e-40
-0.010046575 -0.12269278 0.05847922 1.0600398e-38
-0.0083650015 -0.12269278 0.05847922 2.1295789e-38
-0.0065433457 -0.12354116 0.055464417 2.1113553e-38
-0.0046166368 -0.12494104 0.050489992 2.0377066e-38
-0.0027725324 -0.12577744 0.047517806 1.8442039e-38
-0.0010717399 -0.12577744 0.047517806 1.7890307e-38
0.00062905625 -0.12577744 0.047517806 1.6140032e-38
0.0024950095 -0.12661897 0.044527382 1.6602451e-38
0.0043188147 -0.12720053 0.04246071 1.6879401e-38
0.0060284734 -0.12720053 0.04246071 1.8631842e-38
0.0077381358 -0.12720053 0.04246071 2.0014038e-38
0.0096299872 -0.12802424 0.039533645 2.0659757e-38
0.011539333 -0.12887974 0.036493629 1.9553785e-38
0.013454273 -0.12971358 0.033530563 1.7342191e-38
0.015380822 -0.13055246 0.030549556 1.5498281e-38
0.017460503 -0.13197111 0.025508374 5.0787512e-39
0.019199885 -0.13197111 0.025508374 4.0567591e-42
0.021159731 -0.13282375 0.022478491 2.2687022e-42
0.022904426 -0.13282375 0.022478491 5.5796482e-40
0.024649121 -0.13282375 0.022478491 8.2098336e-39
0.026623972 -0.13365383 0.019528717 9.3158098e-39
0.028618485 -0.13451682 0.016462117 2.7692012e-39
0.030862026 -0.13620223 0.010472924 2.4922654e-39
0.03262778 -0.13620223 0.010472924 1.0930128e-43
0.034900311 -0.13787933 0.0045132935 9.3023797e-41
0.03694186 -0.13873972 0.0014558136 1.2263193e-38
0.038723413 -0.13873972 0.0014558136 1.6875825e-38
0.040773425 -0.13957639 -0.001517266 2.0289186e-38
0.042560194 -0.13957639 -0.001517266 1.8171219e-38
0.044627491 -0.14041798 -0.0045078695 3.5139227e-39
0.046996105 -0.14211603 -0.010542005 3.3070644e-42
0.048798699 -0.14211603 -0.010542005 8.8620203e-39
0.050892401 -0.14294298 -0.013480633 1.2642031e-38
0.052700151 -0.14294298 -0.013480633 1.1073625e-38
0.054821897 -0.14380451 -0.016542047 4.3408317e-39
0.05704524 -0.14491107 -0.020474285 4.4000772e-42
0.05950265 -0.14660202 -0.026483148 1.1630777e-42
0.061659966 -0.14745484 -0.029513687 9.4074771e-41
0.06349583 -0.14745484 -0.029513687 8.3019647e-40
0.065331683 -0.14745484 -0.029513687 1.7521528e-39
0.067167535 -0.14745484 -0.029513687 1.8698927e-40
0.069340929 -0.14828195 -0.032452792 3.2305227e-39
0.071654677 -0.14942293 -0.036507338 5.1651833e-39
0.073502809 -0.14942293 -0.036507338 4.6123641e-39
0.07535091 -0.14942293 -0.036507338 5.2570104e-39
-0.1078597 -0.1430618 -0.0075161159 1.2264548e-38
-0.10590154 -0.14220999 -0.0045078695 1.1159285e-38
-0.10395484 -0.14136316 -0.001517266 1.0514272e-38
-0.1020195 -0.14052127 0.0014558136 7.2881491e-39
-0.10023795 -0.14052127 0.0014558136 2.5858301e-39
-0.098456398 -0.14052127 0.0014558136 7.4193989e-40
-0.096538141 -0.13965552 0.0045132935 1.2015125e-39
-0.094761938 -0.13965552 0.0045132935 1.6621516e-39
-0.092985749 -0.13965552 0.0045132935 9.2423761e-40
-0.091089658 -0.13879494 0.0075524151 7.4056522e-40
-0.089318797 -0.13879494 0.0075524151 7.4091414e-40
-0.087442949 -0.13796796 0.010472924 7.4126727e-40
-0.085677207 -0.13796796 0.010472924 4.6396151e-40
-0.08381404 -0.13711749 0.013476402 2.2701035e-42
-0.082053557 -0.13711749 0.013476402 9.3758078e-41
-0.080293074 -0.13711749 0.013476402 4.625406e-40
-0.078532599 -0.13711749 0.013476402 3.3491033e-42
-0.076696217 -0.13627206 0.016462117 3.7022305e-42
-0.074940965 -0.13627206 0.016462117 2.2687022e-42
-0.073118508 -0.13540371 0.019528717 2.2687022e-42
-0.07136865 -0.13540371 0.019528717 5.5616835e-40
-0.069564477 -0.13456844 0.022478491 1.2937334e-39
-0.067769304 -0.13371049 0.025508374 8.3239371e-40
-0.065985039 -0.13285773 0.028519899 1.1897024e-42
-0.064224243 -0.13228302 0.030549556 4.6359998e-40
-0.06245973 -0.1314389 0.033530563 8.3093496e-40
-0.060705837 -0.13059987 0.036493629 9.228251e-41
-0.058985714 -0.13059987 0.036493629 5.4396178e-39
-0.057265591 -0.13059987 0.036493629 1.4104917e-38
-0.055532143 -0.12973903 0.039533645 1.8345187e-38
-0.05380965 -0.1289102 0.04246071 1.7698732e-38
-0.052099992 -0.1289102 0.04246071 1.1061732e-38
-0.050390329 -0.1289102 0.04246071 9.7746145e-39
-0.048686102 -0.128325 0.044527382 8.3012907e-39
-0.046980068 -0.128325 0.044527382 9.1314045e-39
-0.04527403 -0.128325 0.044527382 1.0975672e-38
-0.043591589 -0.12747823 0.047517806 5.2602558e-39
-0.041890793 -0.12747823 0.047517806 4.3846629e-42
-0.040223874 -0.12663661 0.050489992 1.3887681e-39
-0.038568344 -0.1257741 0.053535968 1.5728076e-39
-0.036906842 -0.12522803 0.055464417 2.1256324e-39
-0.035219982 -0.12522803 0.055464417 1.9408881e-39
-0.033533119 -0.12522803 0.055464417 4.8907965e-39
-0.031907048 -0.12437434 0.05847922 6.0893369e-39
-0.030225474 -0.12437434 0.05847922 5.9053001e-39
-0.028614813 -0.12352599 0.061475188 2.9693514e-42
-0.026938491 -0.12352599 0.061475188 2.8206877e-40
-0.025318617 -0.12293784 0.063552231 1.2962179e-39
-0.023645936 -0.12293784 0.063552231 2.4018452e-39
-0.021973256 -0.12293784 0.063552231 5.5361407e-39
-0.020300576 -0.12293784 0.063552231 1.7546849e-39
-0.018627897 -0.12293784 0.063552231 8.3165102e-40
-0.016880561 -0.12352599 0.061475188 3.6923374e-40
-0.015204236 -0.12352599 0.061475188 1.8448094e-40
-0.013409726 -0.12437434 0.05847922 6.4401435e-40
-0.011728149 -0.12437434 0.05847922 5.5217325e-40
-0.010046575 -0.12437434 0.05847922 8.2969551e-39
-0.0082302094 -0.12522803 0.055464417 1.5119782e-38
-0.0064537451 -0.1257741 0.053535968 1.7242075e-38
-0.0046166368 -0.12663661 0.050489992 1.825694e-38
-0.0027725324 -0.12747823 0.047517806 1.8904108e-38
-0.0010717399 -0.12747823 0.047517806 1.8444208e-38
0.00062905625 -0.12747823 0.047517806 1.909066e-38
0.0024950095 -0.128325 0.044527382 2.0566486e-38
0.0043188147 -0.1289102 0.04246071 1.8908784e-38
0.0060284734 -0.1289102 0.04246071 1.5221694e-38
0.0077381358 -0.1289102 0.04246071 1.1625008e-38
0.0096299872 -0.12973903 0.039533645 8.1219427e-39
0.011539333 -0.13059987 0.036493629 4.9883619e-39
0.013454273 -0.1314389 0.033530563 1.6707513e-39
0.015517831 -0.13285773 0.028519899 1.8551412e-39
0.017460503 -0.13371049 0.025508374 4.0385422e-42
0.019199885 -0.13371049 0.025508374 2.6260333e-42
0.021159731 -0.13456844 0.022478491 1.1210388e-43
0.022904426 -0.13456844 0.022478491 8.3563211e-40
0.024649121 -0.13456844 0.022478491 9.7775166e-39
0.026623972 -0.13540371 0.019528717 1.1066799e-38
0.028618485 -0.13627206 0.016462117 2.0305515e-39
0.030862026 -0.13796796 0.010472924 8.3058884e-40
0.03262778 -0.13796796 0.010472924 1.1210388e-43
0.034641866 -0.13879494 0.0075524151 2.7561859e-40
0.0366765 -0.13965552 0.0045132935 1.2720934e-38
0.038723413 -0.14052127 0.0014558136 1.7611219e-38
0.040504966 -0.14052127 0.0014558136 2.0380663e-38
0.042560194 -0.14136316 -0.001517266 1.9091732e-38
0.044627491 -0.14220999 -0.0045078695 6.6471307e-39
0.046996105 -0.14391862 -0.010542005 2.1306491e-39
0.048798699 -0.14391862 -0.010542005 1.1075071e-38
0.050892401 -0.14475073 -0.013480633 1.2273609e-38
0.052700151 -0.14475073 -0.013480633 1.199666e-38
0.054821897 -0.14561762 -0.016542047 6.6478748e-39
0.05704524 -0.14673109 -0.020474285 6.1923379e-42
0.05950265 -0.14843257 -0.026483148 1.8987314e-40
0.061659966 -0.14929073 -0.029513687 3.2301709e-39
0.06349583 -0.14929073 -0.029513687 4.151037e-39
0.065331683 -0.14929073 -0.029513687 3.5045858e-39
0.067167535 -0.14929073 -0.029513687 4.3336304e-39
-0.10590154 -0.14400201 -0.0045078695 1.1528058e-38
-0.10395484 -0.14314993 -0.001517266 1.1159274e-38
-0.1020195 -0.14230286 0.0014558136 9.500117e-39
-0.10023795 -0.14230286 0.0014558136 5.2591376e-39
-0.098456398 -0.14230286 0.0014558136 9.2560668e-40
-0.096538141 -0.1414317 0.0045132935 1.8771514e-40
-0.094761938 -0.1414317 0.0045132935 7.405484e-40
-0.092985749 -0.1414317 0.0045132935 2.7922133e-40
-0.091089658 -0.14056583 0.0075524151 2.788654e-40
-0.0892087 -0.13973372 0.010472924 3.7176869e-40
-0.087442949 -0.13973372 0.010472924 4.6396011e-40
-0.085677207 -0.13973372 0.010472924 1.8701309e-40
-0.08381404 -0.13887797 0.013476402 1.9071672e-42
-0.082053557 -0.13887797 0.013476402 1.8523064e-40
-0.080293074 -0.13887797 0.013476402 3.707009e-40
-0.078532599 -0.13887797 0.013476402 9.253054e-40
-0.076696217 -0.1380273 0.016462117 7.4198754e-40
-0.074940965 -0.1380273 0.016462117 8.3418877e-40
-0.073118508 -0.13715358 0.019528717 7.4199314e-40
-0.07136865 -0.13715358 0.019528717 4.6505172e-40
-0.069564477 -0.13631313 0.022478491 1.8846483e-40
-0.067769304 -0.13544987 0.025508374 9.5547536e-41
-0.065985039 -0.13459183 0.028519899 9.4825867e-41
-0.064224243 -0.13401355 0.030549556 1.8665576e-40
-0.06245973 -0.13316421 0.033530563 1.3848304e-39
-0.060705837 -0.13231997 0.036493629 4.4981681e-43
-0.058985714 -0.13231997 0.036493629 5.5289352e-40
-0.057265591 -0.13231997 0.036493629 9.4025852e-39
-0.055532143 -0.13145383 0.039533645 1.6408726e-38
-0.05381735 -0.13145383 0.039533645 1.8621054e-38
-0.052099992 -0.13061987 0.04246071 1.1431241e-38
-0.050390329 -0.13061987 0.04246071 1.0143401e-38
-0.048680671 -0.13061987 0.04246071 8.670076e-39
-0.046980068 -0.13003103 0.044527382 1.1805081e-38
-0.045292381 -0.12917902 0.047517806 1.2819587e-38
-0.043591589 -0.12917902 0.047517806 6.366609e-39
-0.041919455 -0.12833218 0.050489992 1.7568275e-39
-0.040258586 -0.12746434 0.053535968 2.3096468e-39
-0.038568344 -0.12746434 0.053535968 2.4014921e-39
-0.036906842 -0.1269149 0.055464417 2.0330809e-39
-0.035219982 -0.1269149 0.055464417 2.6780958e-39
-0.033533119 -0.1269149 0.055464417 1.8479848e-39
-0.031907048 -0.12605591 0.05847922 1.7561451e-39
-0.030225474 -0.12605591 0.05847922 1.8881376e-40
-0.028614813 -0.12520231 0.061475188 8.1555571e-43
-0.026938491 -0.12520231 0.061475188 4.7672174e-42
-0.02526217 -0.12520231 0.061475188 6.4977509e-40
-0.023645936 -0.12461053 0.063552231 2.9539442e-39
-0.021973256 -0.12461053 0.063552231 5.4425101e-39
-0.020300576 -0.12461053 0.063552231 1.6624907e-39
-0.018556882 -0.12520231 0.061475188 3.7067848e-40
-0.016880561 -0.12520231 0.061475188 2.7668498e-40
-0.0150913 -0.12605591 0.05847922 9.1933587e-41
-0.013409726 -0.12605591 0.05847922 1.8412361e-40
-0.011603929 -0.1269149 0.055464417 3.6815053e-40
-0.0099170692 -0.1269149 0.055464417 2.7659446e-39
-0.0082302094 -0.1269149 0.055464417 4.7949603e-39
-0.0064537451 -0.12746434 0.053535968 7.929962e-39
-0.0046166368 -0.12833218 0.050489992 1.4661316e-38
-0.0027725324 -0.12917902 0.047517806 1.7982154e-38
-0.0010717399 -0.12917902 0.047517806 1.9734586e-38
0.00078897178 -0.13003103 0.044527382 1.8904834e-38
0.0024950095 -0.13003103 0.044527382 1.9182136e-38
0.0044856071 -0.13145383 0.039533645 1.8815149e-38
0.0062003992 -0.13145383 0.039533645 1.3467814e-38
0.0079151914 -0.13145383 0.039533645 8.1204896e-39
0.0098192059 -0.13231997 0.036493629 1.2061859e-39
0.011728957 -0.13316421 0.033530563 5.8322042e-42
0.013454273 -0.13316421 0.033530563 2.8529456e-40
0.015517831 -0.13459183 0.028519899 6.5407708e-40
0.017251931 -0.13459183 0.028519899 2.2364723e-42
0.019199885 -0.13544987 0.025508374 4.0623642e-42
0.021159731 -0.13631313 0.022478491 7.4235748e-40
0.022904426 -0.13631313 0.022478491 4.2454271e-39
0.024874106 -0.13715358 0.019528717 1.0790227e-38
0.02686324 -0.1380273 0.016462117 1.060474e-38
0.028618485 -0.1380273 0.016462117 8.3056642e-40
0.030862026 -0.13973372 0.010472924 9.8090893e-44
0.03262778 -0.13973372 0.010472924 8.2807491e-40
0.034641866 -0.14056583 0.0075524151 2.7561859e-40
0.0366765 -0.1414317 0.0045132935 1.1984448e-38
0.038723413 -0.14230286 0.0014558136 1.7887446e-38
0.040504966 -0.14230286 0.0014558136 2.111714e-38
0.042560194 -0.14314993 -0.001517266 1.9367598e-38
0.044627491 -0.14400201 -0.0045078695 7.291061e-39
0.046996105 -0.14572121 -0.010542005 4.8021616e-39
0.048798699 -0.14572121 -0.010542005 1.319341e-38
0.050892401 -0.14655848 -0.013480633 1.476109e-38
0.052700151 -0.14655848 -0.013480633 1.4114639e-38
0.054821897 -0.14743073 -0.016542047 9.411943e-39
0.057357762 -0.14940463 -0.023470014 3.3112683e-42
-0.1003813 -0.1449367 -0.001517266 7.4711082e-39
-0.098456398 -0.14408441 0.0014558136 9.2524374e-40
-0.096674845 -0.14408441 0.0014558136 7.9733883e-43
-0.094761938 -0.14320792 0.0045132935 8.211609e-43
-0.092985749 -0.14320792 0.0045132935 1.55404e-42
-0.091089658 -0.14233668 0.0075524151 2.2743074e-42
-0.0892087 -0.14149947 0.010472924 1.8665576e-40
-0.087442949 -0.14149947 0.010472924 9.4814657e-41
-0.085677207 -0.14149947 0.010472924 1.8987594e-42
-0.08381404 -0.14063846 0.013476402 8.239635e-43
-0.082053557 -0.14063846 0.013476402 8.3657518e-43
-0.080293074 -0.14063846 0.013476402 1.915575e-42
-0.078532599 -0.14063846 0.013476402 2.7993319e-40
-0.076696217 -0.13978253 0.016462117 9.6618128e-41
-0.074940965 -0.13978253 0.016462117 4.6540625e-40
-0.073118508 -0.13890342 0.019528717 8.3418877e-40
-0.07136865 -0.13890342 0.019528717 4.6505032e-40
-0.069564477 -0.13805781 0.022478491 3.3533072e-42
-0.067769304 -0.13718925 0.025508374 9.5547536e-41
-0.065985039 -0.13632594 0.028519899 7.4091414e-40
-0.064224243 -0.13574408 0.030549556 9.5178994e-41
-0.06245973 -0.13488953 0.033530563 1.1078876e-39
-0.060705837 -0.1340401 0.036493629 1.5302179e-42
-0.058985714 -0.1340401 0.036493629 1.8447534e-40
-0.057265591 -0.1340401 0.036493629 5.1619519e-39
-0.055545468 -0.1340401 0.036493629 1.032454e-38
-0.05381735 -0.13316862 0.039533645 1.4196031e-38
-0.052102558 -0.13316862 0.039533645 1.198478e-38
-0.050390329 -0.13232954 0.04246071 1.0881329e-38
-0.048680671 -0.13232954 0.04246071 5.9038526e-39
-0.046980068 -0.13173707 0.044527382 8.2090951e-39
-0.045292381 -0.1308798 0.047517806 9.1314073e-39
-0.043591589 -0.1308798 0.047517806 4.4301462e-39
-0.041919455 -0.13002776 0.050489992 1.9408642e-39
-0.040258586 -0.12915458 0.053535968 2.3092936e-39
-0.038568344 -0.12915458 0.053535968 3.4152895e-39
-0.036906842 -0.12860174 0.055464417 4.0613875e-39
-0.035219982 -0.12860174 0.055464417 5.1673806e-39
-0.033588625 -0.12773751 0.05847922 3.5075075e-39
-0.031907048 -0.12773751 0.05847922 3.0465294e-39
-0.030225474 -0.12773751 0.05847922 1.9405363e-39
-0.028614813 -0.12687863 0.061475188 2.7702914e-39
-0.026938491 -0.12687863 0.061475188 3.508211e-39
-0.02526217 -0.12687863 0.061475188 3.3230938e-39
-0.023645936 -0.12628321 0.063552231 3.6907931e-39
-0.021973256 -0.12628321 0.063552231 5.165203e-39
-0.020300576 -0.12628321 0.063552231 1.3848276e-39
-0.018556882 -0.12687863 0.061475188 9.8090893e-44
-0.016880561 -0.12687863 0.061475188 4.6180351e-40
-0.0150913 -0.12773751 0.05847922 8.2950703e-40
-0.013290789 -0.12860174 0.055464417 4.6107904e-40
-0.011603929 -0.12860174 0.055464417 4.540207e-43
-0.0099170692 -0.12860174 0.055464417 2.7739264e-40
-0.0081439875 -0.12915458 0.053535968 7.4268819e-44
-0.0063122176 -0.13002776 0.050489992 5.5468018e-40
-0.0046166368 -0.13002776 0.050489992 1.0513238e-38
-0.0027725324 -0.1308798 0.047517806 1.1527385e-38
-0.0010717399 -0.1308798 0.047517806 1.5308125e-38
0.00062905625 -0.1308798 0.047517806 1.1251517e-38
0.0024950095 -0.13173707 0.044527382 1.0606504e-38
0.0043188147 -0.13232954 0.04246071 9.7778193e-39
0.0062003992 -0.13316862 0.039533645 2.8167781e-40
0.0079151914 -0.13316862 0.039533645 4.0301344e-42
0.0098192059 -0.1340401 0.036493629 1.5176062e-42
0.011728957 -0.13488953 0.033530563 2.2322685e-42
0.013650276 -0.13574408 0.030549556 3.6657968e-42
0.015517831 -0.13632594 0.028519899 2.225262e-42
0.017251931 -0.13632594 0.028519899 4.7574083e-42
0.019199885 -0.13718925 0.025508374 4.0595617e-42
0.021159731 -0.13805781 0.022478491 4.4287393e-39
0.022904426 -0.13805781 0.022478491 8.8537638e-39
0.024874106 -0.13890342 0.019528717 1.005122e-38
0.02686324 -0.13978253 0.016462117 8.4828009e-39
0.028618485 -0.13978253 0.016462117 3.688666e-40
0.030862026 -0.14149947 0.010472924 9.3886997e-44
0.03262778 -0.14149947 0.010472924 1.0124634e-39
0.034641866 -0.14233668 0.0075524151 5.5148802e-40
0.03694186 -0.14408441 0.0014558136 1.0971015e-38
0.038723413 -0.14408441 0.0014558136 1.7426828e-38
0.040773425 -0.1449367 -0.001517266 2.1762141e-38
0.042835478 -0.14579402 -0.0045078695 1.8905538e-38
0.044909675 -0.14665638 -0.0075161159 5.3531549e-39
0.046996105 -0.14752381 -0.010542005 4.5241355e-39
0.048798699 -0.14752381 -0.010542005 1.3560035e-38
0.050892401 -0.14836623 -0.013480633 1.6971269e-38
0.052700151 -0.14836623 -0.013480633 1.4758927e-38
0.054821897 -0.14924385 -0.016542047 1.0977827e-38
-0.1003813 -0.14672346 -0.001517266 7.4707425e-39
-0.098456398 -0.14586596 0.0014558136 8.3232224e-40
-0.096674845 -0.14586596 0.0014558136 2.7846463e-40
-0.094761938 -0.14498411 0.0045132935 5.5471381e-40
-0.092985749 -0.14498411 0.0045132935 1.8558236e-40
-0.091089658 -0.14410757 0.0075524151 2.7850106e-40
-0.089318797 -0.14410757 0.0075524151 5.5471661e-40
-0.087442949 -0.1432652 0.010472924 2.7848285e-40
-0.085677207 -0.1432652 0.010472924 1.8959568e-42
-0.08381404 -0.14239894 0.013476402 1.1826959e-42
-0.082053557 -0.14239894 0.013476402 9.267067e-41
-0.080293074 -0.14239894 0.013476402 1.5554413e-42
-0.078451455 -0.14153777 0.016462117 9.5541931e-41
-0.076696217 -0.14153777 0.016462117 3.3406955e-42
-0.074868381 -0.1406533 0.019528717 4.0665681e-42
-0.073118508 -0.1406533 0.019528717 2.8173386e-40
-0.071309164 -0.13980253 0.022478491 4.7910394e-42
-0.069508687 -0.13892864 0.025508374 1.9099698e-42
-0.067769304 -0.13892864 0.025508374 1.192505e-42
-0.065985039 -0.13806005 0.028519899 3.3519059e-42
-0.064224243 -0.13747464 0.030549556 9.5181797e-41
-0.06245973 -0.13661484 0.033530563 4.6359998e-40
-0.06073441 -0.13661484 0.033530563 1.1756894e-42
-0.058985714 -0.13576023 0.036493629 1.0156807e-39
-0.057265591 -0.13576023 0.036493629 1.1067876e-39
-0.055545468 -0.13576023 0.036493629 2.8581402e-39
-0.05381735 -0.13488342 0.039533645 5.5310876e-39
-0.052102558 -0.13488342 0.039533645 7.4682818e-39
-0.050390329 -0.13403918 0.04246071 8.3927717e-39
-0.048680671 -0.13403918 0.04246071 3.5996835e-39
-0.046980068 -0.1334431 0.044527382 5.4428744e-39
-0.045292381 -0.13258059 0.047517806 5.1666421e-39
-0.043591589 -0.13258059 0.047517806 1.2951417e-39
-0.041919455 -0.13172336 0.050489992 4.6538383e-40
-0.040258586 -0.13084482 0.053535968 1.0182003e-39
-0.038568344 -0.13084482 0.053535968 2.6777272e-39
-0.036906842 -0.13028862 0.055464417 2.0320061e-39
-0.035219982 -0.13028862 0.055464417 2.6770224e-39
-0.033588625 -0.12941907 0.05847922 2.1245759e-39
-0.031907048 -0.12941907 0.05847922 2.1245759e-39
-0.030291134 -0.12855496 0.061475188 2.6784657e-39
-0.028614813 -0.12855496 0.061475188 2.6788202e-39
-0.026938491 -0.12855496 0.061475188 3.6929666e-39
-0.025318617 -0.1279559 0.063552231 3.2305451e-39
-0.023645936 -0.1279559 0.063552231 3.8744641e-39
-0.021973256 -0.1279559 0.063552231 5.6243832e-39
-0.020300576 -0.1279559 0.063552231 2.7663229e-39
-0.018627897 -0.1279559 0.063552231 9.8090893e-44
-0.016880561 -0.12855496 0.061475188 3.6925476e-40
-0.0150913 -0.12941907 0.05847922 5.5436488e-40
-0.013290789 -0.13028862 0.055464417 1.8558236e-40
-0.011603929 -0.13028862 0.055464417 4.6242849e-43
-0.0098342299 -0.13084482 0.053535968 9.10844e-44
-0.0081439875 -0.13084482 0.053535968 1.8663334e-40
-0.0063122176 -0.13172336 0.050489992 9.5145363e-41
-0.0046166368 -0.13172336 0.050489992 8.115798e-39
-0.0029210523 -0.13172336 0.050489992 7.2863905e-39
-0.0010717399 -0.13258059 0.047517806 1.1618861e-38
0.00062905625 -0.13258059 0.047517806 9.8671436e-39
0.0023298487 -0.13258059 0.047517806 1.0420315e-38
