# .PCD v0.7 - Point Cloud Data file format
VERSION 0.7
FIELDS x y z rgb
SIZE 4 4 4 4
TYPE F F F F
COUNT 1 1 1 1
WIDTH 945
HEIGHT 1
VIEWPOINT 0 0 0 1 0 0 0
POINTS 945
DATA ascii
0.027851634 -0.095941633 0.045663811 1.5403947e-38
0.02946616 -0.09524864 0.048602439 1.7521566e-38
0.031268753 -0.09524864 0.048602439 2.2406066e-38
0.033071347 -0.09524864 0.048602439 2.2590454e-38
0.03487394 -0.09524864 0.048602439 2.2774843e-38
0.036676534 -0.09524864 0.048602439 2.2775202e-38
0.038253643 -0.094535068 0.051628329 2.0656162e-38
0.040050931 -0.094535068 0.051628329 1.614002e-38
0.041613504 -0.093825653 0.054636575 1.1346221e-38
0.043405518 -0.093825653 0.054636575 6.7375355e-39
0.045197528 -0.093825653 0.054636575 4.89436e-39
0.046989542 -0.093825653 0.054636575 1.1132854e-39
0.048527237 -0.093120396 0.057627179 3.7251698e-40
0.050314005 -0.093120396 0.057627179 1.8462275e-39
0.052100774 -0.093120396 0.057627179 2.5841611e-39
0.053887542 -0.093120396 0.057627179 2.4930445e-39
0.055674311 -0.093120396 0.057627179 2.217524e-39
0.057741608 -0.093825653 0.054636575 3.2323822e-39
0.059533622 -0.093825653 0.054636575 3.1408858e-39
0.061912816 -0.09524864 0.048602439 2.4962212e-39
0.064006522 -0.095941633 0.045663811 4.985499e-39
0.065814272 -0.095941633 0.045663811 5.2613699e-39
0.067622021 -0.095941633 0.045663811 4.522014e-39
0.069749132 -0.096663594 0.042602398 4.3365437e-39
0.071979374 -0.097590908 0.03867016 2.6759378e-39
0.074122399 -0.098297372 0.03567443 3.9663024e-39
0.076277852 -0.099007934 0.032661296 4.2432298e-39
0.078773037 -0.10041572 0.026691653 4.7034835e-39
0.080614045 -0.10041572 0.026691653 3.1368851e-39
0.082455054 -0.10041572 0.026691653 3.5053117e-39
0.084768802 -0.10137187 0.022637106 2.9521393e-39
0.086616933 -0.10137187 0.022637106 2.8599437e-39
0.088822767 -0.10207425 0.019658662 2.6755524e-39
0.090676099 -0.10207425 0.019658662 6.3633776e-39
0.092899695 -0.10278064 0.016663291 5.9953097e-39
0.095135942 -0.10349102 0.013650872 2.9532071e-39
0.097513795 -0.10444455 0.0096075311 7.2878352e-39
0.099384755 -0.10444455 0.0096075311 1.6415553e-38
0.10163966 -0.10513772 0.0066681877 1.6877243e-38
0.10392211 -0.10586159 0.0035986677 1.3742946e-38
0.10634084 -0.10680611 -0.00040664524 1.2452923e-38
0.10917191 -0.1084419 -0.0073430762 1.1347652e-38
0.11149013 -0.10915731 -0.010376714 7.8442152e-39
0.11339614 -0.10915731 -0.010376714 4.6676271e-40
0.1157161 -0.10984896 -0.01330962 7.4268819e-43
0.11762725 -0.10984896 -0.01330962 3.68442e-40
0.12011907 -0.11079563 -0.017323993 6.4502889e-40
0.1224896 -0.11152427 -0.020413779 8.2977748e-40
0.12441321 -0.11152427 -0.020413779 9.2197031e-40
-0.13316682 -0.12390204 -0.064417146 4.9792773e-39
-0.13059151 -0.12222783 -0.057370089 5.5335301e-39
-0.12860312 -0.12222783 -0.057370089 5.7179199e-39
-0.12661472 -0.12222783 -0.057370089 5.9019594e-39
-0.12462632 -0.12222783 -0.057370089 4.5190432e-39
-0.12263793 -0.12222783 -0.057370089 9.2597803e-41
-0.12064953 -0.12222783 -0.057370089 7.3763791e-40
-0.11837281 -0.12126322 -0.053309821 2.7631924e-40
-0.11639154 -0.12126322 -0.053309821 1.2901208e-39
-0.11441025 -0.12126322 -0.053309821 7.2835529e-39
-0.11242898 -0.12126322 -0.053309821 4.6105816e-39
-0.11019775 -0.12033533 -0.049404167 7.397931e-40
-0.10803626 -0.11962132 -0.0463989 2.4911415e-39
-0.10606711 -0.11962132 -0.0463989 1.0420686e-38
-0.10409793 -0.11962132 -0.0463989 9.8675178e-39
-0.10190186 -0.11867525 -0.042416714 1.1096658e-39
-0.099939674 -0.11867525 -0.042416714 9.6975459e-41
-0.09775947 -0.11770664 -0.038339637 2.9903709e-42
-0.095804438 -0.11770664 -0.038339637 5.5725016e-40
-0.093849406 -0.11770664 -0.038339637 1.1093477e-39
-0.091752306 -0.11700659 -0.035393022 1.9281867e-42
-0.089802444 -0.11700659 -0.035393022 2.2841165e-42
-0.087672561 -0.11605005 -0.031366728 8.3132312e-40
-0.085599571 -0.11533 -0.028335951 6.4656332e-40
-0.083662078 -0.11533 -0.028335951 9.3738459e-41
-0.081724584 -0.11533 -0.028335951 1.1700842e-42
-0.07978709 -0.11533 -0.028335951 1.0174702e-39
-0.077706717 -0.11438553 -0.02436056 3.230517e-39
-0.07577619 -0.11438553 -0.02436056 8.1179602e-39
-0.07384567 -0.11438553 -0.02436056 9.8696758e-39
-0.07191515 -0.11438553 -0.02436056 1.0700155e-38
-0.069870457 -0.11344786 -0.020413779 1.0515781e-38
-0.067946851 -0.11344786 -0.020413779 7.6570283e-39
-0.066023245 -0.11344786 -0.020413779 2.8175208e-40
-0.064099655 -0.11344786 -0.020413779 2.6414476e-42
-0.062108334 -0.1127138 -0.017323993 3.7204474e-42
-0.060109206 -0.11176009 -0.01330962 2.6777496e-39
-0.058198061 -0.11176009 -0.01330962 1.2080622e-38
-0.05628692 -0.11176009 -0.01330962 1.1896588e-38
-0.054375771 -0.11176009 -0.01330962 1.1089778e-39
-0.052464627 -0.11176009 -0.01330962 7.4055121e-40
-0.050520059 -0.11106332 -0.010376714 3.7176588e-40
-0.0485848 -0.11034258 -0.0073430762 9.2494247e-40
-0.046653017 -0.10940616 -0.0034015402 7.4091134e-40
-0.044759247 -0.10940616 -0.0034015402 1.2940851e-39
-0.042852346 -0.10869466 -0.00040664524 1.1840972e-42
-0.040963825 -0.10869466 -0.00040664524 6.4979471e-40
-0.039071791 -0.10774307 0.0035986677 4.6540065e-40
-0.037190296 -0.10774307 0.0035986677 1.8737462e-40
-0.035308793 -0.10774307 0.0035986677 1.2937222e-39
-0.033427298 -0.10774307 0.0035986677 1.570672e-39
-0.031564634 -0.10701384 0.0066681877 6.4979751e-40
-0.029688518 -0.10701384 0.0066681877 9.6269204e-41
-0.027840745 -0.10631551 0.0096075311 6.4944579e-40
-0.025969783 -0.10631551 0.0096075311 1.6618027e-39
-0.024151988 -0.10535492 0.013650872 2.2135373e-39
-0.022288116 -0.10535492 0.013650872 2.9493073e-39
-0.020424241 -0.10535492 0.013650872 3.1322608e-39
-0.018615827 -0.10463922 0.016663291 2.2088626e-39
-0.016817631 -0.1039276 0.019658662 2.7623923e-39
-0.015029568 -0.10322 0.022637106 2.1170201e-39
-0.01318145 -0.10322 0.022637106 3.4084735e-39
-0.011333331 -0.10322 0.022637106 2.4883151e-39
-0.0094852131 -0.10322 0.022637106 2.4879494e-39
-0.0077543948 -0.10225673 0.026691653 3.7758029e-39
-0.0059133843 -0.10225673 0.026691653 2.8524075e-39
-0.0040723756 -0.10225673 0.026691653 1.9308225e-39
-0.0022313669 -0.10225673 0.026691653 2.2996079e-39
-0.00049600005 -0.10155846 0.029630758 2.6691064e-39
0.0013398565 -0.10155846 0.029630758 2.5772597e-39
0.0030561574 -0.10083848 0.032661296 2.7630719e-39
0.0048867017 -0.10083848 0.032661296 3.4087902e-39
0.0065878071 -0.10012263 0.03567443 2.0258544e-39
0.008413069 -0.10012263 0.03567443 1.5648804e-39
0.010099135 -0.099410906 0.03867016 1.6556524e-39
0.011919141 -0.099410906 0.03867016 8.2015463e-39
0.01373915 -0.099410906 0.03867016 1.0690109e-38
0.015355766 -0.098476708 0.042602398 9.2153311e-39
0.01716888 -0.098476708 0.042602398 1.2627274e-38
0.01881291 -0.097749382 0.045663811 1.2631579e-38
0.020620655 -0.097749382 0.045663811 1.1256914e-38
0.022428397 -0.097749382 0.045663811 1.0246364e-38
0.024236143 -0.097749382 0.045663811 1.0337492e-38
0.026043884 -0.097749382 0.045663811 3.3284776e-39
0.027663566 -0.097051233 0.048602439 6.7372048e-39
0.02946616 -0.097051233 0.048602439 7.1045454e-39
0.031268753 -0.097051233 0.048602439 7.7481029e-39
0.033071347 -0.097051233 0.048602439 1.4017386e-38
0.03487394 -0.097051233 0.048602439 1.9457265e-38
0.036456354 -0.096332356 0.051628329 2.2591531e-38
0.038253643 -0.096332356 0.051628329 2.2499695e-38
0.040050931 -0.096332356 0.051628329 2.2316024e-38
0.041613504 -0.095617667 0.054636575 2.2132353e-38
0.043405518 -0.095617667 0.054636575 2.1856847e-38
0.045197528 -0.095617667 0.054636575 1.9922203e-38
0.046989542 -0.095617667 0.054636575 1.2729198e-38
0.048527237 -0.094907165 0.057627179 1.2080622e-38
0.050055977 -0.094200835 0.060600258 9.6828365e-39
0.05183753 -0.094200835 0.060600258 9.7746832e-39
0.053619083 -0.094200835 0.060600258 8.6697747e-39
0.055400651 -0.094200835 0.060600258 1.0145978e-38
0.057182204 -0.094200835 0.060600258 5.4454262e-39
0.059247848 -0.094907165 0.057627179 4.1557426e-39
0.061325636 -0.095617667 0.054636575 3.3263308e-39
0.063715413 -0.097051233 0.048602439 2.5891203e-39
0.065518007 -0.097051233 0.048602439 3.3259665e-39
0.067622021 -0.097749382 0.045663811 3.2323429e-39
0.069429755 -0.097749382 0.045663811 3.7848007e-39
0.071979374 -0.099410906 0.03867016 2.4011403e-39
0.074122399 -0.10012263 0.03567443 3.8751844e-39
0.076277852 -0.10083848 0.032661296 3.414188e-39
0.078445807 -0.10155846 0.029630758 2.8606471e-39
0.08028166 -0.10155846 0.029630758 2.6762559e-39
0.082117513 -0.10155846 0.029630758 3.3216281e-39
0.084296063 -0.10225673 0.026691653 2.6759041e-39
0.086616933 -0.10322 0.022637106 2.6759069e-39
0.088822767 -0.1039276 0.019658662 2.3989641e-39
0.090676099 -0.1039276 0.019658662 6.6399631e-39
0.092899695 -0.10463922 0.016663291 6.3644482e-39
0.095135942 -0.10535492 0.013650872 3.4141838e-39
0.097513795 -0.10631551 0.0096075311 6.9190471e-39
0.099384755 -0.10631551 0.0096075311 1.5585788e-38
0.10163966 -0.10701384 0.0066681877 1.3927337e-38
0.10445233 -0.10869466 -0.00040664524 1.3743296e-38
0.10674255 -0.10940616 -0.0034015402 1.3559621e-38
0.10917191 -0.11034258 -0.0073430762 1.3006446e-38
0.11149013 -0.11106332 -0.010376714 1.143912e-38
0.11339614 -0.11106332 -0.010376714 8.3554383e-40
0.11530215 -0.11106332 -0.010376714 3.8255448e-43
0.11762725 -0.11176009 -0.01330962 2.1019477e-44
0.11953838 -0.11176009 -0.01330962 1.821688e-44
0.1224896 -0.11344786 -0.020413779 1.5414283e-44
0.12441321 -0.11344786 -0.020413779 1.5414283e-44
-0.13316682 -0.12590279 -0.064417146 4.7037722e-39
-0.13116606 -0.12590279 -0.064417146 5.2573061e-39
-0.12891912 -0.12516426 -0.061331294 5.6260886e-39
-0.12661472 -0.12421621 -0.057370089 6.179268e-39
-0.12462632 -0.12421621 -0.057370089 4.7030785e-39
-0.12263793 -0.12421621 -0.057370089 4.2038954e-44
-0.12064953 -0.12421621 -0.057370089 5.5216765e-40
-0.11837281 -0.12324448 -0.053309821 2.759549e-40
-0.11639154 -0.12324448 -0.053309821 1.3823053e-39
-0.11441025 -0.12324448 -0.053309821 1.2723437e-38
-0.11217219 -0.12230973 -0.049404167 1.2170964e-38
-0.11019775 -0.12230973 -0.049404167 9.6827468e-39
-0.10803626 -0.12159048 -0.0463989 1.1618844e-38
-0.10606711 -0.12159048 -0.0463989 1.5030801e-38
-0.10386404 -0.12063743 -0.042416714 1.5768013e-38
-0.10190186 -0.12063743 -0.042416714 4.7052786e-39
-0.099939674 -0.12063743 -0.042416714 1.1100456e-39
-0.09775947 -0.11966167 -0.038339637 2.810262e-40
-0.095804438 -0.11966167 -0.038339637 3.72325e-42
-0.093702167 -0.11895646 -0.035393022 9.5921682e-41
-0.091752306 -0.11895646 -0.035393022 2.7887941e-40
-0.08961536 -0.11799283 -0.031366728 1.8632085e-40
-0.08753705 -0.11726747 -0.028335951 1.8631945e-40
-0.085599571 -0.11726747 -0.028335951 4.6289653e-40
-0.083662078 -0.11726747 -0.028335951 1.9071672e-42
-0.081567749 -0.11631607 -0.02436056 2.7920592e-40
-0.079637237 -0.11631607 -0.02436056 3.7175187e-40
-0.077706717 -0.11631607 -0.02436056 2.1238234e-39
-0.07577619 -0.11631607 -0.02436056 3.5074739e-39
-0.07384567 -0.11631607 -0.02436056 6.27334e-39
-0.07191515 -0.11631607 -0.02436056 9.5001898e-39
-0.069870457 -0.11537148 -0.020413779 1.0238845e-38
-0.067946851 -0.11537148 -0.020413779 9.225433e-39
-0.066023245 -0.11537148 -0.020413779 1.8501498e-39
-0.064099655 -0.11537148 -0.020413779 4.7363888e-43
-0.062108334 -0.114632 -0.017323993 1.3888059e-39
-0.060190149 -0.114632 -0.017323993 5.7209201e-39
-0.058198061 -0.11367123 -0.01330962 9.0395998e-39
-0.05628692 -0.11367123 -0.01330962 9.4073005e-39
-0.054375771 -0.11367123 -0.01330962 2.6218294e-42
-0.052464627 -0.11367123 -0.01330962 4.6468038e-40
-0.050520059 -0.11296929 -0.010376714 1.2944396e-39
-0.0485848 -0.11224325 -0.0073430762 1.294441e-39
-0.046653017 -0.11129995 -0.0034015402 9.2565853e-40
-0.044759247 -0.11129995 -0.0034015402 1.5717482e-39
-0.042852346 -0.11058317 -0.00040664524 4.4210967e-42
-0.040963825 -0.11058317 -0.00040664524 1.2958802e-39
-0.039071791 -0.10962458 0.0035986677 4.784033e-42
-0.037190296 -0.10962458 0.0035986677 3.7036318e-42
-0.035308793 -0.10962458 0.0035986677 1.2958858e-39
-0.033427298 -0.10962458 0.0035986677 6.5123945e-40
-0.031564634 -0.10888995 0.0066681877 8.3671111e-40
-0.029688518 -0.10888995 0.0066681877 8.3635798e-40
-0.027840745 -0.10818647 0.0096075311 5.5977389e-40
-0.025969783 -0.10818647 0.0096075311 1.9412734e-39
-0.024151988 -0.10721879 0.013650872 1.2941075e-39
-0.022288116 -0.10721879 0.013650872 2.6748868e-39
-0.020474419 -0.10649781 0.016663291 2.3046623e-39
-0.018615827 -0.10649781 0.016663291 2.6720043e-39
-0.016817631 -0.10578094 0.019658662 2.1188277e-39
-0.015029568 -0.1050681 0.022637106 1.4734555e-39
-0.01318145 -0.1050681 0.022637106 2.5808751e-39
-0.011333331 -0.1050681 0.022637106 2.9510967e-39
-0.0094852131 -0.1050681 0.022637106 1.4766743e-39
-0.0077543948 -0.10409774 0.026691653 2.0301942e-39
-0.0059133843 -0.10409774 0.026691653 2.6759209e-39
-0.0040723756 -0.10409774 0.026691653 1.201165e-39
-0.0023318566 -0.10339431 0.029630758 1.3852017e-39
-0.00049600005 -0.10339431 0.029630758 1.4781134e-39
0.0012256168 -0.10266902 0.032661296 6.487045e-40
0.0030561574 -0.10266902 0.032661296 2.494038e-39
0.004762549 -0.10194789 0.03567443 3.416346e-39
0.0065878071 -0.10194789 0.03567443 5.7212368e-39
0.008413069 -0.10194789 0.03567443 3.6003842e-39
0.010099135 -0.10123092 0.03867016 1.4788183e-39
0.011919141 -0.10123092 0.03867016 7.1024014e-39
0.01373915 -0.10123092 0.03867016 6.9172941e-39
0.015355766 -0.10028981 0.042602398 5.9024163e-39
0.01716888 -0.10028981 0.042602398 7.1013056e-39
0.01881291 -0.099557132 0.045663811 8.6697075e-39
0.020620655 -0.099557132 0.045663811 9.2250421e-39
0.022428397 -0.099557132 0.045663811 9.5941903e-39
0.024236143 -0.099557132 0.045663811 7.9353991e-39
0.026043884 -0.099557132 0.045663811 5.5379582e-39
0.027663566 -0.098853827 0.048602439 2.4955052e-39
0.02946616 -0.098853827 0.048602439 2.0348787e-39
0.031268753 -0.098853827 0.048602439 2.2322685e-42
0.032861784 -0.098129645 0.051628329 2.4054171e-39
0.034659073 -0.098129645 0.051628329 3.2351525e-39
0.036456354 -0.098129645 0.051628329 1.3653599e-38
0.038253643 -0.098129645 0.051628329 1.6234706e-38
0.040050931 -0.098129645 0.051628329 2.1488782e-38
0.041613504 -0.09740968 0.054636575 2.2316024e-38
0.043405518 -0.09740968 0.054636575 2.2131277e-38
0.045197528 -0.09740968 0.054636575 2.1761424e-38
0.046740469 -0.096693933 0.057627179 1.5030481e-38
0.048527237 -0.096693933 0.057627179 1.4937937e-38
0.050055977 -0.095982388 0.060600258 9.4987661e-39
0.05183753 -0.095982388 0.060600258 9.1296375e-39
0.053619083 -0.095982388 0.060600258 9.4069488e-39
0.055400651 -0.095982388 0.060600258 9.2236352e-39
0.057182204 -0.095982388 0.060600258 5.7216277e-39
0.058963757 -0.095982388 0.060600258 3.8791375e-39
0.06074531 -0.095982388 0.060600258 2.4972736e-39
0.063715413 -0.098853827 0.048602439 2.5894664e-39
0.065518007 -0.098853827 0.048602439 3.0504488e-39
0.067622021 -0.099557132 0.045663811 3.5103592e-39
0.069429755 -0.099557132 0.045663811 2.4025823e-39
0.071979374 -0.10123092 0.03867016 2.4940618e-39
0.074122399 -0.10194789 0.03567443 3.23198e-39
0.076277852 -0.10266902 0.032661296 2.6780761e-39
0.0781084 -0.10266902 0.032661296 3.0461258e-39
0.08028166 -0.10339431 0.029630758 3.3219784e-39
0.082117513 -0.10339431 0.029630758 3.1365053e-39
0.084296063 -0.10409774 0.026691653 4.0584672e-39
0.086616933 -0.1050681 0.022637106 2.6751797e-39
0.088822767 -0.10578094 0.019658662 3.1368851e-39
0.090676099 -0.10578094 0.019658662 6.640319e-39
0.092899695 -0.10649781 0.016663291 5.4424919e-39
0.095135942 -0.10721879 0.013650872 4.3364961e-39
0.097513795 -0.10818647 0.0096075311 7.5647724e-39
0.099763542 -0.10888995 0.0066681877 1.3834424e-38
0.10163966 -0.10888995 0.0066681877 1.5126234e-38
0.10445233 -0.11058317 -0.00040664524 1.4296825e-38
0.10674255 -0.11129995 -0.0034015402 1.4112431e-38
0.10917191 -0.11224325 -0.0073430762 1.3098279e-38
0.1110726 -0.11224325 -0.0073430762 1.1530953e-38
0.11339614 -0.11296929 -0.010376714 1.1114076e-39
0.11530215 -0.11296929 -0.010376714 8.3086489e-40
0.11720814 -0.11296929 -0.010376714 2.7624918e-40
0.11911415 -0.11296929 -0.010376714 1.6815582e-44
0.12102014 -0.11296929 -0.010376714 1.5414283e-44
-0.13316682 -0.12790357 -0.064417146 5.6253726e-39
-0.13116606 -0.12790357 -0.064417146 5.9948739e-39
-0.12891912 -0.12715961 -0.061331294 6.0870696e-39
-0.12661472 -0.12620462 -0.057370089 6.4555004e-39
-0.12462632 -0.12620462 -0.057370089 4.9796682e-39
-0.12263793 -0.12620462 -0.057370089 4.7644148e-44
-0.12064953 -0.12620462 -0.057370089 6.4400034e-40
-0.11837281 -0.12522577 -0.053309821 2.7558776e-40
-0.11639154 -0.12522577 -0.053309821 2.5801198e-39
-0.11441025 -0.12522577 -0.053309821 1.7978575e-38
-0.11217219 -0.12428416 -0.049404167 2.0468552e-38
-0.11019775 -0.12428416 -0.049404167 2.1759989e-38
-0.10803626 -0.12355967 -0.0463989 2.0101182e-38
-0.10606711 -0.12355967 -0.0463989 2.1853615e-38
-0.10386404 -0.12259962 -0.042416714 2.2037648e-38
-0.10190186 -0.12259962 -0.042416714 3.4145201e-39
-0.099939674 -0.12259962 -0.042416714 1.1588738e-42
-0.09775947 -0.12161671 -0.038339637 9.8090893e-44
-0.095804438 -0.12161671 -0.038339637 8.239635e-43
-0.093702167 -0.12090631 -0.035393022 2.6288359e-42
-0.091752306 -0.12090631 -0.035393022 1.55404e-42
-0.089474544 -0.11920498 -0.028335951 1.0789998e-43
-0.08753705 -0.11920498 -0.028335951 1.0649868e-43
-0.085599571 -0.11920498 -0.028335951 8.2956869e-43
-0.083662078 -0.11920498 -0.028335951 9.5288296e-44
-0.081567749 -0.11824657 -0.02436056 4.6359437e-40
-0.079637237 -0.11824657 -0.02436056 8.1135181e-43
-0.077706717 -0.11824657 -0.02436056 4.5121811e-43
-0.07564126 -0.11729507 -0.020413779 1.293711e-39
-0.073717654 -0.11729507 -0.020413779 1.4784652e-39
-0.071794048 -0.11729507 -0.020413779 3.8755543e-39
-0.069781065 -0.11655019 -0.017323993 1.0237417e-38
-0.067862883 -0.11655019 -0.017323993 1.0240301e-38
-0.065944701 -0.11655019 -0.017323993 3.8791655e-39
-0.064099655 -0.11729507 -0.020413779 5.5976268e-40
-0.062108334 -0.11655019 -0.017323993 2.7717361e-39
-0.060190149 -0.11655019 -0.017323993 5.9978601e-39
-0.058198061 -0.11558239 -0.01330962 6.2737253e-39
-0.05628692 -0.11558239 -0.01330962 6.2730037e-39
-0.054375771 -0.11558239 -0.01330962 3.7008292e-42
-0.052426059 -0.1148753 -0.010376714 6.4907024e-40
-0.050520059 -0.1148753 -0.010376714 8.334615e-40
-0.0485848 -0.11414395 -0.0073430762 1.0178528e-39
-0.046653017 -0.11319371 -0.0034015402 1.203323e-39
-0.044740871 -0.11247168 -0.00040664524 1.8483351e-39
-0.042852346 -0.11247168 -0.00040664524 4.7812304e-42
-0.040963825 -0.11247168 -0.00040664524 1.6657417e-39
-0.039071791 -0.11150609 0.0035986677 1.8501358e-39
-0.037190296 -0.11150609 0.0035986677 7.4415394e-40
-0.035308793 -0.11150609 0.0035986677 2.0352543e-39
-0.033427298 -0.11150609 0.0035986677 1.0218254e-39
-0.031564634 -0.11076607 0.0066681877 7.4596022e-40
-0.029688518 -0.11076607 0.0066681877 2.5895169e-39
-0.027840745 -0.11005743 0.0096075311 2.3129328e-39
-0.026015863 -0.10908265 0.013650872 2.1267451e-39
-0.024151988 -0.10908265 0.013650872 3.0099891e-42
-0.022288116 -0.10908265 0.013650872 1.9323906e-42
-0.020474419 -0.1083564 0.016663291 9.2316702e-40
-0.018615827 -0.1083564 0.016663291 2.2124653e-39
-0.016817631 -0.10763429 0.019658662 2.2128212e-39
-0.015029568 -0.10691623 0.022637106 2.0291432e-39
-0.01318145 -0.10691623 0.022637106 2.7677845e-39
-0.011333331 -0.10691623 0.022637106 3.2294801e-39
-0.0095954034 -0.10593875 0.026691653 2.5851799e-39
-0.0077543948 -0.10593875 0.026691653 2.7695557e-39
-0.0059133843 -0.10593875 0.026691653 6.4905623e-40
-0.0040723756 -0.10593875 0.026691653 7.4126727e-40
-0.0023318566 -0.10523017 0.029630758 2.032376e-39
-0.00049600005 -0.10523017 0.029630758 1.4795582e-39
0.0012256168 -0.10449956 0.032661296 6.508681e-40
0.0030561574 -0.10449956 0.032661296 6.5229042e-40
0.004762549 -0.10377313 0.03567443 4.156432e-39
0.0065878071 -0.10377313 0.03567443 6.6457112e-39
0.008413069 -0.10377313 0.03567443 1.0240267e-38
0.010099135 -0.10305093 0.03867016 1.1069322e-38
0.011919141 -0.10305093 0.03867016 1.0883861e-38
0.01373915 -0.10305093 0.03867016 1.1804741e-38
0.015355766 -0.10210292 0.042602398 1.1159009e-38
0.01716888 -0.10210292 0.042602398 8.8537484e-39
0.01881291 -0.10136487 0.045663811 1.5710125e-39
0.020620655 -0.10136487 0.045663811 4.981546e-39
0.022428397 -0.10136487 0.045663811 8.5775427e-39
0.024236143 -0.10136487 0.045663811 1.1620723e-38
0.02586098 -0.10065642 0.048602439 1.2266811e-38
0.027663566 -0.10065642 0.048602439 7.5659131e-39
0.029267207 -0.099926919 0.051628329 6.8286956e-39
0.031064495 -0.099926919 0.051628329 8.5818307e-39
0.032861784 -0.099926919 0.051628329 1.7986839e-38
0.034659073 -0.099926919 0.051628329 1.7342882e-38
0.036456354 -0.099926919 0.051628329 2.0108732e-38
0.038029477 -0.099201679 0.054636575 1.7711278e-38
0.039821491 -0.099201679 0.054636575 1.7709481e-38
0.041613504 -0.099201679 0.054636575 1.6786101e-38
0.043405518 -0.099201679 0.054636575 1.8443481e-38
0.0449537 -0.098480701 0.057627179 1.825767e-38
0.046740469 -0.098480701 0.057627179 8.2998348e-39
0.048527237 -0.098480701 0.057627179 7.1012916e-39
0.050055977 -0.097763941 0.060600258 1.2011398e-39
0.05183753 -0.097763941 0.060600258 7.4053439e-40
0.053619083 -0.097763941 0.060600258 1.478468e-39
0.055119198 -0.09702684 0.063657738 4.6134795e-39
0.056895401 -0.09702684 0.063657738 4.4308749e-39
0.05867159 -0.09702684 0.063657738 1.942295e-39
0.060447793 -0.09702684 0.063657738 6.5384586e-42
0.063415661 -0.099926919 0.051628329 4.8014245e-39
0.06521295 -0.099926919 0.051628329 1.6142213e-38
0.0673206 -0.10065642 0.048602439 1.3467114e-38
0.069429755 -0.10136487 0.045663811 2.3107356e-39
0.071562245 -0.10210292 0.042602398 9.2780532e-40
0.074122399 -0.10377313 0.03567443 5.5902e-40
0.075947657 -0.10377313 0.03567443 2.2185301e-39
0.0781084 -0.10449956 0.032661296 1.3005046e-38
0.079938933 -0.10449956 0.032661296 1.4109216e-38
0.082117513 -0.10523017 0.029630758 1.3924102e-38
0.084296063 -0.10593875 0.026691653 1.0973491e-38
0.086616933 -0.10691623 0.022637106 3.6896847e-39
0.088822767 -0.10763429 0.019658662 1.6617522e-39
0.090676099 -0.10763429 0.019658662 5.3495802e-39
0.092899695 -0.1083564 0.016663291 4.7049269e-39
0.095135942 -0.10908265 0.013650872 3.2312275e-39
0.097513795 -0.11005743 0.0096075311 8.7633142e-39
0.099763542 -0.11076607 0.0066681877 1.3281249e-38
0.10204062 -0.11150609 0.0035986677 1.3835489e-38
0.10445233 -0.11247168 -0.00040664524 1.5218778e-38
0.10674255 -0.11319371 -0.0034015402 1.5310971e-38
0.10917191 -0.11414395 -0.0073430762 1.2084124e-38
0.1110726 -0.11414395 -0.0073430762 1.1438757e-38
0.11339614 -0.1148753 -0.010376714 3.1397115e-39
0.11530215 -0.1148753 -0.010376714 1.1996474e-39
0.11720814 -0.1148753 -0.010376714 4.6064044e-40
0.11911415 -0.1148753 -0.010376714 1.9618179e-44
0.12102014 -0.1148753 -0.010376714 1.5414283e-44
-0.13116606 -0.12990431 -0.064417146 6.3636593e-39
-0.12891912 -0.12915494 -0.061331294 6.2707448e-39
-0.12661472 -0.12819304 -0.057370089 6.6391756e-39
-0.12462632 -0.12819304 -0.057370089 5.2555391e-39
-0.12263793 -0.12819304 -0.057370089 3.6847003e-40
-0.12064953 -0.12819304 -0.057370089 9.1950823e-40
-0.11837281 -0.12720706 -0.053309821 2.7558496e-40
-0.11639154 -0.12720706 -0.053309821 6.4364441e-40
-0.11441025 -0.12720706 -0.053309821 2.0927371e-38
-0.11217219 -0.1262586 -0.049404167 2.2127331e-38
-0.11000542 -0.12552883 -0.0463989 2.1022413e-38
-0.10803626 -0.12552883 -0.0463989 2.0561783e-38
-0.10606711 -0.12552883 -0.0463989 2.295887e-38
-0.10386404 -0.1245618 -0.042416714 2.2683007e-38
-0.10190186 -0.1245618 -0.042416714 9.5919637e-39
-0.099939674 -0.1245618 -0.042416714 4.9836465e-39
-0.09775947 -0.12357174 -0.038339637 4.15426e-39
-0.095804438 -0.12357174 -0.038339637 2.4947443e-39
-0.093702167 -0.12285618 -0.035393022 8.3414954e-40
-0.091752306 -0.12285618 -0.035393022 2.8098136e-40
-0.089474544 -0.12114246 -0.028335951 9.2527457e-40
-0.08753705 -0.12114246 -0.028335951 1.1096686e-39
-0.085599571 -0.12114246 -0.028335951 7.4088612e-40
-0.083662078 -0.12114246 -0.028335951 7.8472714e-44
-0.081567749 -0.12017711 -0.02436056 1.8663614e-40
-0.079637237 -0.12017711 -0.02436056 8.3200835e-40
-0.077706717 -0.12017711 -0.02436056 1.8931542e-42
-0.07564126 -0.11921866 -0.020413779 1.1078904e-39
-0.073717654 -0.11921866 -0.020413779 1.9099698e-42
-0.071699247 -0.11846836 -0.017323993 5.5509216e-40
-0.069781065 -0.11846836 -0.017323993 7.3786478e-39
-0.067753784 -0.11749353 -0.01330962 9.3183419e-39
-0.065842643 -0.11749353 -0.01330962 6.1847639e-39
-0.06402652 -0.11846836 -0.017323993 3.6025674e-39
-0.062108334 -0.11846836 -0.017323993 5.4461171e-39
-0.060190149 -0.11846836 -0.017323993 7.2889507e-39
-0.058198061 -0.11749353 -0.01330962 3.3241756e-39
-0.05628692 -0.11749353 -0.01330962 2.3089447e-39
-0.054375771 -0.11749353 -0.01330962 3.7211761e-40
-0.052426059 -0.11678131 -0.010376714 9.2529139e-40
-0.050520059 -0.11678131 -0.010376714 8.3309856e-40
-0.0485848 -0.11604463 -0.0073430762 5.5687181e-40
-0.046653017 -0.11508749 -0.0034015402 4.6575798e-40
-0.044740871 -0.1143602 -0.00040664524 8.3418317e-40
-0.042852346 -0.1143602 -0.00040664524 3.3406955e-42
-0.040963825 -0.1143602 -0.00040664524 6.5159258e-40
-0.039071791 -0.11338757 0.0035986677 6.5195271e-40
-0.037190296 -0.11338757 0.0035986677 2.8353593e-40
-0.035308793 -0.11338757 0.0035986677 1.6675508e-39
-0.033427298 -0.11338757 0.0035986677 1.852305e-39
-0.031564634 -0.11264218 0.0066681877 1.3005731e-39
-0.029688518 -0.11264218 0.0066681877 3.6054667e-39
-0.027840745 -0.11192839 0.0096075311 2.1299807e-39
-0.026015863 -0.11094652 0.013650872 1.9441503e-39
-0.024151988 -0.11094652 0.013650872 9.2855922e-40
-0.022333011 -0.11021499 0.016663291 8.3384686e-40
-0.020474419 -0.11021499 0.016663291 2.4919263e-39
-0.018615827 -0.11021499 0.016663291 3.0440182e-39
-0.016817631 -0.10948761 0.019658662 2.6755888e-39
-0.015029568 -0.10876434 0.022637106 2.4919122e-39
-0.01318145 -0.10876434 0.022637106 2.0316502e-39
-0.011333331 -0.10876434 0.022637106 1.2951613e-39
-0.0095954034 -0.10777976 0.026691653 1.4788281e-39
-0.0077543948 -0.10777976 0.026691653 1.2919131e-39
-0.0059133843 -0.10777976 0.026691653 1.6596222e-39
-0.0040723756 -0.10777976 0.026691653 2.857462e-39
-0.0023318566 -0.10706602 0.029630758 1.2908621e-39
-0.00049600005 -0.10706602 0.029630758 1.3837766e-39
0.0012256168 -0.10633011 0.032661296 7.6545074e-39
0.0030561574 -0.10633011 0.032661296 6.2726351e-39
0.004762549 -0.10559841 0.03567443 6.27334e-39
0.0065878071 -0.10559841 0.03567443 5.6276034e-39
0.008413069 -0.10559841 0.03567443 9.3154286e-39
0.010099135 -0.10487093 0.03867016 1.1526696e-38
0.011919141 -0.10487093 0.03867016 1.1894765e-38
0.01373915 -0.10487093 0.03867016 1.2722732e-38
0.015559155 -0.10487093 0.03867016 1.1800773e-38
0.01716888 -0.10391603 0.042602398 8.5739147e-39
0.018981993 -0.10391603 0.042602398 2.5822834e-39
0.020620655 -0.10317262 0.045663811 2.2153254e-39
0.022428397 -0.10317262 0.045663811 4.3376339e-39
0.024058387 -0.10245901 0.048602439 7.8410707e-39
0.02586098 -0.10245901 0.048602439 1.3464998e-38
0.027663566 -0.10245901 0.048602439 1.291146e-38
0.029267207 -0.10172421 0.051628329 1.420326e-38
0.031064495 -0.10172421 0.051628329 1.5771286e-38
0.032861784 -0.10172421 0.051628329 2.1948682e-38
0.034659073 -0.10172421 0.051628329 2.1948682e-38
0.036456354 -0.10172421 0.051628329 2.1673176e-38
0.038029477 -0.10099369 0.054636575 2.1305834e-38
0.039821491 -0.10099369 0.054636575 2.0015098e-38
0.041613504 -0.10099369 0.054636575 1.6971937e-38
0.043166935 -0.10026747 0.057627179 1.7247819e-38
0.0449537 -0.10026747 0.057627179 1.6786137e-38
0.046740469 -0.10026747 0.057627179 6.6442679e-39
0.048274424 -0.099545494 0.060600258 5.8130681e-39
0.049790617 -0.098803028 0.063657738 2.5924022e-42
0.051566821 -0.098803028 0.063657738 8.3344889e-40
0.053068589 -0.098065019 0.06669686 1.6628564e-39
0.054839458 -0.098065019 0.06669686 4.1521384e-39
0.056610312 -0.098065019 0.06669686 4.1524874e-39
0.058381181 -0.098065019 0.06669686 1.7564576e-39
0.060447793 -0.098803028 0.063657738 4.2471633e-39
0.063415661 -0.10172421 0.051628329 1.0332069e-38
0.06521295 -0.10172421 0.051628329 2.0012603e-38
0.0673206 -0.10245901 0.048602439 1.715492e-38
0.069749132 -0.10391603 0.042602398 5.9067028e-39
0.071562245 -0.10391603 0.042602398 3.6940091e-39
0.073799372 -0.10487093 0.03867016 5.2613348e-39
0.075947657 -0.10559841 0.03567443 8.12047e-39
0.0781084 -0.10633011 0.032661296 1.6877965e-38
0.079938933 -0.10633011 0.032661296 1.9641661e-38
0.082117513 -0.10706602 0.029630758 1.9178883e-38
0.084296063 -0.10777976 0.026691653 1.4107777e-38
0.086616933 -0.10876434 0.022637106 4.0584644e-39
0.088822767 -0.10948761 0.019658662 1.753945e-39
0.090676099 -0.10948761 0.019658662 4.6120152e-39
0.092899695 -0.11021499 0.016663291 3.5063837e-39
0.09564282 -0.11192839 0.0096075311 2.1248799e-39
0.097513795 -0.11192839 0.0096075311 7.2881841e-39
0.099763542 -0.11264218 0.0066681877 1.401953e-38
0.10204062 -0.11338757 0.0035986677 1.4481216e-38
0.10445233 -0.1143602 -0.00040664524 1.5495362e-38
0.10727122 -0.11604463 -0.0073430762 1.5495362e-38
0.10917191 -0.11604463 -0.0073430762 1.2268515e-38
0.1110726 -0.11604463 -0.0073430762 1.162243e-38
0.11297327 -0.11604463 -0.0073430762 1.8482566e-39
0.11487396 -0.11604463 -0.0073430762 1.6606256e-39
0.11677465 -0.11604463 -0.0073430762 1.0138142e-39
0.11911415 -0.11678131 -0.010376714 1.8405355e-40
0.12102014 -0.11678131 -0.010376714 1.6815582e-44
-0.13116606 -0.13190506 -0.064417146 6.0870696e-39
-0.12891912 -0.13115029 -0.061331294 5.9019622e-39
-0.12661472 -0.13018142 -0.057370089 6.3625887e-39
-0.12462632 -0.13018142 -0.057370089 5.4388527e-39
-0.12263793 -0.13018142 -0.057370089 6.4398072e-40
-0.12064953 -0.13018142 -0.057370089 1.1031834e-39
-0.11837281 -0.12918831 -0.053309821 6.4292835e-40
-0.11639154 -0.12918831 -0.053309821 1.3797675e-39
-0.11414661 -0.12823303 -0.049404167 2.194079e-38
-0.11217219 -0.12823303 -0.049404167 2.249539e-38
-0.11000542 -0.12749799 -0.0463989 1.6596658e-38
-0.10803626 -0.12749799 -0.0463989 1.7242374e-38
-0.10606711 -0.12749799 -0.0463989 2.3234372e-38
-0.10386404 -0.12652399 -0.042416714 2.3050347e-38
-0.10190186 -0.12652399 -0.042416714 2.1761054e-38
-0.099939674 -0.12652399 -0.042416714 2.1301883e-38
-0.097977504 -0.12652399 -0.042416714 2.0289175e-38
-0.095804438 -0.12552677 -0.038339637 1.6969779e-38
-0.093702167 -0.12480606 -0.035393022 1.3189404e-38
-0.091752306 -0.12480606 -0.035393022 1.3004662e-38
-0.08961536 -0.12382124 -0.031366728 1.5217359e-38
-0.08753705 -0.12307997 -0.028335951 1.5492872e-38
-0.085599571 -0.12307997 -0.028335951 1.3372017e-38
-0.083662078 -0.12307997 -0.028335951 1.2541902e-38
-0.081567749 -0.12210761 -0.02436056 1.0974581e-38
-0.079637237 -0.12210761 -0.02436056 1.1250461e-38
-0.077706717 -0.12210761 -0.02436056 4.7964176e-39
-0.07564126 -0.12114228 -0.020413779 1.8593409e-40
-0.073717654 -0.12114228 -0.020413779 1.0649868e-43
-0.071699247 -0.12038656 -0.017323993 1.2611686e-43
-0.069781065 -0.12038656 -0.017323993 2.3078909e-39
-0.067753784 -0.11940466 -0.01330962 5.4457625e-39
-0.065842643 -0.11940466 -0.01330962 7.014519e-39
-0.06402652 -0.12038656 -0.017323993 6.6453763e-39
-0.062108334 -0.12038656 -0.017323993 8.0275891e-39
-0.060190149 -0.12038656 -0.017323993 8.8559106e-39
-0.058198061 -0.11940466 -0.01330962 1.9401594e-39
-0.05628692 -0.11940466 -0.01330962 2.6120203e-42
-0.054375771 -0.11940466 -0.01330962 4.6431324e-40
-0.052426059 -0.11868732 -0.010376714 1.1089638e-39
-0.050520059 -0.11868732 -0.010376714 1.2018811e-39
-0.0485848 -0.11794533 -0.0073430762 7.40547e-40
-0.046653017 -0.11698125 -0.0034015402 3.3420968e-42
-0.044740871 -0.11624874 -0.00040664524 3.7050331e-42
-0.042852346 -0.11624874 -0.00040664524 4.4267018e-42
-0.040963825 -0.11624874 -0.00040664524 5.8658354e-42
-0.039071791 -0.11526908 0.0035986677 3.347702e-42
-0.037190296 -0.11526908 0.0035986677 1.4820791e-39
-0.035308793 -0.11526908 0.0035986677 3.3270707e-39
-0.033427298 -0.11526908 0.0035986677 4.894758e-39
-0.031564634 -0.1145183 0.0066681877 3.5129025e-39
-0.029688518 -0.1145183 0.0066681877 2.9600917e-39
-0.027840745 -0.11379938 0.0096075311 3.7120396e-42
-0.026015863 -0.11281042 0.013650872 2.6330398e-42
-0.024151988 -0.11281042 0.013650872 2.831842e-40
-0.022333011 -0.11207359 0.016663291 1.2951753e-39
-0.020474419 -0.11207359 0.016663291 2.3078853e-39
-0.018615827 -0.11207359 0.016663291 2.030574e-39
-0.016817631 -0.11134095 0.019658662 1.9383727e-39
-0.01496429 -0.11134095 0.019658662 2.8614024e-39
-0.01318145 -0.11061247 0.022637106 2.3089447e-39
-0.011333331 -0.11061247 0.022637106 6.5049956e-40
-0.0094852131 -0.11061247 0.022637106 6.4942056e-40
-0.0077543948 -0.10962076 0.026691653 1.1075246e-39
-0.0059133843 -0.10962076 0.026691653 6.4439971e-40
-0.0040723756 -0.10962076 0.026691653 6.4441372e-40
-0.0023318566 -0.10890187 0.029630758 6.45141e-40
-0.00049600005 -0.10890187 0.029630758 2.1209899e-39
0.0012256168 -0.10816063 0.032661296 1.0327829e-38
0.0030561574 -0.10816063 0.032661296 9.2229009e-39
0.004762549 -0.10742365 0.03567443 8.6704292e-39
0.0065878071 -0.10742365 0.03567443 5.9963859e-39
0.008413069 -0.10742365 0.03567443 7.8406545e-39
0.010099135 -0.10669093 0.03867016 7.5626383e-39
0.011919141 -0.10669093 0.03867016 1.0326713e-38
0.01373915 -0.10669093 0.03867016 1.2630891e-38
0.015559155 -0.10669093 0.03867016 1.5211647e-38
0.01716888 -0.10572915 0.042602398 7.2824514e-39
0.018981993 -0.10572915 0.042602398 7.7071416e-44
0.020620655 -0.10498036 0.045663811 4.6684539e-40
0.022428397 -0.10498036 0.045663811 6.5959119e-42
0.024058387 -0.10426159 0.048602439 1.1125819e-39
0.02586098 -0.10426159 0.048602439 1.1253014e-38
0.027663566 -0.10426159 0.048602439 1.6783653e-38
0.029267207 -0.10352151 0.051628329 2.1854336e-38
0.031064495 -0.10352151 0.051628329 2.1577035e-38
0.032861784 -0.10352151 0.051628329 2.2499695e-38
0.034659073 -0.10352151 0.051628329 2.2499695e-38
0.036237463 -0.10278571 0.054636575 2.1395517e-38
0.038029477 -0.10278571 0.054636575 2.2132353e-38
0.039821491 -0.10278571 0.054636575 2.1673176e-38
0.041380167 -0.10205424 0.057627179 1.9371902e-38
0.043166935 -0.10205424 0.057627179 1.8081897e-38
0.0449537 -0.10205424 0.057627179 1.8819818e-38
0.046492871 -0.10132705 0.060600258 1.4208984e-38
0.048274424 -0.10132705 0.060600258 1.0610486e-38
0.049790617 -0.10057923 0.063657738 1.0203499e-39
0.051566821 -0.10057923 0.063657738 5.5795081e-40
0.053068589 -0.099835888 0.06669686 7.4126727e-40
0.054839458 -0.099835888 0.06669686 2.0312858e-39
0.056610312 -0.099835888 0.06669686 2.6769971e-39
0.058381181 -0.099835888 0.06669686 5.2584524e-39
0.06074531 -0.10132705 0.060600258 1.7797757e-38
0.063117653 -0.10278571 0.054636575 2.2131636e-38
0.064909667 -0.10278571 0.054636575 2.1855053e-38
0.067010239 -0.10352151 0.051628329 2.1302605e-38
0.069429755 -0.10498036 0.045663811 1.8352009e-38
0.071237504 -0.10498036 0.045663811 1.6969794e-38
0.073799372 -0.10669093 0.03867016 1.9275403e-38
0.075619385 -0.10669093 0.03867016 2.0934904e-38
0.077772915 -0.10742365 0.03567443 2.1764652e-38
0.079938933 -0.10816063 0.032661296 2.2499336e-38
0.081769481 -0.10816063 0.032661296 2.0193026e-38
0.083953366 -0.10890187 0.029630758 1.438436e-38
0.086616933 -0.11061247 0.022637106 4.9804179e-39
0.088822767 -0.11134095 0.019658662 3.8737243e-39
0.090676099 -0.11134095 0.019658662 4.2435928e-39
0.092899695 -0.11207359 0.016663291 2.0308977e-39
0.09564282 -0.11379938 0.0096075311 1.2025677e-39
0.097513795 -0.11379938 0.0096075311 5.537186e-39
0.099763542 -0.1145183 0.0066681877 1.4203921e-38
0.10204062 -0.11526908 0.0035986677 1.4573412e-38
0.10445233 -0.11624874 -0.00040664524 1.4849993e-38
0.10727122 -0.11794533 -0.0073430762 1.448121e-38
0.10917191 -0.11794533 -0.0073430762 1.1162168e-38
0.1110726 -0.11794533 -0.0073430762 1.0423889e-38
0.11297327 -0.11794533 -0.0073430762 4.3440252e-42
0.11487396 -0.11794533 -0.0073430762 2.1216037e-39
0.11677465 -0.11794533 -0.0073430762 1.9357705e-39
0.11867532 -0.11794533 -0.0073430762 1.5669852e-39
-0.13350083 -0.13489382 -0.068427823 6.0867066e-39
-0.13149305 -0.13489382 -0.068427823 6.0870668e-39
-0.12916531 -0.13390581 -0.064417146 5.9941551e-39
-0.12692378 -0.13314565 -0.061331294 6.6380994e-39
-0.12492844 -0.13314565 -0.061331294 5.6225279e-39
-0.12263793 -0.13216983 -0.057370089 7.3510156e-40
-0.12064953 -0.13216983 -0.057370089 1.1946602e-39
-0.11866114 -0.13216983 -0.057370089 6.4292695e-40
-0.11639154 -0.1311696 -0.053309821 1.1950161e-39
-0.11414661 -0.13020746 -0.049404167 2.0280215e-38
-0.11217219 -0.13020746 -0.049404167 2.2955285e-38
-0.11000542 -0.12946714 -0.0463989 1.7978151e-38
-0.10803626 -0.12946714 -0.0463989 1.7333132e-38
-0.10606711 -0.12946714 -0.0463989 2.3049978e-38
-0.10386404 -0.12848614 -0.042416714 2.341805e-38
-0.10190186 -0.12848614 -0.042416714 2.3142544e-38
-0.099939674 -0.12848614 -0.042416714 2.2683358e-38
-0.097977504 -0.12848614 -0.042416714 2.240785e-38
-0.095804438 -0.1274818 -0.038339637 2.0934156e-38
-0.093849406 -0.1274818 -0.038339637 1.8905499e-38
-0.091752306 -0.12675591 -0.035393022 1.8997342e-38
-0.089802444 -0.12675591 -0.035393022 2.0288445e-38
-0.08753705 -0.12501745 -0.028335951 2.0011145e-38
-0.085599571 -0.12501745 -0.028335951 1.8351625e-38
-0.083662078 -0.12501745 -0.028335951 1.4386862e-38
-0.081724584 -0.12501745 -0.028335951 1.5676893e-38
-0.079637237 -0.12403814 -0.02436056 1.6321558e-38
-0.077706717 -0.12403814 -0.02436056 6.3637265e-39
-0.07564126 -0.12306587 -0.020413779 9.2348512e-40
-0.073717654 -0.12306587 -0.020413779 9.2278166e-40
-0.071699247 -0.12230472 -0.017323993 4.6110146e-40
-0.069781065 -0.12230472 -0.017323993 1.1630777e-43
-0.067753784 -0.12131582 -0.01330962 1.2962375e-39
-0.065842643 -0.12131582 -0.01330962 6.7375691e-39
-0.06402652 -0.12230472 -0.017323993 8.3963716e-39
-0.062108334 -0.12230472 -0.017323993 8.9488251e-39
-0.060190149 -0.12230472 -0.017323993 8.8548316e-39
-0.058271967 -0.12230472 -0.017323993 1.2018755e-39
-0.05628692 -0.12131582 -0.01330962 8.9683102e-44
-0.054375771 -0.12131582 -0.01330962 5.5579e-40
-0.052426059 -0.12059332 -0.010376714 1.2922816e-39
-0.050520059 -0.12059332 -0.010376714 1.0164164e-39
-0.0485848 -0.119846 -0.0073430762 8.3274684e-40
-0.046653017 -0.11887501 -0.0034015402 2.7993599e-40
-0.044759247 -0.11887501 -0.0034015402 1.9127724e-42
-0.042852346 -0.11813726 -0.00040664524 4.7952433e-42
-0.040963825 -0.11813726 -0.00040664524 7.4380222e-40
-0.039071791 -0.11715056 0.0035986677 2.3111251e-39
-0.037190296 -0.11715056 0.0035986677 3.8780865e-39
-0.035308793 -0.11715056 0.0035986677 5.261737e-39
-0.033427298 -0.11715056 0.0035986677 6.0922165e-39
-0.031564634 -0.11639442 0.0066681877 3.6958504e-39
-0.029688518 -0.11639442 0.0066681877 2.4980289e-39
-0.027840745 -0.11567034 0.0096075311 8.746905e-42
-0.026015863 -0.11467429 0.013650872 1.924193e-40
-0.024151988 -0.11467429 0.013650872 2.03489e-39
-0.022288116 -0.11467429 0.013650872 2.4944262e-39
-0.020474419 -0.11393218 0.016663291 2.5851785e-39
-0.018615827 -0.11393218 0.016663291 1.7543332e-39
-0.016817631 -0.1131943 0.019658662 2.6766426e-39
-0.01496429 -0.1131943 0.019658662 4.8900524e-39
-0.01318145 -0.11246057 0.022637106 4.4301462e-39
-0.011333331 -0.11246057 0.022637106 2.0341375e-39
-0.0094852131 -0.11246057 0.022637106 1.2040223e-39
-0.0077543948 -0.11146177 0.026691653 3.1379865e-39
-0.0059133843 -0.11146177 0.026691653 2.5833918e-39
-0.0040723756 -0.11146177 0.026691653 1.929588e-42
-0.0023318566 -0.11073773 0.029630758 4.9746095e-43
-0.00049600005 -0.11073773 0.029630758 1.9379958e-42
0.0012256168 -0.10999118 0.032661296 6.1811934e-39
0.0030561574 -0.10999118 0.032661296 6.0911305e-39
0.004762549 -0.10924892 0.03567443 6.0003558e-39
0.0065878071 -0.10924892 0.03567443 5.7237549e-39
0.008413069 -0.10924892 0.03567443 3.1415542e-39
0.010099135 -0.10851096 0.03867016 2.4951128e-39
0.011919141 -0.10851096 0.03867016 5.7208851e-39
0.01373915 -0.10851096 0.03867016 8.3931262e-39
0.015559155 -0.10851096 0.03867016 8.2998488e-39
0.01716888 -0.10754226 0.042602398 2.4915157e-39
0.018981993 -0.10754226 0.042602398 7.4232105e-40
0.020620655 -0.10678811 0.045663811 9.4545607e-42
0.022428397 -0.10678811 0.045663811 5.8560263e-42
0.024058387 -0.10606419 0.048602439 8.7314907e-42
0.02586098 -0.10606419 0.048602439 1.3007224e-38
0.027663566 -0.10606419 0.048602439 1.8628614e-38
0.029267207 -0.1053188 0.051628329 2.2590813e-38
0.031064495 -0.1053188 0.051628329 2.2866678e-38
0.032861784 -0.1053188 0.051628329 2.2497901e-38
0.034659073 -0.1053188 0.051628329 2.249826e-38
0.036237463 -0.10457774 0.054636575 2.1301881e-38
0.038029477 -0.10457774 0.054636575 2.2132353e-38
0.039821491 -0.10457774 0.054636575 2.1489505e-38
0.041380167 -0.10384102 0.057627179 2.0846656e-38
0.043166935 -0.10384102 0.057627179 1.799581e-38
0.0449537 -0.10384102 0.057627179 1.6430659e-38
0.046492871 -0.1031086 0.060600258 1.4031789e-38
0.048274424 -0.1031086 0.060600258 1.1905195e-38
0.049790617 -0.10235542 0.063657738 7.4666227e-40
0.051566821 -0.10235542 0.063657738 3.709237e-42
0.053343009 -0.10235542 0.063657738 1.8990957e-40
0.055119198 -0.10235542 0.063657738 2.3082427e-39
0.056610312 -0.10160676 0.06669686 2.8610367e-39
0.058381181 -0.10160676 0.06669686 5.4421276e-39
0.060447793 -0.10235542 0.063657738 2.1391929e-38
0.063117653 -0.10457774 0.054636575 2.2958873e-38
0.064909667 -0.10457774 0.054636575 2.1852894e-38
0.067010239 -0.1053188 0.051628329 2.2130201e-38
0.069429755 -0.10678811 0.045663811 2.2775202e-38
0.071237504 -0.10678811 0.045663811 2.2775202e-38
0.073799372 -0.10851096 0.03867016 2.2499695e-38
0.075619385 -0.10851096 0.03867016 2.213235e-38
0.077772915 -0.10924892 0.03567443 2.2591531e-38
0.079598188 -0.10924892 0.03567443 2.2867037e-38
0.081769481 -0.10999118 0.032661296 2.0008629e-38
0.083953366 -0.11073773 0.029630758 1.4476908e-38
0.086616933 -0.11246057 0.022637106 5.2573622e-39
0.088822767 -0.1131943 0.019658662 4.3347024e-39
0.090676099 -0.1131943 0.019658662 3.7826146e-39
0.09327206 -0.11467429 0.013650872 2.1230933e-39
0.09564282 -0.11567034 0.0096075311 2.124524e-39
0.097513795 -0.11567034 0.0096075311 5.0762079e-39
0.099763542 -0.11639442 0.0066681877 1.2360012e-38
0.10204062 -0.11715056 0.0035986677 1.3282673e-38
0.10484877 -0.11887501 -0.0034015402 1.4665602e-38
0.10727122 -0.119846 -0.0073430762 1.4388655e-38
0.10917191 -0.119846 -0.0073430762 9.4097346e-39
0.1110726 -0.119846 -0.0073430762 8.6710948e-39
0.11297327 -0.119846 -0.0073430762 1.2936465e-39
0.11530215 -0.12059332 -0.010376714 2.0294081e-39
0.11720814 -0.12059332 -0.010376714 2.6733356e-39
0.11911415 -0.12059332 -0.010376714 2.6733328e-39
-0.13350083 -0.1369016 -0.068427823 6.7320732e-39
-0.13149305 -0.1369016 -0.068427823 7.0086601e-39
-0.12948526 -0.1369016 -0.068427823 7.0075867e-39
-0.12716456 -0.13590656 -0.064417146 7.3756616e-39
-0.12516381 -0.13590656 -0.064417146 5.9913104e-39
-0.1229331 -0.13514097 -0.061331294 9.1877535e-40
-0.12064953 -0.13415821 -0.057370089 1.2857796e-39
-0.11866114 -0.13415821 -0.057370089 7.3476244e-40
-0.11639154 -0.13315089 -0.053309821 1.2861356e-39
-0.11414661 -0.1321819 -0.049404167 1.9541572e-38
-0.11217219 -0.1321819 -0.049404167 2.0741165e-38
-0.11000542 -0.1314363 -0.0463989 1.9452565e-38
-0.10803626 -0.1314363 -0.0463989 2.1389023e-38
-0.10606711 -0.1314363 -0.0463989 2.3233296e-38
-0.10386404 -0.13044833 -0.042416714 2.3417333e-38
-0.10190186 -0.13044833 -0.042416714 2.2497178e-38
-0.099939674 -0.13044833 -0.042416714 2.2958866e-38
-0.097977504 -0.13044833 -0.042416714 2.2775188e-38
-0.095804438 -0.12943684 -0.038339637 2.2867027e-38
-0.093849406 -0.12943684 -0.038339637 2.2775195e-38
-0.091894388 -0.12943684 -0.038339637 2.2499685e-38
-0.089802444 -0.12870578 -0.035393022 2.1762841e-38
-0.087672561 -0.12770687 -0.031366728 2.1946876e-38
-0.085599571 -0.12695493 -0.028335951 2.2499695e-38
-0.083662078 -0.12695493 -0.028335951 2.2316024e-38
-0.081724584 -0.12695493 -0.028335951 2.240786e-38
-0.07978709 -0.12695493 -0.028335951 1.5676896e-38
-0.077706717 -0.12596865 -0.02436056 1.5699055e-39
-0.07564126 -0.12498946 -0.020413779 8.0154272e-43
-0.073717654 -0.12498946 -0.020413779 8.3058463e-40
-0.071699247 -0.12422292 -0.017323993 9.2207681e-40
-0.069781065 -0.12422292 -0.017323993 1.1082659e-39
-0.067753784 -0.12322696 -0.01330962 2.2574918e-42
-0.065842643 -0.12322696 -0.01330962 6.1840324e-39
-0.06402652 -0.12422292 -0.017323993 8.6722354e-39
-0.062108334 -0.12422292 -0.017323993 8.1183456e-39
-0.060190149 -0.12422292 -0.017323993 7.0102002e-39
-0.058271967 -0.12422292 -0.017323993 4.6359437e-40
-0.05628692 -0.12322696 -0.01330962 9.3886997e-44
-0.054332063 -0.1224993 -0.010376714 7.3910787e-40
-0.052426059 -0.1224993 -0.010376714 1.2000874e-39
-0.050485484 -0.12174667 -0.0073430762 3.6997362e-40
-0.048546791 -0.1207688 -0.0034015402 3.7069809e-40
-0.046653017 -0.1207688 -0.0034015402 4.6397553e-40
-0.044759247 -0.1207688 -0.0034015402 1.1770907e-43
-0.042852346 -0.12002577 -0.00040664524 2.6442502e-42
-0.040963825 -0.12002577 -0.00040664524 1.6654068e-39
-0.039071791 -0.11903207 0.0035986677 6.551771e-39
-0.037190296 -0.11903207 0.0035986677 7.1960502e-39
-0.035308793 -0.11903207 0.0035986677 5.6290748e-39
-0.033427298 -0.11903207 0.0035986677 3.4174587e-39
-0.031564634 -0.11827053 0.0066681877 1.1136469e-39
-0.029688518 -0.11827053 0.0066681877 2.4965842e-39
-0.027840745 -0.1175413 0.0096075311 6.7386621e-39
-0.025969783 -0.1175413 0.0096075311 8.3045459e-39
-0.024151988 -0.11653815 0.013650872 8.1194344e-39
-0.022288116 -0.11653815 0.013650872 9.8689864e-39
-0.020474419 -0.11579077 0.016663291 9.3154468e-39
-0.018615827 -0.11579077 0.016663291 9.3140035e-39
-0.016817631 -0.11504765 0.019658662 1.0881682e-38
-0.01496429 -0.11504765 0.019658662 1.2818863e-38
-0.013110951 -0.11504765 0.019658662 1.2451153e-38
-0.011333331 -0.1143087 0.022637106 1.0332449e-38
-0.0094852131 -0.1143087 0.022637106 9.2257469e-39
-0.0076370966 -0.1143087 0.022637106 8.209451e-39
-0.0059133843 -0.11330278 0.026691653 8.3927843e-39
-0.0040723756 -0.11330278 0.026691653 4.5198644e-39
-0.0023318566 -0.11257361 0.029630758 6.4873813e-40
-0.00049600005 -0.11257361 0.029630758 1.2751816e-43
0.0012256168 -0.11182173 0.032661296 2.3104119e-39
0.0030561574 -0.11182173 0.032661296 2.957198e-39
0.004762549 -0.11107419 0.03567443 4.709617e-39
0.0065878071 -0.11107419 0.03567443 1.1992705e-38
0.008413069 -0.11107419 0.03567443 1.3375995e-38
0.010099135 -0.11033095 0.03867016 1.3005782e-38
0.011919141 -0.11033095 0.03867016 4.650265e-40
0.01373915 -0.11033095 0.03867016 2.2560905e-42
0.015559155 -0.11033095 0.03867016 1.3841115e-39
0.017379161 -0.11033095 0.03867016 2.305342e-39
0.018981993 -0.10935538 0.042602398 6.4905763e-40
0.020620655 -0.10859586 0.045663811 6.5554424e-40
0.022428397 -0.10859586 0.045663811 5.4874848e-42
0.024058387 -0.10786678 0.048602439 1.9526814e-40
0.02586098 -0.10786678 0.048602439 1.6973057e-38
0.027663566 -0.10786678 0.048602439 2.0935263e-38
0.029267207 -0.10711606 0.051628329 2.1671382e-38
0.031064495 -0.10711606 0.051628329 1.9365777e-38
0.032861784 -0.10711606 0.051628329 1.7889922e-38
0.034659073 -0.10711606 0.051628329 1.8812599e-38
0.036237463 -0.10636975 0.054636575 1.9552324e-38
0.03780663 -0.10562779 0.057627179 1.7987887e-38
0.039593399 -0.10562779 0.057627179 1.5133068e-38
0.041380167 -0.10562779 0.057627179 1.4859729e-38
0.043166935 -0.10562779 0.057627179 1.4310159e-38
0.0449537 -0.10562779 0.057627179 1.4404879e-38
0.046740469 -0.10562779 0.057627179 1.4311618e-38
0.048274424 -0.10489015 0.060600258 1.5412219e-38
0.049790617 -0.10413162 0.063657738 4.8990655e-39
0.051566821 -0.10413162 0.063657738 2.864212e-40
0.053343009 -0.10413162 0.063657738 2.9973774e-42
0.055119198 -0.10413162 0.063657738 3.7357496e-40
0.056895401 -0.10413162 0.063657738 2.6762895e-39
0.05867159 -0.10413162 0.063657738 6.1786108e-39
0.060447793 -0.10413162 0.063657738 2.2773049e-38
0.063117653 -0.10636975 0.054636575 2.2864526e-38
0.06521295 -0.10711606 0.051628329 2.1297553e-38
0.067010239 -0.10711606 0.051628329 2.2496097e-38
