# .PCD v0.7 - Point Cloud Data file format
VERSION 0.7
FIELDS x y z rgb
SIZE 4 4 4 4
TYPE F F F F
COUNT 1 1 1 1
WIDTH 950
HEIGHT 1
VIEWPOINT 0 0 0 1 0 0 0
POINTS 950
DATA ascii
-0.020671085 -0.10038316 0.051607616 2.0186575e-38
-0.018945767 -0.10038316 0.051607616 1.6408347e-38
-0.017118527 -0.1011332 0.048626609 1.4842457e-38
-0.015387984 -0.1011332 0.048626609 2.2128407e-38
-0.013657438 -0.1011332 0.048626609 2.2774843e-38
-0.011926895 -0.1011332 0.048626609 2.2038365e-38
-0.010319175 -0.10038316 0.051607616 2.2315665e-38
-0.0085938592 -0.10038316 0.051607616 1.5216305e-38
-0.0068685394 -0.10038316 0.051607616 1.150466e-42
-0.0051432196 -0.10038316 0.051607616 4.3860642e-43
-0.0034179036 -0.10038316 0.051607616 1.5710139e-39
-0.0016925838 -0.10038316 0.051607616 9.5288296e-44
0.00018692203 -0.1011332 0.048626609 1.8773756e-40
0.0019174647 -0.1011332 0.048626609 2.2729061e-42
0.003648011 -0.1011332 0.048626609 2.2701035e-42
0.0054942127 -0.10164386 0.046596952 1.6599754e-39
0.0072283167 -0.10164386 0.046596952 1.4474082e-38
0.0089624207 -0.10164386 0.046596952 1.1247235e-38
0.01088397 -0.10240157 0.043585427 7.4686518e-39
0.012623353 -0.10240157 0.043585427 7.4693748e-39
0.014362736 -0.10240157 0.043585427 1.3831238e-38
0.016102126 -0.10240157 0.043585427 1.43855e-38
0.017841509 -0.10240157 0.043585427 9.253054e-40
0.019796042 -0.10316391 0.040555544 1.915575e-42
0.021540737 -0.10316391 0.040555544 4.0819824e-42
0.023285432 -0.10316391 0.040555544 4.8050524e-42
0.025030127 -0.10316391 0.040555544 1.2051167e-43
0.027244246 -0.10467763 0.034539171 5.1637848e-42
0.028999491 -0.10467763 0.034539171 4.1546846e-39
0.030754736 -0.10467763 0.034539171 7.566276e-39
0.032758638 -0.10542886 0.031553455 1.0423624e-38
0.034519121 -0.10542886 0.031553455 8.2094972e-39
0.036020473 -0.10467763 0.034539171 4.647014e-40
0.03777571 -0.10467763 0.034539171 3.7148422e-42
0.039530963 -0.10467763 0.034539171 3.3420968e-42
0.0412862 -0.10467763 0.034539171 8.3704882e-40
0.043041453 -0.10467763 0.034539171 1.9551991e-38
0.04479669 -0.10467763 0.034539171 2.1579547e-38
0.046551943 -0.10467763 0.034539171 2.0564334e-38
0.04830718 -0.10467763 0.034539171 1.9825674e-38
0.050363436 -0.10542886 0.031553455 1.7520774e-38
0.052123919 -0.10542886 0.031553455 1.7614409e-38
0.053884402 -0.10542886 0.031553455 1.724815e-38
0.055963472 -0.10618456 0.028549977 1.6607471e-38
0.057729214 -0.10618456 0.028549977 1.6703996e-38
0.059494972 -0.10618456 0.028549977 1.3849544e-38
0.061260715 -0.10618456 0.028549977 1.3296021e-38
0.063026458 -0.10618456 0.028549977 1.5412931e-38
0.064792201 -0.10618456 0.028549977 7.204294e-39
0.066557944 -0.10618456 0.028549977 2.3154187e-39
0.068323702 -0.10618456 0.028549977 2.6176255e-42
0.070089445 -0.10618456 0.028549977 1.0509738e-43
0.071855187 -0.10618456 0.028549977 3.0421937e-39
0.07362093 -0.10618456 0.028549977 3.6850268e-39
0.075386673 -0.10618456 0.028549977 4.7902701e-39
0.077152416 -0.10618456 0.028549977 4.4218225e-39
0.078918174 -0.10618456 0.028549977 5.2515608e-39
0.080683917 -0.10618456 0.028549977 5.0689548e-39
0.08244966 -0.10618456 0.028549977 4.2399088e-39
-0.092886113 -0.14900355 -0.1334874 9.218498e-39
-0.090836257 -0.14900355 -0.1334874 6.4529934e-39
-0.088655166 -0.14797847 -0.12944144 1.2998893e-38
-0.086366691 -0.14594953 -0.12143319 1.3276923e-38
-0.08422333 -0.14494546 -0.1174702 1.1987273e-38
-0.082201555 -0.14494546 -0.1174702 7.7480833e-39
-0.079875074 -0.14190884 -0.10548454 3.2315876e-39
-0.077707522 -0.14012341 -0.098437481 4.5223419e-39
-0.075630136 -0.13909473 -0.094377212 6.64357e-39
-0.073509507 -0.13734378 -0.087466292 6.0921997e-39
-0.071467035 -0.13633488 -0.083484106 5.6326635e-39
-0.069320798 -0.13353528 -0.07243412 2.9607853e-39
-0.067332827 -0.13276742 -0.069403343 7.4794502e-39
-0.065250531 -0.12997745 -0.058391385 7.2043052e-39
-0.063286595 -0.12896039 -0.054377012 5.7291807e-39
-0.061317913 -0.12744872 -0.048410468 5.3582486e-39
-0.059362501 -0.12569134 -0.041474037 4.7118002e-39
-0.05747398 -0.12569134 -0.041474037 5.170612e-39
-0.055510633 -0.12136655 -0.024404101 2.6805971e-39
-0.053625666 -0.11882581 -0.014375739 3.4163432e-39
-0.051779427 -0.11731337 -0.0084060952 5.0755044e-39
-0.049951524 -0.11654995 -0.0053929612 6.2740616e-39
-0.048134144 -0.11579098 -0.0023972318 1.4848989e-38
-0.046357676 -0.11327456 0.0075350478 8.9517202e-39
-0.044610463 -0.1109881 0.016559787 8.3825674e-42
-0.042847153 -0.11023484 0.019532867 1.2331426e-41
-0.041095082 -0.10946019 0.022590347 1.3750181e-38
-0.03935352 -0.10869022 0.025629468 1.7713845e-38
-0.037660554 -0.10718934 0.031553455 1.9648849e-38
-0.035944574 -0.1064329 0.034539171 1.9371902e-38
-0.034289539 -0.1049086 0.040555544 1.4946881e-38
-0.032656066 -0.10337795 0.046596952 1.1811895e-38
-0.030962888 -0.10286374 0.048626609 1.0243057e-39
-0.029297676 -0.10210848 0.051607616 1.5749768e-39
-0.027572358 -0.10210848 0.051607616 2.95504e-39
-0.02584704 -0.10210848 0.051607616 8.16957e-43
-0.024121722 -0.10210848 0.051607616 1.010999e-39
-0.022396404 -0.10210848 0.051607616 1.0134385e-38
-0.020671085 -0.10210848 0.051607616 2.2304186e-38
-0.018945767 -0.10210848 0.051607616 2.1753875e-38
-0.017118527 -0.10286374 0.048626609 2.2402473e-38
-0.015387984 -0.10286374 0.048626609 2.3234379e-38
-0.013657438 -0.10286374 0.048626609 2.2129483e-38
-0.011926895 -0.10286374 0.048626609 2.2867037e-38
-0.010196349 -0.10286374 0.048626609 2.2958155e-38
-0.0085938592 -0.10210848 0.051607616 1.8900152e-38
-0.0068685394 -0.10210848 0.051607616 1.9361587e-39
-0.0051432196 -0.10210848 0.051607616 5.5322142e-40
-0.0034179036 -0.10210848 0.051607616 8.2069006e-39
-0.0016925838 -0.10210848 0.051607616 9.7763871e-39
0.00018692203 -0.10286374 0.048626609 2.9557168e-39
0.0019174647 -0.10286374 0.048626609 1.0217778e-39
0.0037601087 -0.10337795 0.046596952 4.4304952e-39
0.0054942127 -0.10337795 0.046596952 1.0786576e-38
0.0072283167 -0.10337795 0.046596952 1.8067143e-38
0.0089624207 -0.10337795 0.046596952 1.7146263e-38
0.01088397 -0.10414095 0.043585427 1.484353e-38
0.012623353 -0.10414095 0.043585427 1.4752782e-38
0.014362736 -0.10414095 0.043585427 1.7519381e-38
0.016102126 -0.10414095 0.043585427 1.9087433e-38
0.017841509 -0.10414095 0.043585427 4.797861e-39
0.019580891 -0.10414095 0.043585427 1.0649868e-43
0.021320274 -0.10414095 0.043585427 8.4498297e-43
0.023059657 -0.10414095 0.043585427 1.8812572e-40
0.02479904 -0.10414095 0.043585427 2.2939256e-42
0.027004978 -0.10565595 0.03760577 3.7260526e-42
0.028999491 -0.1064329 0.034539171 7.1031371e-39
0.030754736 -0.1064329 0.034539171 8.9466783e-39
0.032509983 -0.1064329 0.034539171 8.3020348e-39
0.03426522 -0.1064329 0.034539171 5.9046065e-39
0.036020473 -0.1064329 0.034539171 5.5295237e-42
0.037504181 -0.10565595 0.03760577 1.5568426e-42
0.039254054 -0.10565595 0.03760577 8.0210324e-42
0.041003928 -0.10565595 0.03760577 1.3945386e-39
0.043041453 -0.1064329 0.034539171 1.7529458e-38
0.04479669 -0.1064329 0.034539171 1.9188595e-38
0.046551943 -0.1064329 0.034539171 1.6237623e-38
0.04830718 -0.1064329 0.034539171 1.6695712e-38
0.050363436 -0.10718934 0.031553455 1.6325123e-38
0.052123919 -0.10718934 0.031553455 1.632476e-38
0.053884402 -0.10718934 0.031553455 1.8629651e-38
0.055963472 -0.10795029 0.028549977 1.8815847e-38
0.057729214 -0.10795029 0.028549977 1.9463378e-38
0.059494972 -0.10795029 0.028549977 1.679151e-38
0.061260715 -0.10795029 0.028549977 1.6239781e-38
0.063026458 -0.10795029 0.028549977 1.7068103e-38
0.064792201 -0.10795029 0.028549977 9.8757756e-39
0.066557944 -0.10795029 0.028549977 6.9223009e-39
0.068323702 -0.10795029 0.028549977 2.8099257e-40
0.070089445 -0.10795029 0.028549977 8.6880505e-44
0.071855187 -0.10795029 0.028549977 2.1198703e-39
0.07362093 -0.10795029 0.028549977 2.6712238e-39
0.075386673 -0.10795029 0.028549977 3.9619374e-39
0.077152416 -0.10795029 0.028549977 4.4228917e-39
0.078918174 -0.10795029 0.028549977 5.4377471e-39
0.080683917 -0.10795029 0.028549977 5.8998014e-39
0.08244966 -0.10795029 0.028549977 5.5317378e-39
0.084215403 -0.10795029 0.028549977 4.5190306e-39
-0.086366691 -0.14797823 -0.12143319 1.3092182e-38
-0.08422333 -0.14696725 -0.1174702 1.0880574e-38
-0.082201555 -0.14696725 -0.1174702 7.2863905e-39
-0.079977043 -0.14493273 -0.10949522 2.4922289e-39
-0.07780128 -0.14312236 -0.10239869 3.2301681e-39
-0.075630136 -0.14107598 -0.094377212 8.024708e-39
-0.073570102 -0.14007963 -0.090471558 8.3027368e-39
-0.071467035 -0.13829704 -0.083484106 5.9078057e-39
-0.069320798 -0.13547809 -0.07243412 4.5266649e-39
-0.06727358 -0.13369073 -0.065427952 1.089068e-38
-0.065250531 -0.13189565 -0.058391385 9.4173535e-39
-0.063253172 -0.13012333 -0.051444106 6.2834307e-39
-0.061317913 -0.12934943 -0.048410468 8.3095878e-39
-0.059362501 -0.12757985 -0.041474037 1.153464e-38
-0.05747398 -0.12757985 -0.041474037 1.1716144e-38
-0.055510633 -0.12322514 -0.024404101 6.0907564e-39
-0.053625666 -0.12066682 -0.014375739 5.2591754e-39
-0.051779427 -0.11914389 -0.0084060952 7.3789518e-39
-0.049951524 -0.11837523 -0.0053929612 7.747754e-39
-0.048134144 -0.11761098 -0.0023972318 1.3834838e-38
-0.046357676 -0.11507715 0.0075350478 1.0429008e-38
-0.044610463 -0.11277486 0.016559787 8.3797648e-42
-0.042847153 -0.11201639 0.019532867 1.5209694e-41
-0.041095082 -0.11123641 0.022590347 1.320061e-38
-0.03935352 -0.11046107 0.025629468 1.6977361e-38
-0.037660554 -0.10894983 0.031553455 1.6698598e-38
-0.035944574 -0.10818814 0.034539171 1.7987884e-38
-0.034289539 -0.10665329 0.040555544 1.5222018e-38
-0.032656066 -0.10511206 0.046596952 1.2364332e-38
-0.030962888 -0.10459428 0.048626609 5.625891e-40
-0.029297676 -0.10383381 0.051607616 8.3739775e-40
-0.027572358 -0.10383381 0.051607616 3.2319772e-39
-0.025922371 -0.1030779 0.054570682 7.3874213e-40
-0.024202248 -0.1030779 0.054570682 1.1042764e-39
-0.022482125 -0.1030779 0.054570682 9.5819304e-39
-0.020671085 -0.10383381 0.051607616 2.350594e-38
-0.018945767 -0.10383381 0.051607616 2.3046042e-38
-0.017220451 -0.10383381 0.051607616 2.3509883e-38
-0.015387984 -0.10459428 0.048626609 2.3142537e-38
-0.013657438 -0.10459428 0.048626609 2.2867033e-38
-0.011926895 -0.10459428 0.048626609 2.1852894e-38
-0.010196349 -0.10459428 0.048626609 2.3142185e-38
-0.0085938592 -0.10383381 0.051607616 2.2863091e-38
-0.0068685394 -0.10383381 0.051607616 2.17564e-38
-0.0051432196 -0.10383381 0.051607616 2.3508092e-38
-0.0034179036 -0.10383381 0.051607616 2.3508809e-38
-0.0016925838 -0.10383381 0.051607616 2.3049991e-38
0.00018692203 -0.10459428 0.048626609 2.2775202e-38
0.0019174647 -0.10459428 0.048626609 2.2224189e-38
0.0037601087 -0.10511206 0.046596952 2.2499695e-38
0.0054942127 -0.10511206 0.046596952 2.3508809e-38
0.0072283167 -0.10511206 0.046596952 2.3508451e-38
0.0089624207 -0.10511206 0.046596952 2.3047117e-38
0.01088397 -0.10588033 0.043585427 2.2864167e-38
0.012430629 -0.10511206 0.046596952 2.3142544e-38
0.014164729 -0.10511206 0.046596952 2.2221319e-38
0.015898837 -0.10511206 0.046596952 1.733643e-38
0.017632937 -0.10511206 0.046596952 7.2874919e-39
0.019580891 -0.10588033 0.043585427 1.9394573e-39
0.021320274 -0.10588033 0.043585427 4.8765187e-43
0.023059657 -0.10588033 0.043585427 1.3592595e-43
0.02479904 -0.10588033 0.043585427 1.3732725e-43
0.026774829 -0.10665329 0.040555544 5.565453e-40
0.028754843 -0.10740583 0.03760577 8.6693894e-39
0.030504717 -0.10740583 0.03760577 8.1162016e-39
0.032254577 -0.10740583 0.03760577 2.0309341e-39
0.03400445 -0.10740583 0.03760577 1.568053e-42
0.035754323 -0.10740583 0.03760577 1.2093206e-42
0.037504181 -0.10740583 0.03760577 4.7994472e-42
0.039254054 -0.10740583 0.03760577 1.0201873e-40
0.041003928 -0.10740583 0.03760577 3.9770952e-39
0.043041453 -0.10818814 0.034539171 1.4949798e-38
0.04479669 -0.10818814 0.034539171 1.7069201e-38
0.046551943 -0.10818814 0.034539171 1.4394075e-38
0.04830718 -0.10818814 0.034539171 1.7342166e-38
0.050363436 -0.10894983 0.031553455 1.8999162e-38
0.052123919 -0.10894983 0.031553455 2.0103707e-38
0.053884402 -0.10894983 0.031553455 2.0932746e-38
0.055963472 -0.10971604 0.028549977 1.9827121e-38
0.057729214 -0.10971604 0.028549977 2.0288819e-38
0.059494972 -0.10971604 0.028549977 1.9092437e-38
0.061260715 -0.10971604 0.028549977 1.9369742e-38
0.063026458 -0.10971604 0.028549977 1.7711297e-38
0.064792201 -0.10971604 0.028549977 1.0427138e-38
0.066557944 -0.10971604 0.028549977 8.2115936e-39
0.068323702 -0.10971604 0.028549977 1.5190075e-42
0.069728717 -0.10894983 0.031553455 1.8484528e-40
0.0714892 -0.10894983 0.031553455 1.6588894e-39
0.07362093 -0.10971604 0.028549977 3.0403594e-39
0.075010151 -0.10894983 0.031553455 3.8708138e-39
0.076770633 -0.10894983 0.031553455 4.1466594e-39
0.078918174 -0.10971604 0.028549977 5.1622392e-39
0.080683917 -0.10971604 0.028549977 5.9919999e-39
0.08244966 -0.10971604 0.028549977 5.6242964e-39
-0.08422333 -0.14898901 -0.1174702 1.2263508e-38
-0.082201555 -0.14898901 -0.1174702 8.3912961e-39
-0.079977043 -0.14694051 -0.10949522 6.3630021e-39
-0.07780128 -0.14511769 -0.10239869 4.9804418e-39
-0.075719118 -0.1441002 -0.098437481 7.8388734e-39
-0.073570102 -0.14205404 -0.090471558 7.6559241e-39
-0.071467035 -0.14025922 -0.083484106 5.7223298e-39
-0.069320798 -0.13742088 -0.07243412 5.6319264e-39
-0.06727358 -0.13562126 -0.065427952 1.0428256e-38
-0.065250531 -0.13381381 -0.058391385 8.8630923e-39
-0.063253172 -0.13202934 -0.051444106 5.4522225e-39
-0.061317913 -0.1312501 -0.048410468 8.8616742e-39
-0.05938613 -0.13023765 -0.044468932 1.3746246e-38
-0.0574494 -0.12843956 -0.037468724 1.3652241e-38
-0.055510633 -0.12508373 -0.024404101 8.0257744e-39
-0.053636331 -0.1235493 -0.018430285 7.2863877e-39
-0.051782083 -0.12175287 -0.011436634 8.8529917e-39
-0.049951524 -0.12020047 -0.0053929612 1.0882034e-38
-0.048134144 -0.11943097 -0.0023972318 1.143774e-38
-0.046370938 -0.1161025 0.010560937 7.6631282e-39
-0.044610463 -0.11456163 0.016559787 1.269156e-41
-0.042847153 -0.11379795 0.019532867 8.7230829e-42
-0.041095082 -0.1130126 0.022590347 1.4214036e-38
-0.03935352 -0.11223195 0.025629468 1.5594424e-38
-0.037660554 -0.11071031 0.031553455 1.7528715e-38
-0.035944574 -0.10994337 0.034539171 1.7895686e-38
-0.034289539 -0.10839801 0.040555544 1.6697145e-38
-0.032656066 -0.10684617 0.046596952 1.3931655e-38
-0.030962888 -0.10632484 0.048626609 5.625891e-40
-0.029297676 -0.10555913 0.051607616 7.2769429e-42
-0.027572358 -0.10555913 0.051607616 2.9553903e-39
-0.025922371 -0.104798 0.054570682 6.465465e-40
-0.024202248 -0.104798 0.054570682 2.7559337e-40
-0.022482125 -0.104798 0.054570682 9.5851646e-39
-0.020762002 -0.104798 0.054570682 2.2309567e-38
-0.019041879 -0.104798 0.054570682 2.341805e-38
-0.017220451 -0.10555913 0.051607616 2.2958867e-38
-0.015495131 -0.10555913 0.051607616 1.6784628e-38
-0.013769811 -0.10555913 0.051607616 2.0841959e-38
-0.012044495 -0.10555913 0.051607616 2.2775202e-38
-0.010319175 -0.10555913 0.051607616 2.2221678e-38
-0.0085938592 -0.10555913 0.051607616 2.3508809e-38
-0.0068685394 -0.10555913 0.051607616 2.3507374e-38
-0.0051432196 -0.10555913 0.051607616 2.3508092e-38
-0.0034179036 -0.10555913 0.051607616 2.3505581e-38
-0.0016925838 -0.10555913 0.051607616 2.3508451e-38
0.00018692203 -0.10632484 0.048626609 2.3416256e-38
0.0019174647 -0.10632484 0.048626609 2.2310284e-38
0.0037601087 -0.10684617 0.046596952 2.2495749e-38
0.0054942127 -0.10684617 0.046596952 2.304748e-38
0.0072283167 -0.10684617 0.046596952 2.3507733e-38
0.0089624207 -0.10684617 0.046596952 2.3417333e-38
0.01088397 -0.10761972 0.043585427 2.3325497e-38
0.012430629 -0.10684617 0.046596952 2.3142544e-38
0.014164729 -0.10684617 0.046596952 2.2774484e-38
0.015898837 -0.10684617 0.046596952 1.5860584e-38
0.017632937 -0.10684617 0.046596952 1.079021e-38
0.019367045 -0.10684617 0.046596952 1.0051957e-38
0.021101145 -0.10684617 0.046596952 2.8603571e-39
0.022835245 -0.10684617 0.046596952 1.2261362e-42
0.024569353 -0.10684617 0.046596952 1.2289388e-42
0.026538422 -0.10761972 0.043585427 9.249789e-40
0.028519524 -0.10839801 0.040555544 8.3920976e-39
0.030264219 -0.10839801 0.040555544 7.9318243e-39
0.032254577 -0.10915567 0.03760577 5.5473623e-40
0.03400445 -0.10915567 0.03760577 1.2191297e-43
0.035754323 -0.10915567 0.03760577 6.45141e-40
0.037504181 -0.10915567 0.03760577 9.4476944e-41
0.039254054 -0.10915567 0.03760577 6.5051358e-40
0.041003928 -0.10915567 0.03760577 8.7665891e-39
0.043041453 -0.10994337 0.034539171 1.5867435e-38
0.04479669 -0.10994337 0.034539171 1.8540724e-38
0.046551943 -0.10994337 0.034539171 1.660389e-38
0.04830718 -0.10994337 0.034539171 1.9367233e-38
0.050363436 -0.11071031 0.031553455 2.1209335e-38
0.052123919 -0.11071031 0.031553455 2.1668512e-38
0.053884402 -0.11071031 0.031553455 2.1575958e-38
0.05564487 -0.11071031 0.031553455 2.0101547e-38
0.057729214 -0.11148177 0.028549977 2.0102986e-38
0.059494972 -0.11148177 0.028549977 1.9090276e-38
0.061260715 -0.11148177 0.028549977 1.8445988e-38
0.063026458 -0.11148177 0.028549977 1.7434356e-38
0.064792201 -0.11148177 0.028549977 1.070337e-38
0.066557944 -0.11148177 0.028549977 9.5945294e-39
0.067968234 -0.11071031 0.031553455 8.2676609e-44
0.069728717 -0.11071031 0.031553455 7.3801906e-40
0.0714892 -0.11071031 0.031553455 9.2132431e-40
0.073249668 -0.11071031 0.031553455 3.7779245e-39
0.075010151 -0.11071031 0.031553455 5.2533923e-39
0.076770633 -0.11071031 0.031553455 5.2530069e-39
0.078531116 -0.11071031 0.031553455 5.2544348e-39
0.080683917 -0.11148177 0.028549977 5.254432e-39
0.08244966 -0.11148177 0.028549977 4.9789269e-39
-0.080076404 -0.14995907 -0.11340349 1.2724138e-38
-0.07780128 -0.14711304 -0.10239869 9.7731726e-39
-0.07580594 -0.14711304 -0.10239869 9.7735397e-39
-0.073648855 -0.14503856 -0.094377212 8.4842428e-39
-0.07133773 -0.14040495 -0.076460414 7.5647977e-39
-0.06927032 -0.13857989 -0.069403343 8.6729361e-39
-0.06727358 -0.1375518 -0.065427952 1.1256572e-38
-0.065250531 -0.13573201 -0.058391385 1.0429332e-38
-0.063253172 -0.13393532 -0.051444106 7.3872433e-39
-0.061317913 -0.13315077 -0.048410468 8.5847187e-39
-0.059362501 -0.13135691 -0.041474037 1.0058051e-38
-0.0574494 -0.13032107 -0.037468724 1.1346263e-38
-0.055510633 -0.12694232 -0.024404101 1.2727742e-38
-0.053636331 -0.1253974 -0.018430285 1.7611927e-38
-0.051782083 -0.12358873 -0.011436634 1.9455119e-38
-0.049951524 -0.12202574 -0.0053929612 1.6412679e-38
-0.048134144 -0.121251 -0.0023972318 8.4871085e-39
-0.046370938 -0.11789979 0.010560937 7.3854511e-39
-0.044610463 -0.1163484 0.016559787 8.0000129e-42
-0.042847153 -0.1155795 0.019532867 5.6873099e-40
-0.041095082 -0.11478879 0.022590347 1.2277919e-38
-0.03935352 -0.11400281 0.025629468 1.6608212e-38
-0.037660554 -0.11247079 0.031553455 1.9557013e-38
-0.035944574 -0.11169861 0.034539171 1.9002033e-38
-0.034289539 -0.11014269 0.040555544 1.8356667e-38
-0.032656066 -0.10858028 0.046596952 1.5775567e-38
-0.030962888 -0.10805537 0.048626609 1.5767382e-39
-0.029297676 -0.10728444 0.051607616 9.9472573e-41
-0.027642494 -0.10651813 0.054570682 2.76992e-39
-0.025922371 -0.10651813 0.054570682 4.6107624e-40
-0.024202248 -0.10651813 0.054570682 8.1275311e-44
-0.022482125 -0.10651813 0.054570682 8.3855452e-39
-0.020762002 -0.10651813 0.054570682 2.3507733e-38
-0.019041879 -0.10651813 0.054570682 2.3417691e-38
-0.017220451 -0.10728444 0.051607616 2.1576289e-38
-0.015495131 -0.10728444 0.051607616 1.9181712e-38
-0.013769811 -0.10728444 0.051607616 2.2591521e-38
-0.012044495 -0.10728444 0.051607616 2.2775202e-38
-0.010319175 -0.10728444 0.051607616 2.2867037e-38
-0.0087211411 -0.10651813 0.054570682 2.3417691e-38
-0.0070010182 -0.10651813 0.054570682 2.3324062e-38
-0.0052808952 -0.10651813 0.054570682 2.3508451e-38
-0.0034179036 -0.10728444 0.051607616 2.3506656e-38
-0.0016925838 -0.10728444 0.051607616 2.3508451e-38
0.00018692203 -0.10805537 0.048626609 2.3508809e-38
0.0019174647 -0.10805537 0.048626609 2.3508451e-38
0.0037601087 -0.10858028 0.046596952 2.3508809e-38
0.0054942127 -0.10858028 0.046596952 2.3417691e-38
0.0072283167 -0.10858028 0.046596952 2.341805e-38
0.0089624207 -0.10858028 0.046596952 2.3234379e-38
0.01088397 -0.1093591 0.043585427 2.268193e-38
0.012430629 -0.10858028 0.046596952 2.2221678e-38
0.014164729 -0.10858028 0.046596952 2.2867037e-38
0.015898837 -0.10858028 0.046596952 2.166923e-38
0.017632937 -0.10858028 0.046596952 2.0009016e-38
0.019367045 -0.10858028 0.046596952 1.4200749e-38
0.021101145 -0.10858028 0.046596952 6.2715869e-39
0.022835245 -0.10858028 0.046596952 2.2149932e-39
0.024569353 -0.10858028 0.046596952 1.5699924e-39
0.026538422 -0.1093591 0.043585427 8.3278047e-40
0.028519524 -0.11014269 0.040555544 2.584852e-39
0.030264219 -0.11014269 0.040555544 2.1242227e-39
0.032008916 -0.11014269 0.040555544 1.0930128e-43
0.033753604 -0.11014269 0.040555544 1.1046786e-39
0.035754323 -0.11090554 0.03760577 4.59305e-40
0.037504181 -0.11090554 0.03760577 1.0509738e-43
0.039254054 -0.11090554 0.03760577 1.1826959e-42
0.041003928 -0.11090554 0.03760577 8.7644297e-39
0.043041453 -0.11169861 0.034539171 1.6695035e-38
0.04479669 -0.11169861 0.034539171 1.936832e-38
0.046551943 -0.11169861 0.034539171 1.8815149e-38
0.048602954 -0.11247079 0.031553455 1.8812261e-38
0.050363436 -0.11247079 0.031553455 1.9271794e-38
0.052123919 -0.11247079 0.031553455 1.8902647e-38
0.053884402 -0.11247079 0.031553455 2.0377778e-38
0.05564487 -0.11247079 0.031553455 2.1484841e-38
0.057729214 -0.11324753 0.028549977 2.1394441e-38
0.059494972 -0.11324753 0.028549977 2.0012954e-38
0.061260715 -0.11324753 0.028549977 1.7893895e-38
0.063026458 -0.11324753 0.028549977 1.6696794e-38
0.064792201 -0.11324753 0.028549977 1.0518984e-38
0.066557944 -0.11324753 0.028549977 9.5019835e-39
0.067968234 -0.11247079 0.031553455 8.6880505e-44
0.069728717 -0.11247079 0.031553455 4.6107904e-40
0.0714892 -0.11247079 0.031553455 8.2913149e-40
0.073249668 -0.11247079 0.031553455 4.2389054e-39
0.075010151 -0.11247079 0.031553455 7.0973049e-39
0.076770633 -0.11247079 0.031553455 6.9136073e-39
0.078531116 -0.11247079 0.031553455 5.715413e-39
0.080291584 -0.11247079 0.031553455 4.4253902e-39
0.082052067 -0.11247079 0.031553455 4.3339135e-39
0.08381255 -0.11247079 0.031553455 5.2565956e-39
-0.07780128 -0.14910837 -0.10239869 9.8639263e-39
-0.075719118 -0.148077 -0.098437481 9.957568e-39
-0.073570102 -0.1460029 -0.090471558 8.4827981e-39
-0.07133773 -0.14235483 -0.076460414 7.8403013e-39
-0.06927032 -0.14051737 -0.069403343 1.0331373e-38
-0.06727358 -0.1394823 -0.065427952 1.2454388e-38
-0.065250531 -0.13765021 -0.058391385 8.2155495e-39
-0.063286595 -0.13660498 -0.054377012 7.9393297e-39
-0.061317913 -0.13505147 -0.048410468 9.5974245e-39
-0.059362501 -0.13324542 -0.041474037 9.1350072e-39
-0.0574494 -0.13220255 -0.037468724 1.0791999e-38
-0.055510633 -0.12880091 -0.024404101 1.4938988e-38
-0.053636331 -0.12724553 -0.018430285 2.0377429e-38
-0.051782083 -0.12542458 -0.011436634 2.0377063e-38
-0.049951524 -0.12385099 -0.0053929612 2.0377076e-38
-0.048134144 -0.123071 -0.0023972318 1.3096154e-38
-0.046370938 -0.11969708 0.010560937 8.0308065e-39
-0.044610463 -0.11813517 0.016559787 1.3041268e-39
-0.042847153 -0.11736105 0.019532867 1.3025069e-41
-0.041095082 -0.11656497 0.022590347 1.4121465e-38
-0.039386805 -0.11501329 0.028549977 1.6700759e-38
-0.037660554 -0.11423124 0.031553455 1.9925073e-38
-0.035944574 -0.11345388 0.034539171 1.9738875e-38
-0.034340009 -0.11109848 0.043585427 1.8908761e-38
-0.032656066 -0.11031438 0.046596952 1.6512413e-38
-0.030962888 -0.10978593 0.048626609 2.5908902e-39
-0.029297676 -0.10900976 0.051607616 8.3703761e-40
-0.027642494 -0.10823826 0.054570682 2.8621157e-39
-0.025922371 -0.10823826 0.054570682 4.6107624e-40
-0.024202248 -0.10823826 0.054570682 9.1844605e-40
-0.022482125 -0.10823826 0.054570682 1.1423688e-38
-0.020762002 -0.10823826 0.054570682 2.350594e-38
-0.019041879 -0.10823826 0.054570682 2.3507733e-38
-0.017220451 -0.10900976 0.051607616 2.2217705e-38
-0.015495131 -0.10900976 0.051607616 2.3050696e-38
-0.013769811 -0.10900976 0.051607616 2.2958863e-38
-0.012044495 -0.10900976 0.051607616 2.1762125e-38
-0.010319175 -0.10900976 0.051607616 2.2499336e-38
-0.0087211411 -0.10823826 0.054570682 2.1852894e-38
-0.0070010182 -0.10823826 0.054570682 2.3142544e-38
-0.0052808952 -0.10823826 0.054570682 2.3234379e-38
-0.0034179036 -0.10900976 0.051607616 2.3234376e-38
-0.0016925838 -0.10900976 0.051607616 2.2312782e-38
0.00018692203 -0.10978593 0.048626609 2.3142544e-38
0.0019174647 -0.10978593 0.048626609 2.2958873e-38
0.0037601087 -0.11031438 0.046596952 2.166887e-38
0.0054942127 -0.11031438 0.046596952 2.249969e-38
0.0072283167 -0.11031438 0.046596952 2.1578082e-38
0.0089624207 -0.11031438 0.046596952 2.2039058e-38
0.010696525 -0.11031438 0.046596952 2.2867027e-38
0.012430629 -0.11031438 0.046596952 2.2867032e-38
0.014164729 -0.11031438 0.046596952 2.2499695e-38
0.015761828 -0.10978593 0.048626609 2.2775202e-38
0.017492367 -0.10978593 0.048626609 1.8995231e-38
0.019367045 -0.11031438 0.046596952 1.134194e-38
0.021101145 -0.11031438 0.046596952 8.0225598e-39
0.022835245 -0.11031438 0.046596952 6.2715813e-39
0.024569353 -0.11031438 0.046596952 6.6407324e-39
0.026538422 -0.11109848 0.043585427 4.9822901e-39
0.028519524 -0.11188738 0.040555544 1.2029825e-39
0.030264219 -0.11188738 0.040555544 3.3519059e-42
0.032008916 -0.11188738 0.040555544 4.7363888e-43
0.033753604 -0.11188738 0.040555544 9.1956008e-41
0.035754323 -0.11265542 0.03760577 1.1490647e-43
0.037504181 -0.11265542 0.03760577 7.3696108e-40
0.039254054 -0.11265542 0.03760577 2.2616957e-42
0.041003928 -0.11265542 0.03760577 5.904926e-39
0.043041453 -0.11345388 0.034539171 1.7062741e-38
0.04479669 -0.11345388 0.034539171 1.872296e-38
0.046551943 -0.11345388 0.034539171 1.8353815e-38
0.04830718 -0.11345388 0.034539171 1.8721507e-38
0.050363436 -0.11423124 0.031553455 1.853675e-38
0.052123919 -0.11423124 0.031553455 1.8536027e-38
0.053884402 -0.11423124 0.031553455 2.0840917e-38
0.05564487 -0.11423124 0.031553455 2.2040518e-38
0.057405353 -0.11423124 0.031553455 2.0013314e-38
0.059165835 -0.11423124 0.031553455 1.8539624e-38
0.060926318 -0.11423124 0.031553455 1.6512402e-38
0.063026458 -0.11501329 0.028549977 1.6327661e-38
0.064792201 -0.11501329 0.028549977 9.1346163e-39
0.066557944 -0.11501329 0.028549977 6.7350398e-39
0.068323702 -0.11501329 0.028549977 4.582246e-43
0.069728717 -0.11423124 0.031553455 1.0369609e-43
0.0714892 -0.11423124 0.031553455 1.6585376e-39
0.073249668 -0.11423124 0.031553455 3.6864547e-39
0.075010151 -0.11423124 0.031553455 7.2816961e-39
0.076770633 -0.11423124 0.031553455 7.2823898e-39
0.078531116 -0.11423124 0.031553455 6.452978e-39
0.080291584 -0.11423124 0.031553455 5.4395422e-39
0.082052067 -0.11423124 0.031553455 5.1636741e-39
0.08381255 -0.11423124 0.031553455 5.8097666e-39
0.085573032 -0.11423124 0.031553455 6.2714636e-39
-0.073509507 -0.1471896 -0.087466292 7.837786e-39
-0.07133773 -0.14430468 -0.076460414 1.0236665e-38
-0.069320798 -0.14324932 -0.07243412 1.3373826e-38
-0.06727358 -0.14141284 -0.065427952 1.3375618e-38
-0.065291159 -0.14037828 -0.06148117 1.1441671e-38
-0.063286595 -0.13851611 -0.054377012 1.052044e-38
-0.061317913 -0.13695215 -0.048410468 1.015023e-38
-0.059362501 -0.13513394 -0.041474037 7.383642e-39
-0.0574494 -0.13408406 -0.037468724 8.7640471e-39
-0.055510633 -0.13065951 -0.024404101 1.364896e-38
-0.053636331 -0.12909363 -0.018430285 2.0469976e-38
-0.051782083 -0.12726043 -0.011436634 2.240499e-38
-0.049951524 -0.12567626 -0.0053929612 2.2957438e-38
-0.048160266 -0.12228753 0.0075350478 1.8442765e-38
-0.046384126 -0.12070583 0.013569184 1.3561451e-38
-0.044610463 -0.11992194 0.016559787 7.5022297e-40
-0.042847153 -0.11914261 0.019532867 1.3062736e-39
-0.041095082 -0.11834116 0.022590347 1.2646688e-38
-0.039386805 -0.11677901 0.028549977 1.9558448e-38
-0.037660554 -0.11599173 0.031553455 1.9187506e-38
-0.035944574 -0.11520912 0.034539171 2.0568634e-38
-0.034340009 -0.11283787 0.043585427 1.9185348e-38
-0.032656066 -0.11204849 0.046596952 1.6512413e-38
-0.030962888 -0.11151646 0.048626609 2.866761e-39
-0.029297676 -0.11073507 0.051607616 9.2923324e-40
-0.027642494 -0.1099584 0.054570682 2.6770056e-39
-0.025922371 -0.1099584 0.054570682 3.6852048e-40
-0.024202248 -0.1099584 0.054570682 1.2857922e-39
-0.022482125 -0.1099584 0.054570682 1.0499222e-38
-0.020762002 -0.1099584 0.054570682 2.3220389e-38
-0.018945767 -0.11073507 0.051607616 2.3506298e-38
-0.017220451 -0.11073507 0.051607616 2.2215197e-38
-0.015601633 -0.1099584 0.054570682 2.1296825e-38
-0.01388151 -0.1099584 0.054570682 2.1760678e-38
-0.012161387 -0.1099584 0.054570682 2.2314942e-38
-0.010441264 -0.1099584 0.054570682 2.1763212e-38
-0.0087211411 -0.1099584 0.054570682 2.240786e-38
-0.0070010182 -0.1099584 0.054570682 2.1671016e-38
-0.0052808952 -0.1099584 0.054570682 2.1118197e-38
-0.0034179036 -0.11073507 0.051607616 2.2040148e-38
-0.0016925838 -0.11073507 0.051607616 2.0472825e-38
0.00029190071 -0.11204849 0.046596952 2.093417e-38
0.0020260047 -0.11204849 0.046596952 2.0564683e-38
0.0037601087 -0.11204849 0.046596952 1.7430029e-38
0.0054942127 -0.11204849 0.046596952 2.0473544e-38
0.0072283167 -0.11204849 0.046596952 2.1027066e-38
0.0089624207 -0.11204849 0.046596952 2.222417e-38
0.010696525 -0.11204849 0.046596952 2.2591518e-38
0.012430629 -0.11204849 0.046596952 2.0011119e-38
0.014164729 -0.11204849 0.046596952 1.4940011e-38
0.015761828 -0.11151646 0.048626609 1.4754916e-38
0.017492367 -0.11151646 0.048626609 7.6547946e-39
0.019367045 -0.11204849 0.046596952 8.4835015e-39
0.021101145 -0.11204849 0.046596952 7.5615677e-39
0.022835245 -0.11204849 0.046596952 6.7329028e-39
0.024569353 -0.11204849 0.046596952 6.7336301e-39
0.026538422 -0.11283787 0.043585427 5.53581e-39
0.028519524 -0.11363207 0.040555544 3.7357356e-40
0.030264219 -0.11363207 0.040555544 2.2616957e-42
0.032008916 -0.11363207 0.040555544 4.0679694e-42
0.033753604 -0.11363207 0.040555544 1.1770907e-43
0.035498306 -0.11363207 0.040555544 3.6782403e-40
0.037504181 -0.11440529 0.03760577 1.3841284e-39
0.039254054 -0.11440529 0.03760577 4.6102719e-43
0.041003928 -0.11440529 0.03760577 2.4029326e-39
0.043041453 -0.11520912 0.034539171 1.6141508e-38
0.04479669 -0.11520912 0.034539171 1.7156728e-38
0.046551943 -0.11520912 0.034539171 1.6051086e-38
0.04830718 -0.11520912 0.034539171 1.7802436e-38
0.050363436 -0.11599173 0.031553455 1.8815861e-38
0.052123919 -0.11599173 0.031553455 1.946123e-38
0.053884402 -0.11599173 0.031553455 2.0661192e-38
0.05564487 -0.11599173 0.031553455 1.9647414e-38
0.057405353 -0.11599173 0.031553455 1.4578455e-38
0.059165835 -0.11599173 0.031553455 1.3750136e-38
0.060926318 -0.11599173 0.031553455 1.2734908e-38
0.062686801 -0.11599173 0.031553455 1.522168e-38
0.064792201 -0.11677901 0.028549977 5.5386364e-39
0.066557944 -0.11677901 0.028549977 2.4933304e-39
0.068323702 -0.11677901 0.028549977 1.0229479e-43
0.070089445 -0.11677901 0.028549977 1.0649868e-43
0.071855187 -0.11677901 0.028549977 2.4883011e-39
0.07362093 -0.11677901 0.028549977 3.1332823e-39
0.075010151 -0.11599173 0.031553455 6.3604615e-39
0.076770633 -0.11599173 0.031553455 6.4526291e-39
0.077371016 -0.11363207 0.040555544 7.1905403e-39
0.079115704 -0.11363207 0.040555544 7.4678432e-39
0.082052067 -0.11599173 0.031553455 7.0990607e-39
0.08381255 -0.11599173 0.031553455 6.454413e-39
0.085573032 -0.11599173 0.031553455 6.1789023e-39
-0.073509507 -0.14915876 -0.087466292 4.7949729e-39
-0.07133773 -0.14625455 -0.076460414 1.0328504e-38
-0.06927032 -0.14439236 -0.069403343 1.4480171e-38
-0.06727358 -0.14334334 -0.065427952 1.3007915e-38
-0.065250531 -0.14148657 -0.058391385 9.413364e-39
-0.063286595 -0.14042725 -0.054377012 9.4140898e-39
-0.061317913 -0.13885282 -0.048410468 9.2293469e-39
-0.059362501 -0.13702248 -0.041474037 7.1996039e-39
-0.0574494 -0.13596557 -0.037468724 9.2250224e-39
-0.055510633 -0.1325181 -0.024404101 1.337237e-38
-0.053636331 -0.13094176 -0.018430285 1.982496e-38
-0.051784657 -0.12987186 -0.014375739 2.3050708e-38
-0.049948886 -0.1282966 -0.0084060952 2.2957438e-38
-0.048160266 -0.12409012 0.0075350478 2.2775202e-38
-0.046384126 -0.12249784 0.013569184 1.5589741e-38
-0.04462871 -0.12092416 0.019532867 7.3882971e-39
-0.042871274 -0.12011738 0.022590347 4.9011759e-39
-0.041124389 -0.11931543 0.025629468 1.2830352e-38
-0.039386805 -0.11854477 0.028549977 1.8819814e-38
-0.037660554 -0.11775221 0.031553455 2.0570074e-38
-0.035944574 -0.11696436 0.034539171 2.1489505e-38
-0.034340009 -0.11457725 0.043585427 1.9922194e-38
-0.032656066 -0.1137826 0.046596952 1.6512413e-38
-0.030962888 -0.11324702 0.048626609 2.2213916e-39
-0.029297676 -0.11246039 0.051607616 3.7605946e-40
-0.027572358 -0.11246039 0.051607616 2.5848099e-39
-0.025922371 -0.1116785 0.054570682 3.6852048e-40
-0.024202248 -0.1116785 0.054570682 1.0102815e-39
-0.022482125 -0.1116785 0.054570682 9.2988919e-39
-0.020762002 -0.1116785 0.054570682 2.1467616e-38
-0.018945767 -0.11246039 0.051607616 2.0734342e-38
-0.017220451 -0.11246039 0.051607616 2.0276942e-38
-0.015601633 -0.1116785 0.054570682 2.1388673e-38
-0.01388151 -0.1116785 0.054570682 1.9732026e-38
-0.012161387 -0.1116785 0.054570682 1.5124048e-38
-0.010441264 -0.1116785 0.054570682 1.6601701e-38
-0.0087211411 -0.1116785 0.054570682 1.6418392e-38
-0.0070010182 -0.1116785 0.054570682 1.9369728e-38
-0.0052808952 -0.1116785 0.054570682 1.8263734e-38
-0.0034179036 -0.11246039 0.051607616 1.7987143e-38
-0.0016925838 -0.11246039 0.051607616 1.7341776e-38
0.00029190071 -0.1137826 0.046596952 1.9830706e-38
0.0020260047 -0.1137826 0.046596952 2.0844145e-38
0.0037601087 -0.1137826 0.046596952 1.9552336e-38
0.0054942127 -0.1137826 0.046596952 1.9737429e-38
0.0072283167 -0.1137826 0.046596952 2.0382787e-38
0.0089624207 -0.1137826 0.046596952 2.2132348e-38
0.010696525 -0.1137826 0.046596952 2.176428e-38
0.012430629 -0.1137826 0.046596952 1.8905499e-38
0.014031282 -0.11324702 0.048626609 1.1712809e-38
0.015761828 -0.11324702 0.048626609 1.3924439e-38
0.017492367 -0.11324702 0.048626609 1.1157868e-38
0.019367045 -0.1137826 0.046596952 9.9582659e-39
0.021101145 -0.1137826 0.046596952 7.2846122e-39
0.022835245 -0.1137826 0.046596952 6.4555844e-39
0.024569353 -0.1137826 0.046596952 7.470828e-39
0.026538422 -0.11457725 0.043585427 5.7205515e-39
0.028519524 -0.11537679 0.040555544 4.422498e-42
0.030264219 -0.11537679 0.040555544 4.4182941e-42
0.032008916 -0.11537679 0.040555544 5.8630328e-42
0.033753604 -0.11537679 0.040555544 8.3657518e-43
0.035498306 -0.11537679 0.040555544 2.2813139e-42
0.037504181 -0.11615516 0.03760577 1.192505e-42
0.039254054 -0.11615516 0.03760577 9.6689594e-44
0.041003928 -0.11615516 0.03760577 5.8504211e-42
0.042753786 -0.11615516 0.03760577 9.8747303e-39
0.044503659 -0.11615516 0.03760577 1.2734223e-38
0.046551943 -0.11696436 0.034539171 1.4578843e-38
0.04830718 -0.11696436 0.034539171 1.5040532e-38
0.050363436 -0.11775221 0.031553455 1.6608212e-38
0.052123919 -0.11775221 0.031553455 1.7438691e-38
0.053884402 -0.11775221 0.031553455 1.86383e-38
0.05564487 -0.11775221 0.031553455 1.7993657e-38
0.057405353 -0.11775221 0.031553455 1.292434e-38
0.059165835 -0.11775221 0.031553455 1.2556276e-38
0.060926318 -0.11775221 0.031553455 1.0894241e-38
0.062686801 -0.11775221 0.031553455 1.2271428e-38
0.064447269 -0.11775221 0.031553455 1.2965696e-39
0.066557944 -0.11854477 0.028549977 2.9749566e-42
0.068323702 -0.11854477 0.028549977 1.1911037e-42
0.070089445 -0.11854477 0.028549977 1.1350518e-43
0.071855187 -0.11854477 0.028549977 2.0269698e-39
0.07362093 -0.11854477 0.028549977 3.1329264e-39
0.075010151 -0.11775221 0.031553455 6.9136353e-39
0.076770633 -0.11775221 0.031553455 6.729216e-39
0.077371016 -0.11537679 0.040555544 7.743714e-39
0.079115704 -0.11537679 0.040555544 8.2972438e-39
0.080860406 -0.11537679 0.040555544 7.7444301e-39
-0.071263604 -0.14713491 -0.07243412 1.0053715e-38
-0.06927032 -0.14632986 -0.069403343 1.55876e-38
-0.06727358 -0.14527388 -0.065427952 1.66961e-38
-0.065250531 -0.14340474 -0.058391385 1.0705182e-38
-0.063286595 -0.14233841 -0.054377012 1.1258002e-38
-0.0612799 -0.13970654 -0.044468932 1.0059108e-38
-0.059362501 -0.13891099 -0.041474037 6.7393418e-39
-0.057430565 -0.13703169 -0.034399204 8.4885336e-39
-0.055510633 -0.13437669 -0.024404101 1.2728077e-38
-0.053644165 -0.13358103 -0.021408729 1.9364698e-38
-0.051788211 -0.13278987 -0.018430285 2.3142544e-38
-0.049948886 -0.13012715 -0.0084060952 2.3049273e-38
-0.048160266 -0.12589271 0.0075350478 2.2958873e-38
-0.046384126 -0.12428986 0.013569184 1.8631107e-38
-0.04462871 -0.12270571 0.019532867 1.4671385e-38
-0.042871274 -0.12189357 0.022590347 1.2830353e-38
-0.041124389 -0.12108628 0.025629468 1.1263023e-38
-0.039386805 -0.1203105 0.028549977 1.7068453e-38
-0.037660554 -0.11951269 0.031553455 2.0938492e-38
-0.035944574 -0.11871959 0.034539171 2.1489505e-38
-0.034340009 -0.11631663 0.043585427 2.001439e-38
-0.032693431 -0.11497755 0.048626609 1.6235829e-38
-0.031022994 -0.11418571 0.051607616 1.4834706e-39
-0.029297676 -0.11418571 0.051607616 6.9168092e-42
-0.027642494 -0.11339863 0.054570682 3.0457881e-39
-0.025922371 -0.11339863 0.054570682 1.0138899e-39
-0.024202248 -0.11339863 0.054570682 1.0102914e-39
-0.022482125 -0.11339863 0.054570682 3.1246756e-39
-0.020671085 -0.11418571 0.051607616 3.3079724e-39
-0.018945767 -0.11418571 0.051607616 3.1267929e-39
-0.017220451 -0.11418571 0.051607616 1.4471148e-38
-0.015601633 -0.11339863 0.054570682 1.9453295e-38
-0.01388151 -0.11339863 0.054570682 2.1392637e-38
-0.012161387 -0.11339863 0.054570682 1.9182824e-38
-0.010441264 -0.11339863 0.054570682 2.1396593e-38
-0.0087211411 -0.11339863 0.054570682 2.1029251e-38
-0.0070010182 -0.11339863 0.054570682 2.1673176e-38
-0.0052808952 -0.11339863 0.054570682 2.0199852e-38
-0.0034179036 -0.11418571 0.051607616 2.1305834e-38
-0.0015436243 -0.11497755 0.048626609 2.1948682e-38
0.00018692203 -0.11497755 0.048626609 2.1673176e-38
0.0019174647 -0.11497755 0.048626609 2.0934187e-38
0.003648011 -0.11497755 0.048626609 2.2224189e-38
0.0053785574 -0.11497755 0.048626609 2.0843786e-38
0.0071091 -0.11497755 0.048626609 1.798609e-38
0.0088396464 -0.11497755 0.048626609 2.0013314e-38
0.010696525 -0.11551671 0.046596952 2.1118575e-38
0.012430629 -0.11551671 0.046596952 1.8812613e-38
0.014031282 -0.11497755 0.048626609 5.1658658e-39
0.015761828 -0.11497755 0.048626609 5.0726009e-39
0.017492367 -0.11497755 0.048626609 7.6530122e-39
0.019367045 -0.11551671 0.046596952 4.5183776e-39
0.021101145 -0.11551671 0.046596952 1.8519701e-40
0.022835245 -0.11551671 0.046596952 2.3989823e-39
0.024569353 -0.11551671 0.046596952 7.8396119e-39
0.026538422 -0.11631663 0.043585427 6.5503178e-39
0.028519524 -0.11712147 0.040555544 2.6288359e-42
0.030017195 -0.11631663 0.043585427 4.0651668e-42
0.03175658 -0.11631663 0.043585427 4.0679694e-42
0.033753604 -0.11712147 0.040555544 1.1350518e-43
0.035498306 -0.11712147 0.040555544 1.8883338e-40
0.037504181 -0.11790501 0.03760577 3.3547085e-42
0.039254054 -0.11790501 0.03760577 4.0637655e-42
0.041003928 -0.11790501 0.03760577 6.21616e-42
0.042753786 -0.11790501 0.03760577 3.4217635e-39
0.044503659 -0.11790501 0.03760577 9.2311559e-39
0.046551943 -0.11871959 0.034539171 1.6239094e-38
0.04830718 -0.11871959 0.034539171 1.6240168e-38
0.050363436 -0.11951269 0.031553455 1.6887327e-38
0.052123919 -0.11951269 0.031553455 1.6519264e-38
0.053572923 -0.11871959 0.034539171 1.7810704e-38
0.055328161 -0.11871959 0.034539171 1.8918111e-38
0.057405353 -0.11951269 0.031553455 1.4954097e-38
0.059165835 -0.11951269 0.031553455 1.3572241e-38
0.060926318 -0.11951269 0.031553455 9.7889862e-39
0.062686801 -0.11951269 0.031553455 9.320818e-39
0.064447269 -0.11951269 0.031553455 7.1466222e-44
0.066207752 -0.11951269 0.031553455 4.6242849e-43
0.068323702 -0.1203105 0.028549977 7.3840161e-40
0.070089445 -0.1203105 0.028549977 9.1954607e-41
0.072211072 -0.12108628 0.025629468 9.2062366e-40
0.07362093 -0.1203105 0.028549977 3.5939074e-39
0.075010151 -0.11951269 0.031553455 8.388408e-39
0.076770633 -0.11951269 0.031553455 8.0199548e-39
0.077371016 -0.11712147 0.040555544 8.0206569e-39
0.079115704 -0.11712147 0.040555544 7.6518715e-39
-0.071263604 -0.14907773 -0.07243412 8.7644198e-39
-0.06927032 -0.14826734 -0.069403343 1.7340759e-38
-0.06727358 -0.14720438 -0.065427952 1.6051452e-38
-0.065250531 -0.14532293 -0.058391385 1.2641653e-38
-0.063286595 -0.14424954 -0.054377012 1.1350917e-38
-0.0612799 -0.1416003 -0.044468932 1.0981783e-38
-0.059330899 -0.13972856 -0.037468724 7.4765509e-39
-0.057387713 -0.13704078 -0.02741652 9.5956e-39
-0.055497505 -0.13543437 -0.021408729 1.2913187e-38
-0.053644165 -0.13543437 -0.021408729 1.9918594e-38
-0.051788211 -0.134638 -0.018430285 2.2222031e-38
-0.049946226 -0.13276802 -0.011436634 2.3509886e-38
-0.048160266 -0.12769531 0.0075350478 2.2958514e-38
-0.046384126 -0.12608187 0.013569184 2.1396234e-38
-0.04462871 -0.1244873 0.019532867 1.5869202e-38
-0.042871274 -0.12366976 0.022590347 1.4673546e-38
-0.041124389 -0.12285714 0.025629468 1.0709489e-38
-0.039386805 -0.12207626 0.028549977 1.3841606e-38
-0.037660554 -0.12127317 0.031553455 2.0754462e-38
-0.035990275 -0.11965488 0.03760577 2.158134e-38
-0.03439017 -0.11725079 0.046596952 1.9184994e-38
-0.032693431 -0.11670811 0.048626609 1.6512419e-38
-0.031022994 -0.11591102 0.051607616 1.2990807e-39
-0.029362617 -0.11511876 0.054570682 1.2976598e-39
-0.027642494 -0.11511876 0.054570682 2.9535924e-39
-0.025922371 -0.11511876 0.054570682 1.0138899e-39
-0.024202248 -0.11511876 0.054570682 1.6567454e-39
-0.022482125 -0.11511876 0.054570682 6.4295637e-40
-0.020671085 -0.11591102 0.051607616 1.1028485e-39
-0.018945767 -0.11591102 0.051607616 6.1657132e-44
-0.017220451 -0.11591102 0.051607616 1.0419952e-38
-0.015495131 -0.11591102 0.051607616 1.4756006e-38
-0.01388151 -0.11511876 0.054570682 1.9090997e-38
-0.012161387 -0.11511876 0.054570682 1.9460865e-38
-0.010441264 -0.11511876 0.054570682 1.9554861e-38
-0.0087211411 -0.11511876 0.054570682 2.1213998e-38
-0.0070010182 -0.11511876 0.054570682 2.158134e-38
-0.0052808952 -0.11511876 0.054570682 2.1948682e-38
-0.0034179036 -0.11591102 0.051607616 2.084271e-38
-0.0015436243 -0.11670811 0.048626609 2.0840917e-38
0.00018692203 -0.11670811 0.048626609 1.871827e-38
0.0019174647 -0.11670811 0.048626609 1.7977844e-38
0.003648011 -0.11670811 0.048626609 1.724137e-38
0.0053785574 -0.11670811 0.048626609 1.558545e-38
0.0071091 -0.11670811 0.048626609 1.5125914e-38
0.0088396464 -0.11670811 0.048626609 1.4203235e-38
0.010570193 -0.11670811 0.048626609 1.5308863e-38
0.012300735 -0.11670811 0.048626609 1.2541555e-38
0.014164729 -0.11725079 0.046596952 7.9453623e-43
0.015898837 -0.11725079 0.046596952 4.6141816e-40
0.017632937 -0.11725079 0.046596952 2.7667657e-40
0.019367045 -0.11725079 0.046596952 9.6689594e-44
0.021101145 -0.11725079 0.046596952 1.1982952e-39
0.022835245 -0.11725079 0.046596952 3.0429322e-39
0.024569353 -0.11725079 0.046596952 6.2708653e-39
0.026538422 -0.11805601 0.043585427 6.1797543e-39
0.028519524 -0.11886616 0.040555544 3.3659189e-42
0.030017195 -0.11805601 0.043585427 4.084785e-42
0.03175658 -0.11805601 0.043585427 3.72325e-42
0.033753604 -0.11886616 0.040555544 3.7260526e-42
0.035498306 -0.11886616 0.040555544 4.8050524e-42
0.037243009 -0.11886616 0.040555544 3.7204474e-42
0.039254054 -0.11965488 0.03760577 8.3237129e-43
0.041003928 -0.11965488 0.03760577 6.5847015e-42
0.042753786 -0.11965488 0.03760577 1.5757041e-39
0.044503659 -0.11965488 0.03760577 5.5411867e-39
0.046253532 -0.11965488 0.03760577 1.2273259e-38
0.04800339 -0.11965488 0.03760577 1.4303355e-38
0.050062433 -0.12047486 0.034539171 1.6702221e-38
0.05181767 -0.12047486 0.034539171 1.5597325e-38
0.053572923 -0.12047486 0.034539171 1.6059372e-38
0.055328161 -0.12047486 0.034539171 1.5967895e-38
0.057405353 -0.12127317 0.031553455 1.4400577e-38
0.059165835 -0.12127317 0.031553455 1.2833971e-38
0.060926318 -0.12127317 0.031553455 8.4978985e-39
0.062686801 -0.12127317 0.031553455 3.1433619e-39
0.064447269 -0.12127317 0.031553455 4.6538383e-40
0.066207752 -0.12127317 0.031553455 8.2956869e-43
0.068323702 -0.12207626 0.028549977 4.8204667e-43
0.070089445 -0.12207626 0.028549977 1.2331426e-43
0.072211072 -0.12285714 0.025629468 3.6745269e-40
0.074357599 -0.12366976 0.022590347 3.0407364e-39
0.076133803 -0.12366976 0.022590347 8.0196255e-39
0.077909991 -0.12366976 0.022590347 8.8497155e-39
-0.06727358 -0.14913492 -0.065427952 1.6144727e-38
-0.065250531 -0.1472411 -0.058391385 1.3287022e-38
-0.063253172 -0.14537133 -0.051444106 1.1812974e-38
-0.0612799 -0.14349405 -0.044468932 9.1378729e-39
-0.059330899 -0.14161004 -0.037468724 6.3702033e-39
-0.057369225 -0.13809387 -0.024404101 8.12047e-39
-0.055497505 -0.13728772 -0.021408729 1.4757099e-38
-0.053636331 -0.13648613 -0.018430285 2.1209333e-38
-0.051784657 -0.13539489 -0.014375739 2.2958873e-38
-0.049946226 -0.13460387 -0.011436634 2.3509883e-38
-0.048160266 -0.1294979 0.0075350478 2.3234379e-38
-0.046384126 -0.12787388 0.013569184 1.945978e-38
-0.04462871 -0.12626885 0.019532867 1.5223472e-38
-0.042847153 -0.12626885 0.019532867 1.458135e-38
-0.041095082 -0.12544595 0.022590347 8.1276558e-39
-0.039386805 -0.12384202 0.028549977 1.3749057e-38
-0.037660554 -0.12303366 0.031553455 2.0569715e-38
-0.035990275 -0.12140475 0.03760577 2.0660474e-38
-0.03439017 -0.11898489 0.046596952 1.7987535e-38
-0.032748312 -0.11763634 0.051607616 1.5866695e-38
-0.031022994 -0.11763634 0.051607616 1.1150524e-39
-0.029362617 -0.11683889 0.054570682 3.7570634e-40
-0.027642494 -0.11683889 0.054570682 2.0323578e-39
-0.025922371 -0.11683889 0.054570682 5.5327187e-40
-0.024202248 -0.11683889 0.054570682 7.36231e-40
-0.022482125 -0.11683889 0.054570682 7.3696248e-40
-0.020762002 -0.11683889 0.054570682 1.8521943e-40
-0.019041879 -0.11683889 0.054570682 1.5190075e-42
-0.017321756 -0.11683889 0.054570682 5.1848043e-44
-0.015601633 -0.11683889 0.054570682 2.2184923e-39
-0.01388151 -0.11683889 0.054570682 3.2333575e-39
-0.012161387 -0.11683889 0.054570682 9.5963007e-39
-0.010441264 -0.11683889 0.054570682 1.0887761e-38
-0.0087211411 -0.11683889 0.054570682 1.0058003e-38
-0.0070010182 -0.11683889 0.054570682 9.7814136e-39
-0.0052808952 -0.11683889 0.054570682 1.1163263e-38
-0.0034179036 -0.11763634 0.051607616 7.4739963e-39
-0.0015436243 -0.11843865 0.048626609 6.1807464e-39
0.00018692203 -0.11843865 0.048626609 2.7736041e-40
0.001758052 -0.11763634 0.051607616 6.4459729e-44
0.0034833718 -0.11763634 0.051607616 7.4268819e-44
0.0053785574 -0.11843865 0.048626609 1.1756894e-42
0.0071091 -0.11843865 0.048626609 4.582246e-43
0.0088396464 -0.11843865 0.048626609 9.9492191e-44
0.010570193 -0.11843865 0.048626609 1.8987594e-42
0.012300735 -0.11843865 0.048626609 1.753257e-39
0.014164729 -0.11898489 0.046596952 9.2485699e-44
0.015898837 -0.11898489 0.046596952 1.8413762e-40
0.017632937 -0.11898489 0.046596952 6.4440251e-40
0.019580891 -0.1197954 0.043585427 8.2843924e-40
0.021101145 -0.11898489 0.046596952 5.6229777e-39
0.022835245 -0.11898489 0.046596952 6.6385744e-39
0.024569353 -0.11898489 0.046596952 6.0861223e-39
0.026538422 -0.1197954 0.043585427 6.2719513e-39
0.028519524 -0.12061088 0.040555544 3.0458273e-39
0.030017195 -0.1197954 0.043585427 3.7359318e-40
0.03175658 -0.1197954 0.043585427 4.8905316e-43
0.033753604 -0.12061088 0.040555544 4.0903902e-42
0.035498306 -0.12061088 0.040555544 3.7302565e-42
0.037243009 -0.12061088 0.040555544 3.7260526e-42
0.038987696 -0.12061088 0.040555544 4.8204667e-43
0.041003928 -0.12140475 0.03760577 1.5554413e-42
0.042753786 -0.12140475 0.03760577 2.6302372e-42
0.044503659 -0.12140475 0.03760577 3.3420968e-42
0.046253532 -0.12140475 0.03760577 1.3905911e-39
0.04800339 -0.12140475 0.03760577 4.7114261e-39
0.050062433 -0.1222301 0.034539171 8.5857977e-39
0.05181767 -0.1222301 0.034539171 9.5095491e-39
0.053572923 -0.1222301 0.034539171 9.9716062e-39
0.055328161 -0.1222301 0.034539171 7.8511054e-39
0.057405353 -0.12303366 0.031553455 4.0710845e-39
0.059165835 -0.12303366 0.031553455 1.950585e-39
0.060926318 -0.12303366 0.031553455 5.4734718e-42
0.062686801 -0.12303366 0.031553455 4.4000772e-42
