# .PCD v0.7 - Point Cloud Data file format
VERSION 0.7
FIELDS x y z rgb
SIZE 4 4 4 4
TYPE F F F F
COUNT 1 1 1 1
WIDTH 944
HEIGHT 1
VIEWPOINT 0 0 0 1 0 0 0
POINTS 944
DATA ascii
-0.08797197 -0.13809387 -0.031854302 4.3300123e-43
-0.086113378 -0.13809387 -0.031854302 5.5505572e-40
-0.08413136 -0.13728772 -0.02885893 6.2711848e-39
-0.082160525 -0.13648613 -0.025880486 7.746312e-39
-0.08015956 -0.13539489 -0.021825939 8.4838771e-39
-0.078318551 -0.13539489 -0.021825939 5.4421388e-39
-0.076377057 -0.13460387 -0.018886834 4.0592015e-39
-0.074541204 -0.13460387 -0.018886834 4.6123753e-39
-0.072705343 -0.13460387 -0.018886834 5.8109185e-39
-0.070869491 -0.13460387 -0.018886834 1.4784512e-39
-0.069033638 -0.13460387 -0.018886834 6.4906744e-40
-0.067197777 -0.13460387 -0.018886834 3.6000549e-39
-0.065361924 -0.13460387 -0.018886834 5.6283615e-39
-0.06345965 -0.13378824 -0.015856296 1.1898383e-38
-0.06156835 -0.13297729 -0.012843162 9.224354e-39
-0.059743091 -0.13297729 -0.012843162 2.9903709e-42
-0.057867933 -0.13217102 -0.0098474324 2.8245833e-40
-0.056047928 -0.13217102 -0.0098474324 8.3034781e-39
-0.054227918 -0.13217102 -0.0098474324 6.5517612e-39
-0.052407913 -0.13217102 -0.0098474324 2.8281846e-40
-0.050587907 -0.13217102 -0.0098474324 6.2315743e-42
-0.048767902 -0.13217102 -0.0098474324 8.3670971e-40
-0.046947893 -0.13217102 -0.0098474324 3.2337961e-39
-0.04511065 -0.13111271 -0.0059151947 1.1163699e-38
-0.043297537 -0.13111271 -0.0059151947 1.2085653e-38
-0.041484427 -0.13111271 -0.0059151947 1.291469e-38
-0.039673999 -0.13028879 -0.002853781 1.1254442e-38
-0.037881941 -0.12868352 0.0031107366 1.1129196e-39
-0.036097839 -0.12787388 0.006118983 6.2105548e-42
-0.03432418 -0.12706901 0.0091095865 8.3741456e-40
-0.032537408 -0.12706901 0.0091095865 4.6181585e-39
-0.030750642 -0.12706901 0.0091095865 1.1994529e-38
-0.028997757 -0.12626885 0.012082666 1.1442076e-38
-0.0272162 -0.12626885 0.012082666 4.1589782e-39
-0.025434643 -0.12626885 0.012082666 2.8671576e-39
-0.023653088 -0.12626885 0.012082666 8.0290268e-39
-0.021927821 -0.12544595 0.015140146 1.1346986e-38
-0.020151624 -0.12544595 0.015140146 1.300434e-38
-0.018442037 -0.12462802 0.018179268 1.5123033e-38
-0.016671171 -0.12462802 0.018179268 7.561548e-39
-0.014974553 -0.12384202 0.021099776 8.7590066e-39
-0.013208807 -0.12384202 0.021099776 1.8531743e-38
-0.011529952 -0.12303366 0.024103254 1.6688913e-38
-0.0097694714 -0.12303366 0.024103254 1.336987e-38
-0.0081058405 -0.1222301 0.02708897 1.3093286e-38
-0.0063505955 -0.1222301 0.02708897 1.742648e-38
-0.0045953505 -0.1222301 0.02708897 2.0929882e-38
-0.0029557049 -0.12140475 0.030155569 2.1023153e-38
-0.0012058355 -0.12140475 0.030155569 1.9363656e-38
0.00042249262 -0.12061088 0.033105344 1.6137537e-38
0.0021671876 -0.12061088 0.033105344 1.7060932e-38
0.0037764162 -0.1197954 0.036135226 1.8997391e-38
0.0055158027 -0.1197954 0.036135226 1.8261272e-38
0.0072551854 -0.1197954 0.036135226 1.5680542e-38
0.0088440813 -0.11898489 0.039146751 1.2731378e-38
0.010578185 -0.11898489 0.039146751 8.1223309e-39
0.012312289 -0.11898489 0.039146751 4.9884095e-39
0.013934296 -0.11843865 0.041176409 5.450115e-39
0.015664842 -0.11843865 0.041176409 9.4951984e-42
0.017220292 -0.11763634 0.044157416 3.7898257e-40
0.018766373 -0.11683889 0.047120482 9.8006815e-42
0.020486496 -0.11683889 0.047120482 7.2643312e-42
0.022206623 -0.11683889 0.047120482 1.3894869e-39
0.023926746 -0.11683889 0.047120482 9.7680312e-41
0.025646869 -0.11683889 0.047120482 9.5896459e-41
0.027156446 -0.11602069 0.050160497 2.3100237e-39
0.028663386 -0.11523293 0.053087562 8.9495258e-39
0.030222673 -0.1146767 0.055154234 1.7064519e-38
0.031928707 -0.1146767 0.055154234 1.9001334e-38
0.033634748 -0.1146767 0.055154234 1.8631826e-38
0.035340782 -0.1146767 0.055154234 1.8999536e-38
0.037046824 -0.1146767 0.055154234 2.0473933e-38
0.038509045 -0.11387186 0.058144659 1.9182476e-38
0.040209841 -0.11387186 0.058144659 1.9088111e-38
0.041910637 -0.11387186 0.058144659 2.1757817e-38
0.043611437 -0.11387186 0.058144659 2.2402825e-38
0.045312226 -0.11387186 0.058144659 2.1298997e-38
0.047013015 -0.11387186 0.058144659 1.9089904e-38
0.048713818 -0.11387186 0.058144659 1.7341436e-38
0.050135806 -0.11307193 0.061116844 1.7988617e-38
0.051831394 -0.11307193 0.061116844 1.6606418e-38
0.053042904 -0.11173315 0.066091269 1.1903736e-38
0.054729775 -0.11173315 0.066091269 1.0518658e-38
0.056416631 -0.11173315 0.066091269 2.8351211e-40
0.058103487 -0.11173315 0.066091269 5.5722213e-40
0.059790358 -0.11173315 0.066091269 2.9525078e-39
0.061477214 -0.11173315 0.066091269 3.412393e-39
0.065062255 -0.11225216 0.064162821 2.4900555e-39
0.067091629 -0.11307193 0.061116844 8.5760349e-39
0.068787217 -0.11307193 0.061116844 1.3741141e-38
0.070824131 -0.11387186 0.058144659 1.374258e-38
0.07252492 -0.11387186 0.058144659 1.1530251e-38
0.074579641 -0.1146767 0.055154234 6.8286409e-39
0.076885447 -0.11602069 0.050160497 5.0776484e-39
0.079331741 -0.11763634 0.044157416 3.7603704e-40
0.081676438 -0.11898489 0.039146751 3.6587903e-42
0.083788067 -0.1197954 0.036135226 1.0053616e-40
0.0859126 -0.12061088 0.033105344 9.2957936e-40
0.087657303 -0.12061088 0.033105344 1.2976402e-39
0.089787304 -0.12140475 0.030155569 4.06207e-39
0.091537178 -0.12140475 0.030155569 3.876241e-39
0.094098836 -0.12303366 0.024103254 5.7176354e-39
0.095859319 -0.12303366 0.024103254 6.4537642e-39
0.09803319 -0.12384202 0.021099776 5.5310876e-39
0.10020602 -0.12462802 0.018179268 2.8584919e-39
0.10197689 -0.12462802 0.018179268 1.3862331e-39
0.10461894 -0.12626885 0.012082666 2.8168061e-40
0.10683055 -0.12706901 0.0091095865 1.8876892e-40
0.10949557 -0.12868352 0.0031107366 3.6601916e-42
0.11174116 -0.1294979 8.4847212e-05 5.5575637e-40
0.11398429 -0.13028879 -0.002853781 5.550305e-40
0.11579204 -0.13028879 -0.002853781 5.0446745e-44
0.11759977 -0.13028879 -0.002853781 7.3904621e-40
0.11988255 -0.13111271 -0.0059151947 3.6885749e-39
-0.12730098 -0.14727734 -0.058894306 1.2631506e-38
-0.12539497 -0.14727734 -0.058894306 1.2724065e-38
-0.12348896 -0.14727734 -0.058894306 1.0789049e-38
-0.12158297 -0.14727734 -0.058894306 3.9662408e-39
-0.11945623 -0.14645557 -0.055860668 1.4759176e-39
-0.11755554 -0.14645557 -0.055860668 7.3873933e-40
-0.11565486 -0.14645557 -0.055860668 1.3834095e-39
-0.11348811 -0.14538784 -0.051919132 1.0789998e-43
-0.11159433 -0.14538784 -0.051919132 4.6251818e-40
-0.1095089 -0.14457656 -0.048924237 1.1343381e-38
-0.10762037 -0.14457656 -0.048924237 1.0883462e-38
-0.10573186 -0.14457656 -0.048924237 1.5862375e-38
-0.10384333 -0.14457656 -0.048924237 1.687688e-38
-0.10172658 -0.14349155 -0.044918925 1.5125868e-38
-0.099845082 -0.14349155 -0.044918925 1.6692451e-38
-0.097799435 -0.14266007 -0.041849405 1.5863043e-38
-0.095771283 -0.14186381 -0.038910061 1.8075036e-38
-0.093900323 -0.14186381 -0.038910061 1.060649e-38
-0.091834404 -0.14076851 -0.03486672 6.2711567e-39
-0.089970529 -0.14076851 -0.03486672 1.8554593e-40
-0.08797197 -0.13995247 -0.031854302 8.3021049e-40
-0.086113378 -0.13995247 -0.031854302 9.3886997e-44
-0.08413136 -0.13914107 -0.02885893 8.9683102e-44
-0.082160525 -0.13833423 -0.025880486 1.9372853e-39
-0.08015956 -0.13723589 -0.021825939 5.3492425e-39
-0.078318551 -0.13723589 -0.021825939 3.1376236e-39
-0.076377057 -0.13643973 -0.018886834 7.4053439e-40
-0.074541204 -0.13643973 -0.018886834 8.0854921e-43
-0.072705343 -0.13643973 -0.018886834 3.3266826e-42
-0.070869491 -0.13643973 -0.018886834 4.6431044e-40
-0.069033638 -0.13643973 -0.018886834 3.7248335e-40
-0.067197777 -0.13643973 -0.018886834 6.8261788e-39
-0.065361924 -0.13643973 -0.018886834 7.3789967e-39
-0.06345965 -0.13561879 -0.015856296 8.302032e-39
-0.06156835 -0.13480256 -0.012843162 8.5786217e-39
-0.059743091 -0.13480256 -0.012843162 4.6663239e-43
-0.057867933 -0.13399105 -0.0098474324 1.0930128e-43
-0.056047928 -0.13399105 -0.0098474324 8.3034767e-39
-0.054227918 -0.13399105 -0.0098474324 9.3176287e-39
-0.052407913 -0.13399105 -0.0098474324 6.5195551e-40
-0.050549988 -0.13292582 -0.0059151947 4.0623642e-42
-0.048736874 -0.13292582 -0.0059151947 6.2189626e-42
-0.046923764 -0.13292582 -0.0059151947 4.2486557e-39
-0.04511065 -0.13292582 -0.0059151947 1.485115e-38
-0.043297537 -0.13292582 -0.0059151947 1.4299053e-38
-0.041481741 -0.13209651 -0.002853781 1.0702344e-38
-0.039673999 -0.13209651 -0.002853781 7.9361151e-39
-0.037881941 -0.13048081 0.0031107366 1.2051153e-39
-0.036097839 -0.1296659 0.006118983 4.4098863e-42
-0.03432418 -0.12885578 0.0091095865 4.8936593e-39
-0.032537408 -0.12885578 0.0091095865 7.9364781e-39
-0.030750642 -0.12885578 0.0091095865 1.2454064e-38
-0.028997757 -0.1280504 0.012082666 1.1808692e-38
-0.0272162 -0.1280504 0.012082666 2.1281506e-39
-0.025434643 -0.1280504 0.012082666 1.298027e-39
-0.023704015 -0.12722217 0.015140146 7.2903786e-39
-0.021927821 -0.12722217 0.015140146 1.1068957e-38
-0.020151624 -0.12722217 0.015140146 1.2911425e-38
-0.018442037 -0.12639888 0.018179268 1.6321223e-38
-0.0167403 -0.12560774 0.021099776 6.7314328e-39
-0.014974553 -0.12560774 0.021099776 6.3622874e-39
-0.013208807 -0.12560774 0.021099776 1.8257317e-38
-0.011529952 -0.12479414 0.024103254 1.650883e-38
-0.0097694714 -0.12479414 0.024103254 1.5495755e-38
-0.0081058405 -0.12398534 0.02708897 1.6047488e-38
-0.0063505955 -0.12398534 0.02708897 2.0010451e-38
-0.0045953505 -0.12398534 0.02708897 2.1945095e-38
-0.0029557049 -0.12315463 0.030155569 2.175963e-38
-0.0012058355 -0.12315463 0.030155569 2.0744405e-38
0.00042249262 -0.12235557 0.033105344 1.816328e-38
0.0021671876 -0.12235557 0.033105344 1.9823518e-38
0.0037764162 -0.12153481 0.036135226 2.0101547e-38
0.0055158027 -0.12153481 0.036135226 1.9272876e-38
0.0072551854 -0.12153481 0.036135226 1.7799202e-38
0.0088440813 -0.120719 0.039146751 1.5127709e-38
0.010578185 -0.120719 0.039146751 1.0795616e-38
0.012203749 -0.12016918 0.041176409 8.9524433e-39
0.013934296 -0.12016918 0.041176409 1.0705249e-38
0.015664842 -0.12016918 0.041176409 8.0315758e-39
0.017220292 -0.11936165 0.044157416 9.3249827e-40
0.018766373 -0.11855899 0.047120482 5.1077329e-42
0.020486496 -0.11855899 0.047120482 1.8526091e-39
0.022206623 -0.11855899 0.047120482 3.2333855e-39
0.023926746 -0.11855899 0.047120482 2.586797e-42
0.025646869 -0.11855899 0.047120482 5.568606e-40
0.027156446 -0.11773549 0.050160497 8.5479206e-44
0.028663386 -0.11694257 0.053087562 6.2751336e-39
0.030222673 -0.11638273 0.055154234 1.6418077e-38
0.031705875 -0.11557265 0.058144659 1.8540001e-38
0.033406664 -0.11557265 0.058144659 1.8170491e-38
0.035340782 -0.11638273 0.055154234 1.8999892e-38
0.036808256 -0.11557265 0.058144659 2.065868e-38
0.038509045 -0.11557265 0.058144659 1.9183193e-38
0.040209841 -0.11557265 0.058144659 1.8903718e-38
0.041910637 -0.11557265 0.058144659 2.019049e-38
0.043611437 -0.11557265 0.058144659 2.2771602e-38
0.045312226 -0.11557265 0.058144659 2.2129112e-38
0.047013015 -0.11557265 0.058144659 1.9181737e-38
0.048713818 -0.11557265 0.058144659 1.7800972e-38
0.050135806 -0.11476754 0.061116844 1.8171926e-38
0.051831394 -0.11476754 0.061116844 1.7802802e-38
0.053042904 -0.11341999 0.066091269 1.3193034e-38
0.054729775 -0.11341999 0.066091269 1.1347337e-38
0.056416631 -0.11341999 0.066091269 5.1245485e-42
0.058103487 -0.11341999 0.066091269 1.5274153e-42
0.059790358 -0.11341999 0.066091269 2.7688368e-39
0.061477214 -0.11341999 0.066091269 4.4279882e-39
0.070824131 -0.11557265 0.058144659 1.1530248e-38
0.07252492 -0.11557265 0.058144659 1.1622092e-38
0.074579641 -0.11638273 0.055154234 8.0268296e-39
0.077606425 -0.11936165 0.044157416 6.0910941e-39
0.079331741 -0.11936165 0.044157416 4.7461979e-42
0.081676438 -0.120719 0.039146751 4.2599473e-43
0.083788067 -0.12153481 0.036135226 1.0217806e-39
0.0859126 -0.12235557 0.033105344 1.7582638e-39
0.087657303 -0.12235557 0.033105344 2.9564441e-39
0.089787304 -0.12315463 0.030155569 4.7074394e-39
0.091943115 -0.12398534 0.02708897 2.0326843e-39
0.094098836 -0.12479414 0.024103254 3.3216253e-39
0.095859319 -0.12479414 0.024103254 5.9935035e-39
0.09803319 -0.12560774 0.021099776 5.7161991e-39
0.10020602 -0.12639888 0.018179268 2.121287e-39
0.10197689 -0.12639888 0.018179268 1.1092833e-39
0.10461894 -0.1280504 0.012082666 2.934319e-42
0.10683055 -0.12885578 0.0091095865 1.1378544e-42
0.10905515 -0.1296659 0.006118983 5.7453237e-44
0.11174116 -0.13130049 8.4847212e-05 9.4055153e-41
0.11398429 -0.13209651 -0.002853781 2.7772474e-40
0.11579204 -0.13209651 -0.002853781 4.6242849e-44
0.11806944 -0.13292582 -0.0059151947 1.0145513e-39
0.11988255 -0.13292582 -0.0059151947 2.6747803e-39
-0.12539497 -0.14918335 -0.058894306 1.3554904e-38
-0.12325759 -0.14835624 -0.055860668 1.2263461e-38
-0.1213569 -0.14835624 -0.055860668 4.6116102e-39
-0.11945623 -0.14835624 -0.055860668 1.1993307e-39
-0.11755554 -0.14835624 -0.055860668 9.2485699e-44
-0.11565486 -0.14835624 -0.055860668 1.1210388e-43
-0.11348811 -0.1472816 -0.051919132 2.7598293e-40
-0.11159433 -0.1472816 -0.051919132 5.5435367e-40
-0.1095089 -0.14646508 -0.048924237 8.2994858e-39
-0.10762037 -0.14646508 -0.048924237 1.1066058e-38
-0.10573186 -0.14646508 -0.048924237 1.0881293e-38
-0.10360807 -0.14537306 -0.044918925 1.1803246e-38
-0.10172658 -0.14537306 -0.044918925 1.1158582e-38
-0.099845082 -0.14537306 -0.044918925 1.1435509e-38
-0.097642243 -0.14373477 -0.038910061 1.2818441e-38
-0.095771283 -0.14373477 -0.038910061 1.3831888e-38
-0.093698278 -0.14263238 -0.03486672 9.4979912e-39
-0.091834404 -0.14263238 -0.03486672 2.2131169e-39
-0.089830562 -0.14181106 -0.031854302 1.84111e-40
-0.08797197 -0.14181106 -0.031854302 1.0142416e-39
-0.086113378 -0.14181106 -0.031854302 9.2205439e-40
-0.08413136 -0.14099441 -0.02885893 9.9492191e-44
-0.082160525 -0.14018236 -0.025880486 9.8090893e-44
-0.08015956 -0.1390769 -0.021825939 3.7140155e-40
-0.078318551 -0.1390769 -0.021825939 8.16957e-43
-0.076377057 -0.13827558 -0.018886834 9.5893657e-41
-0.074541204 -0.13827558 -0.018886834 4.6467898e-40
-0.072705343 -0.13827558 -0.018886834 1.5386257e-42
-0.070869491 -0.13827558 -0.018886834 8.345405e-40
-0.069033638 -0.13827558 -0.018886834 2.3078741e-39
-0.067197777 -0.13827558 -0.018886834 1.1250131e-38
-0.065361924 -0.13827558 -0.018886834 1.1988418e-38
-0.06345965 -0.13744931 -0.015856296 6.8254628e-39
-0.06156835 -0.13662781 -0.012843162 6.7329112e-39
-0.059743091 -0.13662781 -0.012843162 1.0369609e-43
-0.057867933 -0.13581105 -0.0098474324 1.1868998e-42
-0.056047928 -0.13581105 -0.0098474324 7.8417755e-39
-0.054227918 -0.13581105 -0.0098474324 8.763729e-39
-0.052407913 -0.13581105 -0.0098474324 4.9847844e-39
-0.050549988 -0.13473894 -0.0059151947 5.9070952e-39
-0.048736874 -0.13473894 -0.0059151947 6.5531779e-39
-0.046923764 -0.13473894 -0.0059151947 8.397445e-39
-0.04511065 -0.13473894 -0.0059151947 1.5036246e-38
-0.043289486 -0.13390426 -0.002853781 1.4298679e-38
-0.041481741 -0.13390426 -0.002853781 6.7386397e-39
-0.039676573 -0.13310309 8.4847212e-05 4.6862924e-40
-0.037881941 -0.1322781 0.0031107366 2.8352192e-40
-0.036084652 -0.1322781 0.0031107366 1.0218058e-39
-0.03432418 -0.13064255 0.0091095865 1.0978934e-38
-0.032537408 -0.13064255 0.0091095865 1.2914679e-38
-0.030750642 -0.13064255 0.0091095865 1.309907e-38
-0.028997757 -0.12983195 0.012082666 1.1254436e-38
-0.0272162 -0.12983195 0.012082666 5.4846822e-42
-0.025434643 -0.12983195 0.012082666 3.32388e-42
-0.023704015 -0.12899835 0.015140146 9.3172433e-39
-0.021927821 -0.12899835 0.015140146 1.1436661e-38
-0.020151624 -0.12899835 0.015140146 1.1251551e-38
-0.018442037 -0.12816976 0.018179268 1.0329232e-38
-0.0167403 -0.1273735 0.021099776 1.8663334e-40
-0.014974553 -0.1273735 0.021099776 5.2570328e-39
-0.013208807 -0.1273735 0.021099776 1.761376e-38
-0.011529952 -0.12655462 0.024103254 1.5682316e-38
-0.0097694714 -0.12655462 0.024103254 1.4300811e-38
-0.0080089904 -0.12655462 0.024103254 1.4206454e-38
-0.0063505955 -0.12574057 0.02708897 2.0104798e-38
-0.0045953505 -0.12574057 0.02708897 2.2591531e-38
-0.0029557049 -0.1249045 0.030155569 2.2590096e-38
-0.0012058355 -0.1249045 0.030155569 2.341805e-38
0.00042249262 -0.12410025 0.033105344 2.350988e-38
0.0021671876 -0.12410025 0.033105344 2.3325127e-38
0.0037764162 -0.12327419 0.036135226 2.3141455e-38
0.0055158027 -0.12327419 0.036135226 2.2312784e-38
0.0072551854 -0.12327419 0.036135226 2.1484478e-38
0.0088440813 -0.12245311 0.039146751 1.9826418e-38
0.010578185 -0.12245311 0.039146751 1.7246039e-38
0.012203749 -0.12189974 0.041176409 1.6694683e-38
0.013934296 -0.12189974 0.041176409 1.8908066e-38
0.015664842 -0.12189974 0.041176409 1.3654049e-38
0.017220292 -0.12108697 0.044157416 1.3923806e-39
0.018766373 -0.12027912 0.047120482 5.5400797e-39
0.020486496 -0.12027912 0.047120482 1.8630049e-38
0.022206623 -0.12027912 0.047120482 2.0011527e-38
0.023926746 -0.12027912 0.047120482 1.3002882e-38
0.025646869 -0.12027912 0.047120482 1.1711442e-38
0.027156446 -0.11945029 0.050160497 9.5516707e-41
0.028663386 -0.11865224 0.053087562 2.4018424e-39
0.030222673 -0.11808877 0.055154234 1.3743696e-38
0.031705875 -0.11727346 0.058144659 1.641915e-38
0.033406664 -0.11727346 0.058144659 1.6420575e-38
0.03510746 -0.11727346 0.058144659 1.761875e-38
0.036808256 -0.11727346 0.058144659 1.9553776e-38
0.038509045 -0.11727346 0.058144659 1.9738525e-38
0.040209841 -0.11727346 0.058144659 2.0473566e-38
0.041910637 -0.11727346 0.058144659 2.249754e-38
0.043611437 -0.11727346 0.058144659 2.3234379e-38
0.045049056 -0.11646311 0.061116844 2.222275e-38
0.046744645 -0.11646311 0.061116844 1.9643078e-38
0.048440218 -0.11646311 0.061116844 1.8447067e-38
0.050135806 -0.11646311 0.061116844 1.734181e-38
0.05154033 -0.11563264 0.064162821 1.6696456e-38
0.053042904 -0.11510687 0.066091269 1.1993772e-38
0.054729775 -0.11510687 0.066091269 1.0794163e-38
0.056416631 -0.11510687 0.066091269 6.5085409e-40
0.058103487 -0.11510687 0.066091269 8.6880505e-44
0.059790358 -0.11510687 0.066091269 1.2944256e-39
0.061477214 -0.11510687 0.066091269 3.9680961e-39
0.070824131 -0.11727346 0.058144659 1.3189769e-38
0.07252492 -0.11727346 0.058144659 1.2912834e-38
0.074579641 -0.11808877 0.055154234 1.1437715e-38
0.077250555 -0.12027912 0.047120482 5.4446471e-39
0.079331741 -0.12108697 0.044157416 3.7461612e-40
0.081425548 -0.12189974 0.041176409 3.7461753e-40
0.083410531 -0.12245311 0.039146751 7.0127015e-39
0.0859126 -0.12410025 0.033105344 7.1963669e-39
0.087657303 -0.12410025 0.033105344 6.0903738e-39
0.089787304 -0.1249045 0.030155569 4.7985532e-39
0.091943115 -0.12574057 0.02708897 2.5783892e-42
0.094098836 -0.12655462 0.024103254 1.4993894e-42
0.095859319 -0.12655462 0.024103254 2.4904227e-39
0.097619802 -0.12655462 0.024103254 2.9506847e-39
0.099798933 -0.1273735 0.021099776 2.7773035e-40
0.10197689 -0.12816976 0.018179268 6.4722613e-40
0.10461894 -0.12983195 0.012082666 1.1322492e-42
0.10683055 -0.13064255 0.0091095865 7.7631935e-43
0.10905515 -0.13145791 0.006118983 5.465064e-44
0.11174116 -0.13310309 8.4847212e-05 1.1406569e-42
0.11398429 -0.13390426 -0.002853781 9.2970548e-41
0.11579204 -0.13390426 -0.002853781 4.6242849e-44
0.11806944 -0.13473894 -0.0059151947 1.7517562e-39
0.11988255 -0.13473894 -0.0059151947 4.1491915e-39
-0.11348811 -0.14917539 -0.051919132 5.5185095e-40
-0.11159433 -0.14917539 -0.051919132 4.5964131e-40
-0.1095089 -0.14835359 -0.048924237 9.3114798e-39
-0.10762037 -0.14835359 -0.048924237 1.4936117e-38
-0.10573186 -0.14835359 -0.048924237 1.2630852e-38
-0.10360807 -0.14725454 -0.044918925 1.1247914e-38
-0.10172658 -0.14725454 -0.044918925 1.1340462e-38
-0.099675551 -0.1464123 -0.041849405 1.0971668e-38
-0.097642243 -0.14560573 -0.038910061 1.2631189e-38
-0.095771283 -0.14560573 -0.038910061 1.1893273e-38
-0.093698278 -0.14449625 -0.03486672 1.0325598e-38
-0.091834404 -0.14449625 -0.03486672 2.7648516e-39
-0.089830562 -0.14366965 -0.031854302 2.5801086e-39
-0.08797197 -0.14366965 -0.031854302 1.6585208e-39
-0.086113378 -0.14366965 -0.031854302 5.5289772e-40
-0.08413136 -0.14284773 -0.02885893 1.0149577e-39
-0.082160525 -0.14203046 -0.025880486 8.5479206e-44
-0.08015956 -0.14091791 -0.021825939 1.8889503e-42
-0.078318551 -0.14091791 -0.021825939 3.7283367e-40
-0.076377057 -0.14011143 -0.018886834 6.5014644e-40
-0.074541204 -0.14011143 -0.018886834 2.6232307e-42
-0.072705343 -0.14011143 -0.018886834 1.0229479e-43
-0.070869491 -0.14011143 -0.018886834 2.9550512e-39
-0.069033638 -0.14011143 -0.018886834 7.1935236e-39
-0.067197777 -0.14011143 -0.018886834 1.207917e-38
-0.065361924 -0.14011143 -0.018886834 1.2263563e-38
-0.06345965 -0.13927986 -0.015856296 4.8879126e-39
-0.06156835 -0.13845308 -0.012843162 3.7822881e-39
-0.059743091 -0.13845308 -0.012843162 9.6689594e-44
-0.057867933 -0.13763104 -0.0098474324 1.9057659e-42
-0.056047928 -0.13763104 -0.0098474324 5.6276357e-39
-0.054227918 -0.13763104 -0.0098474324 9.685321e-39
-0.052407913 -0.13763104 -0.0098474324 8.1187085e-39
-0.050549988 -0.13655205 -0.0059151947 5.538663e-39
-0.048736874 -0.13655205 -0.0059151947 8.0286569e-39
-0.046923764 -0.13655205 -0.0059151947 1.2177815e-38
-0.04511065 -0.13655205 -0.0059151947 1.6419527e-38
-0.043289486 -0.13571201 -0.002853781 1.5590121e-38
-0.041481741 -0.13571201 -0.002853781 3.3288321e-39
-0.039676573 -0.13490568 8.4847212e-05 6.9322235e-42
-0.037881941 -0.13407536 0.0031107366 4.6971945e-40
-0.036084652 -0.13407536 0.0031107366 1.2069216e-39
-0.034305826 -0.13324992 0.006118983 1.3100156e-38
-0.032537408 -0.13242932 0.0091095865 1.5312128e-38
-0.030750642 -0.13242932 0.0091095865 1.1899806e-38
-0.028997757 -0.13161351 0.012082666 9.2254092e-39
-0.0272162 -0.13161351 0.012082666 2.2434788e-42
-0.025434643 -0.13161351 0.012082666 3.6840137e-42
-0.023704015 -0.13077454 0.015140146 1.0422512e-38
-0.021927821 -0.13077454 0.015140146 1.2819241e-38
-0.020151624 -0.13077454 0.015140146 9.5001982e-39
-0.018442037 -0.12994061 0.018179268 4.7060283e-39
-0.0167403 -0.12913923 0.021099776 9.2485699e-44
-0.014974553 -0.12913923 0.021099776 6.0886096e-39
-0.013208807 -0.12913923 0.021099776 1.6140805e-38
-0.011529952 -0.12831511 0.024103254 1.5684497e-38
-0.0097694714 -0.12831511 0.024103254 1.4026043e-38
-0.0080089904 -0.12831511 0.024103254 1.218068e-38
-0.0063505955 -0.12749584 0.02708897 1.9093172e-38
-0.0045953505 -0.12749584 0.02708897 2.2224189e-38
-0.0029557049 -0.12665437 0.030155569 2.2407501e-38
-0.0012058355 -0.12665437 0.030155569 2.2589722e-38
0.00054403022 -0.12665437 0.030155569 2.2957052e-38
0.0021671876 -0.12584494 0.033105344 2.3509866e-38
0.0039118826 -0.12584494 0.033105344 2.3509866e-38
0.0055158027 -0.12501357 0.036135226 2.350987e-38
0.0072551854 -0.12501357 0.036135226 2.350988e-38
0.0088440813 -0.12418722 0.039146751 2.2772332e-38
0.010578185 -0.12418722 0.039146751 2.1390488e-38
0.012312289 -0.12418722 0.039146751 2.09306e-38
0.013934296 -0.12363027 0.041176409 2.14852e-38
0.015494972 -0.12281232 0.044157416 1.8721525e-38
0.017220292 -0.12281232 0.044157416 6.4598892e-39
0.018766373 -0.12199925 0.047120482 9.1321108e-39
0.020486496 -0.12199925 0.047120482 2.0010092e-38
0.022206623 -0.12199925 0.047120482 2.1391571e-38
0.023726862 -0.12116508 0.050160497 1.7426466e-38
0.025441658 -0.12116508 0.050160497 1.6135743e-38
0.027156446 -0.12116508 0.050160497 7.8472714e-44
0.028663386 -0.12036191 0.053087562 8.2676609e-44
0.030222673 -0.1197948 0.055154234 1.0147717e-38
0.031928707 -0.1197948 0.055154234 1.3929881e-38
0.033634748 -0.1197948 0.055154234 1.577629e-38
0.03510746 -0.11897425 0.058144659 1.6791147e-38
0.036808256 -0.11897425 0.058144659 1.7897849e-38
0.038509045 -0.11897425 0.058144659 1.9280429e-38
0.040209841 -0.11897425 0.058144659 2.0661192e-38
0.041910637 -0.11897425 0.058144659 2.2316024e-38
0.043353468 -0.11815868 0.061116844 2.240786e-38
0.045049056 -0.11815868 0.061116844 1.946013e-38
0.046744645 -0.11815868 0.061116844 1.6603873e-38
0.048159838 -0.11732288 0.064162821 1.6881548e-38
0.049669191 -0.11679374 0.066091269 1.6237271e-38
0.051356047 -0.11679374 0.066091269 1.6420235e-38
0.053042904 -0.11679374 0.066091269 9.8736373e-39
0.054729775 -0.11679374 0.066091269 6.8297536e-39
0.056416631 -0.11679374 0.066091269 1.2040279e-39
0.058103487 -0.11679374 0.066091269 4.650265e-40
0.059790358 -0.11679374 0.066091269 1.5713741e-39
0.061477214 -0.11679374 0.066091269 2.7702746e-39
0.070824131 -0.11897425 0.058144659 1.3005015e-38
0.07252492 -0.11897425 0.058144659 1.2728079e-38
0.074579641 -0.1197948 0.055154234 1.2727372e-38
0.077250555 -0.12199925 0.047120482 6.2729728e-39
0.079331741 -0.12281232 0.044157416 2.400762e-39
0.081425548 -0.12363027 0.041176409 3.4145566e-39
0.083410531 -0.12418722 0.039146751 8.2090867e-39
0.0859126 -0.12584494 0.033105344 1.069764e-38
0.087657303 -0.12584494 0.033105344 6.9172548e-39
0.089787304 -0.12665437 0.030155569 3.8751494e-39
0.091943115 -0.12749584 0.02708897 5.0446745e-44
0.094098836 -0.12831511 0.024103254 4.7644148e-44
0.095859319 -0.12831511 0.024103254 5.465064e-44
0.097619802 -0.12831511 0.024103254 4.6175587e-40
0.099798933 -0.12913923 0.021099776 5.465064e-44
0.10156468 -0.12913923 0.021099776 4.1338305e-43
0.10418203 -0.13077454 0.015140146 4.9045446e-44
0.10769828 -0.13407536 0.0031107366 7.7351675e-43
0.10993858 -0.13490568 8.4847212e-05 5.3249342e-44
0.11174116 -0.13490568 8.4847212e-05 5.7453237e-44
0.11398429 -0.13571201 -0.002853781 4.9045446e-44
0.11579204 -0.13571201 -0.002853781 4.0637655e-44
0.11806944 -0.13655205 -0.0059151947 2.4882394e-39
0.11988255 -0.13655205 -0.0059151947 5.8079898e-39
-0.10360807 -0.14913605 -0.044918925 1.1245756e-38
-0.10172658 -0.14913605 -0.044918925 1.4749545e-38
-0.099675551 -0.14828841 -0.041849405 1.5394914e-38
-0.097642243 -0.14747669 -0.038910061 1.5948088e-38
-0.095771283 -0.14747669 -0.038910061 1.5578954e-38
-0.093698278 -0.14636014 -0.03486672 1.6131772e-38
-0.091834404 -0.14636014 -0.03486672 1.3550298e-38
-0.089830562 -0.14552824 -0.031854302 1.2536509e-38
-0.08797197 -0.14552824 -0.031854302 1.0970265e-38
-0.086113378 -0.14552824 -0.031854302 8.2969551e-39
-0.08413136 -0.14470108 -0.02885893 9.1281549e-39
-0.082160525 -0.14387859 -0.025880486 9.0374026e-39
-0.08015956 -0.14275892 -0.021825939 1.0513977e-38
-0.078318551 -0.14275892 -0.021825939 1.1897639e-38
-0.076377057 -0.14194728 -0.018886834 7.3811435e-39
-0.074541204 -0.14194728 -0.018886834 1.3895177e-39
-0.072705343 -0.14194728 -0.018886834 1.2976921e-39
-0.070869491 -0.14194728 -0.018886834 9.2250785e-39
-0.069033638 -0.14194728 -0.018886834 1.1065743e-38
-0.067197777 -0.14194728 -0.018886834 1.1616753e-38
-0.065361924 -0.14194728 -0.018886834 1.0417853e-38
-0.063526064 -0.14194728 -0.018886834 1.3837598e-39
-0.061629105 -0.14111041 -0.015856296 3.6997082e-40
-0.059743091 -0.14027832 -0.012843162 2.2644983e-42
-0.057917833 -0.14027832 -0.012843162 9.242208e-40
-0.056047928 -0.13945107 -0.0098474324 1.8468946e-39
-0.054227918 -0.13945107 -0.0098474324 8.7626388e-39
-0.052407913 -0.13945107 -0.0098474324 1.5954971e-38
-0.050549988 -0.13836516 -0.0059151947 1.6509216e-38
-0.048736874 -0.13836516 -0.0059151947 1.807796e-38
-0.046923764 -0.13836516 -0.0059151947 1.7340759e-38
-0.045097232 -0.13751976 -0.002853781 1.3008275e-38
-0.043289486 -0.13751976 -0.002853781 1.0888131e-38
-0.041479167 -0.13670824 8.4847212e-05 7.9789935e-42
-0.039676573 -0.13670824 8.4847212e-05 6.5554143e-40
-0.037873983 -0.13670824 8.4847212e-05 1.8540986e-39
-0.036084652 -0.13587265 0.0031107366 3.4210614e-39
-0.034305826 -0.13504194 0.006118983 1.4391615e-38
-0.032537408 -0.13421609 0.0091095865 1.568091e-38
-0.030750642 -0.13421609 0.0091095865 8.1197875e-39
-0.028997757 -0.13339506 0.012082666 5.0766059e-39
-0.0272162 -0.13339506 0.012082666 5.1245485e-42
-0.025434643 -0.13339506 0.012082666 2.2448801e-42
-0.023704015 -0.13255073 0.015140146 7.1953075e-39
-0.021927821 -0.13255073 0.015140146 1.0515435e-38
-0.020212904 -0.1317115 0.018179268 5.7209061e-39
-0.018506045 -0.13090499 0.021099776 6.5051077e-40
-0.0167403 -0.13090499 0.021099776 5.5904102e-40
-0.014974553 -0.13090499 0.021099776 1.0203835e-39
-0.013208807 -0.13090499 0.021099776 6.5528388e-39
-0.011529952 -0.13007559 0.024103254 8.3067025e-39
-0.0097694714 -0.13007559 0.024103254 1.1718646e-38
-0.0080089904 -0.13007559 0.024103254 1.2270361e-38
-0.0063505955 -0.12925108 0.02708897 1.9460514e-38
-0.0045953505 -0.12925108 0.02708897 2.2316024e-38
-0.0028401054 -0.12925108 0.02708897 2.2867037e-38
-0.0012058355 -0.12840421 0.030155569 2.3234367e-38
0.00054403022 -0.12840421 0.030155569 2.3233636e-38
0.0021671876 -0.12758966 0.033105344 2.3509865e-38
0.0039118826 -0.12758966 0.033105344 2.3509869e-38
0.0055158027 -0.12675296 0.036135226 2.3509517e-38
0.0072551854 -0.12675296 0.036135226 2.3509521e-38
0.0088440813 -0.12592132 0.039146751 2.3416974e-38
0.010578185 -0.12592132 0.039146751 2.3325138e-38
0.012312289 -0.12592132 0.039146751 2.2957796e-38
0.013934296 -0.12536083 0.041176409 2.2313513e-38
0.015494972 -0.12453763 0.044157416 1.89034e-38
0.017220292 -0.12453763 0.044157416 1.1436284e-38
0.018766373 -0.12371938 0.047120482 1.2263878e-38
0.020486496 -0.12371938 0.047120482 1.9638443e-38
0.022206623 -0.12371938 0.047120482 2.1573448e-38
0.023726862 -0.12287988 0.050160497 1.7793444e-38
0.025441658 -0.12287988 0.050160497 1.4566255e-38
0.027156446 -0.12287988 0.050160497 1.851914e-40
0.028663386 -0.12207155 0.053087562 8.1555571e-43
0.030222673 -0.12150083 0.055154234 8.1187085e-39
0.031928707 -0.12150083 0.055154234 1.1809748e-38
0.033634748 -0.12150083 0.055154234 1.6607496e-38
0.035340782 -0.12150083 0.055154234 1.7899653e-38
0.036808256 -0.12067504 0.058144659 1.7255354e-38
0.038509045 -0.12067504 0.058144659 1.8176961e-38
0.03996231 -0.11985429 0.061116844 1.8636504e-38
0.041657891 -0.11985429 0.061116844 1.9463378e-38
0.043353468 -0.11985429 0.061116844 1.9094234e-38
0.045049056 -0.11985429 0.061116844 1.6236894e-38
0.046469599 -0.11901312 0.064162821 1.3011492e-38
0.04798232 -0.11848058 0.066091269 1.393382e-38
0.049669191 -0.11848058 0.066091269 1.5132011e-38
0.051356047 -0.11848058 0.066091269 1.6236931e-38
0.052749544 -0.11764805 0.069106072 7.0163e-39
0.054431111 -0.11764805 0.069106072 2.9571812e-39
0.056112692 -0.11764805 0.069106072 4.6682437e-40
0.057794258 -0.11764805 0.069106072 2.8171704e-40
0.061477214 -0.11848058 0.066091269 2.2178225e-39
0.070824131 -0.12067504 0.058144659 8.8547672e-39
0.07252492 -0.12067504 0.058144659 9.4072361e-39
0.074579641 -0.12150083 0.055154234 9.7756725e-39
0.077606425 -0.12453763 0.044157416 9.1288752e-39
0.079331741 -0.12453763 0.044157416 7.1924166e-39
0.081425548 -0.12536083 0.041176409 9.6809797e-39
0.083410531 -0.12592132 0.039146751 1.0326346e-38
0.08552745 -0.12675296 0.036135226 8.0214472e-39
0.087657303 -0.12758966 0.033105344 3.6886029e-39
0.089787304 -0.12840421 0.030155569 2.1216289e-39
0.091537178 -0.12840421 0.030155569 9.3322274e-41
0.093698367 -0.12925108 0.02708897 2.7663453e-40
0.095859319 -0.13007559 0.024103254 4.2038954e-44
0.097619802 -0.13007559 0.024103254 4.7644148e-44
0.099798933 -0.13090499 0.021099776 5.3249342e-44
0.10156468 -0.13090499 0.021099776 4.7644148e-44
0.10418203 -0.13255073 0.015140146 4.7644148e-44
0.10769828 -0.13587265 0.0031107366 9.2969147e-41
0.10993858 -0.13670824 8.4847212e-05 1.8408718e-40
0.11217654 -0.13751976 -0.002853781 9.1890147e-41
0.11398429 -0.13751976 -0.002853781 4.4841551e-44
0.11579204 -0.13751976 -0.002853781 3.6738542e-40
0.11806944 -0.13836516 -0.0059151947 3.4098328e-39
0.11988255 -0.13836516 -0.0059151947 6.6370316e-39
-0.097642243 -0.14934768 -0.038910061 1.35485e-38
-0.095771283 -0.14934768 -0.038910061 1.2165569e-38
-0.093698278 -0.14822401 -0.03486672 1.35485e-38
-0.091834404 -0.14822401 -0.03486672 1.410275e-38
-0.089830562 -0.14738683 -0.031854302 1.3458098e-38
-0.08797197 -0.14738683 -0.031854302 1.3827953e-38
-0.085984707 -0.14655443 -0.02885893 1.27234e-38
-0.08413136 -0.14655443 -0.02885893 1.2909231e-38
-0.082160525 -0.1457267 -0.025880486 1.2173111e-38
-0.08015956 -0.14459993 -0.021825939 1.0976376e-38
-0.078318551 -0.14459993 -0.021825939 1.2728828e-38
-0.076377057 -0.14378314 -0.018886834 9.1342926e-39
-0.074541204 -0.14378314 -0.018886834 5.1702574e-39
-0.072705343 -0.14378314 -0.018886834 5.7245242e-39
-0.070869491 -0.14378314 -0.018886834 1.0977517e-38
-0.069033638 -0.14378314 -0.018886834 1.263199e-38
-0.067272499 -0.14459993 -0.021825939 1.1247249e-38
-0.065431491 -0.14459993 -0.021825939 1.0325295e-38
-0.063526064 -0.14378314 -0.018886834 1.4752338e-39
-0.061629105 -0.14294095 -0.015856296 9.3886997e-44
-0.059798561 -0.14294095 -0.015856296 4.6180351e-40
-0.057917833 -0.1421036 -0.012843162 9.2349913e-40
-0.056047928 -0.14127107 -0.0098474324 5.5579e-40
-0.054227918 -0.14127107 -0.0098474324 5.535426e-39
-0.052407913 -0.14127107 -0.0098474324 1.623119e-38
-0.050549988 -0.14017828 -0.0059151947 1.8260554e-38
-0.048736874 -0.14017828 -0.0059151947 1.9460155e-38
-0.046923764 -0.14017828 -0.0059151947 1.9185008e-38
-0.045097232 -0.13932751 -0.002853781 1.2455092e-38
-0.043289486 -0.13932751 -0.002853781 9.0438486e-39
-0.041479167 -0.13851084 8.4847212e-05 2.8707841e-40
-0.039676573 -0.13851084 8.4847212e-05 8.0995051e-43
-0.037881941 -0.13766994 0.0031107366 2.3168831e-39
-0.036084652 -0.13766994 0.0031107366 8.308513e-39
-0.034305826 -0.13683395 0.006118983 1.6605004e-38
-0.032537408 -0.13600285 0.0091095865 1.6880152e-38
-0.030750642 -0.13600285 0.0091095865 6.8294116e-39
-0.028997757 -0.13517661 0.012082666 2.3107398e-39
-0.0272162 -0.13517661 0.012082666 5.1273511e-42
-0.025434643 -0.13517661 0.012082666 1.1114749e-39
-0.023704015 -0.13432692 0.015140146 1.0238848e-38
-0.021927821 -0.13432692 0.015140146 1.2728496e-38
-0.020212904 -0.13348235 0.018179268 7.1974823e-39
-0.018506045 -0.13267075 0.021099776 5.5099056e-42
-0.0167403 -0.13267075 0.021099776 7.4524415e-40
-0.014974553 -0.13267075 0.021099776 7.6833195e-42
-0.013290431 -0.13183604 0.024103254 6.2759029e-39
-0.011529952 -0.13183604 0.024103254 7.3789967e-39
-0.0097694714 -0.13183604 0.024103254 1.5306722e-38
-0.0080089904 -0.13183604 0.024103254 1.6874386e-38
-0.0062485114 -0.13183604 0.024103254 2.2405707e-38
-0.0045953505 -0.13100632 0.02708897 2.249826e-38
-0.0028401054 -0.13100632 0.02708897 2.3142537e-38
-0.0010848604 -0.13100632 0.02708897 2.3418038e-38
0.00054403022 -0.13015409 0.030155569 2.2865221e-38
0.0021671876 -0.12933435 0.033105344 2.3418043e-38
0.0039118826 -0.12933435 0.033105344 2.314075e-38
0.0055158027 -0.12849234 0.036135226 2.3141109e-38
0.0072551854 -0.12849234 0.036135226 2.3049632e-38
0.0088440813 -0.12765543 0.039146751 2.2589378e-38
0.010578185 -0.12765543 0.039146751 2.2037289e-38
0.012312289 -0.12765543 0.039146751 2.1024208e-38
0.013934296 -0.12709136 0.041176409 1.9640566e-38
0.015664842 -0.12709136 0.041176409 1.9455123e-38
0.017220292 -0.12626295 0.044157416 1.3737571e-38
0.018766373 -0.12543948 0.047120482 1.4381501e-38
0.020486496 -0.12543948 0.047120482 2.1479101e-38
0.022206623 -0.12543948 0.047120482 2.166349e-38
0.023726862 -0.12459467 0.050160497 1.6592739e-38
0.025441658 -0.12459467 0.050160497 1.1891137e-38
0.027156446 -0.12459467 0.050160497 1.4748512e-39
0.028663386 -0.12378122 0.053087562 1.0164192e-39
0.030222673 -0.1232069 0.055154234 4.52273e-39
0.031928707 -0.1232069 0.055154234 6.2791007e-39
0.033634748 -0.1232069 0.055154234 1.4488079e-38
0.035340782 -0.1232069 0.055154234 1.7533028e-38
0.036808256 -0.12237583 0.058144659 1.6705417e-38
0.03826673 -0.12154986 0.061116844 1.7534476e-38
0.039708633 -0.12070335 0.064162821 1.6888033e-38
0.041398872 -0.12070335 0.064162821 1.8546105e-38
0.043089107 -0.12070335 0.064162821 1.8176251e-38
0.04477936 -0.12070335 0.064162821 1.6610007e-38
0.046295464 -0.12016745 0.066091269 1.3936701e-38
0.04798232 -0.12016745 0.066091269 1.3290978e-38
0.049669191 -0.12016745 0.066091269 1.2460147e-38
0.051356047 -0.12016745 0.066091269 1.3379956e-38
0.052749544 -0.11932962 0.069106072 2.6834711e-39
0.054431111 -0.11932962 0.069106072 8.3704602e-40
0.056112692 -0.11932962 0.069106072 5.590228e-40
0.057794258 -0.11932962 0.069106072 1.8889503e-42
0.070824131 -0.12237583 0.058144659 9.1306296e-39
0.072873607 -0.1232069 0.055154234 1.1526651e-38
0.075170651 -0.12459467 0.050160497 1.1710337e-38
0.077606425 -0.12626295 0.044157416 1.2354642e-38
0.079331741 -0.12626295 0.044157416 1.069369e-38
0.081425548 -0.12709136 0.041176409 9.9554058e-39
0.083156094 -0.12709136 0.041176409 7.466121e-39
0.08552745 -0.12849234 0.036135226 3.409142e-39
0.087657303 -0.12933435 0.033105344 7.3582042e-40
0.089787304 -0.13015409 0.030155569 1.1971489e-39
0.091537178 -0.13015409 0.030155569 4.5993839e-40
0.093698367 -0.13100632 0.02708897 7.3760428e-40
0.095859319 -0.13183604 0.024103254 4.0637655e-44
0.097619802 -0.13183604 0.024103254 4.3440252e-44
0.099798933 -0.13267075 0.021099776 9.2243274e-41
0.10156468 -0.13267075 0.021099776 9.2243274e-41
0.10461894 -0.13517661 0.012082666 4.4841551e-44
0.10683055 -0.13600285 0.0091095865 2.7664014e-40
0.10949557 -0.13766994 0.0031107366 2.7592127e-40
0.11174116 -0.13851084 8.4847212e-05 3.6739664e-40
0.11398429 -0.13932751 -0.002853781 1.8371583e-40
0.11579204 -0.13932751 -0.002853781 8.2800484e-40
0.11759977 -0.13932751 -0.002853781 4.1470349e-39
0.11988255 -0.14017828 -0.0059151947 6.544473e-39
-0.089830562 -0.14924543 -0.031854302 4.2399844e-39
-0.08797197 -0.14924543 -0.031854302 4.3321745e-39
-0.085984707 -0.14840777 -0.02885893 5.1626512e-39
-0.08413136 -0.14840777 -0.02885893 9.0366655e-39
-0.082160525 -0.14757483 -0.025880486 1.1435194e-38
-0.08015956 -0.14644094 -0.021825939 1.1159696e-38
-0.078318551 -0.14644094 -0.021825939 1.300434e-38
-0.076377057 -0.14561899 -0.018886834 1.0331041e-38
-0.074541204 -0.14561899 -0.018886834 8.5804139e-39
-0.072705343 -0.14561899 -0.018886834 9.3179902e-39
-0.070869491 -0.14561899 -0.018886834 1.0791681e-38
-0.069033638 -0.14561899 -0.018886834 1.2078451e-38
-0.067272499 -0.14644094 -0.021825939 5.0704976e-39
-0.065431491 -0.14644094 -0.021825939 3.2265934e-39
-0.063526064 -0.14561899 -0.018886834 1.8414043e-40
-0.061629105 -0.1447715 -0.015856296 1.3826864e-39
-0.059798561 -0.1447715 -0.015856296 2.1213277e-39
-0.057917833 -0.14392884 -0.012843162 1.8593549e-40
-0.056047928 -0.14309107 -0.0098474324 1.8772915e-40
-0.054227918 -0.14309107 -0.0098474324 4.3390394e-39
-0.052407913 -0.14309107 -0.0098474324 1.6970548e-38
-0.050549988 -0.14199139 -0.0059151947 2.1395876e-38
-0.048736874 -0.14199139 -0.0059151947 2.2132353e-38
-0.046923764 -0.14199139 -0.0059151947 2.2224189e-38
-0.045097232 -0.14113526 -0.002853781 1.3098295e-38
-0.043289486 -0.14113526 -0.002853781 6.2769063e-39
-0.041479167 -0.14031343 8.4847212e-05 5.4608601e-42
-0.039676573 -0.14031343 8.4847212e-05 8.0182298e-42
-0.037881941 -0.13946722 0.0031107366 5.6380837e-39
-0.036084652 -0.13946722 0.0031107366 1.1720823e-38
-0.034305826 -0.13862596 0.006118983 1.4853668e-38
-0.032537408 -0.13778962 0.0091095865 1.4943696e-38
-0.030750642 -0.13778962 0.0091095865 6.0918368e-39
-0.028997757 -0.13695817 0.012082666 1.2040363e-39
-0.0272162 -0.13695817 0.012082666 2.9791605e-42
-0.025434643 -0.13695817 0.012082666 1.901562e-42
-0.023653088 -0.13695817 0.012082666 1.2173525e-38
-0.021927821 -0.13610314 0.015140146 1.2634502e-38
-0.020212904 -0.13525321 0.018179268 9.7775166e-39
-0.018506045 -0.13443647 0.021099776 1.4813532e-39
-0.0167403 -0.13443647 0.021099776 4.6900619e-40
-0.014974553 -0.13443647 0.021099776 6.5520652e-40
-0.013290431 -0.13359652 0.024103254 7.1067426e-39
-0.011529952 -0.13359652 0.024103254 9.5906156e-39
-0.0097694714 -0.13359652 0.024103254 1.7609455e-38
-0.0080089904 -0.13359652 0.024103254 1.8255512e-38
-0.0062485114 -0.13359652 0.024103254 2.3142185e-38
-0.0045953505 -0.13276155 0.02708897 2.2865958e-38
-0.0028401054 -0.13276155 0.02708897 2.3326203e-38
-0.0010848604 -0.13276155 0.02708897 2.3509879e-38
0.00054403022 -0.13190396 0.030155569 2.3509883e-38
0.0021671876 -0.13107903 0.033105344 2.3509527e-38
0.0039118826 -0.13107903 0.033105344 2.3141109e-38
0.0055158027 -0.13023172 0.036135226 2.323402e-38
0.0072551854 -0.13023172 0.036135226 2.3142544e-38
0.0089945681 -0.13023172 0.036135226 2.2590096e-38
0.010578185 -0.12938951 0.039146751 1.9917153e-38
0.012312289 -0.12938951 0.039146751 1.6691024e-38
0.013934296 -0.12882192 0.041176409 1.4016646e-38
0.015664842 -0.12882192 0.041176409 1.0327054e-38
0.017220292 -0.12798826 0.044157416 4.9786397e-39
0.018766373 -0.12715961 0.047120482 8.664667e-39
0.020486496 -0.12715961 0.047120482 1.788314e-38
0.022012066 -0.12630944 0.050160497 1.7698735e-38
0.023726862 -0.12630944 0.050160497 1.6039213e-38
0.025441658 -0.12630944 0.050160497 1.336627e-38
0.026953731 -0.12549089 0.053087562 3.4109622e-39
0.028663386 -0.12549089 0.053087562 2.2701035e-42
0.030222673 -0.12491293 0.055154234 2.6302372e-42
0.031928707 -0.12491293 0.055154234 7.2909559e-42
0.033634748 -0.12491293 0.055154234 9.878319e-39
0.035340782 -0.12491293 0.055154234 1.5321073e-38
0.036808256 -0.12407662 0.058144659 1.5968591e-38
0.03826673 -0.12324543 0.061116844 1.7719945e-38
0.039708633 -0.12239362 0.064162821 1.6705448e-38
0.041398872 -0.12239362 0.064162821 1.771851e-38
0.043089107 -0.12239362 0.064162821 1.6888403e-38
0.04477936 -0.12239362 0.064162821 1.7534121e-38
0.046295464 -0.12185432 0.066091269 1.7165344e-38
0.04798232 -0.12185432 0.066091269 1.5228174e-38
0.049669191 -0.12185432 0.066091269 1.172295e-38
0.051067963 -0.12101121 0.069106072 1.2273259e-38
0.052749544 -0.12101121 0.069106072 1.8533616e-39
0.054431111 -0.12101121 0.069106072 9.2485699e-44
0.056112692 -0.12101121 0.069106072 7.4306093e-40
0.057794258 -0.12101121 0.069106072 2.610619e-42
0.068787217 -0.12324543 0.061116844 1.1067476e-38
0.070824131 -0.12407662 0.058144659 1.3739343e-38
0.073114574 -0.12549089 0.053087562 1.0880211e-38
0.075170651 -0.12630944 0.050160497 6.1778849e-39
0.077250555 -0.12715961 0.047120482 1.8432624e-39
0.079331741 -0.12798826 0.044157416 1.5656035e-39
0.081057072 -0.12798826 0.044157416 1.8374806e-40
0.083156094 -0.12882192 0.041176409 5.5109005e-40
0.085144639 -0.12938951 0.039146751 1.1038981e-39
0.087657303 -0.13107903 0.033105344 5.1848043e-44
0.089787304 -0.13190396 0.030155569 1.1971545e-39
0.091537178 -0.13190396 0.030155569 1.8371443e-40
0.093698367 -0.13276155 0.02708897 1.8407597e-40
0.095453605 -0.13276155 0.02708897 4.3440252e-44
0.097619802 -0.13359652 0.024103254 2.762716e-40
0.09938027 -0.13359652 0.024103254 9.2243274e-41
0.10197689 -0.13525321 0.018179268 3.6883577e-40
0.10461894 -0.13695817 0.012082666 4.7644148e-44
0.10683055 -0.13778962 0.0091095865 5.1848043e-44
0.10949557 -0.13946722 0.0031107366 5.0446745e-44
0.11174116 -0.14031343 8.4847212e-05 2.7555834e-40
0.11354375 -0.14031343 8.4847212e-05 3.6738823e-40
0.11579204 -0.14113526 -0.002853781 1.0116744e-39
0.11759977 -0.14113526 -0.002853781 4.4225414e-39
0.11988255 -0.14199139 -0.0059151947 6.2668043e-39
-0.082160525 -0.14942293 -0.025880486 4.4265673e-39
-0.080312409 -0.14942293 -0.025880486 7.8378084e-39
-0.078318551 -0.14828195 -0.021825939 1.1617829e-38
-0.076477543 -0.14828195 -0.021825939 1.0788432e-38
-0.074636534 -0.14828195 -0.021825939 9.8664766e-39
-0.072795525 -0.14828195 -0.021825939 1.0972824e-38
-0.070954517 -0.14828195 -0.021825939 9.8664752e-39
-0.069113508 -0.14828195 -0.021825939 9.774267e-39
-0.067272499 -0.14828195 -0.021825939 2.8592388e-39
-0.065431491 -0.14828195 -0.021825939 8.2956869e-43
-0.063526064 -0.14745484 -0.018886834 1.8630964e-40
-0.061629105 -0.14660202 -0.015856296 1.1986665e-39
-0.059743091 -0.14575411 -0.012843162 1.4752506e-39
-0.057917833 -0.14575411 -0.012843162 3.7141556e-40
-0.056047928 -0.14491107 -0.0098474324 4.7784278e-42
-0.054227918 -0.14491107 -0.0098474324 1.1172272e-39
-0.052407913 -0.14491107 -0.0098474324 1.5407527e-38
-0.050549988 -0.14380451 -0.0059151947 2.1212922e-38
-0.048736874 -0.14380451 -0.0059151947 2.2499695e-38
-0.046904974 -0.14294298 -0.002853781 2.2865961e-38
-0.045097232 -0.14294298 -0.002853781 1.4200321e-38
-0.043281756 -0.14211603 8.4847212e-05 7.1974431e-39
-0.041479167 -0.14211603 8.4847212e-05 1.0170624e-41
-0.039679226 -0.14126451 0.0031107366 9.10844e-42
-0.037881941 -0.14126451 0.0031107366 7.3926748e-39
-0.036084652 -0.14126451 0.0031107366 1.2644199e-38
-0.034305826 -0.14041798 0.006118983 1.6697909e-38
-0.032513816 -0.14041798 0.006118983 1.586455e-38
-0.030750642 -0.13957639 0.0091095865 4.7078107e-39
-0.028963873 -0.13957639 0.0091095865 1.1107701e-39
-0.027177103 -0.13957639 0.0091095865 9.5916077e-41
-0.025434643 -0.13873972 0.012082666 1.1630777e-43
-0.023653088 -0.13873972 0.012082666 1.2171386e-38
-0.021927821 -0.13787933 0.015140146 1.5396771e-38
-0.020212904 -0.13702409 0.018179268 9.4969528e-39
-0.018506045 -0.13620223 0.021099776 2.2163707e-39
-0.0167403 -0.13620223 0.021099776 9.2815144e-40
-0.014974553 -0.13620223 0.021099776 2.1299484e-39
-0.013208807 -0.13620223 0.021099776 6.0936529e-39
-0.011529952 -0.13535701 0.024103254 8.8559274e-39
-0.0097694714 -0.13535701 0.024103254 1.7704519e-38
-0.0080089904 -0.13535701 0.024103254 1.9918257e-38
-0.0062485114 -0.13535701 0.024103254 2.2038723e-38
-0.0045953505 -0.13451682 0.02708897 2.2958863e-38
-0.0028401054 -0.13451682 0.02708897 2.3234367e-38
-0.0010848604 -0.13451682 0.02708897 2.3234018e-38
0.00054403022 -0.13365383 0.030155569 2.3509527e-38
0.0022938997 -0.13365383 0.030155569 2.3509168e-38
0.0039118826 -0.13282375 0.033105344 2.3232227e-38
0.0055158027 -0.13197111 0.036135226 2.3509883e-38
0.0072551854 -0.13197111 0.036135226 2.3234012e-38
0.0089945681 -0.13197111 0.036135226 2.3234379e-38
0.010578185 -0.13112362 0.039146751 2.0192299e-38
0.012312289 -0.13112362 0.039146751 1.7518651e-38
0.013934296 -0.13055246 0.041176409 9.3129105e-39
0.015664842 -0.13055246 0.041176409 8.8523247e-39
0.017220292 -0.12971358 0.044157416 3.228041e-39
0.018766373 -0.12887974 0.047120482 5.0701445e-39
0.020486496 -0.12887974 0.047120482 1.1707134e-38
0.022012066 -0.12802424 0.050160497 1.3182606e-38
0.023726862 -0.12802424 0.050160497 1.3919091e-38
0.025441658 -0.12802424 0.050160497 1.2076624e-38
0.026953731 -0.12720053 0.053087562 2.3975362e-39
0.028663386 -0.12720053 0.053087562 1.9099698e-42
0.030222673 -0.12661897 0.055154234 4.4365109e-42
0.031928707 -0.12661897 0.055154234 5.1497719e-42
0.033634748 -0.12661897 0.055154234 9.1393485e-39
0.035340782 -0.12661897 0.055154234 1.1539292e-38
0.036808256 -0.12577744 0.058144659 1.5321817e-38
0.03826673 -0.12494104 0.061116844 1.5229972e-38
0.039708633 -0.12408386 0.064162821 1.5876059e-38
0.041398872 -0.12408386 0.064162821 1.6428867e-38
0.043089107 -0.12408386 0.064162821 1.6428149e-38
0.04477936 -0.12408386 0.064162821 1.6704373e-38
0.046295464 -0.12354116 0.066091269 1.541292e-38
0.04798232 -0.12354116 0.066091269 1.5596595e-38
0.049669191 -0.12354116 0.066091269 1.1814427e-38
0.051067963 -0.12269278 0.069106072 9.1378953e-39
0.052749544 -0.12269278 0.069106072 1.4824322e-39
0.054431111 -0.12269278 0.069106072 2.9889696e-42
0.056112692 -0.12269278 0.069106072 1.0229479e-43
0.057794258 -0.12269278 0.069106072 3.7211481e-40
0.070824131 -0.12577744 0.058144659 1.170927e-38
0.072873607 -0.12661897 0.055154234 7.8366986e-39
0.074824229 -0.12720053 0.053087562 2.5815533e-39
0.077250555 -0.12887974 0.047120482 7.8472714e-44
0.078970686 -0.12887974 0.047120482 2.7631083e-40
0.081057072 -0.12971358 0.044157416 4.6034616e-40
0.082782388 -0.12971358 0.044157416 7.5670117e-44
0.085144639 -0.13112362 0.039146751 9.191537e-41
0.087657303 -0.13282375 0.033105344 9.2268497e-41
0.08940199 -0.13282375 0.033105344 4.2739603e-43
0.091537178 -0.13365383 0.030155569 6.0255834e-44
0.093698367 -0.13451682 0.02708897 5.465064e-44
0.095453605 -0.13451682 0.02708897 5.3249342e-44
0.097208858 -0.13451682 0.02708897 1.8444451e-40
0.09938027 -0.13535701 0.024103254 9.2970548e-41
0.10156468 -0.13620223 0.021099776 4.6139994e-40
0.10461894 -0.13873972 0.012082666 6.1657132e-44
0.10683055 -0.13957639 0.0091095865 6.1657132e-44
0.10949557 -0.14126451 0.0031107366 5.5107744e-40
0.11129285 -0.14126451 0.0031107366 9.1884542e-41
