# .PCD v0.7 - Point Cloud Data file format
VERSION 0.7
FIELDS x y z rgb
SIZE 4 4 4 4
TYPE F F F F
COUNT 1 1 1 1
WIDTH 947
HEIGHT 1
VIEWPOINT 0 0 0 1 0 0 0
POINTS 947
DATA ascii
0.0961641 -0.12467657 -0.018126164 1.3752658e-38
0.098045595 -0.12467657 -0.018126164 1.4030323e-38
0.09992709 -0.12467657 -0.018126164 1.5044472e-38
0.1018086 -0.12467657 -0.018126164 1.5689118e-38
0.1036901 -0.12467657 -0.018126164 1.144668e-38
0.10610882 -0.12569134 -0.022131477 9.6016929e-39
0.10799735 -0.12569134 -0.022131477 1.1259778e-38
0.10988586 -0.12569134 -0.022131477 1.0152357e-38
0.11219185 -0.12645011 -0.025126372 2.221023e-39
0.11408562 -0.12645011 -0.025126372 2.6791355e-39
0.1159794 -0.12645011 -0.025126372 1.109649e-39
0.11787317 -0.12645011 -0.025126372 1.1078371e-39
0.12034399 -0.12744872 -0.029067907 3.9651674e-39
0.12224468 -0.12744872 -0.029067907 3.6874875e-39
0.12414535 -0.12744872 -0.029067907 3.5952806e-39
0.12862697 -0.13176022 -0.046085391 3.226131e-39
0.13055748 -0.13176022 -0.046085391 3.9644149e-39
-0.12372638 -0.12577499 -0.015056644 1.0971269e-38
-0.12185026 -0.12577499 -0.015056644 8.5738278e-39
-0.11997414 -0.12577499 -0.015056644 9.7713158e-39
-0.11809803 -0.12577499 -0.015056644 1.1707437e-38
-0.11600804 -0.12502514 -0.0121173 9.2181575e-39
-0.11413706 -0.12502514 -0.0121173 2.7554993e-40
-0.11177745 -0.12322514 -0.0050615408 7.3726376e-40
-0.10971666 -0.12246101 -0.0020661689 2.213847e-39
-0.1074009 -0.12066682 0.0049668215 2.584447e-39
-0.10517786 -0.11914389 0.010936465 9.2743818e-40
-0.10315976 -0.11837523 0.013949599 6.9233631e-39
-0.10115329 -0.11761098 0.016945329 1.6422376e-38
-0.099102318 -0.11660783 0.020877566 1.8175172e-38
-0.097114757 -0.11582683 0.02393898 1.7711676e-38
-0.094811447 -0.11353777 0.032911744 1.4109568e-38
-0.092700519 -0.11201639 0.038875427 2.0287074e-39
-0.09076082 -0.11123641 0.041932907 3.5038585e-39
-0.088984616 -0.11123641 0.041932907 1.8483127e-40
-0.087208427 -0.11123641 0.041932907 6.454703e-40
-0.085432231 -0.11123641 0.041932907 1.1075415e-39
-0.083656035 -0.11123641 0.041932907 1.2923013e-39
-0.08174929 -0.11046107 0.044972029 1.2930201e-39
-0.079978421 -0.11046107 0.044972029 1.9183776e-42
-0.078207552 -0.11046107 0.044972029 7.4019948e-40
-0.076436691 -0.11046107 0.044972029 5.5580402e-40
-0.074665822 -0.11046107 0.044972029 2.2156813e-39
-0.072894961 -0.11046107 0.044972029 1.4774002e-39
-0.071124092 -0.11046107 0.044972029 1.2004588e-39
-0.069446474 -0.11123641 0.041932907 1.1911037e-43
-0.067670278 -0.11123641 0.041932907 5.5508795e-40
-0.065894082 -0.11123641 0.041932907 2.1231213e-39
-0.064195618 -0.11201639 0.038875427 7.4126307e-40
-0.062484436 -0.11277486 0.035902347 2.7993599e-40
-0.060697667 -0.11277486 0.035902347 3.7322183e-40
-0.058910899 -0.11277486 0.035902347 1.2955495e-39
-0.057179186 -0.11353777 0.032911744 1.8992359e-40
-0.055387177 -0.11353777 0.032911744 5.5323263e-42
-0.053639997 -0.11430521 0.029903498 6.5125486e-40
-0.051842708 -0.11430521 0.029903498 2.6400463e-42
-0.050045423 -0.11430521 0.029903498 4.7910394e-42
-0.048248135 -0.11430521 0.029903498 5.5796482e-40
-0.04645085 -0.11430521 0.029903498 8.3383284e-40
-0.044672132 -0.11507715 0.026877608 8.3203918e-40
-0.042869538 -0.11507715 0.026877608 4.625434e-40
-0.041058987 -0.11430521 0.029903498 5.533083e-40
-0.039261702 -0.11430521 0.029903498 5.543845e-40
-0.037464414 -0.11430521 0.029903498 3.3533072e-42
-0.035667129 -0.11430521 0.029903498 4.7868356e-42
-0.03386984 -0.11430521 0.029903498 4.6505032e-40
-0.032053985 -0.11507715 0.026877608 5.5652569e-40
-0.030251393 -0.11507715 0.026877608 5.5580682e-40
-0.028448801 -0.11507715 0.026877608 4.6324825e-40
-0.026612718 -0.11582683 0.02393898 7.3910927e-40
-0.024804974 -0.11582683 0.02393898 2.3986292e-39
-0.022951603 -0.11660783 0.020877566 7.8378056e-39
-0.021138493 -0.11660783 0.020877566 1.0880261e-38
-0.019381741 -0.11582683 0.02393898 1.2078805e-38
-0.017573996 -0.11582683 0.02393898 6.2708457e-39
-0.015699156 -0.11660783 0.020877566 4.9808341e-39
-0.013886044 -0.11660783 0.020877566 8.7608633e-39
-0.01207293 -0.11660783 0.020877566 9.2218471e-39
-0.010259818 -0.11660783 0.020877566 2.3064532e-39
-0.0083329473 -0.11761098 0.016945329 1.1060939e-39
-0.0065129399 -0.11761098 0.016945329 4.6000565e-40
-0.0046929345 -0.11761098 0.016945329 8.2808892e-40
-0.0028729253 -0.11761098 0.016945329 3.6748071e-40
-0.0010529198 -0.11761098 0.016945329 8.277484e-40
0.0007670857 -0.11761098 0.016945329 1.4012985e-43
0.0025870949 -0.11761098 0.016945329 1.0142865e-39
0.0045305341 -0.11837523 0.013949599 4.625434e-40
0.0063557923 -0.11837523 0.013949599 1.1911037e-43
0.0081810541 -0.11837523 0.013949599 1.9197789e-42
0.010006312 -0.11837523 0.013949599 1.0182381e-39
0.01183157 -0.11837523 0.013949599 7.5652082e-39
0.013656832 -0.11837523 0.013949599 8.3027719e-39
0.01548209 -0.11837523 0.013949599 6.8287138e-39
0.017307349 -0.11837523 0.013949599 4.9851529e-39
0.019132607 -0.11837523 0.013949599 3.3491033e-42
0.021129567 -0.11914389 0.010936465 9.4909945e-42
0.022960108 -0.11914389 0.010936465 3.0584264e-39
0.02497397 -0.11991702 0.0079059266 4.2551409e-39
0.026809823 -0.11991702 0.0079059266 6.9255631e-39
0.028645683 -0.11991702 0.0079059266 5.9074553e-39
0.030481536 -0.11991702 0.0079059266 6.3651965e-39
0.032317389 -0.11991702 0.0079059266 3.5971696e-39
0.034356799 -0.12066682 0.0049668215 1.6610502e-39
0.036197808 -0.12066682 0.0049668215 4.6392368e-40
0.038038816 -0.12066682 0.0049668215 6.0255834e-44
0.039879825 -0.12066682 0.0049668215 4.6501809e-40
0.041720834 -0.12066682 0.0049668215 2.9833644e-42
0.043878194 -0.12170117 0.00091227517 1.2891946e-43
0.045726307 -0.12170117 0.00091227517 1.7536578e-39
0.047817267 -0.12246101 -0.0020661689 5.2570791e-39
0.049920075 -0.12322514 -0.0050615408 9.7768089e-39
0.052034833 -0.12399365 -0.0080739595 8.9499111e-39
0.0538987 -0.12399365 -0.0080739595 7.8453586e-39
0.055762567 -0.12399365 -0.0080739595 8.3059851e-39
0.057626449 -0.12399365 -0.0080739595 1.4483455e-38
0.059490316 -0.12399365 -0.0080739595 1.5405044e-38
0.061354198 -0.12399365 -0.0080739595 1.4114659e-38
0.063218065 -0.12399365 -0.0080739595 1.2454763e-38
0.065081947 -0.12399365 -0.0080739595 9.7807256e-39
0.066945814 -0.12399365 -0.0080739595 1.1530649e-38
0.069217332 -0.12502514 -0.0121173 1.3742634e-38
0.071088292 -0.12502514 -0.0121173 1.0697675e-38
0.072959252 -0.12502514 -0.0121173 9.6689594e-44
0.074830212 -0.12502514 -0.0121173 2.3971901e-39
0.076265179 -0.12399365 -0.0080739595 1.5949215e-38
0.078129061 -0.12399365 -0.0080739595 1.9360428e-38
0.080443107 -0.12502514 -0.0121173 1.7332127e-38
0.082314067 -0.12502514 -0.0121173 1.1156111e-38
0.084185027 -0.12502514 -0.0121173 7.8472714e-44
0.086398713 -0.12577499 -0.015056644 3.6770072e-42
0.088274829 -0.12577499 -0.015056644 6.0925402e-39
0.0905196 -0.12655805 -0.018126164 8.1237154e-39
0.092401095 -0.12655805 -0.018126164 1.1168681e-38
0.094282605 -0.12655805 -0.018126164 1.4030338e-38
0.0961641 -0.12655805 -0.018126164 1.3202371e-38
0.098045595 -0.12655805 -0.018126164 1.3848454e-38
0.09992709 -0.12655805 -0.018126164 1.3848454e-38
0.1018086 -0.12655805 -0.018126164 1.4953362e-38
0.1036901 -0.12655805 -0.018126164 1.3015816e-38
0.10557159 -0.12655805 -0.018126164 1.2000228e-38
0.10799735 -0.12757985 -0.022131477 1.1721843e-38
0.10988586 -0.12757985 -0.022131477 9.5077092e-39
0.11177439 -0.12757985 -0.022131477 1.9447991e-39
0.11366291 -0.12757985 -0.022131477 9.6940426e-41
0.11555143 -0.12757985 -0.022131477 1.8589766e-40
0.11743995 -0.12757985 -0.022131477 1.8446861e-39
0.11976694 -0.1283439 -0.025126372 6.084948e-39
0.12224468 -0.12934943 -0.029067907 6.1767667e-39
0.12669644 -0.13369073 -0.046085391 6.0845598e-39
0.12862697 -0.13369073 -0.046085391 5.7161319e-39
0.13055748 -0.13369073 -0.046085391 6.5462527e-39
-0.11997414 -0.12765111 -0.015056644 8.2047104e-39
-0.11809803 -0.12765111 -0.015056644 1.0969874e-38
-0.11600804 -0.1268961 -0.0121173 1.0140114e-38
-0.11413706 -0.1268961 -0.0121173 3.6875085e-39
-0.11177745 -0.12508373 -0.0050615408 8.3053839e-40
-0.10971666 -0.12431435 -0.0020661689 2.3071244e-39
-0.1074009 -0.12250783 0.0049668215 3.2305353e-39
-0.10517786 -0.12097444 0.010936465 8.3596141e-40
-0.10315976 -0.12020047 0.013949599 5.0801694e-39
-0.10115329 -0.11943097 0.016945329 1.5870284e-38
-0.099102318 -0.11842094 0.020877566 1.8267729e-38
-0.097114757 -0.11763458 0.02393898 1.5684814e-38
-0.094811447 -0.11532979 0.032911744 1.4387597e-38
-0.092700519 -0.11379795 0.038875427 2.3070964e-39
-0.09076082 -0.1130126 0.041932907 3.136155e-39
-0.088984616 -0.1130126 0.041932907 1.862704e-40
-0.087208427 -0.1130126 0.041932907 7.3910507e-40
-0.085432231 -0.1130126 0.041932907 9.2387047e-40
-0.083520152 -0.11223195 0.044972029 1.0164332e-39
-0.08174929 -0.11223195 0.044972029 1.1093477e-39
-0.079978421 -0.11223195 0.044972029 1.2015378e-39
-0.078207552 -0.11223195 0.044972029 1.6628704e-39
-0.076436691 -0.11223195 0.044972029 1.5710279e-39
-0.074665822 -0.11223195 0.044972029 9.2493826e-40
-0.072894961 -0.11223195 0.044972029 1.2933578e-39
-0.071124092 -0.11223195 0.044972029 4.6359998e-40
-0.069446474 -0.1130126 0.041932907 1.0369609e-43
-0.067670278 -0.1130126 0.041932907 1.1082407e-39
-0.065894082 -0.1130126 0.041932907 6.5861028e-44
-0.064195618 -0.11379795 0.038875427 2.5855036e-39
-0.062484436 -0.11456163 0.035902347 2.6769943e-39
-0.060697667 -0.11456163 0.035902347 1.1104015e-39
-0.058910899 -0.11456163 0.035902347 5.5724595e-40
-0.05712413 -0.11456163 0.035902347 4.6542027e-40
-0.055337362 -0.11456163 0.035902347 2.6456515e-42
-0.053595163 -0.11532979 0.032911744 6.505346e-40
-0.051842708 -0.1161025 0.029903498 3.7176448e-42
-0.050045423 -0.1161025 0.029903498 1.891837e-40
-0.048248135 -0.1161025 0.029903498 9.263844e-40
-0.04645085 -0.1161025 0.029903498 1.3862807e-39
-0.044672132 -0.11687975 0.026877608 1.2930061e-39
-0.042869538 -0.11687975 0.026877608 9.231446e-40
-0.041058987 -0.1161025 0.029903498 1.1068226e-39
-0.039261702 -0.1161025 0.029903498 1.3841284e-39
-0.037464414 -0.1161025 0.029903498 8.3274403e-40
-0.035667129 -0.1161025 0.029903498 4.6468038e-40
-0.03386984 -0.1161025 0.029903498 3.3491033e-42
-0.032053985 -0.11687975 0.026877608 9.2458934e-40
-0.030251393 -0.11687975 0.026877608 9.2459074e-40
-0.028448801 -0.11687975 0.026877608 1.915575e-42
-0.026612718 -0.11763458 0.02393898 5.5436769e-40
-0.024804974 -0.11763458 0.02393898 1.0089349e-43
-0.02299723 -0.11763458 0.02393898 1.7532612e-39
-0.021189485 -0.11763458 0.02393898 7.3771932e-39
-0.019381741 -0.11763458 0.02393898 9.682084e-39
-0.017573996 -0.11763458 0.02393898 7.0094897e-39
-0.015766252 -0.11763458 0.02393898 6.1800934e-39
-0.013886044 -0.11842094 0.020877566 8.6697411e-39
-0.01207293 -0.11842094 0.020877566 9.2225604e-39
-0.010259818 -0.11842094 0.020877566 1.2011776e-39
-0.0083329473 -0.11943097 0.016945329 1.0930128e-43
-0.0065129399 -0.11943097 0.016945329 4.6073012e-40
-0.0046929345 -0.11943097 0.016945329 1.2897803e-39
-0.0028729253 -0.11943097 0.016945329 1.8451738e-40
-0.0010529198 -0.11943097 0.016945329 4.6074974e-40
0.0007670857 -0.11943097 0.016945329 2.7672422e-40
0.0025870949 -0.11943097 0.016945329 4.6219448e-40
0.0045305341 -0.12020047 0.013949599 1.5722569e-42
0.0063557923 -0.12020047 0.013949599 1.6621698e-39
0.0081810541 -0.12020047 0.013949599 1.6628901e-39
0.010006312 -0.12020047 0.013949599 2.5855638e-39
0.01183157 -0.12020047 0.013949599 8.3027719e-39
0.013656832 -0.12020047 0.013949599 7.8425126e-39
0.01548209 -0.12020047 0.013949599 3.8788194e-39
0.017307349 -0.12020047 0.013949599 1.2051461e-39
0.019132607 -0.12020047 0.013949599 4.807855e-42
0.021129567 -0.12097444 0.010936465 4.1030019e-42
0.022960108 -0.12097444 0.010936465 4.9909445e-39
0.02497397 -0.12175287 0.0079059266 4.9891172e-39
0.026809823 -0.12175287 0.0079059266 4.525967e-39
0.028645683 -0.12175287 0.0079059266 3.6929694e-39
0.030481536 -0.12175287 0.0079059266 5.6261979e-39
0.032317389 -0.12175287 0.0079059266 3.7801245e-39
0.034356799 -0.12250783 0.0049668215 2.5815673e-39
0.036197808 -0.12250783 0.0049668215 6.0255834e-44
0.038038816 -0.12250783 0.0049668215 1.3855142e-39
0.039879825 -0.12250783 0.0049668215 1.939058e-39
0.041720834 -0.12250783 0.0049668215 9.551951e-41
0.043878194 -0.1235493 0.00091227517 1.8665576e-40
0.045726307 -0.1235493 0.00091227517 5.3496138e-39
0.047817267 -0.12431435 -0.0020661689 1.097317e-38
0.050170951 -0.12585752 -0.0080739595 1.4016332e-38
0.052034833 -0.12585752 -0.0080739595 1.3556059e-38
0.0538987 -0.12585752 -0.0080739595 1.2818491e-38
0.055762567 -0.12585752 -0.0080739595 1.392449e-38
0.057626449 -0.12585752 -0.0080739595 1.715206e-38
0.059862517 -0.1268961 -0.0121173 1.7981095e-38
0.061733477 -0.1268961 -0.0121173 1.8442427e-38
0.063604437 -0.1268961 -0.0121173 1.6230437e-38
0.065081947 -0.12585752 -0.0080739595 1.318726e-38
0.066945814 -0.12585752 -0.0080739595 1.4661316e-38
0.069217332 -0.1268961 -0.0121173 1.6965139e-38
0.071088292 -0.1268961 -0.0121173 1.6132877e-38
0.072959252 -0.1268961 -0.0121173 1.7485668e-39
0.074830212 -0.1268961 -0.0121173 4.4218772e-39
0.076701187 -0.1268961 -0.0121173 1.8526718e-38
0.078572147 -0.1268961 -0.0121173 2.0186221e-38
0.080443107 -0.1268961 -0.0121173 1.5393489e-38
0.082314067 -0.1268961 -0.0121173 1.1063195e-38
0.084185027 -0.1268961 -0.0121173 1.1686829e-42
0.086398713 -0.12765111 -0.015056644 3.6840137e-42
0.088638104 -0.12843956 -0.018126164 3.1408466e-39
0.0905196 -0.12843956 -0.018126164 8.2151977e-39
0.092401095 -0.12843956 -0.018126164 1.1813338e-38
0.094282605 -0.12843956 -0.018126164 1.3014038e-38
0.0961641 -0.12843956 -0.018126164 1.2554852e-38
0.098045595 -0.12843956 -0.018126164 1.3661916e-38
0.09992709 -0.12843956 -0.018126164 1.3109098e-38
0.1018086 -0.12843956 -0.018126164 1.329277e-38
0.1036901 -0.12843956 -0.018126164 1.2461571e-38
0.10557159 -0.12843956 -0.018126164 1.2459776e-38
0.10799735 -0.1294684 -0.022131477 1.135199e-38
0.10988586 -0.1294684 -0.022131477 8.6768779e-39
0.11177439 -0.1294684 -0.022131477 8.3773826e-40
0.11309759 -0.12843956 -0.018126164 6.4459729e-44
0.11497908 -0.12843956 -0.018126164 6.5861028e-44
0.11743995 -0.1294684 -0.022131477 2.3982158e-39
0.11932848 -0.1294684 -0.022131477 7.0990971e-39
0.12166072 -0.13023765 -0.025126372 7.0983614e-39
0.12414535 -0.1312501 -0.029067907 6.7295677e-39
0.12802839 -0.13460748 -0.04213861 6.0849144e-39
0.12995198 -0.13460748 -0.04213861 7.0072308e-39
-0.12508616 -0.13393532 -0.032101545 8.666378e-39
-0.12318016 -0.13393532 -0.032101545 4.5175831e-39
-0.11832676 -0.13032107 -0.018126164 8.1121729e-39
-0.11622191 -0.12952723 -0.015056644 1.1246824e-38
-0.11413706 -0.12876706 -0.0121173 1.0602901e-38
-0.11177745 -0.12694232 -0.0050615408 9.0363124e-39
-0.1095156 -0.1253974 0.00091227517 5.8109185e-39
-0.1074009 -0.12434883 0.0049668215 2.9543085e-39
-0.10517786 -0.12280498 0.010936465 4.0427461e-42
-0.10315976 -0.12202574 0.013949599 2.4075779e-39
-0.10115329 -0.121251 0.016945329 1.540895e-38
-0.099102318 -0.12023406 0.020877566 1.9005642e-38
-0.096947305 -0.11868234 0.026877608 1.5501148e-38
-0.094646275 -0.1163484 0.035902347 1.282243e-38
-0.092700519 -0.1155795 0.038875427 1.8479161e-39
-0.09076082 -0.11478879 0.041932907 2.2170756e-39
-0.088832758 -0.11400281 0.044972029 2.7990797e-40
-0.087061889 -0.11400281 0.044972029 8.3274263e-40
-0.085291021 -0.11400281 0.044972029 5.5652569e-40
-0.083520152 -0.11400281 0.044972029 1.8739144e-40
-0.08174929 -0.11400281 0.044972029 1.8739144e-40
-0.079978421 -0.11400281 0.044972029 8.3275524e-40
-0.078207552 -0.11400281 0.044972029 5.5652008e-40
-0.076436691 -0.11400281 0.044972029 1.1100456e-39
-0.074665822 -0.11400281 0.044972029 1.887549e-42
-0.072894961 -0.11400281 0.044972029 1.5702937e-39
-0.071124092 -0.11400281 0.044972029 1.1616764e-42
-0.069446474 -0.11478879 0.041932907 2.7882897e-40
-0.067670278 -0.11478879 0.041932907 2.2149232e-39
-0.065894082 -0.11478879 0.041932907 1.0236275e-38
-0.064195618 -0.1155795 0.038875427 1.8257648e-38
-0.062484436 -0.1163484 0.035902347 1.7243516e-38
-0.060697667 -0.1163484 0.035902347 7.8402985e-39
-0.058910899 -0.1163484 0.035902347 1.1672816e-42
-0.05712413 -0.1163484 0.035902347 1.9057659e-42
-0.055337362 -0.1163484 0.035902347 3.7285609e-40
-0.053595163 -0.1171218 0.032911744 1.2026196e-39
-0.051803149 -0.1171218 0.032911744 9.6267803e-41
-0.050011139 -0.1171218 0.032911744 4.0651668e-42
-0.048248135 -0.11789979 0.029903498 2.2602944e-42
-0.04645085 -0.11789979 0.029903498 1.1714855e-42
-0.044653561 -0.11789979 0.029903498 9.4085981e-41
-0.042856276 -0.11789979 0.029903498 5.547026e-40
-0.041058987 -0.11789979 0.029903498 1.8484248e-40
-0.039261702 -0.11789979 0.029903498 8.1275311e-44
-0.037464414 -0.11789979 0.029903498 6.4833876e-40
-0.035667129 -0.11789979 0.029903498 1.2940711e-39
-0.03386984 -0.11789979 0.029903498 2.7684879e-39
-0.032053985 -0.11868234 0.026877608 1.569593e-39
-0.030251393 -0.11868234 0.026877608 3.7069809e-40
-0.028448801 -0.11868234 0.026877608 3.696219e-40
-0.026646208 -0.11868234 0.026877608 1.4759695e-39
-0.024843618 -0.11868234 0.026877608 8.3937778e-43
-0.02299723 -0.11944233 0.02393898 1.1350518e-43
-0.021189485 -0.11944233 0.02393898 1.6617914e-39
-0.01943584 -0.11868234 0.026877608 3.1369187e-39
-0.017633248 -0.11868234 0.026877608 8.3005901e-39
-0.015766252 -0.11944233 0.02393898 1.1251569e-38
-0.013958506 -0.11944233 0.02393898 1.088351e-38
-0.01207293 -0.12023406 0.020877566 8.5786217e-39
-0.010259818 -0.12023406 0.020877566 1.1070258e-43
-0.0084467065 -0.12023406 0.020877566 5.5401316e-40
-0.0065129399 -0.121251 0.016945329 6.4548992e-40
-0.0046929345 -0.121251 0.016945329 1.106824e-39
-0.0028729253 -0.121251 0.016945329 4.6181472e-40
-0.0010529198 -0.121251 0.016945329 9.2279568e-40
0.00088001415 -0.12202574 0.013949599 6.4693746e-40
0.002705276 -0.12202574 0.013949599 1.3592595e-43
0.0045305341 -0.12202574 0.013949599 1.3732725e-43
0.0063557923 -0.12202574 0.013949599 1.0171703e-39
0.0081810541 -0.12202574 0.013949599 6.6418198e-39
0.010006312 -0.12202574 0.013949599 9.6857063e-39
0.01183157 -0.12202574 0.013949599 9.5942268e-39
0.013656832 -0.12202574 0.013949599 6.5524926e-39
0.01548209 -0.12202574 0.013949599 5.8868548e-42
0.017307349 -0.12202574 0.013949599 4.0959954e-42
0.019132607 -0.12202574 0.013949599 4.7089626e-39
0.021129567 -0.12280498 0.010936465 6.4628418e-39
0.022960108 -0.12280498 0.010936465 7.2929514e-39
0.02497397 -0.12358873 0.0079059266 4.8025651e-39
0.026809823 -0.12358873 0.0079059266 8.1194386e-39
0.028645683 -0.12358873 0.0079059266 1.1804027e-38
0.030481536 -0.12358873 0.0079059266 1.6503842e-38
0.032317389 -0.12358873 0.0079059266 1.4196794e-38
0.034356799 -0.12434883 0.0049668215 1.0232728e-38
0.036197808 -0.12434883 0.0049668215 9.6813301e-39
0.038038816 -0.12434883 0.0049668215 1.6597073e-38
0.039879825 -0.12434883 0.0049668215 1.5122669e-38
0.042030077 -0.1253974 0.00091227517 1.0789122e-38
0.043878194 -0.1253974 0.00091227517 1.0604379e-38
0.045726307 -0.1253974 0.00091227517 1.7242462e-38
0.047817267 -0.12616767 -0.0020661689 2.222096e-38
0.050170951 -0.12772138 -0.0080739595 2.1667795e-38
0.052034833 -0.12772138 -0.0080739595 2.0191233e-38
0.0538987 -0.12772138 -0.0080739595 1.9729175e-38
0.055762567 -0.12772138 -0.0080739595 2.1480536e-38
0.057626449 -0.12772138 -0.0080739595 2.2679779e-38
0.059862517 -0.12876706 -0.0121173 2.2956362e-38
0.061354198 -0.12772138 -0.0080739595 2.3233303e-38
0.063218065 -0.12772138 -0.0080739595 2.1389774e-38
0.065081947 -0.12772138 -0.0080739595 1.8623903e-38
0.066945814 -0.12772138 -0.0080739595 2.074333e-38
0.069217332 -0.12876706 -0.0121173 2.0741906e-38
0.071088292 -0.12876706 -0.0121173 2.1385831e-38
0.072959252 -0.12876706 -0.0121173 1.0321307e-38
0.074830212 -0.12876706 -0.0121173 1.0965958e-38
0.076701187 -0.12876706 -0.0121173 1.8156846e-38
0.078572147 -0.12876706 -0.0121173 1.9355372e-38
0.080443107 -0.12876706 -0.0121173 1.5853383e-38
0.082314067 -0.12876706 -0.0121173 1.1523096e-38
0.084522597 -0.12952723 -0.015056644 3.7031274e-40
0.086398713 -0.12952723 -0.015056644 7.9874012e-44
0.088274829 -0.12952723 -0.015056644 7.7071416e-44
0.090150945 -0.12952723 -0.015056644 2.4054423e-39
0.092027061 -0.12952723 -0.015056644 8.3088367e-39
0.093903176 -0.12952723 -0.015056644 9.9705118e-39
0.095779292 -0.12952723 -0.015056644 1.1538554e-38
0.097655408 -0.12952723 -0.015056644 1.0064858e-38
0.099531524 -0.12952723 -0.015056644 9.7882702e-39
0.10140764 -0.12952723 -0.015056644 8.6808436e-39
0.1036901 -0.13032107 -0.018126164 7.4815815e-39
0.10557159 -0.13032107 -0.018126164 8.4935769e-39
0.10745309 -0.13032107 -0.018126164 8.3077465e-39
0.1093346 -0.13032107 -0.018126164 6.3705593e-39
0.11121609 -0.13032107 -0.018126164 7.8052324e-43
0.11309759 -0.13032107 -0.018126164 7.8893104e-43
0.11497908 -0.13032107 -0.018126164 1.1462621e-42
0.11743995 -0.13135691 -0.022131477 2.2138246e-39
0.11932848 -0.13135691 -0.022131477 6.4537277e-39
0.12166072 -0.13213144 -0.025126372 6.0842095e-39
0.12355448 -0.13213144 -0.025126372 5.5310245e-39
0.12604603 -0.13315077 -0.029067907 4.8863712e-39
0.12995198 -0.13653107 -0.04213861 5.9927187e-39
-0.12508616 -0.13584132 -0.032101545 8.0213715e-39
-0.12318016 -0.13584132 -0.032101545 3.6878224e-39
-0.12104278 -0.13505147 -0.029067907 2.7648151e-39
-0.11832676 -0.13220255 -0.018126164 4.6087417e-39
-0.11622191 -0.13140334 -0.015056644 8.5738769e-39
-0.11413706 -0.13063805 -0.0121173 1.180217e-38
-0.11177745 -0.12880091 -0.0050615408 1.1526313e-38
-0.1095156 -0.12724553 0.00091227517 5.5354134e-39
-0.1074009 -0.12618984 0.0049668215 1.6646515e-39
-0.10517786 -0.12463553 0.010936465 4.7644148e-42
-0.10315976 -0.12385099 0.013949599 1.6703786e-39
-0.10091542 -0.12204717 0.020877566 1.402638e-38
-0.098922499 -0.12125005 0.02393898 1.6978085e-38
-0.096603461 -0.11891381 0.032911744 1.3473209e-38
-0.094646275 -0.11813517 0.035902347 1.033459e-38
-0.092537008 -0.11656497 0.041932907 8.3592498e-40
-0.09076082 -0.11656497 0.041932907 1.2040054e-39
-0.088832758 -0.11577369 0.044972029 4.3986759e-42
-0.087061889 -0.11577369 0.044972029 1.8917109e-40
-0.085291021 -0.11577369 0.044972029 2.8065906e-40
-0.083520152 -0.11577369 0.044972029 3.7204474e-42
-0.08174929 -0.11577369 0.044972029 1.8811171e-40
-0.079978421 -0.11577369 0.044972029 7.4091694e-40
-0.078207552 -0.11577369 0.044972029 3.3420968e-42
-0.076436691 -0.11577369 0.044972029 3.7211481e-40
-0.074665822 -0.11577369 0.044972029 6.0882298e-39
-0.072894961 -0.11577369 0.044972029 7.2864045e-39
-0.071124092 -0.11577369 0.044972029 4.1513859e-39
-0.069446474 -0.11656497 0.041932907 3.2297828e-39
-0.067670278 -0.11656497 0.041932907 6.6406455e-39
-0.065894082 -0.11656497 0.041932907 1.4938221e-38
-0.064195618 -0.11736105 0.038875427 2.2498618e-38
-0.062484436 -0.11813517 0.035902347 2.2867037e-38
-0.060697667 -0.11813517 0.035902347 1.4938254e-38
-0.058910899 -0.11813517 0.035902347 2.2149232e-39
-0.05712413 -0.11813517 0.035902347 2.6036125e-42
-0.055337362 -0.11813517 0.035902347 5.5651167e-40
-0.053550594 -0.11813517 0.035902347 5.5615574e-40
-0.051803149 -0.11891381 0.032911744 2.7956885e-40
-0.050011139 -0.11891381 0.032911744 3.3350903e-42
-0.048219126 -0.11891381 0.032911744 1.1630777e-42
-0.04645085 -0.11969708 0.029903498 1.8698787e-40
-0.044653561 -0.11969708 0.029903498 3.5049417e-39
-0.042856276 -0.11969708 0.029903498 6.6388729e-39
-0.041058987 -0.11969708 0.029903498 6.6385099e-39
-0.039261702 -0.11969708 0.029903498 4.5187293e-39
-0.037464414 -0.11969708 0.029903498 1.753945e-39
-0.035667129 -0.11969708 0.029903498 7.1938529e-39
-0.033856578 -0.12048493 0.026877608 1.3462807e-38
-0.032053985 -0.12048493 0.026877608 7.3771904e-39
-0.030251393 -0.12048493 0.026877608 2.3982803e-39
-0.028448801 -0.12048493 0.026877608 2.1213417e-39
-0.026646208 -0.12048493 0.026877608 1.9365973e-39
-0.024843618 -0.12048493 0.026877608 3.6927157e-40
-0.023041025 -0.12048493 0.026877608 1.2471556e-43
-0.021238433 -0.12048493 0.026877608 1.1210388e-43
-0.01943584 -0.12048493 0.026877608 2.2715048e-42
-0.017633248 -0.12048493 0.026877608 8.7630101e-39
-0.015766252 -0.12125005 0.02393898 1.2359713e-38
-0.013958506 -0.12125005 0.02393898 9.5945645e-39
-0.01207293 -0.12204717 0.020877566 6.6443043e-39
-0.010259818 -0.12204717 0.020877566 1.0509738e-43
-0.0084467065 -0.12204717 0.020877566 1.8631945e-40
-0.0065129399 -0.123071 0.016945329 1.3032076e-43
-0.0046929345 -0.123071 0.016945329 4.6181472e-40
-0.0028729253 -0.123071 0.016945329 5.5544108e-40
-0.0010529198 -0.123071 0.016945329 6.4799965e-40
0.00088001415 -0.12385099 0.013949599 9.5193007e-41
0.002705276 -0.12385099 0.013949599 1.3172206e-43
0.0045305341 -0.12385099 0.013949599 1.6629041e-39
0.0063557923 -0.12385099 0.013949599 2.8614473e-39
0.0081810541 -0.12385099 0.013949599 9.4087705e-39
0.010006312 -0.12385099 0.013949599 1.0608381e-38
0.01183157 -0.12385099 0.013949599 4.063205e-39
0.013656832 -0.12385099 0.013949599 3.2345262e-39
0.01548209 -0.12385099 0.013949599 4.8765187e-43
0.017307349 -0.12385099 0.013949599 3.7498747e-42
0.019299023 -0.12463553 0.010936465 6.7369147e-39
0.021129567 -0.12463553 0.010936465 7.0152855e-39
0.022960108 -0.12463553 0.010936465 5.0780842e-39
0.02497397 -0.12542458 0.0079059266 5.537605e-39
0.026809823 -0.12542458 0.0079059266 1.2265001e-38
0.028645683 -0.12542458 0.0079059266 1.3276995e-38
0.030481536 -0.12542458 0.0079059266 1.6593881e-38
0.032317389 -0.12542458 0.0079059266 1.4472302e-38
0.034356799 -0.12618984 0.0049668215 8.6639664e-39
0.036197808 -0.12618984 0.0049668215 8.6661089e-39
0.038038816 -0.12618984 0.0049668215 1.6964783e-38
0.039879825 -0.12618984 0.0049668215 1.6135742e-38
0.042030077 -0.12724553 0.00091227517 1.4015242e-38
0.043878194 -0.12724553 0.00091227517 1.3554265e-38
0.045726307 -0.12724553 0.00091227517 1.8256591e-38
0.048061483 -0.12880091 -0.0050615408 2.2405707e-38
0.050170951 -0.12958528 -0.0080739595 2.323402e-38
0.052034833 -0.12958528 -0.0080739595 2.3508091e-38
0.0538987 -0.12958528 -0.0080739595 2.2400301e-38
0.055762567 -0.12958528 -0.0080739595 2.3506657e-38
0.057626449 -0.12958528 -0.0080739595 2.3507374e-38
0.059862517 -0.13063805 -0.0121173 2.3507374e-38
0.061354198 -0.12958528 -0.0080739595 2.3508809e-38
0.063218065 -0.12958528 -0.0080739595 2.3509168e-38
0.065081947 -0.12958528 -0.0080739595 2.2494666e-38
0.066945814 -0.12958528 -0.0080739595 2.1202496e-38
0.068809696 -0.12958528 -0.0080739595 2.1109599e-38
0.070673563 -0.12958528 -0.0080739595 2.1477308e-38
0.072537445 -0.12958528 -0.0080739595 1.3363399e-38
0.074401312 -0.12958528 -0.0080739595 1.3179007e-38
0.076265179 -0.12958528 -0.0080739595 1.7880256e-38
0.078572147 -0.13063805 -0.0121173 1.9909263e-38
0.080443107 -0.13063805 -0.0121173 1.5116178e-38
0.082314067 -0.13063805 -0.0121173 1.4749946e-38
0.084522597 -0.13140334 -0.015056644 1.1997203e-39
0.086398713 -0.13140334 -0.015056644 8.8281803e-44
0.088274829 -0.13140334 -0.015056644 1.8889503e-42
0.090150945 -0.13140334 -0.015056644 2.2434788e-42
0.092027061 -0.13140334 -0.015056644 7.7542336e-39
0.093903176 -0.13140334 -0.015056644 1.0798484e-38
0.095779292 -0.13140334 -0.015056644 9.2318748e-39
0.097655408 -0.13140334 -0.015056644 9.8783204e-39
0.099531524 -0.13140334 -0.015056644 9.232951e-39
0.10140764 -0.13140334 -0.015056644 7.7567419e-39
0.1036901 -0.13220255 -0.018126164 7.9400542e-39
0.10557159 -0.13220255 -0.018126164 8.768017e-39
0.10745309 -0.13220255 -0.018126164 6.8304696e-39
0.1093346 -0.13220255 -0.018126164 5.0780338e-39
0.11121609 -0.13220255 -0.018126164 7.9313493e-43
0.11309759 -0.13220255 -0.018126164 2.2336698e-42
0.11497908 -0.13220255 -0.018126164 1.1434595e-42
0.11743995 -0.13324542 -0.022131477 1.9361587e-39
0.11932848 -0.13324542 -0.022131477 6.2686162e-39
0.12166072 -0.1340252 -0.025126372 6.0842095e-39
0.12355448 -0.1340252 -0.025126372 5.8998071e-39
0.12604603 -0.13505147 -0.029067907 5.4388233e-39
0.12995198 -0.13845469 -0.04213861 6.2693028e-39
-0.12508616 -0.13774733 -0.032101545 8.2979584e-39
-0.12318016 -0.13774733 -0.032101545 4.6105004e-39
-0.12104278 -0.13695215 -0.029067907 3.6871344e-39
-0.11832676 -0.13408406 -0.018126164 3.5031172e-39
-0.11644525 -0.13408406 -0.018126164 5.1633588e-39
-0.1143458 -0.13327946 -0.015056644 8.2069034e-39
-0.11177745 -0.13065951 -0.0050615408 7.6548199e-39
-0.10971666 -0.12987436 -0.0020661689 5.5361323e-39
-0.1074009 -0.12803085 0.0049668215 3.7855139e-39
-0.10517786 -0.12646608 0.010936465 6.5337363e-40
-0.10315976 -0.12567626 0.013949599 1.2101221e-39
-0.10091542 -0.12386028 0.020877566 1.4487724e-38
-0.098922499 -0.1230578 0.02393898 1.6885533e-38
-0.096433043 -0.11992194 0.035902347 1.1721139e-38
-0.094482072 -0.11914261 0.038875427 9.5977468e-39
-0.092537008 -0.11834116 0.041932907 1.6664087e-39
-0.09076082 -0.11834116 0.041932907 1.5735082e-39
-0.088832758 -0.11754455 0.044972029 5.479077e-42
-0.087061889 -0.11754455 0.044972029 4.7798291e-42
-0.085291021 -0.11754455 0.044972029 3.7285469e-40
-0.083520152 -0.11754455 0.044972029 3.7250297e-40
-0.08174929 -0.11754455 0.044972029 1.0171493e-39
-0.079978421 -0.11754455 0.044972029 5.5580682e-40
-0.078207552 -0.11754455 0.044972029 1.901562e-42
-0.076436691 -0.11754455 0.044972029 2.2476827e-42
-0.074665822 -0.11754455 0.044972029 1.8256966e-38
-0.072894961 -0.11754455 0.044972029 1.982391e-38
-0.071124092 -0.11754455 0.044972029 1.9455839e-38
-0.069446474 -0.11834116 0.041932907 1.8256932e-38
-0.067670278 -0.11834116 0.041932907 2.2958873e-38
-0.065894082 -0.11834116 0.041932907 2.3234374e-38
-0.064195618 -0.11914261 0.038875427 2.3234369e-38
-0.062484436 -0.11992194 0.035902347 2.3050349e-38
-0.060697667 -0.11992194 0.035902347 1.8256918e-38
-0.058910899 -0.11992194 0.035902347 9.9589735e-39
-0.05712413 -0.11992194 0.035902347 8.115798e-39
-0.055337362 -0.11992194 0.035902347 1.1711442e-38
-0.053550594 -0.11992194 0.035902347 1.4661347e-38
-0.051803149 -0.12070583 0.032911744 1.14345e-38
-0.050011139 -0.12070583 0.032911744 1.152705e-38
-0.048219126 -0.12070583 0.032911744 1.1619596e-38
-0.046427112 -0.12070583 0.032911744 1.3371302e-38
-0.044653561 -0.12149437 0.029903498 1.8071833e-38
-0.042856276 -0.12149437 0.029903498 2.2496825e-38
-0.041058987 -0.12149437 0.029903498 2.3141467e-38
-0.039261702 -0.12149437 0.029903498 2.1942942e-38
-0.037464414 -0.12149437 0.029903498 2.1114629e-38
-0.035667129 -0.12149437 0.029903498 2.2774484e-38
-0.03386984 -0.12149437 0.029903498 2.2681572e-38
-0.032053985 -0.12228753 0.026877608 7.9296271e-39
-0.030251393 -0.12228753 0.026877608 1.0509738e-43
-0.028448801 -0.12228753 0.026877608 1.8451177e-40
-0.026646208 -0.12228753 0.026877608 9.2244535e-40
-0.024843618 -0.12228753 0.026877608 4.614686e-40
-0.023041025 -0.12228753 0.026877608 2.7779761e-40
-0.021238433 -0.12228753 0.026877608 1.9239828e-42
-0.01943584 -0.12228753 0.026877608 2.6330398e-42
-0.017633248 -0.12228753 0.026877608 6.7354279e-39
-0.015830657 -0.12228753 0.026877608 7.6584562e-39
-0.013958506 -0.1230578 0.02393898 5.6308684e-39
-0.012150763 -0.1230578 0.02393898 4.8014637e-39
-0.010343017 -0.1230578 0.02393898 5.8630328e-42
-0.0084467065 -0.12386028 0.020877566 4.9465836e-43
-0.0065129399 -0.124891 0.016945329 1.3312335e-43
-0.0046929345 -0.124891 0.016945329 2.788654e-40
-0.0028729253 -0.124891 0.016945329 7.4019528e-40
-0.0010529198 -0.124891 0.016945329 2.2658996e-42
0.0007670857 -0.124891 0.016945329 4.7223758e-43
0.002705276 -0.12567626 0.013949599 1.929588e-42
0.0045305341 -0.12567626 0.013949599 5.6283924e-39
0.0063557923 -0.12567626 0.013949599 1.1252329e-38
0.0081810541 -0.12567626 0.013949599 1.3097315e-38
0.010006312 -0.12567626 0.013949599 9.5027528e-39
0.01183157 -0.12567626 0.013949599 5.5155108e-42
0.013656832 -0.12567626 0.013949599 8.3780272e-40
0.01548209 -0.12567626 0.013949599 1.5750188e-39
0.017307349 -0.12567626 0.013949599 3.7866546e-39
0.019299023 -0.12646608 0.010936465 9.6875308e-39
0.021129567 -0.12646608 0.010936465 1.0055927e-38
0.022960108 -0.12646608 0.010936465 2.034527e-39
0.02497397 -0.12726043 0.0079059266 1.8479666e-39
0.026809823 -0.12726043 0.0079059266 1.1987322e-38
0.028645683 -0.12726043 0.0079059266 1.4843234e-38
0.030481536 -0.12726043 0.0079059266 1.8252662e-38
0.032317389 -0.12726043 0.0079059266 1.2720224e-38
0.034356799 -0.12803085 0.0049668215 7.3550793e-40
0.035989102 -0.12726043 0.0079059266 7.928195e-39
0.037824955 -0.12726043 0.0079059266 1.7609805e-38
0.039879825 -0.12803085 0.0049668215 1.7887107e-38
0.041720834 -0.12803085 0.0049668215 1.6227939e-38
0.043561842 -0.12803085 0.0049668215 1.4937196e-38
0.045726307 -0.12909363 0.00091227517 1.8164385e-38
0.047817267 -0.12987436 -0.0020661689 2.0930591e-38
0.050170951 -0.13144915 -0.0080739595 2.341805e-38
0.052034833 -0.13144915 -0.0080739595 2.3509517e-38
0.0538987 -0.13144915 -0.0080739595 2.3322243e-38
0.055762567 -0.13144915 -0.0080739595 2.3508091e-38
0.057626449 -0.13144915 -0.0080739595 2.3508092e-38
0.059862517 -0.13250901 -0.0121173 2.3508092e-38
0.061354198 -0.13144915 -0.0080739595 2.3507733e-38
0.063218065 -0.13144915 -0.0080739595 2.3509168e-38
0.065081947 -0.13144915 -0.0080739595 2.249502e-38
0.066945814 -0.13144915 -0.0080739595 1.9267467e-38
0.068809696 -0.13144915 -0.0080739595 1.7331376e-38
0.070673563 -0.13144915 -0.0080739595 1.6316167e-38
0.072537445 -0.13144915 -0.0080739595 1.004616e-38
0.074401312 -0.13144915 -0.0080739595 8.8476191e-39
0.076265179 -0.13144915 -0.0080739595 1.1798231e-38
0.078572147 -0.13250901 -0.0121173 1.1891129e-38
0.080443107 -0.13250901 -0.0121173 4.7013129e-39
0.082314067 -0.13250901 -0.0121173 3.7801049e-39
0.084522597 -0.13327946 -0.015056644 8.6880505e-44
0.086398713 -0.13327946 -0.015056644 8.1555571e-43
0.088274829 -0.13327946 -0.015056644 2.2532879e-42
0.090150945 -0.13327946 -0.015056644 2.9707527e-42
0.092027061 -0.13327946 -0.015056644 9.1353744e-39
0.093903176 -0.13327946 -0.015056644 9.3212048e-39
0.095779292 -0.13327946 -0.015056644 2.9607825e-39
0.097655408 -0.13327946 -0.015056644 2.9581411e-42
0.099531524 -0.13327946 -0.015056644 1.5162049e-42
0.10140764 -0.13327946 -0.015056644 5.479077e-42
0.1036901 -0.13408406 -0.018126164 4.0656895e-39
0.10515987 -0.13327946 -0.015056644 6.3691411e-39
0.107036 -0.13327946 -0.015056644 2.2185399e-39
0.1093346 -0.13408406 -0.018126164 2.1259814e-39
0.11121609 -0.13408406 -0.018126164 2.9595424e-42
0.11266435 -0.13327946 -0.015056644 1.1532686e-42
0.11454047 -0.13327946 -0.015056644 6.3058431e-44
0.11686059 -0.13408406 -0.018126164 1.843963e-39
0.11874209 -0.13408406 -0.018126164 6.5452031e-39
0.12121699 -0.13513394 -0.022131477 7.005447e-39
0.12310552 -0.13513394 -0.022131477 6.913959e-39
0.12604603 -0.13695215 -0.029067907 6.1763883e-39
0.12794673 -0.13695215 -0.029067907 6.730281e-39
-0.12532014 -0.14042725 -0.035034452 9.2206308e-39
-0.12318016 -0.13965334 -0.032101545 5.9012392e-39
-0.12104278 -0.13885282 -0.029067907 5.4388527e-39
-0.11832676 -0.13596557 -0.018126164 4.609469e-39
-0.11644525 -0.13596557 -0.018126164 3.5967562e-39
-0.1143458 -0.13515557 -0.015056644 5.1648092e-39
-0.11198608 -0.13331302 -0.0080739595 6.364444e-39
-0.10971666 -0.13172771 -0.0020661689 6.5506457e-39
-0.1074009 -0.12987186 0.0049668215 5.8141737e-39
-0.1053718 -0.12909628 0.0079059266 1.8519168e-39
-0.10315976 -0.1275015 0.013949599 2.8816582e-40
-0.10091542 -0.1256734 0.020877566 1.2736009e-38
-0.098922499 -0.12486555 0.02393898 1.541041e-38
-0.096433043 -0.12170871 0.035902347 1.1444556e-38
-0.094482072 -0.12092416 0.038875427 8.4910447e-39
-0.092537008 -0.12011738 0.041932907 2.4965309e-39
-0.090603627 -0.11931543 0.044972029 2.4954659e-39
-0.088832758 -0.11931543 0.044972029 7.4304412e-40
-0.087061889 -0.11931543 0.044972029 4.7770265e-42
-0.085291021 -0.11931543 0.044972029 6.4871851e-40
-0.083520152 -0.11931543 0.044972029 7.3984355e-40
-0.08174929 -0.11931543 0.044972029 1.1082659e-39
-0.079978421 -0.11931543 0.044972029 1.5685196e-39
-0.078207552 -0.11931543 0.044972029 4.6215804e-40
-0.076436691 -0.11931543 0.044972029 7.5670117e-44
-0.074665822 -0.11931543 0.044972029 2.0560746e-38
-0.072894961 -0.11931543 0.044972029 2.2865602e-38
-0.071124092 -0.11931543 0.044972029 2.2865243e-38
-0.069446474 -0.12011738 0.041932907 2.148232e-38
-0.067670278 -0.12011738 0.041932907 2.2588295e-38
-0.065894082 -0.12011738 0.041932907 2.3509873e-38
-0.064195618 -0.12092416 0.038875427 2.2957414e-38
-0.062484436 -0.12170871 0.035902347 2.2587927e-38
-0.060697667 -0.12170871 0.035902347 2.0284129e-38
-0.058850951 -0.12092416 0.038875427 1.7426801e-38
-0.057069398 -0.12092416 0.038875427 1.5306316e-38
-0.055287838 -0.12092416 0.038875427 1.6413033e-38
-0.053550594 -0.12170871 0.035902347 1.7612301e-38
-0.051803149 -0.12249784 0.032911744 1.7888888e-38
-0.050011139 -0.12249784 0.032911744 1.7704492e-38
-0.048219126 -0.12249784 0.032911744 1.7888514e-38
-0.046427112 -0.12249784 0.032911744 1.8902301e-38
-0.044635102 -0.12249784 0.032911744 2.0745845e-38
-0.042856276 -0.12329166 0.029903498 2.2496825e-38
-0.041058987 -0.12329166 0.029903498 2.323402e-38
-0.039261702 -0.12329166 0.029903498 2.3049632e-38
-0.037464414 -0.12329166 0.029903498 2.3142544e-38
-0.035667129 -0.12329166 0.029903498 2.2313513e-38
-0.03386984 -0.12329166 0.029903498 1.9362925e-38
-0.032053985 -0.12409012 0.026877608 9.4050977e-39
-0.030251393 -0.12409012 0.026877608 5.1626876e-39
-0.028448801 -0.12409012 0.026877608 1.9358602e-39
-0.026646208 -0.12409012 0.026877608 1.1064737e-39
-0.024843618 -0.12409012 0.026877608 3.6999324e-40
-0.023041025 -0.12409012 0.026877608 1.4770625e-39
-0.021238433 -0.12409012 0.026877608 2.7923534e-40
-0.01943584 -0.12409012 0.026877608 3.7204474e-42
-0.017633248 -0.12409012 0.026877608 7.1038545e-39
-0.015830657 -0.12409012 0.026877608 9.042111e-39
-0.013958506 -0.12486555 0.02393898 8.4896518e-39
-0.012150763 -0.12486555 0.02393898 5.3553536e-39
-0.010343017 -0.12486555 0.02393898 1.5414283e-42
-0.0084467065 -0.1256734 0.020877566 1.5778621e-42
-0.0065129399 -0.126711 0.016945329 1.4713634e-43
-0.0046929345 -0.126711 0.016945329 2.7923534e-40
-0.0028729253 -0.126711 0.016945329 2.8066327e-40
-0.0010529198 -0.126711 0.016945329 1.5512374e-42
0.0007670857 -0.126711 0.016945329 4.7924407e-42
0.0025870949 -0.126711 0.016945329 1.295904e-39
0.0044071004 -0.126711 0.016945329 9.6860707e-39
0.0062271059 -0.126711 0.016945329 1.1438153e-38
0.0080471151 -0.126711 0.016945329 9.6875126e-39
0.010006312 -0.1275015 0.013949599 6.7379601e-39
0.01183157 -0.1275015 0.013949599 7.6749117e-42
0.013656832 -0.1275015 0.013949599 3.00018e-42
0.01548209 -0.1275015 0.013949599 3.6965945e-39
0.017307349 -0.1275015 0.013949599 6.1851717e-39
0.019299023 -0.1282966 0.010936465 9.9648212e-39
0.021302257 -0.12909628 0.0079059266 9.6874804e-39
0.023138113 -0.12909628 0.0079059266 4.6645723e-40
0.02497397 -0.12909628 0.0079059266 8.3415514e-40
0.026809823 -0.12909628 0.0079059266 1.2448288e-38
0.028645683 -0.12909628 0.0079059266 1.4013823e-38
0.030481536 -0.12909628 0.0079059266 1.5395684e-38
0.032317389 -0.12909628 0.0079059266 1.0692636e-38
0.034153249 -0.12909628 0.0079059266 5.5184114e-40
0.035989102 -0.12909628 0.0079059266 6.5452746e-39
0.037824955 -0.12909628 0.0079059266 1.6965172e-38
0.039879825 -0.12987186 0.0049668215 1.7426501e-38
0.041720834 -0.12987186 0.0049668215 1.502977e-38
0.043561842 -0.12987186 0.0049668215 1.4568416e-38
0.045402847 -0.12987186 0.0049668215 1.9085985e-38
0.047817267 -0.13172771 -0.0020661689 2.0008279e-38
0.050170951 -0.13331302 -0.0080739595 2.2220234e-38
0.052034833 -0.13331302 -0.0080739595 2.3509876e-38
0.0538987 -0.13331302 -0.0080739595 2.350987e-38
0.055495851 -0.1325181 -0.0050615408 2.3509524e-38
0.057354443 -0.1325181 -0.0050615408 2.3509527e-38
0.059213035 -0.1325181 -0.0050615408 2.3509527e-38
0.061071627 -0.1325181 -0.0050615408 2.2680492e-38
0.062643982 -0.13172771 -0.0020661689 2.3234379e-38
0.064497329 -0.13172771 -0.0020661689 1.9546927e-38
0.066647403 -0.1325181 -0.0050615408 1.9639496e-38
0.068809696 -0.13331302 -0.0080739595 1.2448256e-38
0.070673563 -0.13331302 -0.0080739595 9.2207149e-39
0.072537445 -0.13331302 -0.0080739595 3.2283731e-39
0.074401312 -0.13331302 -0.0080739595 1.5688545e-39
0.076265179 -0.13331302 -0.0080739595 6.2715449e-39
0.078572147 -0.13437997 -0.0121173 6.7332279e-39
0.080443107 -0.13437997 -0.0121173 2.9532071e-39
0.082314067 -0.13437997 -0.0121173 7.3909105e-40
0.084522597 -0.13515557 -0.015056644 9.10844e-44
0.086398713 -0.13515557 -0.015056644 1.8736341e-40
0.088274829 -0.13515557 -0.015056644 2.2546892e-42
0.090150945 -0.13515557 -0.015056644 2.1259926e-39
0.092027061 -0.13515557 -0.015056644 1.024065e-38
0.093903176 -0.13515557 -0.015056644 9.4116081e-39
0.095779292 -0.13515557 -0.015056644 1.2072761e-39
0.097655408 -0.13515557 -0.015056644 4.0511539e-42
0.099531524 -0.13515557 -0.015056644 4.0483513e-42
0.10140764 -0.13515557 -0.015056644 3.7678954e-40
0.1036901 -0.13596557 -0.018126164 6.1836765e-39
0.10515987 -0.13515557 -0.015056644 6.8283228e-39
0.107036 -0.13515557 -0.015056644 2.9679501e-42
0.1093346 -0.13596557 -0.018126164 2.9665488e-42
0.11121609 -0.13596557 -0.018126164 4.4000772e-43
0.11266435 -0.13515557 -0.015056644 7.4268819e-44
0.11454047 -0.13515557 -0.015056644 5.8854536e-44
0.11686059 -0.13596557 -0.018126164 2.0279914e-39
0.11874209 -0.13596557 -0.018126164 6.7295915e-39
0.12121699 -0.13702248 -0.022131477 7.1901941e-39
0.12310552 -0.13702248 -0.022131477 7.1894641e-39
0.12499403 -0.13702248 -0.022131477 6.2689399e-39
-0.12532014 -0.14233841 -0.035034452 1.0787956e-38
-0.12318016 -0.14155935 -0.032101545 6.3629404e-39
-0.12104278 -0.14075352 -0.029067907 5.6239671e-39
-0.11832676 -0.13784705 -0.018126164 4.8864188e-39
-0.11644525 -0.13784705 -0.018126164 3.0435852e-39
-0.1143458 -0.13703169 -0.015056644 3.7818747e-39
-0.11198608 -0.13517688 -0.0080739595 3.1386759e-39
-0.10971666 -0.13358103 -0.0020661689 2.1252541e-39
-0.1074009 -0.13171287 0.0049668215 3.6021989e-39
-0.1053718 -0.13093217 0.0079059266 4.6177857e-39
-0.10315976 -0.12932678 0.013949599 1.8544153e-39
-0.10091542 -0.12748651 0.020877566 7.572338e-39
-0.098922499 -0.1266733 0.02393898 7.2968414e-39
-0.096433043 -0.12349547 0.035902347 6.0046606e-39
-0.094482072 -0.12270571 0.038875427 6.0936024e-39
-0.092537008 -0.12189357 0.041932907 1.6660542e-39
-0.090603627 -0.12108628 0.044972029 2.4943869e-39
-0.088832758 -0.12108628 0.044972029 1.0189107e-39
-0.087061889 -0.12108628 0.044972029 1.8772635e-40
-0.085291021 -0.12108628 0.044972029 7.3983514e-40
-0.083520152 -0.12108628 0.044972029 8.3059724e-40
-0.08174929 -0.12108628 0.044972029 9.2243274e-40
-0.079978421 -0.12108628 0.044972029 7.3731701e-40
-0.078207552 -0.12108628 0.044972029 3.6816455e-40
-0.076436691 -0.12108628 0.044972029 1.841124e-40
-0.074665822 -0.12108628 0.044972029 1.917639e-38
-0.072894961 -0.12108628 0.044972029 2.3233303e-38
-0.071124092 -0.12108628 0.044972029 2.3232944e-38
-0.069446474 -0.12189357 0.041932907 2.2771967e-38
-0.067670278 -0.12189357 0.041932907 1.724058e-38
-0.065894082 -0.12189357 0.041932907 1.9729498e-38
-0.064195618 -0.12270571 0.038875427 2.3509518e-38
-0.062414065 -0.12270571 0.038875427 2.3509883e-38
-0.060632508 -0.12270571 0.038875427 2.2219513e-38
-0.058850951 -0.12270571 0.038875427 2.3142544e-38
-0.057069398 -0.12270571 0.038875427 2.2867037e-38
-0.055287838 -0.12270571 0.038875427 2.2774843e-38
-0.053550594 -0.12349547 0.035902347 2.1484482e-38
-0.051803149 -0.12428986 0.032911744 2.2591531e-38
-0.050011139 -0.12428986 0.032911744 2.2498619e-38
-0.048219126 -0.12428986 0.032911744 2.2867037e-38
-0.046427112 -0.12428986 0.032911744 2.2958873e-38
-0.044635102 -0.12428986 0.032911744 2.2681572e-38
-0.042843089 -0.12428986 0.032911744 2.166706e-38
-0.041051075 -0.12428986 0.032911744 2.2311708e-38
-0.039259065 -0.12428986 0.032911744 2.341805e-38
-0.037467051 -0.12428986 0.032911744 2.2497526e-38
-0.035667129 -0.12508895 0.029903498 1.7888113e-38
-0.03386984 -0.12508895 0.029903498 1.3923721e-38
-0.032072555 -0.12508895 0.029903498 1.0419233e-38
-0.030251393 -0.12589271 0.026877608 8.4824338e-39
-0.028448801 -0.12589271 0.026877608 1.8449215e-40
-0.026646208 -0.12589271 0.026877608 1.1070258e-43
-0.024843618 -0.12589271 0.026877608 1.2923069e-39
-0.023041025 -0.12589271 0.026877608 8.3169306e-40
-0.021238433 -0.12589271 0.026877608 3.3687215e-42
-0.01943584 -0.12589271 0.026877608 1.1107897e-39
-0.017633248 -0.12589271 0.026877608 8.2112825e-39
-0.015830657 -0.12589271 0.026877608 9.9637113e-39
-0.013958506 -0.1266733 0.02393898 9.6881978e-39
-0.012150763 -0.1266733 0.02393898 6.3691496e-39
-0.010343017 -0.1266733 0.02393898 6.5267438e-40
-0.0085352734 -0.1266733 0.02393898 2.6610658e-42
-0.0065129399 -0.12853102 0.016945329 1.5134023e-43
-0.0046929345 -0.12853102 0.016945329 1.2191297e-42
-0.0028729253 -0.12853102 0.016945329 3.3673202e-42
-0.0010529198 -0.12853102 0.016945329 4.4393135e-42
0.0007670857 -0.12853102 0.016945329 2.126015e-39
0.0025870949 -0.12853102 0.016945329 3.9706465e-39
0.0044071004 -0.12853102 0.016945329 1.2729594e-38
0.0062271059 -0.12853102 0.016945329 1.2361538e-38
0.0080471151 -0.12853102 0.016945329 4.249041e-39
0.010006312 -0.12932678 0.013949599 7.6791156e-42
0.01183157 -0.12932678 0.013949599 5.1567783e-42
0.013656832 -0.12932678 0.013949599 6.2427847e-42
0.01548209 -0.12932678 0.013949599 9.597112e-39
0.017307349 -0.12932678 0.013949599 9.9662575e-39
0.019299023 -0.13012715 0.010936465 8.9513713e-39
0.021302257 -0.13093217 0.0079059266 8.3967261e-39
0.023138113 -0.13093217 0.0079059266 4.2599473e-43
0.02497397 -0.13093217 0.0079059266 1.1490647e-42
0.026809823 -0.13093217 0.0079059266 1.189547e-38
0.028645683 -0.13093217 0.0079059266 1.2262819e-38
0.030481536 -0.13093217 0.0079059266 1.0694783e-38
0.032317389 -0.13093217 0.0079059266 6.1764892e-39
0.034153249 -0.13093217 0.0079059266 1.0369609e-43
0.035989102 -0.13093217 0.0079059266 2.3060847e-39
0.037824955 -0.13093217 0.0079059266 1.1434172e-38
0.039879825 -0.13171287 0.0049668215 1.2264283e-38
0.041720834 -0.13171287 0.0049668215 1.1988401e-38
0.043561842 -0.13171287 0.0049668215 1.4384746e-38
0.045402847 -0.13171287 0.0049668215 2.0469628e-38
0.047817267 -0.13358103 -0.0020661689 2.083804e-38
0.050170951 -0.13517688 -0.0080739595 2.3234379e-38
0.052034833 -0.13517688 -0.0080739595 2.3234367e-38
0.0538987 -0.13517688 -0.0080739595 2.3509873e-38
0.055495851 -0.13437669 -0.0050615408 2.3141822e-38
0.057354443 -0.13437669 -0.0050615408 2.3050349e-38
0.058937304 -0.13358103 -0.0020661689 2.3234379e-38
0.060790651 -0.13358103 -0.0020661689 2.2221676e-38
0.062643982 -0.13358103 -0.0020661689 2.2867037e-38
0.064497329 -0.13358103 -0.0020661689 1.8350546e-38
0.066350661 -0.13358103 -0.0020661689 1.6967985e-38
0.068505995 -0.13437669 -0.0050615408 7.7491637e-39
0.070364587 -0.13437669 -0.0050615408 5.1669924e-39
0.072223179 -0.13437669 -0.0050615408 2.6134216e-42
0.074401312 -0.13517688 -0.0080739595 2.6162242e-42
0.076265179 -0.13517688 -0.0080739595 9.3176076e-39
0.078572147 -0.13625093 -0.0121173 1.2176018e-38
0.080443107 -0.13625093 -0.0121173 1.2267852e-38
0.082314067 -0.13625093 -0.0121173 9.6838622e-39
0.084522597 -0.13703169 -0.015056644 8.0714792e-43
0.086398713 -0.13703169 -0.015056644 8.0854921e-43
0.088274829 -0.13703169 -0.015056644 2.4926143e-39
0.090150945 -0.13703169 -0.015056644 4.5227188e-39
0.092027061 -0.13703169 -0.015056644 8.3031026e-39
0.093903176 -0.13703169 -0.015056644 8.4882169e-39
0.095779292 -0.13703169 -0.015056644 8.1555571e-43
0.097655408 -0.13703169 -0.015056644 5.8574276e-42
0.099531524 -0.13703169 -0.015056644 7.4450287e-40
0.10140764 -0.13703169 -0.015056644 2.1259954e-39
0.1036901 -0.13784705 -0.018126164 6.458827e-39
0.10557159 -0.13784705 -0.018126164 5.9967671e-39
0.10745309 -0.13784705 -0.018126164 8.1275311e-44
0.1093346 -0.13784705 -0.018126164 1.5274153e-42
0.11121609 -0.13784705 -0.018126164 8.0154272e-43
0.11309759 -0.13784705 -0.018126164 7.0064923e-44
0.11497908 -0.13784705 -0.018126164 5.8854536e-44
0.11686059 -0.13784705 -0.018126164 2.0279914e-39
0.11874209 -0.13784705 -0.018126164 6.636677e-39
