# .PCD v0.7 - Point Cloud Data file format
VERSION 0.7
FIELDS x y z rgb
SIZE 4 4 4 4
TYPE F F F F
COUNT 1 1 1 1
WIDTH 936
HEIGHT 1
VIEWPOINT 0 0 0 1 0 0 0
POINTS 936
DATA ascii
0.028922517 -0.097590908 -0.049207009 1.5414283e-42
0.030742522 -0.097590908 -0.049207009 1.3866549e-39
0.032796267 -0.098297372 -0.052202739 2.7696034e-39
0.034861907 -0.099007934 -0.055215873 2.4937465e-39
0.036692441 -0.099007934 -0.055215873 3.2309599e-39
0.038522989 -0.099007934 -0.055215873 2.955089e-39
0.038484827 -0.093825653 -0.033240594 2.402267e-39
0.040017277 -0.093120396 -0.030249991 2.6799245e-39
0.041804045 -0.093120396 -0.030249991 3.0487042e-39
0.043590814 -0.093120396 -0.030249991 2.5888022e-39
0.046208322 -0.09524864 -0.03927473 1.6668459e-39
0.047164351 -0.093120396 -0.030249991 1.1136721e-39
0.048951119 -0.093120396 -0.030249991 2.1278269e-39
0.051028907 -0.093825653 -0.033240594 3.5107613e-39
0.052820921 -0.093825653 -0.033240594 4.3390801e-39
0.061931357 -0.090292826 -0.018259801 5.575178e-40
0.0636971 -0.090292826 -0.018259801 3.3219392e-39
-0.0020175986 -0.099410906 -0.049207009 2.0281974e-38
-0.00019759312 -0.099410906 -0.049207009 1.9635528e-38
0.0016224124 -0.099410906 -0.049207009 2.0005032e-38
0.0034424216 -0.099410906 -0.049207009 1.9266391e-38
0.005262427 -0.099410906 -0.049207009 1.6870384e-38
0.0070824325 -0.099410906 -0.049207009 1.6684557e-38
0.0089024417 -0.099410906 -0.049207009 1.7884535e-38
0.010893155 -0.10012263 -0.052202739 1.7885252e-38
0.012718413 -0.10012263 -0.052202739 1.7148047e-38
0.014543671 -0.10012263 -0.052202739 1.7608674e-38
0.016368929 -0.10012263 -0.052202739 1.7978184e-38
0.018002477 -0.099410906 -0.049207009 1.4105982e-38
0.019563939 -0.098476708 -0.045274772 5.7453237e-44
0.021377046 -0.098476708 -0.045274772 8.3091814e-40
0.023190159 -0.098476708 -0.045274772 1.2926292e-39
0.028922517 -0.099410906 -0.049207009 2.7699565e-39
0.028382178 -0.092058569 -0.018259801 3.8766754e-39
0.030147921 -0.092058569 -0.018259801 4.0614352e-39
0.034861907 -0.10083848 -0.055215873 3.5086257e-39
0.036692441 -0.10083848 -0.055215873 3.6004682e-39
0.03644374 -0.094907165 -0.030249991 2.40336e-39
0.038230509 -0.094907165 -0.030249991 2.2182387e-39
0.040017277 -0.094907165 -0.030249991 2.6795685e-39
0.041540802 -0.094200835 -0.027276911 3.4182098e-39
0.043322355 -0.094200835 -0.027276911 3.8791879e-39
0.045377582 -0.094907165 -0.030249991 3.3263701e-39
0.046885476 -0.094200835 -0.027276911 2.588805e-39
0.048667029 -0.094200835 -0.027276911 2.7731963e-39
0.050448582 -0.094200835 -0.027276911 3.7862692e-39
0.052524656 -0.094907165 -0.030249991 4.1546874e-39
0.054311439 -0.094907165 -0.030249991 3.0479713e-39
0.055793256 -0.094200835 -0.027276911 9.263788e-40
0.057574809 -0.094200835 -0.027276911 8.3416355e-40
0.059032038 -0.093474448 -0.024219431 2.2238607e-42
0.060808226 -0.093474448 -0.024219431 4.6498166e-40
0.061931357 -0.092058569 -0.018259801 2.8057358e-40
0.0636971 -0.092058569 -0.018259801 1.4780294e-39
0.066136822 -0.093474448 -0.024219431 1.6602626e-39
-0.00019759312 -0.10123092 -0.049207009 2.0096879e-38
0.0016224124 -0.10123092 -0.049207009 2.1019198e-38
0.0034424216 -0.10123092 -0.049207009 1.9543352e-38
0.005262427 -0.10123092 -0.049207009 1.5948085e-38
0.0070824325 -0.10123092 -0.049207009 1.5209804e-38
0.011405021 -0.10409774 -0.061185516 1.6595955e-38
0.0130734 -0.10339431 -0.058246411 1.7241684e-38
0.014909256 -0.10339431 -0.058246411 1.7886705e-38
0.016745109 -0.10339431 -0.058246411 1.4844626e-38
0.018580969 -0.10339431 -0.058246411 1.475209e-38
0.024088535 -0.10339431 -0.058246411 5.5333002e-39
0.023084942 -0.093824327 -0.018259801 4.4276856e-39
0.024850685 -0.093824327 -0.018259801 2.9536457e-39
0.026616435 -0.093824327 -0.018259801 3.1387614e-39
0.028382178 -0.093824327 -0.018259801 3.9696039e-39
0.030147921 -0.093824327 -0.018259801 3.4175119e-39
0.031913672 -0.093824327 -0.018259801 2.680307e-39
0.033917528 -0.094523281 -0.021180309 3.0490895e-39
0.035688385 -0.094523281 -0.021180309 3.5104208e-39
0.037459254 -0.094523281 -0.021180309 2.8646871e-39
0.039759248 -0.095982388 -0.027276911 3.1405509e-39
0.041540802 -0.095982388 -0.027276911 3.7859175e-39
0.042771861 -0.094523281 -0.021180309 4.4312869e-39
0.04454273 -0.094523281 -0.021180309 4.1546986e-39
0.046885476 -0.095982388 -0.027276911 3.4171336e-39
0.048667029 -0.095982388 -0.027276911 3.4174895e-39
0.050448582 -0.095982388 -0.027276911 4.0621372e-39
0.052230135 -0.095982388 -0.027276911 4.3383598e-39
0.054011703 -0.095982388 -0.027276911 1.3877269e-39
0.055793256 -0.095982388 -0.027276911 1.2944368e-39
0.057574809 -0.095982388 -0.027276911 7.4160498e-40
0.059032038 -0.095250636 -0.024219431 2.2196568e-42
0.060808226 -0.095250636 -0.024219431 3.643376e-42
0.06258443 -0.095250636 -0.024219431 5.5716608e-40
0.064360619 -0.095250636 -0.024219431 1.5698719e-39
0.066136822 -0.095250636 -0.024219431 1.844298e-39
0.068264142 -0.095982388 -0.027276911 2.5811399e-39
0.070045695 -0.095982388 -0.027276911 3.3190595e-39
-0.00019759312 -0.10305093 -0.049207009 2.2217731e-38
0.0016224124 -0.10305093 -0.049207009 2.304748e-38
0.0034424216 -0.10305093 -0.049207009 2.0465682e-38
0.005262427 -0.10305093 -0.049207009 1.6501275e-38
0.0051472373 -0.086659163 0.018785082 1.7516501e-38
0.026616435 -0.09559007 -0.018259801 3.138774e-39
0.028382178 -0.09559007 -0.018259801 3.7848623e-39
0.030147921 -0.09559007 -0.018259801 3.4175119e-39
0.032146659 -0.09629415 -0.021180309 3.2338367e-39
0.033917528 -0.09629415 -0.021180309 3.602615e-39
0.035445169 -0.09559007 -0.018259801 3.602971e-39
0.037210912 -0.09559007 -0.018259801 3.6011731e-39
0.039230123 -0.09629415 -0.021180309 3.6011731e-39
0.041000992 -0.09629415 -0.021180309 4.0625072e-39
0.042236939 -0.094865978 -0.015256323 4.8000722e-39
0.043997422 -0.094865978 -0.015256323 4.9844635e-39
0.046313584 -0.09629415 -0.021180309 4.6149593e-39
0.048374861 -0.09702684 -0.024219431 4.3387269e-39
0.050151065 -0.09702684 -0.024219431 4.5227525e-39
0.051927254 -0.09702684 -0.024219431 4.8908077e-39
0.053703457 -0.09702684 -0.024219431 7.4199314e-40
0.055793256 -0.097763941 -0.027276911 2.9749566e-42
0.057574809 -0.097763941 -0.027276911 2.2378736e-42
0.059356362 -0.097763941 -0.027276911 1.1406569e-42
0.061137915 -0.097763941 -0.027276911 1.8767871e-40
0.062919483 -0.097763941 -0.027276911 8.3231804e-40
0.064701036 -0.097763941 -0.027276911 1.4776776e-39
0.066482589 -0.097763941 -0.027276911 2.4896702e-39
0.068264142 -0.097763941 -0.027276911 1.9357705e-39
0.00019428879 -0.089086145 0.015794657 2.0005787e-38
0.02639262 -0.096626461 -0.015256323 3.5997536e-39
0.028153103 -0.096626461 -0.015256323 3.6926639e-39
0.029913586 -0.096626461 -0.015256323 3.3253135e-39
0.031913672 -0.097355813 -0.018259801 3.602971e-39
0.033679415 -0.097355813 -0.018259801 3.8799096e-39
0.035445169 -0.097355813 -0.018259801 3.2345402e-39
0.037210912 -0.097355813 -0.018259801 3.7859203e-39
0.038976654 -0.097355813 -0.018259801 3.7848455e-39
0.040742397 -0.097355813 -0.018259801 3.9692368e-39
0.042236939 -0.096626461 -0.015256323 4.5227665e-39
0.043997422 -0.096626461 -0.015256323 4.9837446e-39
0.046039641 -0.097355813 -0.018259801 4.8908273e-39
0.047805384 -0.097355813 -0.018259801 4.613516e-39
0.049855322 -0.098065019 -0.021180309 4.3369207e-39
0.051626191 -0.098065019 -0.021180309 5.3503439e-39
0.053703457 -0.098803028 -0.024219431 1.1093309e-39
0.055479646 -0.098803028 -0.024219431 3.7175187e-40
0.057574809 -0.099545494 -0.027276911 1.0167457e-39
0.059356362 -0.099545494 -0.027276911 9.2453609e-40
0.061137915 -0.099545494 -0.027276911 1.6617298e-39
0.062919483 -0.099545494 -0.027276911 2.3074481e-39
-0.056254998 -0.095444039 -0.0032243505 5.9960538e-39
-0.054515615 -0.095444039 -0.0032243505 5.4432654e-39
-0.026926234 -0.092757151 0.0077609047 2.1663131e-38
-0.025206111 -0.092757151 0.0077609047 2.0927368e-38
-0.023485988 -0.092757151 0.0077609047 2.0191231e-38
-0.021765865 -0.092757151 0.0077609047 1.8716817e-38
-0.020045742 -0.092757151 0.0077609047 2.0008283e-38
-0.018325619 -0.092757151 0.0077609047 2.0746211e-38
-0.013274517 -0.092013597 0.01080092 1.8440616e-38
-0.011670068 -0.091297671 0.013727985 1.7610503e-38
-0.0099604055 -0.091297671 0.013727985 1.6688552e-38
-0.0082507432 -0.091297671 0.013727985 1.5858437e-38
-0.0066298619 -0.090792179 0.015794657 1.6319418e-38
-0.0049238242 -0.090792179 0.015794657 1.6595652e-38
-0.0032177866 -0.090792179 0.015794657 1.7241023e-38
-0.0015117489 -0.090792179 0.015794657 1.7886038e-38
0.00019428879 -0.090792179 0.015794657 1.7425061e-38
0.0017456487 -0.090060756 0.018785082 1.6503107e-38
0.0034464449 -0.090060756 0.018785082 1.6134325e-38
0.0051472373 -0.090060756 0.018785082 1.6411625e-38
0.018336792 -0.088588774 0.024803244 8.8538171e-39
0.02002703 -0.088588774 0.024803244 7.7481954e-39
0.021717276 -0.088588774 0.024803244 7.010273e-39
0.02639262 -0.098386943 -0.015256323 6.2737814e-39
0.028153103 -0.098386943 -0.015256323 5.444734e-39
0.029913586 -0.098386943 -0.015256323 4.8919119e-39
0.031913672 -0.099121556 -0.018259801 5.0777339e-39
0.033434544 -0.098386943 -0.015256323 4.8015001e-39
0.035195023 -0.098386943 -0.015256323 3.5107613e-39
0.036440834 -0.096906602 -0.0092040077 4.430568e-39
0.037934691 -0.096185118 -0.0062542334 4.3383752e-39
0.039679393 -0.096185118 -0.0062542334 4.3383752e-39
0.041690439 -0.096906602 -0.0092040077 4.5220476e-39
0.043997422 -0.098386943 -0.015256323 4.8908301e-39
0.045757905 -0.098386943 -0.015256323 5.2588882e-39
0.047518387 -0.098386943 -0.015256323 5.0741312e-39
0.049571127 -0.099121556 -0.018259801 4.8890126e-39
0.051626191 -0.099835888 -0.021180309 3.7826511e-39
0.053397059 -0.099835888 -0.021180309 7.4018126e-40
0.055479646 -0.10057923 -0.024219431 1.6617634e-39
0.057574809 -0.10132705 -0.027276911 2.9524882e-39
0.059356362 -0.10132705 -0.027276911 2.7677228e-39
0.061137915 -0.10132705 -0.027276911 3.137213e-39
-0.057945769 -0.095941558 0.0018168315 6.3637293e-39
-0.056215223 -0.095941558 0.0018168315 5.9949804e-39
-0.05448468 -0.095941558 0.0018168315 6.5485382e-39
-0.052754134 -0.095941558 0.0018168315 6.2730415e-39
-0.051023588 -0.095941558 0.0018168315 6.919134e-39
-0.049287833 -0.094477281 0.0077609047 5.8120591e-39
-0.04756771 -0.094477281 0.0077609047 7.2875283e-39
-0.045847587 -0.094477281 0.0077609047 7.2875269e-39
-0.030311931 -0.095207214 0.0047978386 9.1238515e-39
-0.028646357 -0.094477281 0.0077609047 9.1238543e-39
-0.026926234 -0.094477281 0.0077609047 9.4933529e-39
-0.025206111 -0.094477281 0.0077609047 1.2721272e-38
-0.023485988 -0.094477281 0.0077609047 1.6318328e-38
-0.021765865 -0.094477281 0.0077609047 1.6965134e-38
-0.020045742 -0.094477281 0.0077609047 1.6135742e-38
-0.018418897 -0.093728393 0.01080092 1.6228659e-38
-0.016704105 -0.093728393 0.01080092 1.632086e-38
-0.015089389 -0.093007326 0.013727985 1.5951722e-38
-0.013379727 -0.093007326 0.013727985 1.5121965e-38
-0.011670068 -0.093007326 0.013727985 1.4291849e-38
-0.0099604055 -0.093007326 0.013727985 1.3830875e-38
-0.0083358996 -0.092498213 0.015794657 1.3738323e-38
-0.0066298619 -0.092498213 0.015794657 1.3000761e-38
-0.0050575249 -0.091761544 0.018785082 1.2908565e-38
-0.0033567324 -0.091761544 0.018785082 1.3092959e-38
-0.0017992482 -0.091029361 0.021757267 1.3645777e-38
-0.00010366365 -0.091029361 0.021757267 1.4383342e-38
0.0017456487 -0.091761544 0.018785082 1.4844676e-38
0.0034464449 -0.091761544 0.018785082 1.5029068e-38
0.0068480298 -0.091761544 0.018785082 1.5584399e-38
0.013266064 -0.090279013 0.024803244 1.2172467e-38
0.014956307 -0.090279013 0.024803244 1.0698065e-38
0.016852159 -0.091029361 0.021757267 1.0421126e-38
0.018336792 -0.090279013 0.024803244 9.3151442e-39
0.02002703 -0.090279013 0.024803244 8.6704978e-39
0.021717276 -0.090279013 0.024803244 8.0251284e-39
0.023855973 -0.091761544 0.018785082 7.1957237e-39
0.025556762 -0.091761544 0.018785082 6.0900894e-39
0.02749088 -0.092498213 0.015794657 5.260686e-39
0.029196922 -0.092498213 0.015794657 5.4457906e-39
0.030902956 -0.092498213 0.015794657 5.0770052e-39
0.035195023 -0.10014741 -0.015256323 3.6937106e-39
0.034490775 -0.093007326 0.013727985 4.2465313e-39
0.036200434 -0.093007326 0.013727985 4.6145978e-39
0.037910089 -0.093007326 0.013727985 4.6142404e-39
0.039619759 -0.093007326 0.013727985 4.4291289e-39
0.041329414 -0.093007326 0.013727985 4.7049969e-39
0.045757905 -0.10014741 -0.015256323 5.5340331e-39
0.047518387 -0.10014741 -0.015256323 5.9946441e-39
0.049571127 -0.1008873 -0.018259801 5.9946315e-39
0.051626191 -0.10160676 -0.021180309 3.2283899e-39
0.053397059 -0.10160676 -0.021180309 5.547026e-40
0.055479646 -0.10235542 -0.024219431 1.661755e-39
0.057574809 -0.1031086 -0.027276911 3.2287066e-39
0.059356362 -0.1031086 -0.027276911 3.1368571e-39
0.061137915 -0.1031086 -0.027276911 3.9666093e-39
-0.059642341 -0.09693253 0.0047978386 3.1375619e-39
-0.057917021 -0.09693253 0.0047978386 1.8461463e-39
-0.056191705 -0.09693253 0.0047978386 1.3851989e-39
-0.054466385 -0.09693253 0.0047978386 1.4777785e-39
-0.052741066 -0.09693253 0.0047978386 8.3278047e-40
-0.051023588 -0.097672105 0.0018168315 1.7554542e-39
-0.049287833 -0.096197397 0.0077609047 2.0316726e-39
-0.04756771 -0.096197397 0.0077609047 9.2459074e-40
-0.045847587 -0.096197397 0.0077609047 1.1082659e-39
-0.044127464 -0.096197397 0.0077609047 2.3071833e-39
-0.042407341 -0.096197397 0.0077609047 6.4838781e-40
-0.040687218 -0.096197397 0.0077609047 6.4910667e-40
-0.038967095 -0.096197397 0.0077609047 4.6506574e-40
-0.037246972 -0.096197397 0.0077609047 1.5713979e-39
-0.032137237 -0.095443189 0.01080092 2.488664e-39
-0.030422447 -0.095443189 0.01080092 2.5790688e-39
-0.028646357 -0.096197397 0.0077609047 2.1177375e-39
-0.026992861 -0.095443189 0.01080092 2.302126e-39
-0.025278069 -0.095443189 0.01080092 3.5942955e-39
-0.023563275 -0.095443189 0.01080092 4.0566974e-39
-0.021848483 -0.095443189 0.01080092 2.8595933e-39
-0.020133689 -0.095443189 0.01080092 2.9521561e-39
-0.018418897 -0.095443189 0.01080092 2.6762951e-39
-0.016799048 -0.094716981 0.013727985 2.9525247e-39
-0.015089389 -0.094716981 0.013727985 3.2291143e-39
-0.013379727 -0.094716981 0.013727985 3.1369215e-39
-0.011670068 -0.094716981 0.013727985 2.6755874e-39
-0.010041937 -0.094204247 0.015794657 2.8599787e-39
-0.0083358996 -0.094204247 0.015794657 3.3209583e-39
-0.0067583211 -0.093462333 0.018785082 3.5053495e-39
-0.0050575249 -0.093462333 0.018785082 3.7819364e-39
-0.0033567324 -0.093462333 0.018785082 3.9663277e-39
-0.0017992482 -0.092724949 0.021757267 3.8741306e-39
-0.00010366365 -0.092724949 0.021757267 3.6897394e-39
0.0017456487 -0.093462333 0.018785082 3.5978997e-39
0.0034464449 -0.093462333 0.018785082 3.7822881e-39
0.0051472373 -0.093462333 0.018785082 3.7826539e-39
0.0068480298 -0.093462333 0.018785082 3.8759397e-39
0.008548826 -0.093462333 0.018785082 2.9543477e-39
0.0098855793 -0.091969252 0.024803244 3.6911967e-39
0.011575822 -0.091969252 0.024803244 5.9046107e-39
0.013266064 -0.091969252 0.024803244 5.0741312e-39
0.014956307 -0.091969252 0.024803244 5.6280238e-39
0.016646545 -0.091969252 0.024803244 5.8124151e-39
0.018336792 -0.091969252 0.024803244 5.8124151e-39
0.02002703 -0.091969252 0.024803244 5.2599644e-39
0.021717276 -0.091969252 0.024803244 4.7989834e-39
0.023634497 -0.092724949 0.021757267 4.7067878e-39
0.025556762 -0.093462333 0.018785082 4.4305568e-39
0.027257558 -0.093462333 0.018785082 4.2461656e-39
0.028958354 -0.093462333 0.018785082 4.8922524e-39
0.030659143 -0.093462333 0.018785082 5.1681219e-39
0.032359939 -0.093462333 0.018785082 4.1539699e-39
0.034060735 -0.093462333 0.018785082 4.4302009e-39
0.036021069 -0.094204247 0.015794657 5.0755731e-39
0.037727103 -0.094204247 0.015794657 5.2588882e-39
0.039433137 -0.094204247 0.015794657 4.8893868e-39
0.040863916 -0.093462333 0.018785082 5.4418375e-39
0.042564705 -0.093462333 0.018785082 6.7322134e-39
0.044265494 -0.093462333 0.018785082 7.4694085e-39
0.045966297 -0.093462333 0.018785082 7.5612328e-39
0.047667086 -0.093462333 0.018785082 5.4407165e-39
-0.06143355 -0.099909768 -0.00021282583 7.7473182e-39
-0.059642341 -0.098657846 0.0047978386 1.108542e-39
-0.057917021 -0.098657846 0.0047978386 2.0301816e-39
-0.056191705 -0.098657846 0.0047978386 2.3993509e-39
-0.054466385 -0.098657846 0.0047978386 2.1224277e-39
-0.052741066 -0.098657846 0.0047978386 2.7996122e-40
-0.05101575 -0.098657846 0.0047978386 8.4638427e-43
-0.049287833 -0.097917527 0.0077609047 8.4218038e-43
-0.04756771 -0.097917527 0.0077609047 1.844752e-39
-0.045847587 -0.097917527 0.0077609047 8.3024692e-40
-0.044127464 -0.097917527 0.0077609047 7.391457e-40
-0.042425998 -0.09715797 0.01080092 1.2012127e-39
-0.040711202 -0.09715797 0.01080092 7.4095338e-40
-0.038967095 -0.097917527 0.0077609047 1.3872855e-43
-0.037281618 -0.09715797 0.01080092 3.3673202e-42
-0.035566825 -0.09715797 0.01080092 2.6400463e-42
-0.033895656 -0.096426651 0.013727985 4.6325946e-40
-0.032185994 -0.096426651 0.013727985 7.3805129e-40
-0.030422447 -0.09715797 0.01080092 4.5932041e-40
-0.028707653 -0.09715797 0.01080092 3.6748492e-40
-0.027057013 -0.096426651 0.013727985 1.0124956e-39
-0.025347352 -0.096426651 0.013727985 9.2065169e-40
-0.023563275 -0.09715797 0.01080092 1.2051167e-43
-0.021848483 -0.09715797 0.01080092 1.1350518e-43
-0.020133689 -0.09715797 0.01080092 4.8765187e-43
-0.018418897 -0.09715797 0.01080092 1.2121232e-42
-0.016799048 -0.096426651 0.013727985 1.9323906e-42
-0.015089389 -0.096426651 0.013727985 9.412802e-41
-0.013379727 -0.096426651 0.013727985 9.3772091e-41
-0.011670068 -0.096426651 0.013727985 1.8596772e-40
-0.010041937 -0.095910296 0.015794657 3.7035898e-40
-0.0084591135 -0.095163137 0.018785082 5.5475024e-40
-0.0067583211 -0.095163137 0.018785082 4.6291054e-40
-0.0050575249 -0.095163137 0.018785082 8.3169026e-40
-0.0033567324 -0.095163137 0.018785082 1.292667e-39
-0.00165594 -0.095163137 0.018785082 1.5696098e-39
4.485622e-05 -0.095163137 0.018785082 1.5696042e-39
0.0017456487 -0.095163137 0.018785082 1.5699601e-39
0.0034464449 -0.095163137 0.018785082 1.8465456e-39
0.0049830824 -0.094420537 0.021757267 2.1231437e-39
0.0066786669 -0.094420537 0.021757267 1.6629097e-39
0.0083742477 -0.094420537 0.021757267 9.2571318e-40
0.0098855793 -0.09365949 0.024803244 1.2937698e-39
0.011575822 -0.09365949 0.024803244 1.8483743e-39
0.013266064 -0.09365949 0.024803244 1.2944761e-39
0.015156578 -0.094420537 0.021757267 1.9412748e-39
0.016646545 -0.09365949 0.024803244 1.6650425e-39
0.018336792 -0.09365949 0.024803244 1.9416237e-39
0.02002703 -0.09365949 0.024803244 2.1252919e-39
0.021717276 -0.09365949 0.024803244 1.7565094e-39
0.023634497 -0.094420537 0.021757267 2.2174876e-39
0.025556762 -0.095163137 0.018785082 2.5859141e-39
0.027257558 -0.095163137 0.018785082 2.6781154e-39
0.028958354 -0.095163137 0.018785082 3.1398166e-39
0.030659143 -0.095163137 0.018785082 3.876304e-39
0.032359939 -0.095163137 0.018785082 3.5075215e-39
0.034060735 -0.095163137 0.018785082 3.4153259e-39
0.035761535 -0.095163137 0.018785082 4.0606953e-39
0.037462324 -0.095163137 0.018785082 4.0599792e-39
0.039163113 -0.095163137 0.018785082 3.6911967e-39
0.040863916 -0.095163137 0.018785082 4.5198784e-39
0.042564705 -0.095163137 0.018785082 6.0868398e-39
0.044265494 -0.095163137 0.018785082 6.5478053e-39
0.045677066 -0.094420537 0.021757267 6.0864544e-39
0.047372654 -0.094420537 0.021757267 5.3488725e-39
-0.063137405 -0.1011332 0.0018168315 1.2356372e-38
-0.061406858 -0.1011332 0.0018168315 1.023625e-38
-0.059642341 -0.10038316 0.0047978386 1.2011048e-39
-0.057917021 -0.10038316 0.0047978386 1.754315e-39
-0.056191705 -0.10038316 0.0047978386 6.4763391e-40
-0.054448202 -0.099637643 0.0077609047 9.4830071e-41
-0.052728079 -0.099637643 0.0077609047 9.4474141e-41
-0.051007956 -0.099637643 0.0077609047 1.9057659e-42
-0.049285166 -0.098872766 0.01080092 2.6218294e-42
-0.047570378 -0.098872766 0.01080092 5.5292014e-40
-0.045847587 -0.099637643 0.0077609047 5.5292575e-40
-0.04414079 -0.098872766 0.01080092 8.2988118e-40
-0.042425998 -0.098872766 0.01080092 9.4055195e-39
-0.040711202 -0.098872766 0.01080092 8.5775623e-39
-0.038996413 -0.098872766 0.01080092 2.6470528e-42
-0.037281618 -0.098872766 0.01080092 3.7274539e-42
-0.035566825 -0.098872766 0.01080092 1.2751816e-43
-0.033895656 -0.098136306 0.013727985 1.3312335e-43
-0.032185994 -0.098136306 0.013727985 1.220531e-42
-0.030476334 -0.098136306 0.013727985 1.4573504e-43
-0.028707653 -0.098872766 0.01080092 4.6041062e-40
-0.027057013 -0.098136306 0.013727985 1.2901713e-39
-0.025347352 -0.098136306 0.013727985 8.6460115e-43
-0.023563275 -0.098872766 0.01080092 1.2751816e-43
-0.021848483 -0.098872766 0.01080092 3.7035898e-40
-0.020133689 -0.098872766 0.01080092 3.7001006e-40
-0.018418897 -0.098872766 0.01080092 9.2318384e-40
-0.016799048 -0.098136306 0.013727985 9.2353696e-40
-0.015089389 -0.098136306 0.013727985 2.7816615e-40
-0.013379727 -0.098136306 0.013727985 1.2191297e-42
-0.011670068 -0.098136306 0.013727985 1.8597052e-40
-0.010041937 -0.09761633 0.015794657 9.3420365e-41
-0.0084591135 -0.096863925 0.018785082 1.4433374e-43
-0.0067583211 -0.096863925 0.018785082 1.8597192e-40
-0.0050575249 -0.096863925 0.018785082 8.5479206e-43
-0.0033567324 -0.096863925 0.018785082 1.2611686e-43
-0.00165594 -0.096863925 0.018785082 1.5624478e-42
4.485622e-05 -0.096863925 0.018785082 3.3603137e-42
0.0017456487 -0.096863925 0.018785082 3.7190461e-42
0.0032875016 -0.096116111 0.021757267 3.361715e-42
0.0049830824 -0.096116111 0.021757267 2.6540593e-42
0.0066786669 -0.096116111 0.021757267 1.2948516e-39
0.0083742477 -0.096116111 0.021757267 1.2023029e-39
0.0098855793 -0.095349744 0.024803244 9.2571318e-40
0.011575822 -0.095349744 0.024803244 3.7484734e-42
0.013266064 -0.095349744 0.024803244 4.9746095e-43
0.014956307 -0.095349744 0.024803244 3.3729254e-42
0.016646545 -0.095349744 0.024803244 1.9239828e-42
0.018336792 -0.095349744 0.024803244 2.638645e-42
0.02002703 -0.095349744 0.024803244 4.7924407e-42
0.021938909 -0.096116111 0.021757267 1.9127724e-42
0.023634497 -0.096116111 0.021757267 2.9931735e-42
0.025330078 -0.096116111 0.021757267 4.0763772e-42
0.027257558 -0.096863925 0.018785082 1.5624478e-42
0.028958354 -0.096863925 0.018785082 1.2051167e-42
0.030659143 -0.096863925 0.018785082 1.5722569e-42
0.032359939 -0.096863925 0.018785082 8.5058817e-43
0.033807989 -0.096116111 0.021757267 1.2611686e-43
0.035503566 -0.096116111 0.021757267 1.568053e-42
0.037199154 -0.096116111 0.021757267 8.4778557e-43
0.038894743 -0.096116111 0.021757267 1.2331426e-43
0.040590316 -0.096116111 0.021757267 1.8631945e-40
0.042285904 -0.096116111 0.021757267 1.6610838e-39
0.043981493 -0.096116111 0.021757267 1.7529081e-39
0.045193002 -0.094864532 0.026731692 5.5435367e-40
0.046879873 -0.094864532 0.026731692 1.6603243e-39
-0.063137405 -0.10286374 0.0018168315 1.124932e-38
-0.061406858 -0.10286374 0.0018168315 9.6834516e-39
-0.059642341 -0.10210848 0.0047978386 1.4784259e-39
-0.057917021 -0.10210848 0.0047978386 1.0174758e-39
-0.056168325 -0.10135777 0.0077609047 7.4018407e-40
-0.054448202 -0.10135777 0.0077609047 2.7812692e-40
-0.052728079 -0.10135777 0.0077609047 2.951789e-39
-0.051007956 -0.10135777 0.0077609047 3.0436077e-39
-0.049285166 -0.10058756 0.01080092 1.2915263e-39
-0.047570378 -0.10058756 0.01080092 1.2897383e-39
-0.045855582 -0.10058756 0.01080092 7.2824542e-39
-0.04414079 -0.10058756 0.01080092 1.0786959e-38
-0.042425998 -0.10058756 0.01080092 1.4384026e-38
-0.040711202 -0.10058756 0.01080092 1.4937926e-38
-0.038996413 -0.10058756 0.01080092 4.639461e-40
-0.037281618 -0.10058756 0.01080092 1.1897024e-42
-0.035566825 -0.10058756 0.01080092 1.568053e-42
-0.033895656 -0.099845976 0.013727985 1.8668939e-40
-0.032185994 -0.099845976 0.013727985 1.2233336e-42
-0.030476334 -0.099845976 0.013727985 1.3732725e-43
-0.028707653 -0.10058756 0.01080092 2.2953269e-42
-0.027057013 -0.099845976 0.013727985 9.2425163e-40
-0.025347352 -0.099845976 0.013727985 2.7960529e-40
-0.023563275 -0.10058756 0.01080092 5.0586875e-43
-0.021928031 -0.099845976 0.013727985 1.4993894e-43
-0.02021837 -0.099845976 0.013727985 6.4624522e-40
-0.018418897 -0.10058756 0.01080092 5.0867134e-43
-0.016799048 -0.099845976 0.013727985 1.9365987e-39
-0.015089389 -0.099845976 0.013727985 1.6603635e-39
-0.013379727 -0.099845976 0.013727985 5.5329429e-40
-0.011670068 -0.099845976 0.013727985 2.7671301e-40
-0.010041937 -0.099322364 0.015794657 1.2331426e-43
-0.0083358996 -0.099322364 0.015794657 9.217391e-40
-0.0067583211 -0.098564714 0.018785082 9.3056027e-41
-0.0050575249 -0.098564714 0.018785082 4.6291054e-40
-0.0033567324 -0.098564714 0.018785082 1.1210388e-43
-0.00165594 -0.098564714 0.018785082 1.018943e-39
4.485622e-05 -0.098564714 0.018785082 4.4309057e-42
0.0017456487 -0.098564714 0.018785082 4.6757827e-40
0.0032875016 -0.097811699 0.021757267 3.7344604e-42
0.0049830824 -0.097811699 0.021757267 1.0207745e-39
0.0066786669 -0.097811699 0.021757267 2.4937437e-39
0.0083742477 -0.097811699 0.021757267 1.2019259e-39
0.0098855793 -0.097039983 0.024803244 1.1097331e-39
0.011575822 -0.097039983 0.024803244 9.2534184e-40
0.013266064 -0.097039983 0.024803244 8.6740375e-43
0.014956307 -0.097039983 0.024803244 1.4433374e-43
0.016646545 -0.097039983 0.024803244 2.305136e-42
0.018336792 -0.097039983 0.024803244 8.5899596e-43
0.02002703 -0.097039983 0.024803244 2.7888222e-40
0.021717276 -0.097039983 0.024803244 1.9323906e-42
0.023407515 -0.097039983 0.024803244 8.4918687e-43
0.025097761 -0.097039983 0.024803244 8.4778557e-43
0.027025659 -0.097811699 0.021757267 1.8560198e-40
0.028958354 -0.098564714 0.018785082 4.6219167e-40
0.030416828 -0.097811699 0.021757267 9.2332957e-41
0.031858731 -0.097039983 0.024803244 1.2471556e-43
0.03354897 -0.097039983 0.024803244 1.8596772e-40
0.035239205 -0.097039983 0.024803244 1.2891946e-43
0.036929458 -0.097039983 0.024803244 1.2471556e-43
0.038619697 -0.097039983 0.024803244 6.4693466e-40
0.040132418 -0.096551389 0.026731692 1.1350518e-43
0.041819289 -0.096551389 0.026731692 1.9373021e-39
0.043506145 -0.096551389 0.026731692 2.1213249e-39
0.044899642 -0.09578757 0.029746495 7.3766313e-40
0.046581209 -0.09578757 0.029746495 1.1986301e-39
0.04826279 -0.09578757 0.029746495 2.8581374e-39
-0.063137405 -0.10459428 0.0018168315 1.1157127e-38
-0.061406858 -0.10459428 0.0018168315 8.5767509e-39
-0.059642341 -0.10383381 0.0047978386 1.5706216e-39
-0.057917021 -0.10383381 0.0047978386 2.7990797e-40
-0.056168325 -0.1030779 0.0077609047 1.1672816e-42
-0.054448202 -0.1030779 0.0077609047 7.6541192e-39
-0.052728079 -0.1030779 0.0077609047 2.1575242e-38
-0.051007956 -0.1030779 0.0077609047 2.2496108e-38
-0.049285166 -0.10230236 0.01080092 1.6779644e-38
-0.047570378 -0.10230236 0.01080092 2.3324062e-38
-0.045855582 -0.10230236 0.01080092 2.3416256e-38
-0.04414079 -0.10230236 0.01080092 2.2772691e-38
-0.042443961 -0.10155563 0.013727985 2.3142185e-38
-0.040734299 -0.10155563 0.013727985 2.0745848e-38
-0.038996413 -0.10230236 0.01080092 4.7644148e-44
-0.037314977 -0.10155563 0.013727985 2.7846883e-40
-0.035605315 -0.10155563 0.013727985 6.4655771e-40
-0.033895656 -0.10155563 0.013727985 1.1630777e-43
-0.032185994 -0.10155563 0.013727985 1.9211802e-42
-0.030476334 -0.10155563 0.013727985 2.6330398e-42
-0.028766673 -0.10155563 0.013727985 1.0089349e-43
-0.027057013 -0.10155563 0.013727985 9.5288296e-44
-0.025347352 -0.10155563 0.013727985 1.9085685e-42
-0.023637692 -0.10155563 0.013727985 4.636224e-40
-0.021928031 -0.10155563 0.013727985 5.5510617e-40
-0.02021837 -0.10155563 0.013727985 9.2332957e-41
-0.018418897 -0.10230236 0.01080092 5.5294397e-40
-0.016799048 -0.10155563 0.013727985 1.0649868e-43
-0.015089389 -0.10155563 0.013727985 9.10844e-44
-0.013379727 -0.10155563 0.013727985 9.6689594e-44
-0.011670068 -0.10155563 0.013727985 2.7705913e-40
-0.010041937 -0.1010284 0.015794657 1.9358798e-39
-0.0083358996 -0.1010284 0.015794657 1.2471556e-43
-0.0066298619 -0.1010284 0.015794657 9.3057428e-41
-0.0050575249 -0.10026552 0.018785082 1.2004756e-39
-0.0033567324 -0.10026552 0.018785082 2.2757087e-42
-0.00165594 -0.10026552 0.018785082 1.0229479e-43
4.485622e-05 -0.10026552 0.018785082 1.9071672e-42
0.0017456487 -0.10026552 0.018785082 5.8160038e-39
0.0032875016 -0.099507287 0.021757267 6.1844458e-39
0.0049830824 -0.099507287 0.021757267 5.9071428e-39
0.0066786669 -0.099507287 0.021757267 5.5369044e-39
0.0083742477 -0.099507287 0.021757267 2.03239e-39
0.0098855793 -0.098730221 0.024803244 3.0099891e-42
0.011575822 -0.098730221 0.024803244 1.9365945e-42
0.013266064 -0.098730221 0.024803244 2.305136e-42
0.014956307 -0.098730221 0.024803244 4.6436649e-40
0.016646545 -0.098730221 0.024803244 9.2462577e-40
0.018336792 -0.098730221 0.024803244 2.3065373e-42
0.02002703 -0.098730221 0.024803244 1.9407984e-42
0.021717276 -0.098730221 0.024803244 3.7107785e-40
0.023407515 -0.098730221 0.024803244 5.5510337e-40
0.025097761 -0.098730221 0.024803244 1.2079193e-42
0.027025659 -0.099507287 0.021757267 1.2751816e-43
0.028721239 -0.099507287 0.021757267 8.3025112e-40
0.030416828 -0.099507287 0.021757267 1.383069e-39
0.031858731 -0.098730221 0.024803244 4.6219448e-40
0.03354897 -0.098730221 0.024803244 1.8596772e-40
0.035239205 -0.098730221 0.024803244 2.7816335e-40
0.036929458 -0.098730221 0.024803244 8.4918687e-43
0.038619697 -0.098730221 0.024803244 1.5652504e-42
0.040132418 -0.09823826 0.026731692 1.0789998e-43
0.041819289 -0.09823826 0.026731692 2.029495e-39
0.043218061 -0.097469151 0.029746495 2.6744972e-39
0.044899642 -0.097469151 0.029746495 1.8443666e-39
0.046581209 -0.097469151 0.029746495 1.475217e-39
0.04826279 -0.097469151 0.029746495 3.4113112e-39
-0.063137405 -0.10632484 0.0018168315 1.115748e-38
-0.061406858 -0.10632484 0.0018168315 7.7473406e-39
-0.059642341 -0.10555913 0.0047978386 2.0323102e-39
-0.057917021 -0.10555913 0.0047978386 2.215642e-39
-0.056168325 -0.104798 0.0077609047 1.5162049e-42
-0.054448202 -0.104798 0.0077609047 7.2846066e-39
-0.052728079 -0.104798 0.0077609047 2.2865961e-38
-0.051007956 -0.104798 0.0077609047 2.3233662e-38
-0.049285166 -0.10401715 0.01080092 2.3232944e-38
-0.047570378 -0.10401715 0.01080092 2.3508809e-38
-0.045855582 -0.10401715 0.01080092 2.2955285e-38
-0.04414079 -0.10401715 0.01080092 2.3509886e-38
-0.042443961 -0.1032653 0.013727985 2.3418045e-38
-0.040734299 -0.1032653 0.013727985 2.1483021e-38
-0.038996413 -0.10401715 0.01080092 2.491817e-39
-0.037314977 -0.1032653 0.013727985 1.9379537e-39
-0.035605315 -0.1032653 0.013727985 1.107854e-39
-0.033895656 -0.1032653 0.013727985 4.0574079e-39
-0.032185994 -0.1032653 0.013727985 2.767748e-39
-0.030476334 -0.1032653 0.013727985 1.3851653e-39
-0.028766673 -0.1032653 0.013727985 2.2224594e-42
-0.027057013 -0.1032653 0.013727985 6.479492e-40
-0.025347352 -0.1032653 0.013727985 4.1513859e-39
-0.023637692 -0.1032653 0.013727985 5.6250909e-39
-0.021928031 -0.1032653 0.013727985 3.3198484e-39
-0.02021837 -0.1032653 0.013727985 6.4582063e-40
-0.01850871 -0.1032653 0.013727985 7.9874012e-44
-0.016799048 -0.1032653 0.013727985 1.9372657e-39
-0.015089389 -0.1032653 0.013727985 1.5684832e-39
-0.013379727 -0.1032653 0.013727985 1.1078736e-39
-0.011670068 -0.1032653 0.013727985 1.0369609e-43
-0.010041937 -0.10273445 0.015794657 4.614672e-40
-0.0083358996 -0.10273445 0.015794657 1.8525306e-40
-0.0067583211 -0.10196631 0.018785082 5.0727004e-43
-0.0050575249 -0.10196631 0.018785082 1.9407984e-42
-0.0033567324 -0.10196631 0.018785082 9.591888e-41
-0.00165594 -0.10196631 0.018785082 6.5016045e-40
4.485622e-05 -0.10196631 0.018785082 1.3888017e-39
0.0017456487 -0.10196631 0.018785082 7.7506645e-39
0.0032875016 -0.10120286 0.021757267 6.9209178e-39
0.0049830824 -0.10120286 0.021757267 4.9844495e-39
0.0066786669 -0.10120286 0.021757267 4.9844355e-39
0.0083742477 -0.10120286 0.021757267 2.3096818e-39
0.0098855793 -0.10042046 0.024803244 3.7321903e-40
0.011575822 -0.10042046 0.024803244 4.4421161e-42
0.013266064 -0.10042046 0.024803244 3.3701228e-42
0.014956307 -0.10042046 0.024803244 3.7344604e-42
0.016646545 -0.10042046 0.024803244 1.8812572e-40
0.018336792 -0.10042046 0.024803244 2.6498554e-42
0.02002703 -0.10042046 0.024803244 3.7260526e-42
0.021717276 -0.10042046 0.024803244 3.3631163e-42
0.023407515 -0.10042046 0.024803244 5.5617116e-40
0.025097761 -0.10042046 0.024803244 4.6397553e-40
0.027025659 -0.10120286 0.021757267 2.9973774e-42
0.028721239 -0.10120286 0.021757267 2.7958707e-40
0.030416828 -0.10120286 0.021757267 4.636224e-40
0.031858731 -0.10042046 0.024803244 1.5666517e-42
0.03354897 -0.10042046 0.024803244 6.4766193e-40
0.035239205 -0.10042046 0.024803244 1.2008357e-39
0.036929458 -0.10042046 0.024803244 4.636252e-40
0.038619697 -0.10042046 0.024803244 9.4476944e-41
0.040132418 -0.099925116 0.026731692 1.1350518e-43
0.041819289 -0.099925116 0.026731692 1.015343e-39
0.043218061 -0.099150717 0.029746495 1.1993672e-39
0.044899642 -0.099150717 0.029746495 1.1989972e-39
0.046581209 -0.099150717 0.029746495 2.1205864e-39
0.04826279 -0.099150717 0.029746495 3.2269199e-39
0.049944356 -0.099150717 0.029746495 3.8719152e-39
-0.063167654 -0.10858028 -0.00021282583 1.1526259e-38
-0.06143355 -0.10858028 -0.00021282583 8.1161147e-39
-0.059676312 -0.10805537 0.0018168315 9.2559267e-40
-0.057917021 -0.10728444 0.0047978386 1.4777099e-39
-0.056191705 -0.10728444 0.0047978386 1.5049946e-42
-0.054448202 -0.10651813 0.0077609047 7.2845926e-39
-0.052728079 -0.10651813 0.0077609047 2.2312437e-38
-0.051007956 -0.10651813 0.0077609047 2.2679779e-38
-0.049285166 -0.10573195 0.01080092 2.3509527e-38
-0.047570378 -0.10573195 0.01080092 2.3232227e-38
-0.045855582 -0.10573195 0.01080092 2.1480863e-38
-0.04414079 -0.10573195 0.01080092 2.3141808e-38
-0.042443961 -0.10497494 0.013727985 2.2865217e-38
-0.040734299 -0.10497494 0.013727985 2.3326198e-38
-0.038996413 -0.10573195 0.01080092 2.1852159e-38
-0.037281618 -0.10573195 0.01080092 2.2128048e-38
-0.035566825 -0.10573195 0.01080092 2.3141467e-38
-0.033852033 -0.10573195 0.01080092 2.2588661e-38
-0.032185994 -0.10497494 0.013727985 1.9730638e-38
-0.030476334 -0.10497494 0.013727985 1.733426e-38
-0.028766673 -0.10497494 0.013727985 1.6228262e-38
-0.027057013 -0.10497494 0.013727985 1.7794864e-38
-0.025347352 -0.10497494 0.013727985 2.2219884e-38
-0.023637692 -0.10497494 0.013727985 2.3232944e-38
-0.021928031 -0.10497494 0.013727985 1.9822108e-38
-0.02021837 -0.10497494 0.013727985 1.7702334e-38
-0.01850871 -0.10497494 0.013727985 1.9270376e-38
-0.016799048 -0.10497494 0.013727985 1.8625723e-38
-0.015089389 -0.10497494 0.013727985 2.2590096e-38
-0.013379727 -0.10497494 0.013727985 1.6781836e-38
-0.011670068 -0.10497494 0.013727985 8.4077908e-44
-0.010041937 -0.10444047 0.015794657 1.2051167e-42
-0.0083358996 -0.10444047 0.015794657 2.7781162e-40
-0.0067583211 -0.1036671 0.018785082 9.3786104e-41
-0.0050575249 -0.1036671 0.018785082 1.3032076e-43
-0.0033567324 -0.1036671 0.018785082 1.2079193e-42
-0.00165594 -0.1036671 0.018785082 5.352139e-39
4.485622e-05 -0.1036671 0.018785082 7.8417727e-39
0.0017456487 -0.1036671 0.018785082 1.0331055e-38
0.0034464449 -0.1036671 0.018785082 8.4864345e-39
0.0049830824 -0.10289843 0.021757267 4.6145739e-39
0.0066786669 -0.10289843 0.021757267 4.6611951e-40
0.0083742477 -0.10289843 0.021757267 5.4986952e-42
0.010069832 -0.10289843 0.021757267 4.7868356e-42
0.011575822 -0.1021107 0.024803244 9.6988071e-41
0.013266064 -0.1021107 0.024803244 3.7190461e-42
0.014956307 -0.1021107 0.024803244 4.0819824e-42
0.016646545 -0.1021107 0.024803244 4.6506434e-40
0.018336792 -0.1021107 0.024803244 1.018594e-39
0.02002703 -0.1021107 0.024803244 3.7430083e-40
0.021717276 -0.1021107 0.024803244 3.7106383e-42
0.023407515 -0.1021107 0.024803244 3.7106383e-42
0.025097761 -0.1021107 0.024803244 5.5796482e-40
0.027025659 -0.10289843 0.021757267 6.5016185e-40
0.028721239 -0.10289843 0.021757267 3.7429803e-40
0.030416828 -0.10289843 0.021757267 3.7430083e-40
0.031858731 -0.1021107 0.024803244 2.8210801e-40
0.03354897 -0.1021107 0.024803244 1.2331426e-43
0.035239205 -0.1021107 0.024803244 3.3659189e-42
0.036929458 -0.1021107 0.024803244 2.6428489e-42
0.038445562 -0.10161197 0.026731692 1.9197789e-42
0.040132418 -0.10161197 0.026731692 2.7922133e-40
0.041819289 -0.10161197 0.026731692 1.1086177e-39
0.043506145 -0.10161197 0.026731692 1.4766729e-39
0.044899642 -0.1008323 0.029746495 2.0294781e-39
0.046581209 -0.1008323 0.029746495 2.3056965e-39
0.04826279 -0.1008323 0.029746495 2.3978781e-39
0.049944356 -0.1008323 0.029746495 2.3978641e-39
-0.063212536 -0.11109848 -0.0032243505 1.180248e-38
-0.06143355 -0.11031438 -0.00021282583 8.4845301e-39
-0.059699446 -0.11031438 -0.00021282583 1.9390159e-39
-0.057917021 -0.10900976 0.0047978386 2.1227079e-39
-0.056191705 -0.10900976 0.0047978386 4.9045446e-44
-0.054466385 -0.10900976 0.0047978386 6.8236033e-39
-0.052728079 -0.10823826 0.0077609047 2.3141826e-38
-0.051007956 -0.10823826 0.0077609047 2.3509527e-38
-0.049285166 -0.10744675 0.01080092 2.3416971e-38
-0.047570378 -0.10744675 0.01080092 2.2218431e-38
-0.045855582 -0.10744675 0.01080092 2.1573059e-38
-0.04414079 -0.10744675 0.01080092 2.3509873e-38
-0.042443961 -0.10668461 0.013727985 2.3141804e-38
-0.040734299 -0.10668461 0.013727985 2.3326196e-38
-0.038996413 -0.10744675 0.01080092 2.3418043e-38
-0.037281618 -0.10744675 0.01080092 2.3234379e-38
-0.035566825 -0.10744675 0.01080092 2.2680496e-38
-0.033852033 -0.10744675 0.01080092 2.3233303e-38
-0.032185994 -0.10668461 0.013727985 2.2311361e-38
-0.030476334 -0.10668461 0.013727985 2.2126613e-38
-0.028808344 -0.1061465 0.015794657 2.13894e-38
-0.027102306 -0.1061465 0.015794657 2.0743665e-38
-0.025396271 -0.1061465 0.015794657 2.3048556e-38
-0.023637692 -0.10668461 0.013727985 2.3508809e-38
-0.021928031 -0.10668461 0.013727985 2.2956003e-38
-0.02021837 -0.10668461 0.013727985 2.2035849e-38
-0.01850871 -0.10668461 0.013727985 2.2958873e-38
-0.016704105 -0.10744675 0.01080092 2.1853618e-38
-0.014989313 -0.10744675 0.01080092 2.2037648e-38
-0.013379727 -0.10668461 0.013727985 1.7613017e-38
-0.011670068 -0.10668461 0.013727985 5.5649766e-40
-0.010041937 -0.1061465 0.015794657 1.0649868e-43
-0.0083358996 -0.1061465 0.015794657 3.7180232e-40
-0.0067583211 -0.10536788 0.018785082 1.2012141e-39
-0.0050575249 -0.10536788 0.018785082 2.3065373e-42
-0.0033567324 -0.10536788 0.018785082 2.6512567e-42
-0.00165594 -0.10536788 0.018785082 7.4719196e-39
4.485622e-05 -0.10536788 0.018785082 1.0053026e-38
0.0017456487 -0.10536788 0.018785082 9.3154566e-39
0.0032875016 -0.10459404 0.021757267 8.2083944e-39
0.0049830824 -0.10459404 0.021757267 3.2305479e-39
0.0066786669 -0.10459404 0.021757267 1.8916829e-40
0.0083742477 -0.10459404 0.021757267 5.5866967e-40
0.010069832 -0.10459404 0.021757267 4.6611951e-40
0.011765413 -0.10459404 0.021757267 9.7342599e-41
0.013460997 -0.10459404 0.021757267 4.4365109e-42
0.015156578 -0.10459404 0.021757267 1.8883057e-40
0.016646545 -0.10380094 0.024803244 5.5211159e-42
0.018336792 -0.10380094 0.024803244 9.7713943e-41
0.02002703 -0.10380094 0.024803244 4.0735746e-42
0.021717276 -0.10380094 0.024803244 1.1125791e-39
0.023407515 -0.10380094 0.024803244 8.3670971e-40
0.025097761 -0.10380094 0.024803244 4.0693707e-42
0.027025659 -0.10459404 0.021757267 3.7120396e-42
0.028721239 -0.10459404 0.021757267 7.676313e-42
0.030168485 -0.10380094 0.024803244 9.2927948e-40
0.031858731 -0.10380094 0.024803244 1.3902576e-39
0.033384982 -0.10329883 0.026731692 6.5125066e-40
0.035071835 -0.10329883 0.026731692 2.3104091e-39
0.036929458 -0.10380094 0.024803244 1.7561563e-39
0.038445562 -0.10329883 0.026731692 4.7504018e-43
0.040132418 -0.10329883 0.026731692 1.5526387e-42
0.041819289 -0.10329883 0.026731692 1.2018923e-39
0.043506145 -0.10329883 0.026731692 2.1231213e-39
0.044899642 -0.10251388 0.029746495 1.5692189e-39
0.046581209 -0.10251388 0.029746495 1.9369112e-39
0.04826279 -0.10251388 0.029746495 3.3198316e-39
0.049944356 -0.10251388 0.029746495 3.6886001e-39
-0.06143355 -0.11204849 -0.00021282583 9.4979561e-39
-0.059676312 -0.11151646 0.0018168315 3.1371948e-39
-0.057917021 -0.11073507 0.0047978386 3.1364969e-39
-0.056191705 -0.11073507 0.0047978386 4.1198175e-43
-0.054466385 -0.11073507 0.0047978386 5.0708073e-39
-0.052728079 -0.1099584 0.0077609047 2.2219525e-38
-0.051007956 -0.1099584 0.0077609047 2.3048556e-38
-0.049285166 -0.10916151 0.01080092 2.3509527e-38
-0.047570378 -0.10916151 0.01080092 2.2864164e-38
-0.045863278 -0.10839428 0.013727985 2.2219513e-38
-0.04415362 -0.10839428 0.013727985 2.3141816e-38
-0.042443961 -0.10839428 0.013727985 2.3234367e-38
-0.040734299 -0.10839428 0.013727985 2.3234367e-38
-0.039024636 -0.10839428 0.013727985 2.1115309e-38
-0.037314977 -0.10839428 0.013727985 2.3234379e-38
-0.035605315 -0.10839428 0.013727985 2.3049632e-38
-0.033895656 -0.10839428 0.013727985 2.2865243e-38
-0.032185994 -0.10839428 0.013727985 2.2865243e-38
-0.030476334 -0.10839428 0.013727985 2.3417691e-38
-0.028808344 -0.10785256 0.015794657 2.3509527e-38
-0.027102306 -0.10785256 0.015794657 2.2679762e-38
-0.025396271 -0.10785256 0.015794657 2.3139661e-38
-0.023690233 -0.10785256 0.015794657 2.3509527e-38
-0.021984195 -0.10785256 0.015794657 2.3325131e-38
-0.02021837 -0.10839428 0.013727985 2.341804e-38
-0.01850871 -0.10839428 0.013727985 2.2682991e-38
-0.016704105 -0.10916151 0.01080092 2.2406775e-38
-0.015089389 -0.10839428 0.013727985 1.3464177e-38
-0.013379727 -0.10839428 0.013727985 1.2819196e-38
-0.011670068 -0.10839428 0.013727985 9.2236001e-39
-0.010041937 -0.10785256 0.015794657 2.8065906e-40
-0.0083358996 -0.10785256 0.015794657 9.2569076e-40
-0.0067583211 -0.1070687 0.018785082 3.3855371e-42
-0.0050575249 -0.1070687 0.018785082 6.4875214e-40
-0.0033567324 -0.1070687 0.018785082 3.0458245e-39
-0.00165594 -0.1070687 0.018785082 9.9601226e-39
4.485622e-05 -0.1070687 0.018785082 8.3927843e-39
0.0017456487 -0.1070687 0.018785082 2.0309201e-39
0.0032875016 -0.10628961 0.021757267 1.1082407e-39
0.0049830824 -0.10628961 0.021757267 1.8931542e-42
0.0066786669 -0.10628961 0.021757267 1.2025943e-39
0.0083742477 -0.10628961 0.021757267 3.6011227e-39
0.010069832 -0.10628961 0.021757267 4.4305316e-39
0.011765413 -0.10628961 0.021757267 3.231994e-39
0.013460997 -0.10628961 0.021757267 2.3096832e-39
0.015156578 -0.10628961 0.021757267 1.4795666e-39
0.016646545 -0.10549118 0.024803244 5.5183134e-42
0.018336792 -0.10549118 0.024803244 2.6358424e-42
0.02002703 -0.10549118 0.024803244 1.0203863e-39
0.021717276 -0.10549118 0.024803244 8.2123615e-39
0.023407515 -0.10549118 0.024803244 8.6744186e-39
0.025097761 -0.10549118 0.024803244 2.9586525e-39
0.027025659 -0.10628961 0.021757267 6.5448486e-40
0.028721239 -0.10628961 0.021757267 1.6686424e-39
0.030168485 -0.10549118 0.024803244 2.1299849e-39
0.031858731 -0.10549118 0.024803244 2.7746326e-39
0.033384982 -0.1049857 0.026731692 5.5383351e-39
0.035071835 -0.1049857 0.026731692 7.2896863e-39
0.036758706 -0.1049857 0.026731692 5.9985874e-39
0.038445562 -0.1049857 0.026731692 2.8245833e-40
0.040132418 -0.1049857 0.026731692 4.6943499e-43
0.041819289 -0.1049857 0.026731692 8.3418877e-40
0.043506145 -0.1049857 0.026731692 2.3078727e-39
0.044899642 -0.10419546 0.029746495 2.7955904e-40
0.046581209 -0.10419546 0.029746495 1.3848164e-39
0.04826279 -0.10419546 0.029746495 6.178615e-39
0.049944356 -0.10419546 0.029746495 7.561534e-39
-0.06143355 -0.1137826 -0.00021282583 1.0234802e-38
-0.059642341 -0.11246039 0.0047978386 1.7539002e-39
-0.057917021 -0.11246039 0.0047978386 9.2308294e-40
-0.056191705 -0.11246039 0.0047978386 7.3833996e-40
-0.054466385 -0.11246039 0.0047978386 6.5452241e-39
-0.052728079 -0.1116785 0.0077609047 2.3047838e-38
-0.051007956 -0.1116785 0.0077609047 2.3508809e-38
-0.049285166 -0.11087631 0.01080092 2.3325138e-38
-0.047570378 -0.11087631 0.01080092 2.2681572e-38
-0.045863278 -0.11010392 0.013727985 2.2591172e-38
-0.04415362 -0.11010392 0.013727985 2.2499336e-38
-0.042443961 -0.11010392 0.013727985 2.2867037e-38
-0.040734299 -0.11010392 0.013727985 2.2867034e-38
-0.039024636 -0.11010392 0.013727985 2.0840528e-38
-0.037314977 -0.11010392 0.013727985 2.2867037e-38
-0.035605315 -0.11010392 0.013727985 2.2867037e-38
-0.033895656 -0.11010392 0.013727985 2.2958873e-38
-0.032185994 -0.11010392 0.013727985 2.2958873e-38
-0.030476334 -0.11010392 0.013727985 2.3142544e-38
-0.028808344 -0.1095586 0.015794657 2.3234379e-38
-0.027102306 -0.1095586 0.015794657 2.3418047e-38
-0.025396271 -0.1095586 0.015794657 2.350988e-38
-0.023766259 -0.10876949 0.018785082 2.3509879e-38
-0.022065466 -0.10876949 0.018785082 2.3233288e-38
-0.02021837 -0.11010392 0.013727985 2.2404958e-38
-0.01850871 -0.11010392 0.013727985 2.3234364e-38
-0.016799048 -0.11010392 0.013727985 2.1945794e-38
-0.015089389 -0.11010392 0.013727985 1.7612979e-38
-0.013379727 -0.11010392 0.013727985 1.5770532e-38
-0.011747971 -0.1095586 0.015794657 1.1806151e-38
-0.010041937 -0.1095586 0.015794657 5.7212704e-39
-0.0083358996 -0.1095586 0.015794657 4.4407148e-42
-0.0067583211 -0.10876949 0.018785082 8.5198947e-43
-0.0050575249 -0.10876949 0.018785082 5.5798724e-40
-0.0033567324 -0.10876949 0.018785082 5.8127668e-39
-0.00165594 -0.10876949 0.018785082 9.9604799e-39
4.485622e-05 -0.10876949 0.018785082 7.8392504e-39
0.0017456487 -0.10876949 0.018785082 2.4904563e-39
0.0032875016 -0.10798518 0.021757267 7.3801626e-40
0.0049830824 -0.10798518 0.021757267 2.7673991e-39
0.0066786669 -0.10798518 0.021757267 1.5706608e-39
0.0083742477 -0.10798518 0.021757267 5.4443192e-39
0.010069832 -0.10798518 0.021757267 7.1956844e-39
0.011765413 -0.10798518 0.021757267 6.1811794e-39
0.013460997 -0.10798518 0.021757267 5.9971525e-39
0.015156578 -0.10798518 0.021757267 5.6283727e-39
0.016852159 -0.10798518 0.021757267 3.0479741e-39
0.018336792 -0.10718144 0.024803244 8.3599785e-40
0.02002703 -0.10718144 0.024803244 5.1539758e-42
0.021938909 -0.10798518 0.021757267 9.596019e-39
0.023407515 -0.10718144 0.024803244 1.0518694e-38
0.025097761 -0.10718144 0.024803244 3.3281581e-39
0.027025659 -0.10798518 0.021757267 4.7046074e-40
0.028721239 -0.10798518 0.021757267 4.7082647e-40
0.030168485 -0.10718144 0.024803244 7.4813784e-40
0.031858731 -0.10718144 0.024803244 3.5125634e-39
0.033384982 -0.10667257 0.026731692 6.7383104e-39
0.035071835 -0.10667257 0.026731692 7.2907569e-39
0.036758706 -0.10667257 0.026731692 8.2119972e-39
0.038445562 -0.10667257 0.026731692 4.8922356e-39
0.040132418 -0.10667257 0.026731692 2.3096818e-39
0.041819289 -0.10667257 0.026731692 1.2029713e-39
0.043506145 -0.10667257 0.026731692 2.7688509e-39
0.045193002 -0.10667257 0.026731692 1.7546891e-39
0.046581209 -0.10587703 0.029746495 1.7535961e-39
0.04826279 -0.10587703 0.029746495 9.0366781e-39
0.049944356 -0.10587703 0.029746495 1.0603987e-38
-0.061328694 -0.11339863 0.0077609047 9.2206504e-39
-0.059608571 -0.11339863 0.0077609047 2.0294109e-39
-0.057888448 -0.11339863 0.0077609047 1.1993167e-39
-0.056191705 -0.11418571 0.0047978386 8.2910626e-40
-0.054448202 -0.11339863 0.0077609047 4.3321801e-39
-0.052728079 -0.11339863 0.0077609047 1.9635925e-38
-0.051007956 -0.11339863 0.0077609047 1.972774e-38
-0.049285166 -0.1125911 0.01080092 1.7240245e-38
-0.047570378 -0.1125911 0.01080092 1.8073962e-38
-0.045863278 -0.11181359 0.013727985 1.9181745e-38
-0.04415362 -0.11181359 0.013727985 1.9183179e-38
-0.042443961 -0.11181359 0.013727985 1.9367565e-38
-0.040734299 -0.11181359 0.013727985 1.9091335e-38
-0.039024636 -0.11181359 0.013727985 2.2316024e-38
-0.037281618 -0.1125911 0.01080092 2.0842695e-38
-0.035566825 -0.1125911 0.01080092 2.1672458e-38
-0.033852033 -0.1125911 0.01080092 2.2132353e-38
-0.032185994 -0.11181359 0.013727985 2.2499695e-38
-0.030476334 -0.11181359 0.013727985 2.1577744e-38
-0.028766673 -0.11181359 0.013727985 2.0471033e-38
-0.027102306 -0.11126463 0.015794657 2.1392623e-38
-0.025396271 -0.11126463 0.015794657 2.2867026e-38
-0.023766259 -0.11047028 0.018785082 2.3050696e-38
-0.022065466 -0.11047028 0.018785082 2.2865581e-38
-0.02027816 -0.11126463 0.015794657 2.3234367e-38
-0.01850871 -0.11181359 0.013727985 2.3234374e-38
-0.016799048 -0.11181359 0.013727985 2.2958873e-38
-0.015089389 -0.11181359 0.013727985 2.2775202e-38
