# .PCD v0.7 - Point Cloud Data file format
VERSION 0.7
FIELDS x y z rgb
SIZE 4 4 4 4
TYPE F F F F
COUNT 1 1 1 1
WIDTH 929
HEIGHT 1
VIEWPOINT 0 0 0 1 0 0 0
POINTS 929
DATA ascii
-0.01744882 -0.082227543 0.0073397532 2.3509886e-38
-0.015704125 -0.082227543 0.0073397532 2.3509886e-38
-0.013959428 -0.082227543 0.0073397532 2.3509883e-38
-0.012214733 -0.082227543 0.0073397532 2.350988e-38
0.042129673 -0.09651424 -0.05462452 6.5945106e-42
0.043797627 -0.09582752 -0.051646076 5.16939e-42
0.045645744 -0.09582752 -0.051646076 8.6179856e-43
0.04788664 -0.097204864 -0.057619892 1.1147792e-39
0.049341984 -0.09582752 -0.051646076 2.8430244e-40
0.050909296 -0.094892681 -0.04759153 7.3582182e-42
0.052541599 -0.094215035 -0.044652425 1.39065e-39
0.054156944 -0.093516305 -0.041621886 7.4527498e-40
0.055762954 -0.092821583 -0.038608752 1.002615e-40
0.05758822 -0.092821583 -0.038608752 9.9182504e-41
0.059648573 -0.093516305 -0.041621886 6.5164302e-40
0.061955344 -0.094892681 -0.04759153 1.1122652e-39
0.063796349 -0.094892681 -0.04759153 1.5721686e-39
0.065637358 -0.094892681 -0.04759153 1.5721686e-39
0.068076439 -0.09651424 -0.05462452 2.401209e-39
0.069929771 -0.09651424 -0.05462452 2.7696258e-39
0.071783118 -0.09651424 -0.05462452 3.5064649e-39
0.07363645 -0.09651424 -0.05462452 5.1652478e-39
0.075765528 -0.097204864 -0.057619892 6.2715673e-39
0.077906691 -0.097899407 -0.060632311 5.3499628e-39
0.08015693 -0.098831654 -0.064675651 4.9811942e-39
0.082313918 -0.099509358 -0.067614995 6.549236e-39
0.084190033 -0.099509358 -0.067614995 9.2254078e-39
0.086375616 -0.10021709 -0.070684515 1.0978923e-38
0.088667937 -0.10114056 -0.074689828 9.2279399e-39
0.090556465 -0.10114056 -0.074689828 5.3560766e-39
0.092762671 -0.10183108 -0.077684723 3.974196e-39
0.094656445 -0.10183108 -0.077684723 1.3009349e-38
0.096982144 -0.10273984 -0.081626259 1.7894998e-38
0.098882817 -0.10273984 -0.081626259 2.1489505e-38
0.10112657 -0.10343929 -0.084659897 1.8543953e-38
0.10303258 -0.10343929 -0.084659897 1.4671399e-38
0.10528054 -0.1041155 -0.087592803 1.402459e-38
0.10719169 -0.1041155 -0.087592803 6.0932535e-39
0.10910284 -0.1041155 -0.087592803 1.8486714e-39
0.11150316 -0.10504107 -0.091607176 1.5702726e-39
0.11342134 -0.10504107 -0.091607176 3.7133008e-40
0.11533953 -0.10504107 -0.091607176 1.3843792e-39
0.11725771 -0.10504107 -0.091607176 2.5818294e-39
-0.061303571 -0.085369945 0.0013233796 2.3505581e-38
-0.059548326 -0.085369945 0.0013233796 2.3505581e-38
-0.057900399 -0.086063579 -0.0016623363 2.3507374e-38
-0.05613992 -0.086063579 -0.0016623363 2.3507373e-38
-0.054379441 -0.086063579 -0.0016623363 2.3507353e-38
-0.052618962 -0.086063579 -0.0016623363 2.3509863e-38
-0.050858479 -0.086063579 -0.0016623363 2.2771579e-38
-0.049098 -0.086063579 -0.0016623363 2.2770876e-38
-0.047337521 -0.086063579 -0.0016623363 2.28638e-38
-0.045577038 -0.086063579 -0.0016623363 2.3509527e-38
-0.043751124 -0.085369945 0.0013233796 2.3509883e-38
-0.041995879 -0.085369945 0.0013233796 2.3509524e-38
-0.040240634 -0.085369945 0.0013233796 2.2956346e-38
-0.038485389 -0.085369945 0.0013233796 2.3232933e-38
-0.036684442 -0.08465752 0.0043899789 2.350988e-38
-0.034934573 -0.08465752 0.0043899789 2.350988e-38
-0.033219654 -0.085369945 0.0013233796 2.350988e-38
-0.031406391 -0.083972245 0.0073397532 2.350988e-38
-0.029661695 -0.083972245 0.0073397532 2.3509883e-38
-0.027916998 -0.083972245 0.0073397532 2.3509883e-38
-0.026172303 -0.083972245 0.0073397532 2.3509886e-38
-0.024419637 -0.083268344 0.010369636 2.3509886e-38
-0.022680253 -0.083268344 0.010369636 2.3509886e-38
-0.02094087 -0.083268344 0.010369636 2.3509883e-38
-0.019193517 -0.083972245 0.0073397532 2.3418047e-38
-0.01744882 -0.083972245 0.0073397532 2.350988e-38
-0.015704125 -0.083972245 0.0073397532 2.350988e-38
-0.013983335 -0.083268344 0.010369636 2.3509879e-38
-0.012243951 -0.083268344 0.010369636 2.3509876e-38
0.041949511 -0.097675636 -0.051646076 1.1147736e-39
0.043797627 -0.097675636 -0.051646076 5.9148808e-42
0.045645744 -0.097675636 -0.051646076 6.2834223e-42
0.047493868 -0.097675636 -0.051646076 3.7722815e-40
0.049068287 -0.096733689 -0.04759153 6.6463586e-42
0.050705746 -0.096050888 -0.044652425 1.206986e-39
0.052112438 -0.094646841 -0.038608752 1.0222276e-39
0.053937696 -0.094646841 -0.038608752 7.4599385e-40
0.055246711 -0.093037367 -0.031680785 5.6123965e-40
0.057059817 -0.093037367 -0.031680785 6.5235628e-40
0.059648573 -0.095346853 -0.041621886 9.2822431e-40
0.061479118 -0.095346853 -0.041621886 1.2970124e-39
0.063556723 -0.096050888 -0.044652425 1.8487513e-39
0.065392591 -0.096050888 -0.044652425 1.9409469e-39
0.067228444 -0.096050888 -0.044652425 4.0618023e-39
0.069064297 -0.096050888 -0.044652425 4.2458278e-39
0.071160398 -0.096733689 -0.04759153 3.6922897e-39
0.073367514 -0.097675636 -0.051646076 3.2309374e-39
0.07521563 -0.097675636 -0.051646076 3.4156608e-39
0.077343144 -0.098367572 -0.05462452 3.9691891e-39
0.079770558 -0.099763289 -0.060632311 4.7989638e-39
0.08163444 -0.099763289 -0.060632311 5.6305195e-39
0.08389885 -0.10070263 -0.064675651 7.3847336e-39
0.086066149 -0.10138547 -0.067614995 8.3996002e-39
0.088257112 -0.10209858 -0.070684515 6.464222e-39
0.090138607 -0.10209858 -0.070684515 6.5556904e-39
0.092444979 -0.10302909 -0.074689828 7.2006688e-39
0.094656445 -0.10372485 -0.077684723 1.6604964e-38
0.096550219 -0.10372485 -0.077684723 2.075231e-38
0.098882817 -0.10464053 -0.081626259 2.1305834e-38
0.1007835 -0.10464053 -0.081626259 1.8911654e-38
0.10303258 -0.10534529 -0.084659897 1.2919316e-38
0.10528054 -0.10602666 -0.087592803 1.2549097e-38
0.10719169 -0.10602666 -0.087592803 6.6464259e-39
0.10910284 -0.10602666 -0.087592803 2.8628205e-39
0.11150316 -0.10695927 -0.091607176 1.5702712e-39
0.11342134 -0.10695927 -0.091607176 1.8693742e-40
0.11483627 -0.10602666 -0.087592803 1.6609633e-39
0.11674742 -0.10602666 -0.087592803 1.8449832e-39
0.11865856 -0.10602666 -0.087592803 1.8439098e-39
-0.061303571 -0.087125197 0.0013233796 3.0360575e-39
-0.059548326 -0.087125197 0.0013233796 8.1053612e-39
-0.057900399 -0.087824062 -0.0016623363 1.2715124e-38
-0.05613992 -0.087824062 -0.0016623363 1.8985485e-38
-0.054379441 -0.087824062 -0.0016623363 2.3507733e-38
-0.052618962 -0.087824062 -0.0016623363 2.3508797e-38
-0.050858479 -0.087824062 -0.0016623363 2.3509153e-38
-0.049098 -0.087824062 -0.0016623363 2.350952e-38
-0.047337521 -0.087824062 -0.0016623363 2.3509521e-38
-0.045577038 -0.087824062 -0.0016623363 2.3140016e-38
-0.043751124 -0.087125197 0.0013233796 2.3324407e-38
-0.041995879 -0.087125197 0.0013233796 2.3509518e-38
-0.040240634 -0.087125197 0.0013233796 2.3509876e-38
-0.038485389 -0.087125197 0.0013233796 2.3509879e-38
-0.036684442 -0.086407393 0.0043899789 2.3509879e-38
-0.034934573 -0.086407393 0.0043899789 2.3509879e-38
-0.033151086 -0.085716933 0.0073397532 2.3509879e-38
-0.031406391 -0.085716933 0.0073397532 2.350988e-38
-0.029661695 -0.085716933 0.0073397532 2.3509883e-38
-0.027916998 -0.085716933 0.0073397532 2.3509886e-38
-0.026159022 -0.085007742 0.010369636 2.3509886e-38
-0.024419637 -0.085007742 0.010369636 2.3509886e-38
-0.022680253 -0.085007742 0.010369636 2.3509886e-38
-0.02094087 -0.085007742 0.010369636 2.3418047e-38
-0.019201485 -0.085007742 0.010369636 2.3418045e-38
-0.017462101 -0.085007742 0.010369636 2.350988e-38
-0.015722718 -0.085007742 0.010369636 2.3509879e-38
-0.013983335 -0.085007742 0.010369636 2.3509879e-38
-0.012243951 -0.085007742 0.010369636 2.3509876e-38
0.011049051 -0.089922056 -0.010625444 2.3417687e-38
0.012825243 -0.089922056 -0.010625444 2.3049273e-38
0.018033937 -0.089210689 -0.0075863227 2.2406066e-38
0.019804802 -0.089210689 -0.0075863227 2.1024229e-38
0.021575671 -0.089210689 -0.0075863227 1.254335e-38
0.023346536 -0.089210689 -0.0075863227 8.5796727e-39
0.025400672 -0.090637714 -0.013682924 4.9851389e-39
0.027182229 -0.090637714 -0.013682924 2.0352543e-39
0.028963782 -0.090637714 -0.013682924 5.6086411e-40
0.030745339 -0.090637714 -0.013682924 4.6904402e-40
0.041949511 -0.099523753 -0.051646076 2.3126175e-39
0.043797627 -0.099523753 -0.051646076 2.3275567e-42
0.045645744 -0.099523753 -0.051646076 7.0120975e-42
0.047493868 -0.099523753 -0.051646076 5.6126348e-40
0.048665315 -0.097177386 -0.041621886 7.0064923e-42
0.05028718 -0.096472099 -0.038608752 7.4564493e-40
0.051899709 -0.095770895 -0.035613023 8.3819228e-40
0.053719722 -0.095770895 -0.035613023 1.3913605e-39
0.055246711 -0.094850481 -0.031680785 2.2207568e-39
0.057059817 -0.094850481 -0.031680785 3.2341884e-39
0.059413478 -0.096472099 -0.038608752 4.0621513e-39
0.061238732 -0.096472099 -0.038608752 4.3387409e-39
0.063309647 -0.097177386 -0.041621886 4.3376675e-39
0.065392591 -0.097886756 -0.044652425 4.1536322e-39
0.067228444 -0.097886756 -0.044652425 2.8628892e-39
0.069064297 -0.097886756 -0.044652425 1.6647019e-39
0.071160398 -0.098574698 -0.04759153 4.4589317e-42
0.073367514 -0.099523753 -0.051646076 2.6442502e-42
0.07521563 -0.099523753 -0.051646076 1.0196506e-39
0.077343144 -0.10022092 -0.05462452 3.1412263e-39
0.079770558 -0.10162716 -0.060632311 3.971001e-39
0.08163444 -0.10162716 -0.060632311 3.2348723e-39
0.08389885 -0.10257359 -0.064675651 4.6192248e-39
0.086066149 -0.1032616 -0.067614995 2.5001589e-39
0.087942265 -0.1032616 -0.067614995 3.2373722e-39
0.089818381 -0.1032616 -0.067614995 1.1995586e-38
0.092020117 -0.10398008 -0.070684515 1.6051441e-38
0.094333507 -0.1049176 -0.074689828 2.1121087e-38
0.096550219 -0.10561861 -0.077684723 2.1580623e-38
0.098443992 -0.10561861 -0.077684723 1.9184629e-38
0.1007835 -0.1065412 -0.081626259 1.6790798e-38
0.10303258 -0.1072513 -0.084659897 1.2827475e-38
0.10528054 -0.1079378 -0.087592803 1.3286657e-38
0.10719169 -0.1079378 -0.087592803 8.2133858e-39
0.10910284 -0.1079378 -0.087592803 3.6929357e-39
0.11150316 -0.10887744 -0.091607176 6.4867087e-40
0.11342134 -0.10887744 -0.091607176 2.2420775e-44
0.11483627 -0.1079378 -0.087592803 7.2166871e-43
0.11674742 -0.1079378 -0.087592803 7.3863563e-40
0.11865856 -0.1079378 -0.087592803 1.1063448e-39
-0.057900399 -0.089584544 -0.0016623363 1.2857656e-39
-0.05613992 -0.089584544 -0.0016623363 8.7492872e-39
-0.054379441 -0.089584544 -0.0016623363 2.1289674e-38
-0.052618962 -0.089584544 -0.0016623363 2.350594e-38
-0.050858479 -0.089584544 -0.0016623363 2.3507374e-38
-0.049098 -0.089584544 -0.0016623363 2.3508082e-38
-0.047337521 -0.089584544 -0.0016623363 2.3509517e-38
-0.045577038 -0.089584544 -0.0016623363 2.3509876e-38
-0.043816559 -0.089584544 -0.0016623363 2.3509516e-38
-0.041995879 -0.088880435 0.0013233796 2.3509516e-38
-0.040240634 -0.088880435 0.0013233796 2.3509873e-38
-0.038485389 -0.088880435 0.0013233796 2.3509876e-38
-0.036684442 -0.088157266 0.0043899789 2.2863426e-38
-0.034934573 -0.088157266 0.0043899789 2.3509876e-38
-0.033151086 -0.087461635 0.0073397532 2.3509879e-38
-0.031406391 -0.087461635 0.0073397532 2.350988e-38
-0.029661695 -0.087461635 0.0073397532 2.3509883e-38
-0.027916998 -0.087461635 0.0073397532 2.3509886e-38
-0.026159022 -0.086747125 0.010369636 2.3509886e-38
-0.024419637 -0.086747125 0.010369636 2.3509527e-38
-0.022680253 -0.086747125 0.010369636 2.3509527e-38
-0.02094087 -0.086747125 0.010369636 2.341805e-38
-0.019201485 -0.086747125 0.010369636 2.3418045e-38
-0.017462101 -0.086747125 0.010369636 2.3418045e-38
-0.015722718 -0.086747125 0.010369636 2.3509879e-38
-0.013983335 -0.086747125 0.010369636 2.3509879e-38
-0.012243951 -0.086747125 0.010369636 2.3509879e-38
0.011049051 -0.091698244 -0.010625444 2.2589737e-38
0.012825243 -0.091698244 -0.010625444 2.2866678e-38
0.014492203 -0.090981558 -0.0075863227 2.2774484e-38
0.016039755 -0.089584544 -0.0016623363 2.1852901e-38
0.017800234 -0.089584544 -0.0016623363 1.6967672e-38
0.019804802 -0.090981558 -0.0075863227 1.2358263e-38
0.021575671 -0.090981558 -0.0075863227 3.6000521e-39
0.023346536 -0.090981558 -0.0075863227 1.4806456e-39
0.025258612 -0.091698244 -0.010625444 8.3565593e-40
0.027182229 -0.092419267 -0.013682924 1.942379e-39
0.028963782 -0.092419267 -0.013682924 1.3899423e-39
0.030745339 -0.092419267 -0.013682924 1.8509345e-39
0.032526895 -0.092419267 -0.013682924 3.7866938e-39
0.034308452 -0.092419267 -0.013682924 3.23352e-39
0.036090009 -0.092419267 -0.013682924 2.2193541e-39
0.037871562 -0.092419267 -0.013682924 1.4821422e-39
0.039284337 -0.090981558 -0.0075863227 2.772881e-39
0.041805878 -0.093825653 -0.019646607 1.1140771e-39
0.043597884 -0.093825653 -0.019646607 9.9203523e-41
0.045389898 -0.093825653 -0.019646607 9.9919587e-41
0.047181912 -0.093825653 -0.019646607 4.6833777e-40
0.04980737 -0.096663594 -0.031680785 2.4047963e-39
0.051620483 -0.096663594 -0.031680785 2.6817377e-39
0.053433597 -0.096663594 -0.031680785 2.7732075e-39
0.055018581 -0.095941633 -0.028619371 2.8650402e-39
0.056826323 -0.095941633 -0.028619371 3.3249379e-39
0.059413478 -0.098297372 -0.038608752 3.7848371e-39
0.061238732 -0.098297372 -0.038608752 3.6000885e-39
0.063309647 -0.099007934 -0.041621886 3.1380341e-39
0.065392591 -0.099722609 -0.044652425 2.6774119e-39
0.067228444 -0.099722609 -0.044652425 4.6578881e-40
0.069064297 -0.099722609 -0.044652425 4.668636e-40
0.071160398 -0.10041572 -0.04759153 9.2712148e-40
0.073367514 -0.10137187 -0.051646076 1.2044146e-39
0.07521563 -0.10137187 -0.051646076 1.6660934e-39
0.077343144 -0.10207425 -0.05462452 3.1419396e-39
0.079482712 -0.10278064 -0.057619892 4.8933174e-39
0.08163444 -0.10349102 -0.060632311 5.2638978e-39
0.08389885 -0.10444455 -0.064675651 4.528111e-39
0.085769825 -0.10444455 -0.064675651 1.5782054e-39
0.087942265 -0.10513772 -0.067614995 1.9466362e-39
0.089818381 -0.10513772 -0.067614995 1.1626084e-38
0.092020117 -0.10586159 -0.070684515 1.6788284e-38
0.093901612 -0.10586159 -0.070684515 2.1672458e-38
0.096222021 -0.10680611 -0.074689828 2.1947247e-38
0.098110549 -0.10680611 -0.074689828 1.7154521e-38
0.10033775 -0.1075124 -0.077684723 1.2363965e-38
0.10268419 -0.1084419 -0.081626259 1.070625e-38
0.10493857 -0.10915731 -0.084659897 1.2087389e-38
0.10719169 -0.10984896 -0.087592803 8.951304e-39
0.10910284 -0.10984896 -0.087592803 5.1680602e-39
0.11150316 -0.11079563 -0.091607176 7.4086089e-40
0.11342134 -0.11079563 -0.091607176 1.098618e-42
0.11533953 -0.11079563 -0.091607176 3.7094052e-40
0.11725771 -0.11079563 -0.091607176 1.0761972e-42
0.11917589 -0.11079563 -0.091607176 1.8474719e-40
-0.056242608 -0.092058569 -0.0046658143 2.4821802e-39
-0.054379441 -0.091345012 -0.0016623363 3.0367805e-39
-0.052618962 -0.091345012 -0.0016623363 5.3427405e-39
-0.050945368 -0.092058569 -0.0046658143 7.6483319e-39
-0.049179625 -0.092058569 -0.0046658143 1.1337567e-38
-0.047413878 -0.092058569 -0.0046658143 1.8068553e-38
-0.045648132 -0.092058569 -0.0046658143 2.3508451e-38
-0.043816559 -0.091345012 -0.0016623363 2.3509168e-38
-0.04205608 -0.091345012 -0.0016623363 2.2954917e-38
-0.040240634 -0.090635687 0.0013233796 2.3508807e-38
-0.038485389 -0.090635687 0.0013233796 2.3509527e-38
-0.036684442 -0.089907125 0.0043899789 2.3417327e-38
-0.034934573 -0.089907125 0.0043899789 2.3509883e-38
-0.033151086 -0.089206338 0.0073397532 2.3509883e-38
-0.031406391 -0.089206338 0.0073397532 2.3509886e-38
-0.029637787 -0.088486508 0.010369636 2.3509886e-38
-0.027898405 -0.088486508 0.010369636 2.3509886e-38
-0.026159022 -0.088486508 0.010369636 2.3509886e-38
-0.024419637 -0.088486508 0.010369636 2.3509527e-38
-0.022680253 -0.088486508 0.010369636 2.3509527e-38
-0.02094087 -0.088486508 0.010369636 2.341805e-38
-0.019201485 -0.088486508 0.010369636 2.341805e-38
-0.017462101 -0.088486508 0.010369636 2.3418047e-38
-0.015722718 -0.088486508 0.010369636 2.3418047e-38
-0.013983335 -0.088486508 0.010369636 2.350988e-38
-0.012243951 -0.088486508 0.010369636 2.350988e-38
0.0091796033 -0.092752427 -0.0075863227 1.2541553e-38
0.010758318 -0.091345012 -0.0016623363 7.6548311e-39
0.012518797 -0.091345012 -0.0016623363 3.5989478e-39
0.014279276 -0.091345012 -0.0016623363 2.3082146e-39
0.016039755 -0.091345012 -0.0016623363 2.4004187e-39
0.017800234 -0.091345012 -0.0016623363 1.6632236e-39
0.019804802 -0.092752427 -0.0075863227 9.6988071e-41
0.021575671 -0.092752427 -0.0075863227 2.6777595e-39
0.023346536 -0.092752427 -0.0075863227 2.9557953e-39
0.025258612 -0.093474448 -0.010625444 6.5510787e-39
0.027034808 -0.093474448 -0.010625444 1.2359765e-38
0.028811 -0.093474448 -0.010625444 1.3282066e-38
0.030587196 -0.093474448 -0.010625444 1.2176453e-38
0.032363392 -0.093474448 -0.010625444 1.1899153e-38
0.034139588 -0.093474448 -0.010625444 7.9340524e-39
0.035915781 -0.093474448 -0.010625444 8.2106281e-39
0.037513468 -0.092752427 -0.0075863227 2.5870464e-39
0.039284337 -0.092752427 -0.0075863227 7.43131e-40
0.041434675 -0.094200835 -0.013682924 3.1409334e-39
0.043216228 -0.094200835 -0.013682924 2.2193317e-39
0.045389898 -0.095617667 -0.019646607 2.9572498e-39
0.047181912 -0.095617667 -0.019646607 2.4040718e-39
0.049391828 -0.097051233 -0.025680743 3.3260183e-39
0.051194422 -0.097051233 -0.025680743 3.6026038e-39
0.05321084 -0.097749382 -0.028619371 2.6799217e-39
0.055018581 -0.097749382 -0.028619371 1.5721364e-39
0.056826323 -0.097749382 -0.028619371 1.2948264e-39
0.059179738 -0.099410906 -0.035613023 1.7550857e-39
0.061238732 -0.10012263 -0.038608752 2.2149876e-39
0.063309647 -0.10083848 -0.041621886 2.2142716e-39
0.065140195 -0.10083848 -0.041621886 1.7543654e-39
0.067228444 -0.10155846 -0.044652425 1.2951753e-39
0.069064297 -0.10155846 -0.044652425 1.902613e-40
0.071160398 -0.10225673 -0.04759153 1.112219e-39
0.073367514 -0.10322 -0.051646076 4.0617491e-39
0.07521563 -0.10322 -0.051646076 6.6439302e-39
0.077343144 -0.1039276 -0.05462452 8.3045305e-39
0.079482712 -0.10463922 -0.057619892 8.7651709e-39
0.081341304 -0.10463922 -0.057619892 7.9368494e-39
0.083498307 -0.10535492 -0.060632311 7.8460747e-39
0.085769825 -0.10631551 -0.064675651 6.5622807e-42
0.087640785 -0.10631551 -0.064675651 6.2091535e-42
0.089818381 -0.10701384 -0.067614995 1.3560395e-38
0.091694511 -0.10701384 -0.067614995 1.7615527e-38
0.093901612 -0.10774307 -0.070684515 1.5309535e-38
0.096222021 -0.10869466 -0.074689828 1.6044572e-38
0.098110549 -0.10869466 -0.074689828 1.6230045e-38
0.10033775 -0.10940616 -0.077684723 1.3654338e-38
0.10223152 -0.10940616 -0.077684723 1.1720037e-38
0.10493857 -0.11106332 -0.084659897 1.236361e-38
0.10719169 -0.11176009 -0.087592803 1.0886691e-38
0.10910284 -0.11176009 -0.087592803 7.0116113e-39
0.11101399 -0.11176009 -0.087592803 2.8023867e-40
0.11342134 -0.1127138 -0.091607176 3.7554799e-43
0.11533953 -0.1127138 -0.091607176 2.155197e-42
0.11725771 -0.1127138 -0.091607176 9.3270426e-41
-0.056242608 -0.093824327 -0.0046658143 2.3954258e-39
-0.054476861 -0.093824327 -0.0046658143 5.5366423e-40
-0.052711118 -0.093824327 -0.0046658143 1.2051167e-43
-0.051029861 -0.094523281 -0.0075863227 3.7032675e-40
-0.049258996 -0.094523281 -0.0075863227 9.955403e-39
-0.047413878 -0.093824327 -0.0046658143 1.041528e-38
-0.045648132 -0.093824327 -0.0046658143 1.3365537e-38
-0.043882389 -0.093824327 -0.0046658143 1.8805435e-38
-0.04205608 -0.093105495 -0.0016623363 2.0465308e-38
-0.040240634 -0.092390925 0.0013233796 2.3508451e-38
-0.038485389 -0.092390925 0.0013233796 2.3139315e-38
-0.036684442 -0.091656998 0.0043899789 2.3509168e-38
-0.034934573 -0.091656998 0.0043899789 2.3509168e-38
-0.033151086 -0.090951025 0.0073397532 2.3509527e-38
-0.031377174 -0.09022589 0.010369636 2.3325138e-38
-0.029637787 -0.09022589 0.010369636 2.3048554e-38
-0.027898405 -0.09022589 0.010369636 2.3141106e-38
-0.026159022 -0.09022589 0.010369636 2.3325497e-38
-0.024411717 -0.089505136 0.013381161 2.3509886e-38
-0.022677613 -0.089505136 0.013381161 2.3509886e-38
-0.020943509 -0.089505136 0.013381161 2.304927e-38
-0.019209405 -0.089505136 0.013381161 2.2681567e-38
-0.017475303 -0.089505136 0.013381161 2.341805e-38
-0.015741199 -0.089505136 0.013381161 2.341805e-38
-0.014007095 -0.089505136 0.013381161 2.3416971e-38
-0.012243951 -0.09022589 0.010369636 2.3416971e-38
0.0073242462 -0.093824327 -0.0046658143 7.1024126e-39
0.0090899933 -0.093824327 -0.0046658143 4.6138677e-39
0.010758318 -0.093105495 -0.0016623363 3.2309332e-39
0.012518797 -0.093105495 -0.0016623363 2.03239e-39
0.014279276 -0.093105495 -0.0016623363 1.8847745e-40
0.016039755 -0.093105495 -0.0016623363 6.494556e-40
0.017800234 -0.093105495 -0.0016623363 2.5866442e-39
0.019804802 -0.094523281 -0.0075863227 3.3238533e-39
0.021575671 -0.094523281 -0.0075863227 3.6926387e-39
0.023346536 -0.094523281 -0.0075863227 4.3380109e-39
0.025117405 -0.094523281 -0.0075863227 6.3666791e-39
0.027034808 -0.095250636 -0.010625444 1.4018544e-38
0.028659135 -0.094523281 -0.0075863227 1.4295126e-38
0.030430004 -0.094523281 -0.0075863227 1.4663903e-38
0.032200869 -0.094523281 -0.0075863227 1.4663544e-38
0.033971738 -0.094523281 -0.0075863227 9.3162316e-39
0.035742603 -0.094523281 -0.0075863227 7.932581e-39
0.037513468 -0.094523281 -0.0075863227 2.5859506e-39
0.039284337 -0.094523281 -0.0075863227 1.7565444e-39
0.041244365 -0.095250636 -0.010625444 3.0476364e-39
0.043020561 -0.095250636 -0.010625444 4.7075123e-39
0.045389898 -0.09740968 -0.019646607 2.863594e-39
0.047181912 -0.09740968 -0.019646607 3.0483398e-39
0.049391828 -0.098853827 -0.025680743 2.310772e-39
0.051194422 -0.098853827 -0.025680743 2.2182134e-39
0.05321084 -0.099557132 -0.028619371 2.0327432e-39
0.055018581 -0.099557132 -0.028619371 7.4128549e-40
0.057059817 -0.10028981 -0.031680785 7.4056522e-40
0.059179738 -0.10123092 -0.035613023 2.2149764e-39
0.061238732 -0.10194789 -0.038608752 2.306456e-39
0.063309647 -0.10266902 -0.041621886 2.0287901e-39
0.065140195 -0.10266902 -0.041621886 2.7677873e-39
0.067228444 -0.10339431 -0.044652425 1.0185744e-39
0.069064297 -0.10339431 -0.044652425 1.2040391e-39
0.071160398 -0.10409774 -0.04759153 6.5014924e-40
0.073001407 -0.10409774 -0.04759153 5.9056505e-39
0.07521563 -0.1050681 -0.051646076 7.3814854e-39
0.077343144 -0.10578094 -0.05462452 8.7647828e-39
0.079196475 -0.10578094 -0.05462452 1.0332131e-38
0.081341304 -0.10649781 -0.057619892 9.9637141e-39
0.083199896 -0.10649781 -0.057619892 9.965135e-39
0.085058488 -0.10649781 -0.057619892 4.6898237e-40
0.087640785 -0.10818647 -0.064675651 3.6966253e-42
0.089818381 -0.10888995 -0.067614995 1.401922e-38
0.091694511 -0.10888995 -0.067614995 1.7889603e-38
0.093901612 -0.10962458 -0.070684515 1.5399218e-38
0.096222021 -0.11058317 -0.074689828 1.4567647e-38
0.098110549 -0.11058317 -0.074689828 1.5583239e-38
0.10033775 -0.11129995 -0.077684723 1.4021678e-38
0.10223152 -0.11129995 -0.077684723 1.3102249e-38
0.10493857 -0.11296929 -0.084659897 1.3285205e-38
0.10719169 -0.11367123 -0.087592803 9.595586e-39
0.10910284 -0.11367123 -0.087592803 8.6711298e-39
0.11101399 -0.11367123 -0.087592803 2.9315164e-42
0.11342134 -0.114632 -0.091607176 1.4559491e-42
0.11533953 -0.114632 -0.091607176 1.2932499e-39
0.11725771 -0.114632 -0.091607176 6.475134e-40
-0.054476861 -0.09559007 -0.0046658143 1.570714e-39
-0.052711118 -0.09559007 -0.0046658143 9.2678377e-40
-0.051029861 -0.09629415 -0.0075863227 1.6628957e-39
-0.049258996 -0.09629415 -0.0075863227 2.6719875e-39
-0.047413878 -0.09559007 -0.0046658143 3.6836073e-39
-0.045648132 -0.09559007 -0.0046658143 2.6698085e-39
-0.043882389 -0.09559007 -0.0046658143 3.223334e-39
-0.04205608 -0.094865978 -0.0016623363 2.3017266e-39
-0.040240634 -0.094146177 0.0013233796 2.3020783e-39
-0.038485389 -0.094146177 0.0013233796 5.0682962e-39
-0.036684442 -0.093406871 0.0043899789 2.0465674e-38
-0.034895781 -0.092695728 0.0073397532 2.2494314e-38
-0.033116557 -0.091965273 0.010369636 2.3140033e-38
-0.031377174 -0.091965273 0.010369636 2.3509168e-38
-0.029637787 -0.091965273 0.010369636 2.3509527e-38
-0.027879924 -0.091239244 0.013381161 2.3509886e-38
-0.02614582 -0.091239244 0.013381161 2.3509886e-38
-0.024411717 -0.091239244 0.013381161 2.3509883e-38
-0.022677613 -0.091239244 0.013381161 2.341805e-38
-0.020943509 -0.091239244 0.013381161 2.341805e-38
-0.019209405 -0.091239244 0.013381161 2.268157e-38
-0.017475303 -0.091239244 0.013381161 2.3325856e-38
-0.015741199 -0.091239244 0.013381161 2.3233662e-38
-0.014007095 -0.091239244 0.013381161 2.3509527e-38
-0.012272991 -0.091239244 0.013381161 2.2586859e-38
0.0054768766 -0.094865978 -0.0016623363 3.6897183e-39
0.0072373557 -0.094865978 -0.0016623363 3.3238589e-39
0.0089978371 -0.094865978 -0.0016623363 3.140925e-39
0.010855738 -0.09559007 -0.0046658143 5.0770277e-39
0.012621485 -0.09559007 -0.0046658143 6.4603166e-39
0.014387231 -0.09559007 -0.0046658143 5.8142213e-39
0.016039755 -0.094865978 -0.0016623363 5.0766549e-39
0.017800234 -0.094865978 -0.0016623363 4.7997051e-39
0.019684467 -0.09559007 -0.0046658143 3.9699416e-39
0.021450214 -0.09559007 -0.0046658143 3.8770271e-39
0.023215961 -0.09559007 -0.0046658143 2.4933696e-39
0.025117405 -0.09629415 -0.0075863227 4.2450866e-39
0.02688827 -0.09629415 -0.0075863227 1.1436344e-38
0.028513197 -0.09559007 -0.0046658143 1.4386242e-38
0.030278943 -0.09559007 -0.0046658143 1.4478434e-38
0.03204469 -0.09559007 -0.0046658143 1.6229411e-38
0.033810437 -0.09559007 -0.0046658143 1.1527454e-38
0.035576183 -0.09559007 -0.0046658143 4.9819355e-39
0.03734193 -0.09559007 -0.0046658143 2.6770476e-39
0.039107673 -0.09559007 -0.0046658143 2.2167855e-39
0.041055202 -0.09629415 -0.0075863227 1.7561591e-39
0.043020561 -0.09702684 -0.010625444 2.124936e-39
0.044997789 -0.097763941 -0.013682924 7.4235608e-40
0.046779342 -0.097763941 -0.013682924 1.6646683e-39
0.049182266 -0.099926919 -0.022654854 1.9412552e-39
0.050979555 -0.099926919 -0.022654854 1.4795582e-39
0.052997015 -0.10065642 -0.025680743 1.9394573e-39
0.055018581 -0.10136487 -0.028619371 1.8465456e-39
0.057059817 -0.10210292 -0.031680785 1.9380224e-39
0.059179738 -0.10305093 -0.035613023 2.6745098e-39
0.060999744 -0.10305093 -0.035613023 2.7663453e-39
0.063309647 -0.10449956 -0.041621886 2.6730693e-39
0.065140195 -0.10449956 -0.041621886 2.4904703e-39
0.067228444 -0.10523017 -0.044652425 1.2947928e-39
0.069064297 -0.10523017 -0.044652425 2.8243311e-40
0.071160398 -0.10593875 -0.04759153 2.5866078e-39
0.073001407 -0.10593875 -0.04759153 8.1176211e-39
0.07521563 -0.10691623 -0.051646076 7.2885653e-39
0.077343144 -0.10763429 -0.05462452 4.8911244e-39
0.079196475 -0.10763429 -0.05462452 3.1394312e-39
0.081049822 -0.10763429 -0.05462452 3.786244e-39
0.083199896 -0.1083564 -0.057619892 2.7724382e-39
0.085058488 -0.1083564 -0.057619892 8.6880505e-44
0.087640785 -0.11005743 -0.064675651 4.4182941e-42
0.089818381 -0.11076607 -0.067614995 1.3188023e-38
0.091694511 -0.11076607 -0.067614995 1.678254e-38
0.093901612 -0.11150609 -0.070684515 1.6412654e-38
0.096222021 -0.11247168 -0.074689828 1.6318289e-38
0.098443992 -0.11319371 -0.077684723 1.585875e-38
0.10033775 -0.11319371 -0.077684723 1.4204991e-38
0.10268419 -0.11414395 -0.081626259 1.3931288e-38
0.10493857 -0.1148753 -0.084659897 1.4482666e-38
0.10719169 -0.11558239 -0.087592803 9.6877788e-39
0.10910284 -0.11558239 -0.087592803 8.4863756e-39
0.11101399 -0.11558239 -0.087592803 1.0174394e-39
0.11342134 -0.11655019 -0.091607176 8.3301448e-40
0.11533953 -0.11655019 -0.091607176 2.1230106e-39
0.11725771 -0.11655019 -0.091607176 1.9382494e-39
-0.10244638 -0.092973351 0.013381161 4.1528433e-39
-0.10071228 -0.092973351 0.013381161 4.7060171e-39
-0.098978169 -0.092973351 0.013381161 7.1952991e-39
-0.097244076 -0.092973351 0.013381161 7.3800533e-39
-0.095509969 -0.092973351 0.013381161 7.0112736e-39
-0.093775861 -0.092973351 0.013381161 5.3524795e-39
-0.086115293 -0.090298802 0.024394907 1.1619294e-38
-0.053439286 -0.089588001 0.027321972 2.6770476e-39
-0.052800726 -0.098065019 -0.0075863227 1.9409217e-39
-0.051029861 -0.098065019 -0.0075863227 2.584852e-39
-0.049258996 -0.098065019 -0.0075863227 4.2386266e-39
-0.047488127 -0.098065019 -0.0075863227 3.683292e-39
-0.045789197 -0.098803028 -0.010625444 2.1163208e-39
-0.043946397 -0.098065019 -0.0075863227 2.4854523e-39
-0.042175528 -0.098065019 -0.0075863227 3.2226431e-39
-0.040404659 -0.098065019 -0.0075863227 1.6560223e-39
-0.038434308 -0.095156729 0.0043899789 1.0113549e-39
-0.036684442 -0.095156729 0.0043899789 1.5855555e-38
-0.034855939 -0.093704656 0.010369636 2.0373846e-38
-0.033082236 -0.092973351 0.013381161 2.1664925e-38
-0.031348132 -0.092973351 0.013381161 2.3048556e-38
-0.029614028 -0.092973351 0.013381161 2.3417691e-38
-0.027879924 -0.092973351 0.013381161 2.3325497e-38
-0.02614582 -0.092973351 0.013381161 2.2956709e-38
-0.024411717 -0.092973351 0.013381161 2.3141455e-38
-0.022675835 -0.092480466 0.015410818 2.3418045e-38
-0.020945288 -0.092480466 0.015410818 2.341805e-38
-0.019209405 -0.092973351 0.013381161 2.2957796e-38
-0.017484199 -0.092480466 0.015410818 2.3417691e-38
-0.015753655 -0.092480466 0.015410818 2.3325497e-38
-0.014007095 -0.092973351 0.013381161 2.3509168e-38
-0.012272991 -0.092973351 0.013381161 2.1941495e-38
0.0054768766 -0.096626461 -0.0016623363 3.6911743e-39
0.0072373557 -0.096626461 -0.0016623363 4.43201e-39
0.0089978371 -0.096626461 -0.0016623363 3.8806481e-39
0.010950472 -0.098065019 -0.0075863227 4.8022372e-39
0.012721337 -0.098065019 -0.0075863227 5.2635657e-39
0.014387231 -0.097355813 -0.0046658143 4.617469e-39
0.016039755 -0.096626461 -0.0016623363 4.1561265e-39
0.017800234 -0.096626461 -0.0016623363 4.3397919e-39
0.019437693 -0.095901415 0.0013233796 4.1543189e-39
0.021192938 -0.095901415 0.0013233796 4.8908049e-39
0.023081675 -0.096626461 -0.0016623363 3.0465294e-39
0.024842154 -0.096626461 -0.0016623363 4.4287421e-39
0.026747454 -0.097355813 -0.0046658143 1.0144505e-38
0.028363116 -0.096626461 -0.0016623363 1.4661727e-38
0.030123595 -0.096626461 -0.0016623363 1.438549e-38
0.03204469 -0.097355813 -0.0046658143 1.5491113e-38
0.033810437 -0.097355813 -0.0046658143 8.8526736e-39
0.035576183 -0.097355813 -0.0046658143 2.6759434e-39
0.03734193 -0.097355813 -0.0046658143 3.2294815e-39
0.039107673 -0.097355813 -0.0046658143 3.230199e-39
0.040873423 -0.097355813 -0.0046658143 1.6632236e-39
0.042826071 -0.098065019 -0.0075863227 1.4799071e-39
0.044796757 -0.098803028 -0.010625444 8.3489363e-40
0.046572953 -0.098803028 -0.010625444 1.5724587e-39
0.048973925 -0.10099369 -0.019646607 2.3089447e-39
0.050765939 -0.10099369 -0.019646607 2.4007872e-39
0.052776836 -0.10172421 -0.022654854 2.7688523e-39
0.055018581 -0.10317262 -0.028619371 3.0447231e-39
0.057059817 -0.10391603 -0.031680785 2.76706e-39
0.059179738 -0.10487093 -0.035613023 2.3057189e-39
0.060999744 -0.10487093 -0.035613023 3.042205e-39
0.063309647 -0.10633011 -0.041621886 3.5953759e-39
0.065140195 -0.10633011 -0.041621886 2.95144e-39
0.067228444 -0.10706602 -0.044652425 7.4269239e-40
0.069064297 -0.10706602 -0.044652425 1.7575632e-39
0.071160398 -0.10777976 -0.04759153 6.0900417e-39
0.073001407 -0.10777976 -0.04759153 8.8551861e-39
0.07521563 -0.10876434 -0.051646076 6.7346698e-39
0.077063747 -0.10876434 -0.051646076 4.9829585e-39
0.079196475 -0.10948761 -0.05462452 1.7554178e-39
0.081049822 -0.10948761 -0.05462452 5.5759908e-40
0.083199896 -0.11021499 -0.057619892 2.6092177e-42
0.085058488 -0.11021499 -0.057619892 8.1275311e-44
0.087640785 -0.11192839 -0.064675651 9.263788e-40
0.089818381 -0.11264218 -0.067614995 1.2818525e-38
0.091694511 -0.11264218 -0.067614995 1.5491446e-38
0.093901612 -0.11338757 -0.070684515 1.5951322e-38
0.096222021 -0.1143602 -0.074689828 1.6502327e-38
0.098443992 -0.11508749 -0.077684723 1.5950948e-38
0.10033775 -0.11508749 -0.077684723 1.4389382e-38
0.10268419 -0.11604463 -0.081626259 1.466849e-38
0.10493857 -0.11678131 -0.084659897 1.5128392e-38
0.10719169 -0.11749353 -0.087592803 9.6866998e-39
0.10910284 -0.11749353 -0.087592803 7.6566149e-39
0.11101399 -0.11749353 -0.087592803 1.5706132e-39
0.11342134 -0.11846836 -0.091607176 1.2939898e-39
0.11533953 -0.11846836 -0.091607176 2.1230092e-39
-0.10591459 -0.094707444 0.013381161 6.0868047e-39
-0.10418049 -0.094707444 0.013381161 6.8258145e-39
-0.10244638 -0.094707444 0.013381161 5.9042183e-39
-0.10055036 -0.094211012 0.015410818 5.5354358e-39
-0.098819815 -0.094211012 0.015410818 6.3651965e-39
-0.097089268 -0.094211012 0.015410818 5.6287104e-39
-0.095358722 -0.094211012 0.015410818 3.9688346e-39
-0.093628176 -0.094211012 0.015410818 1.9412552e-39
-0.091259681 -0.092013597 0.024394907 1.2955313e-39
-0.089544885 -0.092013597 0.024394907 4.6542027e-40
-0.087830089 -0.092013597 0.024394907 1.6628901e-39
-0.086115293 -0.092013597 0.024394907 2.1231479e-39
-0.084213182 -0.091297671 0.027321972 1.8458422e-39
-0.053439286 -0.091297671 0.027321972 1.0789156e-38
-0.051729623 -0.091297671 0.027321972 1.042109e-38
-0.050019961 -0.091297671 0.027321972 1.2263934e-38
-0.048254136 -0.090792179 0.029388644 8.4803416e-39
-0.046548102 -0.090792179 0.029388644 3.2234041e-39
-0.044842061 -0.090792179 0.029388644 2.3939951e-39
-0.043070484 -0.090060756 0.032379068 2.3021484e-39
-0.041369691 -0.090060756 0.032379068 1.5642092e-39
-0.039668899 -0.090060756 0.032379068 3.4088253e-39
-0.037968103 -0.090060756 0.032379068 5.0690487e-39
-0.036595326 -0.095444039 0.010369636 1.5487497e-38
-0.034855939 -0.095444039 0.010369636 1.8069679e-38
-0.033082236 -0.094707444 0.013381161 1.9175651e-38
-0.031348132 -0.094707444 0.013381161 2.0098312e-38
-0.029614028 -0.094707444 0.013381161 2.0375248e-38
-0.027879924 -0.094707444 0.013381161 2.0375237e-38
-0.02614582 -0.094707444 0.013381161 2.0652174e-38
-0.024411717 -0.094707444 0.013381161 2.1389738e-38
-0.022675835 -0.094211012 0.015410818 2.22195e-38
-0.020945288 -0.094211012 0.015410818 2.3141467e-38
-0.019209405 -0.094707444 0.013381161 2.3234379e-38
-0.017484199 -0.094211012 0.015410818 2.175818e-38
-0.015753655 -0.094211012 0.015410818 1.8623168e-38
-0.014007095 -0.094707444 0.013381161 1.9360017e-38
0.0054768766 -0.098386943 -0.0016623363 4.3376311e-39
0.0070622633 -0.096906602 0.0043899789 3.8795523e-39
0.0088121314 -0.096906602 0.0043899789 3.6966057e-39
0.010950472 -0.099835888 -0.0075863227 4.2494124e-39
0.012825243 -0.10057923 -0.010625444 4.5263496e-39
0.014061734 -0.096906602 0.0043899789 4.5252594e-39
0.015472665 -0.094707444 0.013381161 4.6167305e-39
0.017206769 -0.094707444 0.013381161 4.8007589e-39
0.018940873 -0.094707444 0.013381161 4.8003959e-39
0.020674977 -0.094707444 0.013381161 4.3376199e-39
0.022409081 -0.094707444 0.013381161 3.7833671e-39
0.024560943 -0.096906602 0.0043899789 3.9666766e-39
0.026602633 -0.098386943 -0.0016623363 8.2069511e-39
0.028213918 -0.097656667 0.0013233796 1.2079158e-38
0.029969163 -0.097656667 0.0013233796 1.2356096e-38
0.031884074 -0.098386943 -0.0016623363 1.1433413e-38
0.033644553 -0.098386943 -0.0016623363 2.4911611e-39
0.035405036 -0.098386943 -0.0016623363 7.3910507e-40
0.03734193 -0.099121556 -0.0046658143 2.2149596e-39
0.039107673 -0.099121556 -0.0046658143 2.1238374e-39
0.040873423 -0.099121556 -0.0046658143 1.2018755e-39
0.042826071 -0.099835888 -0.0075863227 1.9405139e-39
0.044796757 -0.10057923 -0.010625444 1.7561226e-39
0.046572953 -0.10057923 -0.010625444 1.4795358e-39
0.048766807 -0.10205424 -0.016656004 1.8479638e-39
0.050765939 -0.10278571 -0.019646607 2.3085888e-39
0.052776836 -0.10352151 -0.022654854 2.4000697e-39
0.055018581 -0.10498036 -0.028619371 2.9525275e-39
0.057059817 -0.10572915 -0.031680785 2.6748616e-39
0.059179738 -0.10669093 -0.035613023 1.844738e-39
0.060999744 -0.10669093 -0.035613023 2.8588885e-39
0.063309647 -0.10816063 -0.041621886 3.5957277e-39
0.065140195 -0.10816063 -0.041621886 1.9380014e-39
0.067228444 -0.10890187 -0.044652425 2.8243591e-40
0.069064297 -0.10890187 -0.044652425 6.2105548e-42
0.071160398 -0.10962076 -0.04759153 1.3884275e-39
0.073001407 -0.10962076 -0.04759153 5.074808e-39
0.07521563 -0.11061247 -0.051646076 7.9332158e-39
0.077063747 -0.11061247 -0.051646076 1.0145195e-38
0.079196475 -0.11134095 -0.05462452 7.1016853e-39
0.081049822 -0.11134095 -0.05462452 3.7176588e-40
0.083199896 -0.11207359 -0.057619892 1.2025915e-39
0.085058488 -0.11207359 -0.057619892 2.6064151e-42
0.087640785 -0.11379938 -0.064675651 1.4788309e-39
0.089818381 -0.1145183 -0.067614995 1.2818881e-38
0.091694511 -0.1145183 -0.067614995 1.5122663e-38
0.093901612 -0.11526908 -0.070684515 1.4845694e-38
0.096222021 -0.11624874 -0.074689828 1.539742e-38
0.098443992 -0.11698125 -0.077684723 1.6228977e-38
0.10033775 -0.11698125 -0.077684723 1.5495729e-38
0.10268419 -0.11794533 -0.081626259 1.5036193e-38
0.10493857 -0.11868732 -0.084659897 1.5219868e-38
0.10684458 -0.11868732 -0.084659897 9.6866998e-39
0.10910284 -0.11940466 -0.087592803 7.1034384e-39
0.11101399 -0.11940466 -0.087592803 1.9393929e-39
0.11342134 -0.12038656 -0.091607176 1.1095958e-39
0.11533953 -0.12038656 -0.091607176 1.662387e-39
-0.1093828 -0.096441552 0.013381161 6.9168835e-39
-0.10764869 -0.096441552 0.013381161 6.1793549e-39
-0.10591459 -0.096441552 0.013381161 5.5340051e-39
-0.10418049 -0.096441552 0.013381161 5.1655855e-39
-0.10228091 -0.095941558 0.015410818 4.796803e-39
-0.10055036 -0.095941558 0.015410818 5.0741087e-39
-0.098587222 -0.095207214 0.018391825 5.811671e-39
-0.096861906 -0.095207214 0.018391825 6.3659238e-39
-0.09513659 -0.095207214 0.018391825 6.0893397e-39
-0.093411274 -0.095207214 0.018391825 5.7202026e-39
-0.091259681 -0.093728393 0.024394907 5.2588713e-39
-0.089544885 -0.093728393 0.024394907 3.5993556e-39
-0.0876325 -0.093007326 0.027321972 2.860713e-39
-0.085922845 -0.093007326 0.027321972 2.3997348e-39
-0.084213182 -0.093007326 0.027321972 2.1224277e-39
-0.082374886 -0.092498213 0.029388644 3.4131567e-39
-0.080487959 -0.091761544 0.032379068 9.5895366e-39
-0.078612588 -0.091029361 0.035351254 1.2170649e-38
-0.076917 -0.091029361 0.035351254 6.4559614e-39
-0.075221419 -0.091029361 0.035351254 2.6773937e-39
-0.073525839 -0.091029361 0.035351254 1.2966243e-39
-0.07183025 -0.091029361 0.035351254 7.4381343e-40
-0.070134677 -0.091029361 0.035351254 7.3273897e-42
-0.068292223 -0.090279013 0.03839723 1.3899059e-39
-0.066601984 -0.090279013 0.03839723 2.034555e-39
-0.065537788 -0.093728393 0.024394907 3.3238561e-39
-0.063953578 -0.094477281 0.021354891 3.7826693e-39
-0.062233452 -0.094477281 0.021354891 3.5957557e-39
-0.060513329 -0.094477281 0.021354891 5.5300548e-39
-0.059093788 -0.096441552 0.013381161 1.1245094e-38
-0.057286732 -0.095941558 0.015410818 1.4932187e-38
-0.05535296 -0.094477281 0.021354891 1.714559e-38
-0.053439286 -0.093007326 0.027321972 1.1246498e-38
-0.051729623 -0.093007326 0.027321972 1.0694395e-38
-0.050019961 -0.093007326 0.027321972 1.3091855e-38
-0.048310302 -0.093007326 0.027321972 1.4473747e-38
-0.046548102 -0.092498213 0.029388644 7.0981106e-39
-0.044842061 -0.092498213 0.029388644 6.8215181e-39
-0.043070484 -0.091761544 0.032379068 6.9144214e-39
-0.041369691 -0.091761544 0.032379068 4.5173238e-39
-0.039668899 -0.091761544 0.032379068 5.9928e-39
-0.037968103 -0.091761544 0.032379068 8.2054839e-39
-0.03664048 -0.09792982 0.0073397532 1.5027586e-38
-0.034895781 -0.09792982 0.0073397532 1.991466e-38
-0.033116557 -0.097183421 0.010369636 2.0099037e-38
-0.031377174 -0.097183421 0.010369636 2.0374896e-38
-0.029637787 -0.097183421 0.010369636 2.0467441e-38
-0.027879924 -0.096441552 0.013381161 2.0651824e-38
-0.02614582 -0.096441552 0.013381161 2.1204992e-38
-0.024411717 -0.096441552 0.013381161 2.2035109e-38
-0.022675835 -0.095941558 0.015410818 2.2587927e-38
-0.020945288 -0.095941558 0.015410818 2.304927e-38
-0.019214744 -0.095941558 0.015410818 2.341805e-38
-0.017484199 -0.095941558 0.015410818 2.2034404e-38
-0.015753655 -0.095941558 0.015410818 1.8530973e-38
-0.014007095 -0.096441552 0.013381161 1.9175626e-38
-0.00037565129 -0.093728393 0.024394907 4.8897063e-39
0.0013391408 -0.093728393 0.024394907 4.9819103e-39
0.0031312215 -0.094477281 0.021354891 3.600422e-39
0.0048513445 -0.094477281 0.021354891 4.1550405e-39
0.0065714675 -0.094477281 0.021354891 3.3263659e-39
0.008291591 -0.094477281 0.021354891 3.6958644e-39
0.010011714 -0.094477281 0.021354891 3.9724415e-39
0.011731837 -0.094477281 0.021354891 4.0649889e-39
0.01345196 -0.094477281 0.021354891 4.4323281e-39
0.015172083 -0.094477281 0.021354891 4.2475711e-39
0.017009098 -0.095207214 0.018391825 4.0621036e-39
0.018734418 -0.095207214 0.018391825 4.1535804e-39
0.020587791 -0.095941558 0.015410818 3.9681143e-39
0.022318333 -0.095941558 0.015410818 3.5064173e-39
0.02404888 -0.095941558 0.015410818 2.3993537e-39
0.026022494 -0.097183421 0.010369636 8.0225626e-39
0.028060682 -0.098656476 0.0043899789 1.0327088e-38
0.029810548 -0.098656476 0.0043899789 1.0695143e-38
0.031724408 -0.099411905 0.0013233796 8.482438e-39
0.033644553 -0.10014741 -0.0016623363 1.3837374e-39
0.035405036 -0.10014741 -0.0016623363 8.3165663e-40
0.037165515 -0.10014741 -0.0016623363 1.7543388e-39
0.039107673 -0.1008873 -0.0046658143 1.3862667e-39
0.040873423 -0.1008873 -0.0046658143 1.5710125e-39
0.042826071 -0.10160676 -0.0075863227 2.217098e-39
0.044796757 -0.10235542 -0.010625444 2.3092936e-39
0.046572953 -0.10235542 -0.010625444 1.5728104e-39
0.048766807 -0.10384102 -0.016656004 2.4944122e-39
0.050765939 -0.10457774 -0.019646607 2.124922e-39
0.052776836 -0.1053188 -0.022654854 2.1238486e-39
0.055018581 -0.10678811 -0.028619371 2.6770224e-39
0.057059817 -0.10754226 -0.031680785 2.6766594e-39
0.058872931 -0.10754226 -0.031680785 2.3071552e-39
0.060999744 -0.10851096 -0.035613023 3.3209386e-39
0.063309647 -0.10999118 -0.041621886 3.1361816e-39
0.065140195 -0.10999118 -0.041621886 5.56862e-40
0.067228444 -0.11073773 -0.044652425 7.4522173e-40
0.069064297 -0.11073773 -0.044652425 1.9277243e-40
0.071160398 -0.11146177 -0.04759153 2.8317019e-40
0.073367514 -0.11246057 -0.051646076 6.2747959e-39
0.07521563 -0.11246057 -0.051646076 1.0330667e-38
0.077343144 -0.1131943 -0.05462452 1.0974598e-38
0.079196475 -0.1131943 -0.05462452 1.0144141e-38
0.081049822 -0.1131943 -0.05462452 1.9383727e-39
0.083199896 -0.11393218 -0.057619892 1.7561226e-39
0.085362189 -0.11467429 -0.060632311 4.0455487e-42
0.087640785 -0.11567034 -0.064675651 8.345377e-40
0.089818381 -0.11639442 -0.067614995 1.235862e-38
0.091694511 -0.11639442 -0.067614995 1.5585436e-38
0.093901612 -0.11715056 -0.070684515 1.5585414e-38
0.096222021 -0.11813726 -0.074689828 1.5584326e-38
0.098443992 -0.11887501 -0.077684723 1.6322968e-38
0.10033775 -0.11887501 -0.077684723 1.6509881e-38
0.10268419 -0.119846 -0.081626259 1.4666692e-38
0.10493857 -0.12059332 -0.084659897 1.4482303e-38
0.10684458 -0.12059332 -0.084659897 9.5941441e-39
0.10910284 -0.12131582 -0.087592803 6.9190471e-39
0.11101399 -0.12131582 -0.087592803 2.5847623e-39
0.11342134 -0.12230472 -0.091607176 1.2017914e-39
0.11533953 -0.12230472 -0.091607176 1.8467755e-39
-0.11111689 -0.09817566 0.013381161 2.5840252e-39
-0.1093828 -0.09817566 0.013381161 5.5575637e-40
-0.10764869 -0.09817566 0.013381161 2.7920592e-40
-0.10591459 -0.09817566 0.013381161 3.7106103e-40
-0.10401145 -0.097672105 0.015410818 1.0160675e-39
-0.10228091 -0.097672105 0.015410818 5.5580822e-40
-0.10031254 -0.09693253 0.018391825 1.2011776e-39
-0.098587222 -0.09693253 0.018391825 1.478482e-39
-0.096861906 -0.09693253 0.018391825 3.3223946e-39
-0.0949158 -0.096197397 0.021354891 4.2439935e-39
-0.092974462 -0.095443189 0.024394907 6.2723002e-39
-0.091259681 -0.095443189 0.024394907 7.286099e-39
-0.089342169 -0.094716981 0.027321972 6.4563411e-39
-0.0876325 -0.094716981 0.027321972 6.4556237e-39
-0.085922845 -0.094716981 0.027321972 7.1009917e-39
-0.084213182 -0.094716981 0.027321972 6.7318434e-39
-0.082374886 -0.094204247 0.029388644 6.454888e-39
-0.080487959 -0.093462333 0.032379068 8.3906277e-39
-0.078612588 -0.092724949 0.035351254 8.9430742e-39
-0.076917 -0.092724949 0.035351254 5.5343568e-39
-0.075053193 -0.091969252 0.03839723 3.7858923e-39
-0.073362954 -0.091969252 0.03839723 2.9583022e-39
-0.071672708 -0.091969252 0.03839723 2.4058529e-39
-0.069982462 -0.091969252 0.03839723 1.9445216e-39
-0.068292223 -0.091969252 0.03839723 1.8523302e-39
-0.066601984 -0.091969252 0.03839723 1.113689e-39
-0.065314509 -0.094204247 0.029388644 5.5799845e-40
-0.063697249 -0.094716981 0.027321972 2.6624671e-42
-0.06198759 -0.094716981 0.027321972 2.6738078e-39
-0.060078423 -0.093462333 0.032379068 4.3311599e-39
-0.058377631 -0.093462333 0.032379068 8.4788674e-39
-0.057179585 -0.09693253 0.018391825 1.0875215e-38
-0.05524902 -0.095443189 0.024394907 1.4102764e-38
-0.053439286 -0.094716981 0.027321972 1.1522709e-38
-0.051666211 -0.094204247 0.029388644 1.3829028e-38
-0.049960174 -0.094204247 0.029388644 1.7333902e-38
-0.048389848 -0.095443189 0.024394907 1.8993803e-38
-0.04667506 -0.095443189 0.024394907 1.7980743e-38
-0.044842061 -0.094204247 0.029388644 1.9456209e-38
-0.043070484 -0.093462333 0.032379068 2.0654376e-38
-0.041369691 -0.093462333 0.032379068 2.2129842e-38
-0.039668899 -0.093462333 0.032379068 2.2774484e-38
-0.037968103 -0.093462333 0.032379068 2.2036572e-38
-0.036730144 -0.10116716 0.0013233796 2.2958155e-38
-0.034974899 -0.10116716 0.0013233796 2.2958514e-38
-0.033116557 -0.098922804 0.010369636 2.3142544e-38
-0.031377174 -0.098922804 0.010369636 2.3049991e-38
-0.029637787 -0.098922804 0.010369636 2.3233662e-38
-0.027879924 -0.09817566 0.013381161 2.3509527e-38
-0.02614582 -0.09817566 0.013381161 2.3509886e-38
-0.024411717 -0.09817566 0.013381161 2.3509886e-38
-0.022675835 -0.097672105 0.015410818 2.3509886e-38
-0.020945288 -0.097672105 0.015410818 2.341805e-38
-0.019214744 -0.097672105 0.015410818 2.341805e-38
-0.017484199 -0.097672105 0.015410818 2.3509527e-38
-0.015753655 -0.097672105 0.015410818 2.3325138e-38
-0.01402311 -0.097672105 0.015410818 2.3509168e-38
-0.0021494632 -0.094716981 0.027321972 4.7049465e-39
-0.00043980265 -0.094716981 0.027321972 4.8900706e-39
0.0012698579 -0.094716981 0.027321972 4.8000442e-39
0.0029795184 -0.094716981 0.027321972 4.062489e-39
0.0047687269 -0.095443189 0.024394907 3.6940708e-39
0.0064835208 -0.095443189 0.024394907 4.6156669e-39
0.0081983134 -0.095443189 0.024394907 4.6156627e-39
0.0099131055 -0.095443189 0.024394907 3.2330786e-39
0.011627898 -0.095443189 0.024394907 2.034527e-39
0.01345196 -0.096197397 0.021354891 1.9416041e-39
0.015172083 -0.096197397 0.021354891 1.6650144e-39
0.016892206 -0.096197397 0.021354891 1.3880674e-39
0.018734418 -0.09693253 0.018391825 1.9398091e-39
0.020587791 -0.097672105 0.015410818 3.1376348e-39
0.022318333 -0.097672105 0.015410818 2.0305712e-39
0.02404888 -0.097672105 0.015410818 2.2138834e-39
0.025877289 -0.09817566 0.013381161 1.0972824e-38
0.027761877 -0.098922804 0.010369636 1.2078805e-38
0.029657975 -0.099674508 0.0073397532 8.9434259e-39
0.031560417 -0.10040633 0.0043899789 5.9938734e-39
0.033479653 -0.10116716 0.0013233796 2.766669e-39
0.035405036 -0.10190789 -0.0016623363 1.9380042e-39
0.037165515 -0.10190789 -0.0016623363 2.2156771e-39
0.039107673 -0.10265306 -0.0046658143 1.8472449e-39
0.041055202 -0.10337763 -0.0075863227 2.2171008e-39
0.042826071 -0.10337763 -0.0075863227 1.7561226e-39
0.044796757 -0.10413162 -0.010625444 1.8493973e-39
0.046572953 -0.10413162 -0.010625444 2.0334312e-39
0.048560902 -0.10489015 -0.013682924 3.5089298e-39
0.050765939 -0.10636975 -0.019646607 2.8632115e-39
0.052776836 -0.10711606 -0.022654854 1.9408993e-39
0.054799601 -0.10786678 -0.025680743 1.387008e-39
0.056826323 -0.10859586 -0.028619371 1.2940879e-39
0.058872931 -0.10935538 -0.031680785 1.6625047e-39
0.060999744 -0.11033095 -0.035613023 2.4926143e-39
0.063309647 -0.11182173 -0.041621886 2.216019e-39
0.065140195 -0.11182173 -0.041621886 2.8171424e-40
0.067228444 -0.11257361 -0.044652425 6.5833002e-42
0.06931939 -0.11330278 -0.04759153 1.1161791e-39
0.071519397 -0.1143087 -0.051646076 2.2207246e-39
0.073367514 -0.1143087 -0.051646076 7.9357634e-39
0.07521563 -0.1143087 -0.051646076 1.1068957e-38
0.077063747 -0.1143087 -0.051646076 1.0790929e-38
0.079196475 -0.11504765 -0.05462452 1.1527076e-38
0.081049822 -0.11504765 -0.05462452 1.8465344e-39
0.083199896 -0.11579077 -0.057619892 5.5685779e-40
0.085362189 -0.11653815 -0.060632311 9.7674707e-41
0.087942265 -0.11827053 -0.067614995 1.295869e-39
0.090138607 -0.11903207 -0.070684515 1.1622131e-38
0.092020117 -0.11903207 -0.070684515 1.5495755e-38
0.094333507 -0.12002577 -0.074689828 1.6878667e-38
