# .PCD v0.7 - Point Cloud Data file format
VERSION 0.7
FIELDS x y z rgb
SIZE 4 4 4 4
TYPE F F F F
COUNT 1 1 1 1
WIDTH 924
HEIGHT 1
VIEWPOINT 0 0 0 1 0 0 0
POINTS 924
DATA ascii
-0.034367409 -0.09524864 -0.025413409 2.3508809e-38
-0.032551553 -0.094535068 -0.022387519 2.3416974e-38
-0.030754263 -0.094535068 -0.022387519 2.3508451e-38
-0.028956978 -0.094535068 -0.022387519 2.3416615e-38
-0.027159689 -0.094535068 -0.022387519 2.3141109e-38
-0.025386 -0.092419267 -0.01341559 2.2957796e-38
-0.023604443 -0.092419267 -0.01341559 2.2957438e-38
-0.021896655 -0.089584544 -0.001395002 2.2957438e-38
-0.020136174 -0.089584544 -0.001395002 2.314075e-38
-0.018019408 -0.098297372 -0.038341418 2.3141109e-38
-0.016194148 -0.098297372 -0.038341418 2.3141109e-38
-0.01436889 -0.098297372 -0.038341418 2.3141109e-38
-0.012588276 -0.097590908 -0.035345688 2.3417333e-38
-0.01076827 -0.097590908 -0.035345688 2.3141822e-38
-0.0089482628 -0.097590908 -0.035345688 2.2957431e-38
-0.0072075431 -0.096663594 -0.031413451 2.3233662e-38
-0.0053944313 -0.096663594 -0.031413451 2.341805e-38
-0.0035813195 -0.096663594 -0.031413451 2.3234379e-38
-0.0014384245 -0.099722609 -0.04438509 2.3049632e-38
0.00039743213 -0.099722609 -0.04438509 2.2496467e-38
0.0022332869 -0.099722609 -0.04438509 2.2865961e-38
0.0027500647 -0.089584544 -0.001395002 2.2774125e-38
0.0060003339 -0.10041572 -0.047324196 2.2312437e-38
0.0078413431 -0.10041572 -0.047324196 2.2405349e-38
0.0096823517 -0.10041572 -0.047324196 2.2773408e-38
0.01152336 -0.10041572 -0.047324196 2.2774125e-38
0.013524322 -0.10137187 -0.051378742 2.2865602e-38
0.015618583 -0.10278064 -0.057352558 2.2774125e-38
0.017477175 -0.10278064 -0.057352558 2.2681214e-38
0.019335767 -0.10278064 -0.057352558 2.2774125e-38
0.021194359 -0.10278064 -0.057352558 2.2865602e-38
0.023052951 -0.10278064 -0.057352558 2.2774125e-38
0.024911543 -0.10278064 -0.057352558 2.2865602e-38
0.026461149 -0.10137187 -0.051378742 2.2774125e-38
0.028092442 -0.10041572 -0.047324196 2.2496825e-38
0.029933451 -0.10041572 -0.047324196 2.2220243e-38
0.031774458 -0.10041572 -0.047324196 2.3140391e-38
0.033615466 -0.10041572 -0.047324196 2.0189817e-38
0.035095371 -0.099007934 -0.041354552 1.5672978e-38
0.036925919 -0.099007934 -0.041354552 1.2907478e-38
0.038950406 -0.099722609 -0.04438509 1.1894411e-38
0.040786259 -0.099722609 -0.04438509 1.1250483e-38
0.042622112 -0.099722609 -0.04438509 9.8682703e-39
0.041688628 -0.090292826 -0.0043984801 8.3935031e-39
0.049206153 -0.091698244 -0.01035811 4.0606813e-39
0.050982349 -0.091698244 -0.01035811 2.1242227e-39
0.052758545 -0.091698244 -0.01035811 1.6618139e-39
0.054784015 -0.092419267 -0.01341559 2.8600053e-39
0.056813177 -0.093120396 -0.01638867 3.0454868e-39
0.058599945 -0.093120396 -0.01638867 1.6650873e-39
0.060128685 -0.092419267 -0.01341559 1.9420399e-39
0.061639529 -0.091698244 -0.01035811 1.2970236e-39
0.063415721 -0.091698244 -0.01035811 1.0200724e-39
0.066848263 -0.095941633 -0.028352037 2.1256941e-39
0.068380341 -0.09524864 -0.025413409 2.9543688e-39
0.070182934 -0.09524864 -0.025413409 3.5053775e-39
0.071107328 -0.093120396 -0.01638867 4.2411363e-39
0.072894096 -0.093120396 -0.01638867 4.7928653e-39
0.075590715 -0.09524864 -0.025413409 6.3605456e-39
0.077082947 -0.094535068 -0.022387519 7.6512816e-39
0.078566402 -0.093825653 -0.019379273 9.7735733e-39
0.080358416 -0.093825653 -0.019379273 8.3016789e-39
0.082150429 -0.093825653 -0.019379273 9.1339563e-39
0.083942443 -0.093825653 -0.019379273 7.5698648e-39
0.08540149 -0.093120396 -0.01638867 1.5130614e-38
0.087188259 -0.093120396 -0.01638867 1.752587e-38
0.088633582 -0.092419267 -0.01341559 1.6695764e-38
0.090415135 -0.092419267 -0.01341559 1.3468199e-38
0.092196703 -0.092419267 -0.01341559 9.2268399e-39
0.099533647 -0.099722609 -0.04438509 6.1825891e-39
0.1013695 -0.099722609 -0.04438509 4.5227132e-39
0.10282543 -0.099007934 -0.041354552 2.3100237e-39
0.10427296 -0.098297372 -0.038341418 1.1114889e-39
0.10443218 -0.09524864 -0.025413409 1.6646683e-39
0.10623477 -0.09524864 -0.025413409 1.5721181e-39
0.10883164 -0.096663594 -0.031413451 5.5796622e-40
0.11197814 -0.099007934 -0.041354552 1.8846343e-40
0.11380869 -0.099007934 -0.041354552 8.3310977e-40
0.11563924 -0.099007934 -0.041354552 1.2937222e-39
0.11231847 -0.090292826 -0.0043984801 1.5688517e-39
-0.091674775 -0.095617667 -0.019379273 1.1151141e-39
-0.089882754 -0.095617667 -0.019379273 2.4987674e-39
-0.088090748 -0.095617667 -0.019379273 3.0523013e-39
-0.086298734 -0.095617667 -0.019379273 3.7898692e-39
-0.08450672 -0.095617667 -0.019379273 4.5245601e-39
-0.08255478 -0.094907165 -0.01638867 7.1975103e-39
-0.080614232 -0.094200835 -0.01341559 3.4171238e-39
-0.078832671 -0.094200835 -0.01341559 4.8922496e-39
-0.077051118 -0.094200835 -0.01341559 6.9201878e-39
-0.075269565 -0.094200835 -0.01341559 7.4726385e-39
-0.073488012 -0.094200835 -0.01341559 1.2173897e-38
-0.071706451 -0.094200835 -0.01341559 1.2172458e-38
-0.069798917 -0.093474448 -0.01035811 1.1894073e-38
-0.068022728 -0.093474448 -0.01035811 1.0971755e-38
-0.066246532 -0.093474448 -0.01035811 5.4385725e-39
-0.064470336 -0.093474448 -0.01035811 3.502453e-39
-0.062590234 -0.092752427 -0.0073189884 1.6592453e-39
-0.060819369 -0.092752427 -0.0073189884 8.665739e-39
-0.0590485 -0.092752427 -0.0073189884 1.3460261e-38
-0.057277635 -0.092752427 -0.0073189884 1.465879e-38
-0.05550677 -0.092752427 -0.0073189884 1.5210509e-38
-0.050722238 -0.098476708 -0.031413451 1.8715012e-38
-0.048909124 -0.098476708 -0.031413451 2.1572721e-38
-0.047096014 -0.098476708 -0.031413451 2.1850024e-38
-0.0452829 -0.098476708 -0.031413451 2.1020266e-38
-0.04346979 -0.098476708 -0.031413451 2.1112459e-38
-0.041656677 -0.098476708 -0.031413451 2.314075e-38
-0.039843563 -0.098476708 -0.031413451 2.3048556e-38
-0.038068373 -0.099410906 -0.035345688 2.2956362e-38
-0.036248364 -0.099410906 -0.035345688 2.2863809e-38
-0.034367409 -0.097051233 -0.025413409 2.2771256e-38
-0.032551553 -0.096332356 -0.022387519 2.2678703e-38
-0.030754263 -0.096332356 -0.022387519 2.2586508e-38
-0.028956978 -0.096332356 -0.022387519 2.2494314e-38
-0.027172901 -0.092752427 -0.0073189884 2.1757828e-38
-0.025417613 -0.091345012 -0.001395002 2.1574519e-38
-0.023657134 -0.091345012 -0.001395002 2.1574163e-38
-0.021896655 -0.091345012 -0.001395002 2.1574163e-38
-0.020159733 -0.090635687 0.0015907139 2.1574166e-38
-0.018404488 -0.090635687 0.0015907139 2.1574166e-38
-0.016615214 -0.091345012 -0.001395002 2.1574163e-38
-0.014854735 -0.091345012 -0.001395002 2.1574516e-38
-0.013094256 -0.091345012 -0.001395002 2.1943653e-38
-0.01076827 -0.099410906 -0.035345688 2.1667063e-38
-0.0089482628 -0.099410906 -0.035345688 2.1667063e-38
-0.0072075431 -0.098476708 -0.031413451 2.2220237e-38
-0.0053944313 -0.098476708 -0.031413451 2.2680855e-38
-0.0035813195 -0.098476708 -0.031413451 2.2680496e-38
-0.0017682058 -0.098476708 -0.031413451 2.1850748e-38
-0.00077089528 -0.091345012 -0.001395002 2.083697e-38
0.00098958379 -0.091345012 -0.001395002 1.3646479e-38
0.0027500647 -0.091345012 -0.001395002 1.0051945e-38
0.0045105456 -0.091345012 -0.001395002 6.6407072e-39
0.0062710247 -0.091345012 -0.001395002 5.6265553e-39
0.0080315042 -0.091345012 -0.001395002 5.9953378e-39
0.0097919833 -0.091345012 -0.001395002 5.9953378e-39
0.011552462 -0.091345012 -0.001395002 5.0733815e-39
0.015742702 -0.10535492 -0.060364977 4.0592295e-39
0.017606577 -0.10535492 -0.060364977 3.4138601e-39
0.019470451 -0.10535492 -0.060364977 4.2436208e-39
0.021194359 -0.10463922 -0.057352558 5.3499684e-39
0.023052951 -0.10463922 -0.057352558 6.0875334e-39
0.024911543 -0.10463922 -0.057352558 5.9953378e-39
0.026461149 -0.10322 -0.051378742 5.0733815e-39
0.028092442 -0.10225673 -0.047324196 3.7826427e-39
0.029933451 -0.10225673 -0.047324196 2.8606864e-39
0.031774458 -0.10225673 -0.047324196 1.7532612e-39
0.033615466 -0.10225673 -0.047324196 1.8461827e-39
0.035095371 -0.10083848 -0.041354552 1.8458282e-39
0.036925919 -0.10083848 -0.041354552 1.2011874e-39
0.03875646 -0.10083848 -0.041354552 1.8848165e-40
0.040587001 -0.10083848 -0.041354552 3.0127917e-42
0.039922886 -0.092058569 -0.0043984801 3.7344604e-42
0.041688628 -0.092058569 -0.0043984801 5.1749952e-42
0.043661758 -0.092752427 -0.0073189884 4.6795241e-40
0.045432627 -0.092752427 -0.0073189884 3.3729254e-42
0.047203496 -0.092752427 -0.0073189884 5.6014804e-40
0.048974365 -0.092752427 -0.0073189884 1.4817498e-39
0.050745226 -0.092752427 -0.0073189884 1.111175e-39
0.052758545 -0.093474448 -0.01035811 2.7703418e-39
0.054784015 -0.094200835 -0.01341559 2.6774329e-39
0.056565579 -0.094200835 -0.01341559 2.8621871e-39
0.058087137 -0.093474448 -0.01035811 3.1394901e-39
0.05959956 -0.092752427 -0.0073189884 4.6160551e-39
0.061111834 -0.092058569 -0.0043984801 4.8915602e-39
0.062877581 -0.092058569 -0.0043984801 4.4302177e-39
0.064643338 -0.092058569 -0.0043984801 6.3659574e-39
0.066409081 -0.092058569 -0.0043984801 9.5917198e-39
0.068174824 -0.092058569 -0.0043984801 1.1525664e-38
0.070520505 -0.093474448 -0.01035811 1.2445454e-38
0.072296694 -0.093474448 -0.01035811 1.6039999e-38
0.074072897 -0.093474448 -0.01035811 1.6316941e-38
0.076162696 -0.094200835 -0.01341559 1.5856679e-38
0.077944249 -0.094200835 -0.01341559 1.548969e-38
0.079725802 -0.094200835 -0.01341559 1.5307812e-38
0.081507355 -0.094200835 -0.01341559 1.4942267e-38
0.083288923 -0.094200835 -0.01341559 1.2824642e-38
0.084730059 -0.093474448 -0.01035811 1.983252e-38
0.086506262 -0.093474448 -0.01035811 2.0476803e-38
0.088633582 -0.094200835 -0.01341559 2.0475727e-38
0.090415135 -0.094200835 -0.01341559 2.0106233e-38
0.092196703 -0.094200835 -0.01341559 1.9828932e-38
0.093978256 -0.094200835 -0.01341559 2.0289545e-38
0.095759809 -0.094200835 -0.01341559 2.1394799e-38
0.097541362 -0.094200835 -0.01341559 2.1672099e-38
0.099322915 -0.094200835 -0.01341559 2.148807e-38
0.10186255 -0.095617667 -0.019379273 2.1580981e-38
0.10288602 -0.094200835 -0.01341559 2.158134e-38
0.10466759 -0.094200835 -0.01341559 2.1489505e-38
0.1056421 -0.092752427 -0.0073189884 2.0106591e-38
0.10741296 -0.092752427 -0.0073189884 1.9276126e-38
0.10878697 -0.092058569 -0.0043984801 1.9735662e-38
0.11055273 -0.092058569 -0.0043984801 2.0380663e-38
0.11231847 -0.092058569 -0.0043984801 2.083984e-38
0.11408421 -0.092058569 -0.0043984801 1.8993438e-38
0.11584996 -0.092058569 -0.0043984801 1.3092183e-38
-0.099778429 -0.094523281 -0.0073189884 2.5884533e-39
-0.097805291 -0.093824327 -0.0043984801 2.9558037e-39
-0.096039549 -0.093824327 -0.0043984801 2.7714124e-39
-0.092889458 -0.095250636 -0.01035811 2.310786e-39
-0.091113254 -0.095250636 -0.01035811 2.1278269e-39
-0.089882754 -0.09740968 -0.019379273 1.9448748e-39
-0.087915085 -0.096693933 -0.01638867 2.0377892e-39
-0.086128317 -0.096693933 -0.01638867 2.2214588e-39
-0.08450672 -0.09740968 -0.019379273 4.0639309e-39
-0.082395792 -0.095982388 -0.01341559 4.3390787e-39
-0.080614232 -0.095982388 -0.01341559 3.6007962e-39
-0.078679889 -0.095250636 -0.01035811 3.2309346e-39
-0.076903701 -0.095250636 -0.01035811 6.3648672e-39
-0.075127505 -0.095250636 -0.01035811 1.254125e-38
-0.073351309 -0.095250636 -0.01035811 1.3094058e-38
-0.071575113 -0.095250636 -0.01035811 1.779492e-38
-0.069798917 -0.095250636 -0.01035811 1.7333948e-38
-0.068022728 -0.095250636 -0.01035811 1.8347726e-38
-0.066131964 -0.094523281 -0.0073189884 1.5765893e-38
-0.064361095 -0.094523281 -0.0073189884 9.9568478e-39
-0.062590234 -0.094523281 -0.0073189884 7.0973441e-39
-0.060819369 -0.094523281 -0.0073189884 9.4011573e-39
-0.0590485 -0.094523281 -0.0073189884 1.3180825e-38
-0.057277635 -0.094523281 -0.0073189884 1.5209118e-38
-0.05550677 -0.094523281 -0.0073189884 1.5301651e-38
-0.050808419 -0.10123092 -0.035345688 1.6686369e-38
-0.048988413 -0.10123092 -0.035345688 1.6962959e-38
-0.047168408 -0.10123092 -0.035345688 1.7885991e-38
-0.0452829 -0.10028981 -0.031413451 1.6964398e-38
-0.04346979 -0.10028981 -0.031413451 1.770196e-38
-0.041656677 -0.10028981 -0.031413451 1.797855e-38
-0.039843563 -0.10028981 -0.031413451 1.834733e-38
-0.038068373 -0.10123092 -0.035345688 1.8623201e-38
-0.036248364 -0.10123092 -0.035345688 1.8622477e-38
-0.034428358 -0.10123092 -0.035345688 1.8438089e-38
-0.032420076 -0.090951025 0.0076070875 1.8529563e-38
-0.030691201 -0.092390925 0.0015907139 1.8713238e-38
-0.028941207 -0.093824327 -0.0043984801 1.8713954e-38
-0.02717546 -0.093824327 -0.0043984801 1.8531355e-38
-0.025417613 -0.093105495 -0.001395002 1.79789e-38
-0.023657134 -0.093105495 -0.001395002 1.9177446e-38
-0.021914976 -0.092390925 0.0015907139 1.8900503e-38
-0.020159733 -0.092390925 0.0015907139 1.8808311e-38
-0.018404488 -0.092390925 0.0015907139 1.8070743e-38
-0.016615214 -0.093105495 -0.001395002 2.0375989e-38
-0.014854735 -0.093105495 -0.001395002 1.9546226e-38
-0.013094256 -0.093105495 -0.001395002 1.9730972e-38
-0.01071837 -0.10194789 -0.038341418 1.991536e-38
-0.0088376403 -0.10266902 -0.041354552 2.1206099e-38
-0.0070070983 -0.10266902 -0.041354552 2.1482686e-38
-0.0051765558 -0.10266902 -0.041354552 2.1297942e-38
-0.0042918553 -0.093105495 -0.001395002 2.0467829e-38
-0.0025313762 -0.093105495 -0.001395002 2.2403914e-38
-0.00077089528 -0.093105495 -0.001395002 1.5397462e-38
0.00098958379 -0.093105495 -0.001395002 1.3923821e-38
0.0027500647 -0.093105495 -0.001395002 5.5347604e-39
0.0045105456 -0.093105495 -0.001395002 4.2440216e-39
0.0062710247 -0.093105495 -0.001395002 3.9674347e-39
0.0080315042 -0.093105495 -0.001395002 2.8610871e-39
0.0096794311 -0.092390925 0.0015907139 3.3220653e-39
0.011434676 -0.092390925 0.0015907139 2.2157177e-39
0.013063567 -0.091656998 0.0046573132 2.4923046e-39
0.014813436 -0.091656998 0.0046573132 9.249789e-40
0.019470451 -0.10721879 -0.060364977 5.5619638e-40
0.021194359 -0.10649781 -0.057352558 6.4839201e-40
0.023052951 -0.10649781 -0.057352558 1.2937614e-39
0.024911543 -0.10649781 -0.057352558 1.6625439e-39
0.026770135 -0.10649781 -0.057352558 1.4781527e-39
0.028628727 -0.10649781 -0.057352558 1.1093702e-39
0.026732257 -0.09022589 0.01063697 9.249761e-40
0.028471639 -0.09022589 0.01063697 1.8775998e-40
0.030211026 -0.09022589 0.01063697 3.7287011e-40
0.031950407 -0.09022589 0.01063697 9.2569356e-40
0.033689789 -0.09022589 0.01063697 1.2955635e-39
0.035811849 -0.091656998 0.0046573132 1.7569088e-39
0.03776335 -0.092390925 0.0015907139 1.8505463e-39
0.039922886 -0.093824327 -0.0043984801 1.6672369e-39
0.041688628 -0.093824327 -0.0043984801 1.4832058e-39
0.043454379 -0.093824327 -0.0043984801 1.5757573e-39
0.045220122 -0.093824327 -0.0043984801 5.6160259e-40
0.046985872 -0.093824327 -0.0043984801 1.9438182e-39
0.048751615 -0.093824327 -0.0043984801 1.7594269e-39
0.050517358 -0.093824327 -0.0043984801 1.4810478e-39
0.052516095 -0.094523281 -0.0073189884 2.863985e-39
0.054286964 -0.094523281 -0.0073189884 3.7848637e-39
0.056057822 -0.094523281 -0.0073189884 3.876695e-39
0.057828691 -0.094523281 -0.0073189884 3.5078957e-39
0.059346091 -0.093824327 -0.0043984801 4.614595e-39
0.061111834 -0.093824327 -0.0043984801 6.0897222e-39
0.062877581 -0.093824327 -0.0043984801 6.0889978e-39
0.064643338 -0.093824327 -0.0043984801 8.3013271e-39
0.066409081 -0.093824327 -0.0043984801 1.0420739e-38
0.068174824 -0.093824327 -0.0043984801 1.0972108e-38
0.069940567 -0.093824327 -0.0043984801 1.4566294e-38
0.071995631 -0.094523281 -0.0073189884 1.9174604e-38
0.0737665 -0.094523281 -0.0073189884 1.8528886e-38
0.075537369 -0.094523281 -0.0073189884 1.9820323e-38
0.077625275 -0.095250636 -0.01035811 2.0099417e-38
0.079401478 -0.095250636 -0.01035811 1.8073655e-38
0.081177667 -0.095250636 -0.01035811 1.6232629e-38
0.08295387 -0.095250636 -0.01035811 1.6234784e-38
0.084391698 -0.094523281 -0.0073189884 1.7710976e-38
0.086162567 -0.094523281 -0.0073189884 1.8631842e-38
0.087933436 -0.094523281 -0.0073189884 1.9552708e-38
0.090058655 -0.095250636 -0.01035811 1.9736738e-38
0.091475159 -0.094523281 -0.0073189884 1.8444584e-38
0.093246028 -0.094523281 -0.0073189884 1.9273973e-38
0.095759809 -0.095982388 -0.01341559 2.0841634e-38
0.097163424 -0.095250636 -0.01035811 2.1302964e-38
0.098939627 -0.095250636 -0.01035811 2.1673176e-38
0.10110447 -0.095982388 -0.01341559 2.1489505e-38
0.10210036 -0.094523281 -0.0073189884 2.0570432e-38
0.10387123 -0.094523281 -0.0073189884 2.0754821e-38
0.10525548 -0.093824327 -0.0043984801 1.8542877e-38
0.10702123 -0.093824327 -0.0043984801 1.5867788e-38
0.10878697 -0.093824327 -0.0043984801 1.8448171e-38
0.11013934 -0.093105495 -0.001395002 1.9922203e-38
0.11189981 -0.093105495 -0.001395002 1.9735303e-38
0.11366029 -0.093105495 -0.001395002 2.0929882e-38
0.11542077 -0.093105495 -0.001395002 1.2170598e-38
0.11718126 -0.093105495 -0.001395002 8.2980103e-39
-0.099778429 -0.09629415 -0.0073189884 3.0476364e-39
-0.097805291 -0.09559007 -0.0043984801 3.13876e-39
-0.096039549 -0.09559007 -0.0043984801 3.13876e-39
-0.094076321 -0.094865978 -0.001395002 3.0469203e-39
-0.092315853 -0.094865978 -0.001395002 2.7710495e-39
-0.09055537 -0.094865978 -0.001395002 2.5870128e-39
-0.088794887 -0.094865978 -0.001395002 2.1274709e-39
-0.087915085 -0.098480701 -0.01638867 2.1281898e-39
-0.086128317 -0.098480701 -0.01638867 2.2203826e-39
-0.083348542 -0.094146177 0.0015907139 2.403332e-39
-0.081593305 -0.094146177 0.0015907139 2.9554267e-39
-0.079992488 -0.094865978 -0.001395002 3.1383859e-39
-0.07838209 -0.09559007 -0.0043984801 3.6901205e-39
-0.076903701 -0.09702684 -0.01035811 7.5612552e-39
-0.075127505 -0.09702684 -0.01035811 1.3922029e-38
-0.073351309 -0.09702684 -0.01035811 1.530495e-38
-0.071575113 -0.09702684 -0.01035811 1.9638804e-38
-0.069798917 -0.09702684 -0.01035811 2.0468194e-38
-0.068022728 -0.09702684 -0.01035811 2.1113912e-38
-0.066131964 -0.09629415 -0.0073189884 2.2865602e-38
-0.064361095 -0.09629415 -0.0073189884 2.3140391e-38
-0.062490381 -0.09559007 -0.0043984801 2.1572013e-38
-0.060724635 -0.09559007 -0.0043984801 1.8066828e-38
-0.058958892 -0.09559007 -0.0043984801 1.6775021e-38
-0.057193141 -0.09559007 -0.0043984801 1.7512585e-38
-0.055427399 -0.09559007 -0.0043984801 1.6868633e-38
-0.053000119 -0.089316905 0.021622226 1.5762993e-38
-0.051279996 -0.089316905 0.021622226 1.6500921e-38
-0.04783975 -0.089316905 0.021622226 1.6041741e-38
-0.046119627 -0.089316905 0.021622226 1.6227209e-38
-0.044632949 -0.092695728 0.0076070875 1.5397811e-38
-0.042888254 -0.092695728 0.0076070875 1.6504156e-38
-0.041143555 -0.092695728 0.0076070875 1.6411963e-38
-0.03939886 -0.092695728 0.0076070875 1.6688547e-38
-0.037654165 -0.092695728 0.0076070875 1.6964418e-38
-0.035909466 -0.092695728 0.0076070875 1.7148086e-38
-0.034164771 -0.092695728 0.0076070875 1.714737e-38
-0.032420076 -0.092695728 0.0076070875 1.7515071e-38
-0.030691201 -0.094146177 0.0015907139 1.7975333e-38
-0.028935956 -0.094146177 0.0015907139 1.8252991e-38
-0.027178094 -0.094865978 -0.001395002 1.8623565e-38
-0.025425466 -0.094146177 0.0015907139 1.7518296e-38
-0.023670221 -0.094146177 0.0015907139 1.8071473e-38
-0.021914976 -0.094146177 0.0015907139 1.7518662e-38
-0.020159733 -0.094146177 0.0015907139 1.7887446e-38
-0.018404488 -0.094146177 0.0015907139 1.7610858e-38
-0.016615214 -0.094865978 -0.001395002 1.9178183e-38
-0.014854735 -0.094865978 -0.001395002 1.8348776e-38
-0.013094256 -0.094865978 -0.001395002 1.8901945e-38
-0.011283746 -0.09559007 -0.0043984801 2.1944736e-38
-0.0095180012 -0.09559007 -0.0043984801 2.1760348e-38
-0.0078128148 -0.094865978 -0.001395002 2.286632e-38
-0.0060523362 -0.094865978 -0.001395002 2.1667795e-38
-0.0042918553 -0.094865978 -0.001395002 2.2220601e-38
-0.0025313762 -0.094865978 -0.001395002 2.1021e-38
-0.00077089528 -0.094865978 -0.001395002 1.447552e-38
0.00098958379 -0.094865978 -0.001395002 1.3924912e-38
0.0027500647 -0.094865978 -0.001395002 8.209884e-39
0.0045105456 -0.094865978 -0.001395002 7.6563501e-39
0.0061689406 -0.094146177 0.0015907139 6.458167e-39
0.0079241861 -0.094146177 0.0015907139 5.7202419e-39
0.0096794311 -0.094146177 0.0015907139 6.6425583e-39
0.011434676 -0.094146177 0.0015907139 5.6280434e-39
0.013063567 -0.093406871 0.0046573132 5.8131536e-39
0.014813436 -0.093406871 0.0046573132 5.9968259e-39
0.016563306 -0.093406871 0.0046573132 5.2599798e-39
0.018313171 -0.093406871 0.0046573132 4.9826768e-39
0.020063041 -0.093406871 0.0046573132 5.2596238e-39
0.021514105 -0.091965273 0.01063697 5.7202419e-39
0.023253487 -0.091965273 0.01063697 5.4440151e-39
0.024992874 -0.091965273 0.01063697 5.0748725e-39
0.026732257 -0.091965273 0.01063697 4.7982814e-39
0.028471639 -0.091965273 0.01063697 4.5223993e-39
0.030211026 -0.091965273 0.01063697 4.7071437e-39
0.031950407 -0.091965273 0.01063697 5.0755759e-39
0.033878379 -0.092695728 0.0076070875 5.5365625e-39
0.035811849 -0.093406871 0.0046573132 5.9057121e-39
0.03776335 -0.094146177 0.0015907139 5.9986336e-39
0.039518595 -0.094146177 0.0015907139 5.8149612e-39
0.04127384 -0.094146177 0.0015907139 5.5394533e-39
0.043241099 -0.094865978 -0.001395002 7.0145778e-39
0.045220122 -0.09559007 -0.0043984801 5.8163906e-39
0.046985872 -0.09559007 -0.0043984801 7.4748315e-39
0.048751615 -0.09559007 -0.0043984801 8.2120364e-39
0.050517358 -0.09559007 -0.0043984801 8.0262088e-39
0.052516095 -0.09629415 -0.0073189884 8.3027985e-39
0.054286964 -0.09629415 -0.0073189884 7.8411043e-39
0.056057822 -0.09629415 -0.0073189884 7.5641517e-39
0.057580348 -0.09559007 -0.0043984801 6.6418198e-39
0.059346091 -0.09559007 -0.0043984801 8.5779196e-39
0.061111834 -0.09559007 -0.0043984801 7.6559605e-39
0.062606379 -0.094865978 -0.001395002 8.3013271e-39
0.064366862 -0.094865978 -0.001395002 7.6552319e-39
0.066127345 -0.094865978 -0.001395002 7.4701161e-39
0.067887828 -0.094865978 -0.001395002 1.1064301e-38
0.069940567 -0.09559007 -0.0043984801 1.1155053e-38
0.07170631 -0.09559007 -0.0043984801 1.2813133e-38
0.073472068 -0.09559007 -0.0043984801 1.3365941e-38
0.075237811 -0.09559007 -0.0043984801 1.3827636e-38
0.077003554 -0.09559007 -0.0043984801 1.364504e-38
0.079079092 -0.09629415 -0.0073189884 1.318622e-38
0.08084996 -0.09629415 -0.0073189884 1.2083109e-38
0.082620829 -0.09629415 -0.0073189884 8.9506132e-39
0.08406654 -0.09559007 -0.0043984801 4.8947271e-39
0.085832283 -0.09559007 -0.0043984801 2.4965702e-39
0.087598026 -0.09559007 -0.0043984801 2.7717151e-39
0.08970429 -0.09629415 -0.0073189884 3.4159971e-39
0.091475159 -0.09629415 -0.0073189884 3.4149083e-39
0.093246028 -0.09629415 -0.0073189884 1.4784315e-39
0.095016897 -0.09629415 -0.0073189884 1.93976e-39
0.096787766 -0.09629415 -0.0073189884 5.7215773e-39
0.098939627 -0.09702684 -0.01035811 1.1255473e-38
0.10032949 -0.09629415 -0.0073189884 9.4144402e-39
0.101724 -0.09559007 -0.0043984801 1.4855424e-38
0.10348974 -0.09559007 -0.0043984801 1.5870661e-38
0.10525548 -0.09559007 -0.0043984801 1.1261602e-38
0.10661837 -0.094865978 -0.001395002 1.0522595e-38
0.10837886 -0.094865978 -0.001395002 8.4061513e-40
0.11013934 -0.094865978 -0.001395002 1.392347e-39
0.11189981 -0.094865978 -0.001395002 1.2976374e-39
0.11366029 -0.094865978 -0.001395002 3.2297968e-39
0.11542077 -0.094865978 -0.001395002 1.2922452e-39
0.11718126 -0.094865978 -0.001395002 2.9517525e-39
-0.099357769 -0.096626461 -0.001395002 3.0469203e-39
-0.097597286 -0.096626461 -0.001395002 3.2298809e-39
-0.096039549 -0.097355813 -0.0043984801 3.4142749e-39
-0.094076321 -0.096626461 -0.001395002 3.6901401e-39
-0.092315853 -0.096626461 -0.001395002 3.5064649e-39
-0.09055537 -0.096626461 -0.001395002 3.2302326e-39
-0.088794887 -0.096626461 -0.001395002 2.7710495e-39
-0.086859033 -0.095901415 0.0015907139 2.6795699e-39
-0.085103795 -0.095901415 0.0015907139 2.863964e-39
-0.083179176 -0.095156729 0.0046573132 3.5082586e-39
-0.08142931 -0.095156729 0.0046573132 3.6912135e-39
-0.079679444 -0.095156729 0.0046573132 3.5053803e-39
-0.078082815 -0.095901415 0.0015907139 3.3199045e-39
-0.076471522 -0.096626461 -0.001395002 6.637501e-39
-0.075127505 -0.098803028 -0.01035811 1.2445091e-38
-0.073351309 -0.098803028 -0.01035811 1.4565937e-38
-0.071706451 -0.099545494 -0.01341559 1.8715427e-38
-0.069924898 -0.099545494 -0.01341559 1.9823193e-38
-0.068143345 -0.099545494 -0.01341559 2.0653299e-38
-0.066246532 -0.098803028 -0.01035811 2.1759271e-38
-0.064361095 -0.098065019 -0.0073189884 2.2035137e-38
-0.062490381 -0.097355813 -0.0043984801 2.1940073e-38
-0.060724635 -0.097355813 -0.0043984801 2.1201084e-38
-0.058958892 -0.097355813 -0.0043984801 2.0739037e-38
-0.057193141 -0.097355813 -0.0043984801 2.037026e-38
-0.054881781 -0.092480466 0.015678152 1.9911441e-38
-0.053000119 -0.091037035 0.021622226 1.7331059e-38
-0.051279996 -0.091037035 0.021622226 1.6409464e-38
-0.049559873 -0.091037035 0.021622226 1.5765172e-38
-0.04783975 -0.091037035 0.021622226 1.5673697e-38
-0.046119627 -0.091037035 0.021622226 1.5582219e-38
-0.044448856 -0.091756567 0.01865916 1.5121962e-38
-0.0428431 -0.093704656 0.01063697 1.64127e-38
-0.041103713 -0.093704656 0.01063697 1.6873679e-38
-0.03936433 -0.093704656 0.01063697 1.6781482e-38
-0.037624944 -0.093704656 0.01063697 1.6964796e-38
-0.035885561 -0.093704656 0.01063697 1.705663e-38
-0.034146179 -0.093704656 0.01063697 1.7240304e-38
-0.032420076 -0.094440416 0.0076070875 1.770056e-38
-0.030675378 -0.094440416 0.0076070875 1.8252658e-38
-0.028930681 -0.094440416 0.0076070875 1.8622514e-38
-0.027180711 -0.095901415 0.0015907139 1.8255162e-38
-0.025425466 -0.095901415 0.0015907139 1.7149891e-38
-0.023670221 -0.095901415 0.0015907139 1.7057698e-38
-0.021914976 -0.095901415 0.0015907139 1.6504526e-38
-0.020159733 -0.095901415 0.0015907139 1.6966227e-38
-0.018404488 -0.095901415 0.0015907139 1.6689637e-38
-0.016615214 -0.096626461 -0.001395002 1.6874028e-38
-0.014854735 -0.096626461 -0.001395002 1.6229013e-38
-0.013094256 -0.096626461 -0.001395002 1.7335358e-38
-0.011333775 -0.096626461 -0.001395002 2.1392288e-38
-0.0095180012 -0.097355813 -0.0043984801 2.2314231e-38
-0.0078128148 -0.096626461 -0.001395002 2.1207541e-38
-0.0060523362 -0.096626461 -0.001395002 2.2773767e-38
-0.0043625277 -0.095901415 0.0015907139 2.0837329e-38
-0.0026072827 -0.095901415 0.0015907139 1.9545893e-38
-0.00093537802 -0.095156729 0.0046573132 1.4476607e-38
0.00081449142 -0.095156729 0.0046573132 1.1436697e-38
0.0026584524 -0.095901415 0.0015907139 9.1336185e-39
0.0043142266 -0.095156729 0.0046573132 8.7641172e-39
0.006064096 -0.095156729 0.0046573132 6.3677497e-39
0.0079241861 -0.095901415 0.0015907139 5.6294629e-39
0.0095638316 -0.095156729 0.0046573132 6.2755512e-39
0.011313701 -0.095156729 0.0046573132 4.9844495e-39
0.013063567 -0.095156729 0.0046573132 4.9848096e-39
0.014813436 -0.095156729 0.0046573132 5.7220145e-39
0.016563306 -0.095156729 0.0046573132 4.7082227e-39
0.018313171 -0.095156729 0.0046573132 4.1543329e-39
0.019920813 -0.094440416 0.0076070875 4.2472474e-39
0.021514105 -0.093704656 0.01063697 4.7075094e-39
0.023253487 -0.093704656 0.01063697 4.5238371e-39
0.024992874 -0.093704656 0.01063697 4.3387269e-39
0.026732257 -0.093704656 0.01063697 4.1546888e-39
0.028471639 -0.093704656 0.01063697 5.8131171e-39
0.030211026 -0.093704656 0.01063697 5.9967881e-39
0.031950407 -0.093704656 0.01063697 6.1808276e-39
0.033878379 -0.094440416 0.0076070875 6.4570628e-39
0.035811849 -0.095156729 0.0046573132 6.6418198e-39
0.037561722 -0.095156729 0.0046573132 6.7340196e-39
0.039311588 -0.095156729 0.0046573132 6.641824e-39
0.04127384 -0.095901415 0.0015907139 6.3663147e-39
0.043029085 -0.095901415 0.0015907139 7.8414392e-39
0.045001581 -0.096626461 -0.001395002 6.8265642e-39
0.046762057 -0.096626461 -0.001395002 8.1176575e-39
0.048522539 -0.096626461 -0.001395002 8.6701125e-39
0.050283022 -0.096626461 -0.001395002 7.9325474e-39
0.052283108 -0.097355813 -0.0043984801 7.5637677e-39
0.054048851 -0.097355813 -0.0043984801 6.8251251e-39
0.055814605 -0.097355813 -0.0043984801 6.8247691e-39
0.057580348 -0.097355813 -0.0043984801 6.9162515e-39
0.059085425 -0.096626461 -0.001395002 6.1786865e-39
0.060845893 -0.096626461 -0.001395002 3.321338e-39
0.062606379 -0.096626461 -0.001395002 3.414607e-39
0.064366862 -0.096626461 -0.001395002 2.7685159e-39
0.066127345 -0.096626461 -0.001395002 4.1518035e-39
0.067887828 -0.096626461 -0.001395002 8.8526988e-39
0.069648296 -0.096626461 -0.001395002 7.0073443e-39
0.071408778 -0.096626461 -0.001395002 3.2255242e-39
0.073472068 -0.097355813 -0.0043984801 9.8632466e-39
0.075237811 -0.097355813 -0.0043984801 1.3643265e-38
0.077003554 -0.097355813 -0.0043984801 1.1985178e-38
0.078769296 -0.097355813 -0.0043984801 9.3140231e-39
0.080535039 -0.097355813 -0.0043984801 9.3154608e-39
0.082300797 -0.097355813 -0.0043984801 7.1974795e-39
0.08406654 -0.097355813 -0.0043984801 2.2185624e-39
0.085832283 -0.097355813 -0.0043984801 4.0749759e-42
0.087598026 -0.097355813 -0.0043984801 1.9127724e-42
0.089363769 -0.097355813 -0.0043984801 9.8090893e-44
0.091129526 -0.097355813 -0.0043984801 5.5434807e-40
0.092895269 -0.097355813 -0.0043984801 7.7071416e-44
0.094661012 -0.097355813 -0.0043984801 2.213847e-39
0.096426755 -0.097355813 -0.0043984801 4.2450235e-39
0.098192498 -0.097355813 -0.0043984801 6.6449839e-39
0.099958241 -0.097355813 -0.0043984801 8.584332e-39
0.101724 -0.097355813 -0.0043984801 1.3565416e-38
0.10309741 -0.096626461 -0.001395002 1.3382469e-38
0.10485789 -0.096626461 -0.001395002 1.1908418e-38
0.10661837 -0.096626461 -0.001395002 1.218321e-38
0.10837886 -0.096626461 -0.001395002 2.6856207e-39
0.11013934 -0.096626461 -0.001395002 9.0649998e-42
0.11189981 -0.096626461 -0.001395002 2.5910009e-42
0.11366029 -0.096626461 -0.001395002 7.4268819e-44
0.11542077 -0.096626461 -0.001395002 4.6357476e-40
0.1176157 -0.097355813 -0.0043984801 2.3078265e-39
-0.10024276 -0.095444039 0.01063697 5.1666813e-39
-0.098503381 -0.095444039 0.01063697 4.152542e-39
-0.096414849 -0.094211012 0.015678152 3.6904961e-39
-0.094684318 -0.094211012 0.015678152 4.150398e-39
-0.092953771 -0.094211012 0.015678152 4.4269849e-39
-0.091223225 -0.094211012 0.015678152 4.4269821e-39
-0.089307129 -0.093481898 0.01865916 4.0592772e-39
-0.087581813 -0.093481898 0.01865916 3.9677948e-39
-0.086031586 -0.094211012 0.015678152 4.0610694e-39
-0.08430104 -0.094211012 0.015678152 4.3376591e-39
-0.082570493 -0.094211012 0.015678152 4.7982856e-39
-0.080948487 -0.094707444 0.013648495 5.4425788e-39
-0.079214387 -0.094707444 0.013648495 6.0861419e-39
-0.077630773 -0.095444039 0.01063697 5.4389634e-39
-0.07589139 -0.095444039 0.01063697 5.991047e-39
-0.074152008 -0.095444039 0.01063697 6.8207937e-39
-0.072277978 -0.094707444 0.013648495 5.5304038e-39
-0.07054387 -0.094707444 0.013648495 6.6371016e-39
-0.06880977 -0.094707444 0.013648495 4.9793698e-39
-0.067075662 -0.094707444 0.013648495 7.2842549e-39
-0.066361785 -0.10132705 -0.01341559 8.4831526e-39
-0.063715704 -0.095444039 0.01063697 8.8515722e-39
-0.061873354 -0.094707444 0.013648495 1.1984063e-38
-0.060139254 -0.094707444 0.013648495 1.6960829e-38
-0.05840515 -0.094707444 0.013648495 1.9817093e-38
-0.056526083 -0.093481898 0.01865916 1.9356123e-38
-0.054881781 -0.094211012 0.015678152 1.7883525e-38
-0.053151239 -0.094211012 0.015678152 1.5211295e-38
-0.051279996 -0.092757151 0.021622226 1.2999319e-38
-0.049559873 -0.092757151 0.021622226 1.1709299e-38
-0.04783975 -0.092757151 0.021622226 1.1341237e-38
-0.046119627 -0.092757151 0.021622226 1.124976e-38
-0.044448856 -0.093481898 0.01865916 1.0882056e-38
-0.042767968 -0.094211012 0.015678152 1.1251199e-38
-0.041037422 -0.094211012 0.015678152 9.8679045e-39
-0.039330009 -0.094707444 0.013648495 9.1303395e-39
-0.037595905 -0.094707444 0.013648495 8.6682824e-39
-0.035885561 -0.095444039 0.01063697 8.6675635e-39
-0.034146179 -0.095444039 0.01063697 8.9434301e-39
-0.032406796 -0.095444039 0.01063697 9.0349069e-39
-0.030667409 -0.095444039 0.01063697 9.1263836e-39
-0.028928025 -0.095444039 0.01063697 9.1263808e-39
-0.027188642 -0.095444039 0.01063697 8.2062112e-39
-0.025441289 -0.096185118 0.0076070875 7.5619194e-39
-0.023696592 -0.096185118 0.0076070875 7.2853339e-39
-0.021933796 -0.096906602 0.0046573132 6.5481318e-39
-0.020183926 -0.096906602 0.0046573132 7.0091156e-39
-0.018434059 -0.096906602 0.0046573132 6.0882355e-39
-0.016684191 -0.096906602 0.0046573132 5.1662792e-39
-0.014893997 -0.097656667 0.0015907139 5.9960342e-39
-0.013138752 -0.097656667 0.0015907139 1.0237391e-38
-0.011383507 -0.097656667 0.0015907139 1.7613038e-38
-0.0097390227 -0.096185118 0.0076070875 1.6783277e-38
-0.0079943277 -0.096185118 0.0076070875 1.8441714e-38
-0.0062496313 -0.096185118 0.0076070875 1.4015978e-38
-0.0045049344 -0.096185118 0.0076070875 1.0419635e-38
-0.0027602394 -0.096185118 0.0076070875 2.5826519e-39
-0.0010155425 -0.096185118 0.0076070875 3.7104702e-40
0.00072915433 -0.096185118 0.0076070875 1.2029825e-39
0.0024738493 -0.096185118 0.0076070875 1.3888185e-39
0.0042185462 -0.096185118 0.0076070875 1.4810141e-39
0.0059632412 -0.096185118 0.0076070875 5.5211159e-42
0.0077079399 -0.096185118 0.0076070875 2.8282407e-40
0.0094526354 -0.096185118 0.0076070875 9.2819348e-40
0.01119733 -0.096185118 0.0076070875 5.1539758e-42
0.012942029 -0.096185118 0.0076070875 3.750169e-40
0.014686724 -0.096185118 0.0076070875 5.1539758e-42
0.016431419 -0.096185118 0.0076070875 2.2729061e-42
0.018313171 -0.096906602 0.0046573132 4.7504018e-43
0.019920813 -0.096185118 0.0076070875 8.3517388e-43
0.021514105 -0.095444039 0.01063697 1.5596452e-42
0.023253487 -0.095444039 0.01063697 2.2799126e-42
0.024992874 -0.095444039 0.01063697 2.6428489e-42
0.026732257 -0.095444039 0.01063697 3.7204474e-42
0.028644292 -0.096185118 0.0076070875 9.6988071e-41
0.030211026 -0.095444039 0.01063697 9.6267803e-41
0.031950407 -0.095444039 0.01063697 1.8739144e-40
0.033878379 -0.096185118 0.0076070875 2.7923394e-40
0.035623074 -0.096185118 0.0076070875 4.6291054e-40
0.037367776 -0.096185118 0.0076070875 4.6255461e-40
0.039112471 -0.096185118 0.0076070875 3.7035898e-40
0.040857166 -0.096185118 0.0076070875 2.7779761e-40
0.042811327 -0.096906602 0.0046573132 4.625462e-40
0.04478433 -0.097656667 0.0015907139 9.3758078e-41
0.046539575 -0.097656667 0.0015907139 8.3167624e-40
0.04829482 -0.097656667 0.0015907139 1.8630683e-40
0.050050065 -0.097656667 0.0015907139 1.1350518e-43
0.052043498 -0.098386943 -0.001395002 8.3797648e-43
0.05380398 -0.098386943 -0.001395002 1.2191297e-43
0.055564459 -0.098386943 -0.001395002 3.6999324e-40
0.057324942 -0.098386943 -0.001395002 4.6183855e-40
0.058826294 -0.097656667 0.0015907139 1.4153114e-43
0.060581531 -0.097656667 0.0015907139 8.6039726e-43
0.062336784 -0.097656667 0.0015907139 1.5778621e-42
0.064092025 -0.097656667 0.0015907139 4.6506854e-40
0.066127345 -0.098386943 -0.001395002 3.5075215e-39
0.067887828 -0.098386943 -0.001395002 5.6276595e-39
0.069648296 -0.098386943 -0.001395002 5.6265805e-39
0.071408778 -0.098386943 -0.001395002 5.7166153e-39
0.073169261 -0.098386943 -0.001395002 6.7304043e-39
0.074929744 -0.098386943 -0.001395002 8.3899256e-39
0.076690227 -0.098386943 -0.001395002 9.7735789e-39
0.078450695 -0.098386943 -0.001395002 9.2218443e-39
0.080211177 -0.098386943 -0.001395002 8.8545037e-39
0.08197166 -0.098386943 -0.001395002 9.8704535e-39
0.083732143 -0.098386943 -0.001395002 1.0239233e-38
0.085492626 -0.098386943 -0.001395002 6.9191116e-39
0.087253094 -0.098386943 -0.001395002 4.0599596e-39
0.089013577 -0.098386943 -0.001395002 5.9020631e-39
0.091129526 -0.099121556 -0.0043984801 1.8162262e-38
0.092895269 -0.099121556 -0.0043984801 2.2587943e-38
0.094661012 -0.099121556 -0.0043984801 2.2865602e-38
0.096426755 -0.099121556 -0.0043984801 2.1853618e-38
0.098192498 -0.099121556 -0.0043984801 2.1948682e-38
0.099958241 -0.099121556 -0.0043984801 2.0386403e-38
0.101724 -0.099121556 -0.0043984801 1.6056131e-38
0.10309741 -0.098386943 -0.001395002 1.5965739e-38
0.10485789 -0.098386943 -0.001395002 1.4399135e-38
0.10661837 -0.098386943 -0.001395002 1.3844526e-38
0.10837886 -0.098386943 -0.001395002 1.006271e-38
0.11013934 -0.098386943 -0.001395002 4.9897926e-39
0.11189981 -0.098386943 -0.001395002 6.5552742e-42
0.11366029 -0.098386943 -0.001395002 5.1259498e-42
0.11542077 -0.098386943 -0.001395002 2.5851616e-39
0.1176157 -0.099121556 -0.0043984801 1.7557415e-39
-0.10002363 -0.096441552 0.013648495 5.628007e-39
-0.098145396 -0.095941558 0.015678152 3.7833895e-39
-0.096208408 -0.095207214 0.01865916 4.3351354e-39
-0.094283074 -0.094477281 0.021622226 4.4273366e-39
-0.092562944 -0.094477281 0.021622226 4.611009e-39
-0.090842828 -0.094477281 0.021622226 4.5188134e-39
-0.089122698 -0.094477281 0.021622226 4.5188106e-39
-0.087402575 -0.094477281 0.021622226 4.6120796e-39
-0.085856497 -0.095207214 0.01865916 4.7057144e-39
-0.08430104 -0.095941558 0.015678152 4.8908273e-39
-0.082570493 -0.095941558 0.015678152 3.691938e-39
-0.080839947 -0.095941558 0.015678152 4.6128153e-39
-0.079109408 -0.095941558 0.015678152 6.1786879e-39
-0.077480286 -0.096441552 0.013648495 6.1768774e-39
-0.075746179 -0.096441552 0.013648495 6.7282407e-39
-0.073917776 -0.095941558 0.015678152 6.266894e-39
-0.07218723 -0.095941558 0.015678152 4.9761524e-39
-0.070456684 -0.095941558 0.015678152 4.5162532e-39
-0.068726137 -0.095941558 0.015678152 4.7939219e-39
-0.066877991 -0.095207214 0.01865916 4.6106097e-39
-0.065152675 -0.095207214 0.01865916 4.9793894e-39
-0.063607454 -0.096441552 0.013648495 6.0850097e-39
-0.061803963 -0.095941558 0.015678152 7.6505263e-39
-0.060073417 -0.095941558 0.015678152 9.2167618e-39
-0.058251407 -0.095207214 0.01865916 1.087483e-38
-0.056526083 -0.095207214 0.01865916 1.1520927e-38
-0.054881781 -0.095941558 0.015678152 1.1706782e-38
-0.053151239 -0.095941558 0.015678152 1.0510051e-38
-0.051350132 -0.095207214 0.01865916 8.4828261e-39
-0.049559873 -0.094477281 0.021622226 7.1002518e-39
-0.04783975 -0.094477281 0.021622226 6.6403527e-39
-0.046119627 -0.094477281 0.021622226 6.549236e-39
-0.044448856 -0.095207214 0.01865916 5.9049456e-39
-0.04272354 -0.095207214 0.01865916 4.7071213e-39
-0.041037422 -0.095941558 0.015678152 5.7205544e-39
-0.039330009 -0.096441552 0.013648495 4.5220112e-39
-0.037595905 -0.096441552 0.013648495 3.7833671e-39
-0.035885561 -0.097183421 0.01063697 3.9666794e-39
-0.034146179 -0.097183421 0.01063697 4.5187742e-39
-0.032406796 -0.097183421 0.01063697 4.518414e-39
-0.030667409 -0.097183421 0.01063697 4.3329438e-39
-0.028928025 -0.097183421 0.01063697 4.0567114e-39
-0.027188642 -0.097183421 0.01063697 4.2421761e-39
-0.025449257 -0.097183421 0.01063697 4.0585009e-39
-0.023709873 -0.097183421 0.01063697 3.6897212e-39
-0.02197049 -0.097183421 0.01063697 2.6762923e-39
-0.020231107 -0.097183421 0.01063697 2.584461e-39
-0.018491723 -0.097183421 0.01063697 1.8468946e-39
-0.01675234 -0.097183421 0.01063697 1.202244e-39
-0.014973111 -0.09792982 0.0076070875 5.1670092e-39
-0.013228416 -0.09792982 0.0076070875 7.1953103e-39
-0.01148372 -0.09792982 0.0076070875 1.4017784e-38
-0.0097948033 -0.097183421 0.01063697 1.5676945e-38
-0.0080554187 -0.097183421 0.01063697 1.1896569e-38
-0.0063160365 -0.097183421 0.01063697 1.0512921e-38
-0.0045766518 -0.097183421 0.01063697 4.9801082e-39
-0.0028372691 -0.097183421 0.01063697 1.2919327e-39
-0.0010978845 -0.097183421 0.01063697 9.4114007e-41
0.00072915433 -0.09792982 0.0076070875 4.8484927e-43
0.0024738493 -0.09792982 0.0076070875 3.7260526e-42
0.0041202656 -0.097183421 0.01063697 3.7260526e-42
0.0058596521 -0.097183421 0.01063697 2.2813139e-42
0.0077079399 -0.09792982 0.0076070875 5.5761309e-40
0.0094526354 -0.09792982 0.0076070875 4.6541746e-40
0.01119733 -0.09792982 0.0076070875 1.5554413e-42
0.012942029 -0.09792982 0.0076070875 3.7321903e-40
0.014686724 -0.09792982 0.0076070875 4.4365109e-42
0.016431419 -0.09792982 0.0076070875 3.3561098e-42
0.018176118 -0.09792982 0.0076070875 2.638645e-42
0.019774722 -0.097183421 0.01063697 2.9987787e-42
0.021514105 -0.097183421 0.01063697 3.361715e-42
0.023253487 -0.097183421 0.01063697 3.7260526e-42
0.024992874 -0.097183421 0.01063697 4.6506574e-40
0.026732257 -0.097183421 0.01063697 1.0182395e-39
0.028471639 -0.097183421 0.01063697 3.7260526e-42
0.030211026 -0.097183421 0.01063697 3.3673202e-42
0.031950407 -0.097183421 0.01063697 2.6540593e-42
0.033689789 -0.097183421 0.01063697 1.5806647e-42
0.035623074 -0.09792982 0.0076070875 9.3060231e-41
0.037367776 -0.09792982 0.0076070875 9.1984034e-41
0.039112471 -0.09792982 0.0076070875 1.4293244e-43
0.040857166 -0.09792982 0.0076070875 1.3592595e-43
0.042811327 -0.098656476 0.0046573132 1.3312335e-43
0.04478433 -0.099411905 0.0015907139 9.1964416e-41
0.046539575 -0.099411905 0.0015907139 3.6782964e-40
0.04829482 -0.099411905 0.0015907139 1.1350518e-43
0.050050065 -0.099411905 0.0015907139 1.2191297e-43
0.052043498 -0.10014741 -0.001395002 6.4585986e-40
0.05380398 -0.10014741 -0.001395002 8.5339076e-43
0.055564459 -0.10014741 -0.001395002 9.3056027e-41
0.057324942 -0.10014741 -0.001395002 1.8525306e-40
0.058826294 -0.099411905 0.0015907139 1.1075723e-39
0.060581531 -0.099411905 0.0015907139 4.6399795e-40
0.062336784 -0.099411905 0.0015907139 4.6579441e-40
0.064092025 -0.099411905 0.0015907139 1.6654166e-39
0.066127345 -0.10014741 -0.001395002 2.2196666e-39
0.067602515 -0.099411905 0.0015907139 3.3263701e-39
0.069357768 -0.099411905 0.0015907139 5.1692037e-39
0.071408778 -0.10014741 -0.001395002 3.7841112e-39
0.073169261 -0.10014741 -0.001395002 6.6414569e-39
0.074929744 -0.10014741 -0.001395002 8.7608774e-39
0.076690227 -0.10014741 -0.001395002 6.5481822e-39
0.078450695 -0.10014741 -0.001395002 5.7195034e-39
0.080211177 -0.10014741 -0.001395002 9.1311046e-39
0.08197166 -0.10014741 -0.001395002 1.0423641e-38
0.083732143 -0.10014741 -0.001395002 9.8708164e-39
0.085492626 -0.10014741 -0.001395002 1.1160451e-38
0.087253094 -0.10014741 -0.001395002 1.1159711e-38
0.089013577 -0.10014741 -0.001395002 1.290854e-38
0.091129526 -0.1008873 -0.0043984801 2.2035495e-38
0.092895269 -0.1008873 -0.0043984801 2.3232944e-38
0.094661012 -0.1008873 -0.0043984801 2.3141826e-38
0.096426755 -0.1008873 -0.0043984801 2.1485917e-38
0.098192498 -0.1008873 -0.0043984801 2.1948682e-38
0.099958241 -0.1008873 -0.0043984801 2.1213998e-38
0.101724 -0.1008873 -0.0043984801 1.5504374e-38
0.10309741 -0.10014741 -0.001395002 1.7535556e-38
0.10485789 -0.10014741 -0.001395002 1.3018342e-38
0.10661837 -0.10014741 -0.001395002 1.3938506e-38
0.10837886 -0.10014741 -0.001395002 1.0340365e-38
0.11013934 -0.10014741 -0.001395002 8.7708826e-39
0.11189981 -0.10014741 -0.001395002 4.3902681e-42
0.11366029 -0.10014741 -0.001395002 1.1700842e-42
0.11542077 -0.10014741 -0.001395002 1.7568471e-39
0.11718126 -0.10014741 -0.001395002 1.0192597e-39
-0.099875942 -0.097672105 0.015678152 4.983341e-39
-0.097933725 -0.09693253 0.01865916 2.4011585e-39
-0.09600319 -0.096197397 0.021622226 3.3216897e-39
-0.094283074 -0.096197397 0.021622226 3.1369439e-39
-0.092562944 -0.096197397 0.021622226 3.1358677e-39
-0.090842828 -0.096197397 0.021622226 2.9514765e-39
-0.089122698 -0.096197397 0.021622226 2.9521925e-39
-0.087402575 -0.096197397 0.021622226 3.0451042e-39
-0.085682452 -0.096197397 0.021622226 3.1383775e-39
-0.084131174 -0.09693253 0.01865916 3.2309332e-39
-0.082405858 -0.09693253 0.01865916 3.1394621e-39
-0.080680534 -0.09693253 0.01865916 2.6777637e-39
-0.079109408 -0.097672105 0.015678152 2.6756015e-39
-0.077378862 -0.097672105 0.015678152 1.6596447e-39
-0.075504586 -0.09693253 0.01865916 2.0255433e-39
-0.07377927 -0.09693253 0.01865916 1.379455e-39
-0.072053947 -0.09693253 0.01865916 1.4720136e-39
-0.070328623 -0.09693253 0.01865916 8.2808892e-40
-0.068603314 -0.09693253 0.01865916 1.382706e-39
-0.066761099 -0.096197397 0.021622226 8.5058817e-43
-0.065040976 -0.096197397 0.021622226 1.2051167e-43
-0.063427359 -0.09693253 0.01865916 1.1630777e-43
-0.061702039 -0.09693253 0.01865916 1.8377609e-40
-0.059976723 -0.09693253 0.01865916 2.7559477e-40
-0.058160488 -0.096197397 0.021622226 1.4712499e-39
-0.056440365 -0.096197397 0.021622226 2.762353e-39
-0.054800767 -0.09693253 0.01865916 2.0269712e-39
-0.053075451 -0.09693253 0.01865916 2.858541e-39
-0.051350132 -0.09693253 0.01865916 2.3068063e-39
-0.049559873 -0.096197397 0.021622226 2.4919164e-39
-0.04783975 -0.096197397 0.021622226 2.8610591e-39
-0.046119627 -0.096197397 0.021622226 2.862857e-39
-0.044448856 -0.09693253 0.01865916 2.4951534e-39
-0.04272354 -0.09693253 0.01865916 4.6720972e-40
-0.041037422 -0.097672105 0.015678152 3.7501409e-40
-0.039330009 -0.09817566 0.013648495 3.3505046e-42
-0.037595905 -0.09817566 0.013648495 1.0930128e-43
-0.035885561 -0.098922804 0.01063697 4.7363888e-43
-0.034146179 -0.098922804 0.01063697 2.2743074e-42
-0.032406796 -0.098922804 0.01063697 9.4111205e-41
-0.030667409 -0.098922804 0.01063697 4.6145459e-40
-0.028928025 -0.098922804 0.01063697 7.3804008e-40
-0.027188642 -0.098922804 0.01063697 1.4763184e-39
-0.025457177 -0.09817566 0.013648495 1.2930033e-39
-0.023723075 -0.09817566 0.013648495 7.3983514e-40
-0.02197049 -0.098922804 0.01063697 2.2729061e-42
-0.020254867 -0.09817566 0.013648495 1.55404e-42
-0.018520763 -0.09817566 0.013648495 8.3237129e-43
-0.016786661 -0.09817566 0.013648495 3.3519059e-42
-0.015012955 -0.098922804 0.01063697 7.6573842e-39
-0.013318453 -0.09817566 0.013648495 1.0053749e-38
-0.011584349 -0.09817566 0.013648495 1.4663528e-38
-0.009850245 -0.09817566 0.013648495 1.0422529e-38
-0.008116141 -0.09817566 0.013648495 5.1663016e-39
-0.0063820393 -0.09817566 0.013648495 9.482867e-41
-0.0046479353 -0.09817566 0.013648495 1.0160703e-39
-0.0028372691 -0.098922804 0.01063697 1.1770907e-43
-0.0010978845 -0.098922804 0.01063697 9.3406352e-41
0.00064149825 -0.098922804 0.01063697 5.5510617e-40
0.0023808829 -0.098922804 0.01063697 8.3205319e-40
0.0041202656 -0.098922804 0.01063697 2.7923534e-40
0.0058596521 -0.098922804 0.01063697 1.8703831e-40
0.0075990348 -0.098922804 0.01063697 9.2460335e-40
0.009338418 -0.098922804 0.01063697 2.6442502e-42
0.011077801 -0.098922804 0.01063697 1.1630777e-43
0.012817187 -0.098922804 0.01063697 2.6400463e-42
0.01455657 -0.098922804 0.01063697 2.6400463e-42
0.016295953 -0.098922804 0.01063697 1.9197789e-42
0.018035339 -0.098922804 0.01063697 1.9239828e-42
0.019774722 -0.098922804 0.01063697 9.483988e-41
0.021514105 -0.098922804 0.01063697 1.8703971e-40
0.023253487 -0.098922804 0.01063697 2.7923534e-40
0.024992874 -0.098922804 0.01063697 6.4766193e-40
0.026732257 -0.098922804 0.01063697 1.0175235e-39
0.028471639 -0.098922804 0.01063697 9.7725154e-41
0.030211026 -0.098922804 0.01063697 5.8910587e-42
0.031950407 -0.098922804 0.01063697 4.4589317e-42
0.033689789 -0.098922804 0.01063697 2.7960949e-40
0.035623074 -0.099674508 0.0076070875 4.6220569e-40
0.037367776 -0.099674508 0.0076070875 5.5260345e-40
0.039112471 -0.099674508 0.0076070875 2.7565362e-40
0.040857166 -0.099674508 0.0076070875 2.7564662e-40
0.042601861 -0.099674508 0.0076070875 8.2773719e-40
0.044561192 -0.10040633 0.0046573132 7.3553876e-40
0.046539575 -0.10116716 0.0015907139 5.522209e-40
0.048060931 -0.10040633 0.0046573132 1.2191297e-43
0.049810797 -0.10040633 0.0046573132 8.3024972e-40
0.052043498 -0.10190789 -0.001395002 1.384148e-39
0.05380398 -0.10190789 -0.001395002 1.3592595e-43
0.055564459 -0.10190789 -0.001395002 1.2891946e-43
0.057324942 -0.10190789 -0.001395002 8.3168886e-40
0.058826294 -0.10116716 0.0015907139 7.7470772e-39
0.060581531 -0.10116716 0.0015907139 7.5655628e-39
0.062336784 -0.10116716 0.0015907139 9.3183559e-39
0.064092025 -0.10116716 0.0015907139 6.2784183e-39
0.066127345 -0.10190789 -0.001395002 1.2090964e-39
0.067602515 -0.10116716 0.0015907139 7.0174182e-39
0.069357768 -0.10116716 0.0015907139 1.2087459e-38
0.071113005 -0.10116716 0.0015907139 1.0149912e-38
0.072868258 -0.10116716 0.0015907139 2.842632e-40
0.074929744 -0.10190789 -0.001395002 1.1210388e-43
0.076690227 -0.10190789 -0.001395002 1.1770907e-43
0.078450695 -0.10190789 -0.001395002 4.0861863e-42
0.080211177 -0.10190789 -0.001395002 8.3564612e-40
0.08197166 -0.10190789 -0.001395002 2.6799217e-39
0.083732143 -0.10190789 -0.001395002 9.5023815e-39
0.085492626 -0.10190789 -0.001395002 1.4019215e-38
0.087253094 -0.10190789 -0.001395002 2.1301529e-38
0.089013577 -0.10190789 -0.001395002 2.2681572e-38
0.091129526 -0.10265306 -0.0043984801 2.3233303e-38
