# .PCD v0.7 - Point Cloud Data file format
VERSION 0.7
FIELDS x y z rgb
SIZE 4 4 4 4
TYPE F F F F
COUNT 1 1 1 1
WIDTH 946
HEIGHT 1
VIEWPOINT 0 0 0 1 0 0 0
POINTS 946
DATA ascii
0.090643749 -0.11991702 -0.028827809 1.1075275e-39
0.092868671 -0.12066682 -0.031766914 2.7670432e-39
0.094709679 -0.12066682 -0.031766914 2.768111e-39
0.096550688 -0.12066682 -0.031766914 1.3855283e-39
0.098949745 -0.12170117 -0.03582146 9.2598083e-40
0.10121304 -0.12246101 -0.038799904 5.6290271e-39
0.10306637 -0.12246101 -0.038799904 8.21266e-39
0.10491972 -0.12246101 -0.038799904 1.0335306e-38
0.10677305 -0.12246101 -0.038799904 1.1627465e-38
0.1086264 -0.12246101 -0.038799904 1.1997679e-38
0.11047974 -0.12246101 -0.038799904 1.116793e-38
0.11278211 -0.12322514 -0.041795276 1.070768e-38
0.11509758 -0.12399365 -0.044807695 1.1075755e-38
0.11696145 -0.12399365 -0.044807695 9.3240382e-39
0.11945273 -0.12502514 -0.048851036 8.1244048e-39
0.12132369 -0.12502514 -0.048851036 7.2010066e-39
-0.12232821 -0.12843956 -0.054859899 1.0785818e-38
-0.12023413 -0.12765111 -0.051790379 1.1709916e-38
-0.11768331 -0.12508373 -0.041795276 1.1158534e-38
-0.11543193 -0.1235493 -0.03582146 1.1159621e-38
-0.11332434 -0.12250783 -0.031766914 2.9560223e-39
-0.11130039 -0.12175287 -0.028827809 2.2188398e-39
-0.10928121 -0.12097444 -0.02579727 9.9654363e-39
-0.1072737 -0.12020047 -0.022784136 1.3838726e-38
-0.10527773 -0.11943097 -0.019788407 2.001439e-38
-0.10345772 -0.11943097 -0.019788407 2.2958873e-38
-0.10110657 -0.11687975 -0.0098561272 2.1758183e-38
-0.099147469 -0.1161025 -0.0068302378 2.2497178e-38
-0.097199857 -0.11532979 -0.0038219914 2.2867037e-38
-0.095263645 -0.11456163 -0.00083138794 2.2867037e-38
-0.093196675 -0.1130126 0.0051991716 2.2591531e-38
-0.091420487 -0.1130126 0.0051991716 2.1671741e-38
-0.089388281 -0.11148177 0.011158802 6.6449727e-39
-0.087498784 -0.11071031 0.01416228 2.5894524e-39
-0.085620515 -0.10994337 0.017147996 6.6460784e-39
-0.083749667 -0.10915567 0.020214595 5.4468443e-39
-0.081784874 -0.10761972 0.026194252 2.6316385e-42
-0.080045491 -0.10761972 0.026194252 9.9144669e-41
-0.078142583 -0.10632484 0.031235434 1.7802812e-38
-0.076412037 -0.10632484 0.031235434 2.0938492e-38
-0.074509531 -0.104798 0.037179507 2.0386035e-38
-0.072706789 -0.10401715 0.040219523 1.9829625e-38
-0.07086505 -0.10273445 0.04521326 2.0566841e-38
-0.069088221 -0.10196631 0.048203684 1.9093172e-38
-0.067387432 -0.10196631 0.048203684 9.1375058e-39
-0.065686636 -0.10196631 0.048203684 3.1455311e-39
-0.063931122 -0.10120286 0.05117587 2.7764053e-39
-0.062235542 -0.10120286 0.05117587 2.221442e-39
-0.060539957 -0.10120286 0.05117587 6.5195831e-40
-0.058844376 -0.10120286 0.05117587 6.4979471e-40
-0.057182666 -0.10196631 0.048203684 1.0167738e-39
-0.055481873 -0.10196631 0.048203684 1.0142528e-39
-0.053781077 -0.10196631 0.048203684 5.5255581e-40
-0.052080285 -0.10196631 0.048203684 1.8414043e-40
-0.050379492 -0.10196631 0.048203684 1.8523064e-40
-0.048678696 -0.10196631 0.048203684 2.7851508e-40
-0.0469779 -0.10196631 0.048203684 3.7071491e-40
-0.045277111 -0.10196631 0.048203684 2.7780041e-40
-0.043576315 -0.10196631 0.048203684 2.7779761e-40
-0.041875519 -0.10196631 0.048203684 1.8595931e-40
-0.040156376 -0.10273445 0.04521326 9.3758078e-41
-0.038450338 -0.10273445 0.04521326 1.1981102e-42
-0.0367443 -0.10273445 0.04521326 1.1770907e-43
-0.035038263 -0.10273445 0.04521326 8.3797648e-43
-0.033332229 -0.10273445 0.04521326 2.2841165e-42
-0.03159539 -0.1032653 0.043146588 1.2079193e-42
-0.029836973 -0.10401715 0.040219523 1.2107219e-42
-0.028122181 -0.10401715 0.040219523 1.8452578e-40
-0.026407387 -0.10401715 0.040219523 1.8380692e-40
-0.024625968 -0.104798 0.037179507 3.6855271e-40
-0.022905845 -0.104798 0.037179507 1.013199e-39
-0.021110391 -0.10555913 0.034216441 1.2897803e-39
-0.019385073 -0.10555913 0.034216441 1.1064681e-39
-0.017659755 -0.10555913 0.034216441 1.0160801e-39
-0.015842969 -0.10632484 0.031235434 1.8472813e-39
-0.014112424 -0.10632484 0.031235434 4.0592548e-39
-0.012312487 -0.10684617 0.029205777 4.7057032e-39
-0.010578383 -0.10684617 0.029205777 6.3641427e-39
-0.0088442788 -0.10684617 0.029205777 7.6559577e-39
-0.0071101747 -0.10684617 0.029205777 8.6693838e-39
-0.005251985 -0.10761972 0.026194252 1.0883512e-38
-0.0035126023 -0.10761972 0.026194252 1.0791314e-38
-0.0017732196 -0.10761972 0.026194252 1.1805463e-38
-3.3833086e-05 -0.10761972 0.026194252 1.1989857e-38
0.0017055497 -0.10761972 0.026194252 9.5924177e-39
0.0034449324 -0.10761972 0.026194252 6.7340014e-39
0.0053410307 -0.10839801 0.023164369 1.294825e-39
0.0070857294 -0.10839801 0.023164369 1.3312335e-43
0.0089933425 -0.10915567 0.020214595 3.3701228e-42
0.010917954 -0.10994337 0.017147996 1.9416265e-39
0.012673199 -0.10994337 0.017147996 8.6722606e-39
0.01460905 -0.11071031 0.01416228 8.5786301e-39
0.016556479 -0.11148177 0.011158802 3.3561098e-42
0.018322222 -0.11148177 0.011158802 1.0930128e-43
0.020087965 -0.11148177 0.011158802 1.5582439e-42
0.021853715 -0.11148177 0.011158802 4.8204667e-43
0.023821726 -0.11223195 0.0082382932 5.532999e-40
0.025592588 -0.11223195 0.0082382932 9.1965817e-41
0.027584597 -0.1130126 0.0051991716 1.2051167e-43
0.029360786 -0.1130126 0.0051991716 2.7707734e-40
0.031136982 -0.1130126 0.0051991716 8.4918687e-43
0.033151738 -0.11379795 0.0021416917 1.568053e-42
0.035170473 -0.11456163 -0.00083138794 1.5706944e-39
0.037201066 -0.11532979 -0.0038219914 3.59972e-39
0.038993079 -0.11532979 -0.0038219914 5.4450745e-39
0.040785093 -0.11532979 -0.0038219914 5.1688547e-39
0.042577107 -0.11532979 -0.0038219914 6.9784664e-42
0.04436912 -0.11532979 -0.0038219914 8.7665232e-42
0.046161134 -0.11532979 -0.0038219914 8.0301352e-39
0.047953133 -0.11532979 -0.0038219914 8.5829377e-39
0.050027329 -0.1161025 -0.0068302378 6.6457392e-39
0.051824618 -0.1161025 -0.0068302378 1.0147366e-38
0.053916354 -0.11687975 -0.0098561272 8.7615528e-39
0.055718947 -0.11687975 -0.0098561272 1.0049411e-38
0.057817806 -0.11763458 -0.012794755 8.3880941e-39
0.059625555 -0.11763458 -0.012794755 7.9267643e-39
0.061433289 -0.11763458 -0.012794755 5.438927e-39
0.063565776 -0.11842094 -0.015856169 2.5837449e-39
0.065378889 -0.11842094 -0.015856169 5.5796482e-40
0.067192003 -0.11842094 -0.015856169 4.6865166e-40
0.069442913 -0.11943097 -0.019788407 1.4849616e-39
0.071601719 -0.12020047 -0.022784136 3.7861403e-40
0.073426977 -0.12020047 -0.022784136 6.1865744e-39
0.075252235 -0.12020047 -0.022784136 7.8453698e-39
0.077434093 -0.12097444 -0.02579727 6.6457392e-39
0.079628617 -0.12175287 -0.028827809 4.801098e-39
0.081822619 -0.12250783 -0.031766914 3.4167202e-39
0.083663628 -0.12250783 -0.031766914 1.9401482e-39
0.085504636 -0.12250783 -0.031766914 3.5978716e-39
0.086972028 -0.12175287 -0.028827809 4.242525e-39
0.088807896 -0.12175287 -0.028827809 7.9874012e-44
0.091027662 -0.12250783 -0.031766914 6.4689823e-40
0.092868671 -0.12250783 -0.031766914 5.8098535e-39
0.094709679 -0.12250783 -0.031766914 6.6403302e-39
0.096550688 -0.12250783 -0.031766914 5.2577489e-39
0.098949745 -0.1235493 -0.03582146 4.6134571e-39
0.10079788 -0.1235493 -0.03582146 4.5226908e-39
0.10306637 -0.12431435 -0.038799904 4.7092316e-39
0.10491972 -0.12431435 -0.038799904 1.0888486e-38
0.10677305 -0.12431435 -0.038799904 1.2457229e-38
0.1086264 -0.12431435 -0.038799904 1.1536348e-38
0.11047974 -0.12431435 -0.038799904 1.1812946e-38
0.11278211 -0.12508373 -0.041795276 1.0799521e-38
0.11509758 -0.12585752 -0.044807695 1.0338194e-38
0.11696145 -0.12585752 -0.044807695 1.0706975e-38
0.11945273 -0.1268961 -0.048851036 1.0521494e-38
0.12132369 -0.1268961 -0.048851036 8.03077e-39
-0.12211025 -0.12952723 -0.051790379 1.16163e-38
-0.11975053 -0.12772138 -0.044807695 1.1526245e-38
-0.11768331 -0.12694232 -0.041795276 1.1711708e-38
-0.11543193 -0.1253974 -0.03582146 1.1067429e-38
-0.11332434 -0.12434883 -0.031766914 2.6787193e-39
-0.11130039 -0.12358873 -0.028827809 3.6932538e-39
-0.10928121 -0.12280498 -0.02579727 1.2267813e-38
-0.1072737 -0.12202574 -0.022784136 1.2729863e-38
-0.10544844 -0.12202574 -0.022784136 1.4665607e-38
-0.10345772 -0.121251 -0.019788407 1.696834e-38
-0.10110657 -0.11868234 -0.0098561272 2.0470329e-38
-0.099147469 -0.11789979 -0.0068302378 2.2130918e-38
-0.097199857 -0.1171218 -0.0038219914 2.240786e-38
-0.095263645 -0.1163484 -0.00083138794 2.1671741e-38
-0.093196675 -0.11478879 0.0051991716 1.4388315e-38
-0.091420487 -0.11478879 0.0051991716 1.2453299e-38
-0.089388281 -0.11324753 0.011158802 6.5527883e-39
-0.087498784 -0.11247079 0.01416228 4.9861899e-39
-0.085620515 -0.11169861 0.017147996 4.8018154e-39
-0.083638474 -0.11014269 0.023164369 2.6806223e-39
-0.081784874 -0.1093591 0.026194252 2.9959761e-42
-0.079942524 -0.10858028 0.029205777 1.0211024e-39
-0.078142583 -0.10805537 0.031235434 1.6695046e-38
-0.076412037 -0.10805537 0.031235434 1.8356678e-38
-0.074509531 -0.10651813 0.037179507 1.8080785e-38
-0.072706789 -0.10573195 0.040219523 1.844633e-38
-0.070917591 -0.10497494 0.043146588 1.8538174e-38
-0.069088221 -0.1036671 0.048203684 1.8354886e-38
-0.067387432 -0.1036671 0.048203684 1.0980695e-38
-0.065686636 -0.1036671 0.048203684 6.3712963e-39
-0.063931122 -0.10289843 0.05117587 2.6827691e-39
-0.062235542 -0.10289843 0.05117587 2.1285247e-39
-0.060539957 -0.10289843 0.05117587 3.7537142e-40
-0.058844376 -0.10289843 0.05117587 5.5759908e-40
-0.057148792 -0.10289843 0.05117587 1.2008077e-39
-0.055453211 -0.10289843 0.05117587 1.1071715e-39
-0.05375763 -0.10289843 0.05117587 3.6852888e-40
-0.052062046 -0.10289843 0.05117587 1.1490647e-43
-0.050366461 -0.10289843 0.05117587 1.8487751e-40
-0.048678696 -0.1036671 0.048203684 9.412802e-41
-0.0469779 -0.1036671 0.048203684 8.5619336e-43
-0.045277111 -0.1036671 0.048203684 4.6111267e-40
-0.043576315 -0.1036671 0.048203684 2.7707594e-40
-0.041875519 -0.1036671 0.048203684 4.614644e-40
-0.040156376 -0.10444047 0.04521326 3.707009e-40
-0.038450338 -0.10444047 0.04521326 1.915575e-42
-0.0367443 -0.10444047 0.04521326 4.7223758e-43
-0.035014711 -0.10497494 0.043146588 1.1939063e-42
-0.033305049 -0.10497494 0.043146588 1.870257e-40
-0.03159539 -0.10497494 0.043146588 2.2813139e-42
-0.029836973 -0.10573195 0.040219523 1.9239828e-42
-0.028122181 -0.10573195 0.040219523 1.2079193e-42
-0.026346091 -0.10651813 0.037179507 1.2611686e-43
-0.024625968 -0.10651813 0.037179507 4.8204667e-43
-0.022905845 -0.10651813 0.037179507 1.848677e-40
-0.021110391 -0.10728444 0.034216441 2.7705913e-40
-0.019304059 -0.10805537 0.031235434 2.7706333e-40
-0.017573515 -0.10805537 0.031235434 1.3032076e-43
-0.015842969 -0.10805537 0.031235434 9.3774893e-41
-0.014112424 -0.10805537 0.031235434 7.391415e-40
-0.012312487 -0.10858028 0.029205777 1.9323906e-42
-0.010578383 -0.10858028 0.029205777 9.4125218e-41
-0.0088442788 -0.10858028 0.029205777 4.6326227e-40
-0.0071101747 -0.10858028 0.029205777 3.7106103e-40
-0.0053760707 -0.10858028 0.029205777 1.9394601e-39
-0.0036419667 -0.10858028 0.029205777 7.3789967e-39
-0.0019078627 -0.10858028 0.029205777 9.5927708e-39
-3.3833086e-05 -0.1093591 0.026194252 1.1988778e-38
0.0017055497 -0.1093591 0.026194252 1.2450838e-38
0.0034449324 -0.1093591 0.026194252 1.0236709e-38
0.0053410307 -0.11014269 0.023164369 3.0465322e-39
0.0070857294 -0.11014269 0.023164369 8.4218038e-43
0.0091627091 -0.11169861 0.017147996 1.1100708e-39
0.010917954 -0.11169861 0.017147996 3.876653e-39
0.012848571 -0.11247079 0.01416228 8.1180079e-39
0.01460905 -0.11247079 0.01416228 7.0109442e-39
0.016369529 -0.11247079 0.01416228 1.9169763e-42
0.018322222 -0.11324753 0.011158802 1.9183776e-42
0.020087965 -0.11324753 0.011158802 8.3060005e-40
0.021853715 -0.11324753 0.011158802 1.2331426e-43
0.023619458 -0.11324753 0.011158802 1.2331426e-43
0.025592588 -0.11400281 0.0082382932 2.7671301e-40
0.027584597 -0.11478879 0.0051991716 9.2684683e-41
0.029360786 -0.11478879 0.0051991716 8.5058817e-43
0.031136982 -0.11478879 0.0051991716 1.2471556e-43
0.033151738 -0.1155795 0.0021416917 1.2019119e-39
0.035170473 -0.1163484 -0.00083138794 6.0889992e-39
0.037201066 -0.1171218 -0.0038219914 6.7350916e-39
0.038993079 -0.1171218 -0.0038219914 3.324575e-39
0.040785093 -0.1171218 -0.0038219914 5.5906904e-40
0.042577107 -0.1171218 -0.0038219914 2.6498554e-42
0.04436912 -0.1171218 -0.0038219914 1.2987823e-39
0.046161134 -0.1171218 -0.0038219914 8.1216078e-39
0.048230056 -0.11789979 -0.0068302378 6.6468266e-39
0.050027329 -0.11789979 -0.0068302378 3.1423081e-39
0.051824618 -0.11789979 -0.0068302378 6.1822402e-39
0.053916354 -0.11868234 -0.0098561272 5.9956881e-39
0.055718947 -0.11868234 -0.0098561272 1.9358462e-39
0.057817806 -0.11944233 -0.012794755 1.0089349e-43
0.059625555 -0.11944233 -0.012794755 1.3801697e-39
0.061433289 -0.11944233 -0.012794755 1.837873e-40
0.063565776 -0.12023406 -0.015856169 1.1490647e-43
0.065378889 -0.12023406 -0.015856169 2.4011726e-39
0.067622915 -0.121251 -0.019788407 3.0487014e-39
0.069442913 -0.121251 -0.019788407 4.6178235e-39
0.071262926 -0.121251 -0.019788407 4.5256153e-39
0.073426977 -0.12202574 -0.022784136 1.0887463e-38
0.075252235 -0.12202574 -0.022784136 1.3560049e-38
0.077077493 -0.12202574 -0.022784136 1.3190896e-38
0.079264626 -0.12280498 -0.02579727 1.2636632e-38
0.081464469 -0.12358873 -0.028827809 1.0607241e-38
0.083300322 -0.12358873 -0.028827809 1.0697995e-38
0.085136175 -0.12358873 -0.028827809 1.5399253e-38
0.086972028 -0.12358873 -0.028827809 9.1288752e-39
0.088807896 -0.12358873 -0.028827809 7.3871971e-40
0.090643749 -0.12358873 -0.028827809 5.25703e-39
0.092479602 -0.12358873 -0.028827809 1.65049e-38
0.094709679 -0.12434883 -0.031766914 1.4937937e-38
0.096550688 -0.12434883 -0.031766914 9.2228869e-39
0.098949745 -0.1253974 -0.03582146 3.9680961e-39
0.10079788 -0.1253974 -0.03582146 1.5148036e-42
0.10264599 -0.1253974 -0.03582146 1.9093813e-40
0.10491972 -0.12616767 -0.038799904 8.8591084e-39
0.10677305 -0.12616767 -0.038799904 1.1810791e-38
0.1086264 -0.12616767 -0.038799904 1.0981743e-38
0.11047974 -0.12616767 -0.038799904 1.1351255e-38
0.11278211 -0.12694232 -0.041795276 1.0890644e-38
0.11509758 -0.12772138 -0.044807695 1.0152727e-38
0.11696145 -0.12772138 -0.044807695 9.9683356e-39
0.11945273 -0.12876706 -0.048851036 9.4140688e-39
0.12132369 -0.12876706 -0.048851036 6.0017501e-39
-0.1216144 -0.12958528 -0.044807695 1.0603588e-38
-0.11975053 -0.12958528 -0.044807695 1.0420616e-38
-0.11748111 -0.12802102 -0.038799904 1.005291e-38
-0.11543193 -0.12724553 -0.03582146 9.3157145e-39
-0.11332434 -0.12618984 -0.031766914 2.5854475e-39
-0.11130039 -0.12542458 -0.028827809 6.2732951e-39
-0.10928121 -0.12463553 -0.02579727 1.5861288e-38
-0.1072737 -0.12385099 -0.022784136 1.503224e-38
-0.10544844 -0.12385099 -0.022784136 1.5493574e-38
-0.10345772 -0.123071 -0.019788407 1.3189404e-38
-0.10110657 -0.12048493 -0.0098561272 1.4480498e-38
-0.099147469 -0.11969708 -0.0068302378 1.7247079e-38
-0.097199857 -0.11891381 -0.0038219914 2.1119652e-38
-0.095263645 -0.11813517 -0.00083138794 2.1948682e-38
-0.093196675 -0.11656497 0.0051991716 1.3191224e-38
-0.091284603 -0.11577369 0.0082382932 9.4115773e-39
-0.089388281 -0.11501329 0.011158802 7.0141406e-39
-0.087498784 -0.11423124 0.01416228 7.1988962e-39
-0.085620515 -0.11345388 0.017147996 3.6029205e-39
-0.083638474 -0.11188738 0.023164369 7.4379942e-40
-0.081784874 -0.11109848 0.026194252 2.6428489e-42
-0.079942524 -0.11031438 0.029205777 1.2969704e-39
-0.078142583 -0.10978593 0.031235434 1.549579e-38
-0.076412037 -0.10978593 0.031235434 1.7618397e-38
-0.074595258 -0.10900976 0.034216441 1.927753e-38
-0.072706789 -0.10744675 0.040219523 1.9368284e-38
-0.070917591 -0.10668461 0.043146588 1.816939e-38
-0.069159001 -0.1061465 0.04521326 1.9092085e-38
-0.067387432 -0.10536788 0.048203684 1.2915719e-38
-0.065686636 -0.10536788 0.048203684 9.5966986e-39
-0.063931122 -0.10459404 0.05117587 1.1150776e-39
-0.062235542 -0.10459404 0.05117587 2.035606e-39
-0.060539957 -0.10459404 0.05117587 6.5123665e-40
-0.058844376 -0.10459404 0.05117587 8.2816739e-43
-0.057148792 -0.10459404 0.05117587 9.4462931e-41
-0.055453211 -0.10459404 0.05117587 3.6961069e-40
-0.05375763 -0.10459404 0.05117587 1.1070258e-43
-0.052062046 -0.10459404 0.05117587 1.1911037e-43
-0.050366461 -0.10459404 0.05117587 1.2107219e-42
-0.04867088 -0.10459404 0.05117587 9.3774893e-41
-0.0469753 -0.10459404 0.05117587 8.6039726e-43
-0.045277111 -0.10536788 0.048203684 1.3452465e-43
-0.043576315 -0.10536788 0.048203684 1.8416145e-40
-0.041875519 -0.10536788 0.048203684 4.6110146e-40
-0.040174726 -0.10536788 0.048203684 5.5401035e-40
-0.038450338 -0.1061465 0.04521326 2.7850106e-40
-0.0367443 -0.1061465 0.04521326 1.9099698e-42
-0.035014711 -0.10668461 0.043146588 2.2729061e-42
-0.033305049 -0.10668461 0.043146588 1.870257e-40
-0.03159539 -0.10668461 0.043146588 1.8739144e-40
-0.029836973 -0.10744675 0.040219523 9.4476944e-41
-0.028122181 -0.10744675 0.040219523 2.2841165e-42
-0.026346091 -0.10823826 0.037179507 1.5624478e-42
-0.024625968 -0.10823826 0.037179507 1.5582439e-42
-0.022905845 -0.10823826 0.037179507 1.1939063e-42
-0.021110391 -0.10900976 0.034216441 9.3383931e-41
-0.019304059 -0.10978593 0.031235434 1.8522783e-40
-0.017573515 -0.10978593 0.031235434 8.29898e-40
-0.015842969 -0.10978593 0.031235434 5.5403838e-40
-0.014046587 -0.11031438 0.029205777 6.4623121e-40
-0.012312487 -0.11031438 0.029205777 1.3452465e-43
-0.010578383 -0.11031438 0.029205777 1.3312335e-43
-0.0088442788 -0.11031438 0.029205777 1.2079193e-42
-0.0071101747 -0.11031438 0.029205777 1.1350518e-43
-0.0053760707 -0.11031438 0.029205777 2.2743074e-42
-0.0036419667 -0.11031438 0.029205777 3.045086e-39
-0.0019078627 -0.11031438 0.029205777 4.7053234e-39
-3.3833086e-05 -0.11109848 0.026194252 7.6552234e-39
0.0017055497 -0.11109848 0.026194252 1.1988778e-38
0.0035963356 -0.11188738 0.023164369 1.2357201e-38
0.0053410307 -0.11188738 0.023164369 6.4570432e-39
0.0070857294 -0.11188738 0.023164369 1.8472645e-39
0.0089933425 -0.11265542 0.020214595 3.3223946e-39
0.010917954 -0.11345388 0.017147996 6.8265502e-39
0.012848571 -0.11423124 0.01416228 6.6410799e-39
0.01460905 -0.11423124 0.01416228 4.0596023e-39
0.016369529 -0.11423124 0.01416228 1.1070258e-43
0.018130012 -0.11423124 0.01416228 2.7850527e-40
0.019890487 -0.11423124 0.01416228 7.3840442e-40
0.021853715 -0.11501329 0.011158802 9.2318944e-41
0.023619458 -0.11501329 0.011158802 5.5329709e-40
0.025592588 -0.11577369 0.0082382932 1.2331426e-43
0.027584597 -0.11656497 0.0051991716 4.8625057e-43
0.029360786 -0.11656497 0.0051991716 1.2611686e-43
0.031370178 -0.11736105 0.0021416917 1.5666517e-42
0.033151738 -0.11736105 0.0021416917 2.4011726e-39
0.035170473 -0.11813517 -0.00083138794 6.7354462e-39
0.037201066 -0.11891381 -0.0038219914 6.090797e-39
0.038993079 -0.11891381 -0.0038219914 4.6722654e-40
0.040785093 -0.11891381 -0.0038219914 4.0903902e-42
0.042577107 -0.11891381 -0.0038219914 1.9171585e-40
0.04436912 -0.11891381 -0.0038219914 2.773548e-39
0.046432767 -0.11969708 -0.0068302378 6.5539178e-39
0.048230056 -0.11969708 -0.0068302378 6.0932899e-39
0.050027329 -0.11969708 -0.0068302378 3.8791515e-39
0.051824618 -0.11969708 -0.0068302378 4.4305232e-39
0.053916354 -0.12048493 -0.0098561272 4.6123977e-39
0.056010056 -0.12125005 -0.012794755 1.8449215e-40
0.057817806 -0.12125005 -0.012794755 1.0229479e-43
0.059625555 -0.12125005 -0.012794755 9.2027334e-40
0.061433289 -0.12125005 -0.012794755 1.0649868e-43
0.063565776 -0.12204717 -0.015856169 2.7814934e-40
0.065378889 -0.12204717 -0.015856169 9.1310906e-39
0.067192003 -0.12204717 -0.015856169 9.9630093e-39
0.069442913 -0.123071 -0.019788407 1.0239949e-38
0.071262926 -0.123071 -0.019788407 9.2257819e-39
0.073082939 -0.123071 -0.019788407 1.1714691e-38
0.075252235 -0.12385099 -0.022784136 1.3558953e-38
0.077077493 -0.12385099 -0.022784136 1.466421e-38
0.079264626 -0.12463553 -0.02579727 1.4664196e-38
0.081095174 -0.12463553 -0.02579727 1.2081631e-38
0.083300322 -0.12542458 -0.028827809 1.1712127e-38
0.085136175 -0.12542458 -0.028827809 1.4477275e-38
0.086972028 -0.12542458 -0.028827809 1.4753512e-38
0.088807896 -0.12542458 -0.028827809 4.5194454e-39
0.090643749 -0.12542458 -0.028827809 6.2715309e-39
0.092479602 -0.12542458 -0.028827809 1.7150266e-38
0.094709679 -0.12618984 -0.031766914 1.318622e-38
0.096550688 -0.12618984 -0.031766914 8.1161848e-39
0.098949745 -0.12724553 -0.03582146 3.6911575e-39
0.10079788 -0.12724553 -0.03582146 1.164479e-42
0.10264599 -0.12724553 -0.03582146 2.2336698e-42
0.10491972 -0.12802102 -0.038799904 5.8163051e-39
0.10677305 -0.12802102 -0.038799904 1.0243113e-38
0.1086264 -0.12802102 -0.038799904 1.1442371e-38
0.11047974 -0.12802102 -0.038799904 1.0797729e-38
0.11233307 -0.12802102 -0.038799904 9.2300517e-39
0.11509758 -0.12958528 -0.044807695 8.584332e-39
0.11696145 -0.12958528 -0.044807695 7.9382395e-39
0.11945273 -0.13063805 -0.048851036 8.9523774e-39
0.12132369 -0.13063805 -0.048851036 5.0787162e-39
-0.1216144 -0.13144915 -0.044807695 9.2213721e-39
-0.11975053 -0.13144915 -0.044807695 9.7763255e-39
-0.11748111 -0.12987436 -0.038799904 8.6699751e-39
-0.11543193 -0.12909363 -0.03582146 7.6561931e-39
-0.11332434 -0.12803085 -0.031766914 2.4925358e-39
-0.11130039 -0.12726043 -0.028827809 7.6544345e-39
-0.10946454 -0.12726043 -0.028827809 1.7150233e-38
-0.10745068 -0.12646608 -0.02579727 1.7058033e-38
-0.10544844 -0.12567626 -0.022784136 1.9455835e-38
-0.10345772 -0.124891 -0.019788407 1.5955275e-38
-0.10110657 -0.12228753 -0.0098561272 4.4322566e-39
-0.099147469 -0.12149437 -0.0068302378 1.2976024e-39
-0.097199857 -0.12070583 -0.0038219914 5.0783491e-39
-0.095263645 -0.11992194 -0.00083138794 8.4892469e-39
-0.093196675 -0.11834116 0.0051991716 6.921575e-39
-0.091284603 -0.11754455 0.0082382932 6.9219464e-39
-0.089388281 -0.11677901 0.011158802 6.184031e-39
-0.087498784 -0.11599173 0.01416228 7.0137931e-39
-0.085620515 -0.11520912 0.017147996 3.3259805e-39
-0.083638474 -0.11363207 0.023164369 1.0203891e-39
-0.081784874 -0.11283787 0.026194252 5.1637848e-42
-0.080045491 -0.11283787 0.026194252 1.9419797e-39
-0.078142583 -0.11151646 0.031235434 1.6417743e-38
-0.076412037 -0.11151646 0.031235434 1.946123e-38
-0.074595258 -0.11073507 0.034216441 2.1029247e-38
-0.072706789 -0.10916151 0.040219523 2.1765008e-38
-0.070917591 -0.10839428 0.043146588 2.001294e-38
-0.069159001 -0.10785256 0.04521326 2.1027457e-38
-0.067387432 -0.1070687 0.048203684 1.5219882e-38
-0.065686636 -0.1070687 0.048203684 1.1900862e-38
-0.063931122 -0.10628961 0.05117587 2.8422957e-40
-0.062235542 -0.10628961 0.05117587 2.1270744e-39
-0.060539957 -0.10628961 0.05117587 8.3490484e-40
-0.058844376 -0.10628961 0.05117587 8.253648e-43
-0.057148792 -0.10628961 0.05117587 1.9071672e-42
-0.055453211 -0.10628961 0.05117587 9.3386734e-41
-0.05375763 -0.10628961 0.05117587 8.3377259e-43
-0.052062046 -0.10628961 0.05117587 4.8484927e-43
-0.050366461 -0.10628961 0.05117587 1.2121232e-42
-0.04867088 -0.10628961 0.05117587 1.5806647e-42
-0.0469753 -0.10628961 0.05117587 1.5806647e-42
-0.045277111 -0.1070687 0.048203684 9.1970021e-41
-0.043576315 -0.1070687 0.048203684 5.522209e-40
-0.041875519 -0.1070687 0.048203684 4.6001966e-40
-0.040174726 -0.1070687 0.048203684 4.7644148e-43
-0.038450338 -0.10785256 0.04521326 4.7083628e-43
-0.0367443 -0.10785256 0.04521326 8.2956869e-43
-0.035014711 -0.10839428 0.043146588 1.1210388e-43
-0.033305049 -0.10839428 0.043146588 1.0789998e-43
-0.03159539 -0.10839428 0.043146588 2.6400463e-42
-0.029836973 -0.10916151 0.040219523 1.2037154e-42
-0.028122181 -0.10916151 0.040219523 8.4778557e-43
-0.026346091 -0.1099584 0.037179507 1.2079193e-42
-0.024625968 -0.1099584 0.037179507 1.2023141e-42
-0.022905845 -0.1099584 0.037179507 8.3797648e-43
-0.021110391 -0.11073507 0.034216441 1.1939063e-42
-0.019304059 -0.11151646 0.031235434 1.8522783e-40
-0.017573515 -0.11151646 0.031235434 1.3452465e-43
-0.015842969 -0.11151646 0.031235434 1.3592595e-43
-0.014046587 -0.11204849 0.029205777 1.8380972e-40
-0.012312487 -0.11204849 0.029205777 1.2611686e-43
-0.010578383 -0.11204849 0.029205777 7.3769116e-40
-0.0088442788 -0.11204849 0.029205777 1.3837766e-39
-0.0071101747 -0.11204849 0.029205777 3.6961909e-40
-0.0053760707 -0.11204849 0.029205777 5.5508795e-40
-0.0036419667 -0.11204849 0.029205777 4.6324825e-40
-0.0019078627 -0.11204849 0.029205777 5.5544108e-40
-3.3833086e-05 -0.11283787 0.026194252 2.2149596e-39
0.0017055497 -0.11283787 0.026194252 8.0240032e-39
0.0035963356 -0.11363207 0.023164369 1.1066459e-38
0.0053410307 -0.11363207 0.023164369 9.4069362e-39
0.0070857294 -0.11363207 0.023164369 5.7191124e-39
0.0089933425 -0.11440529 0.020214595 5.811671e-39
0.010917954 -0.11520912 0.017147996 8.2080441e-39
0.012848571 -0.11599173 0.01416228 3.7826553e-39
0.01460905 -0.11599173 0.01416228 1.2011776e-39
0.016369529 -0.11599173 0.01416228 1.1210388e-43
0.018130012 -0.11599173 0.01416228 8.3060005e-40
0.019890487 -0.11599173 0.01416228 1.8523064e-40
0.021853715 -0.11677901 0.011158802 1.1911037e-43
0.023619458 -0.11677901 0.011158802 8.4218038e-43
0.025592588 -0.11754455 0.0082382932 3.6926877e-40
0.027584597 -0.11834116 0.0051991716 1.5652504e-42
0.029360786 -0.11834116 0.0051991716 9.2424042e-40
0.031370178 -0.11914261 0.0021416917 4.9812111e-39
0.033151738 -0.11914261 0.0021416917 8.025106e-39
0.035170473 -0.11992194 -0.00083138794 7.750317e-39
0.036957238 -0.11992194 -0.00083138794 4.8007757e-39
0.038744006 -0.11992194 -0.00083138794 1.9063685e-40
0.040785093 -0.12070583 -0.0038219914 7.3245871e-42
0.042577107 -0.12070583 -0.0038219914 4.3408737e-39
0.04436912 -0.12070583 -0.0038219914 4.8943978e-39
0.046432767 -0.12149437 -0.0068302378 3.049758e-39
0.048230056 -0.12149437 -0.0068302378 3.972066e-39
0.050027329 -0.12149437 -0.0068302378 7.9357494e-39
0.051824618 -0.12149437 -0.0068302378 9.3161643e-39
0.053916354 -0.12228753 -0.0098561272 6.1800752e-39
0.056010056 -0.1230578 -0.012794755 7.3768247e-39
0.057817806 -0.1230578 -0.012794755 9.5884436e-39
0.059625555 -0.1230578 -0.012794755 8.665774e-39
0.061433289 -0.1230578 -0.012794755 5.0715836e-39
0.063565776 -0.12386028 -0.015856169 5.3499684e-39
0.065378889 -0.12386028 -0.015856169 1.6414517e-38
0.067192003 -0.12386028 -0.015856169 1.6785088e-38
0.069442913 -0.124891 -0.019788407 1.5679103e-38
0.071262926 -0.124891 -0.019788407 1.7337534e-38
0.073082939 -0.124891 -0.019788407 1.7153132e-38
0.075252235 -0.12567626 -0.022784136 1.8536418e-38
0.077077493 -0.12567626 -0.022784136 1.8812635e-38
0.079264626 -0.12646608 -0.02579727 1.8166894e-38
0.081095174 -0.12646608 -0.02579727 1.5953833e-38
0.083300322 -0.12726043 -0.028827809 1.6690317e-38
0.085136175 -0.12726043 -0.028827809 1.7888144e-38
0.086972028 -0.12726043 -0.028827809 1.6689252e-38
0.088807896 -0.12726043 -0.028827809 7.7459253e-39
0.090643749 -0.12726043 -0.028827809 8.0225262e-39
0.092479602 -0.12726043 -0.028827809 1.6782201e-38
0.094709679 -0.12803085 -0.031766914 1.4937937e-38
0.096550688 -0.12803085 -0.031766914 1.0697662e-38
0.098949745 -0.12909363 -0.03582146 5.5350701e-39
0.10079788 -0.12909363 -0.03582146 8.6880505e-44
0.10264599 -0.12909363 -0.03582146 7.9874012e-44
0.10449411 -0.12909363 -0.03582146 1.2061719e-39
0.10677305 -0.12987436 -0.038799904 5.5400657e-39
0.1086264 -0.12987436 -0.038799904 8.3992036e-39
0.11047974 -0.12987436 -0.038799904 6.4631038e-39
0.11233307 -0.12987436 -0.038799904 2.4986973e-39
0.11509758 -0.13144915 -0.044807695 2.0366486e-39
0.11696145 -0.13144915 -0.044807695 2.5898182e-39
0.11945273 -0.13250901 -0.048851036 4.1571299e-39
0.12132369 -0.13250901 -0.048851036 3.7602303e-40
-0.1216144 -0.13331302 -0.044807695 1.0512831e-38
-0.11975053 -0.13331302 -0.044807695 1.097523e-38
-0.11748111 -0.13172771 -0.038799904 9.9614356e-39
-0.11543193 -0.13094176 -0.03582146 8.4852377e-39
-0.11332434 -0.12987186 -0.031766914 2.3070712e-39
-0.11130039 -0.12909628 -0.028827809 6.9150758e-39
-0.10946454 -0.12909628 -0.028827809 1.5396723e-38
-0.10745068 -0.1282966 -0.02579727 1.4566597e-38
-0.10544844 -0.1275015 -0.022784136 1.6504499e-38
-0.10345772 -0.126711 -0.019788407 1.7059828e-38
-0.10110657 -0.12409012 -0.0098561272 4.1542348e-39
-0.099147469 -0.12329166 -0.0068302378 1.9415397e-39
-0.097199857 -0.12249784 -0.0038219914 3.5092325e-39
-0.095263645 -0.12170871 -0.00083138794 4.3386541e-39
-0.093196675 -0.12011738 0.0051991716 3.139406e-39
-0.091284603 -0.11931543 0.0082382932 3.1401361e-39
-0.089388281 -0.11854477 0.011158802 5.4453912e-39
-0.087498784 -0.11775221 0.01416228 6.2747959e-39
-0.085620515 -0.11696436 0.017147996 3.325263e-39
-0.083638474 -0.11537679 0.023164369 1.7572353e-39
-0.081784874 -0.11457725 0.026194252 4.6649927e-40
-0.080045491 -0.11457725 0.026194252 2.0341739e-39
-0.078142583 -0.11324702 0.031235434 1.697127e-38
-0.076320574 -0.11246039 0.034216441 1.9923638e-38
-0.074595258 -0.11246039 0.034216441 2.1122159e-38
-0.072789416 -0.1116785 0.037179507 2.2224189e-38
-0.070992008 -0.11087631 0.040219523 2.1488064e-38
-0.069207922 -0.11010392 0.043146588 2.1673176e-38
-0.067452967 -0.1095586 0.04521326 1.6786841e-38
-0.065686636 -0.10876949 0.048203684 1.2638056e-38
-0.063931122 -0.10798518 0.05117587 1.0207044e-39
-0.062235542 -0.10798518 0.05117587 2.5873239e-39
-0.060539957 -0.10798518 0.05117587 7.4234207e-40
-0.058804322 -0.10718144 0.054221846 4.6467898e-40
-0.05711408 -0.10718144 0.054221846 2.7957025e-40
-0.055453211 -0.10798518 0.05117587 1.8665856e-40
-0.05375763 -0.10798518 0.05117587 1.8630543e-40
-0.052062046 -0.10798518 0.05117587 1.5638491e-42
-0.050366461 -0.10798518 0.05117587 4.8905316e-43
-0.04867088 -0.10798518 0.05117587 8.5759466e-43
-0.0469753 -0.10798518 0.05117587 1.8525166e-40
-0.045279711 -0.10798518 0.05117587 3.6747371e-40
-0.043584131 -0.10798518 0.05117587 8.2844205e-40
-0.041875519 -0.10876949 0.048203684 4.5965672e-40
-0.040174726 -0.10876949 0.048203684 1.0649868e-43
-0.038450338 -0.1095586 0.04521326 1.0789998e-43
-0.036724374 -0.11010392 0.043146588 6.4655771e-40
-0.035014711 -0.11010392 0.043146588 4.6324825e-40
-0.033266559 -0.11087631 0.040219523 4.7363888e-43
-0.031551767 -0.11087631 0.040219523 1.5638491e-42
-0.029836973 -0.11087631 0.040219523 4.8765187e-43
-0.028122181 -0.11087631 0.040219523 1.3172206e-43
-0.026346091 -0.1116785 0.037179507 1.2121232e-42
-0.024625968 -0.1116785 0.037179507 8.4918687e-43
-0.022905845 -0.1116785 0.037179507 1.2611686e-43
-0.021110391 -0.11246039 0.034216441 1.2331426e-43
-0.019385073 -0.11246039 0.034216441 8.4218038e-43
-0.017573515 -0.11324702 0.031235434 1.1064709e-39
-0.015842969 -0.11324702 0.031235434 1.1975847e-39
-0.014046587 -0.1137826 0.029205777 1.1053891e-39
-0.012381878 -0.11324702 0.031235434 2.7598293e-40
-0.010651335 -0.11324702 0.031235434 9.2170827e-40
-0.0088442788 -0.1137826 0.029205777 1.1993714e-39
-0.0071101747 -0.1137826 0.029205777 1.0789998e-43
-0.0053760707 -0.1137826 0.029205777 4.6803369e-43
-0.0036419667 -0.1137826 0.029205777 1.1883011e-42
-0.0019078627 -0.1137826 0.029205777 1.0789998e-43
-3.3833086e-05 -0.11457725 0.026194252 1.0369609e-43
0.0017055497 -0.11457725 0.026194252 3.1369159e-39
0.0035963356 -0.11537679 0.023164369 6.2719247e-39
0.0053410307 -0.11537679 0.023164369 9.3143776e-39
0.0070857294 -0.11537679 0.023164369 8.8533967e-39
0.0089933425 -0.11615516 0.020214595 8.5775315e-39
0.010917954 -0.11696436 0.017147996 8.1154855e-39
0.012848571 -0.11775221 0.01416228 1.2926544e-39
0.01460905 -0.11775221 0.01416228 1.1953076e-42
0.016369529 -0.11775221 0.01416228 2.7742346e-40
0.018130012 -0.11775221 0.01416228 1.1993798e-39
0.019890487 -0.11775221 0.01416228 1.1630777e-43
0.021853715 -0.11854477 0.011158802 1.1350518e-43
0.023821726 -0.11931543 0.0082382932 1.1210388e-43
0.025592588 -0.11931543 0.0082382932 1.0930128e-43
0.027584597 -0.12011738 0.0051991716 1.2051167e-43
0.029360786 -0.12011738 0.0051991716 1.9391084e-39
0.031370178 -0.12092416 0.0021416917 7.7481562e-39
0.033151738 -0.12092416 0.0021416917 8.764106e-39
0.035170473 -0.12170871 -0.00083138794 3.6015108e-39
0.036957238 -0.12170871 -0.00083138794 4.6757827e-40
0.038744006 -0.12170871 -0.00083138794 5.5183134e-42
0.040785093 -0.12249784 -0.0038219914 1.2051433e-39
0.042577107 -0.12249784 -0.0038219914 6.2762561e-39
0.04436912 -0.12249784 -0.0038219914 5.7234312e-39
0.046161134 -0.12249784 -0.0038219914 4.247934e-39
0.048230056 -0.12329166 -0.0068302378 5.9074441e-39
0.050027329 -0.12329166 -0.0068302378 1.1991627e-38
0.051824618 -0.12329166 -0.0068302378 1.5032642e-38
0.053916354 -0.12409012 -0.0098561272 7.5637145e-39
0.056010056 -0.12486555 -0.012794755 8.2994844e-39
0.057817806 -0.12486555 -0.012794755 1.3739027e-38
0.059625555 -0.12486555 -0.012794755 1.3185133e-38
0.061433289 -0.12486555 -0.012794755 1.014375e-38
0.063565776 -0.1256734 -0.015856169 9.3157831e-39
0.065378889 -0.1256734 -0.015856169 1.9550556e-38
0.067192003 -0.1256734 -0.015856169 1.9643826e-38
0.069442913 -0.126711 -0.019788407 1.881407e-38
0.071262926 -0.126711 -0.019788407 1.8259461e-38
0.073082939 -0.126711 -0.019788407 1.8995582e-38
0.074902937 -0.126711 -0.019788407 2.0194479e-38
0.077077493 -0.1275015 -0.022784136 1.8718623e-38
0.078902751 -0.1275015 -0.022784136 1.7888496e-38
0.081095174 -0.1282966 -0.02579727 1.6413721e-38
0.083300322 -0.12909628 -0.028827809 1.7427517e-38
0.085136175 -0.12909628 -0.028827809 1.7519001e-38
0.086972028 -0.12909628 -0.028827809 1.8163663e-38
0.088807896 -0.12909628 -0.028827809 1.0143013e-38
0.090643749 -0.12909628 -0.028827809 9.4976563e-39
0.092868671 -0.12987186 -0.031766914 1.4200721e-38
0.094709679 -0.12987186 -0.031766914 1.503013e-38
0.096550688 -0.12987186 -0.031766914 8.9463e-39
0.098949745 -0.13094176 -0.03582146 5.3510333e-39
0.10079788 -0.13094176 -0.03582146 1.1672816e-42
0.10264599 -0.13094176 -0.03582146 1.5274153e-42
0.10449411 -0.13094176 -0.03582146 2.4040074e-39
0.10634223 -0.13094176 -0.03582146 5.07874e-39
0.10819034 -0.13094176 -0.03582146 6.3698292e-39
0.11047974 -0.13172771 -0.038799904 3.7883614e-39
0.11233307 -0.13172771 -0.038799904 5.4636627e-42
0.1146407 -0.1325181 -0.041795276 4.0315357e-42
0.11696145 -0.13331302 -0.044807695 1.4816769e-39
0.11945273 -0.13437997 -0.048851036 3.7865537e-39
0.12132369 -0.13437997 -0.048851036 3.2874462e-42
-0.1216144 -0.13517688 -0.044807695 1.1896484e-38
-0.1195419 -0.13437669 -0.041795276 1.1067426e-38
-0.11728005 -0.13278987 -0.03582146 1.1528404e-38
-0.11543193 -0.13278987 -0.03582146 1.0236599e-38
-0.11332434 -0.13171287 -0.031766914 3.3201469e-39
-0.11130039 -0.13093217 -0.028827809 8.0203514e-39
-0.10946454 -0.13093217 -0.028827809 1.7055171e-38
-0.10745068 -0.13012715 -0.02579727 1.5026143e-38
-0.10544844 -0.12932678 -0.022784136 1.4843184e-38
-0.10345772 -0.12853102 -0.019788407 1.4476195e-38
-0.10110657 -0.12589271 -0.0098561272 4.2435563e-39
-0.099147469 -0.12508895 -0.0068302378 1.84647e-39
-0.097199857 -0.12428986 -0.0038219914 1.109635e-39
-0.095263645 -0.12349547 -0.00083138794 2.8610115e-39
-0.093196675 -0.12189357 0.0051991716 1.6628424e-39
-0.091284603 -0.12108628 0.0082382932 4.6431044e-40
-0.089388281 -0.1203105 0.011158802 6.8265306e-39
-0.087498784 -0.11951269 0.01416228 7.011998e-39
-0.085620515 -0.11871959 0.017147996 3.692605e-39
-0.083749667 -0.11790501 0.020214595 1.6639578e-39
-0.081784874 -0.11631663 0.026194252 4.7980459e-42
-0.079942524 -0.11551671 0.029205777 9.2782354e-40
-0.078142583 -0.11497755 0.031235434 1.568125e-38
-0.076320574 -0.11418571 0.034216441 1.9186794e-38
-0.074595258 -0.11418571 0.034216441 2.0662258e-38
-0.072789416 -0.11339863 0.037179507 2.1028875e-38
-0.070992008 -0.1125911 0.040219523 2.1580977e-38
-0.069207922 -0.11181359 0.043146588 2.1211846e-38
-0.067452967 -0.11126463 0.04521326 1.7431484e-38
-0.065686636 -0.11047028 0.048203684 1.2544414e-38
-0.063931122 -0.10968079 0.05117587 2.2178e-39
-0.062184807 -0.10887168 0.054221846 3.1394102e-39
-0.060494564 -0.10887168 0.054221846 6.4941776e-40
-0.058804322 -0.10887168 0.054221846 6.487045e-40
-0.05711408 -0.10887168 0.054221846 2.9819631e-42
-0.055423837 -0.10887168 0.054221846 1.9057659e-42
-0.05375763 -0.10968079 0.05117587 1.9127724e-42
-0.052062046 -0.10968079 0.05117587 8.4077908e-43
-0.050366461 -0.10968079 0.05117587 1.2471556e-43
-0.04867088 -0.10968079 0.05117587 4.9185576e-43
-0.0469753 -0.10968079 0.05117587 5.5474183e-40
-0.045279711 -0.10968079 0.05117587 1.0930128e-43
-0.043584131 -0.10968079 0.05117587 7.36231e-40
-0.041875519 -0.11047028 0.048203684 4.5999724e-40
-0.040174726 -0.11047028 0.048203684 9.2485699e-44
-0.038450338 -0.11126463 0.04521326 1.0146059e-39
-0.0367443 -0.11126463 0.04521326 2.9514344e-39
-0.035014711 -0.11181359 0.043146588 3.4127783e-39
-0.033266559 -0.1125911 0.040219523 2.307158e-39
-0.031551767 -0.1125911 0.040219523 4.6361259e-40
-0.029836973 -0.1125911 0.040219523 2.6442502e-42
-0.028122181 -0.1125911 0.040219523 2.2883204e-42
-0.026346091 -0.11339863 0.037179507 9.4844084e-41
-0.024625968 -0.11339863 0.037179507 1.929588e-42
-0.022905845 -0.11339863 0.037179507 1.2751816e-43
-0.021110391 -0.11418571 0.034216441 1.2331426e-43
-0.019385073 -0.11418571 0.034216441 8.3657518e-43
-0.017659755 -0.11418571 0.034216441 1.8413762e-40
-0.015842969 -0.11497755 0.031235434 3.6852048e-40
-0.014112424 -0.11497755 0.031235434 7.3658133e-40
-0.012381878 -0.11497755 0.031235434 9.1927982e-41
-0.010651335 -0.11497755 0.031235434 9.2168865e-40
-0.0088442788 -0.11551671 0.029205777 1.6599726e-39
-0.0071101747 -0.11551671 0.029205777 5.536278e-40
-0.0053760707 -0.11551671 0.029205777 6.465465e-40
-0.0036419667 -0.11551671 0.029205777 2.7741225e-40
-0.0019078627 -0.11551671 0.029205777 7.3839321e-40
-0.00017375872 -0.11551671 0.029205777 1.0649868e-43
0.0017055497 -0.11631663 0.026194252 2.7813112e-40
0.0035963356 -0.11712147 0.023164369 1.5688685e-39
0.0053410307 -0.11712147 0.023164369 7.286071e-39
0.0070857294 -0.11712147 0.023164369 1.0052296e-38
0.0089933425 -0.11790501 0.020214595 1.0512918e-38
0.010917954 -0.11871959 0.017147996 8.4842681e-39
0.012673199 -0.11871959 0.017147996 4.6289372e-40
0.014428444 -0.11871959 0.017147996 1.0930128e-43
0.016369529 -0.11951269 0.01416228 2.7742346e-40
0.018130012 -0.11951269 0.01416228 5.5401035e-40
0.020087965 -0.1203105 0.011158802 1.1210388e-43
0.021853715 -0.1203105 0.011158802 9.3035008e-41
0.023821726 -0.12108628 0.0082382932 8.3797648e-43
0.025808401 -0.12189357 0.0051991716 5.5545509e-40
0.027584597 -0.12189357 0.0051991716 4.0596079e-39
0.029588625 -0.12270571 0.0021416917 7.2871752e-39
0.031370178 -0.12270571 0.0021416917 1.0883524e-38
0.033151738 -0.12270571 0.0021416917 7.4740832e-39
0.035170473 -0.12349547 -0.00083138794 5.1567783e-42
0.036957238 -0.12349547 -0.00083138794 5.1581796e-42
0.038744006 -0.12349547 -0.00083138794 3.6033059e-39
0.040785093 -0.12428986 -0.0038219914 6.3684517e-39
0.042577107 -0.12428986 -0.0038219914 7.1056496e-39
0.04436912 -0.12428986 -0.0038219914 6.0918466e-39
0.046161134 -0.12428986 -0.0038219914 1.1346986e-38
0.048230056 -0.12508895 -0.0068302378 1.2913941e-38
0.050027329 -0.12508895 -0.0068302378 1.3190162e-38
0.051824618 -0.12508895 -0.0068302378 1.4571654e-38
0.053916354 -0.12589271 -0.0098561272 4.3372191e-39
0.056010056 -0.1266733 -0.012794755 7.6551842e-39
0.057817806 -0.1266733 -0.012794755 1.5768398e-38
0.059625555 -0.1266733 -0.012794755 1.6321209e-38
0.061433289 -0.1266733 -0.012794755 1.4754953e-38
0.063241035 -0.1266733 -0.012794755 1.3003942e-38
0.065378889 -0.12748651 -0.015856169 2.0749798e-38
0.067192003 -0.12748651 -0.015856169 2.0104781e-38
0.069005117 -0.12748651 -0.015856169 1.9920744e-38
0.070818231 -0.12748651 -0.015856169 2.0839828e-38
0.073082939 -0.12853102 -0.019788407 2.2314231e-38
0.074902937 -0.12853102 -0.019788407 2.2866678e-38
0.077077493 -0.12932678 -0.022784136 2.0008987e-38
0.078902751 -0.12932678 -0.022784136 2.0193378e-38
0.081095174 -0.13012715 -0.02579727 1.8533499e-38
0.082925722 -0.13012715 -0.02579727 1.6781432e-38
0.084756255 -0.13012715 -0.02579727 1.3923016e-38
0.086972028 -0.13093217 -0.028827809 1.0972409e-38
0.088807896 -0.13093217 -0.028827809 4.149944e-39
0.091027662 -0.13171287 -0.031766914 4.2425068e-39
0.092868671 -0.13171287 -0.031766914 5.7187229e-39
0.094709679 -0.13171287 -0.031766914 7.0094659e-39
0.096550688 -0.13171287 -0.031766914 7.1466222e-44
0.098949745 -0.13278987 -0.03582146 3.6742046e-42
0.10079788 -0.13278987 -0.03582146 1.1574725e-42
0.10264599 -0.13278987 -0.03582146 2.6120203e-42
0.10449411 -0.13278987 -0.03582146 5.0766059e-39
0.10634223 -0.13278987 -0.03582146 6.0925374e-39
0.10819034 -0.13278987 -0.03582146 4.341175e-39
0.11047974 -0.13358103 -0.038799904 1.9437341e-39
0.11233307 -0.13358103 -0.038799904 1.8707334e-42
0.1146407 -0.13437669 -0.041795276 2.2364723e-42
0.11696145 -0.13517688 -0.044807695 1.6653549e-39
0.11945273 -0.13625093 -0.048851036 3.3244993e-39
0.12132369 -0.13625093 -0.048851036 4.7644148e-44
-0.12118779 -0.13543437 -0.038799904 1.1804289e-38
-0.11933444 -0.13543437 -0.038799904 1.125182e-38
-0.11700636 -0.13355388 -0.031766914 1.1804991e-38
-0.11516535 -0.13355388 -0.031766914 9.6834264e-39
-0.11332434 -0.13355388 -0.031766914 4.4264973e-39
-0.11148334 -0.13355388 -0.031766914 8.9423105e-39
-0.10946454 -0.13276802 -0.028827809 1.4288229e-38
-0.10745068 -0.13195769 -0.02579727 1.4840681e-38
-0.10544844 -0.13115202 -0.022784136 1.530273e-38
-0.10345772 -0.13035102 -0.019788407 1.4934298e-38
-0.10110657 -0.12769531 -0.0098561272 8.4820372e-39
-0.099147469 -0.12688623 -0.0068302378 5.1626386e-39
-0.097050413 -0.12528224 -0.00083138794 4.1488538e-39
-0.095120296 -0.1244873 0.0021416917 3.6878981e-39
-0.093196675 -0.12366976 0.0051991716 2.0283907e-39
-0.091284603 -0.12285714 0.0082382932 1.8443666e-39
-0.089513734 -0.12285714 0.0082382932 6.4555872e-39
-0.087622538 -0.12207626 0.011158802 7.9317935e-39
-0.085620515 -0.12047486 0.017147996 4.3372486e-39
-0.083749667 -0.11965488 0.020214595 1.2029713e-39
-0.081784874 -0.11805601 0.026194252 1.2044132e-39
-0.079942524 -0.11725079 0.029205777 1.7586562e-39
-0.078142583 -0.11670811 0.031235434 1.4206837e-38
-0.076412037 -0.11670811 0.031235434 1.7527989e-38
-0.074595258 -0.11591102 0.034216441 2.0017607e-38
-0.072789416 -0.11511876 0.037179507 2.1213987e-38
-0.070992008 -0.1143059 0.040219523 2.2132353e-38
-0.069207922 -0.11352326 0.043146588 2.1211846e-38
-0.067452967 -0.11297067 0.04521326 1.6970141e-38
-0.065686636 -0.11217107 0.048203684 1.2544048e-38
-0.063931122 -0.11137636 0.05117587 3.4159789e-39
-0.062184807 -0.11056192 0.054221846 1.5717174e-39
-0.060494564 -0.11056192 0.054221846 1.1100316e-39
-0.058804322 -0.11056192 0.054221846 2.9679501e-42
-0.05711408 -0.11056192 0.054221846 2.6176255e-42
-0.055423837 -0.11056192 0.054221846 2.6218294e-42
-0.053733595 -0.11056192 0.054221846 3.7213162e-40
-0.052043352 -0.11056192 0.054221846 4.7363888e-43
-0.05035311 -0.11056192 0.054221846 6.4765072e-40
-0.04867088 -0.11137636 0.05117587 1.2037154e-42
-0.0469753 -0.11137636 0.05117587 1.0789998e-43
-0.045279711 -0.11137636 0.05117587 8.4077908e-44
-0.043584131 -0.11137636 0.05117587 8.2875454e-40
-0.041875519 -0.11217107 0.048203684 6.5861028e-44
-0.040174726 -0.11217107 0.048203684 5.5360118e-40
-0.038450338 -0.11297067 0.04521326 1.1462621e-42
-0.0367443 -0.11297067 0.04521326 6.455925e-39
-0.035014711 -0.11352326 0.043146588 1.364755e-38
-0.033266559 -0.1143059 0.040219523 1.0882052e-38
-0.031551767 -0.1143059 0.040219523 1.293355e-39
-0.029836973 -0.1143059 0.040219523 5.5615995e-40
-0.028122181 -0.1143059 0.040219523 1.5526387e-42
-0.026346091 -0.11511876 0.037179507 1.1770907e-43
-0.024625968 -0.11511876 0.037179507 1.1981102e-42
-0.022905845 -0.11511876 0.037179507 2.6344411e-42
-0.021110391 -0.11591102 0.034216441 1.1939063e-42
-0.019385073 -0.11591102 0.034216441 1.0089349e-43
-0.017659755 -0.11591102 0.034216441 5.5361379e-40
-0.015842969 -0.11670811 0.031235434 3.6885258e-40
-0.014112424 -0.11670811 0.031235434 6.0255834e-44
-0.012381878 -0.11670811 0.031235434 4.2459343e-43
-0.010651335 -0.11670811 0.031235434 2.581905e-39
-0.0088442788 -0.11725079 0.029205777 5.6247252e-39
-0.0071101747 -0.11725079 0.029205777 7.7448715e-39
-0.0053760707 -0.11725079 0.029205777 3.6958827e-40
-0.0036419667 -0.11725079 0.029205777 7.3766593e-40
-0.0019078627 -0.11725079 0.029205777 7.383904e-40
-0.00017375872 -0.11725079 0.029205777 1.0930128e-43
0.0017055497 -0.11805601 0.026194252 1.0649868e-43
0.0035963356 -0.11886616 0.023164369 9.3739861e-41
0.0053410307 -0.11886616 0.023164369 4.7035172e-39
0.0070857294 -0.11886616 0.023164369 1.0788779e-38
0.0089933425 -0.11965488 0.020214595 1.0143415e-38
0.010743208 -0.11965488 0.020214595 8.2066022e-39
0.012673199 -0.12047486 0.017147996 9.3032205e-41
0.014428444 -0.12047486 0.017147996 1.1630777e-43
0.016369529 -0.12127317 0.01416228 4.7644148e-43
0.018130012 -0.12127317 0.01416228 9.3032205e-41
0.019890487 -0.12127317 0.01416228 1.1210388e-43
0.021853715 -0.12207626 0.011158802 8.3517388e-43
0.023619458 -0.12207626 0.011158802 1.1350518e-43
0.025592588 -0.12285714 0.0082382932 9.5193007e-41
0.027584597 -0.12366976 0.0051991716 7.6563137e-39
0.029360786 -0.12366976 0.0051991716 9.1328829e-39
0.031370178 -0.1244873 0.0021416917 7.6584717e-39
0.033151738 -0.1244873 0.0021416917 7.1982124e-39
0.035170473 -0.12528224 -0.00083138794 3.3519059e-42
0.036957238 -0.12528224 -0.00083138794 4.7952433e-42
0.038744006 -0.12528224 -0.00083138794 6.6461148e-39
0.040530775 -0.12528224 -0.00083138794 8.7658898e-39
0.042317543 -0.12528224 -0.00083138794 5.0776975e-39
0.04436912 -0.12608187 -0.0038219914 3.2337723e-39
0.046432767 -0.12688623 -0.0068302378 8.8569756e-39
0.048230056 -0.12688623 -0.0068302378 1.337455e-38
0.050027329 -0.12688623 -0.0068302378 1.18065e-38
0.05211376 -0.12769531 -0.0098561272 1.5585802e-38
0.053916354 -0.12769531 -0.0098561272 4.5219663e-39
0.056010056 -0.12848105 -0.012794755 5.9967405e-39
0.057817806 -0.12848105 -0.012794755 1.5400695e-38
0.059625555 -0.12848105 -0.012794755 1.5860947e-38
0.061433289 -0.12848105 -0.012794755 1.364896e-38
0.063241035 -0.12848105 -0.012794755 1.2727702e-38
0.065378889 -0.1292996 -0.015856169 1.8720406e-38
0.067192003 -0.1292996 -0.015856169 2.1118194e-38
0.069005117 -0.1292996 -0.015856169 2.2039425e-38
0.070818231 -0.1292996 -0.015856169 2.3050701e-38
0.073082939 -0.13035102 -0.019788407 2.2958507e-38
0.074902937 -0.13035102 -0.019788407 2.277376e-38
0.077077493 -0.13115202 -0.022784136 2.1390828e-38
0.078902751 -0.13115202 -0.022784136 2.1482675e-38
0.081095174 -0.13195769 -0.02579727 1.7979249e-38
0.082925722 -0.13195769 -0.02579727 1.6411577e-38
0.084756255 -0.13195769 -0.02579727 9.4040047e-39
0.086972028 -0.13276802 -0.028827809 8.2058357e-39
0.088807896 -0.13276802 -0.028827809 4.3159993e-43
0.090643749 -0.13276802 -0.028827809 2.7774436e-40
0.092868671 -0.13355388 -0.031766914 5.9953125e-39
0.094709679 -0.13355388 -0.031766914 5.9031169e-39
0.097101629 -0.134638 -0.03582146 1.1100176e-39
0.098949745 -0.134638 -0.03582146 4.3832616e-42
0.10079788 -0.134638 -0.03582146 4.2879733e-43
0.10264599 -0.134638 -0.03582146 8.1135181e-43
0.10449411 -0.134638 -0.03582146 5.998209e-39
0.10634223 -0.134638 -0.03582146 6.9212247e-39
0.10819034 -0.134638 -0.03582146 2.4039892e-39
0.11047974 -0.13543437 -0.038799904 1.9094093e-40
0.11233307 -0.13543437 -0.038799904 1.873536e-42
0.1146407 -0.13623528 -0.041795276 8.0154272e-43
0.11696145 -0.13704078 -0.044807695 1.8479497e-39
0.11945273 -0.13812189 -0.048851036 2.3092712e-39
0.12132369 -0.13812189 -0.048851036 2.211249e-42
-0.11933444 -0.13728772 -0.038799904 1.0605732e-38
-0.11680795 -0.13460387 -0.028827809 1.1343297e-38
-0.1149721 -0.13460387 -0.028827809 9.8674617e-39
-0.11313625 -0.13460387 -0.028827809 3.7807705e-39
-0.11130039 -0.13460387 -0.028827809 3.9633919e-39
-0.10928121 -0.13378824 -0.02579727 4.8849993e-39
-0.1072737 -0.13297729 -0.022784136 5.8980708e-39
-0.10544844 -0.13297729 -0.022784136 9.3092993e-39
-0.10345772 -0.13217102 -0.019788407 1.2166994e-38
-0.10110657 -0.1294979 -0.0098561272 1.2628327e-38
-0.099147469 -0.12868352 -0.0068302378 1.4472239e-38
-0.097050413 -0.12706901 -0.00083138794 1.5025424e-38
-0.095120296 -0.12626885 0.0021416917 1.3181174e-38
