# .PCD v0.7 - Point Cloud Data file format
VERSION 0.7
FIELDS x y z rgb
SIZE 4 4 4 4
TYPE F F F F
COUNT 1 1 1 1
WIDTH 944
HEIGHT 1
VIEWPOINT 0 0 0 1 0 0 0
POINTS 944
DATA ascii
0.11221728 -0.14995907 -0.11481884 3.7811138e-39
0.11423192 -0.14995907 -0.11481884 4.3350037e-39
-0.10009697 -0.11969708 0.0091455914 1.1156024e-38
-0.096502401 -0.11969708 0.0091455914 1.0882321e-38
-0.094705112 -0.11969708 0.0091455914 5.8112212e-39
-0.092907824 -0.11969708 0.0091455914 2.8592024e-39
-0.090960212 -0.11891381 0.012153838 9.223921e-40
-0.089168198 -0.11891381 0.012153838 5.5324665e-40
-0.087376185 -0.11891381 0.012153838 5.1848043e-44
-0.085450463 -0.11813517 0.015144441 9.227116e-40
-0.083663695 -0.11813517 0.015144441 1.3461666e-38
-0.081876934 -0.11813517 0.015144441 1.8071093e-38
-0.079972878 -0.11736105 0.018117521 1.9362911e-38
-0.078191318 -0.11736105 0.018117521 2.1023151e-38
-0.076299869 -0.11656497 0.021175001 2.0747282e-38
-0.074523672 -0.11656497 0.021175001 2.1209333e-38
-0.072747476 -0.11656497 0.021175001 2.0933465e-38
-0.070878029 -0.11577369 0.024214122 2.0933111e-38
-0.069107167 -0.11577369 0.024214122 2.1486276e-38
-0.067336299 -0.11577369 0.024214122 2.0840182e-38
-0.065491185 -0.11501329 0.027134631 1.9088098e-38
-0.063725434 -0.11501329 0.027134631 1.9180294e-38
-0.061893865 -0.11423124 0.030138109 2.1669576e-38
-0.060133383 -0.11423124 0.030138109 2.2867037e-38
-0.058317937 -0.11345388 0.033123825 2.2775202e-38
-0.056562692 -0.11345388 0.033123825 2.2406425e-38
-0.054807447 -0.11345388 0.033123825 2.2591172e-38
-0.053052202 -0.11345388 0.033123825 1.7795985e-38
-0.051296957 -0.11345388 0.033123825 1.0604745e-38
-0.04951214 -0.11265542 0.036190424 7.1935264e-39
-0.047762275 -0.11265542 0.036190424 4.8893686e-39
-0.046012402 -0.11265542 0.036190424 4.2443705e-39
-0.044249609 -0.11188738 0.039140198 6.4574328e-39
-0.042496942 -0.11109848 0.042170081 4.7064389e-39
-0.040757559 -0.11109848 0.042170081 1.2022819e-39
-0.039020814 -0.11031438 0.045181606 9.4842683e-41
-0.03728671 -0.11031438 0.045181606 7.4163861e-40
-0.035552606 -0.11031438 0.045181606 7.4487001e-40
-0.033830959 -0.10978593 0.047211263 1.0237046e-40
-0.032100413 -0.10978593 0.047211263 7.9415045e-39
-0.030398615 -0.10900976 0.05019227 1.6148338e-38
-0.028673299 -0.10900976 0.05019227 1.5686267e-38
-0.026947979 -0.10900976 0.05019227 1.5685893e-38
-0.025222661 -0.10900976 0.05019227 1.7066295e-38
-0.023546698 -0.10823826 0.053155337 1.9092434e-38
-0.021826575 -0.10823826 0.053155337 1.8999515e-38
-0.020106452 -0.10823826 0.053155337 1.9461572e-38
-0.018386329 -0.10823826 0.053155337 1.9279705e-38
-0.016738163 -0.10744675 0.056195352 2.0479314e-38
-0.015023369 -0.10744675 0.056195352 1.7624875e-38
-0.013308577 -0.10744675 0.056195352 1.5966447e-38
-0.011593783 -0.10744675 0.056195352 1.7439057e-38
-0.0098789912 -0.10744675 0.056195352 8.310287e-39
-0.0082591418 -0.10668461 0.059122417 1.6700605e-39
-0.0065494832 -0.10668461 0.059122417 6.9448352e-42
-0.0048398208 -0.10668461 0.059122417 1.205481e-39
-0.0031301621 -0.10668461 0.059122417 1.295869e-39
-0.0014204998 -0.10668461 0.059122417 2.2156631e-39
0.00028916262 -0.10668461 0.059122417 1.0153262e-39
0.0019988213 -0.10668461 0.059122417 6.4512138e-40
0.0037084837 -0.10668461 0.059122417 1.1210388e-43
0.0055541452 -0.10744675 0.056195352 6.4439971e-40
0.0072689373 -0.10744675 0.056195352 8.2985876e-40
0.0091356393 -0.10823826 0.053155337 8.1275311e-44
0.011423955 -0.11109848 0.042170081 2.2420775e-42
0.013483113 -0.11265542 0.036190424 1.2004391e-39
0.015232982 -0.11265542 0.036190424 5.5579e-40
0.017157594 -0.11345388 0.033123825 8.0014142e-43
0.019088211 -0.11423124 0.030138109 2.7990516e-40
0.02084869 -0.11423124 0.030138109 7.8472714e-44
0.022796119 -0.11501329 0.027134631 3.7101619e-40
0.024561862 -0.11501329 0.027134631 5.561053e-40
0.026719453 -0.11656497 0.021175001 4.6119899e-39
0.028702037 -0.11736105 0.018117521 9.1281549e-39
0.031314522 -0.12048493 0.006119702 2.1209395e-39
0.033543177 -0.12204717 0.00011966005 1.8484248e-40
0.035356291 -0.12204717 0.00011966005 9.2485699e-44
0.037462421 -0.123071 -0.0038125776 2.2142211e-39
0.039510913 -0.12385099 -0.006808307 5.1648456e-39
0.041571267 -0.12463553 -0.009821441 4.4276575e-39
0.043878041 -0.12618984 -0.015791085 9.3886997e-44
0.04571905 -0.12618984 -0.015791085 2.6050138e-42
0.048395269 -0.12880091 -0.025819447 5.4464632e-39
0.050510027 -0.12958528 -0.028831866 6.0940046e-39
0.052373894 -0.12958528 -0.028831866 2.4069067e-39
0.054595776 -0.13063805 -0.032875206 2.0363291e-39
0.056466736 -0.13063805 -0.032875206 4.7085604e-39
0.058890827 -0.13220255 -0.03888407 3.1401445e-39
0.061428957 -0.1340252 -0.045884278 3.0468587e-39
0.063699372 -0.13505147 -0.049825814 3.3227183e-39
0.066180669 -0.13660498 -0.055792358 2.2152805e-39
0.068489484 -0.13765021 -0.059806731 6.3629908e-39
0.070407666 -0.13765021 -0.059806731 1.6781086e-38
0.072642766 -0.13845469 -0.06289652 1.9086324e-38
0.074566372 -0.13845469 -0.06289652 1.8994127e-38
0.076908626 -0.1394823 -0.066843301 1.742645e-38
0.078839146 -0.1394823 -0.066843301 1.134226e-38
0.08076968 -0.1394823 -0.066843301 6.8243179e-39
0.08515387 -0.14522041 -0.088881642 3.1364941e-39
0.08790458 -0.14701982 -0.095792562 6.1789527e-39
0.090352155 -0.148077 -0.09985283 6.823969e-39
0.092802413 -0.14910837 -0.10381404 4.3346884e-39
0.095162965 -0.14991184 -0.10689989 4.6175587e-40
0.097163729 -0.14991184 -0.10689989 3.6920431e-40
0.099164478 -0.14991184 -0.10689989 5.528725e-40
0.10116523 -0.14991184 -0.10689989 4.9045446e-44
-0.10009697 -0.12149437 0.0091455914 1.0787242e-38
-0.098299682 -0.12149437 0.0091455914 1.0143314e-38
-0.096502401 -0.12149437 0.0091455914 9.5923014e-39
-0.094705112 -0.12149437 0.0091455914 7.1026817e-39
-0.092752226 -0.12070583 0.012153838 5.550333e-40
-0.090960212 -0.12070583 0.012153838 7.4268819e-44
-0.089168198 -0.12070583 0.012153838 4.6141395e-40
-0.087376185 -0.12070583 0.012153838 2.3060342e-39
-0.085450463 -0.11992194 0.015144441 1.6610025e-39
-0.083663695 -0.11992194 0.015144441 7.3939373e-40
-0.081876934 -0.11992194 0.015144441 4.7034527e-39
-0.079972878 -0.11914261 0.018117521 1.3738627e-38
-0.078191318 -0.11914261 0.018117521 1.6505212e-38
-0.076299869 -0.11834116 0.021175001 2.0101558e-38
-0.074523672 -0.11834116 0.021175001 1.8904445e-38
-0.072747476 -0.11834116 0.021175001 1.9919316e-38
-0.070878029 -0.11754455 0.024214122 1.8443834e-38
-0.069107167 -0.11754455 0.024214122 1.9734217e-38
-0.067336299 -0.11754455 0.024214122 2.2499695e-38
-0.065491185 -0.11677901 0.027134631 2.1485559e-38
-0.063725434 -0.11677901 0.027134631 2.1670306e-38
-0.061893865 -0.11599173 0.030138109 2.2499695e-38
-0.060133383 -0.11599173 0.030138109 2.2039083e-38
-0.058317937 -0.11520912 0.033123825 1.7152377e-38
-0.056562692 -0.11520912 0.033123825 1.1989071e-38
-0.054807447 -0.11520912 0.033123825 1.2357866e-38
-0.053052202 -0.11520912 0.033123825 1.1434852e-38
-0.051296957 -0.11520912 0.033123825 7.4708154e-39
-0.04951214 -0.11440529 0.036190424 7.3786338e-39
-0.047762275 -0.11440529 0.036190424 7.7474275e-39
-0.046012402 -0.11440529 0.036190424 6.3652189e-39
-0.044249609 -0.11363207 0.039140198 4.1525294e-39
-0.042496942 -0.11283787 0.042170081 7.4165263e-40
-0.040757559 -0.11283787 0.042170081 2.2869191e-42
-0.039020814 -0.11204849 0.045181606 7.4128829e-40
-0.03728671 -0.11204849 0.045181606 1.7561535e-39
-0.035561502 -0.11151646 0.047211263 1.021101e-39
-0.033830959 -0.11151646 0.047211263 6.21616e-42
-0.032100413 -0.11151646 0.047211263 7.9415073e-39
-0.030398615 -0.11073507 0.05019227 1.5410058e-38
-0.028673299 -0.11073507 0.05019227 1.7069204e-38
-0.026947979 -0.11073507 0.05019227 1.9003848e-38
-0.025222661 -0.11073507 0.05019227 1.8725097e-38
-0.023546698 -0.1099584 0.053155337 1.9920755e-38
-0.021826575 -0.1099584 0.053155337 2.0472484e-38
-0.020106452 -0.1099584 0.053155337 1.9458332e-38
-0.018386329 -0.1099584 0.053155337 1.8905884e-38
-0.016738163 -0.10916151 0.056195352 2.0290621e-38
-0.015023369 -0.10916151 0.056195352 1.8725466e-38
-0.013308577 -0.10916151 0.056195352 1.7343619e-38
-0.011593783 -0.10916151 0.056195352 1.6791898e-38
-0.0098789912 -0.10916151 0.056195352 9.8765225e-39
-0.0082591418 -0.10839428 0.059122417 2.2221441e-39
-0.0065494832 -0.10839428 0.059122417 5.4958926e-42
-0.0048398208 -0.10839428 0.059122417 1.4817022e-39
-0.0031301621 -0.10839428 0.059122417 1.7557653e-39
-0.0014204998 -0.10839428 0.059122417 2.5844456e-39
0.00028916262 -0.10839428 0.059122417 9.2313339e-40
0.0019988213 -0.10839428 0.059122417 1.2901349e-39
0.0037084837 -0.10839428 0.059122417 4.5965672e-40
0.0055541452 -0.10916151 0.056195352 9.9492191e-44
0.0074155163 -0.1099584 0.053155337 9.10844e-44
0.0091356393 -0.1099584 0.053155337 6.7262326e-44
0.011423955 -0.11283787 0.042170081 4.5198167e-39
0.013483113 -0.11440529 0.036190424 9.5905876e-39
0.015232982 -0.11440529 0.036190424 1.1435579e-38
0.017157594 -0.11520912 0.033123825 1.1490647e-42
0.019088211 -0.11599173 0.030138109 5.7453237e-44
0.02084869 -0.11599173 0.030138109 2.7953242e-40
0.022796119 -0.11677901 0.027134631 1.1618503e-38
0.024748767 -0.11754455 0.024214122 1.6966543e-38
0.026719453 -0.11834116 0.021175001 1.8625345e-38
0.028902734 -0.11992194 0.015144441 1.7794886e-38
0.031314522 -0.12228753 0.006119702 2.8581346e-39
0.033543177 -0.12386028 0.00011966005 3.6815334e-40
0.035356291 -0.12386028 0.00011966005 2.7704091e-40
0.037169404 -0.12386028 0.00011966005 2.8592388e-39
0.039282426 -0.124891 -0.0038125776 6.4563131e-39
0.041336171 -0.12567626 -0.006808307 5.4428913e-39
0.043878041 -0.12803085 -0.015791085 2.9833644e-42
0.04571905 -0.12803085 -0.015791085 7.2797455e-42
0.048145793 -0.12987436 -0.022824075 6.278735e-39
0.050253861 -0.13065951 -0.025819447 5.7266514e-39
0.052373894 -0.13144915 -0.028831866 2.3157844e-39
0.054595776 -0.13250901 -0.032875206 4.5263328e-39
0.056466736 -0.13250901 -0.032875206 5.7234312e-39
0.058608271 -0.13327946 -0.03581455 3.1415766e-39
0.061428957 -0.13591899 -0.045884278 4.0613637e-39
0.063699372 -0.13695215 -0.049825814 4.2443172e-39
0.066180669 -0.13851611 -0.055792358 2.9532099e-39
0.068489484 -0.13956837 -0.059806731 6.9165318e-39
0.070407666 -0.13956837 -0.059806731 1.5951687e-38
0.072642766 -0.14037828 -0.06289652 1.724313e-38
0.074566372 -0.14037828 -0.06289652 1.6966543e-38
0.076908626 -0.14141284 -0.066843301 1.6320469e-38
0.078839146 -0.14141284 -0.066843301 1.1803249e-38
0.08076968 -0.14141284 -0.066843301 6.7328426e-39
0.084710501 -0.14614578 -0.084899455 6.4793098e-40
0.08790458 -0.14900111 -0.095792562 4.6109081e-39
-0.098299682 -0.12329166 0.0091455914 1.0604292e-38
-0.096336253 -0.12249784 0.012153838 9.8685323e-39
-0.094544239 -0.12249784 0.012153838 6.7335432e-39
-0.092752226 -0.12249784 0.012153838 4.9797075e-39
-0.090960212 -0.12249784 0.012153838 7.3764912e-40
-0.089168198 -0.12249784 0.012153838 7.1466222e-44
-0.087376185 -0.12249784 0.012153838 1.0233785e-38
-0.085450463 -0.12170871 0.015144441 8.7589884e-39
-0.083663695 -0.12170871 0.015144441 5.4402975e-39
-0.081876934 -0.12170871 0.015144441 3.780423e-39
-0.079972878 -0.12092416 0.018117521 1.1986913e-38
-0.078191318 -0.12092416 0.018117521 1.3093258e-38
-0.076299869 -0.12011738 0.021175001 1.5583253e-38
-0.074523672 -0.12011738 0.021175001 1.5123701e-38
-0.072747476 -0.12011738 0.021175001 1.5308813e-38
-0.070878029 -0.11931543 0.024214122 1.5861992e-38
-0.069107167 -0.11931543 0.024214122 1.4847854e-38
-0.067336299 -0.11931543 0.024214122 1.5676909e-38
-0.065491185 -0.11854477 0.027134631 1.705949e-38
-0.063725434 -0.11854477 0.027134631 1.8995596e-38
-0.061893865 -0.11775221 0.030138109 2.0010092e-38
-0.060133383 -0.11775221 0.030138109 2.0748005e-38
-0.058317937 -0.11696436 0.033123825 1.7059842e-38
-0.056562692 -0.11696436 0.033123825 1.1251163e-38
-0.054807447 -0.11696436 0.033123825 1.10675e-38
-0.053052202 -0.11696436 0.033123825 9.9608036e-39
-0.051262006 -0.11615516 0.036190424 8.1169022e-39
-0.04951214 -0.11615516 0.036190424 6.5492248e-39
-0.047762275 -0.11615516 0.036190424 8.7622857e-39
-0.045994304 -0.11537679 0.039140198 7.6566598e-39
-0.044249609 -0.11537679 0.039140198 1.9405307e-39
-0.042496942 -0.11457725 0.042170081 4.0651668e-42
-0.040757559 -0.11457725 0.042170081 7.4271201e-40
-0.039020814 -0.1137826 0.045181606 1.891837e-40
-0.03728671 -0.1137826 0.045181606 2.8245833e-40
-0.035561502 -0.11324702 0.047211263 5.5043004e-42
-0.033830959 -0.11324702 0.047211263 5.49309e-42
-0.032100413 -0.11324702 0.047211263 7.2032192e-39
-0.030398615 -0.11246039 0.05019227 1.6884098e-38
-0.028673299 -0.11246039 0.05019227 1.9188595e-38
-0.026947979 -0.11246039 0.05019227 1.937119e-38
-0.025222661 -0.11246039 0.05019227 2.0105514e-38
-0.023546698 -0.1116785 0.053155337 1.9642008e-38
-0.021826575 -0.1116785 0.053155337 2.2128407e-38
-0.020106452 -0.1116785 0.053155337 2.1482319e-38
-0.018386329 -0.1116785 0.053155337 2.1757831e-38
-0.016738163 -0.11087631 0.056195352 2.2588302e-38
-0.015023369 -0.11087631 0.056195352 2.1851107e-38
-0.013308577 -0.11087631 0.056195352 1.9826061e-38
-0.011593783 -0.11087631 0.056195352 1.8816948e-38
-0.0098789912 -0.11087631 0.056195352 1.1073976e-38
-0.0082591418 -0.11010392 0.059122417 5.2642341e-39
-0.0065494832 -0.11010392 0.059122417 1.0214429e-39
-0.0048398208 -0.11010392 0.059122417 1.2043922e-39
-0.0031301621 -0.11010392 0.059122417 2.0319921e-39
-0.0014204998 -0.11010392 0.059122417 2.3993341e-39
0.00028916262 -0.11010392 0.059122417 6.465465e-40
0.0019988213 -0.11010392 0.059122417 1.0229479e-43
0.0037084837 -0.11010392 0.059122417 1.2897719e-39
0.0054181423 -0.11010392 0.059122417 9.5288296e-44
0.0074155163 -0.1116785 0.053155337 7.7071416e-44
0.0091356393 -0.1116785 0.053155337 2.7844641e-40
0.011423955 -0.11457725 0.042170081 1.2172756e-38
0.013325369 -0.11537679 0.039140198 1.6506319e-38
0.015232982 -0.11615516 0.036190424 1.4385817e-38
0.017157594 -0.11696436 0.033123825 5.5357441e-39
0.019088211 -0.11775221 0.030138109 2.8617037e-39
0.021030368 -0.11854477 0.027134631 2.7684291e-39
0.022977898 -0.11931543 0.024214122 1.3093607e-38
0.024748767 -0.11931543 0.024214122 1.8902265e-38
0.026719453 -0.12011738 0.021175001 1.9915701e-38
0.028902734 -0.12170871 0.015144441 1.8070733e-38
0.031104961 -0.12329166 0.0091455914 4.5165657e-39
0.033543177 -0.1256734 0.00011966005 8.1275311e-44
0.035356291 -0.1256734 0.00011966005 4.6107624e-40
0.037169404 -0.1256734 0.00011966005 3.0443517e-39
0.039282426 -0.126711 -0.0038125776 6.4573963e-39
0.041336171 -0.1275015 -0.006808307 4.5234573e-39
0.043643571 -0.12909628 -0.01285198 3.7036318e-42
0.04571905 -0.12987186 -0.015791085 9.0762102e-42
0.048145793 -0.13172771 -0.022824075 6.2816104e-39
0.050253861 -0.1325181 -0.025819447 6.9266281e-39
0.052373894 -0.13331302 -0.028831866 2.8696715e-39
0.054595776 -0.13437997 -0.032875206 5.541205e-39
0.056732155 -0.13515557 -0.03581455 3.4196195e-39
0.058608271 -0.13515557 -0.03581455 4.6861803e-40
0.060772322 -0.13596557 -0.03888407 4.431221e-39
0.063036554 -0.13702248 -0.042889383 6.1811443e-39
0.065895267 -0.13965334 -0.052859452 5.8109213e-39
0.068489484 -0.14148657 -0.059806731 9.7742432e-39
0.070719175 -0.14230187 -0.06289652 1.7334987e-38
0.072642766 -0.14230187 -0.06289652 1.7427882e-38
0.074566372 -0.14230187 -0.06289652 1.5860556e-38
0.076908626 -0.14334334 -0.066843301 1.4753512e-38
0.079267822 -0.14439236 -0.070818692 1.2079484e-38
0.081205316 -0.14439236 -0.070818692 8.3920108e-39
0.084710501 -0.14810793 -0.084899455 1.7542785e-39
0.087462895 -0.14995177 -0.091886908 3.1357809e-39
-0.098128267 -0.12428986 0.012153838 1.0604292e-38
-0.096336253 -0.12428986 0.012153838 1.0605381e-38
-0.094544239 -0.12428986 0.012153838 7.2860009e-39
-0.092752226 -0.12428986 0.012153838 2.2127652e-39
-0.090960212 -0.12428986 0.012153838 8.8281803e-44
-0.089168198 -0.12428986 0.012153838 7.3585405e-40
-0.087237231 -0.12349547 0.015144441 1.2353211e-38
-0.085450463 -0.12349547 0.015144441 1.4935024e-38
-0.083535984 -0.12270571 0.018117521 1.9821744e-38
-0.081754431 -0.12270571 0.018117521 1.8346615e-38
-0.079852261 -0.12189357 0.021175001 2.0190528e-38
-0.078076065 -0.12189357 0.021175001 1.7517569e-38
-0.076299869 -0.12189357 0.021175001 1.5213031e-38
-0.074523672 -0.12189357 0.021175001 1.576763e-38
-0.072648898 -0.12108628 0.024214122 9.7759906e-39
-0.070878029 -0.12108628 0.024214122 8.0235632e-39
-0.069107167 -0.12108628 0.024214122 3.7835059e-44
-0.067256927 -0.1203105 0.027134631 4.2599473e-43
-0.065491185 -0.1203105 0.027134631 3.3182748e-42
-0.063725434 -0.1203105 0.027134631 5.5684939e-40
-0.061893865 -0.11951269 0.030138109 1.5709957e-39
-0.060133383 -0.11951269 0.030138109 5.9967405e-39
-0.058317937 -0.11871959 0.033123825 6.7343055e-39
-0.056562692 -0.11871959 0.033123825 2.3089167e-39
-0.054807447 -0.11871959 0.033123825 1.8483043e-39
-0.053052202 -0.11871959 0.033123825 1.4791672e-39
-0.051262006 -0.11790501 0.036190424 2.0319907e-39
-0.049483694 -0.11712147 0.039140198 3.7283367e-40
-0.047738999 -0.11712147 0.039140198 6.8265306e-39
-0.045994304 -0.11712147 0.039140198 8.3027396e-39
-0.044249609 -0.11712147 0.039140198 1.2036733e-39
-0.042496942 -0.11631663 0.042170081 1.8952141e-40
-0.040757559 -0.11631663 0.042170081 9.2708925e-40
-0.039020814 -0.11551671 0.045181606 1.480277e-39
-0.03728671 -0.11551671 0.045181606 1.3888045e-39
-0.035561502 -0.11497755 0.047211263 9.9497796e-41
-0.033830959 -0.11497755 0.047211263 2.6134216e-42
-0.032100413 -0.11497755 0.047211263 1.9466306e-39
-0.030398615 -0.11418571 0.05019227 1.3656901e-38
-0.028673299 -0.11418571 0.05019227 1.900313e-38
-0.026947979 -0.11418571 0.05019227 1.9554861e-38
-0.025266821 -0.11339863 0.053155337 2.0289904e-38
-0.023546698 -0.11339863 0.053155337 1.8351269e-38
-0.021826575 -0.11339863 0.053155337 2.2128407e-38
-0.020167748 -0.1125911 0.056195352 2.2864526e-38
-0.018452955 -0.1125911 0.056195352 2.3509168e-38
-0.016738163 -0.1125911 0.056195352 2.2954927e-38
-0.015023369 -0.1125911 0.056195352 2.1019198e-38
-0.013308577 -0.1125911 0.056195352 1.7611207e-38
-0.011593783 -0.1125911 0.056195352 1.7985754e-38
-0.0098789912 -0.1125911 0.056195352 7.6623757e-39
-0.0082591418 -0.11181359 0.059122417 4.3408373e-39
-0.0065494832 -0.11181359 0.059122417 9.876772e-41
-0.0048398208 -0.11181359 0.059122417 4.77002e-42
-0.0031301621 -0.11181359 0.059122417 2.6773615e-39
-0.0014204998 -0.11181359 0.059122417 2.3993341e-39
0.00028916262 -0.11181359 0.059122417 3.6923654e-40
0.0019988213 -0.11181359 0.059122417 1.3819647e-39
0.0037084837 -0.11181359 0.059122417 9.3886997e-44
0.0054181423 -0.11181359 0.059122417 9.2204598e-40
0.0075583849 -0.11418571 0.05019227 1.1433046e-38
0.009684572 -0.11631663 0.042170081 1.4569471e-38
0.011423955 -0.11631663 0.042170081 2.0840199e-38
0.013325369 -0.11712147 0.039140198 1.98257e-38
0.015232982 -0.11790501 0.036190424 1.8350567e-38
0.017157594 -0.11871959 0.033123825 1.678287e-38
0.019088211 -0.11951269 0.030138109 1.9824957e-38
0.021030368 -0.1203105 0.027134631 2.0376692e-38
0.022977898 -0.12108628 0.024214122 2.1483026e-38
0.024748767 -0.12108628 0.024214122 2.1206416e-38
0.026719453 -0.12189357 0.021175001 2.1943265e-38
0.028902734 -0.12349547 0.015144441 2.0283055e-38
0.030896621 -0.12428986 0.012153838 9.0348592e-39
0.033117115 -0.12589271 0.006119702 7.8472714e-44
0.035133533 -0.1266733 0.0031810738 9.2241032e-40
0.036941275 -0.1266733 0.0031810738 3.0457937e-39
0.039282426 -0.12853102 -0.0038125776 5.9056645e-39
0.041336171 -0.12932678 -0.006808307 3.6954987e-39
0.043643571 -0.13093217 -0.01285198 6.5833002e-42
0.04571905 -0.13171287 -0.015791085 5.6692752e-40
0.048395269 -0.13437669 -0.025819447 7.9440058e-39
0.050510027 -0.13517688 -0.028831866 5.8220728e-39
0.052373894 -0.13517688 -0.028831866 2.5934377e-39
0.054595776 -0.13625093 -0.032875206 6.8330186e-39
0.056732155 -0.13703169 -0.03581455 3.5121752e-39
0.058608271 -0.13703169 -0.03581455 3.7677553e-40
0.060772322 -0.13784705 -0.03888407 5.3538934e-39
0.063036554 -0.13891099 -0.042889383 6.5499269e-39
0.065216504 -0.13970654 -0.045884278 5.2584692e-39
0.068091802 -0.14233841 -0.055792358 8.2076391e-39
0.070719175 -0.14422549 -0.06289652 1.5398881e-38
0.072642766 -0.14422549 -0.06289652 1.4662013e-38
0.074978106 -0.14527388 -0.066843301 1.1435169e-38
0.076908626 -0.14527388 -0.066843301 8.7604416e-39
0.079267822 -0.14632986 -0.070818692 7.0083715e-39
0.081537433 -0.14713491 -0.073849469 5.4424737e-39
-0.098128267 -0.12608187 0.012153838 1.0604292e-38
-0.096171081 -0.12528224 0.015144441 1.0512108e-38
-0.094384313 -0.12528224 0.015144441 7.7462644e-39
-0.092597544 -0.12528224 0.015144441 2.6726699e-39
-0.090960212 -0.12608187 0.012153838 3.6743587e-40
-0.089168198 -0.12608187 0.012153838 1.7482123e-39
-0.087237231 -0.12528224 0.015144441 1.1706048e-38
-0.085317545 -0.1244873 0.018117521 1.4380056e-38
-0.083535984 -0.1244873 0.018117521 1.7515057e-38
-0.081754431 -0.1244873 0.018117521 1.7883842e-38
-0.079852261 -0.12366976 0.021175001 1.87136e-38
-0.078076065 -0.12366976 0.021175001 1.8806869e-38
-0.076299869 -0.12366976 0.021175001 1.9083806e-38
-0.074419767 -0.12285714 0.024214122 1.8347667e-38
-0.072648898 -0.12285714 0.024214122 1.2355668e-38
-0.070878029 -0.12285714 0.024214122 1.0788345e-38
-0.069107167 -0.12285714 0.024214122 1.1168349e-42
-0.067256927 -0.12207626 0.027134631 7.286752e-44
-0.065491185 -0.12207626 0.027134631 1.887549e-42
-0.063654341 -0.12127317 0.030138109 8.1275311e-44
-0.061893865 -0.12127317 0.030138109 5.5721092e-40
-0.060133383 -0.12127317 0.030138109 1.1107392e-39
-0.058317937 -0.12047486 0.033123825 2.3092824e-39
-0.056562692 -0.12047486 0.033123825 6.4976108e-40
-0.054807447 -0.12047486 0.033123825 2.813429e-40
-0.053052202 -0.12047486 0.033123825 6.4977229e-40
-0.051262006 -0.11965488 0.036190424 9.2600465e-40
-0.049483694 -0.11886616 0.039140198 8.3381182e-40
-0.047738999 -0.11886616 0.039140198 6.457748e-39
-0.045994304 -0.11886616 0.039140198 7.8406797e-39
-0.044249609 -0.11886616 0.039140198 2.2167463e-39
-0.042496942 -0.11805601 0.042170081 6.4977509e-40
-0.040757559 -0.11805601 0.042170081 1.2036733e-39
-0.039018176 -0.11805601 0.042170081 5.5759628e-40
-0.03728671 -0.11725079 0.045181606 1.5724699e-39
-0.035561502 -0.11670811 0.047211263 9.2889553e-40
-0.033830959 -0.11670811 0.047211263 2.2504853e-42
-0.032100413 -0.11670811 0.047211263 1.7615176e-39
-0.030398615 -0.11591102 0.05019227 1.236544e-38
-0.028673299 -0.11591102 0.05019227 1.5130935e-38
-0.026947979 -0.11591102 0.05019227 1.7435089e-38
-0.025266821 -0.11511876 0.053155337 1.7249967e-38
-0.023546698 -0.11511876 0.053155337 1.8907319e-38
-0.021826575 -0.11511876 0.053155337 2.0380646e-38
-0.020167748 -0.1143059 0.056195352 2.1762859e-38
-0.018452955 -0.1143059 0.056195352 2.1669588e-38
-0.016738163 -0.1143059 0.056195352 2.074656e-38
-0.015023369 -0.1143059 0.056195352 2.0193035e-38
-0.013308577 -0.1143059 0.056195352 1.7613723e-38
-0.011593783 -0.1143059 0.056195352 1.8447452e-38
-0.0098789912 -0.1143059 0.056195352 6.3705593e-39
-0.0082591418 -0.11352326 0.059122417 3.5103592e-39
-0.0065494832 -0.11352326 0.059122417 7.4306093e-40
-0.0048398208 -0.11352326 0.059122417 9.6246784e-41
-0.0031301621 -0.11352326 0.059122417 2.0312732e-39
-0.0014204998 -0.11352326 0.059122417 2.5830065e-39
0.00028916262 -0.11352326 0.059122417 4.5121811e-43
0.0019988213 -0.11352326 0.059122417 9.2134113e-40
0.0037084837 -0.11352326 0.059122417 9.5288296e-44
0.0054181423 -0.11352326 0.059122417 8.2983634e-40
0.0075583849 -0.11591102 0.05019227 1.5582554e-38
0.0095340852 -0.11725079 0.045181606 1.6228974e-38
0.011423955 -0.11805601 0.042170081 2.0102614e-38
0.013325369 -0.11886616 0.039140198 2.2775202e-38
0.015070064 -0.11886616 0.039140198 1.9364333e-38
0.016982848 -0.11965488 0.036190424 1.9916417e-38
0.019088211 -0.12127317 0.030138109 2.1574493e-38
0.021030368 -0.12207626 0.027134631 2.3418047e-38
0.022977898 -0.12285714 0.024214122 2.2957061e-38
0.024943257 -0.12366976 0.021175001 2.2127638e-38
0.026920484 -0.1244873 0.018117521 2.2773011e-38
0.028902734 -0.12528224 0.015144441 2.0835859e-38
0.030896621 -0.12608187 0.012153838 8.9430153e-39
0.032902248 -0.12688623 0.0091455914 3.503504e-39
0.034919709 -0.12769531 0.006119702 4.7042248e-39
0.036941275 -0.12848105 0.0031810738 4.6149144e-39
0.038982511 -0.1292996 0.00011966005 4.7092793e-39
0.041102432 -0.13035102 -0.0038125776 2.2225294e-39
0.043643571 -0.13276802 -0.01285198 6.5879385e-40
0.04571905 -0.13355388 -0.015791085 1.3073736e-39
0.048395269 -0.13623528 -0.025819447 6.3788409e-39
0.050510027 -0.13704078 -0.028831866 4.8093572e-39
0.052724816 -0.13812189 -0.032875206 7.0188237e-39
0.054595776 -0.13812189 -0.032875206 8.3081431e-39
0.056732155 -0.13890781 -0.03581455 2.6827691e-39
0.058608271 -0.13890781 -0.03581455 4.6896975e-40
0.060772322 -0.13972856 -0.03888407 6.4605969e-39
0.063036554 -0.14079951 -0.042889383 8.486754e-39
0.065216504 -0.1416003 -0.045884278 6.2726211e-39
0.068091802 -0.14424954 -0.055792358 8.2998376e-39
0.070407666 -0.14532293 -0.059806731 1.4477647e-38
0.072642766 -0.14614908 -0.06289652 1.4477624e-38
0.074978106 -0.14720438 -0.066843301 9.7756501e-39
0.076908626 -0.14720438 -0.066843301 7.0094505e-39
0.079267822 -0.14826734 -0.070818692 3.9666401e-39
-0.098128267 -0.12787388 0.012153838 1.2540401e-38
-0.095838018 -0.12544595 0.021175001 1.2263106e-38
-0.094061814 -0.12544595 0.021175001 7.0076204e-39
-0.092443764 -0.12626885 0.018117521 3.9626899e-39
-0.090662204 -0.12626885 0.018117521 8.6880505e-44
-0.089168198 -0.12787388 0.012153838 1.4709122e-39
-0.087237231 -0.12706901 0.015144441 9.5844765e-39
-0.085317545 -0.12626885 0.018117521 1.31808e-38
-0.083535984 -0.12626885 0.018117521 1.189041e-38
-0.081754431 -0.12626885 0.018117521 1.2720171e-38
-0.079852261 -0.12544595 0.021175001 1.3457733e-38
-0.078076065 -0.12544595 0.021175001 1.3550284e-38
-0.076299869 -0.12544595 0.021175001 1.4288917e-38
-0.074419767 -0.12462802 0.024214122 1.4842796e-38
-0.072648898 -0.12462802 0.024214122 1.0971294e-38
-0.070878029 -0.12462802 0.024214122 8.7582443e-39
-0.069107167 -0.12462802 0.024214122 3.2229865e-44
-0.067256927 -0.12384202 0.027134631 6.4760028e-40
-0.065491185 -0.12384202 0.027134631 6.4869329e-40
-0.063654341 -0.12303366 0.030138109 6.4869049e-40
-0.061893865 -0.12303366 0.030138109 8.3415514e-40
-0.060133383 -0.12303366 0.030138109 4.0315357e-42
-0.058317937 -0.1222301 0.033123825 4.0315357e-42
-0.056562692 -0.1222301 0.033123825 4.7546057e-42
-0.054807447 -0.1222301 0.033123825 7.4232385e-40
-0.053052202 -0.1222301 0.033123825 2.8063524e-40
-0.051262006 -0.12140475 0.036190424 3.7840748e-39
-0.049483694 -0.12061088 0.039140198 6.0886124e-39
-0.047738999 -0.12061088 0.039140198 8.2091119e-39
-0.045994304 -0.12061088 0.039140198 7.4715468e-39
-0.044249609 -0.12061088 0.039140198 3.4149363e-39
-0.042496942 -0.1197954 0.042170081 1.2947928e-39
-0.040757559 -0.1197954 0.042170081 9.2601026e-40
-0.039018176 -0.1197954 0.042170081 1.294441e-39
-0.03728671 -0.11898489 0.045181606 8.3418317e-40
-0.035552606 -0.11898489 0.045181606 4.6719711e-40
-0.033830959 -0.11843865 0.047211263 6.9308222e-42
-0.032100413 -0.11843865 0.047211263 1.0127745e-40
-0.030398615 -0.11763634 0.05019227 8.8609301e-39
-0.028673299 -0.11763634 0.05019227 1.4671039e-38
-0.026947979 -0.11763634 0.05019227 1.5777732e-38
-0.025266821 -0.11683889 0.053155337 1.6883706e-38
-0.023546698 -0.11683889 0.053155337 1.7621262e-38
-0.021826575 -0.11683889 0.053155337 1.9464449e-38
-0.020167748 -0.11602069 0.056195352 2.1122163e-38
-0.018452955 -0.11602069 0.056195352 1.8357385e-38
-0.016807446 -0.11523293 0.059122417 1.4300423e-38
-0.015097786 -0.11523293 0.059122417 1.4853247e-38
-0.013388125 -0.11523293 0.059122417 1.6235829e-38
-0.011678465 -0.11523293 0.059122417 1.6696822e-38
-0.0099688042 -0.11523293 0.059122417 4.433379e-39
-0.0082591418 -0.11523293 0.059122417 1.1129196e-39
-0.0065494832 -0.11523293 0.059122417 1.8881376e-40
-0.0048398208 -0.11523293 0.059122417 9.2565433e-40
-0.0031301621 -0.11523293 0.059122417 2.9532323e-39
-0.0014204998 -0.11523293 0.059122417 3.0439846e-39
0.00028916262 -0.11523293 0.059122417 5.5326346e-40
0.0021245573 -0.11602069 0.056195352 9.1932186e-41
0.0038393531 -0.11602069 0.056195352 7.9874012e-44
0.0055541452 -0.11602069 0.056195352 7.3799243e-40
0.0074155163 -0.11683889 0.053155337 1.7518651e-38
0.0095340852 -0.11898489 0.045181606 1.9363612e-38
0.011268189 -0.11898489 0.045181606 2.1577012e-38
0.013163341 -0.1197954 0.042170081 2.185432e-38
0.015070064 -0.12061088 0.039140198 2.2683359e-38
0.016814759 -0.12061088 0.039140198 2.2773388e-38
0.018912839 -0.1222301 0.033123825 2.3509873e-38
0.02084869 -0.12303366 0.030138109 2.3509876e-38
0.022977898 -0.12462802 0.024214122 2.3509869e-38
0.024943257 -0.12544595 0.021175001 2.2865556e-38
0.026920484 -0.12626885 0.018117521 2.3326184e-38
0.028902734 -0.12706901 0.015144441 2.0467433e-38
0.030689502 -0.12706901 0.015144441 8.1132519e-39
0.032902248 -0.12868352 0.0091455914 3.0432433e-39
0.034919709 -0.1294979 0.006119702 4.9818879e-39
0.036722295 -0.1294979 0.006119702 4.9844102e-39
0.038982511 -0.13111271 0.00011966005 3.7883978e-39
0.041102432 -0.13217102 -0.0038125776 2.5009114e-39
0.043643571 -0.13460387 -0.01285198 4.2547835e-39
0.04571905 -0.13539489 -0.015791085 4.5349409e-39
0.048145793 -0.13728772 -0.022824075 6.8398191e-39
0.050510027 -0.13890465 -0.028831866 4.163985e-39
0.052724816 -0.13999285 -0.032875206 6.9269812e-39
0.054595776 -0.13999285 -0.032875206 7.6631254e-39
0.056732155 -0.14078392 -0.03581455 1.3923834e-39
0.058608271 -0.14078392 -0.03581455 4.6896695e-40
0.060772322 -0.14161004 -0.03888407 7.7513357e-39
0.063036554 -0.14268802 -0.042889383 9.0399277e-39
0.06560006 -0.14455487 -0.049825814 5.3506648e-39
0.068091802 -0.14616071 -0.055792358 7.0090959e-39
0.070407666 -0.1472411 -0.059806731 1.0974213e-38
0.072642766 -0.14807267 -0.06289652 9.9596854e-39
0.074978106 -0.14913492 -0.066843301 5.3499067e-39
-0.097614206 -0.12722217 0.021175001 1.3370161e-38
-0.095838018 -0.12722217 0.021175001 1.318542e-38
-0.094061814 -0.12722217 0.021175001 6.8225102e-39
-0.092443764 -0.1280504 0.018117521 5.6211322e-39
-0.090662204 -0.1280504 0.018117521 2.5779786e-39
-0.089168198 -0.1296659 0.012153838 3.960197e-39
-0.087237231 -0.12885578 0.015144441 1.2441825e-38
-0.085450463 -0.12885578 0.015144441 1.6221823e-38
-0.083535984 -0.1280504 0.018117521 1.2165922e-38
-0.081628449 -0.12722217 0.021175001 1.1059218e-38
-0.079852261 -0.12722217 0.021175001 1.2258118e-38
-0.078076065 -0.12722217 0.021175001 1.2165921e-38
-0.076299869 -0.12722217 0.021175001 1.2167348e-38
-0.074419767 -0.12639888 0.024214122 1.2075855e-38
-0.072648898 -0.12639888 0.024214122 1.0140819e-38
-0.070878029 -0.12639888 0.024214122 7.1902054e-39
-0.069107167 -0.12639888 0.024214122 1.9361475e-39
-0.067336299 -0.12639888 0.024214122 1.2922424e-39
-0.065491185 -0.12560774 0.027134631 2.9497333e-42
-0.063725434 -0.12560774 0.027134631 9.2490323e-40
-0.061959691 -0.12560774 0.027134631 1.1103721e-39
-0.060133383 -0.12479414 0.030138109 8.3450406e-40
-0.058372907 -0.12479414 0.030138109 5.5791858e-40
-0.056562692 -0.12398534 0.033123825 8.3451527e-40
-0.054807447 -0.12398534 0.033123825 2.6022112e-42
-0.053011879 -0.12315463 0.036190424 4.7728226e-42
-0.051262006 -0.12315463 0.036190424 5.2595734e-39
-0.049483694 -0.12235557 0.039140198 7.2875269e-39
-0.047738999 -0.12235557 0.039140198 4.0606813e-39
-0.045994304 -0.12235557 0.039140198 4.1518007e-39
-0.044236325 -0.12153481 0.042170081 6.4566887e-39
-0.042496942 -0.12153481 0.042170081 4.4280233e-39
-0.040757559 -0.12153481 0.042170081 8.3239091e-40
-0.039018176 -0.12153481 0.042170081 6.4835558e-40
-0.03728671 -0.120719 0.045181606 1.294441e-39
-0.035552606 -0.120719 0.045181606 4.6575798e-40
-0.033830959 -0.12016918 0.047211263 5.5974867e-40
-0.032100413 -0.12016918 0.047211263 6.2035483e-42
-0.030369869 -0.12016918 0.047211263 3.9745631e-39
-0.028673299 -0.11936165 0.05019227 1.1260163e-38
-0.026947979 -0.11936165 0.05019227 1.4765743e-38
-0.025266821 -0.11855899 0.053155337 1.7349367e-38
-0.023546698 -0.11855899 0.053155337 1.7165688e-38
-0.021826575 -0.11855899 0.053155337 1.716748e-38
-0.020167748 -0.11773549 0.056195352 1.8366739e-38
-0.018452955 -0.11773549 0.056195352 1.6523555e-38
-0.016807446 -0.11694257 0.059122417 1.3297074e-38
-0.015097786 -0.11694257 0.059122417 1.2191091e-38
-0.013388125 -0.11694257 0.059122417 1.1450297e-38
-0.011678465 -0.11694257 0.059122417 1.2273598e-38
-0.0099688042 -0.11694257 0.059122417 2.0359437e-39
-0.0082591418 -0.11694257 0.059122417 4.0595617e-42
-0.0065494832 -0.11694257 0.059122417 4.4281031e-42
-0.0049141031 -0.11638273 0.061189089 1.4781134e-39
-0.0032080654 -0.11638273 0.061189089 3.228743e-39
-0.0014204998 -0.11694257 0.059122417 2.951789e-39
0.00028916262 -0.11694257 0.059122417 1.1064372e-39
0.0021245573 -0.11773549 0.056195352 9.2097259e-40
0.0038393531 -0.11773549 0.056195352 3.6743027e-40
0.0056953933 -0.11855899 0.053155337 1.1982447e-39
0.0074155163 -0.11855899 0.053155337 1.8071096e-38
0.0094326641 -0.12016918 0.047211263 1.9824221e-38
0.011268189 -0.120719 0.045181606 2.0470295e-38
0.013163341 -0.12153481 0.042170081 1.8534187e-38
0.015070064 -0.12235557 0.039140198 2.1760315e-38
0.016814759 -0.12235557 0.039140198 2.2680827e-38
0.018912839 -0.12398534 0.033123825 2.350987e-38
0.02084869 -0.12479414 0.030138109 2.2403527e-38
0.022977898 -0.12639888 0.024214122 2.3141089e-38
0.024943257 -0.12722217 0.021175001 2.2404227e-38
0.026920484 -0.1280504 0.018117521 2.1574834e-38
0.028902734 -0.12885578 0.015144441 1.8071431e-38
0.030689502 -0.12885578 0.015144441 5.5332162e-39
0.032902248 -0.13048081 0.0091455914 1.6621067e-39
0.034919709 -0.13130049 0.006119702 5.0747968e-39
0.036722295 -0.13130049 0.006119702 4.7088981e-39
0.038982511 -0.13292582 0.00011966005 1.3001878e-39
0.041102432 -0.13399105 -0.0038125776 1.7626219e-39
0.043643571 -0.13643973 -0.01285198 8.2188341e-39
0.04571905 -0.13723589 -0.015791085 8.2220473e-39
0.048145793 -0.13914107 -0.022824075 6.2855663e-39
0.050510027 -0.14076851 -0.028831866 3.4256941e-39
0.052724816 -0.14186381 -0.032875206 7.9414849e-39
0.054595776 -0.14186381 -0.032875206 8.9545718e-39
0.056732155 -0.14266007 -0.03581455 1.484928e-39
0.058608271 -0.14266007 -0.03581455 3.7677132e-40
0.061148025 -0.14457656 -0.042889383 7.6587841e-39
0.06332273 -0.14538784 -0.045884278 8.2098055e-39
0.06560006 -0.14645557 -0.049825814 3.691498e-39
0.068489484 -0.1491593 -0.059806731 3.3212707e-39
0.070719175 -0.1499963 -0.06289652 7.2853115e-39
0.072642766 -0.1499963 -0.06289652 7.6544429e-39
-0.097614206 -0.12899835 0.021175001 1.3277963e-38
-0.095838018 -0.12899835 0.021175001 1.3278332e-38
-0.094061814 -0.12899835 0.021175001 7.5607913e-39
-0.092443764 -0.12983195 0.018117521 5.2534259e-39
-0.090662204 -0.12983195 0.018117521 4.3296956e-39
-0.089168198 -0.13145791 0.012153838 3.4066673e-39
-0.087237231 -0.13064255 0.015144441 1.0967059e-38
-0.085317545 -0.12983195 0.018117521 1.1797158e-38
-0.083535984 -0.12983195 0.018117521 8.7550536e-39
-0.081628449 -0.12899835 0.021175001 1.1796435e-38
-0.079852261 -0.12899835 0.021175001 1.4470108e-38
-0.078076065 -0.12899835 0.021175001 1.5300223e-38
-0.076299869 -0.12899835 0.021175001 1.5485685e-38
-0.074419767 -0.12816976 0.024214122 1.5394195e-38
-0.072648898 -0.12816976 0.024214122 1.6225028e-38
-0.070878029 -0.12816976 0.024214122 1.4472955e-38
-0.069107167 -0.12816976 0.024214122 1.4197815e-38
-0.067336299 -0.12816976 0.024214122 1.3830485e-38
-0.06556543 -0.12816976 0.024214122 1.0881667e-38
-0.063725434 -0.1273735 0.027134631 1.1250447e-38
-0.061959691 -0.1273735 0.027134631 1.1251165e-38
-0.060133383 -0.12655462 0.030138109 1.2542986e-38
-0.058372907 -0.12655462 0.030138109 1.1990177e-38
-0.056612425 -0.12655462 0.030138109 9.59274e-39
-0.054807447 -0.12574057 0.033123825 3.5078368e-39
-0.053011879 -0.1249045 0.036190424 4.0613847e-39
-0.051262006 -0.1249045 0.036190424 8.4864261e-39
-0.049483694 -0.12410025 0.039140198 8.4860743e-39
-0.047738999 -0.12410025 0.039140198 1.8811451e-40
-0.045994304 -0.12410025 0.039140198 9.2460335e-40
-0.044236325 -0.12327419 0.042170081 8.7612319e-39
-0.042496942 -0.12327419 0.042170081 7.009152e-39
-0.040757559 -0.12327419 0.042170081 1.2008217e-39
-0.039018176 -0.12327419 0.042170081 2.6288359e-42
-0.03728671 -0.12245311 0.045181606 1.9405335e-39
-0.035552606 -0.12245311 0.045181606 6.4979191e-40
-0.033830959 -0.12189974 0.047211263 4.0581604e-42
-0.032100413 -0.12189974 0.047211263 6.5720898e-42
-0.030369869 -0.12189974 0.047211263 3.7714126e-40
-0.028673299 -0.12108697 0.05019227 4.5288117e-39
-0.026947979 -0.12108697 0.05019227 1.2368306e-38
-0.025266821 -0.12027912 0.053155337 1.5689855e-38
-0.023546698 -0.12027912 0.053155337 1.6706519e-38
-0.021826575 -0.12027912 0.053155337 1.6155859e-38
-0.020167748 -0.11945029 0.056195352 1.5788515e-38
-0.018517107 -0.11865224 0.059122417 1.6435324e-38
-0.016807446 -0.11865224 0.059122417 1.6621147e-38
-0.015097786 -0.11865224 0.059122417 1.3302487e-38
-0.013388125 -0.11865224 0.059122417 7.2125491e-39
-0.011678465 -0.11865224 0.059122417 6.4660031e-39
-0.0099688042 -0.11865224 0.059122417 5.6046193e-40
-0.0082591418 -0.11865224 0.059122417 3.7106383e-42
-0.0065494832 -0.11865224 0.059122417 5.5725016e-40
-0.0049141031 -0.11808877 0.061189089 1.2011734e-39
-0.0032080654 -0.11808877 0.061189089 2.490822e-39
-0.0014204998 -0.11865224 0.059122417 2.2138694e-39
0.00028916262 -0.11865224 0.059122417 1.1060799e-39
0.0019988213 -0.11865224 0.059122417 1.013171e-39
0.0037084837 -0.11865224 0.059122417 9.2024812e-40
0.0056953933 -0.12027912 0.053155337 3.6776798e-40
0.0074155163 -0.12027912 0.053155337 1.7516127e-38
0.0094326641 -0.12189974 0.047211263 1.9822423e-38
0.011268189 -0.12245311 0.045181606 2.2128019e-38
0.013163341 -0.12327419 0.042170081 2.194363e-38
0.015070064 -0.12410025 0.039140198 2.341804e-38
0.016814759 -0.12410025 0.039140198 2.1943628e-38
0.018912839 -0.12574057 0.033123825 2.1298261e-38
0.02084869 -0.12655462 0.030138109 1.8070706e-38
0.022977898 -0.12816976 0.024214122 1.8255454e-38
0.024943257 -0.12899835 0.021175001 2.0100794e-38
0.026920484 -0.12983195 0.018117521 1.8257246e-38
0.028902734 -0.13064255 0.015144441 1.5859829e-38
0.030689502 -0.13064255 0.015144441 4.2432046e-39
0.032902248 -0.1322781 0.0091455914 2.3078363e-39
0.034919709 -0.13310309 0.006119702 6.5506443e-39
0.036941275 -0.13390426 0.0031810738 5.9999887e-39
0.039282426 -0.13581105 -0.0038125776 1.9239408e-40
0.041336171 -0.13662781 -0.006808307 1.3005591e-39
0.043643571 -0.13827558 -0.01285198 1.2642059e-38
0.04571905 -0.1390769 -0.015791085 1.3012983e-38
0.048145793 -0.14099441 -0.022824075 7.2053646e-39
0.050510027 -0.14263238 -0.028831866 1.0278889e-39
0.052724816 -0.14373477 -0.032875206 7.5730569e-39
0.054595776 -0.14373477 -0.032875206 9.41518e-39
0.056732155 -0.14453618 -0.03581455 1.0239414e-39
0.059259512 -0.14646508 -0.042889383 4.2599473e-43
0.061428957 -0.1472816 -0.045884278 3.2333967e-39
0.06332273 -0.1472816 -0.045884278 3.41563e-39
0.065895267 -0.14918335 -0.052859452 7.4051477e-40
-0.097788431 -0.13161351 0.018117521 1.2633312e-38
-0.096006878 -0.13161351 0.018117521 1.0605732e-38
-0.094225325 -0.13161351 0.018117521 6.3636789e-39
-0.092443764 -0.13161351 0.018117521 4.1481531e-39
-0.090662204 -0.13161351 0.018117521 2.8560018e-39
-0.089168198 -0.13324992 0.012153838 2.8552914e-39
-0.087237231 -0.13242932 0.015144441 7.1877601e-39
-0.085317545 -0.13161351 0.018117521 6.9111564e-39
-0.083535984 -0.13161351 0.018117521 6.9115109e-39
-0.081628449 -0.13077454 0.021175001 6.3572665e-39
-0.079852261 -0.13077454 0.021175001 9.0309426e-39
-0.078076065 -0.13077454 0.021175001 9.8607005e-39
-0.076299869 -0.13077454 0.021175001 1.0414945e-38
-0.074419767 -0.12994061 0.024214122 1.0876269e-38
-0.072648898 -0.12994061 0.024214122 1.3366267e-38
-0.070878029 -0.12994061 0.024214122 1.2536509e-38
-0.069107167 -0.12994061 0.024214122 1.4842482e-38
-0.067336299 -0.12994061 0.024214122 1.5581486e-38
-0.06556543 -0.12994061 0.024214122 1.3646097e-38
-0.063725434 -0.12913923 0.027134631 1.4015595e-38
-0.061959691 -0.12913923 0.027134631 1.3463142e-38
-0.060193941 -0.12913923 0.027134631 1.5492167e-38
-0.058372907 -0.12831511 0.030138109 1.6230457e-38
-0.056612425 -0.12831511 0.030138109 1.3649348e-38
-0.054807447 -0.12749584 0.033123825 6.3659041e-39
-0.053052202 -0.12749584 0.033123825 6.2740827e-39
-0.051262006 -0.12665437 0.036190424 7.748861e-39
-0.04951214 -0.12665437 0.036190424 7.1031399e-39
-0.047738999 -0.12584494 0.039140198 8.4218038e-43
-0.045994304 -0.12584494 0.039140198 2.2869191e-42
-0.044249609 -0.12584494 0.039140198 8.1158625e-39
-0.042496942 -0.12501357 0.042170081 8.1154995e-39
-0.040757559 -0.12501357 0.042170081 4.9815642e-39
-0.039018176 -0.12501357 0.042170081 2.1252919e-39
-0.03728671 -0.12418722 0.045181606 1.2044132e-39
-0.035552606 -0.12418722 0.045181606 9.2710327e-40
-0.033830959 -0.12363027 0.047211263 1.1826959e-42
-0.032100413 -0.12363027 0.047211263 5.1385615e-42
-0.030369869 -0.12363027 0.047211263 2.2504853e-42
-0.028673299 -0.12281232 0.05019227 5.4776757e-42
-0.026947979 -0.12281232 0.05019227 6.4638437e-39
-0.025222661 -0.12281232 0.05019227 1.1077211e-38
-0.023546698 -0.12199925 0.053155337 1.4214374e-38
-0.021826575 -0.12199925 0.053155337 1.5600542e-38
-0.020167748 -0.12116508 0.056195352 1.5602703e-38
-0.018517107 -0.12036191 0.059122417 1.5235364e-38
-0.016856365 -0.1197948 0.061189089 1.4866946e-38
-0.015150327 -0.1197948 0.061189089 1.2101445e-38
-0.01344429 -0.1197948 0.061189089 6.8419855e-39
-0.011738254 -0.1197948 0.061189089 1.5785669e-39
-0.010032216 -0.1197948 0.061189089 5.8574276e-42
-0.0083261784 -0.1197948 0.061189089 4.4365109e-42
-0.0066201407 -0.1197948 0.061189089 8.3348392e-40
-0.0049141031 -0.1197948 0.061189089 9.2495087e-40
-0.0032080654 -0.1197948 0.061189089 2.2149596e-39
-0.0014204998 -0.12036191 0.059122417 1.6607012e-39
0.00028916262 -0.12036191 0.059122417 4.6071611e-40
0.0019988213 -0.12036191 0.059122417 6.4403537e-40
0.0037084837 -0.12036191 0.059122417 2.7559897e-40
0.0055541452 -0.12116508 0.056195352 6.1657132e-44
0.0074155163 -0.12199925 0.053155337 1.7699805e-38
0.0094326641 -0.12363027 0.047211263 1.9821356e-38
0.011268189 -0.12418722 0.045181606 2.1850364e-38
0.013163341 -0.12501357 0.042170081 2.3417691e-38
0.015070064 -0.12584494 0.039140198 2.2311705e-38
0.016814759 -0.12584494 0.039140198 2.2129112e-38
0.018912839 -0.12749584 0.033123825 2.0008981e-38
0.02084869 -0.12831511 0.030138109 1.7243126e-38
0.022977898 -0.12994061 0.024214122 1.6228977e-38
0.024943257 -0.13077454 0.021175001 1.9364696e-38
0.026920484 -0.13161351 0.018117521 1.5031506e-38
0.028902734 -0.13242932 0.015144441 1.3002866e-38
0.030689502 -0.13242932 0.015144441 3.5067326e-39
0.032902248 -0.13407536 0.0091455914 2.7702578e-39
0.034919709 -0.13490568 0.006119702 7.104174e-39
0.036941275 -0.13571201 0.0031810738 6.7364649e-39
0.039282426 -0.13763104 -0.0038125776 3.3112683e-42
0.041336171 -0.13845308 -0.006808307 6.519443e-40
0.043643571 -0.14011143 -0.01285198 1.5311412e-38
0.04571905 -0.14091791 -0.015791085 1.6603211e-38
0.048145793 -0.14284773 -0.022824075 8.8609301e-39
0.050510027 -0.14449625 -0.028831866 1.5796221e-39
0.052724816 -0.14560573 -0.032875206 8.1258649e-39
0.054595776 -0.14560573 -0.032875206 9.9679825e-39
0.057009317 -0.14725454 -0.03888407 1.6685807e-39
0.059259512 -0.14835359 -0.042889383 4.2599473e-43
0.061428957 -0.14917539 -0.045884278 8.3559427e-40
0.06332273 -0.14917539 -0.045884278 1.2944088e-39
-0.097788431 -0.13339506 0.018117521 1.1065985e-38
-0.096006878 -0.13339506 0.018117521 1.0698643e-38
-0.094225325 -0.13339506 0.018117521 6.2729168e-39
-0.092597544 -0.13421609 0.015144441 4.2421424e-39
-0.090810776 -0.13421609 0.015144441 8.2676609e-44
-0.089024 -0.13421609 0.015144441 1.1042905e-39
-0.087237231 -0.13421609 0.015144441 9.5288296e-44
-0.085317545 -0.13339506 0.018117521 7.7071416e-44
-0.083535984 -0.13339506 0.018117521 6.4329549e-40
-0.081628449 -0.13255073 0.021175001 9.1845445e-40
-0.079852261 -0.13255073 0.021175001 1.9322533e-39
-0.078076065 -0.13255073 0.021175001 9.1846006e-40
-0.076299869 -0.13255073 0.021175001 8.2661756e-40
-0.074419767 -0.1317115 0.024214122 1.012078e-39
-0.072648898 -0.1317115 0.024214122 2.7641495e-39
-0.070878029 -0.1317115 0.024214122 1.5652518e-39
-0.069107167 -0.1317115 0.024214122 2.9489051e-39
-0.067336299 -0.1317115 0.024214122 5.2541476e-39
-0.06556543 -0.1317115 0.024214122 5.9005932e-39
-0.063725434 -0.13090499 0.027134631 7.0076568e-39
-0.061959691 -0.13090499 0.027134631 6.4552019e-39
-0.060193941 -0.13090499 0.027134631 7.8388566e-39
-0.058372907 -0.13007559 0.030138109 1.0697643e-38
-0.056612425 -0.13007559 0.030138109 1.1251185e-38
-0.054807447 -0.12925108 0.033123825 7.8403168e-39
-0.053052202 -0.12925108 0.033123825 7.6559381e-39
-0.051262006 -0.12840421 0.036190424 3.8766446e-39
-0.04951214 -0.12840421 0.036190424 2.1245731e-39
-0.047738999 -0.12758966 0.039140198 1.1210388e-43
-0.045994304 -0.12758966 0.039140198 1.8738864e-40
-0.044249609 -0.12758966 0.039140198 5.9957133e-39
-0.042496942 -0.12675296 0.042170081 7.9314586e-39
-0.040757559 -0.12675296 0.042170081 8.9470497e-39
-0.039018176 -0.12675296 0.042170081 6.552843e-39
-0.03728671 -0.12592132 0.045181606 6.5304292e-40
-0.035552606 -0.12592132 0.045181606 1.4813617e-39
-0.033830959 -0.12536083 0.047211263 2.8137933e-40
-0.032100413 -0.12536083 0.047211263 3.7078357e-42
-0.030369869 -0.12536083 0.047211263 3.7022305e-42
-0.028673299 -0.12453763 0.05019227 8.1135181e-43
-0.026947979 -0.12453763 0.05019227 5.590186e-40
-0.025266821 -0.12371938 0.053155337 3.7713566e-40
-0.023546698 -0.12371938 0.053155337 1.8551384e-39
-0.021826575 -0.12371938 0.053155337 4.43913e-39
-0.020167748 -0.12287988 0.056195352 6.7461815e-39
-0.018517107 -0.12207155 0.059122417 4.9948289e-39
-0.016856365 -0.12150083 0.061189089 1.2158969e-39
-0.015150327 -0.12150083 0.061189089 1.0919478e-40
-0.01344429 -0.12150083 0.061189089 1.2687356e-41
-0.011738254 -0.12150083 0.061189089 6.9308222e-42
-0.010032216 -0.12150083 0.061189089 4.422498e-42
-0.0083261784 -0.12150083 0.061189089 2.2841165e-42
-0.0066201407 -0.12150083 0.061189089 6.4873813e-40
-0.0049141031 -0.12150083 0.061189089 1.2015434e-39
-0.0032080654 -0.12150083 0.061189089 2.768139e-39
-0.0014204998 -0.12207155 0.059122417 1.5681497e-39
0.00028916262 -0.12207155 0.059122417 1.0229479e-43
0.0019988213 -0.12207155 0.059122417 1.1968546e-39
0.0037084837 -0.12207155 0.059122417 5.5111527e-40
0.0055541452 -0.12287988 0.056195352 1.6560041e-39
0.0074155163 -0.12371938 0.053155337 1.806752e-38
0.0094326641 -0.12536083 0.047211263 1.8990883e-38
0.011268189 -0.12592132 0.045181606 1.7792689e-38
0.013163341 -0.12675296 0.042170081 1.7146243e-38
0.015070064 -0.12758966 0.039140198 1.3921557e-38
0.016814759 -0.12758966 0.039140198 1.8073959e-38
0.018912839 -0.12925108 0.033123825 1.8536027e-38
0.02084869 -0.13007559 0.030138109 1.982678e-38
0.022977898 -0.1317115 0.024214122 1.8259464e-38
0.024943257 -0.13255073 0.021175001 1.7522968e-38
0.026920484 -0.13339506 0.018117521 8.7640275e-39
0.028902734 -0.13421609 0.015144441 5.1676987e-39
0.030689502 -0.13421609 0.015144441 3.6700007e-42
0.032688633 -0.13504194 0.012153838 3.2316017e-39
0.034699529 -0.13587265 0.0091455914 6.3666062e-39
0.036941275 -0.13751976 0.0031810738 6.2747595e-39
0.038982511 -0.13836516 0.00011966005 6.0255834e-44
0.041336171 -0.14027832 -0.006808307 2.9679501e-42
0.043643571 -0.14194728 -0.01285198 1.5953179e-38
0.04571905 -0.14275892 -0.015791085 1.8258402e-38
0.048145793 -0.14470108 -0.022824075 1.0332463e-38
0.050253861 -0.14552824 -0.025819447 5.1738125e-39
0.052724816 -0.14747669 -0.032875206 1.0338557e-38
0.054595776 -0.14747669 -0.032875206 1.1074679e-38
0.057009317 -0.14913605 -0.03888407 3.3284524e-39
-0.09795785 -0.13600285 0.015144441 1.0606086e-38
-0.096171081 -0.13600285 0.015144441 1.0976304e-38
-0.094384313 -0.13600285 0.015144441 6.3669047e-39
