# .PCD v0.7 - Point Cloud Data file format
VERSION 0.7
FIELDS x y z rgb
SIZE 4 4 4 4
TYPE F F F F
COUNT 1 1 1 1
WIDTH 931
HEIGHT 1
VIEWPOINT 0 0 0 1 0 0 0
POINTS 931
DATA ascii
-0.010407351 -0.10680611 -0.010560539 8.1256141e-39
-0.0085188299 -0.10680611 -0.010560539 6.0991207e-39
-0.0066303089 -0.10680611 -0.010560539 7.0221588e-39
-0.004613135 -0.1075124 -0.013555434 6.4704172e-39
-0.0025431365 -0.1084419 -0.01749697 6.1019892e-39
-0.00050150231 -0.10915731 -0.020530608 6.0090663e-39
0.0014045015 -0.10915731 -0.020530608 6.4689598e-39
0.0034570619 -0.10984896 -0.023463514 7.1128873e-39
0.0053682067 -0.10984896 -0.023463514 7.2954835e-39
0.0072793514 -0.10984896 -0.023463514 7.4777196e-39
0.0091904961 -0.10984896 -0.023463514 7.8443385e-39
0.011101641 -0.10984896 -0.023463514 8.3027845e-39
0.013248574 -0.11079563 -0.027477887 1.21739e-38
0.016016204 -0.11410724 -0.041520622 1.5031576e-38
0.01795901 -0.11410724 -0.041520622 1.7612661e-38
0.020608973 -0.11671309 -0.052570608 2.1023866e-38
0.022571158 -0.11671309 -0.052570608 2.2775199e-38
0.024258118 -0.11575161 -0.048493531 2.3049972e-38
0.026009072 -0.11505674 -0.045546915 2.3326196e-38
0.027958941 -0.11505674 -0.045546915 2.350988e-38
0.029908802 -0.11505674 -0.045546915 2.2956715e-38
-0.036899321 -0.10774307 -0.0065552257 1.3369437e-38
-0.035107374 -0.10631551 -0.00054636225 1.4199198e-38
-0.03323641 -0.10631551 -0.00054636225 1.650481e-38
-0.031365447 -0.10631551 -0.00054636225 2.010044e-38
-0.029494483 -0.10631551 -0.00054636225 2.0561421e-38
-0.027623519 -0.10631551 -0.00054636225 2.0745812e-38
-0.019965831 -0.10774307 -0.0065552257 2.1394799e-38
-0.018084332 -0.10774307 -0.0065552257 1.125514e-38
-0.016072914 -0.10869466 -0.010560539 9.6889181e-39
-0.014184393 -0.10869466 -0.010560539 9.598547e-39
-0.012295872 -0.10869466 -0.010560539 8.9550076e-39
-0.010407351 -0.10869466 -0.010560539 8.772794e-39
-0.0085188299 -0.10869466 -0.010560539 5.8243401e-39
-0.0066303089 -0.10869466 -0.010560539 6.0105292e-39
-0.004613135 -0.10940616 -0.013555434 6.3796607e-39
-0.0025431365 -0.11034258 -0.01749697 5.9193902e-39
-0.00050150231 -0.11106332 -0.020530608 6.6558622e-39
0.0014045015 -0.11106332 -0.020530608 7.8525991e-39
0.0034570619 -0.11176009 -0.023463514 9.4174039e-39
0.0053682067 -0.11176009 -0.023463514 1.1627941e-38
0.0072793514 -0.11176009 -0.023463514 1.337713e-38
0.0091904961 -0.11176009 -0.023463514 1.3744472e-38
0.011101641 -0.11176009 -0.023463514 1.3466813e-38
0.013012785 -0.11176009 -0.023463514 1.4480232e-38
0.014923926 -0.11176009 -0.023463514 1.5676958e-38
0.017277259 -0.11344786 -0.030567672 1.6875476e-38
0.019200858 -0.11344786 -0.030567672 1.8258019e-38
0.022303086 -0.11770664 -0.048493531 1.8994483e-38
0.024258118 -0.11770664 -0.048493531 2.0007542e-38
0.026009072 -0.11700659 -0.045546915 2.1850367e-38
0.027958941 -0.11700659 -0.045546915 2.1665976e-38
0.029908802 -0.11700659 -0.045546915 2.1481229e-38
-0.036899321 -0.10962458 -0.0065552257 1.9547266e-38
-0.035107374 -0.10818647 -0.00054636225 1.7703353e-38
-0.03323641 -0.10818647 -0.00054636225 1.9178846e-38
-0.031439885 -0.10721879 0.0034969784 2.120715e-38
-0.029576011 -0.10721879 0.0034969784 2.2590087e-38
-0.027712137 -0.10721879 0.0034969784 2.3142544e-38
-0.025682982 -0.10888995 -0.0034857057 2.3142544e-38
-0.023806866 -0.10888995 -0.0034857057 2.3142544e-38
-0.021930749 -0.10888995 -0.0034857057 2.2775202e-38
-0.020054633 -0.10888995 -0.0034857057 2.2132353e-38
-0.018178515 -0.10888995 -0.0034857057 1.5036593e-38
-0.016072914 -0.11058317 -0.010560539 9.1378953e-39
-0.014321335 -0.10962458 -0.0065552257 8.4014345e-39
-0.012439836 -0.10962458 -0.0065552257 9.0482725e-39
-0.010558337 -0.10962458 -0.0065552257 7.9441011e-39
-0.0085188299 -0.11058317 -0.010560539 6.6555273e-39
-0.0066303089 -0.11058317 -0.010560539 6.5644093e-39
-0.0047417842 -0.11058317 -0.010560539 5.6428019e-39
-0.0027193613 -0.11129995 -0.013555434 6.2877972e-39
-0.00064245239 -0.11224325 -0.01749697 8.038061e-39
0.001258228 -0.11224325 -0.01749697 9.6946943e-39
0.0033105053 -0.11296929 -0.020530608 1.1075108e-38
0.0052165054 -0.11296929 -0.020530608 1.3285642e-38
0.0069602802 -0.11224325 -0.01749697 1.5218862e-38
0.0088609643 -0.11224325 -0.01749697 1.5402892e-38
0.010761645 -0.11224325 -0.01749697 1.5310698e-38
0.012662333 -0.11224325 -0.01749697 1.5956057e-38
0.014746521 -0.11296929 -0.020530608 1.5954264e-38
0.016835075 -0.11367123 -0.023463514 1.5492554e-38
0.019003127 -0.114632 -0.027477887 1.5768049e-38
0.020921309 -0.114632 -0.027477887 1.668855e-38
0.024258118 -0.11966167 -0.048493531 1.8346978e-38
0.026009072 -0.11895646 -0.045546915 2.0283072e-38
0.027958941 -0.11895646 -0.045546915 2.249539e-38
-0.037031505 -0.10908265 0.0034969784 2.2958867e-38
-0.035167634 -0.10908265 0.0034969784 2.2497892e-38
-0.03330376 -0.10908265 0.0034969784 2.2775199e-38
-0.031439885 -0.10908265 0.0034969784 2.3142544e-38
-0.029576011 -0.10908265 0.0034969784 2.2958873e-38
-0.027712137 -0.10908265 0.0034969784 2.2774125e-38
-0.025752557 -0.11005743 -0.00054636225 2.268193e-38
-0.023881594 -0.11005743 -0.00054636225 2.2958514e-38
-0.02201063 -0.11005743 -0.00054636225 2.2775202e-38
-0.020139668 -0.11005743 -0.00054636225 2.2132353e-38
-0.018178515 -0.11076607 -0.0034857057 2.0200579e-38
-0.016202834 -0.11150609 -0.0065552257 1.5775602e-38
-0.01442628 -0.11076607 -0.0034857057 1.1721175e-38
-0.012550164 -0.11076607 -0.0034857057 1.0708849e-38
-0.010558337 -0.11150609 -0.0065552257 1.1171642e-38
-0.0086768381 -0.11150609 -0.0065552257 1.1634408e-38
-0.0067953393 -0.11150609 -0.0065552257 1.2280485e-38
-0.0047417842 -0.11247168 -0.010560539 1.2280126e-38
-0.0027193613 -0.11319371 -0.013555434 1.2279768e-38
-0.00082559139 -0.11319371 -0.013555434 1.2277248e-38
0.0010681823 -0.11319371 -0.013555434 1.1997776e-38
0.0031589121 -0.11414395 -0.01749697 1.2640624e-38
0.0050595962 -0.11414395 -0.01749697 1.4573493e-38
0.0069602802 -0.11414395 -0.01749697 1.5216707e-38
0.0088609643 -0.11414395 -0.01749697 1.4018164e-38
0.010761645 -0.11414395 -0.01749697 1.3835568e-38
0.012662333 -0.11414395 -0.01749697 1.5495445e-38
0.014563013 -0.11414395 -0.01749697 1.6508146e-38
0.016652521 -0.1148753 -0.020530608 1.5861351e-38
0.018746216 -0.11558239 -0.023463514 1.5030507e-38
0.020657364 -0.11558239 -0.023463514 1.5121612e-38
0.022568505 -0.11558239 -0.023463514 1.6964432e-38
0.024757672 -0.11655019 -0.027477887 1.9545893e-38
-0.035167634 -0.11094652 0.0034969784 2.2958873e-38
-0.033353936 -0.11021499 0.0065093972 2.2867037e-38
-0.031495344 -0.11021499 0.0065093972 2.2683007e-38
-0.029576011 -0.11094652 0.0034969784 2.203836e-38
-0.027712137 -0.11094652 0.0034969784 2.1761054e-38
-0.025752557 -0.11192839 -0.00054636225 2.185325e-38
-0.023881594 -0.11192839 -0.00054636225 2.2314228e-38
-0.02201063 -0.11192839 -0.00054636225 2.2683366e-38
-0.020139668 -0.11192839 -0.00054636225 2.1396234e-38
-0.018178515 -0.11264218 -0.0034857057 2.1673176e-38
-0.016202834 -0.11338757 -0.0065552257 2.0385326e-38
-0.01442628 -0.11264218 -0.0034857057 1.5869942e-38
-0.012550164 -0.11264218 -0.0034857057 1.3843098e-38
-0.010558337 -0.11338757 -0.0065552257 1.3475772e-38
-0.0086768381 -0.11338757 -0.0065552257 1.3293545e-38
-0.0067953393 -0.11338757 -0.0065552257 1.3939264e-38
-0.0049138404 -0.11338757 -0.0065552257 1.5966819e-38
-0.0028532632 -0.1143602 -0.010560539 1.6241967e-38
-0.00082559139 -0.11508749 -0.013555434 1.4856901e-38
0.0010681823 -0.11508749 -0.013555434 1.3102321e-38
0.002961956 -0.11508749 -0.013555434 1.356006e-38
0.0048557259 -0.11508749 -0.013555434 1.5585487e-38
0.0067494996 -0.11508749 -0.013555434 1.5307105e-38
0.0086432733 -0.11508749 -0.013555434 1.3094766e-38
0.010537043 -0.11508749 -0.013555434 1.4111427e-38
0.012430813 -0.11508749 -0.013555434 1.5495801e-38
0.014324587 -0.11508749 -0.013555434 1.613937e-38
0.016652521 -0.11678131 -0.020530608 1.4939764e-38
0.018558521 -0.11678131 -0.020530608 1.3463557e-38
0.020464521 -0.11678131 -0.020530608 1.2633071e-38
0.022568505 -0.11749353 -0.023463514 1.3738689e-38
0.024757672 -0.11846836 -0.027477887 1.5766979e-38
0.026895266 -0.11921866 -0.030567672 1.8717216e-38
-0.035212528 -0.11207359 0.0065093972 2.0101898e-38
-0.033353936 -0.11207359 0.0065093972 2.0009703e-38
-0.031495344 -0.11207359 0.0065093972 2.0194094e-38
-0.029636752 -0.11207359 0.0065093972 2.0839463e-38
-0.027778158 -0.11207359 0.0065093972 2.1392637e-38
-0.025848262 -0.11281042 0.0034969784 2.1484833e-38
-0.023984389 -0.11281042 0.0034969784 2.1391918e-38
-0.022120515 -0.11281042 0.0034969784 2.1208243e-38
-0.02025664 -0.11281042 0.0034969784 2.1302951e-38
-0.018268704 -0.11379938 -0.00054636225 2.2224189e-38
-0.016302399 -0.1145183 -0.0034857057 2.1856847e-38
-0.01442628 -0.1145183 -0.0034857057 2.0016908e-38
-0.012550164 -0.1145183 -0.0034857057 1.8267729e-38
-0.010674048 -0.1145183 -0.0034857057 1.5411125e-38
-0.0087979324 -0.1145183 -0.0034857057 1.3291717e-38
-0.0069218129 -0.1145183 -0.0034857057 1.366051e-38
-0.0049138404 -0.11526908 -0.0065552257 1.5596249e-38
-0.0028532632 -0.11624874 -0.010560539 1.688625e-38
-0.00096474215 -0.11624874 -0.010560539 1.5869603e-38
0.00092377886 -0.11624874 -0.010560539 1.3378187e-38
0.0028122999 -0.11624874 -0.010560539 1.3835931e-38
0.0048557259 -0.11698125 -0.013555434 1.5769875e-38
0.0067494996 -0.11698125 -0.013555434 1.5491136e-38
0.0086432733 -0.11698125 -0.013555434 1.3279157e-38
0.010537043 -0.11698125 -0.013555434 1.3281667e-38
0.012430813 -0.11698125 -0.013555434 1.3558977e-38
0.014324587 -0.11698125 -0.013555434 1.3281318e-38
0.016463693 -0.11794533 -0.01749697 1.2451202e-38
0.018364381 -0.11794533 -0.01749697 1.2265739e-38
0.020265061 -0.11794533 -0.01749697 1.1712565e-38
0.022568505 -0.11940466 -0.023463514 1.1896588e-38
0.024479654 -0.11940466 -0.023463514 1.2726335e-38
0.026675854 -0.12038656 -0.027477887 1.493901e-38
0.028818864 -0.12114228 -0.030567672 1.8811207e-38
-0.035212528 -0.11393218 0.0065093972 1.8626414e-38
-0.033353936 -0.11393218 0.0065093972 1.8350546e-38
-0.031550489 -0.1131943 0.009504769 1.8903719e-38
-0.029697148 -0.1131943 0.009504769 2.037885e-38
-0.027778158 -0.11393218 0.0065093972 2.1576674e-38
-0.025919566 -0.11393218 0.0065093972 2.1300087e-38
-0.024137126 -0.1131943 0.009504769 2.0378488e-38
-0.022283787 -0.1131943 0.009504769 1.9548725e-38
-0.020430446 -0.1131943 0.009504769 2.1208595e-38
-0.0184852 -0.11393218 0.0065093972 2.2131267e-38
-0.016528893 -0.11467429 0.0034969784 2.2132353e-38
-0.014526777 -0.11567034 -0.00054636225 2.2040518e-38
-0.012655813 -0.11567034 -0.00054636225 2.1213998e-38
-0.01078485 -0.11567034 -0.00054636225 1.826664e-38
-0.0089138895 -0.11567034 -0.00054636225 1.522564e-38
-0.0070429258 -0.11567034 -0.00054636225 1.4488449e-38
-0.0050456971 -0.11639442 -0.0034857057 1.522603e-38
-0.0030323416 -0.11715056 -0.0065552257 1.7714922e-38
-0.0011508428 -0.11715056 -0.0065552257 1.7251799e-38
0.00073065609 -0.11715056 -0.0065552257 1.4484537e-38
0.0028122999 -0.11813726 -0.010560539 1.4297272e-38
0.0047008209 -0.11813726 -0.010560539 1.5033756e-38
0.0065893419 -0.11813726 -0.010560539 1.4478787e-38
0.0084778629 -0.11813726 -0.010560539 1.3371718e-38
0.010366384 -0.11813726 -0.010560539 1.3280599e-38
0.012254905 -0.11813726 -0.010560539 1.3189122e-38
0.014143426 -0.11813726 -0.010560539 1.2359005e-38
0.016218361 -0.11887501 -0.013555434 1.1805833e-38
0.018112134 -0.11887501 -0.013555434 1.1714361e-38
0.020005908 -0.11887501 -0.013555434 1.08846e-38
0.022165749 -0.119846 -0.01749697 9.5942155e-39
0.024276529 -0.12059332 -0.020530608 9.317979e-39
0.026390795 -0.12131582 -0.023463514 1.1714694e-38
0.028301943 -0.12131582 -0.023463514 1.6323382e-38
-0.035212528 -0.11579077 0.0065093972 1.8811527e-38
-0.033403829 -0.11504765 0.009504769 1.8350193e-38
-0.031605322 -0.1143087 0.012483213 1.8626779e-38
-0.029757204 -0.1143087 0.012483213 1.9917518e-38
-0.027909085 -0.1143087 0.012483213 2.0838756e-38
-0.026060967 -0.1143087 0.012483213 2.0562525e-38
-0.024212848 -0.1143087 0.012483213 1.9732764e-38
-0.02236473 -0.1143087 0.012483213 1.9363617e-38
-0.020516613 -0.1143087 0.012483213 1.9269977e-38
-0.018668495 -0.1143087 0.012483213 2.1114244e-38
-0.016723767 -0.11504765 0.009504769 2.2498618e-38
-0.014768016 -0.11579077 0.0065093972 2.2591531e-38
-0.012801144 -0.11653815 0.0034969784 2.2224189e-38
-0.010937274 -0.11653815 0.0034969784 2.1305834e-38
-0.0089138895 -0.1175413 -0.00054636225 1.8635057e-38
-0.0070429258 -0.1175413 -0.00054636225 1.540895e-38
-0.0051719621 -0.1175413 -0.00054636225 1.4856154e-38
-0.0031695813 -0.11827053 -0.0034857057 1.7436905e-38
-0.0011508428 -0.11903207 -0.0065552257 1.6975216e-38
0.00073065609 -0.11903207 -0.0065552257 1.4577449e-38
0.0026121549 -0.11903207 -0.0065552257 1.4022125e-38
0.0047008209 -0.12002577 -0.010560539 1.3468591e-38
0.0065893419 -0.12002577 -0.010560539 1.2729586e-38
0.0084778629 -0.12002577 -0.010560539 1.2728868e-38
0.010366384 -0.12002577 -0.010560539 1.2819269e-38
0.012019645 -0.11903207 -0.0065552257 1.3372087e-38
0.013901148 -0.11903207 -0.0065552257 1.3096216e-38
0.016031947 -0.12002577 -0.010560539 1.2452281e-38
0.017920468 -0.12002577 -0.010560539 1.1899825e-38
0.020005908 -0.1207688 -0.013555434 1.024102e-38
0.022165749 -0.12174667 -0.01749697 8.3056319e-39
0.024276529 -0.1224993 -0.020530608 7.7528141e-39
0.026182529 -0.1224993 -0.020530608 9.3186964e-39
0.028301943 -0.12322696 -0.023463514 1.4020305e-38
0.030213084 -0.12322696 -0.023463514 1.7062025e-38
-0.033403829 -0.11690097 0.009504769 1.7798101e-38
-0.031605322 -0.1161568 0.012483213 1.7798101e-38
-0.029757204 -0.1161568 0.012483213 1.844347e-38
-0.027997946 -0.11514379 0.016537759 1.8903369e-38
-0.026156938 -0.11514379 0.016537759 1.8626782e-38
-0.024315929 -0.11514379 0.016537759 1.890265e-38
-0.02236473 -0.1161568 0.012483213 1.9730969e-38
-0.020516613 -0.1161568 0.012483213 1.9543704e-38
-0.018668495 -0.1161568 0.012483213 2.0648969e-38
-0.016723767 -0.11690097 0.009504769 2.1942574e-38
-0.014870428 -0.11690097 0.009504769 2.185325e-38
-0.012909424 -0.11764936 0.0065093972 2.1947958e-38
-0.010937274 -0.11840202 0.0034969784 2.2132353e-38
-0.009073399 -0.11840202 0.0034969784 2.1673176e-38
-0.0072095245 -0.11840202 0.0034969784 1.6606403e-38
-0.0051719621 -0.11941226 -0.00054636225 1.4671036e-38
-0.0031695813 -0.12014665 -0.0034857057 1.6054349e-38
-0.0012934618 -0.12014665 -0.0034857057 1.513169e-38
0.00058265403 -0.12014665 -0.0034857057 1.3655855e-38
0.0024587698 -0.12014665 -0.0034857057 1.3748054e-38
0.0044936538 -0.12091358 -0.0065552257 1.2733183e-38
0.0063751526 -0.12091358 -0.0065552257 1.1810861e-38
0.0082566515 -0.12091358 -0.0065552257 1.3007612e-38
0.01013815 -0.12091358 -0.0065552257 1.1988803e-38
0.012019645 -0.12091358 -0.0065552257 1.2725292e-38
0.013901148 -0.12091358 -0.0065552257 1.2450133e-38
0.016031947 -0.12191428 -0.010560539 1.2083498e-38
0.017920468 -0.12191428 -0.010560539 1.1900893e-38
0.020005908 -0.12266256 -0.013555434 1.061123e-38
0.021899682 -0.12266256 -0.013555434 9.1364604e-39
0.02406643 -0.12364738 -0.01749697 8.5843684e-39
0.026182529 -0.12440531 -0.020530608 7.4762272e-39
0.028088536 -0.12440531 -0.020530608 1.0609797e-38
0.029994536 -0.12440531 -0.020530608 1.4664954e-38
0.031900536 -0.12440531 -0.020530608 1.6139346e-38
0.034348592 -0.12614109 -0.027477887 1.5492153e-38
0.036266774 -0.12614109 -0.027477887 1.5030431e-38
0.038184956 -0.12614109 -0.027477887 1.5213721e-38
0.040103137 -0.12614109 -0.027477887 1.4844938e-38
0.042021319 -0.12614109 -0.027477887 1.493608e-38
0.043591097 -0.12513812 -0.023463514 1.5581814e-38
0.045502245 -0.12513812 -0.023463514 1.5398851e-38
-0.027997946 -0.1169848 0.016537759 1.7152374e-38
-0.026156938 -0.1169848 0.016537759 1.6966904e-38
-0.024315929 -0.1169848 0.016537759 1.7796664e-38
-0.02247492 -0.1169848 0.016537759 1.9362911e-38
-0.020633912 -0.1169848 0.016537759 2.1019201e-38
-0.018668495 -0.11800493 0.012483213 1.8990175e-38
-0.016820379 -0.11800493 0.012483213 1.8622461e-38
-0.014870428 -0.11875431 0.009504769 1.8717166e-38
-0.013017084 -0.11875431 0.009504769 1.9272851e-38
-0.011050832 -0.11950795 0.0065093972 2.2132353e-38
-0.009073399 -0.12026589 0.0034969784 2.1948682e-38
-0.0072095245 -0.12026589 0.0034969784 1.6974099e-38
-0.00534565 -0.12026589 0.0034969784 1.5591547e-38
-0.0033009984 -0.12128322 -0.00054636225 1.5776679e-38
-0.0012934618 -0.12202276 -0.0034857057 1.4117891e-38
0.00058265403 -0.12202276 -0.0034857057 1.3288505e-38
0.0024587698 -0.12202276 -0.0034857057 1.4210107e-38
0.0043348856 -0.12202276 -0.0034857057 1.3195959e-38
0.0062110052 -0.12202276 -0.0034857057 1.2089611e-38
0.008087121 -0.12202276 -0.0034857057 1.374698e-38
0.0099632367 -0.12202276 -0.0034857057 1.4571709e-38
0.011839356 -0.12202276 -0.0034857057 1.4292615e-38
0.013715472 -0.12202276 -0.0034857057 1.2725997e-38
0.016031947 -0.12380283 -0.010560539 1.1528526e-38
0.017920468 -0.12380283 -0.010560539 1.0978219e-38
0.020005908 -0.12455635 -0.013555434 9.5967225e-39
0.021899682 -0.12455635 -0.013555434 7.6616862e-39
0.02406643 -0.12554805 -0.01749697 6.8315696e-39
0.026182529 -0.12631132 -0.020530608 6.7393782e-39
0.028088536 -0.12631132 -0.020530608 7.2921961e-39
0.029994536 -0.12631132 -0.020530608 1.1625028e-38
0.031900536 -0.12631132 -0.020530608 1.6048963e-38
0.03403537 -0.12704925 -0.023463514 1.6229727e-38
0.035946518 -0.12704925 -0.023463514 1.4569457e-38
0.037857667 -0.12704925 -0.023463514 1.5028975e-38
0.040103137 -0.12805928 -0.027477887 1.6042405e-38
0.041679949 -0.12704925 -0.023463514 1.5672566e-38
0.043591097 -0.12704925 -0.023463514 1.6503051e-38
0.045242548 -0.12631132 -0.020530608 1.6688147e-38
0.047148556 -0.12631132 -0.020530608 1.5767982e-38
-0.026156938 -0.11882581 0.016537759 1.6231139e-38
-0.024315929 -0.11882581 0.016537759 1.6231139e-38
-0.02247492 -0.11882581 0.016537759 1.8535311e-38
-0.020633912 -0.11882581 0.016537759 2.1206465e-38
-0.018668495 -0.11985306 0.012483213 1.9638422e-38
-0.016820379 -0.11985306 0.012483213 1.8164366e-38
-0.014870428 -0.12060766 0.009504769 1.7427873e-38
-0.013017084 -0.12060766 0.009504769 1.7889568e-38
-0.011050832 -0.12136655 0.0065093972 2.0103702e-38
-0.009073399 -0.12212978 0.0034969784 2.084271e-38
-0.0072095245 -0.12212978 0.0034969784 1.8815495e-38
-0.00534565 -0.12212978 0.0034969784 1.7802436e-38
-0.0033009984 -0.12315418 -0.00054636225 1.5222415e-38
-0.0014300346 -0.12315418 -0.00054636225 1.3840574e-38
0.00058265403 -0.12389888 -0.0034857057 1.28268e-38
0.0024587698 -0.12389888 -0.0034857057 1.3656932e-38
0.0043348856 -0.12389888 -0.0034857057 1.2550954e-38
0.0062110052 -0.12389888 -0.0034857057 1.2366933e-38
0.008087121 -0.12389888 -0.0034857057 1.2181821e-38
0.0099632367 -0.12389888 -0.0034857057 1.2916509e-38
0.011839356 -0.12389888 -0.0034857057 1.3097298e-38
0.013715472 -0.12389888 -0.0034857057 1.2356129e-38
0.015782643 -0.12467657 -0.0065552257 1.2171737e-38
0.017920468 -0.12569134 -0.010560539 8.8562988e-39
0.020005908 -0.12645011 -0.013555434 8.8577337e-39
0.021899682 -0.12645011 -0.013555434 7.935762e-39
0.02406643 -0.12744872 -0.01749697 7.5673298e-39
0.02596711 -0.12744872 -0.01749697 7.5691347e-39
0.027867798 -0.12744872 -0.01749697 5.3578829e-39
0.029994536 -0.12821732 -0.020530608 8.7702114e-39
0.031900536 -0.12821732 -0.020530608 1.4945867e-38
0.03403537 -0.12896039 -0.023463514 1.6691434e-38
0.035946518 -0.12896039 -0.023463514 1.5490341e-38
0.037857667 -0.12896039 -0.023463514 1.5305931e-38
0.040103137 -0.12997745 -0.027477887 1.539776e-38
0.041679949 -0.12896039 -0.023463514 1.5580005e-38
0.043336555 -0.12821732 -0.020530608 1.6870744e-38
0.045242548 -0.12821732 -0.020530608 1.6594513e-38
0.047148556 -0.12821732 -0.020530608 1.6688502e-38
-0.026156938 -0.12066682 0.016537759 1.6416251e-38
-0.024315929 -0.12066682 0.016537759 1.6877232e-38
-0.02247492 -0.12066682 0.016537759 1.7429326e-38
-0.020633912 -0.12066682 0.016537759 1.92718e-38
-0.018792901 -0.12066682 0.016537759 1.8442039e-38
-0.016820379 -0.12170117 0.012483213 1.7335686e-38
-0.014972258 -0.12170117 0.012483213 1.6322971e-38
-0.013124142 -0.12170117 0.012483213 1.6783946e-38
-0.011163745 -0.12246101 0.009504769 1.835199e-38
-0.0091922395 -0.12322514 0.0065093972 1.8537105e-38
-0.0073336437 -0.12322514 0.0065093972 1.7063058e-38
-0.00534565 -0.12399365 0.0034969784 1.7617322e-38
-0.0033009984 -0.12502514 -0.00054636225 1.605073e-38
-0.0014300346 -0.12502514 -0.00054636225 1.4761806e-38
0.00044092909 -0.12502514 -0.00054636225 1.2642043e-38
0.0023118928 -0.12502514 -0.00054636225 1.3011562e-38
0.0043348856 -0.12577499 -0.0034857057 1.2274367e-38
0.0062110052 -0.12577499 -0.0034857057 1.1814123e-38
0.008087121 -0.12577499 -0.0034857057 1.0707415e-38
0.0099632367 -0.12577499 -0.0034857057 1.1810875e-38
0.011839356 -0.12577499 -0.0034857057 1.0977869e-38
0.013715472 -0.12577499 -0.0034857057 1.1064664e-38
0.015782643 -0.12655805 -0.0065552257 1.2263213e-38
0.017664146 -0.12655805 -0.0065552257 9.5002375e-39
0.019808989 -0.12757985 -0.010560539 8.4878792e-39
0.021899682 -0.1283439 -0.013555434 9.0406704e-39
0.023793455 -0.1283439 -0.013555434 1.1070401e-38
0.02596711 -0.12934943 -0.01749697 9.043899e-39
0.027867798 -0.12934943 -0.01749697 5.4507974e-39
0.029994536 -0.13012333 -0.020530608 6.9284624e-39
0.031900536 -0.13012333 -0.020530608 1.3103761e-38
0.033806533 -0.13012333 -0.020530608 1.6691798e-38
0.03571254 -0.13012333 -0.020530608 1.5766934e-38
0.037857667 -0.13087155 -0.023463514 1.5121185e-38
0.040103137 -0.13189565 -0.027477887 1.5489959e-38
0.041679949 -0.13087155 -0.023463514 1.5488883e-38
0.043336555 -0.13012333 -0.020530608 1.788525e-38
0.04497394 -0.12934943 -0.01749697 1.7332795e-38
0.046874627 -0.12934943 -0.01749697 1.6042777e-38
-0.024315929 -0.12250783 0.016537759 1.6600648e-38
-0.02247492 -0.12250783 0.016537759 1.5586496e-38
-0.020633912 -0.12250783 0.016537759 1.7152024e-38
-0.018792901 -0.12250783 0.016537759 1.7705553e-38
-0.016951893 -0.12250783 0.016537759 1.6967985e-38
-0.015110884 -0.12250783 0.016537759 1.6046026e-38
-0.013124142 -0.1235493 0.012483213 1.6507362e-38
-0.011276022 -0.1235493 0.012483213 1.7060896e-38
-0.0091922395 -0.12508373 0.0065093972 1.6600997e-38
-0.0073336437 -0.12508373 0.0065093972 1.5956354e-38
-0.00534565 -0.12585752 0.0034969784 1.6142192e-38
-0.0033009984 -0.1268961 -0.00054636225 1.5866339e-38
-0.0014300346 -0.1268961 -0.00054636225 1.5222063e-38
0.00044092909 -0.1268961 -0.00054636225 1.245729e-38
0.0023118928 -0.1268961 -0.00054636225 1.236547e-38
0.0043348856 -0.12765111 -0.0034857057 1.1628995e-38
0.0062110052 -0.12765111 -0.0034857057 1.1352782e-38
0.008087121 -0.12765111 -0.0034857057 9.876573e-39
0.0099632367 -0.12765111 -0.0034857057 1.0335382e-38
0.011839356 -0.12765111 -0.0034857057 9.778604e-39
0.013715472 -0.12765111 -0.0034857057 1.0327455e-38
0.015782643 -0.12843956 -0.0065552257 1.2354687e-38
0.017664146 -0.12843956 -0.0065552257 1.0514388e-38
0.019808989 -0.1294684 -0.010560539 8.6726264e-39
0.021899682 -0.13023765 -0.013555434 8.5796895e-39
0.023793455 -0.13023765 -0.013555434 1.0425031e-38
0.025687221 -0.13023765 -0.013555434 9.7814641e-39
0.027867798 -0.1312501 -0.01749697 5.4507974e-39
0.029768478 -0.1312501 -0.01749697 4.9927171e-39
0.031900536 -0.13202934 -0.020530608 1.1167652e-38
0.033806533 -0.13202934 -0.020530608 1.6783994e-38
0.03571254 -0.13202934 -0.020530608 1.6597055e-38
0.037857667 -0.13278268 -0.023463514 1.5122264e-38
0.040103137 -0.13381381 -0.027477887 1.5122615e-38
0.041679949 -0.13278268 -0.023463514 1.4937148e-38
0.043336555 -0.13202934 -0.020530608 1.7057647e-38
0.04497394 -0.1312501 -0.01749697 1.6781058e-38
0.046874627 -0.1312501 -0.01749697 1.6136767e-38
-0.022554794 -0.12358873 0.019476864 1.4480511e-38
-0.02071894 -0.12358873 0.019476864 1.5493224e-38
-0.018792901 -0.12434883 0.016537759 1.7060547e-38
-0.016951893 -0.12434883 0.016537759 1.6783957e-38
-0.015110884 -0.12434883 0.016537759 1.5954552e-38
-0.013124142 -0.1253974 0.012483213 1.6599919e-38
-0.011276022 -0.1253974 0.012483213 1.6508802e-38
-0.0093104057 -0.12616767 0.009504769 1.5955989e-38
-0.0074570663 -0.12616767 0.009504769 1.6325137e-38
-0.00534565 -0.12772138 0.0034969784 1.4574866e-38
-0.0033009984 -0.12876706 -0.00054636225 1.4852187e-38
-0.0014300346 -0.12876706 -0.00054636225 1.5037672e-38
0.00044092909 -0.12876706 -0.00054636225 1.2733874e-38
0.0023118928 -0.12876706 -0.00054636225 1.2088881e-38
0.0043348856 -0.12952723 -0.0034857057 1.0706677e-38
0.0062110052 -0.12952723 -0.0034857057 1.0706688e-38
0.0079247802 -0.12876706 -0.00054636225 9.8762086e-39
0.009795744 -0.12876706 -0.00054636225 1.0242462e-38
0.011666704 -0.12876706 -0.00054636225 1.0331052e-38
0.013715472 -0.12952723 -0.0034857057 1.0511126e-38
0.015591588 -0.12952723 -0.0034857057 1.1248695e-38
0.017664146 -0.13032107 -0.0065552257 1.0514744e-38
0.019808989 -0.13135691 -0.010560539 9.2257974e-39
0.021899682 -0.13213144 -0.013555434 8.3952982e-39
0.023793455 -0.13213144 -0.013555434 8.3967261e-39
0.025687221 -0.13213144 -0.013555434 9.043899e-39
0.027867798 -0.13315077 -0.01749697 5.2664061e-39
0.029768478 -0.13315077 -0.01749697 3.7019783e-39
0.031900536 -0.13393532 -0.020530608 8.8631245e-39
0.033806533 -0.13393532 -0.020530608 1.6047147e-38
0.03571254 -0.13393532 -0.020530608 1.7795599e-38
0.037857667 -0.13469382 -0.023463514 1.5767996e-38
0.040103137 -0.13573201 -0.027477887 1.4662356e-38
0.041679949 -0.13469382 -0.023463514 1.4939306e-38
0.043336555 -0.13393532 -0.020530608 1.5585031e-38
0.045242548 -0.13393532 -0.020530608 1.5768701e-38
0.047148556 -0.13393532 -0.020530608 1.7797005e-38
-0.022554794 -0.12542458 0.019476864 1.4388677e-38
-0.02071894 -0.12542458 0.019476864 1.411173e-38
-0.018792901 -0.12618984 0.016537759 1.5862728e-38
-0.016951893 -0.12618984 0.016537759 1.5954922e-38
-0.015110884 -0.12618984 0.016537759 1.5309909e-38
-0.013124142 -0.12724553 0.012483213 1.5770881e-38
-0.011276022 -0.12724553 0.012483213 1.5679405e-38
-0.0093104057 -0.12802102 0.009504769 1.5495013e-38
-0.0074570663 -0.12802102 0.009504769 1.5957433e-38
-0.00534565 -0.12958528 0.0034969784 1.4298279e-38
-0.0034817755 -0.12958528 0.0034969784 1.4114978e-38
-0.0014300346 -0.13063805 -0.00054636225 1.5129144e-38
0.00044092909 -0.13063805 -0.00054636225 1.3747303e-38
0.0023118928 -0.13063805 -0.00054636225 1.2365102e-38
0.0041828528 -0.13063805 -0.00054636225 9.507052e-39
0.0060538165 -0.13063805 -0.00054636225 9.4155836e-39
0.0079247802 -0.13063805 -0.00054636225 9.9676784e-39
0.009795744 -0.13063805 -0.00054636225 1.0334655e-38
0.011666704 -0.13063805 -0.00054636225 1.0607996e-38
0.013715472 -0.13140334 -0.0034857057 1.0602598e-38
0.015591588 -0.13140334 -0.0034857057 1.0141266e-38
0.017664146 -0.13220255 -0.0065552257 9.7764572e-39
0.019808989 -0.13324542 -0.010560539 8.6722606e-39
0.021899682 -0.1340252 -0.013555434 8.8559134e-39
0.023793455 -0.1340252 -0.013555434 9.9633288e-39
0.02596711 -0.13505147 -0.01749697 8.3066899e-39
0.027867798 -0.13505147 -0.01749697 5.542993e-39
0.029994536 -0.13584132 -0.020530608 3.3331958e-39
0.032124236 -0.13660498 -0.023463514 6.6504294e-39
0.03403537 -0.13660498 -0.023463514 1.4203958e-38
0.035946518 -0.13660498 -0.023463514 1.8349492e-38
0.037857667 -0.13660498 -0.023463514 1.6875062e-38
0.040103137 -0.13765021 -0.027477887 1.420282e-38
0.041679949 -0.13660498 -0.023463514 1.4849984e-38
0.043336555 -0.13584132 -0.020530608 1.5218767e-38
0.045242548 -0.13584132 -0.020530608 1.5862692e-38
0.047148556 -0.13584132 -0.020530608 1.8996264e-38
-0.014972258 -0.12909363 0.012483213 1.4850012e-38
-0.013124142 -0.12909363 0.012483213 1.4941842e-38
-0.011276022 -0.12909363 0.012483213 1.4850363e-38
-0.0093104057 -0.12987436 0.009504769 1.4942202e-38
-0.0074570663 -0.12987436 0.009504769 1.5219871e-38
-0.00534565 -0.13144915 0.0034969784 1.5035488e-38
-0.0034817755 -0.13144915 0.0034969784 1.3838391e-38
-0.001617901 -0.13144915 0.0034969784 1.4668165e-38
0.00024597347 -0.13144915 0.0034969784 1.4300474e-38
0.0021098442 -0.13144915 0.0034969784 1.2825718e-38
0.0041828528 -0.13250901 -0.00054636225 8.6769256e-39
0.0060538165 -0.13250901 -0.00054636225 8.216316e-39
0.0079247802 -0.13250901 -0.00054636225 9.229749e-39
0.009795744 -0.13250901 -0.00054636225 9.5045282e-39
0.011666704 -0.13250901 -0.00054636225 1.0054457e-38
0.013715472 -0.13327946 -0.0034857057 1.0971015e-38
0.015782643 -0.13408406 -0.0065552257 1.0601879e-38
0.017664146 -0.13408406 -0.0065552257 1.0144514e-38
0.019808989 -0.13513394 -0.010560539 6.9205423e-39
0.021899682 -0.13591899 -0.013555434 7.565169e-39
0.023793455 -0.13591899 -0.013555434 1.0239913e-38
0.02596711 -0.13695215 -0.01749697 8.1222986e-39
0.027867798 -0.13695215 -0.01749697 5.3596794e-39
0.029994536 -0.13774733 -0.020530608 2.8732938e-39
0.032124236 -0.13851611 -0.023463514 5.0841827e-39
0.03403537 -0.13851611 -0.023463514 1.245296e-38
0.035946518 -0.13851611 -0.023463514 1.8442408e-38
0.037857667 -0.13851611 -0.023463514 1.7982492e-38
0.039768815 -0.13851611 -0.023463514 1.438793e-38
0.041679949 -0.13851611 -0.023463514 1.3836193e-38
0.043591097 -0.13851611 -0.023463514 1.5680461e-38
0.045502245 -0.13851611 -0.023463514 1.669317e-38
-0.0093104057 -0.13172771 0.009504769 1.4666697e-38
-0.0074570663 -0.13172771 0.009504769 1.4297559e-38
-0.00534565 -0.13331302 0.0034969784 1.4666706e-38
-0.0036164597 -0.1325181 0.0065093972 1.2824239e-38
-0.0017578676 -0.1325181 0.0065093972 1.3377426e-38
0.0001007244 -0.1325181 0.0065093972 1.3654743e-38
0.0019593164 -0.1325181 0.0065093972 1.310158e-38
0.0039737187 -0.13331302 0.0034969784 8.8616714e-39
0.0060538165 -0.13437997 -0.00054636225 7.8471677e-39
0.0079247802 -0.13437997 -0.00054636225 8.3996226e-39
0.009795744 -0.13437997 -0.00054636225 9.3194125e-39
0.011666704 -0.13437997 -0.00054636225 1.0606546e-38
0.013901148 -0.13596557 -0.0065552257 1.1616739e-38
0.015782643 -0.13596557 -0.0065552257 1.0786624e-38
0.017664146 -0.13596557 -0.0065552257 1.0790241e-38
0.019808989 -0.13702248 -0.010560539 7.2886017e-39
0.021899682 -0.13781275 -0.013555434 6.7357657e-39
0.023793455 -0.13781275 -0.013555434 8.3038018e-39
0.02596711 -0.13885282 -0.01749697 7.3847322e-39
0.027867798 -0.13885282 -0.01749697 4.253329e-39
0.029994536 -0.13965334 -0.020530608 2.5967069e-39
0.032124236 -0.14042725 -0.023463514 5.3607668e-39
0.03403537 -0.14042725 -0.023463514 1.245296e-38
0.035946518 -0.14042725 -0.023463514 1.89963e-38
0.037857667 -0.14042725 -0.023463514 1.90892e-38
0.039768815 -0.14042725 -0.023463514 1.475671e-38
0.041679949 -0.14042725 -0.023463514 1.3467766e-38
0.043591097 -0.14042725 -0.023463514 1.586485e-38
-0.00534565 -0.13517688 0.0034969784 1.3469242e-38
-0.0038835518 -0.13278987 0.012483213 1.1533501e-38
-0.0020354316 -0.13278987 0.012483213 1.1994128e-38
-4.3705106e-05 -0.13358103 0.009504769 1.2456197e-38
0.001809638 -0.13358103 0.009504769 1.2917186e-38
0.0038179085 -0.13437669 0.0065093972 9.5988735e-39
0.0058375932 -0.13517688 0.0034969784 8.2159474e-39
0.0077014677 -0.13517688 0.0034969784 7.938999e-39
0.009795744 -0.13625093 -0.00054636225 1.051759e-38
0.011666704 -0.13625093 -0.00054636225 1.2082033e-38
0.013901148 -0.13784705 -0.0065552257 1.1985156e-38
0.015782643 -0.13784705 -0.0065552257 9.4951634e-39
0.017920468 -0.13891099 -0.010560539 1.0698039e-38
0.019808989 -0.13891099 -0.010560539 9.2247072e-39
0.021899682 -0.13970654 -0.013555434 8.3030886e-39
0.023793455 -0.13970654 -0.013555434 7.5662368e-39
0.02596711 -0.14075352 -0.01749697 6.2783818e-39
0.027867798 -0.14075352 -0.01749697 2.8707505e-39
0.029994536 -0.14155935 -0.020530608 2.2279216e-39
0.032124236 -0.14233841 -0.023463514 6.1912463e-39
0.03403537 -0.14233841 -0.023463514 1.3467109e-38
0.035946518 -0.14233841 -0.023463514 1.9733865e-38
0.037857667 -0.14233841 -0.023463514 1.9734925e-38
0.039768815 -0.14233841 -0.023463514 1.4848905e-38
0.041679949 -0.14233841 -0.023463514 1.4757786e-38
0.043591097 -0.14233841 -0.023463514 1.6600974e-38
-0.037570469 -0.12608187 0.044482682 1.549465e-38
-0.035823025 -0.12528224 0.047473285 1.5679405e-38
-0.03408578 -0.1244873 0.050446365 1.4941842e-38
-0.03230422 -0.1244873 0.050446365 1.4481227e-38
-0.0038835518 -0.134638 0.012483213 1.217887e-38
-0.0020354316 -0.134638 0.012483213 1.2916085e-38
-4.3705106e-05 -0.13543437 0.009504769 1.3193759e-38
0.001809638 -0.13543437 0.009504769 1.3009738e-38
0.0038179085 -0.13623528 0.0065093972 8.4925231e-39
0.0058375932 -0.13704078 0.0034969784 7.4787369e-39
0.0077014677 -0.13704078 0.0034969784 8.9535041e-39
0.009795744 -0.13812189 -0.00054636225 1.2454053e-38
0.011666704 -0.13812189 -0.00054636225 1.2819951e-38
0.013901148 -0.13972856 -0.0065552257 1.2630522e-38
0.015782643 -0.13972856 -0.0065552257 9.3111294e-39
0.017920468 -0.14079951 -0.010560539 8.024722e-39
0.019808989 -0.14079951 -0.010560539 7.4733447e-39
0.021899682 -0.1416003 -0.013555434 8.1186945e-39
0.023793455 -0.1416003 -0.013555434 6.8290291e-39
0.02596711 -0.1426542 -0.01749697 5.0801946e-39
0.027867798 -0.1426542 -0.01749697 3.5161199e-39
0.029994536 -0.14346536 -0.020530608 1.7672994e-39
0.031900536 -0.14346536 -0.020530608 6.4678304e-39
0.03403537 -0.14424954 -0.023463514 1.2822095e-38
0.035946518 -0.14424954 -0.023463514 2.1301529e-38
0.037857667 -0.14424954 -0.023463514 2.0288099e-38
0.040103137 -0.14532293 -0.027477887 1.6231121e-38
-0.04118333 -0.12706901 0.047473285 1.6047097e-38
-0.039396562 -0.12706901 0.047473285 1.5771236e-38
-0.037609793 -0.12706901 0.047473285 1.5863433e-38
-0.035823025 -0.12706901 0.047473285 1.57716e-38
-0.03408578 -0.12626885 0.050446365 1.5034038e-38
-0.03230422 -0.12626885 0.050446365 1.4296836e-38
-0.03046272 -0.12706901 0.047473285 1.4113168e-38
-0.028675951 -0.12706901 0.047473285 1.4113169e-38
-0.026889183 -0.12706901 0.047473285 1.3836945e-38
-0.0059058368 -0.13539489 0.016537759 1.3469244e-38
-0.0040648282 -0.13539489 0.016537759 1.217887e-38
-0.0022238195 -0.13539489 0.016537759 1.2824608e-38
-0.00018731505 -0.13648613 0.012483213 1.3285955e-38
0.0016608052 -0.13648613 0.012483213 1.3101933e-38
0.0036629774 -0.13728772 0.009504769 8.4010435e-39
0.0056765005 -0.13809387 0.0065093972 7.755321e-39
0.0075350925 -0.13809387 0.0065093972 9.6910663e-39
0.0095653422 -0.13890465 0.0034969784 1.1993791e-38
0.011666704 -0.13999285 -0.00054636225 1.3465318e-38
0.013901148 -0.14161004 -0.0065552257 1.3737587e-38
0.016031947 -0.14268802 -0.010560539 9.9572149e-39
0.017920468 -0.14268802 -0.010560539 8.5778944e-39
0.019808989 -0.14268802 -0.010560539 8.210907e-39
0.021899682 -0.14349405 -0.013555434 8.487833e-39
0.023793455 -0.14349405 -0.013555434 6.5524394e-39
0.02596711 -0.14455487 -0.01749697 3.789453e-39
0.027867798 -0.14455487 -0.01749697 2.5941608e-39
0.029994536 -0.14537133 -0.020530608 1.3063199e-39
0.031900536 -0.14537133 -0.020530608 7.3894238e-39
0.03403537 -0.14616071 -0.023463514 1.438942e-38
0.035946518 -0.14616071 -0.023463514 2.1578112e-38
0.037857667 -0.14616071 -0.023463514 1.936614e-38
0.040103137 -0.1472411 -0.027477887 1.576942e-38
0.042021319 -0.1472411 -0.027477887 1.6966881e-38
-0.041270792 -0.12639888 0.056542967 1.6323684e-38
-0.039499927 -0.12639888 0.056542967 1.5863431e-38
-0.03764889 -0.1280504 0.050446365 1.5863433e-38
-0.035867333 -0.1280504 0.050446365 1.5863796e-38
-0.03408578 -0.1280504 0.050446365 1.5034038e-38
-0.03230422 -0.1280504 0.050446365 1.4296836e-38
-0.03046272 -0.12885578 0.047473285 1.3928776e-38
-0.028675951 -0.12885578 0.047473285 1.3928778e-38
-0.026889183 -0.12885578 0.047473285 1.3744387e-38
-0.0059058368 -0.13723589 0.016537759 1.3100462e-38
-0.0040648282 -0.13723589 0.016537759 1.1717892e-38
-0.0022238195 -0.13723589 0.016537759 1.2455825e-38
-0.00038281083 -0.13723589 0.016537759 1.2825695e-38
0.0016608052 -0.13833423 0.012483213 1.245764e-38
0.0036629774 -0.13914107 0.009504769 8.0322596e-39
0.0055163167 -0.13914107 0.009504769 7.7556769e-39
0.0073696561 -0.13914107 0.009504769 1.0152044e-38
0.0095653422 -0.14076851 0.0034969784 1.116475e-38
0.011839356 -0.14266007 -0.0034857057 1.2913223e-38
0.013901148 -0.14349155 -0.0065552257 1.3184411e-38
0.016031947 -0.14457656 -0.010560539 9.0352558e-39
0.017920468 -0.14457656 -0.010560539 7.6559353e-39
0.019808989 -0.14457656 -0.010560539 7.4744209e-39
0.021899682 -0.14538784 -0.013555434 7.9346578e-39
0.023793455 -0.14538784 -0.013555434 5.6304803e-39
0.02596711 -0.14645557 -0.01749697 3.6976147e-39
0.027867798 -0.14645557 -0.01749697 2.594158e-39
0.029994536 -0.14727734 -0.020530608 1.5832627e-39
0.031900536 -0.14727734 -0.020530608 8.3113786e-39
0.03403537 -0.14807184 -0.023463514 1.5126982e-38
0.035946518 -0.14807184 -0.023463514 2.0655811e-38
0.037857667 -0.14807184 -0.023463514 1.8904797e-38
0.040103137 -0.1491593 -0.027477887 1.8350534e-38
0.042021319 -0.1491593 -0.027477887 1.788704e-38
-0.041270792 -0.12816976 0.056542967 1.6230769e-38
-0.039499927 -0.12816976 0.056542967 1.5862708e-38
-0.03764889 -0.12983195 0.050446365 1.5586845e-38
-0.035867333 -0.12983195 0.050446365 1.5771237e-38
-0.03408578 -0.12983195 0.050446365 1.5034035e-38
-0.03230422 -0.12983195 0.050446365 1.4388669e-38
-0.03046272 -0.13064255 0.047473285 1.420464e-38
-0.028675951 -0.13064255 0.047473285 1.4020252e-38
-0.0075797848 -0.14018236 0.012483213 1.2547285e-38
-0.0059058368 -0.1390769 0.016537759 1.2454737e-38
-0.0040648282 -0.1390769 0.016537759 1.1165437e-38
-0.0022238195 -0.1390769 0.016537759 1.1718981e-38
-0.00038281083 -0.1390769 0.016537759 1.208813e-38
0.0016608052 -0.14018236 0.012483213 1.1535684e-38
0.0036629774 -0.14099441 0.009504769 7.2032178e-39
0.0055163167 -0.14099441 0.009504769 7.2950589e-39
0.0073696561 -0.14099441 0.009504769 9.783978e-39
0.0095653422 -0.14263238 0.0034969784 1.2917542e-38
0.011839356 -0.14453618 -0.0034857057 1.3190528e-38
0.013901148 -0.14537306 -0.0065552257 1.2355369e-38
0.016031947 -0.14646508 -0.010560539 8.1140156e-39
0.017920468 -0.14646508 -0.010560539 6.6428624e-39
0.019808989 -0.14646508 -0.010560539 6.5524618e-39
0.021899682 -0.1472816 -0.013555434 7.381484e-39
0.023793455 -0.1472816 -0.013555434 5.7230318e-39
0.026182529 -0.14918335 -0.020530608 3.5132206e-39
0.028088536 -0.14918335 -0.020530608 2.5012407e-39
0.029994536 -0.14918335 -0.020530608 1.6743765e-39
0.031900536 -0.14918335 -0.020530608 8.5872425e-39
0.03403537 -0.14998297 -0.023463514 1.3374902e-38
0.035946518 -0.14998297 -0.023463514 1.6321537e-38
0.037857667 -0.14998297 -0.023463514 1.5677227e-38
-0.041270792 -0.12994061 0.056542967 1.6138574e-38
-0.039499927 -0.12994061 0.056542967 1.5769794e-38
-0.037689097 -0.13077454 0.053503845 1.5585766e-38
-0.035912901 -0.13077454 0.053503845 1.5586846e-38
-0.034136705 -0.13077454 0.053503845 1.494184e-38
-0.032360509 -0.13077454 0.053503845 1.457306e-38
-0.030522667 -0.13161351 0.050446365 1.4481227e-38
-0.028610406 -0.13324992 0.044482682 1.4204643e-38
-0.0078679472 -0.14011143 0.019476864 1.2178503e-38
-0.0060320944 -0.14011143 0.019476864 1.217815e-38
-0.0040648282 -0.14091791 0.016537759 1.1165081e-38
-0.0022238195 -0.14091791 0.016537759 1.1626788e-38
-0.00038281083 -0.14091791 0.016537759 1.1351644e-38
0.0014581978 -0.14091791 0.016537759 1.0890674e-38
0.0036629774 -0.14284773 0.009504769 6.9266309e-39
0.0055163167 -0.14284773 0.009504769 6.7429613e-39
0.0073696561 -0.14284773 0.009504769 9.0471318e-39
0.0095653422 -0.14449625 0.0034969784 1.2640955e-38
0.011666704 -0.14560573 -0.00054636225 1.1346615e-38
0.013901148 -0.14725454 -0.0065552257 9.7749704e-39
0.016031947 -0.14835359 -0.010560539 6.5477689e-39
0.017920468 -0.14835359 -0.010560539 5.7216221e-39
0.019808989 -0.14835359 -0.010560539 4.9858522e-39
0.021899682 -0.14917539 -0.013555434 5.8148744e-39
-0.04299356 -0.13339506 0.050446365 1.696725e-38
-0.041270792 -0.1317115 0.056542967 1.6506633e-38
-0.039499927 -0.1317115 0.056542967 1.6138574e-38
-0.037689097 -0.13255073 0.053503845 1.6046381e-38
-0.035912901 -0.13255073 0.053503845 1.5677961e-38
-0.034136705 -0.13255073 0.053503845 1.5125868e-38
-0.032360509 -0.13255073 0.053503845 1.4757448e-38
-0.030522667 -0.13339506 0.050446365 1.4665255e-38
-0.028610406 -0.13504194 0.044482682 1.4296836e-38
-0.026675567 -0.13670824 0.038448546 1.3835861e-38
-0.0078679472 -0.14194728 0.019476864 1.2270701e-38
-0.0060320944 -0.14194728 0.019476864 1.2086673e-38
-0.0041962378 -0.14194728 0.019476864 1.1718255e-38
-0.0022238195 -0.14275892 0.016537759 1.199557e-38
-0.00038281083 -0.14275892 0.016537759 1.1075057e-38
0.0014581978 -0.14275892 0.016537759 1.0429699e-38
0.0036629774 -0.14470108 0.009504769 6.8355143e-39
0.0056765005 -0.14552824 0.0065093972 6.3748977e-39
0.0075350925 -0.14552824 0.0065093972 7.6649176e-39
0.009795744 -0.14747669 -0.00054636225 8.0318939e-39
0.011666704 -0.14747669 -0.00054636225 6.921945e-39
0.013901148 -0.14913605 -0.0065552257 6.6406792e-39
-0.04299356 -0.13517661 0.050446365 1.696725e-38
-0.041241486 -0.13432692 0.053503845 1.678322e-38
-0.039465293 -0.13432692 0.053503845 1.6599552e-38
-0.03764889 -0.13517661 0.050446365 1.6599555e-38
-0.035867333 -0.13517661 0.050446365 1.5954548e-38
-0.03408578 -0.13517661 0.050446365 1.5310259e-38
-0.03230422 -0.13517661 0.050446365 1.4849644e-38
-0.03046272 -0.13600285 0.047473285 1.4665255e-38
-0.028544476 -0.13766994 0.041474435 1.420464e-38
-0.026675567 -0.13851084 0.038448546 1.3743662e-38
-0.024872974 -0.13851084 0.038448546 1.3743665e-38
-0.023070382 -0.13851084 0.038448546 1.4019894e-38
-0.021182775 -0.13932751 0.035509918 1.4480522e-38
-0.019281097 -0.14017828 0.032448504 1.4111741e-38
-0.017467983 -0.14017828 0.032448504 1.3742957e-38
-0.0078679472 -0.14378314 0.019476864 1.2455092e-38
-0.0060320944 -0.14378314 0.019476864 1.1810086e-38
-0.0041962378 -0.14378314 0.019476864 1.1719334e-38
-0.0022238195 -0.14459993 0.016537759 1.1996289e-38
-0.00038281083 -0.14459993 0.016537759 1.0245657e-38
0.0014581978 -0.14459993 0.016537759 9.6006573e-39
0.0036629774 -0.14655443 0.009504769 6.4667318e-39
0.0056765005 -0.14738683 0.0065093972 5.6373326e-39
0.0075350925 -0.14738683 0.0065093972 5.9132007e-39
0.009795744 -0.14934768 -0.00054636225 5.1745482e-39
-0.04299356 -0.13695817 0.050446365 1.6967247e-38
-0.041241486 -0.13610314 0.053503845 1.6875414e-38
-0.039465293 -0.13610314 0.053503845 1.6784299e-38
-0.03764889 -0.13695817 0.050446365 1.6876858e-38
-0.035867333 -0.13695817 0.050446365 1.6139295e-38
-0.03408578 -0.13695817 0.050446365 1.5494649e-38
-0.032249488 -0.13778962 0.047473285 1.4849644e-38
-0.030402418 -0.13862596 0.044482682 1.4481224e-38
-0.028544476 -0.13946722 0.041474435 1.4020249e-38
-0.026675567 -0.14031343 0.038448546 1.3743665e-38
-0.024872974 -0.14031343 0.038448546 1.3835861e-38
-0.023070382 -0.14031343 0.038448546 1.4296484e-38
-0.021182775 -0.14113526 0.035509918 1.4664914e-38
-0.019281097 -0.14199139 0.032448504 1.4203935e-38
-0.017467983 -0.14199139 0.032448504 1.3743313e-38
-0.015654873 -0.14199139 0.032448504 1.3558919e-38
-0.01153966 -0.14561899 0.019476864 1.3375604e-38
-0.0078679472 -0.14561899 0.019476864 1.2547285e-38
-0.0060320944 -0.14561899 0.019476864 1.1256912e-38
-0.0041962378 -0.14561899 0.019476864 1.1718255e-38
-0.0022238195 -0.14644094 0.016537759 1.1627507e-38
-0.00038281083 -0.14644094 0.016537759 9.5995713e-39
0.0016608052 -0.14757483 0.012483213 8.954569e-39
0.0036629774 -0.14840777 0.009504769 6.1890673e-39
0.0056765005 -0.14924543 0.0065093972 4.8990543e-39
-0.04299356 -0.13873972 0.050446365 1.6507708e-38
-0.041212004 -0.13873972 0.050446365 1.650843e-38
-0.039430447 -0.13873972 0.050446365 1.6600268e-38
-0.03764889 -0.13873972 0.050446365 1.6324763e-38
-0.035867333 -0.13873972 0.050446365 1.5771233e-38
-0.03408578 -0.13873972 0.050446365 1.5218781e-38
-0.032194432 -0.14041798 0.044482682 1.4850363e-38
-0.030341763 -0.14126451 0.041474435 1.4851086e-38
-0.028544476 -0.14126451 0.041474435 1.4943284e-38
-0.026675567 -0.14211603 0.038448546 1.448195e-38
-0.024872974 -0.14211603 0.038448546 1.3928778e-38
-0.02290732 -0.14380451 0.032448504 1.3652194e-38
-0.021094209 -0.14380451 0.032448504 1.4757109e-38
-0.019281097 -0.14380451 0.032448504 1.4019184e-38
-0.017340437 -0.14491107 0.028516266 1.4941137e-38
-0.015418004 -0.14575411 0.025520537 1.3282332e-38
-0.013484444 -0.14660202 0.022507403 1.2730233e-38
-0.01153966 -0.14745484 0.019476864 1.4297559e-38
-0.0097038038 -0.14745484 0.019476864 1.2823148e-38
-0.0078679472 -0.14745484 0.019476864 1.1625326e-38
-0.0059058368 -0.14828195 0.016537759 1.1718246e-38
-0.0040648282 -0.14828195 0.016537759 1.0796654e-38
-0.0022238195 -0.14828195 0.016537759 1.1072535e-38
-0.00018731505 -0.14942293 0.012483213 8.3073962e-39
-0.04657007 -0.13965552 0.053503845 1.7245273e-38
-0.044793878 -0.13965552 0.053503845 1.7060882e-38
-0.043017682 -0.13965552 0.053503845 1.6692818e-38
-0.041241486 -0.13965552 0.053503845 1.6692818e-38
-0.039430447 -0.14052127 0.050446365 1.6416954e-38
-0.03764889 -0.14052127 0.050446365 1.6140369e-38
-0.035867333 -0.14052127 0.050446365 1.595634e-38
-0.03408578 -0.14052127 0.050446365 1.5403172e-38
-0.032194432 -0.14220999 0.044482682 1.5034751e-38
-0.030341763 -0.1430618 0.041474435 1.5127673e-38
-0.028478159 -0.14391862 0.038448546 1.5312067e-38
-0.026675567 -0.14391862 0.038448546 1.5035124e-38
-0.024798265 -0.14475073 0.035509918 1.4667062e-38
-0.02290732 -0.14561762 0.032448504 1.4666346e-38
-0.020980449 -0.14673109 0.028516266 1.5310283e-38
-0.019160442 -0.14673109 0.028516266 1.4848945e-38
-0.017340437 -0.14673109 0.028516266 1.5494308e-38
-0.015418004 -0.14757936 0.025520537 1.4849655e-38
-0.013484444 -0.14843257 0.022507403 1.4297559e-38
-0.01153966 -0.14929073 0.019476864 1.4758893e-38
-0.0097038038 -0.14929073 0.019476864 1.3376319e-38
-0.0078679472 -0.14929073 0.019476864 1.1901191e-38
-0.048346266 -0.1414317 0.053503845 1.7152357e-38
-0.04657007 -0.1414317 0.053503845 1.7245273e-38
-0.044793878 -0.1414317 0.053503845 1.7153077e-38
-0.043017682 -0.1414317 0.053503845 1.7061601e-38
-0.041241486 -0.1414317 0.053503845 1.7061601e-38
-0.039430447 -0.14230286 0.050446365 1.6693541e-38
-0.03764889 -0.14230286 0.050446365 1.632476e-38
-0.035867333 -0.14230286 0.050446365 1.6232927e-38
-0.03408578 -0.14230286 0.050446365 1.5679759e-38
-0.032194432 -0.14400201 0.044482682 1.5219142e-38
-0.030341763 -0.14485909 0.041474435 1.5403181e-38
-0.028478159 -0.14572121 0.038448546 1.5312067e-38
-0.026606008 -0.14655848 0.035509918 1.5219515e-38
-0.024798265 -0.14655848 0.035509918 1.5127321e-38
-0.022800457 -0.14855109 0.028516266 1.5219519e-38
-0.020980449 -0.14855109 0.028516266 1.4019897e-38
-0.019160442 -0.14855109 0.028516266 1.4111374e-38
-0.017340437 -0.14855109 0.028516266 1.438868e-38
-0.05012513 -0.14233668 0.056542967 1.6415516e-38
-0.048354261 -0.14233668 0.056542967 1.6967966e-38
-0.046596196 -0.14149947 0.059463475 1.687649e-38
-0.044830449 -0.14149947 0.059463475 1.687649e-38
-0.043064702 -0.14149947 0.059463475 1.7153077e-38
-0.041241486 -0.14320792 0.053503845 1.7430383e-38
-0.039430447 -0.14408441 0.050446365 1.7430386e-38
-0.03764889 -0.14408441 0.050446365 1.6970129e-38
-0.035823025 -0.1449367 0.047473285 1.6877937e-38
-0.034036256 -0.1449367 0.047473285 1.623293e-38
-0.032194432 -0.14579402 0.044482682 1.5771597e-38
-0.030341763 -0.14665638 0.041474435 1.5680123e-38
-0.028478159 -0.14752381 0.038448546 1.567977e-38
-0.026606008 -0.14836623 0.035509918 1.5403906e-38
-0.024798265 -0.14836623 0.035509918 1.5679773e-38
-0.021094209 -0.14924385 0.032448504 1.6416981e-38
-0.019281097 -0.14924385 0.032448504 1.6140034e-38
-0.051895991 -0.14410757 0.056542967 1.6232214e-38
-0.05012513 -0.14410757 0.056542967 1.6599908e-38
-0.048354261 -0.14410757 0.056542967 1.7060161e-38
-0.046596196 -0.1432652 0.059463475 1.7060161e-38
-0.044830449 -0.1432652 0.059463475 1.6784295e-38
-0.043064702 -0.1432652 0.059463475 1.6968686e-38
-0.041270792 -0.14410757 0.056542967 1.7430383e-38
-0.039430447 -0.14586596 0.050446365 1.7799168e-38
-0.03764889 -0.14586596 0.050446365 1.7615499e-38
-0.035733622 -0.14845367 0.041474435 1.7338915e-38
-0.033936337 -0.14845367 0.041474435 1.6877581e-38
-0.03208334 -0.1493264 0.038448546 1.6508801e-38
-0.03028075 -0.1493264 0.038448546 1.6509162e-38
