# .PCD v0.7 - Point Cloud Data file format
VERSION 0.7
FIELDS x y z rgb
SIZE 4 4 4 4
TYPE F F F F
COUNT 1 1 1 1
WIDTH 934
HEIGHT 1
VIEWPOINT 0 0 0 1 0 0 0
POINTS 934
DATA ascii
0.012417004 -0.124891 -0.0055311322 9.6936293e-39
0.014237011 -0.124891 -0.0055311322 9.5967589e-39
0.016057016 -0.124891 -0.0055311322 1.0790961e-38
0.017877024 -0.124891 -0.0055311322 1.5582592e-38
0.019697031 -0.124891 -0.0055311322 1.8161181e-38
0.021517036 -0.124891 -0.0055311322 1.9638087e-38
0.023337044 -0.124891 -0.0055311322 1.6046091e-38
0.025157051 -0.124891 -0.0055311322 1.1623224e-38
0.026977057 -0.124891 -0.0055311322 1.2360786e-38
0.028797066 -0.124891 -0.0055311322 1.4389809e-38
0.030617071 -0.124891 -0.0055311322 1.5312126e-38
0.032437079 -0.124891 -0.0055311322 1.4944422e-38
0.034257084 -0.124891 -0.0055311322 1.4206504e-38
0.03607709 -0.124891 -0.0055311322 1.0150617e-38
0.037897095 -0.124891 -0.0055311322 1.1533921e-38
0.039851047 -0.12567626 -0.0085268617 1.2916857e-38
0.041676305 -0.12567626 -0.0085268617 1.3101611e-38
0.043501563 -0.12567626 -0.0085268617 1.1995619e-38
0.045326822 -0.12567626 -0.0085268617 1.1719031e-38
0.047307931 -0.12646608 -0.011539996 1.3010126e-38
0.049138471 -0.12646608 -0.011539996 1.4023553e-38
0.050969012 -0.12646608 -0.011539996 1.3932065e-38
0.05297225 -0.12726043 -0.014570534 1.5684487e-38
0.054808103 -0.12726043 -0.014570534 1.4023871e-38
0.056821749 -0.12803085 -0.017509639 1.4297923e-38
0.058662757 -0.12803085 -0.017509639 1.9827845e-38
0.060503766 -0.12803085 -0.017509639 2.0378485e-38
0.062344775 -0.12803085 -0.017509639 1.6965435e-38
0.064185783 -0.12803085 -0.017509639 1.7517167e-38
0.066026792 -0.12803085 -0.017509639 1.6226428e-38
0.067867801 -0.12803085 -0.017509639 1.5950207e-38
-0.061510317 -0.12329166 0.0074270368 2.0656881e-38
-0.059713028 -0.12329166 0.0074270368 2.0196623e-38
-0.05791574 -0.12329166 0.0074270368 1.9090632e-38
-0.043861866 -0.1256734 -0.0015988946 1.7521137e-38
-0.041944087 -0.12486555 0.0014625192 1.7151635e-38
-0.040041022 -0.12409012 0.0044011474 1.6505547e-38
-0.038238429 -0.12409012 0.0044011474 1.7334587e-38
-0.036435835 -0.12409012 0.0044011474 1.6597746e-38
-0.034713112 -0.12486555 0.0014625192 1.6506272e-38
-0.032983199 -0.1256734 -0.0015988946 1.6506632e-38
-0.031170083 -0.1256734 -0.0015988946 1.6230045e-38
-0.02935697 -0.1256734 -0.0015988946 1.4939662e-38
-0.027482128 -0.12486555 0.0014625192 1.5584312e-38
-0.025674386 -0.12486555 0.0014625192 1.6782856e-38
-0.02386664 -0.12486555 0.0014625192 1.650555e-38
-0.00032304414 -0.126711 -0.0055311322 2.2313513e-38
0.0014969632 -0.126711 -0.0055311322 2.0564334e-38
0.0032790499 -0.1256734 -0.0015988946 1.7340382e-38
0.0050572725 -0.12486555 0.0014625192 1.4210436e-38
0.0068650171 -0.12486555 0.0014625192 1.2923671e-38
0.0087183872 -0.1256734 -0.0015988946 1.3295333e-38
0.010531498 -0.1256734 -0.0015988946 9.0547086e-39
0.012344612 -0.1256734 -0.0015988946 9.326653e-39
0.014237011 -0.126711 -0.0055311322 8.5851321e-39
0.016057016 -0.126711 -0.0055311322 8.5807909e-39
0.017877024 -0.126711 -0.0055311322 1.2910726e-38
0.019697031 -0.126711 -0.0055311322 1.6503105e-38
0.021517036 -0.126711 -0.0055311322 1.7609452e-38
0.023337044 -0.126711 -0.0055311322 1.5861346e-38
0.025157051 -0.126711 -0.0055311322 1.2268239e-38
0.026977057 -0.126711 -0.0055311322 1.3374585e-38
0.028797066 -0.126711 -0.0055311322 1.4389456e-38
0.030617071 -0.126711 -0.0055311322 1.5035544e-38
0.032437079 -0.126711 -0.0055311322 1.4298701e-38
0.034257084 -0.126711 -0.0055311322 1.3561139e-38
0.03607709 -0.126711 -0.0055311322 9.4127012e-39
0.037897095 -0.126711 -0.0055311322 1.1257335e-38
0.039717108 -0.126711 -0.0055311322 1.2179655e-38
0.041676305 -0.1275015 -0.0085268617 1.2180376e-38
0.043501563 -0.1275015 -0.0085268617 1.1166224e-38
0.045326822 -0.1275015 -0.0085268617 1.0982912e-38
0.04715208 -0.1275015 -0.0085268617 1.2642431e-38
0.048977338 -0.1275015 -0.0085268617 1.3933165e-38
0.050969012 -0.1282966 -0.011539996 1.4209382e-38
0.05279956 -0.1282966 -0.011539996 1.5039483e-38
0.054808103 -0.12909628 -0.014570534 1.3839483e-38
0.056821749 -0.12987186 -0.017509639 1.4575592e-38
0.058662757 -0.12987186 -0.017509639 1.8998444e-38
0.060503766 -0.12987186 -0.017509639 1.9365052e-38
0.062344775 -0.12987186 -0.017509639 1.7058352e-38
0.06445948 -0.13094176 -0.021564186 1.7517886e-38
-0.070309512 -0.12428986 0.010435283 2.2958514e-38
-0.068517491 -0.12428986 0.010435283 2.2497894e-38
-0.065104887 -0.12508895 0.0074270368 2.2497892e-38
-0.063307606 -0.12508895 0.0074270368 2.2591531e-38
-0.061510317 -0.12508895 0.0074270368 2.1301529e-38
-0.059713028 -0.12508895 0.0074270368 2.2499695e-38
-0.05791574 -0.12508895 0.0074270368 2.2131994e-38
-0.056118451 -0.12508895 0.0074270368 2.1763218e-38
-0.043751828 -0.1266733 0.0014625192 1.6783209e-38
-0.041944087 -0.1266733 0.0014625192 1.6966881e-38
-0.040041022 -0.12589271 0.0044011474 1.4845303e-38
-0.038145587 -0.12508895 0.0074270368 1.5213366e-38
-0.036348298 -0.12508895 0.0074270368 1.6689218e-38
-0.034713112 -0.1266733 0.0014625192 1.927214e-38
-0.032983199 -0.12748651 -0.0015988946 2.0655436e-38
-0.031170083 -0.12748651 -0.0015988946 2.0471044e-38
-0.02935697 -0.12748651 -0.0015988946 1.7059805e-38
-0.027482128 -0.1266733 0.0014625192 1.5860899e-38
-0.025674386 -0.1266733 0.0014625192 1.6875051e-38
-0.02386664 -0.1266733 0.0014625192 1.7058724e-38
-0.002129918 -0.12932678 -0.0085268617 1.8166175e-38
-0.0003471747 -0.12748651 -0.0015988946 1.6414826e-38
0.0014417833 -0.1266733 0.0014625192 1.5310633e-38
0.0032495279 -0.1266733 0.0014625192 1.4761066e-38
0.0050237821 -0.12589271 0.0044011474 1.4487746e-38
0.0068263737 -0.12589271 0.0044011474 1.4583188e-38
0.0086289663 -0.12589271 0.0044011474 1.3112018e-38
0.010480506 -0.1266733 0.0014625192 7.7643313e-39
0.01228825 -0.1266733 0.0014625192 6.3781963e-39
0.014095996 -0.1266733 0.0014625192 6.8352242e-39
0.015903739 -0.1266733 0.0014625192 8.5829601e-39
0.017877024 -0.12853102 -0.0055311322 1.3096926e-38
0.019697031 -0.12853102 -0.0055311322 1.4752475e-38
0.021517036 -0.12853102 -0.0055311322 1.2446861e-38
0.023337044 -0.12853102 -0.0055311322 1.3371348e-38
0.025157051 -0.12853102 -0.0055311322 1.1344488e-38
0.026977057 -0.12853102 -0.0055311322 1.3004728e-38
0.028797066 -0.12853102 -0.0055311322 1.3466785e-38
0.030617071 -0.12853102 -0.0055311322 1.4480581e-38
0.032437079 -0.12853102 -0.0055311322 1.4205432e-38
0.034257084 -0.12853102 -0.0055311322 1.4020685e-38
0.03607709 -0.12853102 -0.0055311322 9.9658749e-39
0.037897095 -0.12853102 -0.0055311322 1.0427575e-38
0.039717108 -0.12853102 -0.0055311322 1.1165503e-38
0.041676305 -0.12932678 -0.0085268617 1.1074026e-38
0.043501563 -0.12932678 -0.0085268617 9.8765618e-39
0.045326822 -0.12932678 -0.0085268617 9.9687574e-39
0.04715208 -0.12932678 -0.0085268617 1.1444606e-38
0.048977338 -0.12932678 -0.0085268617 1.2550954e-38
0.050802596 -0.12932678 -0.0085268617 1.264278e-38
0.05279956 -0.13012715 -0.011539996 1.3287766e-38
0.054808103 -0.13093217 -0.014570534 1.2365072e-38
0.056643963 -0.13093217 -0.014570534 1.3930223e-38
0.058479816 -0.13093217 -0.014570534 1.7615513e-38
0.060503766 -0.13171287 -0.017509639 1.7981762e-38
0.062611364 -0.13278987 -0.021564186 1.6873961e-38
-0.075888611 -0.12688623 0.0074270368 2.2591531e-38
-0.073893525 -0.12608187 0.010435283 2.2775202e-38
-0.072101511 -0.12608187 0.010435283 2.2498978e-38
-0.070309512 -0.12608187 0.010435283 2.2775202e-38
-0.068517491 -0.12608187 0.010435283 2.3142544e-38
-0.066725485 -0.12608187 0.010435283 2.2774113e-38
-0.064933471 -0.12608187 0.010435283 2.3234376e-38
-0.063141458 -0.12608187 0.010435283 2.2958873e-38
-0.061349444 -0.12608187 0.010435283 2.2314589e-38
-0.05955743 -0.12608187 0.010435283 2.2498978e-38
-0.057765417 -0.12608187 0.010435283 2.2867037e-38
-0.055973403 -0.12608187 0.010435283 2.2407501e-38
-0.043537445 -0.12688623 0.0074270368 1.7242388e-38
-0.041740157 -0.12688623 0.0074270368 1.6781049e-38
-0.039942876 -0.12688623 0.0074270368 1.5490311e-38
-0.038145587 -0.12688623 0.0074270368 1.4751664e-38
-0.036348298 -0.12688623 0.0074270368 1.6965441e-38
-0.034633249 -0.12769531 0.0044011474 1.8626771e-38
-0.032905363 -0.12848105 0.0014625192 2.0840907e-38
-0.031097619 -0.12848105 0.0014625192 1.9641283e-38
-0.029289873 -0.12848105 0.0014625192 1.6598827e-38
-0.027543856 -0.1292996 -0.0015988946 1.632188e-38
-0.025730746 -0.1292996 -0.0015988946 1.6414076e-38
-0.023917632 -0.1292996 -0.0015988946 1.6321161e-38
-0.0021430496 -0.13035102 -0.0055311322 1.6601378e-38
-0.00036596134 -0.12848105 0.0014625192 1.4850029e-38
0.0014417833 -0.12848105 0.0014625192 1.3192303e-38
0.0032211896 -0.12769531 0.0044011474 1.4485566e-38
0.0050237821 -0.12769531 0.0044011474 1.4949443e-38
0.0068263737 -0.12769531 0.0044011474 1.4399157e-38
0.0086289663 -0.12769531 0.0044011474 1.3018741e-38
0.010431558 -0.12769531 0.0044011474 9.0550688e-39
0.01228825 -0.12848105 0.0014625192 6.2874426e-39
0.014095996 -0.12848105 0.0014625192 6.2849357e-39
0.015903739 -0.12848105 0.0014625192 7.847923e-39
0.017783947 -0.1292996 -0.0015988946 1.365263e-38
0.019697031 -0.13035102 -0.0055311322 1.4477336e-38
0.021517036 -0.13035102 -0.0055311322 1.3830522e-38
0.023337044 -0.13035102 -0.0055311322 1.3647939e-38
0.025157051 -0.13035102 -0.0055311322 1.2541955e-38
0.026977057 -0.13035102 -0.0055311322 1.115902e-38
0.028797066 -0.13035102 -0.0055311322 1.2635229e-38
0.030617071 -0.13035102 -0.0055311322 1.438659e-38
0.032437079 -0.13035102 -0.0055311322 1.3743019e-38
0.034257084 -0.13035102 -0.0055311322 1.2360084e-38
0.03607709 -0.13035102 -0.0055311322 9.7800417e-39
0.037897095 -0.13035102 -0.0055311322 1.0149545e-38
0.039717108 -0.13035102 -0.0055311322 1.0703434e-38
0.041537113 -0.13035102 -0.0055311322 1.09811e-38
0.043501563 -0.13115202 -0.0085268617 9.9676672e-39
0.045326822 -0.13115202 -0.0085268617 9.7847179e-39
0.04715208 -0.13115202 -0.0085268617 9.2315441e-39
0.048977338 -0.13115202 -0.0085268617 1.1444958e-38
0.050802596 -0.13115202 -0.0085268617 1.208996e-38
0.052627861 -0.13115202 -0.0085268617 1.301154e-38
0.054808103 -0.13276802 -0.014570534 1.3102279e-38
0.056643963 -0.13276802 -0.014570534 1.3929867e-38
0.058479816 -0.13276802 -0.014570534 1.6970862e-38
0.060503766 -0.13355388 -0.017509639 1.7245276e-38
0.062611364 -0.134638 -0.021564186 1.7151271e-38
-0.079698049 -0.1294979 0.0044011474 1.3097186e-38
-0.0776859 -0.12868352 0.0074270368 1.5587194e-38
-0.075888611 -0.12868352 0.0074270368 2.1764294e-38
-0.073893525 -0.12787388 0.010435283 2.2499695e-38
-0.072101511 -0.12787388 0.010435283 2.2775202e-38
-0.070309512 -0.12787388 0.010435283 2.2867037e-38
-0.068517491 -0.12787388 0.010435283 2.3142544e-38
-0.066725485 -0.12787388 0.010435283 2.3049621e-38
-0.064933471 -0.12787388 0.010435283 2.3418045e-38
-0.063141458 -0.12787388 0.010435283 2.3234379e-38
-0.061349444 -0.12787388 0.010435283 2.3142544e-38
-0.059402749 -0.12706901 0.013425887 2.3142544e-38
-0.057615981 -0.12706901 0.013425887 2.3142544e-38
-0.055829205 -0.12706901 0.013425887 2.2867037e-38
-0.054042436 -0.12706901 0.013425887 2.1115685e-38
-0.052255668 -0.12706901 0.013425887 2.0470315e-38
-0.05059737 -0.12787388 0.010435283 2.1761053e-38
-0.048805356 -0.12787388 0.010435283 2.0931292e-38
-0.045334734 -0.12868352 0.0074270368 1.8625322e-38
-0.043537445 -0.12868352 0.0074270368 1.7610807e-38
-0.041740157 -0.12868352 0.0074270368 1.7240946e-38
-0.039942876 -0.12868352 0.0074270368 1.6134954e-38
-0.038053282 -0.12787388 0.010435283 1.5120083e-38
-0.036261268 -0.12787388 0.010435283 1.6135677e-38
-0.034633249 -0.1294979 0.0044011474 1.8350181e-38
-0.032830656 -0.1294979 0.0044011474 2.0287733e-38
-0.03102806 -0.1294979 0.0044011474 1.9456892e-38
-0.029225467 -0.1294979 0.0044011474 1.6875054e-38
-0.027422877 -0.1294979 0.0044011474 1.6229685e-38
-0.025620287 -0.1294979 0.0044011474 1.5952379e-38
-0.0075943638 -0.1294979 0.0044011474 1.5496452e-38
-0.0057917703 -0.1294979 0.0044011474 1.6603155e-38
-0.0039891787 -0.1294979 0.0044011474 1.5865238e-38
-0.002173705 -0.13028879 0.0014625192 1.6234406e-38
-0.00036596134 -0.13028879 0.0014625192 1.4851838e-38
0.0014417833 -0.13028879 0.0014625192 1.3839833e-38
0.0032211896 -0.1294979 0.0044011474 1.5685188e-38
0.0050237821 -0.1294979 0.0044011474 1.6424203e-38
0.0068263737 -0.1294979 0.0044011474 1.6149773e-38
0.0086289663 -0.1294979 0.0044011474 1.4677535e-38
0.010431558 -0.1294979 0.0044011474 9.2390943e-39
0.01228825 -0.13028879 0.0014625192 5.5509566e-39
0.014095996 -0.13028879 0.0014625192 4.6268563e-39
0.015903739 -0.13028879 0.0014625192 5.5448371e-39
0.017783947 -0.13111271 -0.0015988946 1.1533217e-38
0.019597061 -0.13111271 -0.0015988946 1.4386946e-38
0.021517036 -0.13217102 -0.0055311322 1.6596753e-38
0.023337044 -0.13217102 -0.0055311322 1.576772e-38
0.025157051 -0.13217102 -0.0055311322 1.4569543e-38
0.026977057 -0.13217102 -0.0055311322 1.1987346e-38
0.028797066 -0.13217102 -0.0055311322 1.1895869e-38
0.030617071 -0.13217102 -0.0055311322 1.3094774e-38
0.032437079 -0.13217102 -0.0055311322 1.3372439e-38
0.034257084 -0.13217102 -0.0055311322 1.2912535e-38
0.03607709 -0.13217102 -0.0055311322 1.0793109e-38
0.037897095 -0.13217102 -0.0055311322 9.4108921e-39
0.039717108 -0.13217102 -0.0055311322 9.689274e-39
0.041537113 -0.13217102 -0.0055311322 1.033536e-38
0.043501563 -0.13297729 -0.0085268617 9.2300909e-39
0.045326822 -0.13297729 -0.0085268617 9.3233656e-39
0.04715208 -0.13297729 -0.0085268617 8.7709149e-39
0.048977338 -0.13297729 -0.0085268617 1.1075808e-38
0.050802596 -0.13297729 -0.0085268617 1.1998118e-38
0.052627861 -0.13297729 -0.0085268617 1.3472518e-38
0.054630101 -0.13378824 -0.011539996 1.3103358e-38
0.056643963 -0.13460387 -0.014570534 1.3561803e-38
0.058479816 -0.13460387 -0.014570534 1.6509528e-38
0.060503766 -0.13539489 -0.017509639 1.6784299e-38
0.062611364 -0.13648613 -0.021564186 1.6874684e-38
-0.081280462 -0.13048081 0.0074270368 8.3040891e-39
-0.079483189 -0.13048081 0.0074270368 1.4389366e-38
-0.0776859 -0.13048081 0.0074270368 1.6049252e-38
-0.075888611 -0.13048081 0.0074270368 2.0289535e-38
-0.073893525 -0.1296659 0.010435283 2.1303323e-38
-0.072101511 -0.1296659 0.010435283 2.2591531e-38
-0.070309512 -0.1296659 0.010435283 2.2867037e-38
-0.068517491 -0.1296659 0.010435283 2.3142544e-38
-0.066725485 -0.1296659 0.010435283 2.3326208e-38
-0.064933471 -0.1296659 0.010435283 2.3509879e-38
-0.063141458 -0.1296659 0.010435283 2.3417687e-38
-0.061349444 -0.1296659 0.010435283 2.3509886e-38
-0.059402749 -0.12885578 0.013425887 2.341805e-38
-0.057615981 -0.12885578 0.013425887 2.3141822e-38
-0.055829205 -0.12885578 0.013425887 2.3234379e-38
-0.054042436 -0.12885578 0.013425887 2.3234379e-38
-0.052255668 -0.12885578 0.013425887 2.3142544e-38
-0.05059737 -0.1296659 0.010435283 2.3142544e-38
-0.048805356 -0.1296659 0.010435283 2.1852525e-38
-0.047132015 -0.13048081 0.0074270368 1.9178852e-38
-0.045334734 -0.13048081 0.0074270368 1.8349091e-38
-0.043537445 -0.13048081 0.0074270368 1.7610807e-38
-0.041740157 -0.13048081 0.0074270368 1.6872163e-38
-0.039845295 -0.1296659 0.010435283 1.6410822e-38
-0.038053282 -0.1296659 0.010435283 1.5488147e-38
-0.036261268 -0.1296659 0.010435283 1.5581424e-38
-0.03455101 -0.13048081 0.0074270368 1.6044572e-38
-0.032753728 -0.13048081 0.0074270368 1.7705175e-38
-0.030956438 -0.13048081 0.0074270368 1.7428228e-38
-0.029159149 -0.13048081 0.0074270368 1.6045293e-38
-0.027361864 -0.13048081 0.0074270368 1.5675792e-38
-0.025564579 -0.13048081 0.0074270368 1.5305931e-38
-0.023767291 -0.13048081 0.0074270368 1.5674713e-38
-0.018170414 -0.12560774 0.025416076 1.7151286e-38
-0.01640467 -0.12560774 0.025416076 1.7243848e-38
-0.014685946 -0.12722217 0.019456446 1.7153093e-38
-0.01290975 -0.12722217 0.019456446 1.7154535e-38
-0.0075943638 -0.13130049 0.0044011474 1.5312427e-38
-0.0057917703 -0.13130049 0.0044011474 1.6050345e-38
-0.0039891787 -0.13130049 0.0044011474 1.5405704e-38
-0.0021865871 -0.13130049 0.0044011474 1.5774512e-38
-0.00038399454 -0.13130049 0.0044011474 1.4485217e-38
0.001418598 -0.13130049 0.0044011474 1.439337e-38
0.0032211896 -0.13130049 0.0044011474 1.6790812e-38
0.0050237821 -0.13130049 0.0044011474 1.7436546e-38
0.0068263737 -0.13130049 0.0044011474 1.7253234e-38
0.0086289663 -0.13130049 0.0044011474 1.51367e-38
0.010431558 -0.13130049 0.0044011474 9.7911779e-39
0.01228825 -0.13209651 0.0014625192 6.2877986e-39
0.014036743 -0.13130049 0.0044011474 3.9822058e-39
0.015839335 -0.13130049 0.0044011474 4.9931067e-39
0.017711485 -0.13209651 0.0014625192 1.1258794e-38
0.019597061 -0.13292582 -0.0015988946 1.3557549e-38
0.021410173 -0.13292582 -0.0015988946 1.4384783e-38
0.023337044 -0.13399105 -0.0055311322 1.4476981e-38
0.025157051 -0.13399105 -0.0055311322 1.4108201e-38
0.026977057 -0.13399105 -0.0055311322 1.1802235e-38
0.028797066 -0.13399105 -0.0055311322 1.1341977e-38
0.030617071 -0.13399105 -0.0055311322 1.2724911e-38
0.032437079 -0.13399105 -0.0055311322 1.3002214e-38
0.034257084 -0.13399105 -0.0055311322 1.2726699e-38
0.03607709 -0.13399105 -0.0055311322 1.0976776e-38
0.037897095 -0.13399105 -0.0055311322 9.3186838e-39
0.039717108 -0.13399105 -0.0055311322 9.7803766e-39
0.041537113 -0.13399105 -0.0055311322 1.0888519e-38
0.043501563 -0.13480256 -0.0085268617 9.9672818e-39
0.045326822 -0.13480256 -0.0085268617 1.0060919e-38
0.04715208 -0.13480256 -0.0085268617 9.6003042e-39
0.048977338 -0.13480256 -0.0085268617 1.1443862e-38
0.050802596 -0.13480256 -0.0085268617 1.2550566e-38
0.052627861 -0.13480256 -0.0085268617 1.3657265e-38
0.054630101 -0.13561879 -0.011539996 1.3103361e-38
0.056643963 -0.13643973 -0.014570534 1.3285217e-38
0.058479816 -0.13643973 -0.014570534 1.5865238e-38
0.06076324 -0.13833423 -0.021564186 1.6508072e-38
0.062611364 -0.13833423 -0.021564186 1.6875404e-38
-0.081280462 -0.1322781 0.0074270368 8.0282211e-39
-0.079483189 -0.1322781 0.0074270368 1.4391167e-38
-0.0776859 -0.1322781 0.0074270368 1.614253e-38
-0.075685538 -0.13145791 0.010435283 1.8262673e-38
-0.073893525 -0.13145791 0.010435283 1.9736364e-38
-0.072101511 -0.13145791 0.010435283 2.2499695e-38
-0.070309512 -0.13145791 0.010435283 2.2683366e-38
-0.068336591 -0.13064255 0.013425887 2.3142544e-38
-0.066549823 -0.13064255 0.013425887 2.3418045e-38
-0.064763054 -0.13064255 0.013425887 2.3418042e-38
-0.062976286 -0.13064255 0.013425887 2.3417324e-38
-0.061189517 -0.13064255 0.013425887 2.3509883e-38
-0.05955743 -0.13145791 0.010435283 2.3509523e-38
-0.057615981 -0.13064255 0.013425887 2.2956709e-38
-0.055829205 -0.13064255 0.013425887 2.341805e-38
-0.05418139 -0.13145791 0.010435283 2.341805e-38
-0.052389383 -0.13145791 0.010435283 2.3142544e-38
-0.05059737 -0.13145791 0.010435283 2.2589734e-38
-0.048805356 -0.13145791 0.010435283 2.1852169e-38
-0.047132015 -0.1322781 0.0074270368 1.8809713e-38
-0.045334734 -0.1322781 0.0074270368 1.8164344e-38
-0.043537445 -0.1322781 0.0074270368 1.7426416e-38
-0.041740157 -0.1322781 0.0074270368 1.6226794e-38
-0.039845295 -0.13145791 0.010435283 1.6134954e-38
-0.038053282 -0.13145791 0.010435283 1.5765453e-38
-0.036261268 -0.13145791 0.010435283 1.5397033e-38
-0.03455101 -0.1322781 0.0074270368 1.4200656e-38
-0.032753728 -0.1322781 0.0074270368 1.4938943e-38
-0.030885233 -0.13145791 0.010435283 1.5031141e-38
-0.029093219 -0.13145791 0.010435283 1.4938227e-38
-0.027361864 -0.1322781 0.0074270368 1.5121539e-38
-0.025564579 -0.1322781 0.0074270368 1.4660561e-38
-0.023767291 -0.1322781 0.0074270368 1.5213735e-38
-0.021745434 -0.12816976 0.022495568 1.7149843e-38
-0.019974565 -0.12816976 0.022495568 1.6504119e-38
-0.018170414 -0.1273735 0.025416076 1.6874344e-38
-0.01640467 -0.1273735 0.025416076 1.6875065e-38
-0.014685946 -0.12899835 0.019456446 1.6231139e-38
-0.01290975 -0.12899835 0.019456446 1.6509168e-38
-0.011133555 -0.12899835 0.019456446 1.7155979e-38
-0.0075890739 -0.13145791 0.010435283 1.6326579e-38
-0.0057970602 -0.13145791 0.010435283 1.5590449e-38
-0.0039971378 -0.1322781 0.0074270368 1.5221675e-38
-0.0021998491 -0.1322781 0.0074270368 1.503839e-38
-0.00038399454 -0.13310309 0.0044011474 1.3932046e-38
0.001418598 -0.13310309 0.0044011474 1.4669594e-38
0.0032211896 -0.13310309 0.0044011474 1.734254e-38
0.0050237821 -0.13310309 0.0044011474 1.7894998e-38
0.0068263737 -0.13310309 0.0044011474 1.761913e-38
0.0086289663 -0.13310309 0.0044011474 1.5686618e-38
0.010431558 -0.13310309 0.0044011474 1.0802798e-38
0.01228825 -0.13390426 0.0014625192 7.4852515e-39
0.014036743 -0.13310309 0.0044011474 3.6127016e-39
0.015839335 -0.13310309 0.0044011474 5.8235876e-39
0.017711485 -0.13390426 0.0014625192 1.3195253e-38
0.019519228 -0.13390426 0.0014625192 1.3005455e-38
0.021410173 -0.13473894 -0.0015988946 1.0236698e-38
0.023223285 -0.13473894 -0.0015988946 1.0236337e-38
0.025157051 -0.13581105 -0.0055311322 1.0328175e-38
0.026977057 -0.13581105 -0.0055311322 8.8519688e-39
0.028797066 -0.13581105 -0.0055311322 9.4062243e-39
0.030617071 -0.13581105 -0.0055311322 1.0789159e-38
0.032437079 -0.13581105 -0.0055311322 9.9601142e-39
0.034257084 -0.13581105 -0.0055311322 9.5920463e-39
0.03607709 -0.13581105 -0.0055311322 9.3168888e-39
0.037897095 -0.13581105 -0.0055311322 8.0272205e-39
0.039717108 -0.13581105 -0.0055311322 8.5821852e-39
0.041537113 -0.13581105 -0.0055311322 1.0611205e-38
0.043501563 -0.13662781 -0.0085268617 9.2300685e-39
0.045326822 -0.13662781 -0.0085268617 9.4151829e-39
0.04715208 -0.13662781 -0.0085268617 9.3233516e-39
0.048977338 -0.13662781 -0.0085268617 1.0614456e-38
0.050802596 -0.13662781 -0.0085268617 1.1720804e-38
0.052627861 -0.13662781 -0.0085268617 1.2827504e-38
0.054630101 -0.13744931 -0.011539996 1.2642743e-38
0.056821749 -0.1390769 -0.017509639 1.3285936e-38
0.058662757 -0.1390769 -0.017509639 1.6049632e-38
0.06076324 -0.14018236 -0.021564186 1.6600268e-38
0.062611364 -0.14018236 -0.021564186 1.7244187e-38
-0.081280462 -0.13407536 0.0074270368 7.7530761e-39
-0.079483189 -0.13407536 0.0074270368 1.3839434e-38
-0.077477552 -0.13324992 0.010435283 1.6512754e-38
-0.075685538 -0.13324992 0.010435283 1.7433634e-38
-0.073893525 -0.13324992 0.010435283 1.8630735e-38
-0.072101511 -0.13324992 0.010435283 2.2316024e-38
-0.070123367 -0.13242932 0.013425887 2.2591531e-38
-0.068336591 -0.13242932 0.013425887 2.3142544e-38
-0.066549823 -0.13242932 0.013425887 2.350988e-38
-0.064763054 -0.13242932 0.013425887 2.3509874e-38
-0.062976286 -0.13242932 0.013425887 2.3509879e-38
-0.061189517 -0.13242932 0.013425887 2.350988e-38
-0.059402749 -0.13242932 0.013425887 2.3325129e-38
-0.057615981 -0.13242932 0.013425887 2.3233296e-38
-0.055829205 -0.13242932 0.013425887 2.341805e-38
-0.054042436 -0.13242932 0.013425887 2.2864879e-38
-0.052255668 -0.13242932 0.013425887 2.1022048e-38
-0.05059737 -0.13324992 0.010435283 2.0192649e-38
-0.048805356 -0.13324992 0.010435283 2.0008258e-38
-0.047132015 -0.13407536 0.0074270368 1.7612251e-38
-0.045334734 -0.13407536 0.0074270368 1.7796642e-38
-0.043429323 -0.13324992 0.010435283 1.742678e-38
-0.041637309 -0.13324992 0.010435283 1.6043846e-38
-0.039845295 -0.13324992 0.010435283 1.5951649e-38
-0.03796152 -0.13242932 0.013425887 1.5674702e-38
-0.036174752 -0.13242932 0.013425887 1.5398475e-38
-0.034469262 -0.13324992 0.010435283 1.475383e-38
-0.032677248 -0.13324992 0.010435283 1.4477962e-38
-0.030885233 -0.13324992 0.010435283 1.438505e-38
-0.029027676 -0.13242932 0.013425887 1.4937145e-38
-0.027240908 -0.13242932 0.013425887 1.5029341e-38
-0.025509195 -0.13324992 0.010435283 1.4475807e-38
-0.023667371 -0.13242932 0.013425887 1.4659842e-38
-0.021880602 -0.13242932 0.013425887 1.5950581e-38
-0.019974565 -0.12994061 0.022495568 1.6319728e-38
-0.018170414 -0.12913923 0.025416076 1.6873983e-38
-0.01640467 -0.12913923 0.025416076 1.678287e-38
-0.014685946 -0.13077454 0.019456446 1.6046748e-38
-0.01290975 -0.13077454 0.019456446 1.6324777e-38
-0.011146957 -0.13161351 0.016398966 1.7155979e-38
-0.0093654003 -0.13161351 0.016398966 1.7156342e-38
-0.0075890739 -0.13324992 0.010435283 1.6143269e-38
-0.0057970602 -0.13324992 0.010435283 1.5590449e-38
-0.0039971378 -0.13407536 0.0074270368 1.5498262e-38
-0.0021998491 -0.13407536 0.0074270368 1.5129867e-38
-0.00040256325 -0.13407536 0.0074270368 1.4207911e-38
0.001418598 -0.13490568 0.0044011474 1.6051441e-38
0.0032211896 -0.13490568 0.0044011474 1.9184643e-38
0.0050237821 -0.13490568 0.0044011474 1.9643817e-38
0.0068263737 -0.13490568 0.0044011474 1.9551621e-38
0.0086289663 -0.13490568 0.0044011474 1.8449229e-38
0.010431558 -0.13490568 0.0044011474 1.1906249e-38
0.012234151 -0.13490568 0.0044011474 7.760028e-39
0.014036743 -0.13490568 0.0044011474 2.8740491e-39
0.015839335 -0.13490568 0.0044011474 5.5462763e-39
0.017641926 -0.13490568 0.0044011474 1.273464e-38
0.019519228 -0.13571201 0.0014625192 1.2267889e-38
0.021326974 -0.13571201 0.0014625192 9.4072921e-39
0.023223285 -0.13655205 -0.0015988946 9.3150937e-39
0.025036396 -0.13655205 -0.0015988946 8.9463112e-39
0.02684951 -0.13655205 -0.0015988946 7.470465e-39
0.02866262 -0.13655205 -0.0015988946 8.9459595e-39
0.030617071 -0.13763104 -0.0055311322 1.0236698e-38
0.032437079 -0.13763104 -0.0055311322 8.1161974e-39
0.034101956 -0.13655205 -0.0015988946 7.9328781e-39
0.035915069 -0.13655205 -0.0015988946 9.7782214e-39
0.037897095 -0.13763104 -0.0055311322 9.6867363e-39
0.039717108 -0.13763104 -0.0055311322 1.005695e-38
0.041537113 -0.13763104 -0.0055311322 1.162571e-38
0.043501563 -0.13845308 -0.0085268617 8.6768891e-39
0.045326822 -0.13845308 -0.0085268617 8.4010281e-39
0.04715208 -0.13845308 -0.0085268617 9.1389603e-39
0.048977338 -0.13845308 -0.0085268617 1.0337869e-38
0.050802596 -0.13845308 -0.0085268617 1.1260547e-38
0.052627861 -0.13845308 -0.0085268617 1.1445293e-38
0.054630101 -0.13927986 -0.011539996 1.2366159e-38
0.056821749 -0.14091791 -0.017509639 1.3654363e-38
0.058662757 -0.14091791 -0.017509639 1.6326579e-38
0.060503766 -0.14091791 -0.017509639 1.6692463e-38
0.062611364 -0.14203046 -0.021564186 1.7244187e-38
-0.081280462 -0.13587265 0.0074270368 7.7537978e-39
-0.079483189 -0.13587265 0.0074270368 1.2641251e-38
-0.077477552 -0.13504194 0.010435283 1.7342878e-38
-0.075685538 -0.13504194 0.010435283 1.7618747e-38
-0.073696904 -0.13421609 0.013425887 1.8262676e-38
-0.071910135 -0.13421609 0.013425887 2.2132353e-38
-0.070123367 -0.13421609 0.013425887 2.2683366e-38
-0.068156749 -0.13339506 0.016398966 2.3142544e-38
-0.066375189 -0.13339506 0.016398966 2.350988e-38
-0.064593635 -0.13339506 0.016398966 2.3417679e-38
-0.062812082 -0.13339506 0.016398966 2.3509879e-38
-0.061030529 -0.13339506 0.016398966 2.3509879e-38
-0.059248969 -0.13339506 0.016398966 2.350952e-38
-0.057615981 -0.13421609 0.013425887 2.3509883e-38
-0.055829205 -0.13421609 0.013425887 2.341805e-38
-0.053904302 -0.13339506 0.016398966 2.1759613e-38
-0.052122749 -0.13339506 0.016398966 1.9178497e-38
-0.050468899 -0.13421609 0.013425887 1.7888482e-38
-0.048682131 -0.13421609 0.013425887 1.7427503e-38
-0.047132015 -0.13587265 0.0074270368 1.6506269e-38
-0.045221329 -0.13504194 0.010435283 1.7612616e-38
-0.043429323 -0.13504194 0.010435283 1.7428222e-38
-0.041637309 -0.13504194 0.010435283 1.6690657e-38
-0.039845295 -0.13504194 0.010435283 1.6321875e-38
-0.03796152 -0.13421609 0.013425887 1.5399555e-38
-0.036174752 -0.13421609 0.013425887 1.5491751e-38
-0.034469262 -0.13504194 0.010435283 1.5031136e-38
-0.032677248 -0.13504194 0.010435283 1.4385048e-38
-0.030814445 -0.13421609 0.013425887 1.4384327e-38
-0.028962517 -0.13339506 0.016398966 1.5029697e-38
-0.02718096 -0.13339506 0.016398966 1.5213372e-38
-0.025399407 -0.13339506 0.016398966 1.4844589e-38
-0.023617847 -0.13339506 0.016398966 1.5212296e-38
-0.021836294 -0.13339506 0.016398966 1.576547e-38
-0.02001453 -0.13255073 0.019456446 1.5858387e-38
-0.0182037 -0.1317115 0.022495568 1.6228614e-38
-0.016432833 -0.1317115 0.022495568 1.6414087e-38
-0.014661966 -0.1317115 0.022495568 1.6323335e-38
-0.01290975 -0.13255073 0.019456446 1.6785755e-38
-0.011146957 -0.13339506 0.016398966 1.7432566e-38
-0.0075890739 -0.13504194 0.010435283 1.5958878e-38
-0.0058022887 -0.13339506 0.016398966 1.5958152e-38
-0.0040207338 -0.13339506 0.016398966 1.6050716e-38
-0.0022130366 -0.13504194 0.010435283 1.5590122e-38
-0.00040256325 -0.13587265 0.0074270368 1.4944753e-38
0.0013947235 -0.13587265 0.0074270368 1.7986104e-38
0.0031920103 -0.13587265 0.0074270368 2.1856129e-38
0.0049892971 -0.13587265 0.0074270368 2.2498619e-38
0.0068263737 -0.13670824 0.0044011474 2.2498978e-38
0.0086289663 -0.13670824 0.0044011474 2.148807e-38
0.010431558 -0.13670824 0.0044011474 1.2548723e-38
0.012234151 -0.13670824 0.0044011474 8.3110311e-39
0.014036743 -0.13670824 0.0044011474 3.1491899e-39
0.015839335 -0.13670824 0.0044011474 4.4395658e-39
0.017641926 -0.13670824 0.0044011474 8.9539006e-39
0.01944452 -0.13670824 0.0044011474 8.6722564e-39
0.021247111 -0.13670824 0.0044011474 8.485333e-39
0.023134718 -0.13751976 0.0014625192 8.8544673e-39
0.024942463 -0.13751976 0.0014625192 8.8551861e-39
0.026750205 -0.13751976 0.0014625192 8.1172666e-39
0.02866262 -0.13836516 -0.0015988946 1.0698391e-38
0.030475734 -0.13836516 -0.0015988946 1.2080609e-38
0.032437079 -0.13945107 -0.0055311322 8.485696e-39
0.034101956 -0.13836516 -0.0015988946 8.2094622e-39
0.035915069 -0.13836516 -0.0015988946 1.1253349e-38
0.037897095 -0.13945107 -0.0055311322 1.503444e-38
0.039717108 -0.13945107 -0.0055311322 1.4758924e-38
0.041537113 -0.13945107 -0.0055311322 1.4852556e-38
0.043357119 -0.13945107 -0.0055311322 9.1378673e-39
0.045326822 -0.14027832 -0.0085268617 7.6634631e-39
0.04715208 -0.14027832 -0.0085268617 8.9552879e-39
0.048977338 -0.14027832 -0.0085268617 1.0062007e-38
0.050802596 -0.14027832 -0.0085268617 1.1076159e-38
0.052627861 -0.14027832 -0.0085268617 1.0892122e-38
0.054808103 -0.14194728 -0.014570534 1.2273963e-38
0.056821749 -0.14275892 -0.017509639 1.3747638e-38
0.058662757 -0.14275892 -0.017509639 1.6510973e-38
0.060503766 -0.14275892 -0.017509639 1.6600271e-38
0.062611364 -0.14387859 -0.021564186 1.7151991e-38
-0.081280462 -0.13766994 0.0074270368 8.5842815e-39
-0.079483189 -0.13766994 0.0074270368 1.2734168e-38
-0.077477552 -0.13683395 0.010435283 1.7435793e-38
-0.075685538 -0.13683395 0.010435283 1.7896053e-38
-0.073696904 -0.13600285 0.013425887 1.7894612e-38
-0.071910135 -0.13600285 0.013425887 2.148807e-38
-0.070123367 -0.13600285 0.013425887 2.2683366e-38
-0.068156749 -0.13517661 0.016398966 2.3142544e-38
-0.066375189 -0.13517661 0.016398966 2.3418043e-38
-0.064593635 -0.13517661 0.016398966 2.3509876e-38
-0.062812082 -0.13517661 0.016398966 2.3509879e-38
-0.061030529 -0.13517661 0.016398966 2.3509879e-38
-0.059248969 -0.13517661 0.016398966 2.350988e-38
-0.057467408 -0.13517661 0.016398966 2.3509883e-38
-0.055685855 -0.13517661 0.016398966 2.3234379e-38
-0.053904302 -0.13517661 0.016398966 2.1575582e-38
-0.052122749 -0.13517661 0.016398966 1.8626047e-38
-0.050468899 -0.13600285 0.013425887 1.7151638e-38
-0.048682131 -0.13600285 0.013425887 1.6506632e-38
-0.047013342 -0.13683395 0.010435283 1.6506632e-38
-0.045221329 -0.13683395 0.010435283 1.7060884e-38
-0.043429323 -0.13683395 0.010435283 1.6784298e-38
-0.041637309 -0.13683395 0.010435283 1.6876493e-38
-0.039845295 -0.13683395 0.010435283 1.6415512e-38
-0.03796152 -0.13600285 0.013425887 1.5124053e-38
-0.036174752 -0.13600285 0.013425887 1.5677227e-38
-0.034469262 -0.13683395 0.010435283 1.4662353e-38
-0.032677248 -0.13683395 0.010435283 1.4108817e-38
-0.030814445 -0.13600285 0.013425887 1.447652e-38
-0.028962517 -0.13517661 0.016398966 1.5213366e-38
-0.02718096 -0.13517661 0.016398966 1.5488877e-38
-0.025399407 -0.13517661 0.016398966 1.5673268e-38
-0.023617847 -0.13517661 0.016398966 1.6317922e-38
-0.021836294 -0.13517661 0.016398966 1.6503035e-38
-0.019974565 -0.13348235 0.022495568 1.5950582e-38
-0.018170414 -0.13267075 0.025416076 1.6135339e-38
-0.016375707 -0.13183604 0.028419554 1.6136781e-38
-0.014615227 -0.13183604 0.028419554 1.6507007e-38
-0.01290975 -0.13432692 0.019456446 1.7246733e-38
-0.011146957 -0.13517661 0.016398966 1.7801349e-38
-0.0093654003 -0.13517661 0.016398966 1.7432931e-38
-0.0075838454 -0.13517661 0.016398966 1.6695364e-38
-0.0058022887 -0.13517661 0.016398966 1.6141822e-38
-0.0040207338 -0.13517661 0.016398966 1.6418777e-38
-0.0022130366 -0.13683395 0.010435283 1.5681954e-38
-0.00040256325 -0.13766994 0.0074270368 1.4944388e-38
0.0013947235 -0.13766994 0.0074270368 1.8906254e-38
0.0031920103 -0.13766994 0.0074270368 2.2775202e-38
0.0049892971 -0.13766994 0.0074270368 2.3509886e-38
0.0067865839 -0.13766994 0.0074270368 2.3509883e-38
0.0086289663 -0.13851084 0.0044011474 2.295887e-38
0.010431558 -0.13851084 0.0044011474 1.3190841e-38
0.012234151 -0.13851084 0.0044011474 9.4152095e-39
0.014036743 -0.13851084 0.0044011474 3.8856661e-39
0.015839335 -0.13851084 0.0044011474 4.3466429e-39
0.017641926 -0.13851084 0.0044011474 6.9248723e-39
0.01944452 -0.13851084 0.0044011474 6.1815325e-39
0.021247111 -0.13851084 0.0044011474 6.825446e-39
0.023049703 -0.13851084 0.0044011474 7.5648005e-39
0.024852296 -0.13851084 0.0044011474 8.3034417e-39
0.026654886 -0.13851084 0.0044011474 7.9343089e-39
0.028557951 -0.13932751 0.0014625192 1.0238845e-38
0.030475734 -0.14017828 -0.0015988946 1.1436312e-38
0.032288842 -0.14017828 -0.0015988946 7.5651746e-39
0.034101956 -0.14017828 -0.0015988946 7.1041909e-39
0.035915069 -0.14017828 -0.0015988946 1.0608695e-38
0.037897095 -0.14127107 -0.0055311322 1.6602842e-38
0.039717108 -0.14127107 -0.0055311322 1.6419164e-38
0.041537113 -0.14127107 -0.0055311322 1.5683395e-38
0.043357119 -0.14127107 -0.0055311322 8.0325987e-39
0.045326822 -0.1421036 -0.0085268617 5.9121105e-39
0.04715208 -0.1421036 -0.0085268617 8.0329785e-39
0.048977338 -0.1421036 -0.0085268617 8.9553061e-39
0.050802596 -0.1421036 -0.0085268617 9.6013944e-39
0.052627861 -0.1421036 -0.0085268617 1.0891765e-38
0.054630101 -0.14294095 -0.011539996 1.2273966e-38
0.056643963 -0.14378314 -0.014570534 1.3655442e-38
0.058662757 -0.14459993 -0.017509639 1.6510973e-38
0.060503766 -0.14459993 -0.017509639 1.6509154e-38
0.062611364 -0.1457267 -0.021564186 1.7336745e-38
-0.081280462 -0.13946722 0.0074270368 1.0427105e-38
-0.079483189 -0.13946722 0.0074270368 1.4945777e-38
-0.0776859 -0.13946722 0.0074270368 1.7067363e-38
-0.075685538 -0.13862596 0.010435283 1.7804572e-38
-0.073696904 -0.13778962 0.013425887 1.7342515e-38
-0.071910135 -0.13778962 0.013425887 2.056792e-38
-0.069938309 -0.13695817 0.016398966 2.2132353e-38
-0.067971803 -0.13610314 0.019456446 2.2775202e-38
-0.066195607 -0.13610314 0.019456446 2.2775202e-38
-0.064419411 -0.13610314 0.019456446 2.2958873e-38
-0.062812082 -0.13695817 0.016398966 2.2315661e-38
-0.061030529 -0.13695817 0.016398966 2.2591531e-38
-0.059248969 -0.13695817 0.016398966 2.2591531e-38
-0.057467408 -0.13695817 0.016398966 2.240786e-38
-0.055685855 -0.13695817 0.016398966 2.2499695e-38
-0.053904302 -0.13695817 0.016398966 2.1301883e-38
-0.052122749 -0.13695817 0.016398966 1.8903719e-38
-0.050468899 -0.13778962 0.013425887 1.7059807e-38
-0.048682131 -0.13778962 0.013425887 1.7244198e-38
-0.047013342 -0.13862596 0.010435283 1.7244197e-38
-0.045221329 -0.13862596 0.010435283 1.7059805e-38
-0.043429323 -0.13862596 0.010435283 1.6230401e-38
-0.041637309 -0.13862596 0.010435283 1.687577e-38
-0.039845295 -0.13862596 0.010435283 1.6506988e-38
-0.03796152 -0.13778962 0.013425887 1.5031139e-38
-0.036174752 -0.13778962 0.013425887 1.5953095e-38
-0.034469262 -0.13862596 0.010435283 1.5030417e-38
-0.032677248 -0.13862596 0.010435283 1.4569439e-38
-0.030814445 -0.13778962 0.013425887 1.5306284e-38
-0.028962517 -0.13695817 0.016398966 1.5675066e-38
-0.02718096 -0.13695817 0.016398966 1.5489959e-38
-0.025399407 -0.13695817 0.016398966 1.5858741e-38
-0.023617847 -0.13695817 0.016398966 1.6780342e-38
-0.021790726 -0.13610314 0.019456446 1.6964734e-38
-0.019936161 -0.13443647 0.025416076 1.7241684e-38
-0.018136187 -0.13359652 0.028419554 1.6597397e-38
-0.016346915 -0.13276155 0.03140527 1.6228977e-38
-0.01459167 -0.13276155 0.03140527 1.6414812e-38
-0.012854746 -0.13359652 0.028419554 1.7246014e-38
-0.011094267 -0.13359652 0.028419554 1.7892465e-38
-0.0057944227 -0.13946722 0.0074270368 1.6141825e-38
-0.0040050484 -0.13862596 0.010435283 1.6418058e-38
-0.0022130366 -0.13862596 0.010435283 1.5312449e-38
-0.00040256325 -0.13946722 0.0074270368 1.4574161e-38
0.0013947235 -0.13946722 0.0074270368 1.8444911e-38
0.0031920103 -0.13946722 0.0074270368 2.2775202e-38
0.0049892971 -0.13946722 0.0074270368 2.3324407e-38
0.0067865839 -0.13946722 0.0074270368 2.3324401e-38
0.0086289663 -0.14031343 0.0044011474 2.3234372e-38
0.010431558 -0.14031343 0.0044011474 1.3651098e-38
0.012234151 -0.14031343 0.0044011474 9.8758261e-39
0.014036743 -0.14031343 0.0044011474 3.7009105e-39
0.015839335 -0.14031343 0.0044011474 4.530674e-39
0.017641926 -0.14031343 0.0044011474 7.8468286e-39
0.01944452 -0.14031343 0.0044011474 6.9194521e-39
0.021247111 -0.14031343 0.0044011474 6.7336049e-39
0.023049703 -0.14031343 0.0044011474 9.5001898e-39
0.024852296 -0.14031343 0.0044011474 1.0330669e-38
0.026654886 -0.14031343 0.0044011474 8.7622717e-39
0.028557951 -0.14113526 0.0014625192 9.4076425e-39
0.030475734 -0.14199139 -0.0015988946 9.9608162e-39
0.032288842 -0.14199139 -0.0015988946 6.9183591e-39
0.034101956 -0.14199139 -0.0015988946 7.1960179e-39
0.03607709 -0.14309107 -0.0055311322 1.0977111e-38
0.037897095 -0.14309107 -0.0055311322 1.5311376e-38
0.039717108 -0.14309107 -0.0055311322 1.5681232e-38
0.041537113 -0.14309107 -0.0055311322 1.5590474e-38
0.043357119 -0.14309107 -0.0055311322 7.6630945e-39
0.045326822 -0.14392884 -0.0085268617 5.6358809e-39
0.04715208 -0.14392884 -0.0085268617 8.4028372e-39
0.048977338 -0.14392884 -0.0085268617 9.4170031e-39
0.050802596 -0.14392884 -0.0085268617 9.7857829e-39
0.052627861 -0.14392884 -0.0085268617 1.1168706e-38
0.054630101 -0.1447715 -0.011539996 1.2366156e-38
0.056643963 -0.14561899 -0.014570534 1.3563246e-38
0.058479816 -0.14561899 -0.014570534 1.6418777e-38
0.060503766 -0.14644094 -0.017509639 1.6693908e-38
0.062611364 -0.14757483 -0.021564186 1.7706251e-38
-0.081280462 -0.14126451 0.0074270368 1.1069941e-38
-0.079483189 -0.14126451 0.0074270368 1.4298592e-38
-0.0776859 -0.14126451 0.0074270368 1.7065908e-38
-0.075685538 -0.14041798 0.010435283 1.7988949e-38
-0.073696904 -0.13957639 0.013425887 1.7712729e-38
-0.071719863 -0.13873972 0.016398966 1.8726528e-38
-0.069747992 -0.13787933 0.019456446 2.1673176e-38
-0.067971803 -0.13787933 0.019456446 2.1856847e-38
-0.066195607 -0.13787933 0.019456446 2.1396593e-38
-0.064419411 -0.13787933 0.019456446 2.1856847e-38
-0.062643223 -0.13787933 0.019456446 2.0295643e-38
-0.060867019 -0.13787933 0.019456446 2.0111972e-38
-0.05909083 -0.13787933 0.019456446 2.0938492e-38
-0.057467408 -0.13873972 0.016398966 2.1213998e-38
-0.055685855 -0.13873972 0.016398966 2.0754462e-38
-0.053904302 -0.13873972 0.016398966 1.9369388e-38
-0.052122749 -0.13873972 0.016398966 1.7984293e-38
-0.050468899 -0.13957639 0.013425887 1.7430034e-38
-0.048682131 -0.13957639 0.013425887 1.7244198e-38
-0.047013342 -0.14041798 0.010435283 1.7428225e-38
-0.045221329 -0.14041798 0.010435283 1.7795563e-38
-0.043429323 -0.14041798 0.010435283 1.7795561e-38
-0.041637309 -0.14041798 0.010435283 1.7518614e-38
-0.039845295 -0.14041798 0.010435283 1.6965083e-38
-0.038053282 -0.14041798 0.010435283 1.6319714e-38
-0.036261268 -0.14041798 0.010435283 1.5859457e-38
-0.034469262 -0.14041798 0.010435283 1.4846029e-38
-0.032677248 -0.14041798 0.010435283 1.5031141e-38
-0.030814445 -0.13957639 0.013425887 1.5215533e-38
-0.028962517 -0.13873972 0.016398966 1.5307728e-38
-0.02718096 -0.13873972 0.016398966 1.5676154e-38
-0.025287164 -0.13702409 0.022495568 1.6229327e-38
-0.023467654 -0.13620223 0.025416076 1.6690308e-38
-0.021657145 -0.13535701 0.028419554 1.6782504e-38
-0.019857405 -0.13451682 0.03140527 1.6966539e-38
-0.01810216 -0.13451682 0.03140527 1.5953109e-38
-0.016317341 -0.13365383 0.034471869 1.7059099e-38
-0.014567474 -0.13365383 0.034471869 1.6414809e-38
-0.012836425 -0.13451682 0.03140527 1.6876509e-38
-0.0057944227 -0.14126451 0.0074270368 1.6601729e-38
-0.0040050484 -0.14041798 0.010435283 1.7155628e-38
-0.0022130366 -0.14041798 0.010435283 1.6141487e-38
-0.00040256325 -0.14126451 0.0074270368 1.5034775e-38
0.0013947235 -0.14126451 0.0074270368 1.7706265e-38
0.0031920103 -0.14126451 0.0074270368 2.2497539e-38
0.0049892971 -0.14126451 0.0074270368 2.3509869e-38
0.0068263737 -0.14211603 0.0044011474 2.3233636e-38
0.0086289663 -0.14211603 0.0044011474 2.3050707e-38
0.010431558 -0.14211603 0.0044011474 1.3189774e-38
0.012234151 -0.14211603 0.0044011474 9.5066862e-39
0.014036743 -0.14211603 0.0044011474 3.5158032e-39
0.015839335 -0.14211603 0.0044011474 4.8061875e-39
0.017641926 -0.14211603 0.0044011474 6.3716999e-39
0.01944452 -0.14211603 0.0044011474 7.01344e-39
0.021247111 -0.14211603 0.0044011474 7.6555584e-39
0.023049703 -0.14211603 0.0044011474 1.0511832e-38
0.024852296 -0.14211603 0.0044011474 1.1156125e-38
0.026654886 -0.14211603 0.0044011474 1.0510037e-38
0.028557951 -0.14294298 0.0014625192 1.0325643e-38
0.030475734 -0.14380451 -0.0015988946 1.0233802e-38
0.032288842 -0.14380451 -0.0015988946 7.9299816e-39
0.034101956 -0.14380451 -0.0015988946 7.6544653e-39
0.03607709 -0.14491107 -0.0055311322 1.115897e-38
0.037897095 -0.14491107 -0.0055311322 1.5125532e-38
0.039717108 -0.14491107 -0.0055311322 1.5680142e-38
0.041537113 -0.14491107 -0.0055311322 1.3653636e-38
0.043501563 -0.14575411 -0.0085268617 8.2158998e-39
0.045326822 -0.14575411 -0.0085268617 6.0050137e-39
0.04715208 -0.14575411 -0.0085268617 7.389037e-39
0.048977338 -0.14575411 -0.0085268617 8.1276936e-39
0.050802596 -0.14575411 -0.0085268617 9.4173521e-39
0.052627861 -0.14575411 -0.0085268617 1.1721509e-38
0.054630101 -0.14660202 -0.011539996 1.2642732e-38
0.056643963 -0.14745484 -0.014570534 1.3839109e-38
0.058479816 -0.14745484 -0.014570534 1.6235465e-38
-0.081500642 -0.14391862 0.0044011474 1.051496e-38
-0.079698049 -0.14391862 0.0044011474 1.272946e-38
-0.0776859 -0.1430618 0.0074270368 1.7618713e-38
-0.075685538 -0.14220999 0.010435283 1.8265892e-38
-0.073696904 -0.14136316 0.013425887 1.7345386e-38
-0.071719863 -0.14052127 0.016398966 1.7622701e-38
-0.069747992 -0.13965552 0.019456446 2.0203808e-38
-0.067971803 -0.13965552 0.019456446 2.0938492e-38
-0.066195607 -0.13965552 0.019456446 2.0017626e-38
-0.064419411 -0.13965552 0.019456446 2.0019778e-38
-0.062643223 -0.13965552 0.019456446 1.9836466e-38
-0.060867019 -0.13965552 0.019456446 1.8090515e-38
-0.05909083 -0.13965552 0.019456446 1.7074582e-38
-0.057467408 -0.14052127 0.016398966 1.6611446e-38
-0.055685855 -0.14052127 0.016398966 1.6239426e-38
-0.053904302 -0.14052127 0.016398966 1.5959959e-38
-0.052122749 -0.14052127 0.016398966 1.651061e-38
-0.050341189 -0.14052127 0.016398966 1.7522954e-38
-0.048682131 -0.14136316 0.013425887 1.7337473e-38
-0.047013342 -0.14220999 0.010435283 1.6782853e-38
-0.045221329 -0.14220999 0.010435283 1.6965801e-38
-0.043429323 -0.14220999 0.010435283 1.7795198e-38
-0.041740157 -0.1430618 0.0074270368 1.8162902e-38
-0.039845295 -0.14220999 0.010435283 1.7240949e-38
-0.038053282 -0.14220999 0.010435283 1.6411189e-38
-0.036261268 -0.14220999 0.010435283 1.6227521e-38
-0.034469262 -0.14220999 0.010435283 1.5675792e-38
-0.032677248 -0.14220999 0.010435283 1.5768707e-38
-0.030814445 -0.14136316 0.013425887 1.5860545e-38
-0.028962517 -0.14052127 0.016398966 1.5769068e-38
-0.02718096 -0.14052127 0.016398966 1.6045655e-38
-0.025287164 -0.13879494 0.022495568 1.6691027e-38
-0.023467654 -0.13796796 0.025416076 1.7244201e-38
-0.021657145 -0.13711749 0.028419554 1.7428236e-38
-0.019857405 -0.13627206 0.03140527 1.8350193e-38
-0.01810216 -0.13627206 0.03140527 1.7152731e-38
-0.016317341 -0.13540371 0.034471869 1.7798101e-38
-0.014567474 -0.13540371 0.034471869 1.6783949e-38
-0.012836425 -0.13627206 0.03140527 1.6967983e-38
-0.0040050484 -0.14220999 0.010435283 1.7155272e-38
-0.0022130366 -0.14220999 0.010435283 1.6325875e-38
-0.00040256325 -0.1430618 0.0074270368 1.5587226e-38
0.001418598 -0.14391862 0.0044011474 1.7337122e-38
0.0031920103 -0.1430618 0.0074270368 2.0839096e-38
0.0049892971 -0.1430618 0.0074270368 2.3234355e-38
0.0068263737 -0.14391862 0.0044011474 2.3049608e-38
0.0086289663 -0.14391862 0.0044011474 2.1576663e-38
0.010431558 -0.14391862 0.0044011474 1.1253675e-38
0.012234151 -0.14391862 0.0044011474 8.1237546e-39
0.014036743 -0.14391862 0.0044011474 3.423609e-39
0.015839335 -0.14391862 0.0044011474 4.5296034e-39
0.017641926 -0.14391862 0.0044011474 6.1865898e-39
0.01944452 -0.14391862 0.0044011474 6.8294018e-39
0.021247111 -0.14391862 0.0044011474 6.9183478e-39
0.023049703 -0.14391862 0.0044011474 8.9434273e-39
0.024852296 -0.14391862 0.0044011474 8.4817331e-39
0.026654886 -0.14391862 0.0044011474 8.4810142e-39
0.028557951 -0.14475073 0.0014625192 9.7721076e-39
0.030475734 -0.14561762 -0.0015988946 1.0233439e-38
0.032288842 -0.14561762 -0.0015988946 8.2062028e-39
0.034257084 -0.14673109 -0.0055311322 7.7459365e-39
0.03607709 -0.14673109 -0.0055311322 9.7756697e-39
0.037897095 -0.14673109 -0.0055311322 1.3188702e-38
0.039717108 -0.14673109 -0.0055311322 1.2822433e-38
0.041676305 -0.14757936 -0.0085268617 1.061118e-38
0.043501563 -0.14757936 -0.0085268617 5.9117279e-39
0.045326822 -0.14757936 -0.0085268617 4.6220793e-39
0.04715208 -0.14757936 -0.0085268617 6.3752466e-39
0.048977338 -0.14757936 -0.0085268617 7.3904887e-39
0.050802596 -0.14757936 -0.0085268617 9.0496457e-39
0.05279956 -0.14843257 -0.011539996 1.0706989e-38
0.054630101 -0.14843257 -0.011539996 1.2825678e-38
0.056643963 -0.14929073 -0.014570534 1.4852895e-38
0.058479816 -0.14929073 -0.014570534 1.7617318e-38
-0.081500642 -0.14572121 0.0044011474 1.1067415e-38
-0.079698049 -0.14572121 0.0044011474 1.2452876e-38
-0.077477552 -0.14400201 0.010435283 1.4944687e-38
-0.075483672 -0.14314993 0.013425887 1.6883323e-38
-0.073501416 -0.14230286 0.016398966 1.6792941e-38
-0.071524195 -0.1414317 0.019456446 1.6240853e-38
-0.069747992 -0.1414317 0.019456446 1.7347926e-38
-0.067971803 -0.1414317 0.019456446 1.8269523e-38
-0.066195607 -0.1414317 0.019456446 1.8545029e-38
-0.064419411 -0.1414317 0.019456446 1.9007794e-38
-0.062643223 -0.1414317 0.019456446 1.8181274e-38
-0.060867019 -0.1414317 0.019456446 1.790505e-38
-0.05909083 -0.1414317 0.019456446 1.7811421e-38
-0.057314627 -0.1414317 0.019456446 1.7532326e-38
-0.055538438 -0.1414317 0.019456446 1.6700407e-38
-0.053762242 -0.1414317 0.019456446 1.6236548e-38
-0.051986046 -0.1414317 0.019456446 1.6695364e-38
-0.050341189 -0.14230286 0.016398966 1.7707708e-38
-0.048559636 -0.14230286 0.016398966 1.872077e-38
-0.047013342 -0.14400201 0.010435283 1.7336748e-38
-0.045221329 -0.14400201 0.010435283 1.7059077e-38
-0.043429323 -0.14400201 0.010435283 1.825654e-38
-0.041740157 -0.14485909 0.0074270368 1.8440931e-38
-0.039942876 -0.14485909 0.0074270368 1.7057998e-38
-0.038053282 -0.14400201 0.010435283 1.6136044e-38
-0.036261268 -0.14400201 0.010435283 1.6227884e-38
-0.034387983 -0.14314993 0.013425887 1.6044572e-38
-0.032601215 -0.14314993 0.013425887 1.6136767e-38
-0.030814445 -0.14314993 0.013425887 1.6044575e-38
-0.029027676 -0.14314993 0.013425887 1.5676511e-38
-0.02718096 -0.14230286 0.016398966 1.6045293e-38
-0.025343118 -0.1414317 0.019456446 1.6966892e-38
-0.023516299 -0.14056583 0.022495568 1.7612262e-38
-0.021701908 -0.13973372 0.025416076 1.7705179e-38
-0.019896666 -0.13887797 0.028419554 1.8073962e-38
-0.01810216 -0.1380273 0.03140527 1.7520432e-38
-0.016317341 -0.13715358 0.034471869 1.798141e-38
-0.014567474 -0.13715358 0.034471869 1.7151649e-38
-0.012836425 -0.1380273 0.03140527 1.7336043e-38
-0.0021865871 -0.14572121 0.0044011474 1.6602102e-38
-0.00038399454 -0.14572121 0.0044011474 1.6324791e-38
0.001418598 -0.14572121 0.0044011474 1.7060897e-38
0.0032211896 -0.14572121 0.0044011474 1.9272491e-38
0.0050237821 -0.14572121 0.0044011474 2.2128016e-38
0.0068263737 -0.14572121 0.0044011474 2.3234369e-38
0.0086289663 -0.14572121 0.0044011474 2.1300804e-38
