# .PCD v0.7 - Point Cloud Data file format
VERSION 0.7
FIELDS x y z rgb
SIZE 4 4 4 4
TYPE F F F F
COUNT 1 1 1 1
WIDTH 597
HEIGHT 1
VIEWPOINT 0 0 0 1 0 0 0
POINTS 597
DATA ascii
-0.0072262129 -0.11071031 -0.029645741 2.341805e-38
-0.005465732 -0.11071031 -0.029645741 2.341805e-38
-0.0037052529 -0.11071031 -0.029645741 2.3509886e-38
-0.001944772 -0.11071031 -0.029645741 2.3509886e-38
-0.00018429291 -0.11071031 -0.029645741 2.341805e-38
0.001576188 -0.11071031 -0.029645741 2.3234379e-38
0.0033366689 -0.11071031 -0.029645741 2.341805e-38
0.0086181061 -0.11071031 -0.029645741 2.3509883e-38
0.010378585 -0.11071031 -0.029645741 2.3509521e-38
-0.0072916495 -0.11169861 -0.026660025 2.341805e-38
-0.0056089899 -0.11090554 -0.023593426 2.341805e-38
-0.0038591223 -0.11090554 -0.023593426 2.3509527e-38
-0.0020259144 -0.11169861 -0.026660025 2.3509886e-38
-0.00027066935 -0.11169861 -0.026660025 2.341805e-38
0.0013904823 -0.11090554 -0.023593426 2.3234379e-38
0.0031403499 -0.11090554 -0.023593426 2.341805e-38
0.0049950639 -0.11169861 -0.026660025 2.341805e-38
0.0067503089 -0.11169861 -0.026660025 2.3509527e-38
0.0085055539 -0.11169861 -0.026660025 2.3509883e-38
0.010260799 -0.11169861 -0.026660025 2.3509521e-38
-0.0072916495 -0.11345388 -0.026660025 2.341805e-38
-0.0056788111 -0.11188738 -0.020643651 2.341805e-38
-0.0039341161 -0.11188738 -0.020643651 2.3509527e-38
-0.0021092547 -0.11265542 -0.023593426 2.3509886e-38
-0.00035938527 -0.11265542 -0.023593426 2.341805e-38
0.0013904823 -0.11265542 -0.023593426 2.3234379e-38
0.0031403499 -0.11265542 -0.023593426 2.341805e-38
0.0048902193 -0.11265542 -0.023593426 2.341805e-38
0.006640085 -0.11265542 -0.023593426 2.3509527e-38
0.0083899545 -0.11265542 -0.023593426 2.3509883e-38
0.0099039236 -0.11109848 -0.017613769 2.3509521e-38
0.01164331 -0.11109848 -0.017613769 2.3509521e-38
0.013382693 -0.11109848 -0.017613769 2.3509161e-38
-0.007423508 -0.11363207 -0.020643651 2.341805e-38
-0.0056788111 -0.11363207 -0.020643651 2.3509886e-38
-0.0039341161 -0.11363207 -0.020643651 2.3509527e-38
-0.0021894192 -0.11363207 -0.020643651 2.3509886e-38
-0.00035938527 -0.11440529 -0.023593426 2.341805e-38
0.0013904823 -0.11440529 -0.023593426 2.3234379e-38
0.0031403499 -0.11440529 -0.023593426 2.341805e-38
0.0047893645 -0.11363207 -0.020643651 2.341805e-38
0.0065340633 -0.11363207 -0.020643651 2.3509527e-38
0.0082787583 -0.11363207 -0.020643651 2.3509883e-38
0.0099039236 -0.11283787 -0.017613769 2.3509521e-38
0.011519224 -0.11204849 -0.014602244 2.3509521e-38
0.013253328 -0.11204849 -0.014602244 2.3509161e-38
0.014987432 -0.11204849 -0.014602244 2.3509521e-38
-0.017789092 -0.11775221 -0.029645741 2.3509883e-38
-0.016067874 -0.11696436 -0.026660025 2.3048542e-38
-0.014312629 -0.11696436 -0.026660025 2.3509883e-38
-0.007423508 -0.11537679 -0.020643651 2.341805e-38
-0.0056788111 -0.11537679 -0.020643651 2.3509886e-38
-0.0039341161 -0.11537679 -0.020643651 2.3509527e-38
-0.0021894192 -0.11537679 -0.020643651 2.3509527e-38
-0.00035938527 -0.11615516 -0.023593426 2.341805e-38
0.0012999726 -0.11537679 -0.020643651 2.3234379e-38
0.0030446695 -0.11537679 -0.020643651 2.341805e-38
0.0047893645 -0.11537679 -0.020643651 2.341805e-38
0.0065340633 -0.11537679 -0.020643651 2.3509527e-38
0.0081645409 -0.11457725 -0.017613769 2.3509883e-38
0.0099039236 -0.11457725 -0.017613769 2.3509521e-38
0.011519224 -0.1137826 -0.014602244 2.3509521e-38
0.013253328 -0.1137826 -0.014602244 2.350952e-38
0.014987432 -0.1137826 -0.014602244 2.3509521e-38
0.016721535 -0.1137826 -0.014602244 2.3139658e-38
-0.017789092 -0.11951269 -0.029645741 2.350988e-38
-0.016067874 -0.11871959 -0.026660025 2.350988e-38
-0.014312629 -0.11871959 -0.026660025 2.3418047e-38
-0.0091682049 -0.11712147 -0.020643651 2.3142544e-38
-0.0074899131 -0.11631663 -0.017613769 2.341805e-38
-0.0057505285 -0.11631663 -0.017613769 2.3509886e-38
-0.0038591223 -0.11790501 -0.023593426 2.3509883e-38
-0.0021092547 -0.11790501 -0.023593426 2.3509527e-38
-0.00035938527 -0.11790501 -0.023593426 2.341805e-38
0.0012999726 -0.11712147 -0.020643651 2.3234379e-38
0.0030446695 -0.11712147 -0.020643651 2.341805e-38
0.0047893645 -0.11712147 -0.020643651 2.341805e-38
0.0065340633 -0.11712147 -0.020643651 2.3509527e-38
0.0081645409 -0.11631663 -0.017613769 2.3509883e-38
0.0099039236 -0.11631663 -0.017613769 2.3509521e-38
0.011519224 -0.11551671 -0.014602244 2.3509521e-38
0.013253328 -0.11551671 -0.014602244 2.350952e-38
0.014987432 -0.11551671 -0.014602244 2.350952e-38
0.016721535 -0.11551671 -0.014602244 2.3509521e-38
0.018455639 -0.11551671 -0.014602244 2.3509521e-38
-0.023088854 -0.12047486 -0.026660025 2.3234379e-38
-0.021333609 -0.12047486 -0.026660025 2.341769e-38
-0.019578364 -0.12047486 -0.026660025 2.350988e-38
-0.017823119 -0.12047486 -0.026660025 2.350952e-38
-0.016067874 -0.12047486 -0.026660025 2.2957065e-38
-0.014358331 -0.11965488 -0.023593426 2.2588645e-38
-0.012608464 -0.11965488 -0.023593426 2.2865955e-38
-0.0109129 -0.11886616 -0.020643651 2.3142544e-38
-0.0091682049 -0.11886616 -0.020643651 2.3050708e-38
-0.0074899131 -0.11805601 -0.017613769 2.3141466e-38
-0.0057505285 -0.11805601 -0.017613769 2.3325494e-38
-0.0040111458 -0.11805601 -0.017613769 2.3509523e-38
-0.0022717612 -0.11805601 -0.017613769 2.3509523e-38
-0.00044472236 -0.11886616 -0.020643651 2.341805e-38
0.0012999726 -0.11886616 -0.020643651 2.3234379e-38
0.0030446695 -0.11886616 -0.020643651 2.341805e-38
0.0047893645 -0.11886616 -0.020643651 2.3326213e-38
0.0064251581 -0.11805601 -0.017613769 2.3509527e-38
0.0081645409 -0.11805601 -0.017613769 2.3509883e-38
0.0099039236 -0.11805601 -0.017613769 2.3509521e-38
0.011519224 -0.11725079 -0.014602244 2.3509521e-38
0.013253328 -0.11725079 -0.014602244 2.3509521e-38
0.014987432 -0.11725079 -0.014602244 2.3509521e-38
0.016721535 -0.11725079 -0.014602244 2.3509521e-38
0.018455639 -0.11725079 -0.014602244 2.3509521e-38
-0.023107672 -0.12140475 -0.023593426 2.3234379e-38
-0.021357805 -0.12140475 -0.023593426 2.3233296e-38
-0.019578364 -0.1222301 -0.026660025 2.350988e-38
-0.017823119 -0.1222301 -0.026660025 2.3417323e-38
-0.016067874 -0.1222301 -0.026660025 2.2772674e-38
-0.014358331 -0.12140475 -0.023593426 2.2865232e-38
-0.012608464 -0.12140475 -0.023593426 2.3142542e-38
-0.01096868 -0.1197954 -0.017613769 2.3142544e-38
-0.0092900181 -0.11898489 -0.014602244 2.3142544e-38
-0.007555916 -0.11898489 -0.014602244 2.341805e-38
-0.005821812 -0.11898489 -0.014602244 2.3509886e-38
-0.004087708 -0.11898489 -0.014602244 2.3509883e-38
-0.002353604 -0.11898489 -0.014602244 2.3509883e-38
-0.00053237844 -0.1197954 -0.017613769 2.341805e-38
0.0012070062 -0.1197954 -0.017613769 2.3234379e-38
0.0029463889 -0.1197954 -0.017613769 2.341805e-38
0.0046857754 -0.1197954 -0.017613769 2.3509886e-38
0.0064251581 -0.1197954 -0.017613769 2.3509886e-38
0.0081645409 -0.1197954 -0.017613769 2.3509883e-38
0.0097851204 -0.11898489 -0.014602244 2.3509524e-38
0.011519224 -0.11898489 -0.014602244 2.3509521e-38
0.013253328 -0.11898489 -0.014602244 2.3509521e-38
0.014896684 -0.11843865 -0.012572587 2.3509521e-38
0.01662723 -0.11843865 -0.012572587 2.3509521e-38
0.018357776 -0.11843865 -0.012572587 2.3509521e-38
-0.023107672 -0.12315463 -0.023593426 2.3233662e-38
-0.021381076 -0.12235557 -0.020643651 2.3232936e-38
-0.019636381 -0.12235557 -0.020643651 2.3509879e-38
-0.017858068 -0.12315463 -0.023593426 2.3232932e-38
-0.016067874 -0.12398534 -0.026660025 2.2403891e-38
-0.014358331 -0.12315463 -0.023593426 2.2312058e-38
-0.012708065 -0.12153481 -0.017613769 2.2865955e-38
-0.01096868 -0.12153481 -0.017613769 2.3142544e-38
-0.0092900181 -0.120719 -0.014602244 2.3142544e-38
-0.007555916 -0.120719 -0.014602244 2.341805e-38
-0.005821812 -0.120719 -0.014602244 2.3509886e-38
-0.004087708 -0.120719 -0.014602244 2.3509164e-38
-0.002353604 -0.120719 -0.014602244 2.3324052e-38
-0.00053237844 -0.12153481 -0.017613769 2.3141103e-38
0.0012070062 -0.12153481 -0.017613769 2.3141466e-38
0.0029463889 -0.12153481 -0.017613769 2.3325497e-38
0.0045134174 -0.12016918 -0.012572587 2.3509886e-38
0.00624396 -0.12016918 -0.012572587 2.3509886e-38
0.0079745064 -0.12016918 -0.012572587 2.3509883e-38
0.009587449 -0.11936165 -0.0095915794 2.3509883e-38
0.011312769 -0.11936165 -0.0095915794 2.3509883e-38
0.013038085 -0.11936165 -0.0095915794 2.3509883e-38
0.014763405 -0.11936165 -0.0095915794 2.3509883e-38
0.016488723 -0.11936165 -0.0095915794 2.3509883e-38
0.01821404 -0.11936165 -0.0095915794 2.3509883e-38
-0.021404983 -0.12327419 -0.017613769 2.3417324e-38
-0.019665599 -0.12327419 -0.017613769 2.3509879e-38
-0.017891686 -0.12410025 -0.020643651 2.304854e-38
-0.016146988 -0.12410025 -0.020643651 2.1850717e-38
-0.014402293 -0.12410025 -0.020643651 2.1390102e-38
-0.012708065 -0.12327419 -0.017613769 2.2221305e-38
-0.011024122 -0.12245311 -0.014602244 2.3142544e-38
-0.0092900181 -0.12245311 -0.014602244 2.3142544e-38
-0.007555916 -0.12245311 -0.014602244 2.3142544e-38
-0.005821812 -0.12245311 -0.014602244 2.3141103e-38
-0.0044421302 -0.11865224 -0.00066143274 2.2863074e-38
-0.0027324697 -0.11865224 -0.00066143274 2.2125509e-38
-0.0008501811 -0.12027912 -0.0066285133 2.2311342e-38
0.0008699419 -0.12027912 -0.0066285133 2.2403901e-38
0.0025900649 -0.12027912 -0.0066285133 2.2864516e-38
0.0043101879 -0.12027912 -0.0066285133 2.3233299e-38
0.0059210444 -0.11945029 -0.0035884976 2.341769e-38
0.0076358365 -0.11945029 -0.0035884976 2.3509886e-38
0.0094705569 -0.12027912 -0.0066285133 2.3509886e-38
0.01119068 -0.12027912 -0.0066285133 2.3509883e-38
0.013038085 -0.12108697 -0.0095915794 2.3509527e-38
0.014763405 -0.12108697 -0.0095915794 2.3509883e-38
0.016488723 -0.12108697 -0.0095915794 2.3509527e-38
0.01821404 -0.12108697 -0.0095915794 2.3509883e-38
-0.023162849 -0.12418722 -0.014602244 2.3233296e-38
-0.021428745 -0.12418722 -0.014602244 2.3509879e-38
-0.019665599 -0.12501357 -0.017613769 2.3509876e-38
-0.017891686 -0.12584494 -0.020643651 2.2587562e-38
-0.016146988 -0.12584494 -0.020643651 2.1205348e-38
-0.014402293 -0.12584494 -0.020643651 2.0930203e-38
-0.012708065 -0.12501357 -0.017613769 2.1944718e-38
-0.011024122 -0.12418722 -0.014602244 2.268193e-38
-0.0092900181 -0.12418722 -0.014602244 2.2589734e-38
-0.007555916 -0.12418722 -0.014602244 2.2589371e-38
-0.0061517907 -0.12036191 -0.00066143274 2.3048907e-38
-0.0044421302 -0.12036191 -0.00066143274 2.3139661e-38
-0.0027324697 -0.12036191 -0.00066143274 2.2494292e-38
-0.0011691106 -0.11897425 0.0043956637 2.2402819e-38
0.00044048671 -0.11815868 0.0073678493 2.2495734e-38
0.0021360712 -0.11815868 0.0073678493 2.2864516e-38
0.003831652 -0.11815868 0.0073678493 2.3233299e-38
0.0059210444 -0.12116508 -0.0035884976 2.341769e-38
0.0076358365 -0.12116508 -0.0035884976 2.3509886e-38
0.0093506286 -0.12116508 -0.0035884976 2.3509886e-38
0.01119068 -0.12199925 -0.0066285133 2.341805e-38
0.012910803 -0.12199925 -0.0066285133 2.3509886e-38
0.014630926 -0.12199925 -0.0066285133 2.341805e-38
0.016351048 -0.12199925 -0.0066285133 2.3509886e-38
-0.02837215 -0.12371938 -0.0066285133 1.5491751e-38
-0.026652027 -0.12371938 -0.0066285133 2.3142544e-38
-0.023175303 -0.12536083 -0.012572587 2.3509883e-38
-0.021444758 -0.12536083 -0.012572587 2.3509879e-38
-0.019694641 -0.12592132 -0.014602244 2.3509876e-38
-0.017926216 -0.12675296 -0.017613769 2.221878e-38
-0.016146988 -0.12758966 -0.020643651 2.0928761e-38
-0.014402293 -0.12758966 -0.020643651 2.0930203e-38
-0.012708065 -0.12675296 -0.017613769 2.1668131e-38
-0.01096868 -0.12675296 -0.017613769 2.1668857e-38
-0.0092292959 -0.12675296 -0.017613769 2.1391191e-38
-0.0074899131 -0.12675296 -0.017613769 2.1575219e-38
-0.0061517907 -0.12207155 -0.00066143274 2.2864516e-38
-0.0044421302 -0.12207155 -0.00066143274 2.3509524e-38
-0.0027324697 -0.12207155 -0.00066143274 2.3508801e-38
-0.0011691106 -0.12067504 0.0043956637 2.3232936e-38
0.00053168368 -0.12067504 0.0043956637 2.3233299e-38
0.0021360712 -0.11985429 0.0073678493 2.3325494e-38
0.003831652 -0.11985429 0.0073678493 2.3509886e-38
0.0055272365 -0.11985429 0.0073678493 2.3509886e-38
0.0073348591 -0.12067504 0.0043956637 2.341805e-38
0.0092351558 -0.12207155 -0.00066143274 2.341805e-38
0.011065421 -0.12287988 -0.0035884976 2.341805e-38
0.012780213 -0.12287988 -0.0035884976 2.341805e-38
0.014630926 -0.12371938 -0.0066285133 2.341805e-38
0.016351048 -0.12371938 -0.0066285133 2.341805e-38
-0.026652027 -0.12543948 -0.0066285133 2.3142544e-38
-0.024931904 -0.12543948 -0.0066285133 2.341805e-38
-0.023211781 -0.12543948 -0.0066285133 2.3325847e-38
-0.021468278 -0.12626295 -0.0095915794 2.3325483e-38
-0.019714214 -0.12709136 -0.012572587 2.3232206e-38
-0.017960537 -0.12765543 -0.014602244 2.212694e-38
-0.016186832 -0.12849234 -0.017613769 2.1389738e-38
-0.014402293 -0.12933435 -0.020643651 2.120679e-38
-0.012708065 -0.12849234 -0.017613769 2.1944718e-38
-0.011061489 -0.12709136 -0.012572587 2.1761053e-38
-0.0094507961 -0.12543948 -0.0066285133 2.12068e-38
-0.0077972999 -0.12459467 -0.0035884976 2.1666336e-38
-0.0061517907 -0.12378122 -0.00066143274 2.3140384e-38
-0.0045706974 -0.12237583 0.0043956637 2.3509524e-38
-0.002869905 -0.12237583 0.0043956637 2.3509521e-38
-0.0012550959 -0.12154986 0.0073678493 2.3509883e-38
0.00044048671 -0.12154986 0.0073678493 2.3509883e-38
0.0020372691 -0.12070335 0.010413826 2.3509886e-38
0.0037275115 -0.12070335 0.010413826 2.3509886e-38
0.0054177539 -0.12070335 0.010413826 2.341805e-38
0.0071079964 -0.12070335 0.010413826 2.341805e-38
0.0087982351 -0.12070335 0.010413826 2.341805e-38
0.010736448 -0.12237583 0.0043956637 2.3234379e-38
0.012565699 -0.1232069 0.0014052391 2.3234379e-38
0.014630926 -0.12543948 -0.0066285133 2.3234379e-38
0.016351048 -0.12543948 -0.0066285133 2.3234379e-38
-0.026652027 -0.12715961 -0.0066285133 2.2958873e-38
-0.024931904 -0.12715961 -0.0066285133 2.2958151e-38
-0.023211781 -0.12715961 -0.0066285133 2.2773034e-38
-0.021468278 -0.12798826 -0.0095915794 2.2588281e-38
-0.019714214 -0.12882192 -0.012572587 2.2588278e-38
-0.017960537 -0.12938951 -0.014602244 2.2127303e-38
-0.016186832 -0.13023172 -0.017613769 2.1943273e-38
-0.014447448 -0.13023172 -0.017613769 2.1759964e-38
-0.012708065 -0.13023172 -0.017613769 2.2682283e-38
-0.011061489 -0.12882192 -0.012572587 2.3050349e-38
-0.0094507961 -0.12715961 -0.0066285133 2.240498e-38
-0.0077972999 -0.12630944 -0.0035884976 2.2680128e-38
-0.0061517907 -0.12549089 -0.00066143274 2.3509527e-38
-0.0045706974 -0.12407662 0.0043956637 2.3509165e-38
-0.002869905 -0.12407662 0.0043956637 2.3509521e-38
-0.0012550959 -0.12324543 0.0073678493 2.3509883e-38
0.00044048671 -0.12324543 0.0073678493 2.3509886e-38
0.0020372691 -0.12239362 0.010413826 2.341805e-38
0.0036615776 -0.12185432 0.012342274 2.3326213e-38
0.0053484375 -0.12185432 0.012342274 2.341805e-38
0.0070352973 -0.12185432 0.012342274 2.3234379e-38
0.0087982351 -0.12239362 0.010413826 2.3234379e-38
0.010488478 -0.12239362 0.010413826 2.3234379e-38
0.012309567 -0.12324543 0.0073678493 2.3234379e-38
-0.024931904 -0.12887974 -0.0066285133 2.3142541e-38
-0.023211781 -0.12887974 -0.0066285133 2.2497889e-38
-0.021444758 -0.13055246 -0.012572587 2.1944715e-38
-0.019714214 -0.13055246 -0.012572587 2.1944355e-38
-0.017960537 -0.13112362 -0.014602244 2.1022399e-38
-0.016186832 -0.13197111 -0.017613769 2.1944355e-38
-0.01449233 -0.13112362 -0.014602244 2.2404977e-38
-0.012758226 -0.13112362 -0.014602244 2.2680844e-38
-0.011024122 -0.13112362 -0.014602244 2.3048907e-38
-0.0093910499 -0.12971358 -0.0095915794 2.3325131e-38
-0.0078614512 -0.12720053 -0.00066143274 2.3509164e-38
-0.0062007094 -0.12661897 0.0014052391 2.3509165e-38
-0.0045706974 -0.12577744 0.0043956637 2.3509163e-38
-0.002869905 -0.12577744 0.0043956637 2.3509165e-38
-0.0012550959 -0.12494104 0.0073678493 2.3509886e-38
0.00028785411 -0.12354116 0.012342274 2.3234379e-38
0.0019747159 -0.12354116 0.012342274 2.3234379e-38
0.0035584988 -0.12269278 0.015357077 2.3234379e-38
0.0052400762 -0.12269278 0.015357077 2.3234379e-38
0.0069216499 -0.12269278 0.015357077 2.3234379e-38
0.0087221609 -0.12354116 0.012342274 2.3234379e-38
0.010409021 -0.12354116 0.012342274 2.3234379e-38
0.012095881 -0.12354116 0.012342274 2.341805e-38
0.013782741 -0.12354116 0.012342274 2.3509886e-38
-0.023162849 -0.13285773 -0.014602244 2.1484816e-38
-0.021428745 -0.13285773 -0.014602244 2.1575935e-38
-0.019694641 -0.13285773 -0.014602244 2.1944718e-38
-0.017926216 -0.13371049 -0.017613769 2.083837e-38
-0.016186832 -0.13371049 -0.017613769 2.1575217e-38
-0.01449233 -0.13285773 -0.014602244 2.2219866e-38
-0.012758226 -0.13285773 -0.014602244 2.2495734e-38
-0.011061489 -0.13228302 -0.012572587 2.2956349e-38
-0.0094507961 -0.13059987 -0.0066285133 2.3416248e-38
-0.0079067452 -0.128325 0.0014052391 2.3508805e-38
-0.0062714918 -0.12747823 0.0043956637 2.3509521e-38
-0.0046462612 -0.12663661 0.0073678493 2.3508807e-38
-0.0029506786 -0.12663661 0.0073678493 2.3509524e-38
-0.0013432158 -0.1257741 0.010413826 2.3234379e-38
0.00028785411 -0.12522803 0.012342274 2.2958873e-38
0.0018769251 -0.12437434 0.015357077 2.2867037e-38
0.0035584988 -0.12437434 0.015357077 2.2775202e-38
0.0052400762 -0.12437434 0.015357077 2.2775202e-38
0.0069216499 -0.12437434 0.015357077 2.2775199e-38
0.0086032236 -0.12437434 0.015357077 2.2775199e-38
0.010284801 -0.12437434 0.015357077 2.295887e-38
0.011966375 -0.12437434 0.015357077 2.3234379e-38
0.013647948 -0.12437434 0.015357077 2.341805e-38
-0.023162849 -0.13459183 -0.014602244 2.1576289e-38
-0.021428745 -0.13459183 -0.014602244 2.1575572e-38
-0.019694641 -0.13459183 -0.014602244 2.2128746e-38
-0.017926216 -0.13544987 -0.017613769 2.0838007e-38
-0.016186832 -0.13544987 -0.017613769 2.1114594e-38
-0.01449233 -0.13459183 -0.014602244 2.1851083e-38
-0.012758226 -0.13459183 -0.014602244 2.212767e-38
-0.011061489 -0.13401355 -0.012572587 2.2680125e-38
-0.0094507961 -0.13231997 -0.0066285133 2.323258e-38
-0.0079067452 -0.13003103 0.0014052391 2.3509167e-38
-0.0062714918 -0.12917902 0.0043956637 2.3509524e-38
-0.0046462612 -0.12833218 0.0073678493 2.3509167e-38
-0.0030334583 -0.12746434 0.010413826 2.341769e-38
-0.0014862241 -0.12605591 0.015357077 2.2867037e-38
0.00019535143 -0.12605591 0.015357077 2.2499695e-38
0.0018769251 -0.12605591 0.015357077 2.2316024e-38
0.0034560682 -0.12520231 0.018353045 2.2131993e-38
0.0051323893 -0.12520231 0.018353045 2.2039797e-38
0.0069216499 -0.12605591 0.015357077 2.2039797e-38
0.0086032236 -0.12605591 0.015357077 2.2131993e-38
0.010284801 -0.12605591 0.015357077 2.2315661e-38
0.011966375 -0.12605591 0.015357077 2.2591529e-38
0.013647948 -0.12605591 0.015357077 2.2867037e-38
-0.023144368 -0.13718925 -0.017613769 2.1943273e-38
-0.021404983 -0.13718925 -0.017613769 2.1758882e-38
-0.019665599 -0.13718925 -0.017613769 2.2312058e-38
-0.017926216 -0.13718925 -0.017613769 2.1205711e-38
-0.016186832 -0.13718925 -0.017613769 2.1482298e-38
-0.01449233 -0.13632594 -0.014602244 2.1851083e-38
-0.012758226 -0.13632594 -0.014602244 2.212767e-38
-0.011061489 -0.13574408 -0.012572587 2.2588648e-38
-0.0096730804 -0.1308798 0.0043956637 2.3141822e-38
-0.0080374265 -0.13002776 0.0073678493 2.3509886e-38
-0.0064595891 -0.12860174 0.012342274 2.3509886e-38
-0.0048493734 -0.12773751 0.015357077 2.3417691e-38
-0.0031677997 -0.12773751 0.015357077 2.2958514e-38
-0.0015728967 -0.12687863 0.018353045 2.2131994e-38
0.0001034243 -0.12687863 0.018353045 2.1673176e-38
0.0017797472 -0.12687863 0.018353045 2.1580981e-38
0.0034560682 -0.12687863 0.018353045 2.139659e-38
0.0051323893 -0.12687863 0.018353045 2.1304395e-38
0.0069216499 -0.12773751 0.015357077 2.139659e-38
0.0086032236 -0.12773751 0.015357077 2.1396587e-38
0.010284801 -0.12773751 0.015357077 2.158026e-38
0.011966375 -0.12773751 0.015357077 2.1856126e-38
0.013647948 -0.12773751 0.015357077 2.2316024e-38
0.015469604 -0.12860174 0.012342274 2.2867037e-38
-0.017891686 -0.13980253 -0.020643651 2.1850717e-38
-0.016146988 -0.13980253 -0.020643651 2.2035469e-38
-0.014447448 -0.13892864 -0.017613769 2.2127667e-38
-0.012708065 -0.13892864 -0.017613769 2.2404257e-38
-0.011061489 -0.13747464 -0.012572587 2.2681564e-38
-0.0098333107 -0.13028862 0.012342274 2.3050349e-38
-0.008146449 -0.13028862 0.012342274 2.3142544e-38
-0.0065309489 -0.12941907 0.015357077 2.3142544e-38
-0.0048493734 -0.12941907 0.015357077 2.3050708e-38
-0.0032492196 -0.12855496 0.018353045 2.2591531e-38
-0.0015728967 -0.12855496 0.018353045 2.1304039e-38
3.9693899e-05 -0.1279559 0.020430088 2.0937773e-38
0.0017123735 -0.1279559 0.020430088 2.0845577e-38
0.003385053 -0.1279559 0.020430088 2.0753382e-38
0.0050577344 -0.1279559 0.020430088 2.0753382e-38
0.006808714 -0.12855496 0.018353045 2.0845577e-38
0.008485035 -0.12855496 0.018353045 2.0937773e-38
0.010284801 -0.12941907 0.015357077 2.1121445e-38
0.011966375 -0.12941907 0.015357077 2.1304755e-38
0.013647948 -0.12941907 0.015357077 2.1580981e-38
0.015329526 -0.12941907 0.015357077 2.2224189e-38
0.017156463 -0.13028862 0.012342274 2.2499695e-38
0.018843323 -0.13028862 0.012342274 2.2867037e-38
-0.0098333107 -0.13197549 0.012342274 2.2958873e-38
-0.008146449 -0.13197549 0.012342274 2.2867037e-38
-0.0065309489 -0.13110064 0.015357077 2.2775202e-38
-0.0048493734 -0.13110064 0.015357077 2.2591531e-38
-0.0032492196 -0.13023128 0.018353045 2.1948682e-38
-0.0016329857 -0.12962858 0.020430088 2.0844858e-38
3.9693899e-05 -0.12962858 0.020430088 2.0478237e-38
0.0017123735 -0.12962858 0.020430088 2.0661909e-38
0.003385053 -0.12962858 0.020430088 2.0570432e-38
0.0050577344 -0.12962858 0.020430088 2.0570432e-38
0.006808714 -0.13023128 0.018353045 2.0662627e-38
0.008485035 -0.13023128 0.018353045 2.0662627e-38
0.010284801 -0.13110064 0.015357077 2.0754103e-38
0.011966375 -0.13110064 0.015357077 2.0937773e-38
0.013647948 -0.13110064 0.015357077 2.102925e-38
0.015329526 -0.13110064 0.015357077 2.1488786e-38
0.017011099 -0.13110064 0.015357077 2.1856847e-38
0.018692672 -0.13110064 0.015357077 2.2499695e-38
0.02037425 -0.13110064 0.015357077 2.2775202e-38
-0.0082125245 -0.13278224 0.015357077 2.2499695e-38
-0.0066018635 -0.1319076 0.018353045 2.2224189e-38
-0.0049255406 -0.1319076 0.018353045 2.1856847e-38
-0.0032492196 -0.1319076 0.018353045 2.1489146e-38
-0.0016329857 -0.13130127 0.020430088 2.0754102e-38
3.9693899e-05 -0.13130127 0.020430088 2.0662985e-38
0.0017123735 -0.13130127 0.020430088 2.0846656e-38
0.003385053 -0.13130127 0.020430088 2.0846656e-38
0.0050577344 -0.13130127 0.020430088 2.0846656e-38
0.0069216499 -0.13278224 0.015357077 2.0754821e-38
0.0086032236 -0.13278224 0.015357077 2.0571148e-38
0.010284801 -0.13278224 0.015357077 2.0478953e-38
0.011966375 -0.13278224 0.015357077 2.0754102e-38
0.013647948 -0.13278224 0.015357077 2.0661186e-38
0.015329526 -0.13278224 0.015357077 2.0843777e-38
0.017011099 -0.13278224 0.015357077 2.1396587e-38
0.018692672 -0.13278224 0.015357077 2.2316024e-38
0.02037425 -0.13278224 0.015357077 2.2775202e-38
-0.0082125245 -0.1344638 0.015357077 2.2224189e-38
-0.0066018635 -0.13358392 0.018353045 2.1765011e-38
-0.0049255406 -0.13358392 0.018353045 2.1396952e-38
-0.0032492196 -0.13358392 0.018353045 2.102961e-38
-0.0016329857 -0.13297392 0.020430088 2.0938492e-38
3.9693899e-05 -0.13297392 0.020430088 2.0938492e-38
0.0017123735 -0.13297392 0.020430088 2.1122163e-38
0.003385053 -0.13297392 0.020430088 2.1122163e-38
0.0050577344 -0.13297392 0.020430088 2.0846656e-38
0.0069216499 -0.1344638 0.015357077 2.0662985e-38
0.0086032236 -0.1344638 0.015357077 2.0387477e-38
0.010284801 -0.1344638 0.015357077 2.0386757e-38
0.011966375 -0.1344638 0.015357077 2.0662625e-38
0.013647948 -0.1344638 0.015357077 2.0476792e-38
0.015329526 -0.1344638 0.015357077 2.0567546e-38
0.017011099 -0.1344638 0.015357077 2.1211835e-38
0.018542964 -0.13358392 0.018353045 2.2316023e-38
0.020219289 -0.13358392 0.018353045 2.2775202e-38
-0.0098940982 -0.13614537 0.015357077 2.2683366e-38
-0.0082125245 -0.13614537 0.015357077 2.1672458e-38
-0.0066018635 -0.13526024 0.018353045 2.1028171e-38
-0.0049255406 -0.13526024 0.018353045 2.066083e-38
-0.0032492196 -0.13526024 0.018353045 2.0754103e-38
-0.0015728967 -0.13526024 0.018353045 2.1030327e-38
3.9693899e-05 -0.13464661 0.020430088 2.1030326e-38
0.0017123735 -0.13464661 0.020430088 2.1305834e-38
0.003385053 -0.13464661 0.020430088 2.1489505e-38
0.0050577344 -0.13464661 0.020430088 2.1213998e-38
0.0069216499 -0.13614537 0.015357077 2.0846656e-38
0.0086032236 -0.13614537 0.015357077 2.0662982e-38
0.010284801 -0.13614537 0.015357077 2.047895e-38
0.011966375 -0.13614537 0.015357077 2.0386035e-38
0.013647948 -0.13614537 0.015357077 2.0200202e-38
0.015329526 -0.13614537 0.015357077 1.9737784e-38
0.017011099 -0.13614537 0.015357077 2.0565383e-38
0.018542964 -0.13526024 0.018353045 2.2775202e-38
0.020219289 -0.13526024 0.018353045 2.2314577e-38
-0.0098940982 -0.13782693 0.015357077 2.2407501e-38
-0.0082781846 -0.13693659 0.018353045 2.1303676e-38
-0.0066510262 -0.13631929 0.020430088 2.00151e-38
-0.0049783466 -0.13631929 0.020430088 1.9463367e-38
-0.0033056671 -0.13631929 0.020430088 1.9740672e-38
-0.0016329857 -0.13631929 0.020430088 2.029348e-38
3.9693899e-05 -0.13631929 0.020430088 2.0477867e-38
0.0017123735 -0.13631929 0.020430088 2.0754815e-38
0.003385053 -0.13631929 0.020430088 2.1030327e-38
0.0051323893 -0.13693659 0.018353045 2.1213998e-38
0.0069216499 -0.13782693 0.015357077 2.1122163e-38
0.0086032236 -0.13782693 0.015357077 2.1213998e-38
0.010284801 -0.13782693 0.015357077 2.1213998e-38
0.011966375 -0.13782693 0.015357077 2.1030327e-38
0.013647948 -0.13782693 0.015357077 2.1122159e-38
0.015329526 -0.13782693 0.015357077 2.0935608e-38
0.017011099 -0.13782693 0.015357077 2.0842326e-38
0.018542964 -0.13693659 0.018353045 2.2683361e-38
0.020219289 -0.13693659 0.018353045 2.2867027e-38
-0.0082781846 -0.13861291 0.018353045 2.1488067e-38
-0.0066510262 -0.13799198 0.020430088 1.9830709e-38
-0.0049783466 -0.13799198 0.020430088 1.9279336e-38
-0.0033056671 -0.13799198 0.020430088 2.0017258e-38
-0.0016329857 -0.13799198 0.020430088 2.029348e-38
3.9693899e-05 -0.13799198 0.020430088 2.0477868e-38
0.0017123735 -0.13799198 0.020430088 2.0570427e-38
0.003385053 -0.13799198 0.020430088 2.0662982e-38
0.0051323893 -0.13861291 0.018353045 2.0938492e-38
0.0069216499 -0.13950853 0.015357077 2.1030327e-38
0.0086032236 -0.13950853 0.015357077 2.1122163e-38
0.010284801 -0.13950853 0.015357077 2.1305834e-38
0.011966375 -0.13950853 0.015357077 2.1489505e-38
0.013647948 -0.13950853 0.015357077 2.1856847e-38
0.015190323 -0.13861291 0.018353045 2.1673173e-38
0.016866643 -0.13861291 0.018353045 1.9735623e-38
0.018542964 -0.13861291 0.018353045 2.0840165e-38
0.020219289 -0.13861291 0.018353045 2.259044e-38
-0.0082781846 -0.14028923 0.018353045 1.973635e-38
-0.0066510262 -0.13966466 0.020430088 1.7986794e-38
-0.0049783466 -0.13966466 0.020430088 1.8080433e-38
-0.0032492196 -0.14028923 0.018353045 1.9280055e-38
-0.0015728967 -0.14028923 0.018353045 2.0386038e-38
0.0001034243 -0.14028923 0.018353045 2.0570427e-38
0.0017797472 -0.14028923 0.018353045 2.0478953e-38
0.0034560682 -0.14028923 0.018353045 2.0110893e-38
0.0051323893 -0.14028923 0.018353045 2.020309e-38
0.0069216499 -0.1411901 0.015357077 2.0295643e-38
0.0086032236 -0.1411901 0.015357077 2.0295643e-38
0.010161356 -0.14028923 0.018353045 2.0295285e-38
0.011837677 -0.14028923 0.018353045 1.9280055e-38
0.013514002 -0.14028923 0.018353045 2.0016537e-38
0.015190323 -0.14028923 0.018353045 2.1028168e-38
0.016866643 -0.14028923 0.018353045 2.0565386e-38
0.018542964 -0.14028923 0.018353045 2.27752e-38
-0.0082781846 -0.14196555 0.018353045 1.9735627e-38
-0.0066510262 -0.14133735 0.020430088 1.8263381e-38
-0.0049783466 -0.14133735 0.020430088 1.8725802e-38
-0.0032492196 -0.14196555 0.018353045 2.0202011e-38
-0.0015728967 -0.14196555 0.018353045 1.9833229e-38
0.0001034243 -0.14196555 0.018353045 2.0018699e-38
0.0017797472 -0.14196555 0.018353045 2.0019061e-38
0.0034560682 -0.14196555 0.018353045 1.9651358e-38
0.0051323893 -0.14196555 0.018353045 1.9651001e-38
0.0069216499 -0.14287166 0.015357077 1.9743913e-38
0.0086032236 -0.14287166 0.015357077 1.9651719e-38
0.010161356 -0.14196555 0.018353045 1.9374418e-38
0.011837677 -0.14196555 0.018353045 2.0019061e-38
0.013514002 -0.14196555 0.018353045 1.8911275e-38
0.015190323 -0.14196555 0.018353045 1.9738875e-38
0.016866643 -0.14196555 0.018353045 2.1027452e-38
0.018542964 -0.14196555 0.018353045 2.2499695e-38
-0.0066510262 -0.14301004 0.020430088 1.7340345e-38
-0.0049783466 -0.14301004 0.020430088 1.771057e-38
-0.0032492196 -0.14364187 0.018353045 1.8358099e-38
-0.0015728967 -0.14364187 0.018353045 1.8727607e-38
0.0001034243 -0.14364187 0.018353045 1.9373339e-38
0.0017797472 -0.14364187 0.018353045 1.9743195e-38
0.0034560682 -0.14364187 0.018353045 1.965136e-38
0.0051323893 -0.14364187 0.018353045 1.9652077e-38
0.006808714 -0.14364187 0.018353045 1.974463e-38
0.008485035 -0.14364187 0.018353045 1.9468406e-38
0.010161356 -0.14364187 0.018353045 1.9006718e-38
0.011837677 -0.14364187 0.018353045 1.9282583e-38
0.013514002 -0.14364187 0.018353045 1.8174436e-38
0.015190323 -0.14364187 0.018353045 1.9647405e-38
0.016866643 -0.14364187 0.018353045 2.0382447e-38
-0.0049255406 -0.1453182 0.018353045 1.8079352e-38
-0.0032492196 -0.1453182 0.018353045 1.7436145e-38
-0.0015728967 -0.1453182 0.018353045 1.725284e-38
0.0001034243 -0.1453182 0.018353045 1.8084044e-38
0.0017797472 -0.1453182 0.018353045 1.8730135e-38
0.0034560682 -0.1453182 0.018353045 1.8638658e-38
0.0051323893 -0.1453182 0.018353045 1.8547181e-38
0.006808714 -0.1453182 0.018353045 1.8455705e-38
0.008485035 -0.1453182 0.018353045 1.771815e-38
0.010161356 -0.1453182 0.018353045 1.6887308e-38
0.011837677 -0.1453182 0.018353045 1.7347924e-38
0.013514002 -0.1453182 0.018353045 1.7806741e-38
0.015190323 -0.1453182 0.018353045 1.983252e-38
-0.0066018635 -0.14699452 0.018353045 1.8812955e-38
-0.0049255406 -0.14699452 0.018353045 1.7984636e-38
-0.0033056671 -0.14635538 0.020430088 1.6326918e-38
-0.0016329857 -0.14635538 0.020430088 1.623653e-38
0.0001034243 -0.14699452 0.018353045 1.7067734e-38
0.0017797472 -0.14699452 0.018353045 1.7806018e-38
0.0034560682 -0.14699452 0.018353045 1.7530154e-38
0.0051323893 -0.14699452 0.018353045 1.716209e-38
0.006808714 -0.14699452 0.018353045 1.6793671e-38
0.008485035 -0.14699452 0.018353045 1.5687323e-38
0.010161356 -0.14699452 0.018353045 1.4395866e-38
0.011837677 -0.14699452 0.018353045 1.3934525e-38
-0.0049783466 -0.14802806 0.020430088 1.7149475e-38
-0.0033056671 -0.14802806 0.020430088 1.6782134e-38
-0.0016329857 -0.14802806 0.020430088 1.8075038e-38
0.0001034243 -0.14867084 0.018353045 1.7154523e-38
0.0017797472 -0.14867084 0.018353045 1.6786101e-38
0.0034560682 -0.14867084 0.018353045 1.6970492e-38
0.0051323893 -0.14867084 0.018353045 1.6694624e-38
0.006808714 -0.14867084 0.018353045 1.549716e-38
0.008485035 -0.14867084 0.018353045 1.4575204e-38
0.010161356 -0.14867084 0.018353045 1.4298617e-38
0.011837677 -0.14867084 0.018353045 1.2730209e-38
