# .PCD v0.7 - Point Cloud Data file format
VERSION 0.7
FIELDS x y z rgb
SIZE 4 4 4 4
TYPE F F F F
COUNT 1 1 1 1
WIDTH 658
HEIGHT 1
VIEWPOINT 0 0 0 1 0 0 0
POINTS 658
DATA ascii
-0.013602956 -0.1069022 -0.05672086 2.2588282e-38
-0.011640778 -0.1069022 -0.05672086 2.3509886e-38
-0.0096122678 -0.10780637 -0.060703047 2.2864526e-38
-0.0077164192 -0.1069022 -0.05672086 2.2680138e-38
-0.0057542399 -0.1069022 -0.05672086 2.2681214e-38
-0.015519752 -0.10977553 -0.060703047 2.341805e-38
-0.013602956 -0.10886435 -0.05672086 2.3050698e-38
-0.011640778 -0.10886435 -0.05672086 2.3142527e-38
-0.0096122678 -0.10977553 -0.060703047 2.2867023e-38
-0.0077164192 -0.10886435 -0.05672086 2.2315664e-38
-0.0057542399 -0.10886435 -0.05672086 2.2316024e-38
-0.0037920605 -0.10886435 -0.05672086 2.1579188e-38
-0.019489493 -0.11082654 -0.05672086 2.3508451e-38
-0.017527316 -0.11082654 -0.05672086 2.2586867e-38
-0.015565136 -0.11082654 -0.05672086 2.2681212e-38
-0.01365657 -0.10988651 -0.052643783 2.3142537e-38
-0.011701539 -0.10988651 -0.052643783 2.2315996e-38
-0.0096785985 -0.11082654 -0.05672086 2.2591515e-38
-0.0078457259 -0.10920714 -0.049697168 2.2316024e-38
-0.0058958605 -0.10920714 -0.049697168 1.8723299e-38
-0.0038814172 -0.10988651 -0.052643783 1.5680156e-38
-0.0019263867 -0.10988651 -0.052643783 1.4021378e-38
-0.019458074 -0.11371385 -0.060703047 2.3509168e-38
-0.017527316 -0.11278872 -0.05672086 2.3509527e-38
-0.0156116 -0.11184154 -0.052643783 2.3234376e-38
-0.013695318 -0.11115701 -0.049697168 2.2683356e-38
-0.011745453 -0.11115701 -0.049697168 2.2591525e-38
-0.0097955894 -0.11115701 -0.049697168 2.1672455e-38
-0.0079198498 -0.11022164 -0.045670874 2.0751592e-38
-0.0059770439 -0.11022164 -0.045670874 1.2731691e-38
-0.0041006636 -0.10951753 -0.042640097 1.0979636e-38
-0.0021631736 -0.10951753 -0.042640097 1.411538e-38
-0.00022568367 -0.10951753 -0.042640097 1.374804e-38
-0.019489493 -0.11475091 -0.05672086 2.3509883e-38
-0.017527316 -0.11475091 -0.05672086 2.3418045e-38
-0.015645182 -0.11310686 -0.049697168 2.2498243e-38
-0.013695318 -0.11310686 -0.049697168 1.8443079e-38
-0.011805458 -0.11216442 -0.045670874 1.8260147e-38
-0.0098626539 -0.11216442 -0.045670874 1.7983945e-38
-0.0080488324 -0.11052449 -0.038664706 1.8261631e-38
-0.0061183125 -0.11052449 -0.038664706 1.0794531e-38
-0.0043420102 -0.10887744 -0.031628139 1.2455137e-38
-0.0025188476 -0.1079378 -0.027613768 1.9463743e-38
-0.00060770288 -0.1079378 -0.027613768 1.974176e-38
0.0013034418 -0.1079378 -0.027613768 1.9371907e-38
0.01228391 -0.1049176 -0.014710793 9.2265022e-39
0.014172431 -0.1049176 -0.014710793 6.3688006e-39
0.016060952 -0.1049176 -0.014710793 4.5252426e-39
-0.019489493 -0.11671309 -0.05672086 2.2957414e-38
-0.017566631 -0.11575161 -0.052643783 2.3234364e-38
-0.015691068 -0.11410724 -0.045670874 2.2222736e-38
-0.013788118 -0.11339252 -0.042640097 1.6138205e-38
-0.011850627 -0.11339252 -0.042640097 1.2081634e-38
-0.0099131372 -0.11339252 -0.042640097 1.4755338e-38
-0.0081214923 -0.11152427 -0.034717925 1.6599623e-38
-0.0061978921 -0.11152427 -0.034717925 1.1806911e-38
-0.0043420102 -0.11079563 -0.031628139 1.5588352e-38
-0.0025882684 -0.10915731 -0.024680862 2.1305834e-38
-0.00068226643 -0.10915731 -0.024680862 2.1122163e-38
0.0012237355 -0.10915731 -0.024680862 2.1030327e-38
0.0031297393 -0.10915731 -0.024680862 1.9460493e-38
0.01228391 -0.10680611 -0.014710793 1.8908784e-38
0.014172431 -0.10680611 -0.014710793 1.3561839e-38
0.015895922 -0.10586159 -0.01070548 1.2455143e-38
0.017777421 -0.10586159 -0.01070548 7.1996375e-39
-0.019489493 -0.11867525 -0.05672086 2.2128743e-38
-0.017663099 -0.11533 -0.042640097 2.3142541e-38
-0.015725609 -0.11533 -0.042640097 2.1669576e-38
-0.013892295 -0.11344786 -0.034717925 1.3648218e-38
-0.011968695 -0.11344786 -0.034717925 1.3279469e-38
-0.010045094 -0.11344786 -0.034717925 1.5215247e-38
-0.0081783757 -0.1127138 -0.031628139 1.3555388e-38
-0.0062601939 -0.1127138 -0.031628139 9.5916946e-39
-0.0044299923 -0.11176009 -0.027613768 1.475606e-38
-0.0025882684 -0.11106332 -0.024680862 2.001368e-38
-0.00068226643 -0.11106332 -0.024680862 2.1948682e-38
0.0011412911 -0.11034258 -0.021647224 2.2132343e-38
0.0029279459 -0.10940616 -0.017705688 2.2132349e-38
0.004729826 -0.10869466 -0.014710793 2.2775202e-38
0.006618347 -0.10869466 -0.014710793 2.2591531e-38
0.008506868 -0.10869466 -0.014710793 2.1672458e-38
0.010395389 -0.10869466 -0.014710793 2.1948682e-38
0.01228391 -0.10869466 -0.014710793 2.1489505e-38
0.014014423 -0.10774307 -0.01070548 1.8356336e-38
0.015895922 -0.10774307 -0.01070548 1.7526947e-38
0.017645564 -0.10701384 -0.0076359604 1.1533533e-38
0.01952168 -0.10701384 -0.0076359604 8.4900008e-39
0.021397799 -0.10701384 -0.0076359604 3.6025506e-39
-0.021476692 -0.11966167 -0.052643783 2.0007556e-38
-0.019600591 -0.11726747 -0.042640097 1.6781432e-38
-0.017701436 -0.11631607 -0.038664706 1.8072891e-38
-0.015770916 -0.11631607 -0.038664706 1.9732775e-38
-0.013932926 -0.114632 -0.031628139 1.5215915e-38
-0.012074569 -0.11367123 -0.027613768 1.4569842e-38
-0.010163425 -0.11367123 -0.027613768 1.4292908e-38
-0.0082522798 -0.11367123 -0.027613768 1.3923419e-38
-0.006341137 -0.11367123 -0.027613768 1.3646108e-38
-0.0044942703 -0.11296929 -0.024680862 1.8072197e-38
-0.0027533714 -0.11129995 -0.017705688 2.2867037e-38
-0.00085959956 -0.11129995 -0.017705688 2.2591521e-38
0.00095278211 -0.11058317 -0.014710793 2.2958856e-38
0.0028413031 -0.11058317 -0.014710793 2.3234369e-38
0.004729826 -0.11058317 -0.014710793 2.2866671e-38
0.006618347 -0.11058317 -0.014710793 2.2129835e-38
0.008506868 -0.11058317 -0.014710793 2.1116413e-38
0.010395389 -0.11058317 -0.014710793 1.9827841e-38
0.01228391 -0.11058317 -0.014710793 1.8906968e-38
0.014014423 -0.10962458 -0.01070548 1.8078649e-38
0.015769448 -0.10888995 -0.0076359604 1.7526554e-38
0.017645564 -0.10888995 -0.0076359604 1.5590446e-38
0.01952168 -0.10888995 -0.0076359604 1.4390824e-38
0.021397799 -0.10888995 -0.0076359604 1.1624239e-38
0.023273915 -0.10888995 -0.0076359604 8.3034039e-39
-0.021519482 -0.11993565 -0.045670874 1.4845708e-38
-0.019631956 -0.11824657 -0.038664706 1.244899e-38
-0.017701436 -0.11824657 -0.038664706 1.6967295e-38
-0.015851108 -0.11655019 -0.031628139 2.2223112e-38
-0.013985715 -0.11558239 -0.027613768 2.1762141e-38
-0.012074569 -0.11558239 -0.027613768 2.2591531e-38
-0.010212278 -0.1148753 -0.024680862 2.2774843e-38
-0.0083062761 -0.1148753 -0.024680862 2.286632e-38
-0.0064002741 -0.1148753 -0.024680862 2.2403914e-38
-0.0046471432 -0.11319371 -0.017705688 2.3416974e-38
-0.0028242599 -0.11247168 -0.014710793 2.3509168e-38
-0.00093573891 -0.11247168 -0.014710793 2.3232933e-38
0.00095278211 -0.11247168 -0.014710793 2.3509873e-38
0.0028413031 -0.11247168 -0.014710793 2.3509879e-38
0.004729826 -0.11247168 -0.014710793 2.3509883e-38
0.006618347 -0.11247168 -0.014710793 2.341805e-38
0.008506868 -0.11247168 -0.014710793 2.3142544e-38
0.010395389 -0.11247168 -0.014710793 2.2775202e-38
0.01228391 -0.11247168 -0.014710793 2.2499695e-38
0.014014423 -0.11150609 -0.01070548 2.2132353e-38
0.015769448 -0.11076607 -0.0076359604 2.2040518e-38
0.017645564 -0.11076607 -0.0076359604 2.2132353e-38
0.01952168 -0.11076607 -0.0076359604 2.2132353e-38
0.021397799 -0.11076607 -0.0076359604 2.2316024e-38
0.023273915 -0.11076607 -0.0076359604 2.2591531e-38
-0.023462288 -0.12187846 -0.045670874 1.8443867e-38
-0.021562478 -0.12017711 -0.038664706 1.1897276e-38
-0.019631956 -0.12017711 -0.038664706 1.3003272e-38
-0.017739497 -0.11921866 -0.034717925 1.8350955e-38
-0.015851108 -0.11846836 -0.031628139 2.2224189e-38
-0.013985715 -0.11749353 -0.027613768 2.2316024e-38
-0.01211828 -0.11678131 -0.024680862 2.20398e-38
-0.010262808 -0.11604463 -0.021647224 2.2499695e-38
-0.0084346887 -0.11508749 -0.017705688 2.3050349e-38
-0.0065409169 -0.11508749 -0.017705688 2.3048914e-38
-0.0047127809 -0.1143602 -0.014710793 2.3508809e-38
-0.0029190667 -0.11338757 -0.01070548 2.3414104e-38
-0.0011156052 -0.11264218 -0.0076359604 2.2122279e-38
0.00076051243 -0.11264218 -0.0076359604 2.3505937e-38
0.0026366282 -0.11264218 -0.0076359604 2.3506657e-38
0.0046069287 -0.11338757 -0.01070548 2.3507733e-38
0.0064884275 -0.11338757 -0.01070548 2.3416974e-38
0.0083699264 -0.11338757 -0.01070548 2.332621e-38
0.010251425 -0.11338757 -0.01070548 2.3142534e-38
0.01228391 -0.1143602 -0.014710793 2.2867022e-38
0.014014423 -0.11338757 -0.01070548 2.2775186e-38
0.015769448 -0.11264218 -0.0076359604 2.2591521e-38
0.017645564 -0.11264218 -0.0076359604 2.2316019e-38
0.01952168 -0.11264218 -0.0076359604 2.2131993e-38
0.019308798 -0.10172421 0.037324183 2.2499695e-38
0.021106087 -0.10172421 0.037324183 2.2867037e-38
0.022903372 -0.10172421 0.037324183 2.3142185e-38
-0.025405092 -0.12382124 -0.045670874 1.3744403e-38
-0.023462288 -0.12382124 -0.045670874 1.1161516e-38
-0.021562478 -0.12210761 -0.038664706 1.0146661e-38
-0.019631956 -0.12210761 -0.038664706 1.392741e-38
-0.017769292 -0.12038656 -0.031628139 1.7707748e-38
-0.015896861 -0.11940466 -0.027613768 1.9275408e-38
-0.014024282 -0.11868732 -0.024680862 1.9276124e-38
-0.012163492 -0.11794533 -0.021647224 2.2224189e-38
-0.01032846 -0.11698125 -0.017705688 2.2591531e-38
-0.0084898248 -0.11624874 -0.014710793 2.2958873e-38
-0.0066820644 -0.11526908 -0.01070548 2.3233662e-38
-0.0048678387 -0.1145183 -0.0076359604 2.3508809e-38
-0.002991721 -0.1145183 -0.0076359604 2.3508092e-38
-0.0011903327 -0.11379938 -0.0046966169 2.3505578e-38
0.00068063103 -0.11379938 -0.0046966169 2.3507733e-38
0.0025515929 -0.11379938 -0.0046966169 2.3508092e-38
0.0044225566 -0.11379938 -0.0046966169 2.3508451e-38
0.0063888617 -0.1145183 -0.0076359604 2.3509168e-38
0.0082649812 -0.1145183 -0.0076359604 2.3509883e-38
0.010251425 -0.11526908 -0.01070548 2.3326203e-38
0.01228391 -0.11624874 -0.014710793 2.3050693e-38
0.012119651 -0.10352151 0.037324183 2.286702e-38
0.013916939 -0.10352151 0.037324183 2.2683355e-38
0.017777421 -0.11526908 -0.01070548 2.2958873e-38
0.019658919 -0.11526908 -0.01070548 2.2867037e-38
0.019308798 -0.10352151 0.037324183 2.286632e-38
0.021106087 -0.10352151 0.037324183 2.3142544e-38
0.022903372 -0.10352151 0.037324183 2.3234379e-38
0.02470066 -0.10352151 0.037324183 2.341805e-38
-0.025405092 -0.12576406 -0.045670874 9.3197502e-39
-0.023475572 -0.12501745 -0.042640097 8.9499153e-39
-0.021562478 -0.12403814 -0.038664706 1.0517255e-38
-0.019687474 -0.12230472 -0.031628139 1.273032e-38
-0.017808005 -0.12131582 -0.027613768 1.4667132e-38
-0.015930284 -0.12059332 -0.024680862 1.5773811e-38
-0.014064175 -0.119846 -0.021647224 1.5774144e-38
-0.012222234 -0.11887501 -0.017705688 1.9092798e-38
-0.010378346 -0.11813726 -0.014710793 2.2040518e-38
-0.0086200722 -0.11639442 -0.0076359604 2.2775202e-38
-0.0067439545 -0.11639442 -0.0076359604 2.249754e-38
-0.0049322583 -0.11567034 -0.0046966169 2.3509168e-38
-0.003157001 -0.11467429 -0.00065327622 2.3508451e-38
-0.0012931284 -0.11467429 -0.00065327622 2.3507374e-38
0.00048887916 -0.11393218 0.0023591425 2.3508448e-38
0.0022608154 -0.1131943 0.0053545143 2.3509161e-38
0.0041141547 -0.1131943 0.0053545143 2.3509879e-38
0.0063888617 -0.11639442 -0.0076359604 2.3509524e-38
0.0082649812 -0.11639442 -0.0076359604 2.3509527e-38
0.010141097 -0.11639442 -0.0076359604 2.3509168e-38
0.010436431 -0.10606419 0.034298293 2.3509168e-38
0.012119651 -0.1053188 0.037324183 2.3509168e-38
0.013916939 -0.1053188 0.037324183 2.3417691e-38
0.015714224 -0.1053188 0.037324183 2.3233303e-38
0.017511513 -0.1053188 0.037324183 2.341805e-38
0.019308798 -0.1053188 0.037324183 2.3418047e-38
0.021106087 -0.1053188 0.037324183 2.341804e-38
0.022903372 -0.1053188 0.037324183 2.3234364e-38
0.02470066 -0.1053188 0.037324183 2.3142524e-38
0.026659761 -0.10606419 0.034298293 2.3418033e-38
0.028462354 -0.10606419 0.034298293 2.3234369e-38
0.030264944 -0.10606419 0.034298293 2.3142544e-38
0.032067537 -0.10606419 0.034298293 1.9271416e-38
-0.027350554 -0.12695493 -0.042640097 1.6694296e-38
-0.025413062 -0.12695493 -0.042640097 6.5553219e-39
-0.023492998 -0.12596865 -0.038664706 7.3836756e-39
-0.021605659 -0.12422292 -0.031628139 8.3052942e-39
-0.019719148 -0.12322696 -0.027613768 8.7670024e-39
-0.017836288 -0.1224993 -0.024680862 1.0150649e-38
-0.016009778 -0.1207688 -0.017705688 1.0612318e-38
-0.014116006 -0.1207688 -0.017705688 1.0059473e-38
-0.012266867 -0.12002577 -0.014710793 1.3747266e-38
-0.01049619 -0.11827053 -0.0076359604 1.983072e-38
-0.0086741857 -0.1175413 -0.0046966169 2.2316024e-38
-0.00688475 -0.11653815 -0.00065327622 2.2775202e-38
-0.0050868969 -0.11579077 0.0023591425 2.3234379e-38
-0.0032992065 -0.11504765 0.0053545143 2.3509527e-38
-0.0014458653 -0.11504765 0.0053545143 2.3508809e-38
0.00021634065 -0.11330278 0.012387505 2.3509161e-38
0.0017974786 -0.11107419 0.021370282 2.3509149e-38
0.0036227368 -0.11107419 0.021370282 2.3325478e-38
0.0055457316 -0.11182173 0.018357148 2.3417324e-38
0.007376276 -0.11182173 0.018357148 2.3416974e-38
0.009315744 -0.11257361 0.01532661 2.3508451e-38
0.010436431 -0.10786678 0.034298293 2.3508451e-38
0.012239024 -0.10786678 0.034298293 2.3508092e-38
0.013916939 -0.10711606 0.037324183 2.3508809e-38
0.015714224 -0.10711606 0.037324183 2.3509168e-38
0.017511513 -0.10711606 0.037324183 2.3509527e-38
0.019308798 -0.10711606 0.037324183 2.3325847e-38
0.021106087 -0.10711606 0.037324183 2.3233648e-38
0.022903372 -0.10711606 0.037324183 2.3234361e-38
0.02470066 -0.10711606 0.037324183 2.3326196e-38
0.026497945 -0.10711606 0.037324183 2.323436e-38
0.028295234 -0.10711606 0.037324183 2.3234367e-38
0.030092519 -0.10711606 0.037324183 2.2405343e-38
0.031889807 -0.10711606 0.037324183 2.2037288e-38
0.033687092 -0.10711606 0.037324183 2.111605e-38
-0.029284559 -0.12789918 -0.038664706 1.6597391e-38
-0.027354039 -0.12789918 -0.038664706 1.411424e-38
-0.025423519 -0.12789918 -0.038664706 5.5425951e-39
-0.023510298 -0.12691309 -0.034717925 6.55571e-39
-0.021630293 -0.12513812 -0.027613768 7.1081972e-39
-0.019742288 -0.12440531 -0.024680862 8.6751866e-39
-0.017903551 -0.12266256 -0.017705688 1.0058841e-38
-0.016043909 -0.12191428 -0.014710793 1.0060254e-38
-0.014208059 -0.12091358 -0.01070548 1.1259125e-38
-0.012326559 -0.12091358 -0.01070548 1.3103361e-38
-0.010545149 -0.11941226 -0.0046966169 1.9832161e-38
-0.0087486226 -0.11840202 -0.00065327622 2.1856847e-38
-0.0070058871 -0.11690097 0.0053545143 2.2316024e-38
-0.0051525459 -0.11690097 0.0053545143 2.2775202e-38
-0.0033697058 -0.1161568 0.0083329584 2.2589371e-38
-0.0015215874 -0.1161568 0.0083329584 2.3417324e-38
0.00021634065 -0.11514379 0.012387505 2.2956345e-38
0.0017974786 -0.11289944 0.021370282 2.3509879e-38
0.0036227368 -0.11289944 0.021370282 2.3418045e-38
0.0055457316 -0.11365227 0.018357148 2.3509883e-38
0.007376276 -0.11365227 0.018357148 2.3509527e-38
0.0092068166 -0.11365227 0.018357148 2.3509527e-38
0.010810845 -0.11215095 0.024366012 2.3509168e-38
0.012239024 -0.10966937 0.034298293 2.3509168e-38
0.014041618 -0.10966937 0.034298293 2.3508809e-38
0.015844207 -0.10966937 0.034298293 2.3508092e-38
0.017646801 -0.10966937 0.034298293 2.3508809e-38
0.019308798 -0.10891335 0.037324183 2.3509527e-38
0.021106087 -0.10891335 0.037324183 2.3509886e-38
0.022903372 -0.10891335 0.037324183 2.341805e-38
0.02470066 -0.10891335 0.037324183 2.3234374e-38
0.026497945 -0.10891335 0.037324183 2.2498243e-38
0.028295234 -0.10891335 0.037324183 2.2036911e-38
0.030092519 -0.10891335 0.037324183 2.3142544e-38
0.031889807 -0.10891335 0.037324183 2.3142544e-38
0.033687092 -0.10891335 0.037324183 2.1669227e-38
0.035484381 -0.10891335 0.037324183 2.1301885e-38
0.03728167 -0.10891335 0.037324183 2.0012585e-38
-0.0312047 -0.12883668 -0.034717925 1.9914623e-38
-0.0292811 -0.12883668 -0.034717925 1.5768349e-38
-0.027360208 -0.12805928 -0.031628139 1.3100456e-38
-0.025452582 -0.12704925 -0.027613768 5.8195533e-39
-0.023541437 -0.12704925 -0.027613768 6.3724048e-39
-0.021666907 -0.12554805 -0.021647224 5.7270676e-39
-0.019797323 -0.12455635 -0.017705688 7.0185477e-39
-0.017932432 -0.12380283 -0.014710793 7.2958506e-39
-0.016089559 -0.12279506 -0.01070548 8.1259462e-39
-0.014248422 -0.12202276 -0.0076359604 1.3473262e-38
-0.012416111 -0.12128322 -0.0046966169 1.5316419e-38
-0.010612497 -0.12026589 -0.00065327622 2.0754103e-38
-0.0088040829 -0.11950795 0.0023591425 2.1765011e-38
-0.0070058871 -0.11875431 0.0053545143 2.2224189e-38
-0.0052178241 -0.11800493 0.0083329584 2.2867037e-38
-0.0033697058 -0.11800493 0.0083329584 2.3050708e-38
-0.001624668 -0.1169848 0.012387505 2.3418045e-38
0.0001364667 -0.11624531 0.01532661 2.3418043e-38
0.0017974786 -0.11472471 0.021370282 2.3234018e-38
0.0036227368 -0.11472471 0.021370282 2.3234018e-38
0.0054479986 -0.11472471 0.021370282 2.3325494e-38
0.007376276 -0.11548282 0.018357148 2.3417687e-38
0.0092068166 -0.11548282 0.018357148 2.3509883e-38
0.010810845 -0.11397095 0.024366012 2.3509524e-38
0.012239024 -0.11147197 0.034298293 2.3509168e-38
0.013916939 -0.11071064 0.037324183 2.3509168e-38
0.015714224 -0.11071064 0.037324183 2.3508451e-38
0.017646801 -0.11147197 0.034298293 2.3508451e-38
0.019308798 -0.11071064 0.037324183 2.3509168e-38
0.021106087 -0.11071064 0.037324183 2.3509168e-38
0.022753052 -0.10995375 0.040332429 2.3325856e-38
0.024545062 -0.10995375 0.040332429 2.3234379e-38
0.026337076 -0.10995375 0.040332429 2.3142544e-38
0.028295234 -0.11071064 0.037324183 2.3142544e-38
0.030092519 -0.11071064 0.037324183 2.2405344e-38
0.031713113 -0.10995375 0.040332429 2.2958873e-38
0.033505123 -0.10995375 0.040332429 2.2129481e-38
0.03529714 -0.10995375 0.040332429 2.2591172e-38
0.03728167 -0.11071064 0.037324183 2.2775202e-38
0.039078951 -0.11071064 0.037324183 2.185577e-38
0.04087624 -0.11071064 0.037324183 2.2316024e-38
-0.035076119 -0.13176022 -0.038664706 2.0192652e-38
-0.033145599 -0.13176022 -0.038664706 1.9917141e-38
-0.0312047 -0.13076027 -0.034717925 2.0101533e-38
-0.0292811 -0.13076027 -0.034717925 1.2912094e-38
-0.027360208 -0.12997745 -0.031628139 9.5048575e-39
-0.025452582 -0.12896039 -0.027613768 6.4645962e-39
-0.023554293 -0.12821732 -0.024680862 5.6362999e-39
-0.021691095 -0.12645011 -0.017705688 5.6377544e-39
-0.019820953 -0.12569134 -0.014710793 4.8101574e-39
-0.017971057 -0.12467657 -0.01070548 6.6551349e-39
-0.016124539 -0.12389888 -0.0076359604 7.3004763e-39
-0.014340245 -0.12212978 -0.00065327622 1.2000625e-38
-0.012521267 -0.12136655 0.0023591425 1.6239078e-38
-0.010662675 -0.12136655 0.0023591425 2.1305834e-38
-0.0088592265 -0.12060766 0.0053545143 2.2316024e-38
-0.0070659425 -0.11985306 0.0083329584 2.2314231e-38
-0.0053066853 -0.11882581 0.012387505 2.323402e-38
-0.0034656767 -0.11882581 0.012387505 2.341805e-38
-0.0016993899 -0.11808117 0.01532661 2.3049624e-38
5.4106116e-05 -0.11731337 0.018357148 2.3418045e-38
0.0018846486 -0.11731337 0.018357148 2.341805e-38
0.0036227368 -0.11654995 0.021370282 2.341805e-38
0.0054479986 -0.11654995 0.021370282 2.3509886e-38
0.0072732568 -0.11654995 0.021370282 2.3509886e-38
0.0089908391 -0.11579098 0.024366012 2.3509883e-38
0.010810845 -0.11579098 0.024366012 2.3509524e-38
0.012239024 -0.11327456 0.034298293 2.3509165e-38
0.013916939 -0.11250792 0.037324183 2.3509165e-38
0.015714224 -0.11250792 0.037324183 2.3509165e-38
0.017511513 -0.11250792 0.037324183 2.3508445e-38
0.019308798 -0.11250792 0.037324183 2.3509524e-38
0.021106087 -0.11250792 0.037324183 2.3509883e-38
0.022753052 -0.11174576 0.040332429 2.3509883e-38
0.024545062 -0.11174576 0.040332429 2.3417687e-38
0.026337076 -0.11174576 0.040332429 2.3141819e-38
0.028295234 -0.11250792 0.037324183 2.3234376e-38
0.0299211 -0.11174576 0.040332429 2.2867037e-38
0.031713113 -0.11174576 0.040332429 2.2499687e-38
0.033505123 -0.11174576 0.040332429 2.3142541e-38
0.03529714 -0.11174576 0.040332429 2.3418045e-38
0.037089147 -0.11174576 0.040332429 2.3325492e-38
0.03888116 -0.11174576 0.040332429 2.3233299e-38
0.040673174 -0.11174576 0.040332429 2.3234379e-38
-0.038937163 -0.13369073 -0.038664706 1.6134246e-38
-0.035076119 -0.13369073 -0.038664706 1.8994109e-38
-0.033145599 -0.13369073 -0.038664706 1.8718242e-38
-0.0312047 -0.13268389 -0.034717925 1.9272491e-38
-0.0292811 -0.13268389 -0.034717925 1.2451841e-38
-0.027360208 -0.13189565 -0.031628139 7.6602415e-39
-0.025452582 -0.13087155 -0.027613768 5.1742343e-39
-0.023554293 -0.13012333 -0.024680862 4.5310383e-39
-0.021691095 -0.1283439 -0.017705688 4.8097916e-39
-0.019852554 -0.12655805 -0.01070548 4.7197526e-39
-0.018000657 -0.12577499 -0.0076359604 6.7491144e-39
-0.016158039 -0.12502514 -0.0046966169 7.9472653e-39
-0.014340245 -0.12399365 -0.00065327622 1.3937435e-38
-0.012521267 -0.12322514 0.0023591425 1.8081897e-38
-0.010712568 -0.12246101 0.0053545143 2.1948682e-38
-0.0089140609 -0.12170117 0.0083329584 2.2775202e-38
-0.0072069578 -0.11991702 0.01532661 2.2588661e-38
-0.0054375213 -0.11914389 0.018357148 2.3509168e-38
-0.0036069788 -0.11914389 0.018357148 2.3509527e-38
-0.0019292012 -0.11761098 0.024366012 2.31411e-38
-0.00010919571 -0.11761098 0.024366012 2.3418047e-38
0.0017974786 -0.11837523 0.021370282 2.341805e-38
0.0036227368 -0.11837523 0.021370282 2.341805e-38
0.0054479986 -0.11837523 0.021370282 2.3509886e-38
0.017511513 -0.11430521 0.037324183 2.3509879e-38
0.019308798 -0.11430521 0.037324183 2.3509879e-38
0.021106087 -0.11430521 0.037324183 2.3232933e-38
0.022753052 -0.11353777 0.040332429 2.3232933e-38
0.024390381 -0.11277486 0.043323033 2.3417687e-38
0.026177149 -0.11277486 0.043323033 2.3509886e-38
0.02812909 -0.11353777 0.040332429 2.3234379e-38
0.0299211 -0.11353777 0.040332429 2.2775199e-38
0.031537455 -0.11277486 0.043323033 2.1947229e-38
0.033324223 -0.11277486 0.043323033 2.2497525e-38
0.035110995 -0.11277486 0.043323033 2.3509876e-38
0.036897764 -0.11277486 0.043323033 2.3509517e-38
0.03888116 -0.11353777 0.040332429 2.3508802e-38
0.04087624 -0.11430521 0.037324183 2.3509168e-38
0.042673528 -0.11430521 0.037324183 2.3142185e-38
0.044470817 -0.11430521 0.037324183 2.2775202e-38
-0.037038006 -0.13664238 -0.042640097 1.9546561e-38
-0.035100516 -0.13664238 -0.042640097 1.9086302e-38
-0.033163026 -0.13664238 -0.042640097 1.8810794e-38
-0.0312047 -0.13460748 -0.034717925 1.8718598e-38
-0.0292811 -0.13460748 -0.034717925 1.1067828e-38
-0.027360208 -0.13381381 -0.031628139 6.6460882e-39
-0.025452582 -0.13278268 -0.027613768 4.8976446e-39
-0.023567591 -0.1312501 -0.021647224 4.2537298e-39
-0.021709474 -0.1294684 -0.014710793 4.7165156e-39
-0.019876774 -0.12765111 -0.0076359604 5.2718404e-39
-0.018000657 -0.12765111 -0.0076359604 7.024258e-39
-0.016158039 -0.1268961 -0.0046966169 8.6830254e-39
-0.014340245 -0.12585752 -0.00065327622 1.6424911e-38
-0.012521267 -0.12508373 0.0023591425 2.0477162e-38
-0.010762177 -0.1235493 0.0083329584 2.2316024e-38
-0.0090428125 -0.12175287 0.01532661 2.3142544e-38
-0.0072680637 -0.12097444 0.018357148 2.2863809e-38
-0.0055035595 -0.12020047 0.021370282 2.3508809e-38
-0.0036782995 -0.12020047 0.021370282 2.3509168e-38
-0.0019292012 -0.11943097 0.024366012 2.3141456e-38
-0.00010919571 -0.11943097 0.024366012 2.350988e-38
0.0017108116 -0.11943097 0.024366012 2.341805e-38
0.003715191 -0.12097444 0.018357148 2.341805e-38
0.021106087 -0.1161025 0.037324183 2.3509883e-38
0.022603612 -0.11456163 0.043323033 2.3234018e-38
0.024236601 -0.11379795 0.046296112 2.3050347e-38
0.026018158 -0.11379795 0.046296112 2.2958154e-38
0.027963918 -0.11456163 0.043323033 2.2498973e-38
0.029750686 -0.11456163 0.043323033 2.2591531e-38
0.031362824 -0.11379795 0.046296112 2.1024922e-38
0.033144381 -0.11379795 0.046296112 2.1299346e-38
0.034925938 -0.11379795 0.046296112 2.3141456e-38
0.036707491 -0.11379795 0.046296112 2.3047463e-38
0.038489051 -0.11379795 0.046296112 2.277016e-38
0.040673174 -0.11532979 0.040332429 2.2771605e-38
0.042673528 -0.1161025 0.037324183 2.3049991e-38
0.044685684 -0.11687975 0.034298293 2.2775202e-38
0.046488278 -0.11687975 0.034298293 2.2224189e-38
0.048290864 -0.11687975 0.034298293 2.010659e-38
-0.037038006 -0.13857989 -0.042640097 1.8439489e-38
-0.035100516 -0.13857989 -0.042640097 1.8809353e-38
-0.033163026 -0.13857989 -0.042640097 1.9178497e-38
-0.0312047 -0.13653107 -0.034717925 1.8533128e-38
-0.0292811 -0.13653107 -0.034717925 9.6848936e-39
-0.027360208 -0.13573201 -0.031628139 6.18511e-39
-0.025468275 -0.13315077 -0.021647224 4.9898403e-39
-0.023584869 -0.13213144 -0.017705688 4.2537298e-39
-0.021734053 -0.13032107 -0.01070548 4.7161499e-39
-0.019876774 -0.12952723 -0.0076359604 5.8235708e-39
-0.018029001 -0.12876706 -0.0046966169 7.6678197e-39
-0.016158039 -0.12876706 -0.0046966169 9.7875667e-39
-0.014340245 -0.12772138 -0.00065327622 1.8912371e-38
-0.012521267 -0.12694232 0.0023591425 2.1948682e-38
-0.010762177 -0.1253974 0.0083329584 2.2775202e-38
-0.0090986062 -0.12280498 0.018357148 2.3049273e-38
-0.0073288176 -0.12202574 0.021370282 2.3231508e-38
-0.0055035595 -0.12202574 0.021370282 2.3508809e-38
-0.0037492085 -0.121251 0.024366012 2.3509168e-38
-0.0020291712 -0.12023406 0.028298249 2.3232932e-38
-0.00021605939 -0.12023406 0.028298249 2.3509879e-38
0.0017108116 -0.121251 0.024366012 2.341805e-38
0.022603612 -0.1163484 0.043323033 2.2773763e-38
0.024236601 -0.1155795 0.046296112 2.1759974e-38
0.026018158 -0.1155795 0.046296112 2.120788e-38
0.027799714 -0.1155795 0.046296112 2.139299e-38
0.029581271 -0.1155795 0.046296112 2.102565e-38
0.031362824 -0.1155795 0.046296112 2.0288085e-38
0.033144381 -0.1155795 0.046296112 2.0562509e-38
0.034925938 -0.1155795 0.046296112 2.1851803e-38
0.036511824 -0.11478879 0.049353592 2.0835849e-38
0.03828802 -0.11478879 0.049353592 2.0928045e-38
0.040673174 -0.1171218 0.040332429 2.1297193e-38
0.042673528 -0.11789979 0.037324183 2.2036562e-38
0.044685684 -0.11868234 0.034298293 2.213056e-38
0.046488278 -0.11868234 0.034298293 2.1026381e-38
0.048290864 -0.11868234 0.034298293 2.1396234e-38
-0.037038006 -0.14051737 -0.042640097 1.7240583e-38
-0.035100516 -0.14051737 -0.042640097 1.7794119e-38
-0.033163026 -0.14051737 -0.042640097 1.8071788e-38
-0.0312047 -0.13845469 -0.034717925 1.7702648e-38
-0.0292811 -0.13845469 -0.034717925 9.3157509e-39
-0.027360208 -0.13765021 -0.031628139 5.3564283e-39
-0.025468275 -0.13505147 -0.021647224 4.4373853e-39
-0.023597997 -0.13324542 -0.014710793 3.8853046e-39
-0.02175289 -0.13140334 -0.0076359604 4.5310355e-39
-0.019876774 -0.13140334 -0.0076359604 5.8232051e-39
-0.018029001 -0.13063805 -0.0046966169 8.496137e-39
-0.016158039 -0.13063805 -0.0046966169 1.162931e-38
-0.014340245 -0.12958528 -0.00065327622 2.1213998e-38
-0.012521267 -0.12880091 0.0023591425 2.2499695e-38
-0.010878669 -0.12542458 0.01532661 2.3050708e-38
-0.0091540776 -0.12385099 0.021370282 2.3139664e-38
-0.0073288176 -0.12385099 0.021370282 2.3507729e-38
-0.0055692159 -0.123071 0.024366012 2.3508809e-38
-0.0037492085 -0.123071 0.024366012 2.3509165e-38
-0.0020291712 -0.12204717 0.028298249 2.3232932e-38
-0.00021605939 -0.12204717 0.028298249 2.3509879e-38
0.0017108116 -0.123071 0.024366012 2.3509886e-38
0.026018158 -0.11736105 0.046296112 1.9180661e-38
0.027799714 -0.11736105 0.046296112 2.0195536e-38
0.029581271 -0.11736105 0.046296112 1.9458332e-38
0.031362824 -0.11736105 0.046296112 1.9273941e-38
0.033144381 -0.11736105 0.046296112 1.8903355e-38
0.034925938 -0.11736105 0.046296112 1.9823867e-38
0.036511824 -0.11656497 0.049353592 1.8900467e-38
0.03828802 -0.11656497 0.049353592 2.0744736e-38
0.040270604 -0.11736105 0.046296112 2.0745459e-38
0.042465188 -0.11891381 0.040332429 2.0562509e-38
0.044470817 -0.11969708 0.037324183 2.0840182e-38
0.046268098 -0.11969708 0.037324183 2.2131994e-38
0.048065387 -0.11969708 0.037324183 2.2224189e-38
-0.033145599 -0.14141284 -0.038664706 1.7794119e-38
-0.031215079 -0.14141284 -0.038664706 1.6872166e-38
-0.029284559 -0.14141284 -0.038664706 8.3937946e-39
-0.027363727 -0.13851611 -0.027613768 5.448624e-39
-0.025478641 -0.13591899 -0.017705688 4.069679e-39
-0.023597997 -0.13513394 -0.014710793 3.6094338e-39
-0.02175289 -0.13327946 -0.0076359604 3.9778603e-39
-0.019876774 -0.13327946 -0.0076359604 5.2693068e-39
-0.018029001 -0.13250901 -0.0046966169 8.7723582e-39
-0.016204119 -0.13144915 -0.00065327622 1.2642379e-38
-0.014379858 -0.13065951 0.0023591425 2.158134e-38
-0.012714525 -0.12726043 0.01532661 2.2775202e-38
-0.010929147 -0.12646608 0.018357148 2.3049624e-38
-0.0091540776 -0.12567626 0.021370282 2.3415529e-38
-0.0073892213 -0.124891 0.024366012 2.3508807e-38
-0.0055692159 -0.124891 0.024366012 2.3508451e-38
-0.0037492085 -0.124891 0.024366012 2.3508805e-38
0.033144381 -0.11914261 0.046296112 1.5401365e-38
0.034925938 -0.11914261 0.046296112 1.7336029e-38
0.036707491 -0.11914261 0.046296112 1.7795563e-38
0.03828802 -0.11834116 0.049353592 2.1483387e-38
0.040064216 -0.11834116 0.049353592 2.1483743e-38
0.042052165 -0.11914261 0.046296112 2.0654705e-38
0.044044837 -0.11992194 0.043323033 2.0287003e-38
0.045831606 -0.11992194 0.043323033 2.2499695e-38
-0.031186016 -0.14042725 -0.027613768 1.6779252e-38
-0.029274872 -0.14042725 -0.027613768 8.1161287e-39
-0.027363727 -0.14042725 -0.027613768 5.7259297e-39
-0.025478641 -0.13781275 -0.017705688 3.793811e-39
-0.023597997 -0.13702248 -0.014710793 3.3339231e-39
-0.021734053 -0.13596557 -0.01070548 3.4257628e-39
-0.019876774 -0.13515557 -0.0076359604 4.4395433e-39
-0.018067993 -0.13331302 -0.00065327622 9.2326119e-39
-0.016204119 -0.13331302 -0.00065327622 1.3655808e-38
-0.014379858 -0.1325181 0.0023591425 2.1304758e-38
-0.012714525 -0.12909628 0.01532661 2.2867037e-38
-0.010929147 -0.1282966 0.018357148 2.3233652e-38
-0.0091540776 -0.1275015 0.021370282 2.3509163e-38
-0.0073892213 -0.126711 0.024366012 2.3508807e-38
-0.0055692159 -0.126711 0.024366012 2.3508449e-38
0.036707491 -0.12092416 0.046296112 1.7151638e-38
0.03828802 -0.12011738 0.049353592 2.1024208e-38
0.040064216 -0.12011738 0.049353592 2.1300793e-38
0.042052165 -0.12092416 0.046296112 2.1577377e-38
0.044044837 -0.12170871 0.043323033 2.1117121e-38
0.045831606 -0.12170871 0.043323033 2.2130915e-38
-0.02927839 -0.14340474 -0.031628139 8.6692997e-39
-0.027360208 -0.14340474 -0.031628139 4.9894409e-39
-0.025478641 -0.13970654 -0.017705688 2.8725708e-39
-0.023597997 -0.13891099 -0.014710793 2.8729421e-39
-0.02175289 -0.13703169 -0.0076359604 3.0580522e-39
-0.019899964 -0.13625093 -0.0046966169 4.071837e-39
-0.018067993 -0.13517688 -0.00065327622 9.8790575e-39
-0.016204119 -0.13517688 -0.00065327622 1.4946544e-38
-0.014379858 -0.13437669 0.0023591425 2.1856847e-38
-0.012714525 -0.13093217 0.01532661 2.2867037e-38
-0.010929147 -0.13012715 0.018357148 2.3418043e-38
-0.0091540776 -0.12932678 0.021370282 2.3509163e-38
-0.0073892213 -0.12853102 0.024366012 2.3508809e-38
-0.0055692159 -0.12853102 0.024366012 2.350773e-38
0.036707491 -0.12270571 0.046296112 1.6876493e-38
0.03828802 -0.12189357 0.049353592 1.9458324e-38
0.040064216 -0.12189357 0.049353592 2.028736e-38
-0.027372412 -0.1416003 -0.017705688 4.7132071e-39
-0.025478641 -0.1416003 -0.017705688 2.3193928e-39
-0.023597997 -0.14079951 -0.014710793 2.3201229e-39
-0.02175289 -0.13890781 -0.0076359604 2.5048771e-39
-0.019899964 -0.13812189 -0.0046966169 3.7952473e-39
-0.018067993 -0.13704078 -0.00065327622 1.0616623e-38
-0.016204119 -0.13704078 -0.00065327622 1.522421e-38
-0.014379858 -0.13623528 0.0023591425 2.0291338e-38
-0.012714525 -0.13276802 0.01532661 2.2775202e-38
-0.010878669 -0.13276802 0.01532661 2.3418047e-38
-0.0091540776 -0.13115202 0.021370282 2.3509167e-38
-0.0073288176 -0.13115202 0.021370282 2.3509168e-38
-0.025478641 -0.14349405 -0.017705688 1.4127891e-41
-0.023597997 -0.14268802 -0.014710793 1.0669907e-40
-0.021734053 -0.14161004 -0.01070548 2.2279216e-39
-0.019899964 -0.13999285 -0.0046966169 3.7956019e-39
-0.018067993 -0.13890465 -0.00065327622 8.9570984e-39
-0.016204119 -0.13890465 -0.00065327622 1.4118581e-38
-0.014379858 -0.13809387 0.0023591425 2.1673176e-38
-0.012610296 -0.13648613 0.0083329584 2.2591531e-38
-0.010829713 -0.13539489 0.012387505 2.3234379e-38
-0.0089887045 -0.13539489 0.012387505 2.3509168e-38
-0.025478641 -0.14538784 -0.017705688 1.0264637e-39
-0.023584869 -0.14538784 -0.017705688 4.7402704e-40
-0.021709474 -0.14457656 -0.014710793 2.2268314e-39
-0.019852554 -0.14349155 -0.01070548 4.0710985e-39
-0.018029001 -0.14186381 -0.0046966169 8.9574501e-39
-0.016204119 -0.14076851 -0.00065327622 1.4026382e-38
-0.014379858 -0.13995247 0.0023591425 2.1673176e-38
-0.012610296 -0.13833423 0.0083329584 2.2499695e-38
-0.010829713 -0.13723589 0.012387505 2.3142544e-38
-0.0089887045 -0.13723589 0.012387505 2.3509168e-38
-0.025478641 -0.1472816 -0.017705688 4.2514905e-39
-0.023584869 -0.1472816 -0.017705688 2.2235692e-39
-0.021691095 -0.1472816 -0.017705688 6.5804976e-40
-0.019852554 -0.14537306 -0.01070548 1.8573118e-39
-0.018000657 -0.14453618 -0.0076359604 8.4031889e-39
-0.016158039 -0.14373477 -0.0046966169 1.356504e-38
-0.014379858 -0.14181106 0.0023591425 2.0568997e-38
-0.012565907 -0.14099441 0.0053545143 2.2499695e-38
-0.010712568 -0.14099441 0.0053545143 2.3142544e-38
-0.021691095 -0.14917539 -0.017705688 3.3295482e-39
-0.019820953 -0.14835359 -0.014710793 2.4090338e-39
-0.018000657 -0.1464123 -0.0076359604 6.7425788e-39
-0.016158039 -0.14560573 -0.0046966169 1.2273575e-38
-0.014340245 -0.14449625 -0.00065327622 2.1673176e-38
-0.012476372 -0.14449625 -0.00065327622 2.2591531e-38
-0.010612497 -0.14449625 -0.00065327622 2.3234379e-38
-0.017971057 -0.14913605 -0.01070548 5.8191763e-39
-0.016089559 -0.14913605 -0.01070548 9.506263e-39
-0.014340245 -0.14636014 -0.00065327622 2.1120728e-38
-0.012476372 -0.14636014 -0.00065327622 2.2591531e-38
-0.010612497 -0.14636014 -0.00065327622 2.341805e-38
-0.014287075 -0.14934768 -0.0046966169 1.7432187e-38
-0.012416111 -0.14934768 -0.0046966169 2.2130554e-38
-0.010545149 -0.14934768 -0.0046966169 2.3233299e-38
-0.0086741857 -0.14934768 -0.0046966169 2.3508451e-38
0.042980134 -0.14944084 0.0583167 2.3234379e-38
0.044523366 -0.14855875 0.061302416 2.2958155e-38
0.046278611 -0.14855875 0.061302416 2.341805e-38
