# .PCD v0.7 - Point Cloud Data file format
VERSION 0.7
FIELDS x y z rgb
SIZE 4 4 4 4
TYPE F F F F
COUNT 1 1 1 1
WIDTH 943
HEIGHT 1
VIEWPOINT 0 0 0 1 0 0 0
POINTS 943
DATA ascii
-0.012594119 -0.11943097 -0.009926118 1.3191615e-38
-0.010774111 -0.11943097 -0.009926118 1.5587963e-38
-0.0090705957 -0.11763458 -0.0029324666 2.1763935e-38
-0.0073169512 -0.11687975 6.1616302e-06 2.2775202e-38
-0.0055143596 -0.11687975 6.1616302e-06 2.2775183e-38
-0.003711768 -0.11687975 6.1616302e-06 2.3050327e-38
-0.0018396177 -0.11763458 -0.0029324666 2.3509876e-38
-3.1874049e-05 -0.11763458 -0.0029324666 2.3509168e-38
-0.061505213 -0.13393532 -0.058972992 1.4937134e-38
-0.05959921 -0.13393532 -0.058972992 1.5398115e-38
-0.057693209 -0.13393532 -0.058972992 1.5213721e-38
-0.055787206 -0.13393532 -0.058972992 1.5583217e-38
-0.053955767 -0.13469382 -0.061905898 1.6136746e-38
-0.052139644 -0.13573201 -0.065920271 1.6966157e-38
-0.050221462 -0.13573201 -0.065920271 1.7795563e-38
-0.048222333 -0.13469382 -0.061905898 1.8256188e-38
-0.046257194 -0.13393532 -0.058972992 1.7979604e-38
-0.04423501 -0.13213144 -0.051997818 1.6688865e-38
-0.042236913 -0.13032107 -0.04499761 1.5490322e-38
-0.040315047 -0.12952723 -0.04192809 1.9178144e-38
-0.03840543 -0.12876706 -0.038988747 2.2681931e-38
-0.036495477 -0.12772138 -0.034945406 2.2589374e-38
-0.034631602 -0.12772138 -0.034945406 2.3234379e-38
-0.032749243 -0.12694232 -0.031932987 2.2958507e-38
-0.030877519 -0.12616767 -0.028937615 2.1852157e-38
-0.029016346 -0.1253974 -0.025959171 2.2220939e-38
-0.027164673 -0.12434883 -0.021904625 2.3418047e-38
-0.025323665 -0.12434883 -0.021904625 2.2864163e-38
-0.023490386 -0.12358873 -0.01896552 2.3417691e-38
-0.021667814 -0.12280498 -0.015934981 2.2958873e-38
-0.019837271 -0.12280498 -0.015934981 2.2316024e-38
-0.018030504 -0.12202574 -0.012921847 2.1948682e-38
-0.016205244 -0.12202574 -0.012921847 1.5958172e-38
-0.014414126 -0.121251 -0.009926118 1.3745494e-38
-0.012594119 -0.121251 -0.009926118 1.3099405e-38
-0.010832716 -0.12023406 -0.0059938803 1.7799566e-38
-0.0091195442 -0.11868234 6.1616302e-06 2.1948323e-38
-0.0073726592 -0.11789979 0.003032051 2.2683363e-38
-0.0055753724 -0.11789979 0.003032051 2.2406398e-38
-0.003711768 -0.11868234 6.1616302e-06 2.3418033e-38
-0.061505213 -0.13584132 -0.058972992 1.5029332e-38
-0.05959921 -0.13584132 -0.058972992 1.5214085e-38
-0.057693209 -0.13584132 -0.058972992 1.5398112e-38
-0.055787206 -0.13584132 -0.058972992 1.7333492e-38
-0.053955767 -0.13660498 -0.061905898 1.6319697e-38
-0.052139644 -0.13765021 -0.065920271 1.6780324e-38
-0.050133478 -0.13660498 -0.061905898 1.8348375e-38
-0.048163194 -0.13584132 -0.058972992 1.8440935e-38
-0.046201345 -0.13505147 -0.055939354 1.6597748e-38
-0.044185124 -0.13324542 -0.049002923 1.5215175e-38
-0.042191166 -0.13140334 -0.04192809 1.5215175e-38
-0.040276397 -0.13063805 -0.038988747 2.2867037e-38
-0.03840543 -0.13063805 -0.038988747 2.2958873e-38
-0.036495477 -0.12958528 -0.034945406 2.2589736e-38
-0.034607835 -0.12880091 -0.031932987 2.2865958e-38
-0.032749243 -0.12880091 -0.031932987 2.3418047e-38
-0.030877519 -0.12802102 -0.028937615 2.1020955e-38
-0.029016346 -0.12724553 -0.025959171 2.1113504e-38
-0.027164673 -0.12618984 -0.021904625 2.2311331e-38
-0.025326241 -0.12542458 -0.01896552 2.3139658e-38
-0.023498356 -0.12463553 -0.015934981 2.3509527e-38
-0.021667814 -0.12463553 -0.015934981 2.3050349e-38
-0.019855762 -0.12385099 -0.012921847 2.2315307e-38
-0.018054139 -0.123071 -0.009926118 2.2316024e-38
-0.016234133 -0.123071 -0.009926118 1.3283407e-38
-0.014458939 -0.12204717 -0.0059938803 1.2177429e-38
-0.012645828 -0.12204717 -0.0059938803 1.3928427e-38
-0.010922136 -0.12048493 6.1616302e-06 1.9274684e-38
-0.0091195442 -0.12048493 6.1616302e-06 2.2591531e-38
-0.0073726592 -0.11969708 0.003032051 2.2867034e-38
-0.0055753724 -0.11969708 0.003032051 2.2958857e-38
-0.061600346 -0.13851611 -0.061905898 1.5305919e-38
-0.059689201 -0.13851611 -0.061905898 1.5582868e-38
-0.057778057 -0.13851611 -0.061905898 1.585909e-38
-0.055866912 -0.13851611 -0.061905898 1.714874e-38
-0.053955767 -0.13851611 -0.061905898 1.6410455e-38
-0.052044623 -0.13851611 -0.061905898 1.6872516e-38
-0.050069202 -0.13774733 -0.058972992 1.8348372e-38
-0.048102029 -0.13695215 -0.055939354 1.7611895e-38
-0.046128783 -0.13591899 -0.051997818 1.549248e-38
-0.044118408 -0.13408406 -0.04499761 1.5401011e-38
-0.042191166 -0.13327946 -0.04192809 1.7153091e-38
-0.040276397 -0.13250901 -0.038988747 2.1762859e-38
-0.03840543 -0.13250901 -0.038988747 2.2315665e-38
-0.036495477 -0.13144915 -0.034945406 2.2867037e-38
-0.034607835 -0.13065951 -0.031932987 2.249826e-38
-0.032749243 -0.13065951 -0.031932987 2.2865961e-38
-0.030864464 -0.12909363 -0.025959171 2.083621e-38
-0.029016346 -0.12909363 -0.025959171 2.1757802e-38
-0.027164673 -0.12803085 -0.021904625 2.2863426e-38
-0.025328899 -0.12646608 -0.015934981 2.2954906e-38
-0.023498356 -0.12646608 -0.015934981 2.3509521e-38
-0.02168102 -0.12567626 -0.012921847 2.341805e-38
-0.019855762 -0.12567626 -0.012921847 2.2958873e-38
-0.018054139 -0.124891 -0.009926118 2.1763218e-38
-0.016272053 -0.12386028 -0.0059938803 7.7505776e-39
-0.014493831 -0.1230578 -0.0029324666 1.1069989e-38
-0.012686085 -0.1230578 -0.0029324666 2.0012245e-38
-0.010922136 -0.12228753 6.1616302e-06 2.1394082e-38
-0.0091699455 -0.12149437 0.003032051 2.2591531e-38
-0.0073726592 -0.12149437 0.003032051 2.2498968e-38
-0.063889317 -0.14334334 -0.072956838 1.3738594e-38
-0.061600346 -0.14042725 -0.061905898 1.5674702e-38
-0.059689201 -0.14042725 -0.061905898 1.6228237e-38
-0.057778057 -0.14042725 -0.061905898 1.6227873e-38
-0.055866912 -0.14042725 -0.061905898 1.6410455e-38
-0.053955767 -0.14042725 -0.061905898 1.6503007e-38
-0.052044623 -0.14042725 -0.061905898 1.7333492e-38
-0.050069202 -0.13965334 -0.058972992 1.7980309e-38
-0.048022553 -0.13781275 -0.051997818 1.659918e-38
-0.046073645 -0.13702248 -0.049002923 1.4571967e-38
-0.044067282 -0.13515557 -0.04192809 1.4480859e-38
-0.042147357 -0.13437997 -0.038988747 1.5771966e-38
-0.040276397 -0.13437997 -0.038988747 1.8998458e-38
-0.038359351 -0.13331302 -0.034945406 2.0749798e-38
-0.036495477 -0.13331302 -0.034945406 2.2499695e-38
-0.034607835 -0.1325181 -0.031932987 2.2775202e-38
-0.032749243 -0.1325181 -0.031932987 2.2221319e-38
-0.030864464 -0.13094176 -0.025959171 2.1481599e-38
-0.029005682 -0.12987186 -0.021904625 2.1665621e-38
-0.027162097 -0.12909628 -0.01896552 2.2954917e-38
-0.025328899 -0.1282966 -0.015934981 2.3508805e-38
-0.02350628 -0.1275015 -0.012921847 2.3416245e-38
-0.02168102 -0.1275015 -0.012921847 2.2773039e-38
-0.019874146 -0.126711 -0.009926118 2.2958873e-38
-0.018085165 -0.1256734 -0.0059938803 2.2591531e-38
-0.016301574 -0.12486555 -0.0029324666 7.1970395e-39
-0.014493831 -0.12486555 -0.0029324666 1.1806824e-38
-0.012724729 -0.12409012 6.1616302e-06 2.2499695e-38
-0.010967232 -0.12329166 0.003032051 2.2775202e-38
-0.0091699455 -0.12329166 0.003032051 2.0838742e-38
-0.0073726592 -0.12329166 0.003032051 2.065326e-38
-0.063889317 -0.14527388 -0.072956838 1.3277613e-38
-0.061958801 -0.14527388 -0.072956838 1.5859093e-38
-0.060028281 -0.14527388 -0.072956838 1.6688854e-38
-0.058097761 -0.14527388 -0.072956838 1.6411185e-38
-0.056059983 -0.14422549 -0.069010057 1.6871433e-38
-0.054057825 -0.14340474 -0.065920271 1.6871789e-38
-0.052044623 -0.14233841 -0.061905898 1.7241296e-38
-0.050133478 -0.14233841 -0.061905898 1.7612605e-38
-0.048022553 -0.13970654 -0.051997818 1.6969405e-38
-0.045999907 -0.13784705 -0.04499761 1.4389736e-38
-0.044067282 -0.13703169 -0.04192809 1.0979232e-38
-0.042147357 -0.13625093 -0.038988747 8.5835949e-39
-0.040276397 -0.13625093 -0.038988747 8.6750829e-39
-0.038359351 -0.13517688 -0.034945406 9.5041303e-39
-0.036466427 -0.13437669 -0.031932987 1.2360397e-38
-0.034584202 -0.13358103 -0.028937615 1.7614462e-38
-0.032730862 -0.13358103 -0.028937615 2.0378152e-38
-0.030864464 -0.13278987 -0.025959171 2.2958155e-38
-0.029005682 -0.13171287 -0.021904625 2.2311361e-38
-0.027162097 -0.13093217 -0.01896552 2.3325138e-38
-0.025328899 -0.13012715 -0.015934981 2.2955641e-38
-0.02350628 -0.12932678 -0.012921847 2.3509527e-38
-0.021694152 -0.12853102 -0.009926118 2.3234379e-38
-0.019898277 -0.12748651 -0.0059938803 2.2958873e-38
-0.01810932 -0.1266733 -0.0029324666 2.2591531e-38
-0.016301574 -0.1266733 -0.0029324666 6.9197295e-39
-0.014527321 -0.12589271 6.1616302e-06 1.1437315e-38
-0.012724729 -0.12589271 6.1616302e-06 2.2316024e-38
-0.010967232 -0.12508895 0.003032051 2.2867037e-38
-0.0092200525 -0.12428986 0.0060402974 1.890191e-38
-0.0074280412 -0.12428986 0.0060402974 1.9638032e-38
0.022169026 -0.11951269 0.024024568 2.166634e-38
0.023929508 -0.11951269 0.024024568 2.2496101e-38
0.025689987 -0.11951269 0.024024568 2.2864882e-38
-0.063889317 -0.14720438 -0.072956838 1.3737512e-38
-0.061958801 -0.14720438 -0.072956838 1.5489229e-38
-0.060028281 -0.14720438 -0.072956838 1.6503381e-38
-0.058097761 -0.14720438 -0.072956838 1.705691e-38
-0.056167241 -0.14720438 -0.072956838 1.6226065e-38
-0.054057825 -0.14532293 -0.065920271 1.7148739e-38
-0.052139644 -0.14532293 -0.065920271 1.6597369e-38
-0.050221462 -0.14532293 -0.065920271 1.6876122e-38
-0.048022553 -0.1416003 -0.051997818 1.6509869e-38
-0.045999907 -0.13972856 -0.04499761 1.4667408e-38
-0.044067282 -0.13890781 -0.04192809 1.135018e-38
-0.042147357 -0.13812189 -0.038988747 6.9255267e-39
-0.040276397 -0.13812189 -0.038988747 7.5712717e-39
-0.038359351 -0.13704078 -0.034945406 6.7400817e-39
-0.036466427 -0.13623528 -0.031932987 6.4624214e-39
-0.034584202 -0.13543437 -0.028937615 9.3186838e-39
-0.032712582 -0.134638 -0.025959171 1.328093e-38
-0.030864464 -0.134638 -0.025959171 1.8903762e-38
-0.029005682 -0.13355388 -0.021904625 2.2590096e-38
-0.027162097 -0.13276802 -0.01896552 2.2220601e-38
-0.025328899 -0.13195769 -0.015934981 2.3233662e-38
-0.02350628 -0.13115202 -0.012921847 2.323402e-38
-0.021694152 -0.13035102 -0.009926118 2.203693e-38
-0.019898277 -0.1292996 -0.0059938803 2.1945812e-38
-0.018132504 -0.12769531 6.1616302e-06 2.0748361e-38
-0.016329912 -0.12769531 6.1616302e-06 1.1344767e-38
-0.014527321 -0.12769531 6.1616302e-06 1.6691747e-38
-0.012724729 -0.12769531 6.1616302e-06 2.2775202e-38
-0.010967232 -0.12688623 0.003032051 2.2958873e-38
-0.0092200525 -0.12608187 0.0060402974 1.9085583e-38
-0.0074280412 -0.12608187 0.0060402974 2.0006819e-38
0.0205481 -0.12207626 0.02102109 1.9915349e-38
0.022169026 -0.12127317 0.024024568 1.9823151e-38
0.023780311 -0.12047486 0.027010284 2.0745107e-38
0.025535556 -0.12047486 0.027010284 2.231243e-38
0.027450467 -0.12127317 0.024024568 2.2773408e-38
0.029210946 -0.12127317 0.024024568 2.3234379e-38
0.030971428 -0.12127317 0.024024568 2.2958155e-38
-0.052044623 -0.14616071 -0.061905898 1.696723e-38
-0.050002713 -0.14455487 -0.055939354 1.8444168e-38
-0.047962166 -0.14268802 -0.049002923 1.7616932e-38
-0.045999907 -0.14161004 -0.04499761 1.4484814e-38
-0.044067282 -0.14078392 -0.04192809 1.0153079e-38
-0.042147357 -0.13999285 -0.038988747 4.8986662e-39
-0.040276397 -0.13999285 -0.038988747 3.8841765e-39
-0.038359351 -0.13890465 -0.034945406 3.1459066e-39
-0.036466427 -0.13809387 -0.031932987 2.6838593e-39
-0.034584202 -0.13728772 -0.028937615 3.4196279e-39
-0.032712582 -0.13648613 -0.025959171 4.4319763e-39
-0.030864464 -0.13648613 -0.025959171 6.4591928e-39
-0.029005682 -0.13539489 -0.021904625 9.3158098e-39
-0.027162097 -0.13460387 -0.01896552 1.0513977e-38
-0.025328899 -0.13378824 -0.015934981 1.5122292e-38
-0.02350628 -0.13297729 -0.012921847 2.203693e-38
-0.021694152 -0.13217102 -0.009926118 2.2591531e-38
-0.019898277 -0.13111271 -0.0059938803 2.1854694e-38
-0.018132504 -0.1294979 6.1616302e-06 1.6969074e-38
-0.016329912 -0.1294979 6.1616302e-06 1.3742577e-38
-0.014527321 -0.1294979 6.1616302e-06 1.8536379e-38
-0.012764519 -0.12868352 0.003032051 2.2775202e-38
-0.011012064 -0.12787388 0.0060402974 2.2405344e-38
-0.0092200525 -0.12787388 0.0060402974 1.9638757e-38
-0.0074280412 -0.12787388 0.0060402974 2.0374529e-38
0.0205481 -0.12384202 0.02102109 2.0560363e-38
0.022169026 -0.12303366 0.024024568 1.926998e-38
0.023780311 -0.1222301 0.027010284 1.9546567e-38
0.025535556 -0.1222301 0.027010284 2.1298281e-38
0.027290801 -0.1222301 0.027010284 2.2035846e-38
0.029210946 -0.12303366 0.024024568 2.3142185e-38
0.030971428 -0.12303366 0.024024568 2.3142544e-38
-0.052044623 -0.14807184 -0.061905898 1.7704798e-38
-0.050002713 -0.14645557 -0.055939354 1.8905862e-38
-0.047962166 -0.14457656 -0.049002923 1.7801321e-38
-0.045999907 -0.14349155 -0.04499761 1.5406769e-38
-0.044067282 -0.14266007 -0.04192809 1.1443815e-38
-0.042147357 -0.14186381 -0.038988747 4.7146379e-39
-0.040276397 -0.14186381 -0.038988747 5.1756384e-39
-0.038359351 -0.14076851 -0.034945406 4.5299299e-39
-0.036466427 -0.13995247 -0.031932987 3.7912999e-39
-0.034584202 -0.13914107 -0.028937615 2.7757144e-39
-0.032712582 -0.13833423 -0.025959171 2.1292632e-39
-0.030864464 -0.13833423 -0.025959171 1.3906136e-39
-0.029005682 -0.13723589 -0.021904625 2.7728193e-39
-0.027162097 -0.13643973 -0.01896552 5.4450381e-39
-0.02533154 -0.13480256 -0.012921847 9.5012604e-39
-0.023514159 -0.13399105 -0.009926118 1.7614462e-38
-0.021711389 -0.13292582 -0.0059938803 1.9274332e-38
-0.019898277 -0.13292582 -0.0059938803 1.6231888e-38
-0.018132504 -0.13130049 6.1616302e-06 1.1530264e-38
-0.016329912 -0.13130049 6.1616302e-06 1.7430771e-38
-0.014527321 -0.13130049 6.1616302e-06 2.1395517e-38
-0.012764519 -0.13048081 0.003032051 2.2775202e-38
-0.011012064 -0.1296659 0.0060402974 2.1575582e-38
-0.0092200525 -0.1296659 0.0060402974 1.9269974e-38
-0.0074280412 -0.1296659 0.0060402974 1.9821358e-38
-0.0056360275 -0.1296659 0.0060402974 2.0190508e-38
0.020408547 -0.12479414 0.024024568 2.1759625e-38
0.022169026 -0.12479414 0.024024568 1.9546927e-38
0.023780311 -0.12398534 0.027010284 1.9085949e-38
0.025535556 -0.12398534 0.027010284 2.0745826e-38
0.027290801 -0.12398534 0.027010284 2.1391195e-38
0.028876679 -0.12315463 0.030076884 2.2128757e-38
0.030626545 -0.12315463 0.030076884 2.3142544e-38
-0.053804081 -0.14835624 -0.055939354 1.8440565e-38
-0.051903393 -0.14835624 -0.055939354 1.8811145e-38
-0.050002713 -0.14835624 -0.055939354 1.8721108e-38
-0.047962166 -0.14646508 -0.049002923 1.6971197e-38
-0.045999907 -0.14537306 -0.04499761 1.6328716e-38
-0.044067282 -0.14453618 -0.04192809 1.3840537e-38
-0.042147357 -0.14373477 -0.038988747 6.5581861e-39
-0.040276397 -0.14373477 -0.038988747 4.9912444e-39
-0.038359351 -0.14263238 -0.034945406 3.9767561e-39
-0.036466427 -0.14181106 -0.031932987 3.0540964e-39
-0.034584202 -0.14099441 -0.028937615 9.3324656e-40
-0.032712582 -0.14018236 -0.025959171 1.3927856e-39
-0.030864464 -0.14018236 -0.025959171 1.0168102e-40
-0.028997952 -0.13827558 -0.01896552 1.0131668e-40
-0.027159439 -0.13744931 -0.015934981 2.221442e-39
-0.02533154 -0.13662781 -0.012921847 2.2207021e-39
-0.023514159 -0.13581105 -0.009926118 5.8159618e-39
-0.021711389 -0.13473894 -0.0059938803 6.3691383e-39
-0.019935098 -0.13310309 6.1616302e-06 4.986557e-39
-0.018132504 -0.13310309 6.1616302e-06 4.8021531e-39
-0.016329912 -0.13310309 6.1616302e-06 1.7340019e-38
-0.014561806 -0.1322781 0.003032051 2.1856847e-38
-0.012764519 -0.1322781 0.003032051 2.2499695e-38
-0.011012064 -0.13145791 0.0060402974 2.130043e-38
-0.0092200525 -0.13145791 0.0060402974 1.8532766e-38
-0.0074280412 -0.13145791 0.0060402974 1.9083795e-38
-0.0056360275 -0.13145791 0.0060402974 2.0282704e-38
0.020408547 -0.12655462 0.024024568 2.1851822e-38
0.022025065 -0.12574057 0.027010284 1.9546929e-38
0.023780311 -0.12574057 0.027010284 1.8624973e-38
0.025535556 -0.12574057 0.027010284 1.9639122e-38
0.02712681 -0.1249045 0.030076884 1.927034e-38
0.028713761 -0.12410025 0.033026658 1.91785e-38
0.030458456 -0.12410025 0.033026658 2.12068e-38
0.043204941 -0.11945029 0.050081812 2.3048189e-38
0.044919729 -0.11945029 0.050081812 2.3509886e-38
0.046634525 -0.11945029 0.050081812 2.3049273e-38
0.048349321 -0.11945029 0.050081812 2.2865602e-38
0.050064109 -0.11945029 0.050081812 2.2958873e-38
-0.051739212 -0.14835359 -0.049002923 2.0008607e-38
-0.049850691 -0.14835359 -0.049002923 2.0379187e-38
-0.046073645 -0.14835359 -0.049002923 1.6788248e-38
-0.044067282 -0.1464123 -0.04192809 1.4669206e-38
-0.042191166 -0.1464123 -0.04192809 8.6772325e-39
-0.040276397 -0.14560573 -0.038988747 7.2028521e-39
-0.038359351 -0.14449625 -0.034945406 5.8206589e-39
-0.036466427 -0.14366965 -0.031932987 5.1742315e-39
-0.034584202 -0.14284773 -0.028937615 1.5789691e-39
-0.032712582 -0.14203046 -0.025959171 2.3165341e-39
-0.030864464 -0.14203046 -0.025959171 1.394575e-39
-0.028997952 -0.14011143 -0.01896552 9.3323255e-40
-0.027156798 -0.13845308 -0.012921847 2.0399304e-39
-0.02533154 -0.13845308 -0.012921847 1.3934736e-39
-0.023514159 -0.13763104 -0.009926118 2.2225126e-39
-0.021711389 -0.13655205 -0.0059938803 3.2366645e-39
-0.019935098 -0.13490568 6.1616302e-06 2.9597091e-39
-0.018132504 -0.13490568 6.1616302e-06 5.4493316e-39
-0.016329912 -0.13490568 6.1616302e-06 1.8171584e-38
-0.014561806 -0.13407536 0.003032051 2.2132353e-38
-0.012764519 -0.13407536 0.003032051 2.2499695e-38
-0.010967232 -0.13407536 0.003032051 2.1853598e-38
-0.0092200525 -0.13324992 0.0060402974 1.945472e-38
-0.0074280412 -0.13324992 0.0060402974 2.000575e-38
-0.0056360275 -0.13324992 0.0060402974 2.1020269e-38
0.015127109 -0.12831511 0.024024568 2.0193742e-38
0.016887588 -0.12831511 0.024024568 2.0654002e-38
0.018514575 -0.12749584 0.027010284 2.1391564e-38
0.02026982 -0.12749584 0.027010284 2.203693e-38
0.022025065 -0.12749584 0.027010284 2.0101182e-38
0.023780311 -0.12749584 0.027010284 1.908703e-38
0.02537694 -0.12665437 0.030076884 1.9640201e-38
0.02712681 -0.12665437 0.030076884 1.8809362e-38
0.028713761 -0.12584494 0.033026658 1.8164348e-38
0.030458456 -0.12584494 0.033026658 1.8626401e-38
0.038060561 -0.12116508 0.050081812 2.3509886e-38
0.039775357 -0.12116508 0.050081812 2.3509527e-38
0.041490145 -0.12116508 0.050081812 2.3509527e-38
0.043204941 -0.12116508 0.050081812 2.3416974e-38
0.044919729 -0.12116508 0.050081812 2.3509527e-38
0.046634525 -0.12116508 0.050081812 2.3048556e-38
0.048126072 -0.12036191 0.053008877 2.341805e-38
0.049835734 -0.12036191 0.053008877 2.2496824e-38
0.051545389 -0.12036191 0.053008877 2.3142544e-38
0.053255051 -0.12036191 0.053008877 2.2958873e-38
0.054964714 -0.12036191 0.053008877 2.1948682e-38
0.056674376 -0.12036191 0.053008877 2.1305834e-38
0.058384035 -0.12036191 0.053008877 1.57788e-38
0.060352866 -0.12116508 0.050081812 6.4655995e-39
0.062067661 -0.12116508 0.050081812 7.6627008e-39
0.063782461 -0.12116508 0.050081812 5.1716153e-39
-0.045943398 -0.14828841 -0.04192809 1.807718e-38
-0.044067282 -0.14828841 -0.04192809 1.522057e-38
-0.042191166 -0.14828841 -0.04192809 1.0888837e-38
-0.040276397 -0.14747669 -0.038988747 8.7690848e-39
-0.038359351 -0.14636014 -0.034945406 6.6493294e-39
-0.036466427 -0.14552824 -0.031932987 6.465678e-39
-0.034584202 -0.14470108 -0.028937615 1.9481033e-39
-0.032712582 -0.14387859 -0.025959171 1.8566308e-39
-0.030846691 -0.14275892 -0.021904625 1.2116173e-39
-0.028997952 -0.14194728 -0.01896552 1.2116117e-39
-0.027156798 -0.14027832 -0.012921847 2.1339239e-39
-0.02533154 -0.14027832 -0.012921847 2.871133e-39
-0.023514159 -0.13945107 -0.009926118 2.9626084e-39
-0.021711389 -0.13836516 -0.0059938803 3.4232306e-39
-0.019898277 -0.13836516 -0.0059938803 2.6856516e-39
-0.018132504 -0.13670824 6.1616302e-06 6.6496811e-39
-0.016329912 -0.13670824 6.1616302e-06 1.8265218e-38
-0.014561806 -0.13587265 0.003032051 2.1856847e-38
-0.012764519 -0.13587265 0.003032051 2.0934166e-38
-0.010967232 -0.13587265 0.003032051 2.2130541e-38
-0.0092200525 -0.13504194 0.0060402974 2.1022399e-38
-0.0074830973 -0.13421609 0.0090309009 2.1573789e-38
-0.0057562762 -0.13339506 0.012003981 2.1481241e-38
-0.0041083363 -0.1317115 0.018100582 2.1943301e-38
-0.0024065995 -0.13090499 0.02102109 2.2958873e-38
-0.00064085284 -0.13090499 0.02102109 2.2407848e-38
0.00297513 -0.1317115 0.018100582 1.9549438e-38
0.0047459952 -0.1317115 0.018100582 2.0102617e-38
0.013485117 -0.13090499 0.02102109 2.1576677e-38
0.015127109 -0.13007559 0.024024568 1.9732764e-38
0.01675933 -0.12925108 0.027010284 1.9916436e-38
0.01837747 -0.12840421 0.030076884 2.046961e-38
0.020127336 -0.12840421 0.030076884 2.1391567e-38
0.021877205 -0.12840421 0.030076884 2.0377412e-38
0.023627074 -0.12840421 0.030076884 2.0101182e-38
0.02537694 -0.12840421 0.030076884 2.0838747e-38
0.02712681 -0.12840421 0.030076884 2.0284492e-38
0.028380094 -0.12592132 0.039068066 1.9916785e-38
0.030114198 -0.12592132 0.039068066 1.8903344e-38
0.0318483 -0.12592132 0.039068066 2.0009689e-38
0.033279307 -0.12453763 0.04407873 2.1852522e-38
0.034820195 -0.12371938 0.047041796 2.3050707e-38
0.036540322 -0.12371938 0.047041796 2.3234379e-38
0.038060561 -0.12287988 0.050081812 2.3325856e-38
0.039775357 -0.12287988 0.050081812 2.3509886e-38
0.041490145 -0.12287988 0.050081812 2.3509527e-38
0.043204941 -0.12287988 0.050081812 2.3509527e-38
0.044919729 -0.12287988 0.050081812 2.2863803e-38
0.046634525 -0.12287988 0.050081812 2.3509527e-38
0.048126072 -0.12207155 0.053008877 2.2864164e-38
0.049835734 -0.12207155 0.053008877 2.341805e-38
0.051545389 -0.12207155 0.053008877 2.2588296e-38
0.053255051 -0.12207155 0.053008877 2.3234379e-38
0.054964714 -0.12207155 0.053008877 2.2591531e-38
0.056674376 -0.12207155 0.053008877 2.0479314e-38
0.058384035 -0.12207155 0.053008877 2.0020137e-38
0.060352866 -0.12287988 0.050081812 1.8176608e-38
0.062067661 -0.12287988 0.050081812 1.0062308e-38
0.063782461 -0.12287988 0.050081812 6.0035354e-39
0.065497257 -0.12287988 0.050081812 4.6177198e-39
-0.040276397 -0.14934768 -0.038988747 1.0243481e-38
-0.038359351 -0.14822401 -0.034945406 6.0950626e-39
-0.036466427 -0.14738683 -0.031932987 6.2801965e-39
-0.034584202 -0.14655443 -0.028937615 1.8558965e-39
-0.032712582 -0.1457267 -0.025959171 1.9484537e-39
-0.030846691 -0.14459993 -0.021904625 1.1197706e-39
-0.028997952 -0.14378314 -0.01896552 1.4892664e-39
-0.027156798 -0.1421036 -0.012921847 2.4119443e-39
-0.02533154 -0.1421036 -0.012921847 2.8722148e-39
-0.023514159 -0.14127107 -0.009926118 3.3331986e-39
-0.021711389 -0.14017828 -0.0059938803 2.5952762e-39
-0.019898277 -0.14017828 -0.0059938803 3.3324671e-39
-0.018132504 -0.13851084 6.1616302e-06 7.6649176e-39
-0.016329912 -0.13851084 6.1616302e-06 1.9095683e-38
-0.014561806 -0.13766994 0.003032051 2.1673176e-38
-0.012764519 -0.13766994 0.003032051 2.2224184e-38
-0.010967232 -0.13766994 0.003032051 2.1670278e-38
-0.0092200525 -0.13683395 0.0060402974 2.0561416e-38
-0.0075378311 -0.13517661 0.012003981 2.1205362e-38
-0.0058179242 -0.13432692 0.01506146 2.1481599e-38
-0.0041723442 -0.13267075 0.02102109 2.2219884e-38
-0.002477691 -0.13183604 0.024024568 2.2958873e-38
-0.00071721198 -0.13183604 0.024024568 2.2683352e-38
0.0010432689 -0.13183604 0.024024568 2.1856464e-38
0.002803748 -0.13183604 0.024024568 1.9918578e-38
0.0045642289 -0.13183604 0.024024568 2.0194457e-38
0.0064221299 -0.13267075 0.02102109 2.0839826e-38
0.0083916355 -0.13432692 0.01506146 1.9272501e-38
0.013485117 -0.13267075 0.02102109 2.1760706e-38
0.015004085 -0.13100632 0.027010284 2.0285582e-38
0.0166276 -0.13015409 0.030076884 1.9179234e-38
0.018245583 -0.12933435 0.033026658 1.917959e-38
0.019849503 -0.12849234 0.036056541 2.0193023e-38
0.021588886 -0.12849234 0.036056541 1.9732042e-38
0.023328269 -0.12849234 0.036056541 1.9916791e-38
0.025067652 -0.12849234 0.036056541 2.0654356e-38
0.026807038 -0.12849234 0.036056541 1.9916791e-38
0.028380094 -0.12765543 0.039068066 2.0008981e-38
0.030114198 -0.12765543 0.039068066 1.9640909e-38
0.031729084 -0.12709136 0.041097723 2.0286992e-38
0.033100072 -0.12543948 0.047041796 2.1761406e-38
0.034630977 -0.12459467 0.050081812 2.3142544e-38
0.036345765 -0.12459467 0.050081812 2.3142544e-38
0.038060561 -0.12459467 0.050081812 2.3050349e-38
0.039775357 -0.12459467 0.050081812 2.3233662e-38
0.041490145 -0.12459467 0.050081812 2.3509527e-38
0.043204941 -0.12459467 0.050081812 2.3509527e-38
0.044706747 -0.12378122 0.053008877 2.314075e-38
0.046416409 -0.12378122 0.053008877 2.2863446e-38
0.048349321 -0.12459467 0.050081812 2.3509168e-38
0.050064109 -0.12459467 0.050081812 2.3509527e-38
0.051545389 -0.12378122 0.053008877 2.3509527e-38
0.053255051 -0.12378122 0.053008877 2.3509527e-38
0.054964714 -0.12378122 0.053008877 2.2591531e-38
0.056674376 -0.12378122 0.053008877 2.0938492e-38
0.058384035 -0.12378122 0.053008877 1.9560959e-38
0.060352866 -0.12459467 0.050081812 1.9652795e-38
0.062067661 -0.12459467 0.050081812 1.3198041e-38
0.063782461 -0.12459467 0.050081812 7.1113249e-39
0.065497257 -0.12459467 0.050081812 7.4775822e-39
-0.036466427 -0.14924543 -0.031932987 5.449696e-39
-0.034584202 -0.14840777 -0.028937615 1.8548007e-39
-0.032712582 -0.14757483 -0.025959171 2.317225e-39
-0.030846691 -0.14644094 -0.021904625 1.304515e-39
-0.028997952 -0.14561899 -0.01896552 1.6740136e-39
-0.027156798 -0.14392884 -0.012921847 2.2271972e-39
-0.02533154 -0.14392884 -0.012921847 3.0576879e-39
-0.023514159 -0.14309107 -0.009926118 4.8090531e-39
-0.021694152 -0.14309107 -0.009926118 4.0696902e-39
-0.019898277 -0.14199139 -0.0059938803 6.0972598e-39
-0.018132504 -0.14031343 6.1616302e-06 8.2166551e-39
-0.016329912 -0.14031343 6.1616302e-06 1.7526582e-38
-0.014561806 -0.13946722 0.003032051 2.158134e-38
-0.012764519 -0.13946722 0.003032051 2.2499692e-38
-0.011012064 -0.13862596 0.0060402974 2.1208937e-38
-0.0092200525 -0.13862596 0.0060402974 1.8808976e-38
-0.0075378311 -0.13695817 0.012003981 1.954512e-38
-0.0058792033 -0.13525321 0.018100582 2.13894e-38
-0.0041723442 -0.13443647 0.02102109 2.2404631e-38
-0.002477691 -0.13359652 0.024024568 2.2590813e-38
-0.00071721198 -0.13359652 0.024024568 2.2131256e-38
0.0010432689 -0.13359652 0.024024568 2.2775192e-38
0.002803748 -0.13359652 0.024024568 2.1116403e-38
0.0045642289 -0.13359652 0.024024568 2.0839109e-38
0.0064221299 -0.13443647 0.02102109 2.1300444e-38
0.0083916355 -0.13610314 0.01506146 1.9825314e-38
0.010167832 -0.13610314 0.01506146 1.9640566e-38
0.015004085 -0.13276155 0.027010284 2.1115696e-38
0.016500888 -0.13107903 0.033026658 2.1207891e-38
0.018110117 -0.13023172 0.036056541 2.0746913e-38
0.019849503 -0.13023172 0.036056541 2.1484117e-38
0.021588886 -0.13023172 0.036056541 2.1115334e-38
0.023328269 -0.13023172 0.036056541 2.093094e-38
0.025067652 -0.13023172 0.036056541 2.0747268e-38
0.02664599 -0.12938951 0.039068066 1.9548006e-38
0.028380094 -0.12938951 0.039068066 1.9456526e-38
0.029998543 -0.12882192 0.041097723 1.8350534e-38
0.031553991 -0.12798826 0.04407873 1.9272489e-38
0.033100072 -0.12715961 0.047041796 2.1115683e-38
0.034630977 -0.12630944 0.050081812 2.2683007e-38
0.036345765 -0.12630944 0.050081812 2.3234379e-38
0.038060561 -0.12630944 0.050081812 2.3142544e-38
0.039775357 -0.12630944 0.050081812 2.3232944e-38
0.041490145 -0.12630944 0.050081812 2.3509527e-38
0.043204941 -0.12630944 0.050081812 2.3232944e-38
0.044706747 -0.12549089 0.053008877 2.341805e-38
0.046416409 -0.12549089 0.053008877 2.2957079e-38
0.048349321 -0.12630944 0.050081812 2.3234379e-38
0.049835734 -0.12549089 0.053008877 2.286632e-38
0.051545389 -0.12549089 0.053008877 2.2498619e-38
0.053255051 -0.12549089 0.053008877 2.2499336e-38
0.054964714 -0.12549089 0.053008877 2.0290608e-38
0.056674376 -0.12549089 0.053008877 1.9192541e-38
0.058384035 -0.12549089 0.053008877 1.7904692e-38
0.060352866 -0.12630944 0.050081812 1.9469124e-38
0.062067661 -0.12630944 0.050081812 1.8269881e-38
0.063782461 -0.12630944 0.050081812 1.3564663e-38
-0.032712582 -0.14942293 -0.025959171 2.3161348e-39
-0.030846691 -0.14828195 -0.021904625 1.6722157e-39
-0.028997952 -0.14745484 -0.01896552 2.5956195e-39
-0.027156798 -0.14575411 -0.012921847 2.4112367e-39
-0.02533154 -0.14575411 -0.012921847 2.8715016e-39
-0.02350628 -0.14575411 -0.012921847 3.9771317e-39
-0.021694152 -0.14491107 -0.009926118 3.6991056e-39
-0.019874146 -0.14491107 -0.009926118 4.8036413e-39
-0.018132504 -0.14211603 6.1616302e-06 9.1346527e-39
-0.016329912 -0.14211603 6.1616302e-06 1.8352387e-38
-0.01459609 -0.14041798 0.0060402974 2.2315665e-38
-0.012804078 -0.14041798 0.0060402974 2.2222387e-38
-0.011012064 -0.14041798 0.0060402974 2.2035826e-38
-0.0092698652 -0.13957639 0.0090309009 1.8439478e-38
-0.0075378311 -0.13873972 0.012003981 1.7608652e-38
-0.0058792033 -0.13702409 0.018100582 2.0743312e-38
-0.0041723442 -0.13620223 0.02102109 2.2403555e-38
-0.002477691 -0.13535701 0.024024568 2.2405347e-38
-0.00071721198 -0.13535701 0.024024568 2.2958873e-38
0.0010432689 -0.13535701 0.024024568 2.2958873e-38
0.002803748 -0.13535701 0.024024568 2.1114255e-38
0.0045642289 -0.13535701 0.024024568 2.2035495e-38
0.0064221299 -0.13620223 0.02102109 2.1851103e-38
0.0083916355 -0.13787933 0.01506146 2.0744754e-38
0.010167832 -0.13787933 0.01506146 2.074547e-38
0.015004085 -0.13451682 0.027010284 2.1576663e-38
0.016500888 -0.13282375 0.033026658 2.1300076e-38
0.018110117 -0.13197111 0.036056541 2.1484466e-38
0.019709578 -0.13112362 0.039068066 2.1669577e-38
0.021443682 -0.13112362 0.039068066 2.1577382e-38
0.023177782 -0.13112362 0.039068066 2.0655424e-38
0.024911886 -0.13112362 0.039068066 1.9273208e-38
0.02664599 -0.13112362 0.039068066 1.8627121e-38
0.028267996 -0.13055246 0.041097723 1.8535289e-38
0.029998543 -0.13055246 0.041097723 1.7060886e-38
0.031553991 -0.12971358 0.04407873 1.853494e-38
0.033100072 -0.12887974 0.047041796 2.0839466e-38
0.034820195 -0.12887974 0.047041796 2.3050708e-38
0.036540322 -0.12887974 0.047041796 2.341805e-38
0.038060561 -0.12802424 0.050081812 2.3325497e-38
0.039775357 -0.12802424 0.050081812 2.3416251e-38
0.04128743 -0.12720053 0.053008877 2.3509883e-38
0.042997085 -0.12720053 0.053008877 2.3509883e-38
0.044706747 -0.12720053 0.053008877 2.3234379e-38
0.046416409 -0.12720053 0.053008877 2.2867037e-38
0.048349321 -0.12802424 0.050081812 2.2499695e-38
0.049835734 -0.12720053 0.053008877 2.1948682e-38
0.051545389 -0.12720053 0.053008877 2.1213998e-38
0.053255051 -0.12720053 0.053008877 2.0295643e-38
0.054964714 -0.12720053 0.053008877 1.9375853e-38
0.056674376 -0.12720053 0.053008877 1.9285453e-38
0.058384035 -0.12720053 0.053008877 1.7812128e-38
0.060352866 -0.12802424 0.050081812 1.9193617e-38
0.062067661 -0.12802424 0.050081812 1.8821971e-38
0.063782461 -0.12802424 0.050081812 1.7251775e-38
-0.028997952 -0.14929073 -0.01896552 2.9000993e-40
-0.027156798 -0.14757936 -0.012921847 6.5915678e-40
-0.02533154 -0.14757936 -0.012921847 1.7647883e-39
-0.02350628 -0.14757936 -0.012921847 2.2243273e-39
-0.021694152 -0.14673109 -0.009926118 2.9593756e-39
-0.019874146 -0.14673109 -0.009926118 5.3546515e-39
-0.018132504 -0.14391862 6.1616302e-06 1.0607982e-38
-0.016329912 -0.14391862 6.1616302e-06 1.8812285e-38
-0.01459609 -0.14220999 0.0060402974 2.1760706e-38
-0.012804078 -0.14220999 0.0060402974 2.3234379e-38
-0.011012064 -0.14220999 0.0060402974 2.3418042e-38
-0.0092698652 -0.14136316 0.0090309009 1.8991933e-38
-0.0075378311 -0.14052127 0.012003981 1.723987e-38
-0.0058792033 -0.13879494 0.018100582 2.0190494e-38
-0.0041723442 -0.13796796 0.02102109 2.2495749e-38
-0.002477691 -0.13711749 0.024024568 2.3049991e-38
-0.0007931185 -0.13627206 0.027010284 2.3142544e-38
0.00096212653 -0.13627206 0.027010284 2.268193e-38
0.002803748 -0.13711749 0.024024568 2.2681214e-38
0.0045642289 -0.13711749 0.024024568 2.3417333e-38
0.0064221299 -0.13796796 0.02102109 2.3141109e-38
0.016370734 -0.13371049 0.036056541 2.2406778e-38
0.017975474 -0.13285773 0.039068066 2.2498973e-38
0.019709578 -0.13285773 0.039068066 2.2683365e-38
0.021443682 -0.13285773 0.039068066 2.222275e-38
0.023177782 -0.13285773 0.039068066 2.1116402e-38
0.024911886 -0.13285773 0.039068066 1.94576e-38
0.02664599 -0.13285773 0.039068066 1.8535286e-38
0.028267996 -0.13228302 0.041097723 1.8075034e-38
0.029998543 -0.13228302 0.041097723 1.7245643e-38
0.031553991 -0.1314389 0.04407873 1.8536026e-38
0.033100072 -0.13059987 0.047041796 2.1024222e-38
0.034820195 -0.13059987 0.047041796 2.2867037e-38
0.036345765 -0.12973903 0.050081812 2.3234379e-38
0.038060561 -0.12973903 0.050081812 2.3325497e-38
0.039775357 -0.12973903 0.050081812 2.3417327e-38
0.04128743 -0.1289102 0.053008877 2.350988e-38
0.042997085 -0.1289102 0.053008877 2.332621e-38
0.044706747 -0.1289102 0.053008877 2.2867033e-38
0.046416409 -0.1289102 0.053008877 2.240786e-38
0.048126072 -0.1289102 0.053008877 2.1673176e-38
0.049835734 -0.1289102 0.053008877 2.0662627e-38
0.051545389 -0.1289102 0.053008877 1.9835748e-38
0.053255051 -0.1289102 0.053008877 1.9376571e-38
0.054964714 -0.1289102 0.053008877 1.9101782e-38
0.056674376 -0.1289102 0.053008877 1.9193617e-38
0.058384035 -0.1289102 0.053008877 1.8180544e-38
0.060352866 -0.12973903 0.050081812 1.91929e-38
0.062067661 -0.12973903 0.050081812 1.8913447e-38
0.063782461 -0.12973903 0.050081812 1.8541436e-38
-0.02350628 -0.14940463 -0.012921847 7.4846994e-40
-0.02168102 -0.14940463 -0.012921847 1.7604639e-39
-0.019874146 -0.14855109 -0.009926118 3.9713513e-39
-0.018132504 -0.14572121 6.1616302e-06 1.1068234e-38
-0.016329912 -0.14572121 6.1616302e-06 2.0378869e-38
-0.014561806 -0.14485909 0.003032051 2.1392285e-38
-0.012764519 -0.14485909 0.003032051 2.3234379e-38
-0.011012064 -0.14400201 0.0060402974 2.3509876e-38
-0.0092698652 -0.14314993 0.0090309009 1.8900093e-38
-0.0075378311 -0.14230286 0.012003981 1.7332062e-38
-0.0058179242 -0.1414317 0.01506146 2.028269e-38
-0.0041723442 -0.13973372 0.02102109 2.295672e-38
-0.002477691 -0.13887797 0.024024568 2.3234379e-38
-0.0007931185 -0.1380273 0.027010284 2.3234379e-38
0.00096212653 -0.1380273 0.027010284 2.3050347e-38
0.0027173716 -0.1380273 0.027010284 2.341805e-38
0.0045642289 -0.13887797 0.024024568 2.3417691e-38
0.016370734 -0.13544987 0.036056541 2.2866677e-38
0.017975474 -0.13459183 0.039068066 2.2775202e-38
0.019709578 -0.13459183 0.039068066 2.2958873e-38
0.021443682 -0.13459183 0.039068066 2.2774843e-38
0.023177782 -0.13459183 0.039068066 2.1760698e-38
0.024911886 -0.13459183 0.039068066 2.0194094e-38
0.02653745 -0.13401355 0.041097723 1.9179945e-38
0.028267996 -0.13401355 0.041097723 1.8536016e-38
0.029828673 -0.13316421 0.04407873 1.7615862e-38
0.031553991 -0.13316421 0.04407873 1.8722928e-38
0.033100072 -0.13231997 0.047041796 2.0657955e-38
0.034820195 -0.13231997 0.047041796 2.2316024e-38
0.036345765 -0.13145383 0.050081812 2.2867037e-38
0.038060561 -0.13145383 0.050081812 2.3050708e-38
0.039577767 -0.13061987 0.053008877 2.3142542e-38
0.04128743 -0.13061987 0.053008877 2.3234376e-38
0.042997085 -0.13061987 0.053008877 2.3142544e-38
0.044556372 -0.13003103 0.055075549 2.2867037e-38
0.046262406 -0.13003103 0.055075549 2.240786e-38
0.048126072 -0.13061987 0.053008877 2.1304395e-38
0.049835734 -0.13061987 0.053008877 2.0200208e-38
0.051545389 -0.13061987 0.053008877 1.9741033e-38
0.053255051 -0.13061987 0.053008877 1.9926866e-38
0.054964714 -0.13061987 0.053008877 2.0203808e-38
0.056674376 -0.13061987 0.053008877 1.9560959e-38
0.058384035 -0.13061987 0.053008877 1.9100343e-38
0.06009369 -0.13061987 0.053008877 1.9559166e-38
0.062067661 -0.13145383 0.050081812 1.9188595e-38
0.063782461 -0.13145383 0.050081812 2.0016191e-38
0.065497257 -0.13145383 0.050081812 1.0886321e-38
-0.018085165 -0.14924385 -0.0059938803 9.5005415e-39
-0.016329912 -0.14752381 6.1616302e-06 2.0839482e-38
-0.014561806 -0.14665638 0.003032051 2.1299368e-38
-0.012764519 -0.14665638 0.003032051 2.3234376e-38
-0.011056636 -0.1449367 0.0090309009 2.2773025e-38
-0.0092698652 -0.1449367 0.0090309009 1.8715702e-38
-0.0075378311 -0.14408441 0.012003981 1.816182e-38
-0.0058179242 -0.14320792 0.01506146 2.1111729e-38
-0.0041083363 -0.14233668 0.018100582 2.3509168e-38
-0.002477691 -0.14063846 0.024024568 2.3417691e-38
-0.0007931185 -0.13978253 0.027010284 2.3049626e-38
0.00096212653 -0.13978253 0.027010284 2.3418047e-38
0.0027173716 -0.13978253 0.027010284 2.341805e-38
0.016370734 -0.13718925 0.036056541 2.2774125e-38
0.017975474 -0.13632594 0.039068066 2.286632e-38
0.019709578 -0.13632594 0.039068066 2.3050708e-38
0.021443682 -0.13632594 0.039068066 2.2774843e-38
0.023177782 -0.13632594 0.039068066 2.1852899e-38
0.024911886 -0.13632594 0.039068066 2.0469607e-38
0.02653745 -0.13574408 0.041097723 1.9455458e-38
0.028267996 -0.13574408 0.041097723 1.8720051e-38
0.029828673 -0.13488953 0.04407873 1.8446338e-38
0.031553991 -0.13488953 0.04407873 1.8816919e-38
0.033100072 -0.1340401 0.047041796 1.9830709e-38
0.034630977 -0.13316862 0.050081812 2.1027452e-38
0.036345765 -0.13316862 0.050081812 2.2040159e-38
0.038060561 -0.13316862 0.050081812 2.2591531e-38
0.039577767 -0.13232954 0.053008877 2.2775202e-38
0.04128743 -0.13232954 0.053008877 2.2775202e-38
0.042997085 -0.13232954 0.053008877 2.2775202e-38
0.044556372 -0.13173707 0.055075549 2.2591531e-38
0.046262406 -0.13173707 0.055075549 2.2040518e-38
0.048126072 -0.13232954 0.053008877 2.1027808e-38
0.049835734 -0.13232954 0.053008877 2.0199489e-38
0.051380523 -0.13173707 0.055075549 1.9924344e-38
0.053086556 -0.13173707 0.055075549 2.0385684e-38
0.054964714 -0.13232954 0.053008877 2.0662985e-38
0.056674376 -0.13232954 0.053008877 2.0111972e-38
0.058384035 -0.13232954 0.053008877 2.0203808e-38
0.06009369 -0.13232954 0.053008877 2.0295285e-38
0.062067661 -0.13316862 0.050081812 1.9555937e-38
0.063782461 -0.13316862 0.050081812 2.0568639e-38
0.065497257 -0.13316862 0.050081812 1.153097e-38
-0.016329912 -0.1493264 6.1616302e-06 1.7335339e-38
-0.014561806 -0.14845367 0.003032051 1.9271416e-38
-0.012764519 -0.14845367 0.003032051 2.3418043e-38
-0.011056636 -0.14672346 0.0090309009 2.350987e-38
-0.0092698652 -0.14672346 0.0090309009 2.0097554e-38
-0.0075378311 -0.14586596 0.012003981 1.9083056e-38
-0.0058179242 -0.14498411 0.01506146 2.0374164e-38
-0.0041083363 -0.14410757 0.018100582 2.2955644e-38
-0.002477691 -0.14239894 0.024024568 2.3509527e-38
-0.00071721198 -0.14239894 0.024024568 2.2864513e-38
0.0010432689 -0.14239894 0.024024568 2.3418045e-38
0.002803748 -0.14239894 0.024024568 2.3418045e-38
0.016370734 -0.13892864 0.036056541 2.3234379e-38
0.017975474 -0.13806005 0.039068066 2.3234379e-38
0.019709578 -0.13806005 0.039068066 2.3234379e-38
0.021443682 -0.13806005 0.039068066 2.3050349e-38
0.023177782 -0.13806005 0.039068066 2.2128048e-38
0.024911886 -0.13806005 0.039068066 2.0652923e-38
0.02664599 -0.13806005 0.039068066 1.9546578e-38
0.028267996 -0.13747464 0.041097723 1.8719331e-38
0.029828673 -0.13661484 0.04407873 1.8631809e-38
0.031379949 -0.13576023 0.047041796 1.8265542e-38
0.033100072 -0.13576023 0.047041796 1.8264823e-38
0.034630977 -0.13488342 0.050081812 1.9001309e-38
0.036158446 -0.13403918 0.053008877 2.0476076e-38
0.037868105 -0.13403918 0.053008877 2.2040518e-38
0.039577767 -0.13403918 0.053008877 2.2132353e-38
0.041144297 -0.1334431 0.055075549 2.1856847e-38
0.04285033 -0.1334431 0.055075549 2.2224189e-38
0.044556372 -0.1334431 0.055075549 2.1856847e-38
0.046262406 -0.1334431 0.055075549 2.1396234e-38
0.047968447 -0.1334431 0.055075549 2.0935975e-38
0.049674481 -0.1334431 0.055075549 2.0751587e-38
0.051380523 -0.1334431 0.055075549 2.066047e-38
0.053086556 -0.1334431 0.055075549 2.0844861e-38
0.054964714 -0.13403918 0.053008877 2.0661909e-38
0.056674376 -0.13403918 0.053008877 2.0479314e-38
0.058384035 -0.13403918 0.053008877 2.0938492e-38
0.060352866 -0.13488342 0.050081812 2.1122163e-38
0.062067661 -0.13488342 0.050081812 1.9463025e-38
0.063782461 -0.13488342 0.050081812 2.0106591e-38
0.06578242 -0.13576023 0.047041796 1.106927e-38
0.067502536 -0.13576023 0.047041796 6.4584025e-39
-0.011056636 -0.14851023 0.0090309009 2.3509869e-38
-0.0092698652 -0.14851023 0.0090309009 2.2310605e-38
-0.0075378311 -0.14764751 0.012003981 2.000501e-38
-0.0057562762 -0.14764751 0.012003981 1.8068551e-38
-0.00404173 -0.1467603 0.01506146 2.0649674e-38
-0.002477691 -0.14415942 0.024024568 2.3509168e-38
-0.00071721198 -0.14415942 0.024024568 2.314074e-38
0.016370734 -0.14066802 0.036056541 2.3234379e-38
0.017975474 -0.13979416 0.039068066 2.3234379e-38
0.019709578 -0.13979416 0.039068066 2.3234379e-38
0.021443682 -0.13979416 0.039068066 2.323402e-38
0.023177782 -0.13979416 0.039068066 2.2680855e-38
0.024911886 -0.13979416 0.039068066 2.1482683e-38
0.02664599 -0.13979416 0.039068066 2.0652206e-38
0.028380094 -0.13979416 0.039068066 1.9825679e-38
0.029828673 -0.13834016 0.04407873 1.8632166e-38
0.031379949 -0.13748036 0.047041796 1.7712728e-38
0.032916181 -0.13659821 0.050081812 1.6790772e-38
0.034630977 -0.13659821 0.050081812 1.6606382e-38
0.036158446 -0.13574885 0.053008877 1.8265184e-38
0.037868105 -0.13574885 0.053008877 2.0294208e-38
0.039577767 -0.13574885 0.053008877 2.1030327e-38
0.041144297 -0.13514914 0.055075549 2.0477879e-38
0.04285033 -0.13514914 0.055075549 2.1030327e-38
0.044556372 -0.13514914 0.055075549 2.0938133e-38
0.046262406 -0.13514914 0.055075549 2.0845939e-38
0.047968447 -0.13514914 0.055075549 2.102961e-38
0.049674481 -0.13514914 0.055075549 2.1213998e-38
0.051380523 -0.13514914 0.055075549 2.1397669e-38
0.053086556 -0.13514914 0.055075549 2.1305834e-38
0.05479259 -0.13514914 0.055075549 2.0846297e-38
0.056674376 -0.13574885 0.053008877 2.038712e-38
0.058384035 -0.13574885 0.053008877 2.0754821e-38
0.060352866 -0.13659821 0.050081812 2.1030327e-38
0.062067661 -0.13659821 0.050081812 1.9093883e-38
0.06406229 -0.13748036 0.047041796 1.8907694e-38
0.06578242 -0.13748036 0.047041796 1.0332061e-38
0.067502536 -0.13748036 0.047041796 6.5505953e-39
-0.0057562762 -0.14942907 0.012003981 1.5302682e-38
-0.00404173 -0.14853649 0.01506146 1.7054045e-38
-0.0022655339 -0.14853649 0.01506146 2.3509168e-38
0.016370734 -0.1424074 0.036056541 2.3233662e-38
0.018110117 -0.1424074 0.036056541 2.3141467e-38
0.019849503 -0.1424074 0.036056541 2.3233303e-38
0.021443682 -0.14152823 0.039068066 2.3417691e-38
0.023177782 -0.14152823 0.039068066 2.3325497e-38
0.024911886 -0.14152823 0.039068066 2.2404272e-38
0.02664599 -0.14152823 0.039068066 2.2034415e-38
0.028380094 -0.14152823 0.039068066 2.1300087e-38
0.029828673 -0.14006548 0.04407873 1.9000949e-38
0.031379949 -0.13920046 0.047041796 1.7897119e-38
0.032916181 -0.13831301 0.050081812 1.6329798e-38
0.034630977 -0.13831301 0.050081812 1.4855391e-38
0.036158446 -0.13745852 0.053008877 1.5593319e-38
0.037868105 -0.13745852 0.053008877 1.7530507e-38
0.039577767 -0.13745852 0.053008877 1.8545022e-38
0.041144297 -0.13685517 0.055075549 1.8360634e-38
0.04285033 -0.13685517 0.055075549 1.9282583e-38
0.044556372 -0.13685517 0.055075549 1.9559166e-38
0.046262406 -0.13685517 0.055075549 2.020309e-38
0.047968447 -0.13685517 0.055075549 2.057115e-38
0.049674481 -0.13685517 0.055075549 2.0938492e-38
0.051380523 -0.13685517 0.055075549 2.0938492e-38
0.053086556 -0.13685517 0.055075549 2.1030327e-38
0.05479259 -0.13685517 0.055075549 2.0846656e-38
0.056674376 -0.13745852 0.053008877 2.0019061e-38
0.058384035 -0.13745852 0.053008877 1.9558807e-38
0.060352866 -0.13831301 0.050081812 2.0110179e-38
0.062067661 -0.13831301 0.050081812 1.8264838e-38
0.06406229 -0.13920046 0.047041796 1.7617671e-38
0.06578242 -0.13920046 0.047041796 9.9639916e-39
0.067502536 -0.13920046 0.047041796 7.1959633e-39
0.018110117 -0.14414679 0.036056541 2.341805e-38
0.019849503 -0.14414679 0.036056541 2.341805e-38
0.021443682 -0.14326234 0.039068066 2.341805e-38
0.023177782 -0.14326234 0.039068066 2.341805e-38
0.024911886 -0.14326234 0.039068066 2.2680136e-38
0.031379949 -0.14092059 0.047041796 1.8633251e-38
0.033100072 -0.14092059 0.047041796 1.6421637e-38
0.034630977 -0.14002781 0.050081812 1.393308e-38
0.036158446 -0.13916816 0.053008877 1.3657935e-38
0.037868105 -0.13916816 0.053008877 1.5410736e-38
0.039577767 -0.13916816 0.053008877 1.6518527e-38
0.041144297 -0.13856123 0.055075549 1.6335215e-38
0.04285033 -0.13856123 0.055075549 1.7257171e-38
0.044556372 -0.13856123 0.055075549 1.7902539e-38
0.046262406 -0.13856123 0.055075549 1.8915958e-38
0.047968447 -0.13856123 0.055075549 1.9467689e-38
0.049674481 -0.13856123 0.055075549 1.9559166e-38
0.051380523 -0.13856123 0.055075549 1.9558807e-38
0.053086556 -0.13856123 0.055075549 1.9834671e-38
0.054964714 -0.13916816 0.053008877 2.0111255e-38
0.056674376 -0.13916816 0.053008877 1.946733e-38
0.05863807 -0.14002781 0.050081812 1.8637215e-38
0.060352866 -0.14002781 0.050081812 1.9097833e-38
0.062342171 -0.14092059 0.047041796 1.7620183e-38
0.06406229 -0.14092059 0.047041796 1.6789344e-38
0.06578242 -0.14092059 0.047041796 1.0056542e-38
0.067502536 -0.14092059 0.047041796 7.8416858e-39
0.023177782 -0.14499645 0.039068066 2.341805e-38
0.024911886 -0.14499645 0.039068066 2.341805e-38
0.031379949 -0.14264072 0.047041796 2.0751951e-38
0.033100072 -0.14264072 0.047041796 1.8079725e-38
0.034630977 -0.1417426 0.050081812 1.3839811e-38
0.036345765 -0.1417426 0.050081812 1.1813672e-38
0.038060561 -0.1417426 0.050081812 1.2552317e-38
0.039577767 -0.14087783 0.053008877 1.3661189e-38
0.041144297 -0.14026727 0.055075549 1.4676422e-38
0.04285033 -0.14026727 0.055075549 1.4677501e-38
0.044706747 -0.14087783 0.053008877 1.6705802e-38
0.046262406 -0.14026727 0.055075549 1.8456781e-38
0.047968447 -0.14026727 0.055075549 1.7995451e-38
0.049674481 -0.14026727 0.055075549 1.8271675e-38
0.051380523 -0.14026727 0.055075549 1.91929e-38
0.053086556 -0.14026727 0.055075549 1.9007794e-38
0.054964714 -0.14087783 0.053008877 1.9469124e-38
0.056923289 -0.1417426 0.050081812 1.8824123e-38
0.05863807 -0.1417426 0.050081812 1.7993643e-38
0.06062204 -0.14264072 0.047041796 1.9190746e-38
0.062342171 -0.14264072 0.047041796 1.4579523e-38
0.06406229 -0.14264072 0.047041796 1.3193708e-38
0.06578242 -0.14264072 0.047041796 9.6877536e-39
0.067785673 -0.14351611 0.04407873 9.1327792e-39
0.034630977 -0.14345737 0.050081812 1.6512049e-38
0.036345765 -0.14345737 0.050081812 1.3471756e-38
0.038060561 -0.14345737 0.050081812 1.1445254e-38
0.039577767 -0.1425875 0.053008877 1.0433265e-38
0.04128743 -0.1425875 0.053008877 1.0251032e-38
0.04285033 -0.1419733 0.055075549 1.1819437e-38
0.044556372 -0.1419733 0.055075549 1.2741753e-38
0.046262406 -0.1419733 0.055075549 1.5231388e-38
0.047968447 -0.1419733 0.055075549 1.7351525e-38
0.049674481 -0.1419733 0.055075549 1.8549334e-38
0.051380523 -0.1419733 0.055075549 1.8825558e-38
0.053086556 -0.1419733 0.055075549 1.8548256e-38
0.054964714 -0.1425875 0.053008877 1.8640809e-38
0.056923289 -0.14345737 0.050081812 1.9101423e-38
0.05863807 -0.14345737 0.050081812 1.91929e-38
0.06062204 -0.14436086 0.047041796 1.7715613e-38
0.062342171 -0.14436086 0.047041796 8.4024098e-39
0.06406229 -0.14436086 0.047041796 5.9106083e-39
0.066060357 -0.14524142 0.04407873 5.9080873e-39
0.067785673 -0.14524142 0.04407873 7.8416746e-39
0.034630977 -0.14517216 0.050081812 1.9459791e-38
0.036345765 -0.14517216 0.050081812 1.6881553e-38
0.038060561 -0.14517216 0.050081812 1.3840898e-38
0.039577767 -0.14429714 0.053008877 1.0984994e-38
0.041144297 -0.14367934 0.055075549 9.7878932e-39
0.04285033 -0.14367934 0.055075549 1.0342865e-38
0.044556372 -0.14367934 0.055075549 9.6060159e-39
0.046262406 -0.14367934 0.055075549 1.2371882e-38
0.047968447 -0.14367934 0.055075549 1.6520684e-38
0.049674481 -0.14367934 0.055075549 1.8088363e-38
0.051141955 -0.14278536 0.058065973 1.8272391e-38
0.052842744 -0.14278536 0.058065973 1.8271669e-38
0.054964714 -0.14429714 0.053008877 1.76263e-38
0.056923289 -0.14517216 0.050081812 1.7072406e-38
0.05863807 -0.14517216 0.050081812 1.697949e-38
0.060352866 -0.14517216 0.050081812 1.5686946e-38
0.062342171 -0.14608096 0.047041796 7.9410701e-39
0.06406229 -0.14608096 0.047041796 6.3708577e-39
0.06578242 -0.14608096 0.047041796 6.8296765e-39
0.036345765 -0.14688696 0.050081812 2.1764652e-38
0.038060561 -0.14688696 0.050081812 1.7802788e-38
0.039577767 -0.14600681 0.053008877 1.2641991e-38
0.041144297 -0.14538537 0.055075549 9.6013327e-39
0.04285033 -0.14538537 0.055075549 6.4677631e-39
0.044556372 -0.14538537 0.055075549 4.9937092e-39
0.046262406 -0.14538537 0.055075549 7.2986e-39
