# .PCD v0.7 - Point Cloud Data file format
VERSION 0.7
FIELDS x y z rgb
SIZE 4 4 4 4
TYPE F F F F
COUNT 1 1 1 1
WIDTH 926
HEIGHT 1
VIEWPOINT 0 0 0 1 0 0 0
POINTS 926
DATA ascii
-0.022432502 -0.10691623 -0.033600681 2.3417691e-38
-0.020584382 -0.10691623 -0.033600681 2.2958873e-38
-0.018736266 -0.10691623 -0.033600681 2.2499695e-38
-0.016841941 -0.10593875 -0.029546134 2.1211846e-38
-0.015000929 -0.10593875 -0.029546134 2.0383174e-38
-0.01315992 -0.10593875 -0.029546134 2.075231e-38
-0.011318912 -0.10593875 -0.029546134 2.1673176e-38
-0.0094779013 -0.10593875 -0.029546134 2.112001e-38
-0.0076368926 -0.10593875 -0.029546134 1.8444936e-38
-0.0057994379 -0.10691623 -0.033600681 1.58613e-38
-0.039357048 -0.11094652 -0.042586915 1.9824218e-38
-0.037493173 -0.11094652 -0.042586915 2.065326e-38
-0.035629302 -0.11094652 -0.042586915 2.0469588e-38
-0.033765428 -0.11094652 -0.042586915 2.1392623e-38
-0.031901553 -0.11094652 -0.042586915 2.056286e-38
-0.030037679 -0.11094652 -0.042586915 2.0561418e-38
-0.028262421 -0.11192839 -0.046630256 2.1666689e-38
-0.02630993 -0.11094652 -0.042586915 2.2403541e-38
-0.024390597 -0.11021499 -0.039574496 2.3142185e-38
-0.022432502 -0.10876434 -0.033600681 2.2682649e-38
-0.020584382 -0.10876434 -0.033600681 2.1209693e-38
-0.018682949 -0.10777976 -0.029546134 2.010695e-38
-0.016841941 -0.10777976 -0.029546134 1.5407547e-38
-0.015000929 -0.10777976 -0.029546134 1.2459096e-38
-0.01315992 -0.10777976 -0.029546134 1.4671435e-38
-0.011318912 -0.10777976 -0.029546134 1.8818742e-38
-0.0094779013 -0.10777976 -0.029546134 2.0016191e-38
-0.0076368926 -0.10777976 -0.029546134 1.7893571e-38
-0.0057994379 -0.10876434 -0.033600681 1.5862753e-38
-0.0039513214 -0.10876434 -0.033600681 1.6044251e-38
0.023227859 -0.10391603 -0.01363539 1.3647838e-38
0.025040973 -0.10391603 -0.01363539 1.3923335e-38
-0.041220922 -0.11281042 -0.042586915 2.1944721e-38
-0.039357048 -0.11281042 -0.042586915 2.2865958e-38
-0.037493173 -0.11281042 -0.042586915 2.2773039e-38
-0.035542153 -0.11207359 -0.039574496 2.1114238e-38
-0.033683561 -0.11207359 -0.039574496 2.0377389e-38
-0.031901553 -0.11281042 -0.042586915 2.0194433e-38
-0.030037679 -0.11281042 -0.042586915 2.0561418e-38
-0.028173804 -0.11281042 -0.042586915 2.1758888e-38
-0.02630993 -0.11281042 -0.042586915 2.046852e-38
-0.024335451 -0.11134095 -0.036579125 2.0008279e-38
-0.022432502 -0.11061247 -0.033600681 1.8351657e-38
-0.020584382 -0.11061247 -0.033600681 1.4851485e-38
-0.018682949 -0.10962076 -0.029546134 1.1997042e-38
-0.016841941 -0.10962076 -0.029546134 8.3121129e-39
-0.015000929 -0.10962076 -0.029546134 6.7469564e-39
-0.01315992 -0.10962076 -0.029546134 8.5905131e-39
-0.011318912 -0.10962076 -0.029546134 1.0247868e-38
-0.0094779013 -0.10962076 -0.029546134 1.0707039e-38
-0.0076368926 -0.10962076 -0.029546134 1.3285991e-38
-0.0057933079 -0.10890187 -0.026607029 1.7156376e-38
-0.0039574513 -0.10890187 -0.026607029 1.9827856e-38
-0.0021374905 -0.10742365 -0.020563357 2.1302605e-38
-0.00031223055 -0.10742365 -0.020563357 2.240786e-38
0.0014946433 -0.10669093 -0.017567627 2.2591531e-38
0.0033146506 -0.10669093 -0.017567627 2.2775202e-38
0.014051839 -0.10426159 -0.0076353475 2.3234379e-38
0.015854429 -0.10426159 -0.0076353475 2.3142544e-38
0.017657023 -0.10426159 -0.0076353475 2.1483038e-38
0.019459613 -0.10426159 -0.0076353475 1.8533502e-38
0.021414749 -0.10572915 -0.01363539 1.567544e-38
0.023227859 -0.10572915 -0.01363539 1.3739326e-38
0.025040973 -0.10572915 -0.01363539 1.4015178e-38
-0.043084797 -0.11467429 -0.042586915 2.0654705e-38
-0.041220922 -0.11467429 -0.042586915 2.2774481e-38
-0.039357048 -0.11467429 -0.042586915 2.2865958e-38
-0.037493173 -0.11467429 -0.042586915 2.2864516e-38
-0.035542153 -0.11393218 -0.039574496 2.185108e-38
-0.033683561 -0.11393218 -0.039574496 2.0469222e-38
-0.031901553 -0.11467429 -0.042586915 2.0838722e-38
-0.029966377 -0.11393218 -0.039574496 2.1114591e-38
-0.028107785 -0.11393218 -0.039574496 2.1944002e-38
-0.026249189 -0.11393218 -0.039574496 2.083767e-38
-0.024335451 -0.1131943 -0.036579125 1.8534958e-38
-0.022432502 -0.11246057 -0.033600681 1.5864551e-38
-0.020584382 -0.11246057 -0.033600681 1.0428994e-38
-0.018682949 -0.11146177 -0.029546134 9.7883318e-39
-0.016841941 -0.11146177 -0.029546134 7.7640062e-39
-0.015000929 -0.11146177 -0.029546134 7.2122856e-39
-0.01315992 -0.11146177 -0.029546134 8.0409673e-39
-0.011318912 -0.11146177 -0.029546134 8.2231907e-39
-0.0094650192 -0.11073773 -0.026607029 8.8656721e-39
-0.0076291626 -0.11073773 -0.026607029 1.2642445e-38
-0.0057906499 -0.10999118 -0.023576491 1.7158887e-38
-0.0039601093 -0.10999118 -0.023576491 1.9280431e-38
-0.0021453695 -0.10851096 -0.017567627 2.1305834e-38
-0.0003253622 -0.10851096 -0.017567627 2.1489505e-38
0.0014705127 -0.10754226 -0.01363539 2.1122163e-38
0.0032594707 -0.10678811 -0.010573976 2.1305834e-38
0.005038877 -0.10606419 -0.0076353475 2.1673176e-38
0.0068414696 -0.10606419 -0.0076353475 2.2132353e-38
0.0086440612 -0.10606419 -0.0076353475 2.2499695e-38
0.010446654 -0.10606419 -0.0076353475 2.2775202e-38
0.012249245 -0.10606419 -0.0076353475 2.2867037e-38
0.014051839 -0.10606419 -0.0076353475 2.2867037e-38
0.015854429 -0.10606419 -0.0076353475 2.3142544e-38
0.017657023 -0.10606419 -0.0076353475 2.3142185e-38
0.019459613 -0.10606419 -0.0076353475 2.3141826e-38
0.021262206 -0.10606419 -0.0076353475 2.1205747e-38
0.0230648 -0.10606419 -0.0076353475 1.9269994e-38
0.024867389 -0.10606419 -0.0076353475 1.6319714e-38
0.026669983 -0.10606419 -0.0076353475 1.5490661e-38
0.028472573 -0.10606419 -0.0076353475 1.4292118e-38
-0.043084797 -0.11653815 -0.042586915 2.2590813e-38
-0.041117925 -0.11579077 -0.039574496 2.3142544e-38
-0.039259333 -0.11579077 -0.039574496 2.3325856e-38
-0.037400741 -0.11579077 -0.039574496 2.3509527e-38
-0.035542153 -0.11579077 -0.039574496 2.3509883e-38
-0.033683561 -0.11579077 -0.039574496 2.2958503e-38
-0.031901553 -0.11653815 -0.042586915 2.258972e-38
-0.029895473 -0.11504765 -0.036579125 2.2404251e-38
-0.028042134 -0.11504765 -0.036579125 2.268157e-38
-0.026128739 -0.1143087 -0.033600681 2.2497901e-38
-0.024280619 -0.1143087 -0.033600681 1.7522615e-38
-0.022432502 -0.1143087 -0.033600681 1.466854e-38
-0.020523958 -0.11330278 -0.029546134 9.2333476e-39
-0.018682949 -0.11330278 -0.029546134 8.7778008e-39
-0.016841941 -0.11330278 -0.029546134 7.3062903e-39
-0.014972585 -0.11257361 -0.026607029 6.2013945e-39
-0.013136731 -0.11257361 -0.026607029 6.3850697e-39
-0.011300876 -0.11257361 -0.026607029 8.0413428e-39
-0.0094650192 -0.11257361 -0.026607029 9.6976118e-39
-0.0076211924 -0.11182173 -0.023576491 1.0247536e-38
-0.0057880087 -0.11107419 -0.020563357 9.9702134e-39
-0.0039627505 -0.11107419 -0.020563357 1.052516e-38
-0.0021557109 -0.10935538 -0.01363539 1.3199535e-38
-0.00034259912 -0.10935538 -0.01363539 1.402821e-38
0.0014517261 -0.10859586 -0.010573976 1.2921491e-38
0.0032362854 -0.10786678 -0.0076353475 1.3841994e-38
0.005038877 -0.10786678 -0.0076353475 1.6514574e-38
0.0068414696 -0.10786678 -0.0076353475 1.9462665e-38
0.0086440612 -0.10786678 -0.0076353475 2.1212922e-38
0.010446654 -0.10786678 -0.0076353475 2.2316024e-38
0.012249245 -0.10786678 -0.0076353475 2.2591531e-38
0.014051839 -0.10786678 -0.0076353475 2.2867037e-38
0.015793417 -0.10711606 -0.0046094581 2.2406066e-38
0.017590705 -0.10711606 -0.0046094581 2.2773049e-38
0.01938799 -0.10711606 -0.0046094581 2.3417333e-38
0.021185279 -0.10711606 -0.0046094581 2.3417333e-38
0.0230648 -0.10786678 -0.0076353475 2.2956362e-38
0.024867389 -0.10786678 -0.0076353475 2.3234379e-38
0.026669983 -0.10786678 -0.0076353475 2.3234379e-38
0.028472573 -0.10786678 -0.0076353475 2.3234379e-38
0.029556666 -0.10265306 0.013379581 2.3234379e-38
0.031322412 -0.10265306 0.013379581 2.3234379e-38
0.033088159 -0.10265306 0.013379581 2.3234379e-38
-0.046812542 -0.11840202 -0.042586915 2.102601e-38
-0.044948667 -0.11840202 -0.042586915 2.1208959e-38
-0.043084797 -0.11840202 -0.042586915 2.2222031e-38
-0.041117925 -0.11764936 -0.039574496 2.3234379e-38
-0.039259333 -0.11764936 -0.039574496 2.304927e-38
-0.037400741 -0.11764936 -0.039574496 2.3509167e-38
-0.035542153 -0.11764936 -0.039574496 2.3417327e-38
-0.033683561 -0.11764936 -0.039574496 2.341804e-38
-0.031824969 -0.11764936 -0.039574496 2.295778e-38
-0.029895473 -0.11690097 -0.036579125 2.2773037e-38
-0.027887993 -0.11514379 -0.029546134 2.2681212e-38
-0.025987722 -0.11440946 -0.026607029 2.2590454e-38
-0.024151869 -0.11440946 -0.026607029 1.3743682e-38
-0.022316009 -0.11440946 -0.026607029 1.2088516e-38
-0.020480156 -0.11440946 -0.026607029 9.1436869e-39
-0.018644299 -0.11440946 -0.026607029 7.7658237e-39
-0.016808443 -0.11440946 -0.026607029 7.4928424e-39
-0.014972585 -0.11440946 -0.026607029 7.5864715e-39
-0.013136731 -0.11440946 -0.026607029 7.6779483e-39
-0.011300876 -0.11440946 -0.026607029 7.6747197e-39
-0.0094517348 -0.11365227 -0.023576491 7.7629637e-39
-0.0076132687 -0.11289944 -0.020563357 8.3125235e-39
-0.0057880087 -0.11289944 -0.020563357 8.5880286e-39
-0.0039653769 -0.11215095 -0.017567627 5.8257652e-39
-0.0021637632 -0.11040358 -0.010573976 8.9614901e-39
-0.00036889967 -0.10966937 -0.0076353475 1.1173437e-38
0.0014336929 -0.10966937 -0.0076353475 1.1264552e-38
0.003212411 -0.10891335 -0.0046094581 1.1816623e-38
0.0050096978 -0.10891335 -0.0046094581 1.3289573e-38
0.0068069845 -0.10891335 -0.0046094581 1.4947274e-38
0.0086042713 -0.10891335 -0.0046094581 1.6512419e-38
0.010401558 -0.10891335 -0.0046094581 1.7063778e-38
0.012198844 -0.10891335 -0.0046094581 2.0104781e-38
0.013996131 -0.10891335 -0.0046094581 2.2775202e-38
0.015793417 -0.10891335 -0.0046094581 2.2958873e-38
0.017590705 -0.10891335 -0.0046094581 2.3234376e-38
0.01938799 -0.10891335 -0.0046094581 2.350988e-38
0.021185279 -0.10891335 -0.0046094581 2.350988e-38
0.022982564 -0.10891335 -0.0046094581 2.3509883e-38
0.024343919 -0.10514848 0.010459073 2.2588648e-38
0.026114784 -0.10514848 0.010459073 2.2497176e-38
0.027790919 -0.1044188 0.013379581 2.2773763e-38
0.029556666 -0.1044188 0.013379581 2.3234379e-38
0.031214457 -0.10366838 0.016383059 2.3234379e-38
0.032974936 -0.10366838 0.016383059 2.3234379e-38
0.034853905 -0.1044188 0.013379581 2.3234379e-38
0.036619648 -0.1044188 0.013379581 2.2958155e-38
0.038385395 -0.1044188 0.013379581 2.3234379e-38
0.040151142 -0.1044188 0.013379581 2.2220234e-38
-0.046812542 -0.12026589 -0.042586915 2.1856126e-38
-0.044948667 -0.12026589 -0.042586915 2.2775202e-38
-0.042976517 -0.11950795 -0.039574496 2.2958873e-38
-0.041117925 -0.11950795 -0.039574496 2.3234379e-38
-0.039259333 -0.11950795 -0.039574496 2.3509886e-38
-0.037493173 -0.12026589 -0.042586915 2.3509527e-38
-0.035629302 -0.12026589 -0.042586915 2.3325129e-38
-0.033521213 -0.11800493 -0.033600681 2.350987e-38
-0.03157001 -0.1169848 -0.029546134 2.3049608e-38
-0.029729001 -0.1169848 -0.029546134 2.3509879e-38
-0.027823579 -0.11624531 -0.026607029 2.3142544e-38
-0.025987722 -0.11624531 -0.026607029 2.2591531e-38
-0.024151869 -0.11624531 -0.026607029 1.1162573e-38
-0.022265531 -0.11548282 -0.023576491 1.1075085e-38
-0.020434991 -0.11548282 -0.023576491 1.1264905e-38
-0.01860445 -0.11548282 -0.023576491 9.0569157e-39
-0.016773906 -0.11548282 -0.023576491 6.7549256e-39
-0.014914307 -0.11472471 -0.020563357 6.2946761e-39
-0.013089045 -0.11472471 -0.020563357 7.7697838e-39
-0.011263787 -0.11472471 -0.020563357 8.1349734e-39
-0.009425397 -0.11397095 -0.017567627 6.8410074e-39
-0.0075950483 -0.1129816 -0.01363539 7.2987373e-39
-0.0057792524 -0.11221133 -0.010573976 8.7742289e-39
-0.0039740829 -0.11147197 -0.0076353475 8.5015979e-39
-0.0021714913 -0.11147197 -0.0076353475 9.3338571e-39
-0.0003821617 -0.11071064 -0.0046094581 9.6090048e-39
0.0014151242 -0.11071064 -0.0046094581 9.3309774e-39
0.0031886753 -0.10995375 -0.0016012117 1.0619533e-38
0.004980688 -0.10995375 -0.0016012117 1.3014075e-38
0.0067727007 -0.10995375 -0.0016012117 1.5869956e-38
0.0085647125 -0.10995375 -0.0016012117 1.8542159e-38
0.010356725 -0.10995375 -0.0016012117 2.0199144e-38
0.012148737 -0.10995375 -0.0016012117 2.1765011e-38
0.013996131 -0.11071064 -0.0046094581 2.2591531e-38
0.015732761 -0.10995375 -0.0016012117 2.2775196e-38
0.017524775 -0.10995375 -0.0016012117 2.2957782e-38
0.01938799 -0.11071064 -0.0046094581 2.3509874e-38
0.021185279 -0.11071064 -0.0046094581 2.3509873e-38
0.022982564 -0.11071064 -0.0046094581 2.3509156e-38
0.024343919 -0.10691936 0.010459073 2.3509886e-38
0.026114784 -0.10691936 0.010459073 2.3234379e-38
0.027790919 -0.10618456 0.013379581 2.3234379e-38
0.029556666 -0.10618456 0.013379581 2.3050349e-38
0.031214457 -0.10542886 0.016383059 2.2958154e-38
0.032974936 -0.10542886 0.016383059 2.2958154e-38
0.034853905 -0.10618456 0.013379581 2.3142544e-38
0.036619648 -0.10618456 0.013379581 2.3234379e-38
0.038385395 -0.10618456 0.013379581 2.2865961e-38
0.040151142 -0.10618456 0.013379581 2.3234379e-38
0.041916888 -0.10618456 0.013379581 2.3234379e-38
0.043682635 -0.10618456 0.013379581 2.3049273e-38
-0.046812542 -0.12212978 -0.042586915 2.0933806e-38
-0.044948667 -0.12212978 -0.042586915 2.2591526e-38
-0.042976517 -0.12136655 -0.039574496 2.3142541e-38
-0.041117925 -0.12136655 -0.039574496 2.3234379e-38
-0.039259333 -0.12136655 -0.039574496 2.3233302e-38
-0.037400741 -0.12136655 -0.039574496 2.3416974e-38
-0.035542153 -0.12136655 -0.039574496 2.3509879e-38
-0.033521213 -0.11985306 -0.033600681 2.3509855e-38
-0.031673092 -0.11985306 -0.033600681 2.3324739e-38
-0.029729001 -0.11882581 -0.029546134 2.3141808e-38
-0.027823579 -0.11808117 -0.026607029 2.2958873e-38
-0.025987722 -0.11808117 -0.026607029 2.1947606e-38
-0.024151869 -0.11808117 -0.026607029 1.4206469e-38
-0.022265531 -0.11731337 -0.023576491 1.3933147e-38
-0.020434991 -0.11731337 -0.023576491 1.1724072e-38
-0.018564824 -0.11654995 -0.020563357 1.0068523e-38
-0.016739566 -0.11654995 -0.020563357 8.1338678e-39
-0.014914307 -0.11654995 -0.020563357 8.2267907e-39
-0.013089045 -0.11654995 -0.020563357 9.8859463e-39
-0.011245403 -0.11579098 -0.017567627 9.331346e-39
-0.0094081601 -0.11479472 -0.01363539 7.1168544e-39
-0.0075869961 -0.11401908 -0.010573976 7.483123e-39
-0.0057792524 -0.11401908 -0.010573976 9.4217465e-39
-0.0039740829 -0.11327456 -0.0076353475 9.0583506e-39
-0.0021794504 -0.11250792 -0.0046094581 8.784279e-39
-0.00039534923 -0.11174576 -0.0016012117 1.0441623e-38
0.0013966635 -0.11174576 -0.0016012117 1.0992623e-38
0.0031650802 -0.1109881 0.0013893917 1.0989361e-38
0.0049518486 -0.1109881 0.0013893917 1.3752328e-38
0.0067386171 -0.1109881 0.0013893917 1.7898951e-38
0.0085253865 -0.1109881 0.0013893917 1.983252e-38
0.010312155 -0.1109881 0.0013893917 2.1213998e-38
0.012098924 -0.1109881 0.0013893917 2.2040518e-38
0.013885693 -0.1109881 0.0013893917 2.2591531e-38
0.01567246 -0.1109881 0.0013893917 2.2958873e-38
0.017459229 -0.1109881 0.0013893917 2.3234018e-38
0.01938799 -0.11250792 -0.0046094581 2.3508807e-38
0.021185279 -0.11250792 -0.0046094581 2.3508086e-38
0.022655647 -0.10946019 0.0074199513 2.3508086e-38
0.024343919 -0.10869022 0.010459073 2.3509527e-38
0.026114784 -0.10869022 0.010459073 2.341805e-38
0.027790919 -0.10795029 0.013379581 2.3233662e-38
0.029556666 -0.10795029 0.013379581 2.3325856e-38
0.031214457 -0.10718934 0.016383059 2.341805e-38
0.032974936 -0.10718934 0.016383059 2.341805e-38
0.034853905 -0.10795029 0.013379581 2.341805e-38
0.036619648 -0.10795029 0.013379581 2.3141822e-38
0.038385395 -0.10795029 0.013379581 2.341805e-38
0.040151142 -0.10795029 0.013379581 2.341805e-38
0.041916888 -0.10795029 0.013379581 2.341805e-38
0.043682635 -0.10795029 0.013379581 2.3509886e-38
0.045746181 -0.10946019 0.0074199513 2.3509886e-38
-0.037002858 -0.11991702 -0.026607029 2.3509527e-38
-0.033411019 -0.12066682 -0.029546134 2.3509869e-38
-0.03157001 -0.12066682 -0.029546134 2.350987e-38
-0.029729001 -0.12066682 -0.029546134 2.3234379e-38
-0.027823579 -0.11991702 -0.026607029 1.899521e-38
-0.025987722 -0.11991702 -0.026607029 1.8075803e-38
-0.024096072 -0.11914389 -0.023576491 1.5497949e-38
-0.022265531 -0.11914389 -0.023576491 1.7160322e-38
-0.020390086 -0.11837523 -0.020563357 1.5410784e-38
-0.018564824 -0.11837523 -0.020563357 1.1172347e-38
-0.016705424 -0.11761098 -0.017567627 1.0805369e-38
-0.014885417 -0.11761098 -0.017567627 1.1911708e-38
-0.01306541 -0.11761098 -0.017567627 1.2833292e-38
-0.011221272 -0.11660783 -0.01363539 1.2002467e-38
-0.0093947416 -0.11582683 -0.010573976 1.0250051e-38
-0.007579268 -0.11507715 -0.0076353475 1.0709955e-38
-0.0057766763 -0.11507715 -0.0076353475 1.2187573e-38
-0.0039767353 -0.11430521 -0.0046094581 1.1455401e-38
-0.0021794504 -0.11430521 -0.0046094581 9.4289086e-39
-0.00039534923 -0.11353777 -0.0016012117 1.0256853e-38
0.0013783108 -0.11277486 0.0013893917 1.2927627e-38
0.0031650802 -0.11277486 0.0013893917 1.5321091e-38
0.0049518486 -0.11277486 0.0013893917 1.7807474e-38
0.0067047337 -0.11201639 0.0043624714 2.0017984e-38
0.0084862905 -0.11201639 0.0043624714 2.0569715e-38
0.010267846 -0.11201639 0.0043624714 2.1121442e-38
0.012049402 -0.11201639 0.0043624714 2.1488421e-38
0.013830959 -0.11201639 0.0043624714 2.2039797e-38
0.015612514 -0.11201639 0.0043624714 2.2775202e-38
0.01739407 -0.11201639 0.0043624714 2.341805e-38
0.019175626 -0.11201639 0.0043624714 2.3509168e-38
0.020957183 -0.11201639 0.0043624714 2.3508451e-38
0.022655647 -0.11123641 0.0074199513 2.3508451e-38
0.02443184 -0.11123641 0.0074199513 2.3509168e-38
0.026025176 -0.10971604 0.013379581 2.341805e-38
0.027790919 -0.10971604 0.013379581 2.341805e-38
0.029556666 -0.10971604 0.013379581 2.341805e-38
0.031214457 -0.10894983 0.016383059 2.341805e-38
0.032974936 -0.10894983 0.016383059 2.341805e-38
0.034853905 -0.10971604 0.013379581 2.3418047e-38
0.036619648 -0.10971604 0.013379581 2.3418047e-38
0.038385395 -0.10971604 0.013379581 2.3141819e-38
0.040151142 -0.10971604 0.013379581 2.3234015e-38
0.042052586 -0.11046107 0.010459073 2.3417687e-38
0.043823451 -0.11046107 0.010459073 2.3417687e-38
0.045746181 -0.11123641 0.0074199513 2.3509167e-38
-0.035167001 -0.12175287 -0.026607029 2.2495385e-38
-0.033411019 -0.12250783 -0.029546134 2.3047838e-38
-0.03157001 -0.12250783 -0.029546134 2.3233303e-38
-0.029659435 -0.12175287 -0.026607029 2.2496825e-38
-0.027823579 -0.12175287 -0.026607029 1.4293641e-38
-0.025926616 -0.12097444 -0.023576491 1.3098e-38
-0.024096072 -0.12097444 -0.023576491 1.5035909e-38
-0.022265531 -0.12097444 -0.023576491 1.6606439e-38
-0.020390086 -0.12020047 -0.020563357 1.4672154e-38
-0.018525429 -0.11943097 -0.017567627 9.7872752e-39
-0.016705424 -0.11943097 -0.017567627 1.1079808e-38
-0.014847497 -0.11842094 -0.01363539 1.2186497e-38
-0.013034384 -0.11842094 -0.01363539 1.1909556e-38
-0.011202485 -0.11763458 -0.010573976 1.1262391e-38
-0.0093818596 -0.11687975 -0.0076353475 1.1446062e-38
-0.007579268 -0.11687975 -0.0076353475 1.2643881e-38
-0.0057766763 -0.11687975 -0.0076353475 1.3475064e-38
-0.0039767353 -0.1161025 -0.0046094581 1.2282279e-38
-0.002187361 -0.11532979 -0.0016012117 1.0624194e-38
-0.00040845852 -0.11456163 0.0013893917 1.2281182e-38
0.0013783108 -0.11456163 0.0013893917 1.5966102e-38
0.0031416221 -0.11379795 0.0043624714 1.8268088e-38
0.0049231779 -0.11379795 0.0043624714 1.9648131e-38
0.0067047337 -0.11379795 0.0043624714 2.0936698e-38
0.0084460843 -0.1130126 0.0074199513 2.1765011e-38
0.010222279 -0.1130126 0.0074199513 2.1856126e-38
0.011998476 -0.1130126 0.0074199513 2.1394428e-38
0.013830959 -0.11379795 0.0043624714 2.1670295e-38
0.015550866 -0.1130126 0.0074199513 2.2683007e-38
0.017327059 -0.1130126 0.0074199513 2.3234379e-38
0.019175626 -0.11379795 0.0043624714 2.3509527e-38
0.020957183 -0.11379795 0.0043624714 2.3508809e-38
0.022655647 -0.1130126 0.0074199513 2.3509168e-38
0.02443184 -0.1130126 0.0074199513 2.3325138e-38
0.026025176 -0.11148177 0.013379581 2.3325856e-38
0.027790919 -0.11148177 0.013379581 2.341805e-38
0.029556666 -0.11148177 0.013379581 2.341805e-38
0.031214457 -0.11071031 0.016383059 2.3326213e-38
0.032974936 -0.11071031 0.016383059 2.3234018e-38
0.034853905 -0.11148177 0.013379581 2.332621e-38
0.036619648 -0.11148177 0.013379581 2.3418047e-38
0.038385395 -0.11148177 0.013379581 2.332621e-38
0.040151142 -0.11148177 0.013379581 2.332621e-38
0.042052586 -0.11223195 0.010459073 2.3509886e-38
0.043823451 -0.11223195 0.010459073 2.3509886e-38
0.045746181 -0.1130126 0.0074199513 2.3509527e-38
-0.033331148 -0.12358873 -0.026607029 2.0930241e-38
-0.031495288 -0.12358873 -0.026607029 1.9455851e-38
-0.029659435 -0.12358873 -0.026607029 1.7982178e-38
-0.02775716 -0.12280498 -0.023576491 1.0147018e-38
-0.025926616 -0.12280498 -0.023576491 8.9506552e-39
-0.024040602 -0.12202574 -0.020563357 1.1257363e-38
-0.022215344 -0.12202574 -0.020563357 1.0982946e-38
-0.020390086 -0.12202574 -0.020563357 9.7862074e-39
-0.018525429 -0.121251 -0.017567627 1.0985461e-38
-0.016660608 -0.12023406 -0.01363539 1.2277615e-38
-0.014847497 -0.12023406 -0.01363539 1.2645675e-38
-0.013034384 -0.12023406 -0.01363539 1.1262394e-38
-0.011202485 -0.11944233 -0.010573976 1.1445341e-38
-0.0093818596 -0.11868234 -0.0076353475 1.3565465e-38
-0.0075713089 -0.11789979 -0.0046094581 1.5500108e-38
-0.0057740239 -0.11789979 -0.0046094581 1.5594096e-38
-0.0039767353 -0.11789979 -0.0046094581 1.3477934e-38
-0.002187361 -0.1171218 -0.0016012117 1.3939621e-38
-0.00040845852 -0.1163484 0.0013893917 1.651855e-38
0.0013600662 -0.1155795 0.0043624714 1.9465536e-38
0.0031416221 -0.1155795 0.0043624714 2.1029968e-38
0.0049231779 -0.1155795 0.0043624714 2.1580264e-38
0.0066698892 -0.11478879 0.0074199513 2.2316024e-38
0.0084460843 -0.11478879 0.0074199513 2.2867037e-38
0.010222279 -0.11478879 0.0074199513 2.2775202e-38
0.011998476 -0.11478879 0.0074199513 2.2130551e-38
0.01377467 -0.11478879 0.0074199513 2.203836e-38
0.015550866 -0.11478879 0.0074199513 2.2682649e-38
0.017327059 -0.11478879 0.0074199513 2.3050708e-38
0.019175626 -0.1155795 0.0043624714 2.240499e-38
0.020957183 -0.1155795 0.0043624714 2.2495748e-38
0.022655647 -0.11478879 0.0074199513 2.2772332e-38
0.024343919 -0.11400281 0.010459073 2.3417691e-38
0.02593302 -0.11247079 0.016383059 2.3233662e-38
0.027693499 -0.11247079 0.016383059 2.3233662e-38
0.029453978 -0.11247079 0.016383059 2.341805e-38
0.031214457 -0.11247079 0.016383059 2.341805e-38
0.032974936 -0.11247079 0.016383059 2.3234018e-38
0.034735415 -0.11247079 0.016383059 2.3234018e-38
0.036619648 -0.11324753 0.013379581 2.3418047e-38
0.038385395 -0.11324753 0.013379581 2.3418047e-38
0.040151142 -0.11324753 0.013379581 2.3418047e-38
0.042052586 -0.11400281 0.010459073 2.3509886e-38
0.043823451 -0.11400281 0.010459073 2.3509886e-38
0.045746181 -0.11478879 0.0074199513 2.3509527e-38
-0.036909871 -0.12463553 -0.023576491 2.1942926e-38
-0.03507933 -0.12463553 -0.023576491 2.0100825e-38
-0.033248786 -0.12463553 -0.023576491 2.074944e-38
-0.031418242 -0.12463553 -0.023576491 1.5772707e-38
-0.029587701 -0.12463553 -0.023576491 1.4759292e-38
-0.02775716 -0.12463553 -0.023576491 1.1164764e-38
-0.02586586 -0.12385099 -0.020563357 1.0981833e-38
-0.023985453 -0.123071 -0.017567627 1.0799259e-38
-0.022165444 -0.123071 -0.017567627 8.3114305e-39
-0.020345438 -0.123071 -0.017567627 9.0493613e-39
-0.018473722 -0.12204717 -0.01363539 1.1078732e-38
-0.016625721 -0.12125005 -0.010573976 1.1631897e-38
-0.014817975 -0.12125005 -0.010573976 1.1078014e-38
-0.012987045 -0.12048493 -0.0076353475 1.0062773e-38
-0.011184453 -0.12048493 -0.0076353475 1.1260589e-38
-0.0093685975 -0.11969708 -0.0046094581 1.4301942e-38
-0.0075713089 -0.11969708 -0.0046094581 1.5867809e-38
-0.0057740239 -0.11969708 -0.0046094581 1.5223884e-38
-0.0039793728 -0.11891381 -0.0016012117 1.4305164e-38
-0.002195227 -0.11813517 0.0013893917 1.6518191e-38
-0.00040845852 -0.11813517 0.0013893917 1.9096401e-38
0.0013600662 -0.11736105 0.0043624714 2.0752668e-38
0.0031416221 -0.11736105 0.0043624714 2.2316024e-38
0.0048936941 -0.11656497 0.0074199513 2.2867037e-38
0.0066698892 -0.11656497 0.0074199513 2.3234379e-38
0.0084460843 -0.11656497 0.0074199513 2.2957428e-38
0.010222279 -0.11656497 0.0074199513 2.341805e-38
0.011998476 -0.11656497 0.0074199513 2.2958154e-38
0.01377467 -0.11656497 0.0074199513 2.2590813e-38
0.015550866 -0.11656497 0.0074199513 2.2682649e-38
0.017327059 -0.11656497 0.0074199513 2.2130201e-38
0.019175626 -0.11736105 0.0043624714 2.1300444e-38
0.020957183 -0.11736105 0.0043624714 2.1208249e-38
0.022738736 -0.11736105 0.0043624714 2.1760704e-38
0.024343919 -0.11577369 0.010459073 2.2773767e-38
0.02593302 -0.11423124 0.016383059 2.2312433e-38
0.027693499 -0.11423124 0.016383059 2.2220234e-38
0.029453978 -0.11423124 0.016383059 2.2865961e-38
0.031214457 -0.11423124 0.016383059 2.3234379e-38
0.032974936 -0.11423124 0.016383059 2.3234379e-38
0.034735415 -0.11423124 0.016383059 2.341805e-38
0.038385395 -0.11501329 0.013379581 2.3141819e-38
0.040151142 -0.11501329 0.013379581 2.3049624e-38
0.042052586 -0.11577369 0.010459073 2.3048907e-38
0.043823451 -0.11577369 0.010459073 2.3141103e-38
0.045746181 -0.11656497 0.0074199513 2.3417691e-38
-0.040467937 -0.12567626 -0.020563357 2.2497892e-38
-0.038642678 -0.12567626 -0.020563357 2.240498e-38
-0.036909871 -0.12646608 -0.023576491 2.1574145e-38
-0.03507933 -0.12646608 -0.023576491 2.0470326e-38
-0.033248786 -0.12646608 -0.023576491 1.826269e-38
-0.031418242 -0.12646608 -0.023576491 1.2180675e-38
-0.029587701 -0.12646608 -0.023576491 1.2550196e-38
-0.027691118 -0.12567626 -0.020563357 1.393387e-38
-0.02586586 -0.12567626 -0.020563357 1.4304095e-38
-0.023985453 -0.124891 -0.017567627 1.1078004e-38
-0.022099946 -0.12386028 -0.01363539 6.6533483e-39
-0.020286836 -0.12386028 -0.01363539 7.8529789e-39
-0.018433467 -0.1230578 -0.010573976 8.9589691e-39
-0.016592231 -0.12228753 -0.0076353475 8.5905439e-39
-0.014789636 -0.12228753 -0.0076353475 8.2206768e-39
-0.012987045 -0.12228753 -0.0076353475 8.4965364e-39
-0.011184453 -0.12228753 -0.0076353475 1.033936e-38
-0.0093685975 -0.12149437 -0.0046094581 1.2367298e-38
-0.0075713089 -0.12149437 -0.0046094581 1.3103417e-38
-0.0057740239 -0.12149437 -0.0046094581 1.2458755e-38
-0.0039793728 -0.12070583 -0.0016012117 1.2921862e-38
-0.002195227 -0.11992194 0.0013893917 1.7438698e-38
-0.00040845852 -0.11992194 0.0013893917 2.0477162e-38
0.0013600662 -0.11914261 0.0043624714 2.0473933e-38
0.0031416221 -0.11914261 0.0043624714 2.14852e-38
0.0048936941 -0.11834116 0.0074199513 2.3325856e-38
0.0066352533 -0.11754455 0.010459073 2.3509527e-38
0.0084061194 -0.11754455 0.010459073 2.3231857e-38
0.010176986 -0.11754455 0.010459073 2.3417327e-38
0.011947853 -0.11754455 0.010459073 2.3325856e-38
0.013830959 -0.11914261 0.0043624714 2.3050708e-38
0.015612514 -0.11914261 0.0043624714 2.2314589e-38
0.01739407 -0.11914261 0.0043624714 2.1485197e-38
0.024520293 -0.11914261 0.0043624714 2.0931662e-38
0.02630185 -0.11914261 0.0043624714 2.0561079e-38
-0.040467937 -0.1275015 -0.020563357 2.2405696e-38
-0.038642678 -0.1275015 -0.020563357 2.2129112e-38
-0.036817417 -0.1275015 -0.020563357 2.0560713e-38
-0.03507933 -0.1282966 -0.023576491 1.8351269e-38
-0.033248786 -0.1282966 -0.023576491 1.5407508e-38
-0.031341642 -0.1275015 -0.020563357 1.0524758e-38
-0.02951638 -0.1275015 -0.020563357 1.1354892e-38
-0.027691118 -0.1275015 -0.020563357 1.4397724e-38
-0.02586586 -0.1275015 -0.020563357 1.4306964e-38
-0.023913059 -0.1256734 -0.01363539 1.0619547e-38
-0.022048954 -0.12486555 -0.010573976 6.5640351e-39
-0.020197414 -0.12409012 -0.0076353475 7.8551453e-39
-0.01839482 -0.12409012 -0.0076353475 8.1320951e-39
-0.016557746 -0.12329166 -0.0046094581 7.3023345e-39
-0.014760456 -0.12329166 -0.0046094581 7.670031e-39
-0.012963171 -0.12329166 -0.0046094581 9.1447967e-39
-0.011165882 -0.12329166 -0.0046094581 1.071139e-38
-0.0093685975 -0.12329166 -0.0046094581 1.1264196e-38
-0.0075633982 -0.12249784 -0.0016012117 1.154042e-38
-0.0057713864 -0.12249784 -0.0016012117 1.2185052e-38
-0.0039793728 -0.12249784 -0.0016012117 1.2922581e-38
-0.002195227 -0.12170871 0.0013893917 1.7900028e-38
-0.00040845852 -0.12170871 0.0013893917 2.0477162e-38
0.0013600662 -0.12092416 0.0043624714 1.9920766e-38
0.0031416221 -0.12092416 0.0043624714 2.1115699e-38
0.0048936941 -0.12011738 0.0074199513 2.3233303e-38
0.0066352533 -0.11931543 0.010459073 2.3509168e-38
0.0084061194 -0.11931543 0.010459073 2.3509168e-38
0.010176986 -0.11931543 0.010459073 2.3415895e-38
0.011947853 -0.11931543 0.010459073 2.3509527e-38
0.013830959 -0.12092416 0.0043624714 2.286632e-38
0.015612514 -0.12092416 0.0043624714 2.1761422e-38
-0.038545504 -0.12853102 -0.017567627 2.2313147e-38
-0.036725499 -0.12853102 -0.017567627 1.9362891e-38
-0.034992158 -0.12932678 -0.020563357 1.5216984e-38
-0.0331669 -0.12932678 -0.020563357 9.6928389e-39
-0.031341642 -0.12932678 -0.020563357 5.7316891e-39
-0.02951638 -0.12932678 -0.020563357 5.1788866e-39
-0.027691118 -0.12932678 -0.020563357 6.9316994e-39
-0.025805458 -0.12853102 -0.017567627 6.8398821e-39
-0.023856699 -0.1266733 -0.010573976 4.9967066e-39
-0.022000007 -0.12589271 -0.0076353475 3.6148652e-39
-0.020197414 -0.12589271 -0.0076353475 5.3676724e-39
-0.01839482 -0.12589271 -0.0076353475 6.3821886e-39
-0.016557746 -0.12508895 -0.0046094581 5.2758411e-39
-0.014760456 -0.12508895 -0.0046094581 5.736815e-39
-0.012939434 -0.12428986 -0.0016012117 7.9491444e-39
-0.011147424 -0.12428986 -0.0016012117 8.962925e-39
-0.00935541 -0.12428986 -0.0016012117 8.4101029e-39
-0.0075555323 -0.12349547 0.0013893917 9.0551066e-39
-0.0057687638 -0.12349547 0.0013893917 1.0990112e-38
-0.0039819954 -0.12349547 0.0013893917 1.3385721e-38
-0.002195227 -0.12349547 0.0013893917 1.6517472e-38
-0.00040845852 -0.12349547 0.0013893917 1.7159591e-38
0.0013600662 -0.12270571 0.0043624714 1.7248535e-38
0.0031416221 -0.12270571 0.0043624714 2.0563969e-38
0.0049231779 -0.12270571 0.0043624714 2.323402e-38
0.0066698892 -0.12189357 0.0074199513 2.2955641e-38
0.0084460843 -0.12189357 0.0074199513 2.1664181e-38
0.010267846 -0.12270571 0.0043624714 2.3324421e-38
0.013885693 -0.12349547 0.0013893917 2.2681572e-38
0.01567246 -0.12349547 0.0013893917 2.1392283e-38
-0.040365513 -0.13035102 -0.017567627 2.1485182e-38
-0.038545504 -0.13035102 -0.017567627 2.1023489e-38
-0.036725499 -0.13035102 -0.017567627 1.9824593e-38
-0.034905493 -0.13035102 -0.017567627 1.0608296e-38
-0.033085484 -0.13035102 -0.017567627 8.8620343e-39
-0.031265479 -0.13035102 -0.017567627 4.5321103e-39
-0.029445469 -0.13035102 -0.017567627 4.0714993e-39
-0.027625464 -0.13035102 -0.017567627 4.441372e-39
-0.025805458 -0.13035102 -0.017567627 5.2722229e-39
-0.023856699 -0.12848105 -0.010573976 4.2598829e-39
-0.022000007 -0.12769531 -0.0076353475 2.9702343e-39
-0.020197414 -0.12769531 -0.0076353475 4.1698663e-39
-0.018355031 -0.12688623 -0.0046094581 5.0007073e-39
-0.016557746 -0.12688623 -0.0046094581 4.2642213e-39
-0.014731447 -0.12608187 -0.0016012117 3.9879889e-39
-0.012939434 -0.12608187 -0.0016012117 7.6761546e-39
-0.011147424 -0.12608187 -0.0016012117 7.9530961e-39
-0.0093423007 -0.12528224 0.0013893917 7.2158841e-39
-0.0075477129 -0.1244873 0.0043624714 6.2942796e-39
-0.005766158 -0.1244873 0.0043624714 9.1501637e-39
-0.0039846012 -0.1244873 0.0043624714 1.1820924e-38
-0.0022110874 -0.12366976 0.0074199513 1.6704732e-38
-0.00043489132 -0.12366976 0.0074199513 1.67015e-38
0.0013413029 -0.12366976 0.0074199513 1.8080105e-38
0.0031174989 -0.12366976 0.0074199513 2.0288827e-38
-0.042510424 -0.13460387 -0.026607029 2.0563225e-38
-0.040365513 -0.13217102 -0.017567627 2.1300793e-38
-0.038545504 -0.13217102 -0.017567627 2.1116403e-38
-0.036817417 -0.13297729 -0.020563357 1.9087749e-38
-0.034905493 -0.13217102 -0.017567627 8.3952478e-39
-0.033085484 -0.13217102 -0.017567627 6.5564317e-39
-0.031265479 -0.13217102 -0.017567627 6.9281247e-39
-0.029445469 -0.13217102 -0.017567627 7.2054375e-39
-0.027625464 -0.13217102 -0.017567627 5.2704138e-39
-0.025664441 -0.13028879 -0.010573976 3.9807624e-39
-0.023802601 -0.1294979 -0.0076353475 2.5077988e-39
-0.022000007 -0.1294979 -0.0076353475 1.8631594e-39
-0.020152319 -0.12868352 -0.0046094581 3.5241241e-39
-0.018355031 -0.12868352 -0.0046094581 2.2344713e-39
-0.016523462 -0.12787388 -0.0016012117 9.4553034e-40
-0.014731447 -0.12787388 -0.0016012117 1.6838114e-39
-0.012915839 -0.12706901 0.0013893917 5.0039289e-39
-0.011129069 -0.12706901 0.0013893917 5.0049967e-39
-0.0093292696 -0.12626885 0.0043624714 4.3599776e-39
-0.0075396718 -0.12544595 0.0074199513 4.0841012e-39
-0.0057634776 -0.12544595 0.0074199513 8.3236428e-39
-0.0039872816 -0.12544595 0.0074199513 1.1546499e-38
-0.00221908 -0.12462802 0.010459073 1.587606e-38
-0.00044821296 -0.12462802 0.010459073 1.6610385e-38
0.0013413029 -0.12544595 0.0074199513 1.8819818e-38
0.0031174989 -0.12544595 0.0074199513 2.0382815e-38
-0.044457074 -0.13723589 -0.029546134 1.9826016e-38
-0.042510424 -0.13643973 -0.026607029 2.0286639e-38
-0.040467937 -0.13480256 -0.020563357 2.1116764e-38
-0.038642678 -0.13480256 -0.020563357 2.1116766e-38
-0.036817417 -0.13480256 -0.020563357 1.7889568e-38
-0.034905493 -0.13399105 -0.017567627 5.5375364e-39
-0.033085484 -0.13399105 -0.017567627 7.2007053e-39
-0.031265479 -0.13399105 -0.017567627 1.2826822e-38
-0.029445469 -0.13399105 -0.017567627 1.3197044e-38
-0.027539283 -0.13292582 -0.01363539 9.2337133e-39
-0.025664441 -0.13209651 -0.010573976 6.1927023e-39
-0.023802601 -0.13130049 -0.0076353475 4.2580402e-39
-0.022000007 -0.13130049 -0.0076353475 2.6918047e-39
-0.020152319 -0.13048081 -0.0046094581 3.3389803e-39
-0.018355031 -0.13048081 -0.0046094581 3.3400692e-39
-0.016523462 -0.1296659 -0.0016012117 1.1288174e-39
-0.014731447 -0.1296659 -0.0016012117 2.9738118e-39
-0.012915839 -0.12885578 0.0013893917 5.8336714e-39
-0.011110826 -0.1280504 0.0043624714 5.1893768e-39
-0.0093292696 -0.1280504 0.0043624714 3.8075143e-39
-0.0075316792 -0.12639888 0.010459073 3.3468879e-39
-0.0057608122 -0.12639888 0.010459073 8.4158328e-39
-0.003989947 -0.12639888 0.010459073 1.1454666e-38
-0.0022267615 -0.12560774 0.013379581 1.4309115e-38
-0.00046101492 -0.12560774 0.013379581 1.5505129e-38
-0.044457074 -0.1390769 -0.029546134 1.9825297e-38
-0.042510424 -0.13827558 -0.026607029 2.0286639e-38
-0.040467937 -0.13662781 -0.020563357 2.1301155e-38
-0.038545504 -0.13581105 -0.017567627 2.0840902e-38
-0.036725499 -0.13581105 -0.017567627 1.6692103e-38
-0.034905493 -0.13581105 -0.017567627 3.6014239e-39
-0.033085484 -0.13581105 -0.017567627 9.596686e-39
-0.031265479 -0.13581105 -0.017567627 1.9832161e-38
-0.029445469 -0.13581105 -0.017567627 2.1030327e-38
-0.027539283 -0.13473894 -0.01363539 2.0846656e-38
-0.025664441 -0.13390426 -0.010573976 1.9835748e-38
-0.023856699 -0.13390426 -0.010573976 1.7347939e-38
-0.022000007 -0.13310309 -0.0076353475 1.3384652e-38
-0.020152319 -0.1322781 -0.0046094581 1.1449634e-38
-0.018355031 -0.1322781 -0.0046094581 5.0888658e-39
-0.016523462 -0.13145791 -0.0016012117 1.4032098e-39
-0.014702608 -0.13064255 0.0013893917 3.3393265e-39
-0.012915839 -0.13064255 0.0013893917 5.6460151e-39
-0.011110826 -0.12983195 0.0043624714 5.463063e-39
-0.0093025463 -0.12816976 0.010459073 4.8187669e-39
-0.0075239977 -0.1273735 0.013379581 4.6350917e-39
-0.0057582529 -0.1273735 0.013379581 9.0597519e-39
-0.0039925063 -0.1273735 0.013379581 1.2282623e-38
-0.0022346592 -0.12655462 0.016383059 1.3294603e-38
-0.00047418009 -0.12655462 0.016383059 1.4305867e-38
-0.048139088 -0.14091791 -0.029546134 2.2589722e-38
-0.046182137 -0.14011143 -0.026607029 2.0469585e-38
-0.04434628 -0.14011143 -0.026607029 1.9640906e-38
-0.042510424 -0.14011143 -0.026607029 2.0286639e-38
-0.040467937 -0.13845308 -0.020563357 2.1485549e-38
-0.038545504 -0.13763104 -0.017567627 2.074871e-38
-0.036725499 -0.13763104 -0.017567627 1.6047097e-38
-0.034905493 -0.13763104 -0.017567627 3.0489578e-39
-0.033085484 -0.13763104 -0.017567627 1.217669e-38
-0.031265479 -0.13763104 -0.017567627 2.1856847e-38
-0.029445469 -0.13763104 -0.017567627 2.1489505e-38
-0.027539283 -0.13655205 -0.01363539 2.0846656e-38
-0.025664441 -0.13571201 -0.010573976 2.1397669e-38
-0.023856699 -0.13571201 -0.010573976 2.1305834e-38
-0.022000007 -0.13490568 -0.0076353475 2.0479314e-38
-0.020152319 -0.13407536 -0.0046094581 2.0019778e-38
-0.018355031 -0.13407536 -0.0046094581 1.6794056e-38
-0.016523462 -0.13324992 -0.0016012117 1.1079024e-38
-0.014702608 -0.13242932 0.0013893917 8.9585389e-39
-0.012892381 -0.13161351 0.0043624714 7.5766919e-39
-0.011073413 -0.12994061 0.010459073 6.5639791e-39
-0.0093025463 -0.12994061 0.010459073 6.3803067e-39
-0.0075239977 -0.12913923 0.013379581 6.8423624e-39
-0.0057556191 -0.12831511 0.016383059 9.1465273e-39
-0.0039951401 -0.12831511 0.016383059 1.3661588e-38
-0.0022346592 -0.12831511 0.016383059 1.4212954e-38
-0.00047418009 -0.12831511 0.016383059 1.4396258e-38
-0.051689707 -0.14194728 -0.026607029 2.3509879e-38
-0.049853846 -0.14194728 -0.026607029 2.350988e-38
-0.048017994 -0.14194728 -0.026607029 2.3418045e-38
-0.046182137 -0.14194728 -0.026607029 2.1022396e-38
-0.04434628 -0.14194728 -0.026607029 1.973202e-38
-0.042510424 -0.14194728 -0.026607029 2.0102247e-38
-0.040467937 -0.14027832 -0.020563357 2.1485549e-38
-0.038545504 -0.13945107 -0.017567627 2.093382e-38
-0.036725499 -0.13945107 -0.017567627 1.6232567e-38
-0.034905493 -0.13945107 -0.017567627 3.324823e-39
-0.033085484 -0.13945107 -0.017567627 1.097634e-38
-0.031265479 -0.13945107 -0.017567627 2.2499695e-38
-0.029445469 -0.13945107 -0.017567627 2.2132353e-38
-0.027539283 -0.13836516 -0.01363539 2.2316024e-38
-0.025664441 -0.13751976 -0.010573976 2.2224189e-38
-0.023856699 -0.13751976 -0.010573976 2.2040516e-38
-0.022000007 -0.13670824 -0.0076353475 2.1673176e-38
-0.020152319 -0.13587265 -0.0046094581 2.1213998e-38
-0.018355031 -0.13587265 -0.0046094581 2.158134e-38
-0.016523462 -0.13504194 -0.0016012117 2.0200938e-38
-0.014702608 -0.13421609 0.0013893917 2.0662627e-38
-0.012892381 -0.13339506 0.0043624714 2.1030327e-38
-0.011073413 -0.1317115 0.010459073 2.0846656e-38
-0.0092897443 -0.13090499 0.013379581 1.919003e-38
-0.0075239977 -0.13090499 0.013379581 1.6885892e-38
-0.0057556191 -0.13007559 0.016383059 1.2552706e-38
-0.0039951401 -0.13007559 0.016383059 1.4302986e-38
-0.0022346592 -0.13007559 0.016383059 1.5684839e-38
-0.00048726704 -0.12925108 0.019368775 1.549972e-38
0.001267978 -0.12925108 0.019368775 1.7526935e-38
-0.05352556 -0.14378314 -0.026607029 2.350987e-38
-0.051689707 -0.14378314 -0.026607029 2.3509876e-38
-0.049853846 -0.14378314 -0.026607029 2.3325127e-38
-0.048017994 -0.14378314 -0.026607029 2.3509879e-38
-0.046182137 -0.14378314 -0.026607029 2.1758882e-38
-0.04434628 -0.14378314 -0.026607029 2.0100803e-38
-0.042510424 -0.14378314 -0.026607029 1.9641269e-38
-0.040570956 -0.14294095 -0.023576491 2.102565e-38
-0.038740411 -0.14294095 -0.023576491 2.1579188e-38
-0.036817417 -0.1421036 -0.020563357 1.7154168e-38
-0.034905493 -0.14127107 -0.017567627 3.6925336e-39
-0.033085484 -0.14127107 -0.017567627 1.0512143e-38
-0.031265479 -0.14127107 -0.017567627 2.2958155e-38
-0.029445469 -0.14127107 -0.017567627 2.2589737e-38
-0.027539283 -0.14017828 -0.01363539 2.2958873e-38
-0.025664441 -0.13932751 -0.010573976 2.1669573e-38
-0.023856699 -0.13932751 -0.010573976 2.1485532e-38
-0.022000007 -0.13851084 -0.0076353475 2.2775195e-38
-0.020152319 -0.13766994 -0.0046094581 2.2223463e-38
-0.018355031 -0.13766994 -0.0046094581 2.20398e-38
-0.016523462 -0.13683395 -0.0016012117 2.2499695e-38
-0.014702608 -0.13600285 0.0013893917 2.2224189e-38
-0.012892381 -0.13517661 0.0043624714 2.1856847e-38
-0.011073413 -0.13348235 0.010459073 2.1856847e-38
-0.0092897443 -0.13267075 0.013379581 2.1028534e-38
-0.0075161001 -0.13183604 0.016383059 2.0291338e-38
-0.0057556191 -0.13183604 0.016383059 1.2824227e-38
-0.0039951401 -0.13183604 0.016383059 1.4759629e-38
-0.0022346592 -0.13183604 0.016383059 1.7432949e-38
-0.00048726704 -0.13100632 0.019368775 1.6787211e-38
0.001267978 -0.13100632 0.019368775 1.7248183e-38
-0.05352556 -0.14561899 -0.026607029 2.350879e-38
-0.051689707 -0.14561899 -0.026607029 2.3416237e-38
-0.049853846 -0.14561899 -0.026607029 2.3509876e-38
-0.048017994 -0.14561899 -0.026607029 2.3233288e-38
-0.046182137 -0.14561899 -0.026607029 2.2219499e-38
-0.04434628 -0.14561899 -0.026607029 2.0561421e-38
-0.042510424 -0.14561899 -0.026607029 1.9272126e-38
-0.040674567 -0.14561899 -0.026607029 2.0840177e-38
-0.038740411 -0.1447715 -0.023576491 2.2224189e-38
-0.036817417 -0.14392884 -0.020563357 1.8075401e-38
-0.034992158 -0.14392884 -0.020563357 3.6925336e-39
-0.0331669 -0.14392884 -0.020563357 9.2210526e-39
-0.031341642 -0.14392884 -0.020563357 2.2588661e-38
-0.029445469 -0.14309107 -0.017567627 2.240499e-38
-0.027625464 -0.14309107 -0.017567627 2.2958514e-38
-0.025726169 -0.14199139 -0.01363539 2.037669e-38
-0.023856699 -0.14113526 -0.010573976 1.9086302e-38
-0.022000007 -0.14031343 -0.0076353475 1.9178852e-38
-0.020152319 -0.13946722 -0.0046094581 1.6873605e-38
-0.018355031 -0.13946722 -0.0046094581 1.807215e-38
-0.016523462 -0.13862596 -0.0016012117 2.1760701e-38
-0.014673936 -0.13695817 0.0043624714 2.2958873e-38
-0.012892381 -0.13695817 0.0043624714 2.2683007e-38
-0.011073413 -0.13525321 0.010459073 2.2775202e-38
-0.0092897443 -0.13443647 0.013379581 2.2775202e-38
-0.0075161001 -0.13359652 0.016383059 2.2775202e-38
-0.0057556191 -0.13359652 0.016383059 1.3096834e-38
-0.0039951401 -0.13359652 0.016383059 1.512732e-38
-0.0022346592 -0.13359652 0.016383059 1.8815512e-38
-0.00048726704 -0.13276155 0.019368775 1.7432575e-38
0.001267978 -0.13276155 0.019368775 1.6971232e-38
-0.051689707 -0.14745484 -0.026607029 2.3509873e-38
-0.049853846 -0.14745484 -0.026607029 2.3231846e-38
-0.048017994 -0.14745484 -0.026607029 2.3509873e-38
-0.046182137 -0.14745484 -0.026607029 2.1758157e-38
-0.04434628 -0.14745484 -0.026607029 2.1113152e-38
-0.042510424 -0.14745484 -0.026607029 1.9362521e-38
-0.040674567 -0.14745484 -0.026607029 1.9548357e-38
-0.038838714 -0.14745484 -0.026607029 2.2223112e-38
-0.036909871 -0.14660202 -0.023576491 2.0102261e-38
-0.034992158 -0.14575411 -0.020563357 4.7063211e-39
-0.0331669 -0.14575411 -0.020563357 7.9321116e-39
-0.031341642 -0.14575411 -0.020563357 2.2129842e-38
-0.029445469 -0.14491107 -0.017567627 2.2590813e-38
-0.027625464 -0.14491107 -0.017567627 2.2222395e-38
-0.025726169 -0.14380451 -0.01363539 2.0193403e-38
-0.023856699 -0.14294298 -0.010573976 1.7519364e-38
-0.022000007 -0.14211603 -0.0076353475 1.7611913e-38
-0.020197414 -0.14211603 -0.0076353475 1.7795584e-38
-0.018355031 -0.14126451 -0.0046094581 1.761047e-38
-0.016523462 -0.14041798 -0.0016012117 2.0100105e-38
-0.014673936 -0.13873972 0.0043624714 2.2127688e-38
-0.012892381 -0.13873972 0.0043624714 2.3234379e-38
-0.011073413 -0.13702409 0.010459073 2.3234379e-38
-0.0092897443 -0.13620223 0.013379581 2.2865955e-38
-0.0075161001 -0.13535701 0.016383059 2.3234376e-38
-0.0057556191 -0.13535701 0.016383059 1.3832947e-38
-0.0039951401 -0.13535701 0.016383059 1.356106e-38
-0.0022346592 -0.13535701 0.016383059 1.8172654e-38
-0.00048726704 -0.13451682 0.019368775 1.8909857e-38
0.001267978 -0.13451682 0.019368775 1.5681934e-38
-0.051689707 -0.14929073 -0.026607029 2.2861981e-38
-0.049853846 -0.14929073 -0.026607029 2.3509511e-38
-0.048017994 -0.14929073 -0.026607029 2.350987e-38
-0.046182137 -0.14929073 -0.026607029 2.3047814e-38
-0.04434628 -0.14929073 -0.026607029 2.2864149e-38
-0.042510424 -0.14929073 -0.026607029 2.0007168e-38
-0.040674567 -0.14929073 -0.026607029 1.9732026e-38
-0.038838714 -0.14929073 -0.026607029 2.2683007e-38
-0.036909871 -0.14843257 -0.023576491 1.8995548e-38
-0.034992158 -0.14757936 -0.020563357 3.8765605e-39
-0.0331669 -0.14757936 -0.020563357 5.537186e-39
-0.031418242 -0.14843257 -0.023576491 1.6600676e-38
-0.02951638 -0.14757936 -0.020563357 1.7246045e-38
-0.027625464 -0.14673109 -0.017567627 1.7061651e-38
-0.025726169 -0.14561762 -0.01363539 1.7982525e-38
-0.023856699 -0.14475073 -0.010573976 1.8903756e-38
-0.022000007 -0.14391862 -0.0076353475 1.8534609e-38
-0.020197414 -0.14391862 -0.0076353475 1.6874362e-38
-0.018355031 -0.1430618 -0.0046094581 1.761156e-38
-0.016523462 -0.14220999 -0.0016012117 1.9638776e-38
-0.014702608 -0.14136316 0.0013893917 2.0744755e-38
-0.012892381 -0.14052127 0.0043624714 2.2311354e-38
-0.011073413 -0.13879494 0.010459073 2.304927e-38
-0.0092897443 -0.13796796 0.013379581 2.3233296e-38
-0.0075239977 -0.13796796 0.013379581 2.3509879e-38
-0.0057556191 -0.13711749 0.016383059 1.3279411e-38
-0.0039951401 -0.13711749 0.016383059 1.3745452e-38
-0.0022346592 -0.13711749 0.016383059 1.7805668e-38
-0.00048726704 -0.13627206 0.019368775 1.845032e-38
0.001267978 -0.13627206 0.019368775 1.5314589e-38
-0.02951638 -0.14940463 -0.020563357 1.1348055e-38
-0.027691118 -0.14940463 -0.020563357 1.4113923e-38
-0.025726169 -0.14743073 -0.01363539 1.5864195e-38
-0.023856699 -0.14655848 -0.010573976 1.6048224e-38
-0.022000007 -0.14572121 -0.0076353475 1.5770193e-38
-0.020197414 -0.14572121 -0.0076353475 1.6138966e-38
-0.018355031 -0.14485909 -0.0046094581 1.7243867e-38
-0.016523462 -0.14400201 -0.0016012117 1.9271084e-38
-0.014702608 -0.14314993 0.0013893917 2.0284867e-38
-0.012892381 -0.14230286 0.0043624714 2.1851466e-38
-0.011073413 -0.14056583 0.010459073 2.295672e-38
-0.0093025463 -0.14056583 0.010459073 2.341805e-38
-0.0075239977 -0.13973372 0.013379581 2.3509886e-38
-0.0057556191 -0.13887797 0.016383059 1.4016984e-38
-0.0039951401 -0.13887797 0.016383059 1.4115319e-38
-0.0022425121 -0.1380273 0.019368775 1.7897512e-38
-0.00048726704 -0.1380273 0.019368775 1.8726548e-38
0.001267978 -0.1380273 0.019368775 1.5959961e-38
-0.025726169 -0.14924385 -0.01363539 7.476925e-39
-0.023856699 -0.14836623 -0.010573976 6.9226652e-39
-0.022000007 -0.14752381 -0.0076353475 8.7651345e-39
-0.020197414 -0.14752381 -0.0076353475 1.291285e-38
-0.018355031 -0.14665638 -0.0046094581 1.4294697e-38
-0.016557746 -0.14665638 -0.0046094581 1.6875088e-38
-0.014731447 -0.14579402 -0.0016012117 1.8533882e-38
-0.012915839 -0.1449367 0.0013893917 2.0561457e-38
-0.011110826 -0.14408441 0.0043624714 2.1667077e-38
-0.0093025463 -0.14233668 0.010459073 2.3049632e-38
-0.0075239977 -0.14149947 0.013379581 2.3233303e-38
-0.0057582529 -0.14149947 0.013379581 1.5583961e-38
-0.0039951401 -0.14063846 0.016383059 1.411533e-38
-0.0022425121 -0.13978253 0.019368775 1.697628e-38
-0.00048726704 -0.13978253 0.019368775 1.7989353e-38
0.0012310566 -0.13805781 0.025385149 1.5683021e-38
0.0029757535 -0.13805781 0.025385149 1.586705e-38
0.0047204494 -0.13805781 0.025385149 1.6696089e-38
-0.020197414 -0.1493264 -0.0076353475 8.3970751e-39
-0.018355031 -0.14845367 -0.0046094581 1.0608681e-38
-0.016557746 -0.14845367 -0.0046094581 1.2359311e-38
-0.014731447 -0.14758603 -0.0016012117 1.3832995e-38
-0.012915839 -0.14672346 0.0013893917 1.7058753e-38
-0.011110826 -0.14586596 0.0043624714 1.9271084e-38
-0.0093025463 -0.14410757 0.010459073 2.2128766e-38
-0.0075239977 -0.1432652 0.013379581 2.2865243e-38
-0.0057582529 -0.1432652 0.013379581 1.7336415e-38
-0.0039951401 -0.14239894 0.016383059 1.522097e-38
-0.0022425121 -0.14153777 0.019368775 1.7252158e-38
-0.00048726704 -0.14153777 0.019368775 1.8081188e-38
0.0012310566 -0.13980253 0.025385149 1.6051449e-38
0.0029518474 -0.13892864 0.028415032 1.5959245e-38
0.0046912311 -0.13892864 0.028415032 1.6696086e-38
0.04914486 -0.12622552 0.072458334 2.1117492e-38
0.050807022 -0.12622552 0.072458334 2.0656514e-38
0.058289509 -0.13747464 0.033456214 2.1577391e-38
0.060020056 -0.13747464 0.033456214 2.0379204e-38
0.061750602 -0.13747464 0.033456214 1.9365052e-38
0.063481145 -0.13747464 0.033456214 2.0010419e-38
0.066288523 -0.13488342 0.042440303 2.019481e-38
0.068003319 -0.13488342 0.042440303 1.9180295e-38
-0.014731447 -0.14937802 -0.0016012117 6.2740434e-39
-0.012915839 -0.14851023 0.0013893917 1.0421402e-38
-0.011110826 -0.14764751 0.0043624714 1.374008e-38
-0.0093025463 -0.14587842 0.010459073 1.7980353e-38
-0.0075239977 -0.14503096 0.013379581 1.8901947e-38
-0.0057582529 -0.14503096 0.013379581 1.5769103e-38
-0.0039951401 -0.14415942 0.016383059 1.5036948e-38
-0.0022425121 -0.14329304 0.019368775 1.6698633e-38
