# .PCD v0.7 - Point Cloud Data file format
VERSION 0.7
FIELDS x y z rgb
SIZE 4 4 4 4
TYPE F F F F
COUNT 1 1 1 1
WIDTH 537
HEIGHT 1
VIEWPOINT 0 0 0 1 0 0 0
POINTS 537
DATA ascii
-0.021521315 -0.10631551 -0.025726147 1.5858387e-38
-0.019710612 -0.10535492 -0.021682806 1.6042056e-38
-0.017846737 -0.10535492 -0.021682806 1.7148401e-38
-0.015982863 -0.10535492 -0.021682806 1.9637683e-38
-0.014118989 -0.10535492 -0.021682806 2.2036565e-38
-0.010153306 -0.10774307 -0.03173501 2.0380646e-38
-0.0082718069 -0.10774307 -0.03173501 1.8631087e-38
-0.021574484 -0.10721879 -0.021682806 1.6226816e-38
-0.019755505 -0.10649781 -0.018670388 1.5857311e-38
-0.017946806 -0.10578094 -0.015675016 1.6594873e-38
-0.016093466 -0.10578094 -0.015675016 2.1850024e-38
-0.014240126 -0.10578094 -0.015675016 2.2313513e-38
-0.012255115 -0.10721879 -0.021682806 2.1024945e-38
-0.010153306 -0.10962458 -0.03173501 1.992112e-38
-0.0082718069 -0.10962458 -0.03173501 1.6051427e-38
-0.006390308 -0.10962458 -0.03173501 1.5867399e-38
-0.0045088092 -0.10962458 -0.03173501 1.6049276e-38
-0.0027214931 -0.10888995 -0.02866549 1.8444923e-38
-0.00084537733 -0.10888995 -0.02866549 2.1394441e-38
0.0065431325 -0.10818647 -0.025726147 2.2219164e-38
-0.021653486 -0.10763429 -0.015675016 2.2680496e-38
-0.019800145 -0.10763429 -0.015675016 2.3417333e-38
-0.017996415 -0.10691623 -0.012696572 2.3416974e-38
-0.016148299 -0.10691623 -0.012696572 2.3141826e-38
-0.014300182 -0.10691623 -0.012696572 2.2406066e-38
-0.012452063 -0.10691623 -0.012696572 2.2316024e-38
-0.010533446 -0.10763429 -0.015675016 2.1673176e-38
-0.0085273674 -0.10908265 -0.021682806 1.7989351e-38
-0.006390308 -0.11150609 -0.03173501 1.2826044e-38
-0.0046826461 -0.11005743 -0.025726147 1.2915369e-38
-0.0028116824 -0.11005743 -0.025726147 1.7431158e-38
-0.00094071869 -0.11005743 -0.025726147 1.9828215e-38
0.00093024503 -0.11005743 -0.025726147 1.7982888e-38
0.0028012088 -0.11005743 -0.025726147 2.0840917e-38
0.0046721725 -0.11005743 -0.025726147 2.2591172e-38
0.0065431325 -0.11005743 -0.025726147 2.2958514e-38
0.0085352091 -0.11076607 -0.02866549 2.2496825e-38
0.010411325 -0.11076607 -0.02866549 2.3234015e-38
0.012287441 -0.11076607 -0.02866549 2.3509876e-38
-0.021653486 -0.10948761 -0.015675016 2.323402e-38
-0.019844536 -0.10876434 -0.012696572 2.3140391e-38
-0.017996415 -0.10876434 -0.012696572 2.3509168e-38
-0.016222943 -0.10777976 -0.0086420253 2.323402e-38
-0.014381935 -0.10777976 -0.0086420253 2.2498978e-38
-0.012540924 -0.10777976 -0.0086420253 2.1948682e-38
-0.010603945 -0.10876434 -0.012696572 2.1122163e-38
-0.0086801043 -0.10948761 -0.015675016 1.8268446e-38
-0.0067453599 -0.11021499 -0.018670388 1.2828225e-38
-0.0048867678 -0.11021499 -0.018670388 1.3193421e-38
-0.0029357458 -0.11094652 -0.021682806 1.6879435e-38
-0.0010718713 -0.11094652 -0.021682806 1.807796e-38
0.00079200324 -0.11094652 -0.021682806 1.4113217e-38
0.0026558777 -0.11094652 -0.021682806 1.5588338e-38
0.0046721725 -0.11192839 -0.025726147 1.8906273e-38
0.0066590896 -0.11264218 -0.02866549 2.1394441e-38
0.0085352091 -0.11264218 -0.02866549 2.2775202e-38
0.010411325 -0.11264218 -0.02866549 2.3142544e-38
0.012287441 -0.11264218 -0.02866549 2.3418045e-38
-0.021692652 -0.11061247 -0.012696572 2.2865243e-38
-0.019844536 -0.11061247 -0.012696572 2.3232944e-38
-0.018063951 -0.10962076 -0.0086420253 2.3509527e-38
-0.016222943 -0.10962076 -0.0086420253 2.2680855e-38
-0.014381935 -0.10962076 -0.0086420253 1.9457622e-38
-0.012540924 -0.10962076 -0.0086420253 1.604964e-38
-0.010699916 -0.10962076 -0.0086420253 1.5131661e-38
-0.0087558264 -0.11061247 -0.012696572 1.5596966e-38
-0.006907708 -0.11061247 -0.012696572 1.5228548e-38
-0.0050595915 -0.11061247 -0.012696572 1.4578884e-38
-0.0032114731 -0.11061247 -0.012696572 1.3562592e-38
-0.0012667449 -0.11134095 -0.015675016 1.2917944e-38
0.00068900641 -0.11207359 -0.018670388 1.0152072e-38
0.0025475984 -0.11207359 -0.018670388 1.0151705e-38
0.0045197485 -0.11281042 -0.021682806 1.0427199e-38
0.0065431325 -0.11379938 -0.025726147 1.4021727e-38
0.0084140962 -0.11379938 -0.025726147 1.9366885e-38
0.01028506 -0.11379938 -0.025726147 2.2591531e-38
0.012156024 -0.11379938 -0.025726147 2.3142544e-38
0.014026987 -0.11379938 -0.025726147 2.3325494e-38
-0.021692652 -0.11246057 -0.012696572 2.249754e-38
-0.019844536 -0.11246057 -0.012696572 2.3509886e-38
-0.018112909 -0.11073773 -0.0057029203 2.3325494e-38
-0.016277052 -0.11073773 -0.0057029203 2.2774125e-38
-0.014502303 -0.10999118 -0.0026723817 1.7983208e-38
-0.01267176 -0.10999118 -0.0026723817 1.4391917e-38
-0.010769485 -0.11073773 -0.0057029203 1.4857233e-38
-0.0089336289 -0.11073773 -0.0057029203 1.384742e-38
-0.0070977723 -0.11073773 -0.0057029203 1.4585341e-38
-0.0052619176 -0.11073773 -0.0057029203 1.5410425e-38
-0.0033358792 -0.11146177 -0.0086420253 1.1629383e-38
-0.0013633566 -0.11246057 -0.012696572 1.0246814e-38
0.00058659445 -0.1131943 -0.015675016 8.7724058e-39
0.0024399376 -0.1131943 -0.015675016 9.325937e-39
0.0044061905 -0.11393218 -0.018670388 8.1266637e-39
0.006383623 -0.11467429 -0.021682806 9.4155836e-39
0.0082474975 -0.11467429 -0.021682806 1.2732443e-38
0.010111372 -0.11467429 -0.021682806 1.9090661e-38
0.011975246 -0.11467429 -0.021682806 2.2222754e-38
0.013839121 -0.11467429 -0.021682806 2.3142185e-38
-0.019948764 -0.11257361 -0.0057029203 2.3418042e-38
-0.018163387 -0.11182173 -0.0026723817 2.2680477e-38
-0.016332846 -0.11182173 -0.0026723817 2.3142544e-38
-0.014563057 -0.11107419 0.0003407523 1.8905159e-38
-0.012737799 -0.11107419 0.0003407523 1.6420939e-38
-0.010841218 -0.11182173 -0.0026723817 1.7347939e-38
-0.0090106754 -0.11182173 -0.0026723817 1.3296407e-38
-0.0071801329 -0.11182173 -0.0026723817 1.1360684e-38
-0.0053495904 -0.11182173 -0.0026723817 1.0895771e-38
-0.003426061 -0.11257361 -0.0057029203 9.7880025e-39
-0.0014948705 -0.11330278 -0.0086420253 9.1433632e-39
0.00048476364 -0.1143087 -0.012696572 5.9179623e-39
0.0023328802 -0.1143087 -0.012696572 6.2863917e-39
0.0042932769 -0.11504765 -0.015675016 6.7470027e-39
0.0061466163 -0.11504765 -0.015675016 7.2054459e-39
0.0081233783 -0.11579077 -0.018670388 7.2029025e-39
0.0099819703 -0.11579077 -0.018670388 1.402139e-38
0.011840562 -0.11579077 -0.018670388 1.9550556e-38
0.013699154 -0.11579077 -0.018670388 2.286632e-38
0.015702996 -0.11653815 -0.021682806 2.323402e-38
-0.019993929 -0.11365227 -0.0026723817 2.3509869e-38
-0.018213574 -0.11289944 0.0003407523 2.350987e-38
-0.016388316 -0.11289944 0.0003407523 2.3142537e-38
-0.014563057 -0.11289944 0.0003407523 2.0011861e-38
-0.012737799 -0.11289944 0.0003407523 1.6975189e-38
-0.010912539 -0.11289944 0.0003407523 1.6243043e-38
-0.0090872785 -0.11289944 0.0003407523 1.2652479e-38
-0.0071801329 -0.11365227 -0.0026723817 9.9791901e-39
-0.0053495904 -0.11365227 -0.0026723817 9.6990327e-39
-0.003426061 -0.11440946 -0.0057029203 9.7905234e-39
-0.0014948705 -0.11514379 -0.0086420253 1.0067824e-38
0.00048476364 -0.1161568 -0.012696572 6.1967282e-39
0.0023328802 -0.1161568 -0.012696572 5.4602534e-39
0.0041810004 -0.1161568 -0.012696572 6.5658778e-39
0.0061466163 -0.11690097 -0.015675016 7.3012709e-39
0.0081233783 -0.11764936 -0.018670388 6.744116e-39
0.0099819703 -0.11764936 -0.018670388 8.9531775e-39
0.011840562 -0.11764936 -0.018670388 1.5311044e-38
0.013699154 -0.11764936 -0.018670388 2.1116064e-38
0.015557746 -0.11764936 -0.018670388 2.2958514e-38
-0.019993929 -0.11548282 -0.0026723817 2.3233999e-38
-0.018213574 -0.11472471 0.0003407523 2.3233999e-38
-0.016443469 -0.11397095 0.0033364818 2.3050698e-38
-0.01462346 -0.11397095 0.0033364818 2.2775202e-38
-0.012803455 -0.11397095 0.0033364818 2.1489505e-38
-0.010912539 -0.11472471 0.0003407523 1.7714205e-38
-0.0090872785 -0.11472471 0.0003407523 1.4307662e-38
-0.0071801329 -0.11548282 -0.0026723817 1.0713856e-38
-0.0052619176 -0.11624531 -0.0057029203 1.0528782e-38
-0.003426061 -0.11624531 -0.0057029203 8.2242795e-39
-0.0014948705 -0.1169848 -0.0086420253 8.4097624e-39
0.00048476364 -0.11800493 -0.012696572 6.7517012e-39
0.0023328802 -0.11800493 -0.012696572 6.9364484e-39
0.0041810004 -0.11800493 -0.012696572 6.1981771e-39
0.0061466163 -0.11875431 -0.015675016 5.5513588e-39
0.0079999557 -0.11875431 -0.015675016 4.9030901e-39
0.0099819703 -0.11950795 -0.018670388 5.6363139e-39
0.011840562 -0.11950795 -0.018670388 1.1071868e-38
0.013699154 -0.11950795 -0.018670388 1.7338253e-38
0.015557746 -0.11950795 -0.018670388 2.1761065e-38
-0.020231504 -0.11327456 0.013268761 2.3509873e-38
-0.018428914 -0.11327456 0.013268761 2.3509874e-38
-0.016626321 -0.11327456 0.013268761 2.3418043e-38
-0.014702748 -0.11479472 0.0072687194 2.2865958e-38
-0.012889636 -0.11479472 0.0072687194 2.2591172e-38
-0.010983448 -0.11579098 0.0033364818 2.2499695e-38
-0.0091634402 -0.11579098 0.0033364818 1.9736727e-38
-0.0072620204 -0.11654995 0.0003407523 1.3655439e-38
-0.0053495904 -0.11731337 -0.0026723817 1.0526951e-38
-0.003519048 -0.11731337 -0.0026723817 8.7781526e-39
-0.0015902044 -0.11808117 -0.0057029203 7.4881719e-39
0.00034613814 -0.11882581 -0.0086420253 6.935731e-39
0.0021871468 -0.11882581 -0.0086420253 7.6740022e-39
0.0041810004 -0.11985306 -0.012696572 5.1850874e-39
0.0060291169 -0.11985306 -0.012696572 5.4609358e-39
0.0079999557 -0.12060766 -0.015675016 5.7353507e-39
0.0098532988 -0.12060766 -0.015675016 5.0853023e-39
0.011706638 -0.12060766 -0.015675016 1.0520875e-38
0.013699154 -0.12136655 -0.018670388 1.3467511e-38
0.015557746 -0.12136655 -0.018670388 1.9459079e-38
0.017416339 -0.12136655 -0.018670388 2.2315665e-38
-0.0202766 -0.11430521 0.016294651 2.3509879e-38
-0.018479314 -0.11430521 0.016294651 2.3048542e-38
-0.016682029 -0.11430521 0.016294651 2.3509883e-38
-0.014764476 -0.11582683 0.010330133 2.3509886e-38
-0.012956732 -0.11582683 0.010330133 2.3234379e-38
-0.011076524 -0.11660783 0.0072687194 2.286632e-38
-0.0092634102 -0.11660783 0.0072687194 2.203656e-38
-0.0073434347 -0.11761098 0.0033364818 1.9182836e-38
-0.0054367604 -0.11837523 0.0003407523 1.3751976e-38
-0.0036115022 -0.11837523 0.0003407523 1.0160349e-38
-0.0016885074 -0.11914389 -0.0026723817 9.3309872e-39
0.00024564844 -0.11991702 -0.0057029203 8.225374e-39
0.002081505 -0.11991702 -0.0057029203 7.2130269e-39
0.0040281555 -0.12066682 -0.0086420253 4.2631157e-39
0.0060291169 -0.12170117 -0.012696572 4.9077424e-39
0.0078772372 -0.12170117 -0.012696572 6.6576559e-39
0.0098532988 -0.12246101 -0.015675016 9.6958041e-39
0.011706638 -0.12246101 -0.015675016 1.31027e-38
0.013559978 -0.12246101 -0.015675016 1.4298355e-38
0.015413317 -0.12246101 -0.015675016 1.7983972e-38
0.017266661 -0.12246101 -0.015675016 2.0841275e-38
0.019274931 -0.12322514 -0.018670388 2.1301883e-38
-0.0202766 -0.1161025 0.016294651 2.350988e-38
-0.018479314 -0.1161025 0.016294651 2.31411e-38
-0.016682029 -0.1161025 0.016294651 2.3509883e-38
-0.014764476 -0.11763458 0.010330133 2.341805e-38
-0.012956732 -0.11763458 0.010330133 2.2958154e-38
-0.011076524 -0.11842094 0.0072687194 2.3050708e-38
-0.0092634102 -0.11842094 0.0072687194 2.3142544e-38
-0.0074502984 -0.11842094 0.0072687194 2.2224189e-38
-0.0055234274 -0.11943097 0.0033364818 1.6239446e-38
-0.0037034201 -0.11943097 0.0033364818 9.236216e-39
-0.0017862404 -0.12020047 0.0003407523 8.5908914e-39
3.9017759e-05 -0.12020047 0.0003407523 7.7629497e-39
0.0018642759 -0.12020047 0.0003407523 7.0264636e-39
0.0038031219 -0.12097444 -0.0026723817 4.9988674e-39
0.0057532182 -0.12175287 -0.0057029203 5.8278924e-39
0.0077101728 -0.12250783 -0.0086420253 9.0525759e-39
0.0095511852 -0.12250783 -0.0086420253 1.3750212e-38
0.01157347 -0.1235493 -0.012696572 1.4668567e-38
0.013559978 -0.12431435 -0.015675016 1.4665697e-38
0.015413317 -0.12431435 -0.015675016 1.5400719e-38
0.017266661 -0.12431435 -0.015675016 1.8166543e-38
0.018965945 -0.1235493 -0.012696572 2.1393001e-38
0.020814061 -0.1235493 -0.012696572 2.2037995e-38
-0.016572222 -0.11944233 0.010330133 2.3325856e-38
-0.014764476 -0.11944233 0.010330133 2.2036197e-38
-0.012889636 -0.12023406 0.0072687194 2.2128756e-38
-0.011076524 -0.12023406 0.0072687194 2.2958873e-38
-0.0092634102 -0.12023406 0.0072687194 2.2958873e-38
-0.0074502984 -0.12023406 0.0072687194 2.1856129e-38
-0.0055234274 -0.121251 0.0033364818 2.0017626e-38
-0.0037034201 -0.121251 0.0033364818 9.7872136e-39
-0.0018834146 -0.121251 0.0033364818 8.7734624e-39
-6.3405372e-05 -0.121251 0.0033364818 9.235542e-39
0.0018642759 -0.12202574 0.0003407523 1.0067101e-38
0.003689534 -0.12202574 0.0003407523 9.5142813e-39
0.0056336625 -0.12280498 -0.0026723817 9.8826896e-39
0.0075890748 -0.12358873 -0.0057029203 1.2922975e-38
0.0095511852 -0.12434883 -0.0086420253 1.4118271e-38
0.011392194 -0.12434883 -0.0086420253 1.4206878e-38
0.01342159 -0.1253974 -0.012696572 1.4756815e-38
0.015269707 -0.1253974 -0.012696572 1.3833033e-38
0.017117828 -0.1253974 -0.012696572 1.6690341e-38
0.018965945 -0.1253974 -0.012696572 2.2129483e-38
0.020814061 -0.1253974 -0.012696572 2.2313149e-38
-0.012803455 -0.123071 0.0033364818 2.1669221e-38
-0.011076524 -0.12204717 0.0072687194 2.2775202e-38
-0.0092634102 -0.12204717 0.0072687194 2.2775202e-38
-0.0074502984 -0.12204717 0.0072687194 2.1579905e-38
-0.0056371866 -0.12204717 0.0072687194 2.1489505e-38
-0.0037034201 -0.123071 0.0033364818 1.1351996e-38
-0.0018834146 -0.123071 0.0033364818 1.0338245e-38
-6.3405372e-05 -0.123071 0.0033364818 1.1169108e-38
0.0017566001 -0.123071 0.0033364818 1.2461645e-38
0.003689534 -0.12385099 0.0003407523 1.1633325e-38
0.0056336625 -0.12463553 -0.0026723817 1.0802837e-38
0.0075890748 -0.12542458 -0.0057029203 1.2552393e-38
0.0094249276 -0.12542458 -0.0057029203 1.2733197e-38
0.011392194 -0.12618984 -0.0086420253 1.2638124e-38
0.013233203 -0.12618984 -0.0086420253 1.4018528e-38
0.015074211 -0.12618984 -0.0086420253 1.2541578e-38
0.017117828 -0.12724553 -0.012696572 1.512194e-38
0.018965945 -0.12724553 -0.012696572 2.1391212e-38
0.021133523 -0.12880091 -0.018670388 2.2128407e-38
-0.012803455 -0.124891 0.0033364818 2.1485552e-38
-0.011076524 -0.12386028 0.0072687194 2.1025297e-38
-0.0092634102 -0.12386028 0.0072687194 2.1486275e-38
-0.0074502984 -0.12386028 0.0072687194 2.2316024e-38
-0.0056371866 -0.12386028 0.0072687194 2.1948682e-38
-0.0038240748 -0.12386028 0.0072687194 1.595924e-38
-0.0020109611 -0.12386028 0.0072687194 1.5314628e-38
-0.0001978511 -0.12386028 0.0072687194 1.5592303e-38
0.0016152626 -0.12386028 0.0072687194 1.6055426e-38
0.0034283726 -0.12386028 0.0072687194 1.4120424e-38
0.0053966148 -0.124891 0.0033364818 1.2737136e-38
0.0074642068 -0.12646608 -0.0026723817 1.3288515e-38
0.0092947474 -0.12646608 -0.0026723817 1.3101614e-38
0.011260784 -0.12726043 -0.0057029203 1.282179e-38
0.013233203 -0.12803085 -0.0086420253 1.3833418e-38
0.015074211 -0.12803085 -0.0086420253 1.1988048e-38
0.017117828 -0.12909363 -0.012696572 1.3093287e-38
0.018965945 -0.12909363 -0.012696572 1.8809032e-38
0.021133523 -0.13065951 -0.018670388 2.0929512e-38
-0.014563057 -0.1275015 0.0003407523 2.010334e-38
-0.012803455 -0.126711 0.0033364818 2.0379927e-38
-0.011076524 -0.1256734 0.0072687194 1.9919311e-38
-0.0092634102 -0.1256734 0.0072687194 2.0656876e-38
-0.0075334972 -0.12486555 0.010330133 2.2499695e-38
-0.0057257535 -0.12486555 0.010330133 2.1396234e-38
-0.0038240748 -0.1256734 0.0072687194 1.798609e-38
-0.0021102661 -0.12486555 0.010330133 1.6512433e-38
-0.00030252058 -0.12486555 0.010330133 1.577633e-38
0.001505225 -0.12486555 0.010330133 1.6330933e-38
0.0033129705 -0.12486555 0.010330133 1.4119706e-38
0.0052414862 -0.1256734 0.0072687194 1.3197748e-38
0.0072166203 -0.126711 0.0033364818 1.2734975e-38
0.0091653122 -0.1275015 0.0003407523 1.3746617e-38
0.011125292 -0.1282966 -0.0026723817 1.3190928e-38
0.013233203 -0.12987186 -0.0086420253 1.3465354e-38
0.015074211 -0.12987186 -0.0086420253 1.1988414e-38
0.017117828 -0.13094176 -0.012696572 1.1895115e-38
0.018965945 -0.13094176 -0.012696572 1.6504874e-38
0.021294616 -0.13331302 -0.021682806 2.0008646e-38
-0.014563057 -0.12932678 0.0003407523 1.8351985e-38
-0.012803455 -0.12853102 0.0033364818 1.908955e-38
-0.011076524 -0.12748651 0.0072687194 2.0103705e-38
-0.0093412427 -0.1266733 0.010330133 2.0564683e-38
-0.00761336 -0.12589271 0.013268761 2.1394798e-38
-0.0058107683 -0.12589271 0.013268761 2.1948322e-38
-0.0040081749 -0.12589271 0.013268761 1.9921108e-38
-0.0022055851 -0.12589271 0.013268761 1.6880483e-38
-0.00040299166 -0.12589271 0.013268761 1.5314258e-38
0.001505225 -0.1266733 0.010330133 1.6330574e-38
0.0033129705 -0.1266733 0.010330133 1.4764348e-38
0.0052414862 -0.12748651 0.0072687194 1.4303374e-38
0.0072166203 -0.12853102 0.0033364818 1.2827527e-38
0.0090366257 -0.12853102 0.0033364818 1.0797431e-38
0.010990574 -0.12932678 0.0003407523 1.0241744e-38
0.013096641 -0.13093217 -0.0057029203 1.0423978e-38
0.015074211 -0.13171287 -0.0086420253 1.005267e-38
0.017117828 -0.13278987 -0.012696572 9.8679017e-39
0.01912 -0.13358103 -0.015675016 1.3924487e-38
0.021294616 -0.13517688 -0.021682806 1.8534606e-38
0.023158491 -0.13517688 -0.021682806 1.9179953e-38
-0.011076524 -0.1292996 0.0072687194 2.0104428e-38
-0.0094159516 -0.12769531 0.013268761 2.1026381e-38
-0.0076955939 -0.12688623 0.016294651 2.1394798e-38
-0.0058983071 -0.12688623 0.016294651 2.2040516e-38
-0.0041010203 -0.12688623 0.016294651 2.1395874e-38
-0.0023037316 -0.12688623 0.016294651 1.9184643e-38
-0.00040299166 -0.12769531 0.013268761 1.5682672e-38
0.001505225 -0.12848105 0.010330133 1.5592657e-38
0.0033129705 -0.12848105 0.010330133 1.4395567e-38
0.0052414862 -0.1292996 0.0072687194 1.3196669e-38
0.0072166203 -0.13035102 0.0033364818 1.1076173e-38
0.0090366257 -0.13035102 0.0033364818 9.6917992e-39
0.010990574 -0.13115202 0.0003407523 9.9658749e-39
0.013096641 -0.13276802 -0.0057029203 9.9633624e-39
0.015269707 -0.134638 -0.012696572 9.5009423e-39
0.017117828 -0.134638 -0.012696572 9.3165384e-39
0.01912 -0.13543437 -0.015675016 1.1529213e-38
0.021294616 -0.13704078 -0.021682806 1.6415913e-38
0.023158491 -0.13704078 -0.021682806 1.8997005e-38
0.025022365 -0.13704078 -0.021682806 1.825762e-38
-0.0094159516 -0.1294979 0.013268761 2.121077e-38
-0.0076955939 -0.12868352 0.016294651 2.1672099e-38
-0.0058983071 -0.12868352 0.016294651 2.1486624e-38
-0.0041010203 -0.12868352 0.016294651 2.2316024e-38
-0.0023037316 -0.12868352 0.016294651 2.0751592e-38
-0.0005064467 -0.12868352 0.016294651 1.5129849e-38
0.001505225 -0.13028879 0.010330133 1.420972e-38
0.0033129705 -0.13028879 0.010330133 1.4487763e-38
0.0052414862 -0.13111271 0.0072687194 1.3750922e-38
0.0072166203 -0.13217102 0.0033364818 1.070739e-38
0.0090366257 -0.13217102 0.0033364818 9.3230138e-39
0.010990574 -0.13297729 0.0003407523 9.4137773e-39
0.013096641 -0.13460387 -0.0057029203 9.596019e-39
0.015074211 -0.13539489 -0.0086420253 9.4101886e-39
0.017117828 -0.13648613 -0.012696572 8.8559246e-39
0.019274931 -0.13809387 -0.018670388 1.0607982e-38
0.021294616 -0.13890465 -0.021682806 1.5403203e-38
0.023158491 -0.13890465 -0.021682806 1.8905889e-38
0.025022365 -0.13890465 -0.021682806 1.9087379e-38
-0.0076955939 -0.13048081 0.016294651 2.1948682e-38
-0.0058983071 -0.13048081 0.016294651 2.1117843e-38
-0.0041010203 -0.13048081 0.016294651 2.2499695e-38
-0.0023037316 -0.13048081 0.016294651 2.130404e-38
-0.0005064467 -0.13048081 0.016294651 1.522168e-38
0.001505225 -0.13209651 0.010330133 1.3287761e-38
0.0033129705 -0.13209651 0.010330133 1.3381415e-38
0.0051207123 -0.13209651 0.010330133 1.3289944e-38
0.0072166203 -0.13399105 0.0033364818 1.0616274e-38
0.0090366257 -0.13399105 0.0033364818 8.9553089e-39
0.011125292 -0.13561879 -0.0026723817 8.6769256e-39
0.013233203 -0.13723589 -0.0086420253 8.6747788e-39
0.015074211 -0.13723589 -0.0086420253 8.3967528e-39
0.017117828 -0.13833423 -0.012696572 7.1049307e-39
0.01912 -0.13914107 -0.015675016 9.4098005e-39
0.021133523 -0.13995247 -0.018670388 1.4666357e-38
0.023158491 -0.14076851 -0.021682806 1.9736367e-38
0.025022365 -0.14076851 -0.021682806 2.0378474e-38
0.027123727 -0.14186381 -0.025726147 2.2773391e-38
0.028994694 -0.14186381 -0.025726147 2.3509879e-38
-0.0058107683 -0.13310309 0.013268761 2.1762133e-38
-0.0040081749 -0.13310309 0.013268761 2.0933454e-38
-0.0023037316 -0.1322781 0.016294651 2.0012951e-38
-0.0005064467 -0.1322781 0.016294651 1.6235829e-38
0.0013996018 -0.13310309 0.013268761 1.3932769e-38
0.0033129705 -0.13390426 0.010330133 1.1813727e-38
0.0051207123 -0.13390426 0.010330133 1.1998126e-38
0.0070545999 -0.13473894 0.0072687194 1.1260561e-38
0.0090366257 -0.13581105 0.0033364818 9.5999525e-39
0.011260784 -0.13827558 -0.0057029203 8.4006904e-39
0.01342159 -0.14018236 -0.012696572 7.7528141e-39
0.015269707 -0.14018236 -0.012696572 6.73723e-39
0.017117828 -0.14018236 -0.012696572 5.1688225e-39
0.01912 -0.14099441 -0.015675016 8.7655087e-39
0.021133523 -0.14181106 -0.018670388 1.4851103e-38
0.023158491 -0.14263238 -0.021682806 2.1211487e-38
0.025252767 -0.14373477 -0.025726147 2.1575935e-38
0.027123727 -0.14373477 -0.025726147 2.3233648e-38
0.028994694 -0.14373477 -0.025726147 2.3509879e-38
0.030865654 -0.14373477 -0.025726147 9.7730885e-39
-0.0058107683 -0.13490568 0.013268761 2.2314947e-38
-0.0040081749 -0.13490568 0.013268761 1.9825309e-38
-0.0023037316 -0.13407536 0.016294651 1.9182827e-38
-0.0005064467 -0.13407536 0.016294651 1.7617322e-38
0.0013996018 -0.13490568 0.013268761 1.5314261e-38
0.0033129705 -0.13571201 0.010330133 1.1628256e-38
0.0051207123 -0.13571201 0.010330133 1.1352397e-38
0.0070545999 -0.13655205 0.0072687194 1.12602e-38
0.0090366257 -0.13763104 0.0033364818 1.033715e-38
0.011125292 -0.13927986 -0.0026723817 9.0460514e-39
0.01342159 -0.14203046 -0.012696572 7.9364781e-39
0.015269707 -0.14203046 -0.012696572 6.1840464e-39
0.017117828 -0.14203046 -0.012696572 4.9837054e-39
0.019274931 -0.14366965 -0.018670388 1.0424304e-38
0.021133523 -0.14366965 -0.018670388 1.5957082e-38
0.023381803 -0.14560573 -0.025726147 2.1948682e-38
0.025252767 -0.14560573 -0.025726147 2.268228e-38
0.027123727 -0.14560573 -0.025726147 2.332548e-38
0.028994694 -0.14560573 -0.025726147 2.1389375e-38
-0.0058107683 -0.13670824 0.013268761 2.286632e-38
-0.0040081749 -0.13670824 0.013268761 2.0192652e-38
-0.0022055851 -0.13670824 0.013268761 1.9642364e-38
-0.00040299166 -0.13670824 0.013268761 1.8261248e-38
0.0013996018 -0.13670824 0.013268761 1.5866353e-38
0.0033129705 -0.13751976 0.010330133 1.2272544e-38
0.0051207123 -0.13751976 0.010330133 1.1627543e-38
0.0070545999 -0.13836516 0.0072687194 1.0153126e-38
0.0090366257 -0.13945107 0.0033364818 1.0152393e-38
0.011125292 -0.14111041 -0.0026723817 9.5977776e-39
0.013233203 -0.14275892 -0.0086420253 8.304892e-39
0.015074211 -0.14275892 -0.0086420253 6.6435812e-39
0.017117828 -0.14387859 -0.012696572 6.0896886e-39
0.019274931 -0.14552824 -0.018670388 1.3741903e-38
0.021294616 -0.14636014 -0.021682806 1.7431484e-38
0.023381803 -0.14747669 -0.025726147 2.1579538e-38
0.025252767 -0.14747669 -0.025726147 2.3234372e-38
0.027123727 -0.14747669 -0.025726147 2.1112785e-38
-0.0058107683 -0.13851084 0.013268761 2.3234379e-38
-0.0040081749 -0.13851084 0.013268761 2.0099738e-38
-0.0022055851 -0.13851084 0.013268761 1.9825314e-38
-0.00040299166 -0.13851084 0.013268761 1.8444557e-38
0.0013996018 -0.13851084 0.013268761 1.568088e-38
0.0033129705 -0.13932751 0.010330133 1.1902319e-38
0.0051207123 -0.13932751 0.010330133 1.0704865e-38
0.0070545999 -0.14017828 0.0072687194 8.76911e-39
0.0090366257 -0.14127107 0.0033364818 8.8605671e-39
0.011125292 -0.14294095 -0.0026723817 8.7672897e-39
0.013233203 -0.14459993 -0.0086420253 7.7506309e-39
0.015074211 -0.14459993 -0.0086420253 6.1811556e-39
0.017117828 -0.1457267 -0.012696572 6.9183605e-39
0.019274931 -0.14738683 -0.018670388 1.6599958e-38
0.021294616 -0.14822401 -0.021682806 1.8906603e-38
0.023381803 -0.14934768 -0.025726147 2.0841605e-38
0.025252767 -0.14934768 -0.025726147 2.2035823e-38
0.027123727 -0.14934768 -0.025726147 1.6225338e-38
-0.0039180079 -0.14113526 0.010330133 1.9454368e-38
-0.0021102661 -0.14113526 0.010330133 1.9088111e-38
-0.00030252058 -0.14113526 0.010330133 1.844456e-38
0.001505225 -0.14113526 0.010330133 1.5403573e-38
0.0033129705 -0.14113526 0.010330133 1.06105e-38
0.0051207123 -0.14113526 0.010330133 9.4126843e-39
0.0070545999 -0.14199139 0.0072687194 8.0297471e-39
0.0091653122 -0.14392884 0.0003407523 7.2921652e-39
0.011125292 -0.1447715 -0.0026723817 7.5676675e-39
0.013233203 -0.14644094 -0.0086420253 6.6428414e-39
0.015074211 -0.14644094 -0.0086420253 4.8904055e-39
0.017117828 -0.14757483 -0.012696572 6.7335993e-39
0.019274931 -0.14924543 -0.018670388 1.8350229e-38
-0.0038240748 -0.14380451 0.0072687194 2.1116769e-38
-0.0021102661 -0.14294298 0.010330133 1.8997004e-38
-0.00030252058 -0.14294298 0.010330133 1.5956005e-38
0.001505225 -0.14294298 0.010330133 1.4574533e-38
0.0033129705 -0.14294298 0.010330133 9.5967043e-39
0.0052414862 -0.14380451 0.0072687194 9.9647791e-39
0.0070545999 -0.14380451 0.0072687194 8.3052578e-39
0.0091653122 -0.14575411 0.0003407523 5.8152499e-39
0.011260784 -0.14745484 -0.0057029203 7.8421076e-39
0.013233203 -0.14828195 -0.0086420253 7.0105435e-39
0.015074211 -0.14828195 -0.0086420253 7.7473826e-39
0.017117828 -0.14942293 -0.012696572 9.0377543e-39
-0.0037034201 -0.14673109 0.0033364818 2.0287732e-38
-0.0020109611 -0.14561762 0.0072687194 1.7707345e-38
-0.00030252058 -0.14475073 0.010330133 1.5219164e-38
0.001505225 -0.14475073 0.010330133 1.4390141e-38
0.0033129705 -0.14475073 0.010330133 8.1215714e-39
0.0052414862 -0.14561762 0.0072687194 7.475853e-39
0.0070545999 -0.14561762 0.0072687194 6.7375719e-39
0.0091653122 -0.14757936 0.0003407523 7.0127141e-39
0.011125292 -0.14843257 -0.0026723817 6.7343209e-39
-0.0021102661 -0.14655848 0.010330133 1.7615148e-38
-0.00030252058 -0.14655848 0.010330133 1.5311712e-38
0.001505225 -0.14655848 0.010330133 1.4574887e-38
0.0033129705 -0.14655848 0.010330133 7.7524245e-39
0.0052414862 -0.14743073 0.0072687194 7.0145077e-39
0.0070545999 -0.14743073 0.0072687194 8.0279436e-39
0.0091653122 -0.14940463 0.0003407523 7.3811295e-39
-0.0021102661 -0.14836623 0.010330133 1.6139295e-38
-0.00030252058 -0.14836623 0.010330133 1.30061e-38
0.001505225 -0.14836623 0.010330133 1.226927e-38
0.0034283726 -0.14924385 0.0072687194 6.0925346e-39
0.0052414862 -0.14924385 0.0072687194 5.7234018e-39
-0.036396969 -0.14040978 0.079275183 2.3509883e-38
-0.034710109 -0.14040978 0.079275183 2.3509883e-38
-0.033023246 -0.14040978 0.079275183 2.341805e-38
-0.031336386 -0.14040978 0.079275183 2.3142544e-38
-0.036396969 -0.14209662 0.079275183 2.3416971e-38
-0.034710109 -0.14209662 0.079275183 2.3509886e-38
-0.033023246 -0.14209662 0.079275183 2.341805e-38
-0.031336386 -0.14209662 0.079275183 2.3142544e-38
-0.029668026 -0.1411901 0.082289986 2.1485182e-38
-0.027986452 -0.1411901 0.082289986 2.1301512e-38
-0.036396969 -0.14378349 0.079275183 2.3233302e-38
-0.034710109 -0.14378349 0.079275183 2.3417691e-38
-0.033023246 -0.14378349 0.079275183 2.3233662e-38
-0.031336386 -0.14378349 0.079275183 2.3142544e-38
-0.029668026 -0.14287166 0.082289986 2.0655424e-38
-0.027986452 -0.14287166 0.082289986 2.0102612e-38
-0.038096912 -0.14698361 0.074300759 2.3417333e-38
-0.036396969 -0.14547037 0.079275183 2.3509527e-38
-0.034710109 -0.14547037 0.079275183 2.3509527e-38
-0.033023246 -0.14547037 0.079275183 2.3049273e-38
-0.031336386 -0.14547037 0.079275183 2.3142544e-38
-0.029668026 -0.14455326 0.082289986 2.0286641e-38
-0.027986452 -0.14455326 0.082289986 1.9549438e-38
-0.043207109 -0.14958854 0.071328573 2.3142544e-38
-0.041488077 -0.14867918 0.074300759 2.3234379e-38
-0.039792493 -0.14867918 0.074300759 2.2681212e-38
-0.038096912 -0.14867918 0.074300759 2.3233662e-38
-0.036396969 -0.14715721 0.079275183 2.341805e-38
-0.034710109 -0.14715721 0.079275183 2.3509527e-38
-0.033018176 -0.14774723 0.077346735 2.2496101e-38
-0.031327933 -0.14774723 0.077346735 2.3049991e-38
-0.029637691 -0.14774723 0.077346735 2.0470315e-38
-0.027923416 -0.14867918 0.074300759 2.0010416e-38
