# .PCD v0.7 - Point Cloud Data file format
VERSION 0.7
FIELDS x y z rgb
SIZE 4 4 4 4
TYPE F F F F
COUNT 1 1 1 1
WIDTH 924
HEIGHT 1
VIEWPOINT 0 0 0 1 0 0 0
POINTS 924
DATA ascii
0.007303156 -0.094559789 -0.031436354 2.3509168e-38
0.0092143007 -0.094559789 -0.031436354 2.3509168e-38
0.011125445 -0.094559789 -0.031436354 2.3509168e-38
0.013036589 -0.094559789 -0.031436354 2.3509527e-38
0.014947734 -0.094559789 -0.031436354 2.3509527e-38
0.016858879 -0.094559789 -0.031436354 2.3509886e-38
0.018726313 -0.093909279 -0.02850345 2.3509886e-38
0.020632315 -0.093909279 -0.02850345 2.3417691e-38
0.022538317 -0.093909279 -0.02850345 2.3325497e-38
0.024383152 -0.093236431 -0.025469812 2.3233662e-38
0.026283836 -0.093236431 -0.025469812 2.341805e-38
0.028091222 -0.09236221 -0.021528276 2.3234379e-38
0.029984994 -0.09236221 -0.021528276 2.341805e-38
0.031878769 -0.09236221 -0.021528276 2.3509886e-38
0.033685897 -0.091697961 -0.018533381 2.3509524e-38
0.035267152 -0.089476839 -0.0085192043 2.3415529e-38
0.037138112 -0.089476839 -0.0085192043 2.2955273e-38
0.039009079 -0.089476839 -0.0085192043 2.3509527e-38
0.040734708 -0.088580042 -0.0044758637 2.3509886e-38
0.042598583 -0.088580042 -0.0044758637 2.3509886e-38
0.044462457 -0.088580042 -0.0044758637 2.3509167e-38
0.046492927 -0.089476839 -0.0085192043 2.3509524e-38
0.048190206 -0.088580042 -0.0044758637 2.35088e-38
0.050054081 -0.088580042 -0.0044758637 2.3508797e-38
0.052105822 -0.089476839 -0.0085192043 2.3509516e-38
0.05378183 -0.088580042 -0.0044758637 2.3509876e-38
0.055645697 -0.088580042 -0.0044758637 2.3234374e-38
0.057509571 -0.088580042 -0.0044758637 2.2867037e-38
0.059373446 -0.088580042 -0.0044758637 2.2591531e-38
0.06123732 -0.088580042 -0.0044758637 2.2316024e-38
-0.098886497 -0.10386805 -0.064525634 5.5498664e-39
-0.096917339 -0.10386805 -0.064525634 4.9066662e-39
-0.095547982 -0.10541297 -0.071436554 4.632966e-39
-0.093234576 -0.10453986 -0.0675309 4.9120668e-39
-0.091009863 -0.10386805 -0.064525634 5.0056875e-39
-0.089040704 -0.10386805 -0.064525634 5.2836982e-39
-0.08731129 -0.10453986 -0.0675309 6.6666186e-39
-0.085336857 -0.10453986 -0.0675309 8.5108773e-39
-0.083660312 -0.10541297 -0.071436554 1.0538807e-38
-0.082805581 -0.10879262 -0.086554557 1.1737705e-38
-0.080797784 -0.10879262 -0.086554557 1.2659661e-38
-0.077716477 -0.10541297 -0.071436554 1.3304307e-38
-0.075735204 -0.10541297 -0.071436554 1.3025214e-38
-0.073753916 -0.10541297 -0.071436554 1.3391121e-38
-0.071056418 -0.10297783 -0.060543448 1.3940699e-38
-0.068833314 -0.1020664 -0.056466371 1.3291364e-38
-0.066694878 -0.10140768 -0.053519756 1.4670683e-38
-0.064501472 -0.1005076 -0.049493462 1.9368679e-38
-0.062380649 -0.099830076 -0.046462685 2.2499695e-38
-0.060443155 -0.099830076 -0.046462685 2.2958873e-38
-0.058286108 -0.098941371 -0.042487293 2.3509886e-38
-0.056355581 -0.098941371 -0.042487293 2.3509521e-38
-0.054425061 -0.098941371 -0.042487293 2.3509521e-38
-0.052494541 -0.098941371 -0.042487293 2.3509521e-38
-0.050373718 -0.098059073 -0.038540512 2.3509521e-38
-0.04845012 -0.098059073 -0.038540512 2.3509521e-38
-0.046526514 -0.098059073 -0.038540512 2.3509521e-38
-0.044470191 -0.097368345 -0.035450727 2.3509521e-38
-0.042552009 -0.097368345 -0.035450727 2.350988e-38
-0.04063382 -0.097368345 -0.035450727 2.350988e-38
-0.038715646 -0.097368345 -0.035450727 2.350988e-38
-0.036797464 -0.097368345 -0.035450727 2.350988e-38
-0.034742028 -0.096470937 -0.031436354 2.350988e-38
-0.032830879 -0.096470937 -0.031436354 2.3509879e-38
-0.030919736 -0.096470937 -0.031436354 2.350952e-38
-0.029008592 -0.096470937 -0.031436354 2.3325847e-38
-0.027097447 -0.096470937 -0.031436354 2.3418047e-38
-0.025186302 -0.096470937 -0.031436354 2.3418047e-38
-0.023370178 -0.097368345 -0.035450727 2.3418047e-38
-0.021451997 -0.097368345 -0.035450727 2.332621e-38
-0.019452868 -0.096470937 -0.031436354 2.3418045e-38
-0.017541723 -0.096470937 -0.031436354 2.3418045e-38
-0.015630582 -0.096470937 -0.031436354 2.3418045e-38
-0.013779262 -0.097368345 -0.035450727 2.3141816e-38
-0.01186108 -0.097368345 -0.035450727 2.3418047e-38
-0.0099428985 -0.097368345 -0.035450727 2.3418047e-38
-0.008024713 -0.097368345 -0.035450727 2.3418047e-38
-0.0061309095 -0.098059073 -0.038540512 2.3418047e-38
-0.0042073075 -0.098059073 -0.038540512 2.3418047e-38
-0.0022837073 -0.098059073 -0.038540512 2.3418047e-38
-0.00035198033 -0.097368345 -0.035450727 2.3509883e-38
0.0015697218 -0.096470937 -0.031436354 2.3509886e-38
0.0034808666 -0.096470937 -0.031436354 2.3509527e-38
0.0053920113 -0.096470937 -0.031436354 2.3509527e-38
0.007303156 -0.096470937 -0.031436354 2.3509527e-38
0.0091963019 -0.095815286 -0.02850345 2.3509527e-38
0.011102305 -0.095815286 -0.02850345 2.3509527e-38
0.013036589 -0.096470937 -0.031436354 2.3509527e-38
0.014947734 -0.096470937 -0.031436354 2.3509527e-38
0.016858879 -0.096470937 -0.031436354 2.3509886e-38
0.018726313 -0.095815286 -0.02850345 2.3232944e-38
0.020632315 -0.095815286 -0.02850345 2.3509886e-38
0.022409905 -0.094255984 -0.021528276 2.341805e-38
0.024100639 -0.092004895 -0.011458548 2.2957075e-38
0.025976755 -0.092004895 -0.011458548 2.2958154e-38
0.027852872 -0.092004895 -0.011458548 2.3234379e-38
0.029728988 -0.092004895 -0.011458548 2.3050349e-38
0.031605106 -0.092004895 -0.011458548 2.3233662e-38
0.033396184 -0.091347814 -0.0085192043 2.3139308e-38
0.035267152 -0.091347814 -0.0085192043 2.3509168e-38
0.037138112 -0.091347814 -0.0085192043 2.3509168e-38
0.039009079 -0.091347814 -0.0085192043 2.3508809e-38
0.040734708 -0.090443924 -0.0044758637 2.3232227e-38
0.042598583 -0.090443924 -0.0044758637 2.3509527e-38
0.044462457 -0.090443924 -0.0044758637 2.3509168e-38
0.046492927 -0.091347814 -0.0085192043 2.3508085e-38
0.048363894 -0.091347814 -0.0085192043 2.3509517e-38
0.050234854 -0.091347814 -0.0085192043 2.3509514e-38
0.052105822 -0.091347814 -0.0085192043 2.3509511e-38
0.05378183 -0.090443924 -0.0044758637 2.350987e-38
0.055645697 -0.090443924 -0.0044758637 2.350987e-38
0.057509571 -0.090443924 -0.0044758637 2.3418038e-38
0.059373446 -0.090443924 -0.0044758637 2.3142534e-38
0.06123732 -0.090443924 -0.0044758637 2.2958863e-38
-0.098886497 -0.10583721 -0.064525634 2.5088553e-39
-0.096917339 -0.10583721 -0.064525634 2.8794441e-39
-0.095547982 -0.10739426 -0.071436554 4.356019e-39
-0.093234576 -0.10651429 -0.0675309 4.7258777e-39
-0.090678208 -0.10494001 -0.060543448 4.2652498e-39
-0.088716023 -0.10494001 -0.060543448 6.3875346e-39
-0.086753853 -0.10494001 -0.060543448 6.8481386e-39
-0.084791668 -0.10494001 -0.060543448 1.0260076e-38
-0.081986703 -0.1024504 -0.049493462 1.0721398e-38
-0.079818062 -0.10176755 -0.046462685 1.3486897e-38
-0.077880569 -0.10176755 -0.046462685 1.2749332e-38
-0.076444201 -0.10335754 -0.053519756 1.4407051e-38
-0.075464703 -0.10651429 -0.0675309 1.4498169e-38
-0.073490269 -0.10651429 -0.0675309 1.477224e-38
-0.071056418 -0.10494001 -0.060543448 1.4493505e-38
-0.068833314 -0.10402142 -0.056466371 1.3385001e-38
-0.066694878 -0.10335754 -0.053519756 1.3106961e-38
-0.064501472 -0.1024504 -0.049493462 1.5870658e-38
-0.062380649 -0.10176755 -0.046462685 1.9558089e-38
-0.060443155 -0.10176755 -0.046462685 2.1856847e-38
-0.058286108 -0.10087189 -0.042487293 2.2867037e-38
-0.056355581 -0.10087189 -0.042487293 2.3509879e-38
-0.054425061 -0.10087189 -0.042487293 2.3509879e-38
-0.052297316 -0.099982664 -0.038540512 2.3509518e-38
-0.050224744 -0.099286526 -0.035450727 2.3417323e-38
-0.048306562 -0.099286526 -0.035450727 2.3509879e-38
-0.046388373 -0.099286526 -0.035450727 2.3509879e-38
-0.044297747 -0.098382086 -0.031436354 2.3509879e-38
-0.042386599 -0.098382086 -0.031436354 2.3508441e-38
-0.040475458 -0.098382086 -0.031436354 2.3509521e-38
-0.038564317 -0.098382086 -0.031436354 2.3509521e-38
-0.036653168 -0.098382086 -0.031436354 2.3509521e-38
-0.034742028 -0.098382086 -0.031436354 2.3508441e-38
-0.032830879 -0.098382086 -0.031436354 2.3508441e-38
-0.030919736 -0.098382086 -0.031436354 2.3509164e-38
-0.029008592 -0.098382086 -0.031436354 2.350988e-38
-0.027097447 -0.098382086 -0.031436354 2.3234372e-38
-0.025186302 -0.098382086 -0.031436354 2.3142537e-38
-0.023370178 -0.099286526 -0.035450727 2.3142537e-38
-0.021451997 -0.099286526 -0.035450727 2.3142537e-38
-0.019452868 -0.098382086 -0.031436354 2.3142534e-38
-0.017541723 -0.098382086 -0.031436354 2.3142534e-38
-0.015630582 -0.098382086 -0.031436354 2.3234372e-38
-0.013719434 -0.098382086 -0.031436354 2.3234372e-38
-0.011808289 -0.098382086 -0.031436354 2.3234374e-38
-0.0099428985 -0.099286526 -0.035450727 2.3234376e-38
-0.008024713 -0.099286526 -0.035450727 2.3234376e-38
-0.0061065312 -0.099286526 -0.035450727 2.3234379e-38
-0.0041883457 -0.099286526 -0.035450727 2.3234379e-38
-0.002270164 -0.099286526 -0.035450727 2.3234379e-38
-0.00034142286 -0.098382086 -0.031436354 2.341805e-38
0.0015722923 -0.097721294 -0.02850345 2.341805e-38
0.0034782961 -0.097721294 -0.02850345 2.3417691e-38
0.005384298 -0.097721294 -0.02850345 2.3509527e-38
0.0072903 -0.097721294 -0.02850345 2.3509527e-38
0.0091963019 -0.097721294 -0.02850345 2.3509527e-38
0.011102305 -0.097721294 -0.02850345 2.3509527e-38
0.013008307 -0.097721294 -0.02850345 2.341805e-38
0.014879735 -0.097037792 -0.025469812 2.341805e-38
0.016780417 -0.097037792 -0.025469812 2.341805e-38
0.018681102 -0.097037792 -0.025469812 2.341805e-38
0.020516133 -0.096149758 -0.021528276 2.3233662e-38
0.022354769 -0.095475003 -0.018533381 2.341805e-38
0.024100639 -0.093881011 -0.011458548 2.341805e-38
0.025912335 -0.093218774 -0.0085192043 2.341805e-38
0.027783297 -0.093218774 -0.0085192043 2.2957075e-38
0.029654261 -0.093218774 -0.0085192043 2.304927e-38
0.031525224 -0.093218774 -0.0085192043 2.341805e-38
0.033396184 -0.093218774 -0.0085192043 2.3509527e-38
0.035267152 -0.093218774 -0.0085192043 2.3509168e-38
0.037138112 -0.093218774 -0.0085192043 2.3509168e-38
0.039009079 -0.093218774 -0.0085192043 2.3509168e-38
0.040880039 -0.093218774 -0.0085192043 2.3509168e-38
0.042751007 -0.093218774 -0.0085192043 2.3509168e-38
0.044621967 -0.093218774 -0.0085192043 2.3509168e-38
0.046492927 -0.093218774 -0.0085192043 2.3508809e-38
0.048363894 -0.093218774 -0.0085192043 2.3508809e-38
0.050234854 -0.093218774 -0.0085192043 2.3509168e-38
0.052105822 -0.093218774 -0.0085192043 2.3509168e-38
0.053976782 -0.093218774 -0.0085192043 2.3509527e-38
0.055847749 -0.093218774 -0.0085192043 2.3509886e-38
0.057718709 -0.093218774 -0.0085192043 2.3509883e-38
0.059589669 -0.093218774 -0.0085192043 2.3418047e-38
0.061460637 -0.093218774 -0.0085192043 2.3234376e-38
0.063674003 -0.094572589 -0.014528068 2.3234379e-38
0.065555498 -0.094572589 -0.014528068 2.2867037e-38
-0.094602562 -0.1069022 -0.060543448 3.0641983e-39
-0.092640392 -0.1069022 -0.060543448 3.895038e-39
-0.090678208 -0.1069022 -0.060543448 5.0928581e-39
-0.088716023 -0.1069022 -0.060543448 8.0434672e-39
-0.08642859 -0.10597645 -0.056466371 9.4271037e-39
-0.08369305 -0.10370506 -0.046462685 1.237806e-38
-0.081755556 -0.10370506 -0.046462685 1.3392556e-38
-0.079818062 -0.10370506 -0.046462685 1.5881441e-38
-0.077880569 -0.10370506 -0.046462685 1.5696694e-38
-0.075943075 -0.10370506 -0.046462685 1.6894501e-38
-0.074005596 -0.10370506 -0.046462685 1.6063318e-38
-0.072068103 -0.10370506 -0.046462685 1.6061525e-38
-0.071056418 -0.1069022 -0.060543448 1.5783507e-38
-0.068833314 -0.10597645 -0.056466371 1.513743e-38
-0.06644427 -0.1043932 -0.049493462 1.4490979e-38
-0.064318143 -0.10370506 -0.046462685 1.4582804e-38
-0.062380649 -0.10370506 -0.046462685 1.6518899e-38
-0.060443155 -0.10370506 -0.046462685 1.9649925e-38
-0.058505662 -0.10370506 -0.046462685 2.203872e-38
-0.056355581 -0.10280241 -0.042487293 2.3234012e-38
-0.054061107 -0.10120471 -0.035450727 2.3418045e-38
-0.052142926 -0.10120471 -0.035450727 2.3326208e-38
-0.050224744 -0.10120471 -0.035450727 2.3234012e-38
-0.048306562 -0.10120471 -0.035450727 2.350988e-38
-0.046208896 -0.10029322 -0.031436354 2.350988e-38
-0.044297747 -0.10029322 -0.031436354 2.3509523e-38
-0.042386599 -0.10029322 -0.031436354 2.3509523e-38
-0.040475458 -0.10029322 -0.031436354 2.3509523e-38
-0.038564317 -0.10029322 -0.031436354 2.3509164e-38
-0.036653168 -0.10029322 -0.031436354 2.3508804e-38
-0.034742028 -0.10029322 -0.031436354 2.3508807e-38
-0.032830879 -0.10029322 -0.031436354 2.3508807e-38
-0.030919736 -0.10029322 -0.031436354 2.3508807e-38
-0.029008592 -0.10029322 -0.031436354 2.3324775e-38
-0.027097447 -0.10029322 -0.031436354 2.3142539e-38
-0.025186302 -0.10029322 -0.031436354 2.3050701e-38
-0.023370178 -0.10120471 -0.035450727 2.3050701e-38
-0.021364013 -0.10029322 -0.031436354 2.3050701e-38
-0.019452868 -0.10029322 -0.031436354 2.30507e-38
-0.017541723 -0.10029322 -0.031436354 2.30507e-38
-0.015630582 -0.10029322 -0.031436354 2.3142535e-38
-0.013719434 -0.10029322 -0.031436354 2.3142535e-38
-0.011808289 -0.10029322 -0.031436354 2.3234374e-38
-0.0098971445 -0.10029322 -0.031436354 2.3326208e-38
-0.0079284627 -0.09893848 -0.025469812 2.332621e-38
-0.0060277805 -0.09893848 -0.025469812 2.3234018e-38
-0.0041637123 -0.10029322 -0.031436354 2.3233662e-38
-0.0022525676 -0.10029322 -0.031436354 2.3141467e-38
-0.00031536445 -0.098043531 -0.021528276 2.3232944e-38
0.0015784074 -0.098043531 -0.021528276 2.3232944e-38
0.0034756362 -0.09893848 -0.025469812 2.3509527e-38
0.0053763185 -0.09893848 -0.025469812 2.3509527e-38
0.0072770026 -0.09893848 -0.025469812 2.3509527e-38
0.0091776857 -0.09893848 -0.025469812 2.3509527e-38
0.011078369 -0.09893848 -0.025469812 2.3417333e-38
0.012979052 -0.09893848 -0.025469812 2.3325138e-38
0.014834815 -0.098043531 -0.021528276 2.3325497e-38
0.016728587 -0.098043531 -0.021528276 2.3233302e-38
0.018622359 -0.098043531 -0.021528276 2.3417691e-38
0.020516133 -0.098043531 -0.021528276 2.3233302e-38
0.02228103 -0.096454084 -0.014528068 2.3233302e-38
0.024100639 -0.095757127 -0.011458548 2.341769e-38
0.025912335 -0.095089734 -0.0085192043 2.3325494e-38
0.027687592 -0.094171658 -0.0044758637 2.3325494e-38
0.029551465 -0.094171658 -0.0044758637 2.3509886e-38
0.031525224 -0.095089734 -0.0085192043 2.3509886e-38
0.033279214 -0.094171658 -0.0044758637 2.341805e-38
0.035143085 -0.094171658 -0.0044758637 2.3325856e-38
0.037138112 -0.095089734 -0.0085192043 2.3233662e-38
0.039009079 -0.095089734 -0.0085192043 2.3325497e-38
0.040880039 -0.095089734 -0.0085192043 2.3417691e-38
0.042751007 -0.095089734 -0.0085192043 2.3417691e-38
0.044621967 -0.095089734 -0.0085192043 2.3509168e-38
0.046492927 -0.095089734 -0.0085192043 2.3417691e-38
0.048363894 -0.095089734 -0.0085192043 2.3509168e-38
0.050234854 -0.095089734 -0.0085192043 2.3417691e-38
0.052105822 -0.095089734 -0.0085192043 2.3417691e-38
0.053976782 -0.095089734 -0.0085192043 2.3325497e-38
0.055847749 -0.095089734 -0.0085192043 2.3233662e-38
0.057718709 -0.095089734 -0.0085192043 2.3141467e-38
0.059589669 -0.095089734 -0.0085192043 2.3141466e-38
0.061622977 -0.095757127 -0.011458548 2.2958155e-38
0.063674003 -0.096454084 -0.014528068 2.3142185e-38
0.065555498 -0.096454084 -0.014528068 1.5677601e-38
0.067437001 -0.096454084 -0.014528068 6.462022e-39
0.069318496 -0.096454084 -0.014528068 1.0261078e-39
0.071115196 -0.083511502 0.042473525 1.4025162e-39
0.072896756 -0.083511502 0.042473525 1.0330204e-39
-0.11278784 -0.10153329 -0.02850345 6.824657e-39
-0.11088184 -0.10153329 -0.02850345 6.088199e-39
-0.10927666 -0.10220437 -0.031436354 7.2878436e-39
-0.087872587 -0.09603554 -0.0044758637 5.7364325e-39
-0.090338655 -0.10793148 -0.056466371 7.579629e-39
-0.088383622 -0.10793148 -0.056466371 1.0529871e-38
-0.08642859 -0.10793148 -0.056466371 1.2374832e-38
-0.08369305 -0.10564254 -0.046462685 1.3666268e-38
-0.081755556 -0.10564254 -0.046462685 1.4404181e-38
-0.079818062 -0.10564254 -0.046462685 1.5418676e-38
-0.077880569 -0.10564254 -0.046462685 1.5325764e-38
-0.075943075 -0.10564254 -0.046462685 1.5693824e-38
-0.074005596 -0.10564254 -0.046462685 1.6799078e-38
-0.072068103 -0.10564254 -0.046462685 1.6429584e-38
-0.070594616 -0.10725726 -0.053519756 1.5782431e-38
-0.068833314 -0.10793148 -0.056466371 1.5505489e-38
-0.06644427 -0.10633601 -0.049493462 1.5320021e-38
-0.064318143 -0.10564254 -0.046462685 1.3844879e-38
-0.062380649 -0.10564254 -0.046462685 1.4950853e-38
-0.060443155 -0.10564254 -0.046462685 1.9004207e-38
-0.058505662 -0.10564254 -0.046462685 2.148807e-38
-0.056355581 -0.10473295 -0.042487293 2.2591169e-38
-0.054061107 -0.1031229 -0.035450727 2.2958873e-38
-0.052142926 -0.1031229 -0.035450727 2.2958873e-38
-0.050224744 -0.1031229 -0.035450727 2.2958873e-38
-0.048306562 -0.1031229 -0.035450727 2.3142544e-38
-0.046208896 -0.10220437 -0.031436354 2.3050708e-38
-0.044171758 -0.10153329 -0.02850345 2.2958155e-38
-0.042265758 -0.10153329 -0.02850345 2.3234379e-38
-0.040359758 -0.10153329 -0.02850345 2.3234379e-38
-0.038453758 -0.10153329 -0.02850345 2.341805e-38
-0.03654775 -0.10153329 -0.02850345 2.341805e-38
-0.03464175 -0.10153329 -0.02850345 2.3509527e-38
-0.03273575 -0.10153329 -0.02850345 2.3509527e-38
-0.030829744 -0.10153329 -0.02850345 2.3509527e-38
-0.028923744 -0.10153329 -0.02850345 2.3417333e-38
-0.027097447 -0.10220437 -0.031436354 2.3509527e-38
-0.025186302 -0.10220437 -0.031436354 2.3509527e-38
-0.023370178 -0.1031229 -0.035450727 2.3509527e-38
-0.021364013 -0.10220437 -0.031436354 2.3509527e-38
-0.019452868 -0.10220437 -0.031436354 2.3509886e-38
-0.017541723 -0.10220437 -0.031436354 2.3509886e-38
-0.015630582 -0.10220437 -0.031436354 2.3509883e-38
-0.013719434 -0.10220437 -0.031436354 2.350988e-38
-0.011769721 -0.10153329 -0.02850345 2.350988e-38
-0.0098637212 -0.10153329 -0.02850345 2.3509879e-38
-0.0078904536 -0.099937305 -0.021528276 2.3509521e-38
-0.0059966817 -0.099937305 -0.021528276 2.3509521e-38
-0.0041029099 -0.099937305 -0.021528276 2.3509521e-38
-0.0022091363 -0.099937305 -0.021528276 2.3509524e-38
-0.00030748732 -0.099252045 -0.018533381 2.3509165e-38
0.0015810337 -0.099252045 -0.018533381 2.3509165e-38
0.003472181 -0.099937305 -0.021528276 2.3508801e-38
0.0053659528 -0.099937305 -0.021528276 2.3508801e-38
0.0072770026 -0.10083917 -0.025469812 2.3509163e-38
0.0091776857 -0.10083917 -0.025469812 2.3509521e-38
0.011078369 -0.10083917 -0.025469812 2.3509521e-38
0.012979052 -0.10083917 -0.025469812 2.3509521e-38
0.014834815 -0.099937305 -0.021528276 2.3509521e-38
0.016728587 -0.099937305 -0.021528276 2.3509521e-38
0.018577727 -0.099252045 -0.018533381 2.3509521e-38
0.020466248 -0.099252045 -0.018533381 2.3509521e-38
0.022224521 -0.097633243 -0.011458548 2.3509521e-38
0.024041371 -0.096960694 -0.0085192043 2.3509518e-38
0.025912335 -0.096960694 -0.0085192043 2.3509518e-38
0.027687592 -0.09603554 -0.0044758637 2.3509879e-38
0.029551465 -0.09603554 -0.0044758637 2.3509518e-38
0.031525224 -0.096960694 -0.0085192043 2.31411e-38
0.033279214 -0.09603554 -0.0044758637 2.3142544e-38
0.035143085 -0.09603554 -0.0044758637 2.2958873e-38
0.037138112 -0.096960694 -0.0085192043 2.2958873e-38
0.039109573 -0.097633243 -0.011458548 2.2958873e-38
0.040985689 -0.097633243 -0.011458548 2.2958873e-38
0.042861804 -0.097633243 -0.011458548 2.2958873e-38
0.044621967 -0.096960694 -0.0085192043 2.3142544e-38
0.046492927 -0.096960694 -0.0085192043 2.2958873e-38
0.048363894 -0.096960694 -0.0085192043 2.3050349e-38
0.050234854 -0.096960694 -0.0085192043 2.2590454e-38
0.051917955 -0.09603554 -0.0044758637 2.2406066e-38
0.05378183 -0.09603554 -0.0044758637 2.2406066e-38
0.055645697 -0.09603554 -0.0044758637 2.2958514e-38
0.057509571 -0.09603554 -0.0044758637 2.3142544e-38
0.059589669 -0.096960694 -0.0085192043 2.3142544e-38
0.061460637 -0.096960694 -0.0085192043 2.2958873e-38
0.063499093 -0.097633243 -0.011458548 2.2958873e-38
0.065375209 -0.097633243 -0.011458548 1.5770158e-38
0.067251325 -0.097633243 -0.011458548 5.9095671e-39
0.06912744 -0.097633243 -0.011458548 1.3037709e-39
0.069333643 -0.085293055 0.042473525 4.629701e-39
0.071115196 -0.085293055 0.042473525 4.9984975e-39
0.072896756 -0.085293055 0.042473525 3.9836281e-39
0.086056732 -0.092379183 0.011504022 6.1030374e-39
0.08813221 -0.093051672 0.0085649174 6.1055639e-39
-0.11469384 -0.10343929 -0.02850345 9.2210077e-39
-0.11278784 -0.10343929 -0.02850345 9.3143048e-39
-0.11056536 -0.10273984 -0.025469812 7.7480847e-39
-0.10866467 -0.10273984 -0.025469812 6.0907466e-39
-0.089736454 -0.097899407 -0.0044758637 7.3941461e-39
-0.087872587 -0.097899407 -0.0044758637 8.7767274e-39
-0.08600872 -0.097899407 -0.0044758637 8.7756597e-39
-0.087568022 -0.10758002 -0.046462685 1.0988331e-38
-0.085630529 -0.10758002 -0.046462685 1.2095738e-38
-0.083382867 -0.10666345 -0.042487293 1.1451452e-38
-0.081452347 -0.10666345 -0.042487293 1.191277e-38
-0.079521827 -0.10666345 -0.042487293 1.1913119e-38
-0.077880569 -0.10758002 -0.046462685 1.1635807e-38
-0.075660788 -0.10666345 -0.042487293 1.1174828e-38
-0.073730268 -0.10666345 -0.042487293 1.2096071e-38
-0.072068103 -0.10758002 -0.046462685 1.2464135e-38
-0.070594616 -0.10920714 -0.053519756 1.1909885e-38
-0.068833314 -0.10988651 -0.056466371 1.2646364e-38
-0.066878296 -0.10988651 -0.056466371 1.421332e-38
-0.064501472 -0.10827883 -0.049493462 1.4213309e-38
-0.062380649 -0.10758002 -0.046462685 1.6149043e-38
-0.060443155 -0.10758002 -0.046462685 2.0938492e-38
-0.058505662 -0.10758002 -0.046462685 2.1212563e-38
-0.056144521 -0.10575347 -0.038540512 2.1948323e-38
-0.054061107 -0.10504107 -0.035450727 2.2224189e-38
-0.052142926 -0.10504107 -0.035450727 2.2316024e-38
-0.050031178 -0.1041155 -0.031436354 2.2499695e-38
-0.048120037 -0.1041155 -0.031436354 2.2499695e-38
-0.046077766 -0.10343929 -0.02850345 2.2591531e-38
-0.044171758 -0.10343929 -0.02850345 2.2775202e-38
-0.042265758 -0.10343929 -0.02850345 2.2683366e-38
-0.040359758 -0.10343929 -0.02850345 2.2683007e-38
-0.038453758 -0.10343929 -0.02850345 2.2775202e-38
-0.036438711 -0.10273984 -0.025469812 2.2958873e-38
-0.034538031 -0.10273984 -0.025469812 2.3142185e-38
-0.032637343 -0.10273984 -0.025469812 2.3049991e-38
-0.030829744 -0.10343929 -0.02850345 2.2957796e-38
-0.028923744 -0.10343929 -0.02850345 2.3049991e-38
-0.027097447 -0.1041155 -0.031436354 2.3233662e-38
-0.025186302 -0.1041155 -0.031436354 2.3233303e-38
-0.023370178 -0.10504107 -0.035450727 2.3416974e-38
-0.021451997 -0.10504107 -0.035450727 2.3416974e-38
-0.019452868 -0.1041155 -0.031436354 2.3325138e-38
-0.017541723 -0.1041155 -0.031436354 2.3233303e-38
-0.015630582 -0.1041155 -0.031436354 2.3232944e-38
-0.013719434 -0.1041155 -0.031436354 2.3232944e-38
-0.011769721 -0.10343929 -0.02850345 2.3509527e-38
-0.0097842272 -0.10183108 -0.021528276 2.3509167e-38
-0.0078615732 -0.10114056 -0.018533381 2.3508807e-38
-0.0059730522 -0.10114056 -0.018533381 2.3508446e-38
-0.0040845312 -0.10114056 -0.018533381 2.3508444e-38
-0.0021784529 -0.10021709 -0.014528068 2.3508804e-38
-0.00029695407 -0.10021709 -0.014528068 2.3508804e-38
0.0015845448 -0.10021709 -0.014528068 2.3509164e-38
0.0034660436 -0.10021709 -0.014528068 2.3508441e-38
0.0053475425 -0.10021709 -0.014528068 2.3508441e-38
0.0072597247 -0.10183108 -0.021528276 2.3509161e-38
0.0091534983 -0.10183108 -0.021528276 2.3509521e-38
0.011078369 -0.10273984 -0.025469812 2.3509521e-38
0.012979052 -0.10273984 -0.025469812 2.3509521e-38
0.014834815 -0.10183108 -0.021528276 2.3509521e-38
0.016728587 -0.10183108 -0.021528276 2.350988e-38
0.018577727 -0.10114056 -0.018533381 2.350952e-38
0.020399533 -0.10021709 -0.014528068 2.3509883e-38
0.022224521 -0.099509358 -0.011458548 2.3509883e-38
0.023959843 -0.097899407 -0.0044758637 2.3325492e-38
0.025823718 -0.097899407 -0.0044758637 2.3049624e-38
0.027616289 -0.097204864 -0.0014634449 2.3049624e-38
0.029474881 -0.097204864 -0.0014634449 2.2312058e-38
0.03141534 -0.097899407 -0.0044758637 2.0930569e-38
0.033279214 -0.097899407 -0.0044758637 1.9366128e-38
0.035143085 -0.097899407 -0.0044758637 1.8814041e-38
0.037006959 -0.097899407 -0.0044758637 1.8537455e-38
0.039009079 -0.098831654 -0.0085192043 1.8260868e-38
0.040880039 -0.098831654 -0.0085192043 1.8351988e-38
0.042751007 -0.098831654 -0.0085192043 1.8351988e-38
0.044462457 -0.097899407 -0.0044758637 1.8259795e-38
0.046326332 -0.097899407 -0.0044758637 1.8167599e-38
0.048363894 -0.098831654 -0.0085192043 1.7614425e-38
0.050054081 -0.097899407 -0.0044758637 1.7521511e-38
0.051777989 -0.097204864 -0.0014634449 1.7429315e-38
0.053636581 -0.097204864 -0.0014634449 1.7982486e-38
0.055495173 -0.097204864 -0.0014634449 1.8996994e-38
0.057353765 -0.097204864 -0.0014634449 1.9918949e-38
0.059373446 -0.097899407 -0.0044758637 2.0655435e-38
0.061460637 -0.098831654 -0.0085192043 2.056432e-38
0.063499093 -0.099509358 -0.011458548 2.0380294e-38
0.065375209 -0.099509358 -0.011458548 1.7708074e-38
0.067251325 -0.099509358 -0.011458548 1.3655445e-38
0.06912744 -0.099509358 -0.011458548 1.0524776e-38
0.071003556 -0.099509358 -0.011458548 9.1454623e-39
0.069333643 -0.087074608 0.042473525 8.9632473e-39
0.071115196 -0.087074608 0.042473525 9.3323997e-39
0.072896756 -0.087074608 0.042473525 9.7004648e-39
0.074678309 -0.087074608 0.042473525 9.6979453e-39
0.080323339 -0.093516305 0.014534561 9.6025014e-39
0.082153879 -0.093516305 0.014534561 9.2337189e-39
0.08813221 -0.094892681 0.0085649174 7.6725239e-39
0.089973219 -0.094892681 0.0085649174 7.4888515e-39
0.1041204 -0.093516305 0.014534561 9.3302544e-39
0.10595093 -0.093516305 0.014534561 9.8805611e-39
0.10899568 -0.092130885 0.020543424 8.0304912e-39
0.1108157 -0.092130885 0.020543424 1.5735208e-39
0.11263571 -0.092130885 0.020543424 5.5716608e-40
-0.11583548 -0.10372485 -0.021528276 8.9433278e-39
-0.11394171 -0.10372485 -0.021528276 9.5897987e-39
-0.11204793 -0.10372485 -0.021528276 9.4990632e-39
-0.10984173 -0.10302909 -0.018533381 8.4867385e-39
-0.10795321 -0.10302909 -0.018533381 6.8294004e-39
-0.10566088 -0.10209858 -0.014528068 6.6468295e-39
-0.10377938 -0.10209858 -0.014528068 6.8337557e-39
-0.10131317 -0.10070263 -0.0085192043 5.1760406e-39
-0.099442206 -0.10070263 -0.0085192043 6.191996e-39
-0.097571231 -0.10070263 -0.0085192043 6.2852734e-39
-0.093829311 -0.10070263 -0.0085192043 7.6685708e-39
-0.091958351 -0.10070263 -0.0085192043 7.577094e-39
-0.089736454 -0.099763289 -0.0044758637 7.3005072e-39
-0.087872587 -0.099763289 -0.0044758637 8.3135885e-39
-0.08600872 -0.099763289 -0.0044758637 8.8660602e-39
-0.083899237 -0.099063456 -0.0014634449 1.0248983e-38
-0.082040645 -0.099063456 -0.0014634449 1.0618478e-38
-0.080182053 -0.099063456 -0.0014634449 1.0066009e-38
-0.081151329 -0.10767709 -0.038540512 1.0804276e-38
-0.079227723 -0.10767709 -0.038540512 1.1173766e-38
-0.077591307 -0.10859399 -0.042487293 1.1081565e-38
-0.073675402 -0.10209858 -0.014528068 1.0989009e-38
-0.071793906 -0.10209858 -0.014528068 1.1173045e-38
-0.069506787 -0.10070263 -0.0085192043 1.273965e-38
-0.067635827 -0.10070263 -0.0085192043 1.2462347e-38
-0.065764867 -0.10070263 -0.0085192043 1.2922241e-38
-0.063893892 -0.10070263 -0.0085192043 1.495053e-38
-0.062022932 -0.10070263 -0.0085192043 1.5780278e-38
-0.062968232 -0.11184154 -0.056466371 1.6978086e-38
-0.061013199 -0.11184154 -0.056466371 2.0111614e-38
-0.058673054 -0.11022164 -0.049493462 2.1305834e-38
-0.056144521 -0.10767709 -0.038540512 2.158134e-38
-0.054220922 -0.10767709 -0.038540512 2.158134e-38
-0.052142926 -0.10695927 -0.035450727 2.1489505e-38
-0.050031178 -0.10602666 -0.031436354 2.1305475e-38
-0.047983758 -0.10534529 -0.02850345 2.1304399e-38
-0.046077766 -0.10534529 -0.02850345 2.1488429e-38
-0.044041447 -0.10464053 -0.025469812 2.1672817e-38
-0.041978352 -0.10372485 -0.021528276 2.1763935e-38
-0.040084586 -0.10372485 -0.021528276 2.2040159e-38
-0.038339399 -0.10464053 -0.025469812 2.2316024e-38
-0.036297038 -0.10372485 -0.021528276 2.2316024e-38
-0.034403272 -0.10372485 -0.021528276 2.2499695e-38
-0.032509498 -0.10372485 -0.021528276 2.2315307e-38
-0.030736664 -0.10464053 -0.025469812 2.2591172e-38
-0.028923744 -0.10534529 -0.02850345 2.2590813e-38
-0.027097447 -0.10602666 -0.031436354 2.2590454e-38
-0.025186302 -0.10602666 -0.031436354 2.2590454e-38
-0.023275157 -0.10602666 -0.031436354 2.2773767e-38
-0.021364013 -0.10602666 -0.031436354 2.2774125e-38
-0.019452868 -0.10602666 -0.031436354 2.2774484e-38
-0.017541723 -0.10602666 -0.031436354 2.2774843e-38
-0.015630582 -0.10602666 -0.031436354 2.2866678e-38
-0.013571771 -0.10372485 -0.021528276 2.2958514e-38
-0.011638617 -0.10302909 -0.018533381 2.3142185e-38
-0.0097044464 -0.10209858 -0.014528068 2.3142544e-38
-0.0078229476 -0.10209858 -0.014528068 2.3141826e-38
-0.0059172306 -0.10138547 -0.011458548 2.3049991e-38
-0.0040411148 -0.10138547 -0.011458548 2.3233303e-38
-0.002164999 -0.10138547 -0.011458548 2.3325497e-38
-0.00028115138 -0.10070263 -0.0085192043 2.341805e-38
0.0015898123 -0.10070263 -0.0085192043 2.341805e-38
0.0034607761 -0.10070263 -0.0085192043 2.3234379e-38
0.0053317398 -0.10070263 -0.0085192043 2.3234379e-38
0.0072465967 -0.10302909 -0.018533381 2.3234379e-38
0.0091351196 -0.10302909 -0.018533381 2.3234379e-38
0.011078369 -0.10464053 -0.025469812 2.3234379e-38
0.012979052 -0.10464053 -0.025469812 2.286632e-38
0.014834815 -0.10372485 -0.021528276 2.2681931e-38
0.016689204 -0.10302909 -0.018533381 2.2314228e-38
0.018518034 -0.10209858 -0.014528068 2.2591531e-38
0.020299444 -0.10070263 -0.0085192043 2.2867037e-38
0.022095971 -0.099763289 -0.0044758637 2.2591531e-38
0.023899103 -0.099063456 -0.0014634449 2.2130918e-38
0.025626769 -0.097675636 0.004510371 2.1947606e-38
0.027378917 -0.096733689 0.0085649174 2.20398e-38
0.029219925 -0.096733689 0.0085649174 2.1486272e-38
0.031171124 -0.097675636 0.004510371 2.0289171e-38
0.033105411 -0.098367572 0.0015319269 1.9461935e-38
0.03495875 -0.098367572 0.0015319269 1.8910205e-38
0.036812089 -0.098367572 0.0015319269 1.8632902e-38
0.038870834 -0.099763289 -0.0044758637 1.8356315e-38
0.040626429 -0.099063456 -0.0014634449 1.8356318e-38
0.042485021 -0.099063456 -0.0014634449 1.8264122e-38
0.044225447 -0.098367572 0.0015319269 1.8447078e-38
0.045956068 -0.097675636 0.004510371 1.8354883e-38
0.047804184 -0.097675636 0.004510371 1.8262687e-38
0.049652301 -0.097675636 0.004510371 1.8170129e-38
0.051500425 -0.097675636 0.004510371 1.8170129e-38
0.053348541 -0.097675636 0.004510371 1.8723299e-38
0.055345491 -0.098367572 0.0015319269 1.9737451e-38
0.05719883 -0.098367572 0.0015319269 2.0567562e-38
0.059373446 -0.099763289 -0.0044758637 2.1211846e-38
0.061460637 -0.10070263 -0.0085192043 2.1120369e-38
0.063331597 -0.10070263 -0.0085192043 2.1948682e-38
0.063848458 -0.095346853 0.014534561 2.084558e-38
0.065678999 -0.095346853 0.014534561 1.8267011e-38
0.067321993 -0.094646841 0.017547695 1.4859411e-38
0.069147252 -0.094646841 0.017547695 1.1543985e-38
0.069333643 -0.088856161 0.042473525 9.7018843e-39
0.071115196 -0.088856161 0.042473525 9.5171413e-39
0.072896756 -0.088856161 0.042473525 9.885205e-39
0.074678309 -0.088856161 0.042473525 1.0896837e-38
0.07827355 -0.094646841 0.017547695 1.071172e-38
0.080098808 -0.094646841 0.017547695 1.0433333e-38
0.082153879 -0.095346853 0.014534561 9.9723573e-39
0.083984427 -0.095346853 0.014534561 9.4206283e-39
0.086056732 -0.096050888 0.011504022 9.1451246e-39
0.08813221 -0.096733689 0.0085649174 8.5941172e-39
0.089973219 -0.096733689 0.0085649174 8.4100861e-39
0.092159025 -0.097675636 0.004510371 8.1338538e-39
0.093655251 -0.096733689 0.0085649174 8.3186093e-39
0.09549626 -0.096733689 0.0085649174 8.5944942e-39
0.097337268 -0.096733689 0.0085649174 8.5952173e-39
0.099178277 -0.096733689 0.0085649174 8.7799616e-39
0.10074358 -0.096050888 0.011504022 8.7803134e-39
0.10228985 -0.095346853 0.014534561 8.8717859e-39
0.10382719 -0.094646841 0.017547695 9.0547395e-39
0.10565244 -0.094646841 0.017547695 1.0526281e-38
0.10717569 -0.093950883 0.020543424 9.8780205e-39
0.10899568 -0.093950883 0.020543424 8.6762095e-39
0.1108157 -0.093950883 0.020543424 1.7582638e-39
0.11263571 -0.093950883 0.020543424 1.8873528e-40
0.11403169 -0.093037367 0.024475662 1.7531589e-39
-0.11394171 -0.10561861 -0.021528276 8.2997871e-39
-0.11173026 -0.1049176 -0.018533381 6.1811107e-39
-0.10984173 -0.1049176 -0.018533381 6.4595249e-39
-0.10754239 -0.10398008 -0.014528068 6.8312095e-39
-0.10566088 -0.10398008 -0.014528068 6.9252254e-39
-0.10347531 -0.1032616 -0.011458548 5.1753217e-39
-0.10131317 -0.10257359 -0.0085192043 5.914693e-39
-0.099442206 -0.10257359 -0.0085192043 6.6537e-39
-0.097571231 -0.10257359 -0.0085192043 7.115397e-39
-0.095700271 -0.10257359 -0.0085192043 7.2997883e-39
-0.093464203 -0.10162716 -0.0044758637 7.7611224e-39
-0.091600336 -0.10162716 -0.0044758637 7.944792e-39
-0.089736454 -0.10162716 -0.0044758637 7.8525963e-39
-0.087872587 -0.10162716 -0.0044758637 8.3121452e-39
-0.086345457 -0.10257359 -0.0085192043 8.0348576e-39
-0.084474497 -0.10257359 -0.0085192043 9.141208e-39
-0.082040645 -0.10092205 -0.0014634449 8.7738506e-39
-0.080182053 -0.10092205 -0.0014634449 9.4199248e-39
-0.078553222 -0.10162716 -0.0044758637 1.0342586e-38
-0.076990642 -0.10257359 -0.0085192043 1.1634393e-38
-0.075119682 -0.10257359 -0.0085192043 1.181878e-38
-0.073248707 -0.10257359 -0.0085192043 1.264854e-38
-0.071377747 -0.10257359 -0.0085192043 1.292441e-38
-0.069233842 -0.10162716 -0.0044758637 1.46761e-38
-0.067369975 -0.10162716 -0.0044758637 1.5135995e-38
-0.065506108 -0.10162716 -0.0044758637 1.504416e-38
-0.063642226 -0.10162716 -0.0044758637 1.5873549e-38
-0.061778359 -0.10162716 -0.0044758637 1.5780996e-38
-0.059561603 -0.10022092 0.0015319269 1.4674301e-38
-0.057307497 -0.098574698 0.0085649174 1.4673579e-38
-0.055466488 -0.098574698 0.0085649174 1.2827876e-38
-0.053625479 -0.098574698 0.0085649174 1.2458017e-38
-0.051994182 -0.099523753 0.004510371 1.1628254e-38
-0.050294898 -0.10022092 0.0015319269 1.0706297e-38
-0.049889766 -0.1072513 -0.02850345 9.9676532e-39
-0.047983758 -0.1072513 -0.02850345 9.1378897e-39
-0.046077766 -0.1072513 -0.02850345 9.0446151e-39
-0.043743484 -0.1049176 -0.018533381 9.3208404e-39
-0.041689925 -0.10398008 -0.014528068 9.8729352e-39
-0.03980843 -0.10398008 -0.014528068 1.0241355e-38
-0.038077913 -0.1049176 -0.018533381 1.0886005e-38
-0.036045432 -0.10398008 -0.014528068 1.1438456e-38
-0.034058988 -0.1032616 -0.011458548 1.1161869e-38
-0.032182865 -0.1032616 -0.011458548 1.0884919e-38
-0.030523831 -0.1049176 -0.018533381 1.1622484e-38
-0.028923744 -0.1072513 -0.02850345 1.2820674e-38
-0.027097447 -0.1079378 -0.031436354 1.3650802e-38
-0.025186302 -0.1079378 -0.031436354 1.3835917e-38
-0.023275157 -0.1079378 -0.031436354 1.4481283e-38
-0.021364013 -0.1079378 -0.031436354 1.5219203e-38
-0.019452868 -0.1079378 -0.031436354 1.6324824e-38
-0.017230442 -0.10398008 -0.014528068 1.7154937e-38
-0.015348943 -0.10398008 -0.014528068 1.7892135e-38
-0.013527138 -0.1049176 -0.018533381 1.8444939e-38
-0.011585945 -0.10398008 -0.014528068 2.0011886e-38
-0.0096694659 -0.1032616 -0.011458548 2.0104439e-38
-0.0077933483 -0.1032616 -0.011458548 2.0380304e-38
-0.00583837 -0.10092205 -0.0014634449 2.0657246e-38
-0.0039797779 -0.10092205 -0.0014634449 2.1301888e-38
-0.0021211859 -0.10092205 -0.0014634449 2.1855053e-38
-0.00025471672 -0.10022092 0.0015319269 2.240786e-38
0.0015986245 -0.10022092 0.0015319269 2.2499695e-38
0.0034493525 -0.099523753 0.004510371 2.2040518e-38
0.0052974708 -0.099523753 0.004510371 2.2132353e-38
0.0071455892 -0.099523753 0.004510371 2.2316024e-38
0.0091351196 -0.1049176 -0.018533381 2.2224189e-38
0.011078369 -0.1065412 -0.025469812 2.2224189e-38
0.012979052 -0.1065412 -0.025469812 2.2132353e-38
0.014800684 -0.1049176 -0.018533381 2.1948682e-38
0.016689204 -0.1049176 -0.018533381 2.1673176e-38
0.018518034 -0.10398008 -0.014528068 2.1305475e-38
0.020181919 -0.10092205 -0.0014634449 2.1122163e-38
0.021930533 -0.099523753 0.004510371 2.084558e-38
0.023778651 -0.099523753 0.004510371 2.0569356e-38
0.025537908 -0.098574698 0.0085649174 2.066155e-38
0.027309347 -0.097886756 0.011504022 2.1030327e-38
0.029145204 -0.097886756 0.011504022 2.1122163e-38
0.031060934 -0.098574698 0.0085649174 2.0846656e-38
0.033019241 -0.099523753 0.004510371 2.0019419e-38
0.03495875 -0.10022092 0.0015319269 1.9743554e-38
0.036812089 -0.10022092 0.0015319269 1.9650642e-38
0.038665429 -0.10022092 0.0015319269 1.9650642e-38
0.040518768 -0.10022092 0.0015319269 1.9650642e-38
0.042259835 -0.099523753 0.004510371 1.9742837e-38
0.044107951 -0.099523753 0.004510371 1.9834313e-38
0.045956068 -0.099523753 0.004510371 1.9834313e-38
0.047630019 -0.098574698 0.0085649174 2.0294208e-38
0.049471028 -0.098574698 0.0085649174 2.0017626e-38
0.051312037 -0.098574698 0.0085649174 2.0016908e-38
0.053153045 -0.098574698 0.0085649174 2.0109461e-38
0.054994054 -0.098574698 0.0085649174 2.0386044e-38
0.056835063 -0.098574698 0.0085649174 2.0570432e-38
0.058892891 -0.099523753 0.004510371 2.0570432e-38
0.060741015 -0.099523753 0.004510371 2.0478238e-38
0.062017918 -0.097177386 0.014534561 2.0570074e-38
0.063848458 -0.097177386 0.014534561 1.9649566e-38
0.065678999 -0.097177386 0.014534561 1.8453194e-38
0.067321993 -0.096472099 0.017547695 1.707315e-38
0.069147252 -0.096472099 0.017547695 1.5970048e-38
0.070775546 -0.095770895 0.020543424 1.5234288e-38
0.07233011 -0.094850481 0.024475662 1.5049541e-38
0.074143223 -0.094850481 0.024475662 1.4956988e-38
0.076448292 -0.096472099 0.017547695 1.4862641e-38
0.07827355 -0.096472099 0.017547695 1.4676818e-38
0.080098808 -0.096472099 0.017547695 1.43988e-38
0.081924073 -0.096472099 0.017547695 1.3845635e-38
0.083984427 -0.097177386 0.014534561 1.3385022e-38
0.085814975 -0.097177386 0.014534561 1.3017321e-38
0.087645508 -0.097177386 0.014534561 1.2466308e-38
0.089728452 -0.097886756 0.011504022 1.2282279e-38
0.09130659 -0.097177386 0.014534561 1.1822384e-38
0.093137138 -0.097177386 0.014534561 1.173019e-38
0.094967686 -0.097177386 0.014534561 1.1453607e-38
0.096798219 -0.097177386 0.014534561 1.1453607e-38
0.098628767 -0.097177386 0.014534561 1.1270295e-38
0.10017667 -0.096472099 0.017547695 1.1269936e-38
0.10200193 -0.096472099 0.017547695 1.1177024e-38
0.10382719 -0.096472099 0.017547695 1.1175589e-38
0.10565244 -0.096472099 0.017547695 1.0802859e-38
0.10717569 -0.095770895 0.020543424 9.7861752e-39
0.10899568 -0.095770895 0.020543424 8.2155859e-39
0.11040547 -0.094850481 0.024475662 1.2054446e-39
0.11221858 -0.094850481 0.024475662 1.0972167e-42
0.11403169 -0.094850481 0.024475662 1.8583039e-40
-0.11361877 -0.10680611 -0.018533381 7.0097784e-39
-0.11130538 -0.10586159 -0.014528068 3.3241336e-39
-0.10910366 -0.10513772 -0.011458548 3.511071e-39
-0.10722754 -0.10513772 -0.011458548 4.1593425e-39
-0.10535143 -0.10513772 -0.011458548 4.8068923e-39
-0.10347531 -0.10513772 -0.011458548 2.8722373e-39
-0.10131317 -0.10444455 -0.0085192043 3.2431834e-39
-0.099055834 -0.10349102 -0.0044758637 3.5201318e-39
-0.097191952 -0.10349102 -0.0044758637 4.0736629e-39
-0.095700271 -0.10444455 -0.0085192043 4.1658557e-39
-0.093464203 -0.10349102 -0.0044758637 4.1647711e-39
-0.091600336 -0.10349102 -0.0044758637 4.9016145e-39
-0.089736454 -0.10349102 -0.0044758637 5.6384579e-39
-0.087872587 -0.10349102 -0.0044758637 5.3615193e-39
-0.086345457 -0.10444455 -0.0085192043 5.6381258e-39
-0.084474497 -0.10444455 -0.0085192043 6.8363116e-39
-0.082280971 -0.10349102 -0.0044758637 6.2845658e-39
-0.080417089 -0.10349102 -0.0044758637 8.3135773e-39
-0.078553222 -0.10349102 -0.0044758637 8.3146451e-39
-0.07668934 -0.10349102 -0.0044758637 9.8830414e-39
-0.074825473 -0.10349102 -0.0044758637 9.8830386e-39
-0.072961591 -0.10349102 -0.0044758637 1.1726951e-38
-0.071097724 -0.10349102 -0.0044758637 1.0896837e-38
-0.069233842 -0.10349102 -0.0044758637 1.1818794e-38
-0.067369975 -0.10349102 -0.0044758637 1.2464156e-38
-0.065506108 -0.10349102 -0.0044758637 1.2924768e-38
-0.063642226 -0.10349102 -0.0044758637 1.2924768e-38
-0.061596133 -0.10278064 -0.0014634449 1.227904e-38
-0.059561603 -0.10207425 0.0015319269 1.0435479e-38
-0.057307497 -0.10041572 0.0085649174 8.9592732e-39
-0.055466488 -0.10041572 0.0085649174 8.8656567e-39
-0.053842299 -0.10137187 0.004510371 8.1277399e-39
-0.051994182 -0.10137187 0.004510371 7.1139439e-39
-0.050294898 -0.10207425 0.0015319269 6.2841832e-39
-0.048441559 -0.10207425 0.0015319269 5.4529806e-39
-0.04658822 -0.10207425 0.0015319269 4.3466331e-39
-0.044868805 -0.10278064 -0.0014634449 4.1615229e-39
-0.043313302 -0.10444455 -0.0085192043 4.5295838e-39
-0.041442342 -0.10444455 -0.0085192043 4.6203375e-39
-0.039571375 -0.10444455 -0.0085192043 4.7118114e-39
-0.037700415 -0.10444455 -0.0085192043 5.2646223e-39
-0.035684124 -0.10349102 -0.0044758637 6.0933011e-39
-0.033820249 -0.10349102 -0.0044758637 6.0933011e-39
-0.031761497 -0.10207425 0.0015319269 6.092941e-39
-0.029816771 -0.10137187 0.004510371 7.0148959e-39
-0.027851352 -0.10041572 0.0085649174 8.121605e-39
-0.026010344 -0.10041572 0.0085649174 7.6635135e-39
-0.024169335 -0.10041572 0.0085649174 7.8497027e-39
-0.022424297 -0.10137187 0.004510371 8.7716561e-39
-0.020487318 -0.10041572 0.0085649174 9.9705525e-39
-0.018646309 -0.10041572 0.0085649174 1.1444958e-38
-0.016934777 -0.10207425 0.0015319269 1.2551657e-38
-0.015081437 -0.10207425 0.0015319269 1.3565441e-38
-0.013272738 -0.10278064 -0.0014634449 1.4210086e-38
-0.011453761 -0.10349102 -0.0044758637 1.4670698e-38
-0.0095898863 -0.10349102 -0.0044758637 1.4763245e-38
-0.0077260118 -0.10349102 -0.0044758637 1.5131665e-38
-0.0058147367 -0.10207425 0.0015319269 1.577631e-38
-0.0039613973 -0.10207425 0.0015319269 1.6513153e-38
-0.0021080561 -0.10207425 0.0015319269 1.7158879e-38
-0.00025471672 -0.10207425 0.0015319269 1.7804247e-38
0.0015986245 -0.10207425 0.0015319269 1.8081547e-38
0.0034493525 -0.10137187 0.004510371 1.8082623e-38
0.0052974708 -0.10137187 0.004510371 1.8267011e-38
0.0071455892 -0.10137187 0.004510371 1.8359564e-38
0.0089937076 -0.10137187 0.004510371 1.8636147e-38
0.010809835 -0.10041572 0.0085649174 1.8728341e-38
0.012650844 -0.10041572 0.0085649174 1.854467e-38
0.014491853 -0.10041572 0.0085649174 1.8268805e-38
0.016332861 -0.10041572 0.0085649174 1.8085134e-38
0.018234298 -0.10137187 0.004510371 1.7255027e-38
0.02001488 -0.10041572 0.0085649174 1.6979521e-38
0.021855889 -0.10041572 0.0085649174 1.697988e-38
0.023637636 -0.099722609 0.011504022 1.7072791e-38
0.025473492 -0.099722609 0.011504022 1.7072791e-38
0.027309347 -0.099722609 0.011504022 1.6796926e-38
0.029145204 -0.099722609 0.011504022 1.6981315e-38
0.031060934 -0.10041572 0.0085649174 1.7350091e-38
0.032901943 -0.10041572 0.0085649174 1.7350091e-38
0.034867361 -0.10137187 0.004510371 1.7257897e-38
0.036715478 -0.10137187 0.004510371 1.7349015e-38
0.038563594 -0.10137187 0.004510371 1.7441209e-38
0.040411711 -0.10137187 0.004510371 1.7717075e-38
0.042259835 -0.10137187 0.004510371 1.7809269e-38
0.043947995 -0.10041572 0.0085649174 1.7808551e-38
0.045789003 -0.10041572 0.0085649174 1.7716357e-38
0.047630019 -0.10041572 0.0085649174 1.7991864e-38
0.049471028 -0.10041572 0.0085649174 1.7991864e-38
0.051175475 -0.099722609 0.011504022 1.7991505e-38
0.053011328 -0.099722609 0.011504022 1.7899311e-38
0.054994054 -0.10041572 0.0085649174 1.7714922e-38
0.056835063 -0.10041572 0.0085649174 1.743834e-38
0.058356836 -0.099007934 0.014534561 1.7253951e-38
0.060187377 -0.099007934 0.014534561 1.7069563e-38
0.061846219 -0.098297372 0.017547695 1.6885174e-38
0.063671477 -0.098297372 0.017547695 1.6794415e-38
0.065496735 -0.098297372 0.017547695 1.661182e-38
0.067321993 -0.098297372 0.017547695 1.633739e-38
0.069147252 -0.098297372 0.017547695 1.5602706e-38
0.070775546 -0.097590908 0.020543424 1.4866587e-38
0.072595552 -0.097590908 0.020543424 1.4220869e-38
0.074623033 -0.098297372 0.017547695 1.3942851e-38
0.076448292 -0.098297372 0.017547695 1.4955553e-38
0.07827355 -0.098297372 0.017547695 1.4954118e-38
0.080098808 -0.098297372 0.017547695 1.4584265e-38
0.081924073 -0.098297372 0.017547695 1.4122935e-38
0.083749332 -0.098297372 0.017547695 1.3662322e-38
0.085814975 -0.099007934 0.014534561 1.2925845e-38
0.087645508 -0.099007934 0.014534561 1.228192e-38
0.089476056 -0.099007934 0.014534561 1.1913502e-38
0.091050364 -0.098297372 0.017547695 1.2283355e-38
0.092875622 -0.098297372 0.017547695 1.1914578e-38
0.094700895 -0.098297372 0.017547695 1.1361413e-38
0.096526153 -0.098297372 0.017547695 1.1177024e-38
0.098351412 -0.098297372 0.017547695 1.1085547e-38
0.10017667 -0.098297372 0.017547695 1.0809323e-38
0.10171566 -0.097590908 0.020543424 1.0715683e-38
0.10353567 -0.097590908 0.020543424 1.0622048e-38
0.10535567 -0.097590908 0.020543424 1.0156763e-38
0.10717569 -0.097590908 0.020543424 8.771659e-39
0.10899568 -0.097590908 0.020543424 7.7538819e-39
0.11040547 -0.096663594 0.024475662 1.5738614e-39
0.11189384 -0.095941633 0.027537076 3.9782863e-42
0.11370159 -0.095941633 0.027537076 8.3155573e-40
0.11550932 -0.095941633 0.027537076 7.371979e-40
-0.11361877 -0.10869466 -0.018533381 6.550245e-39
-0.11130538 -0.10774307 -0.014528068 2.6802117e-39
-0.10910366 -0.10701384 -0.011458548 2.1295827e-39
-0.10692605 -0.10631551 -0.0085192043 1.487114e-39
-0.10505509 -0.10631551 -0.0085192043 3.0562572e-39
-0.10318413 -0.10631551 -0.0085192043 2.7814836e-39
-0.1009197 -0.10535492 -0.0044758637 3.059511e-39
-0.099055834 -0.10535492 -0.0044758637 2.5070589e-39
-0.097191952 -0.10535492 -0.0044758637 3.1527828e-39
-0.095328085 -0.10535492 -0.0044758637 3.2442526e-39
-0.093464203 -0.10535492 -0.0044758637 2.8733079e-39
-0.091600336 -0.10535492 -0.0044758637 3.9792897e-39
-0.089736454 -0.10535492 -0.0044758637 5.4536981e-39
-0.087872587 -0.10535492 -0.0044758637 4.9001698e-39
-0.08600872 -0.10535492 -0.0044758637 5.084938e-39
-0.084144838 -0.10535492 -0.0044758637 6.468234e-39
-0.082040645 -0.10463922 -0.0014634449 6.0086865e-39
-0.080182053 -0.10463922 -0.0014634449 8.7752701e-39
-0.078323461 -0.10463922 -0.0014634449 7.9465786e-39
-0.076464869 -0.10463922 -0.0014634449 9.3305879e-39
-0.074825473 -0.10535492 -0.0044758637 8.9618053e-39
-0.072961591 -0.10535492 -0.0044758637 1.1451806e-38
-0.071097724 -0.10535492 -0.0044758637 1.1543647e-38
-0.069030501 -0.10463922 -0.0014634449 1.0806085e-38
-0.067171909 -0.10463922 -0.0014634449 1.0713892e-38
-0.065506108 -0.10535492 -0.0044758637 1.0529501e-38
-0.063454725 -0.10463922 -0.0014634449 9.5146274e-39
-0.061596133 -0.10463922 -0.0014634449 8.2242445e-39
-0.059561603 -0.1039276 0.0015319269 6.4718031e-39
-0.057538539 -0.10322 0.004510371 4.4431447e-39
-0.055690423 -0.10322 0.004510371 4.5346383e-39
-0.053842299 -0.10322 0.004510371 4.0733084e-39
-0.051994182 -0.10322 0.004510371 3.7045259e-39
-0.050294898 -0.1039276 0.0015319269 3.5201318e-39
-0.048441559 -0.1039276 0.0015319269 3.1506304e-39
-0.04658822 -0.1039276 0.0015319269 2.6892907e-39
-0.044868805 -0.10463922 -0.0014634449 2.9647986e-39
-0.043010212 -0.10463922 -0.0014634449 3.7009217e-39
-0.04127574 -0.10535492 -0.0044758637 4.4381238e-39
-0.039411865 -0.10535492 -0.0044758637 4.161174e-39
-0.037547991 -0.10535492 -0.0044758637 4.6210718e-39
-0.035684124 -0.10535492 -0.0044758637 5.6348607e-39
-0.033614837 -0.1039276 0.0015319269 6.1869527e-39
-0.031761497 -0.1039276 0.0015319269 6.371344e-39
-0.029816771 -0.10322 0.004510371 7.2929373e-39
-0.027851352 -0.10225673 0.0085649174 8.0326632e-39
-0.026010344 -0.10225673 0.0085649174 8.4043268e-39
-0.024272418 -0.10322 0.004510371 8.3146479e-39
-0.022424297 -0.10322 0.004510371 8.8678189e-39
-0.020487318 -0.10225673 0.0085649174 9.6057384e-39
-0.018646309 -0.10225673 0.0085649174 1.0527329e-38
-0.016879944 -0.10322 0.004510371 1.1265246e-38
-0.015031828 -0.10322 0.004510371 1.2185757e-38
-0.013183707 -0.10322 0.004510371 1.2462699e-38
-0.011374759 -0.1039276 0.0015319269 1.3383929e-38
-0.0095214192 -0.1039276 0.0015319269 1.3291728e-38
-0.0076680761 -0.1039276 0.0015319269 1.3291366e-38
-0.0057912376 -0.10322 0.004510371 1.338284e-38
-0.0039431192 -0.10322 0.004510371 1.3658704e-38
-0.0020950008 -0.10322 0.004510371 1.3935291e-38
-0.00024688244 -0.10322 0.004510371 1.4211875e-38
0.0016012359 -0.10322 0.004510371 1.4213311e-38
0.0034493525 -0.10322 0.004510371 1.4305867e-38
0.0052974708 -0.10322 0.004510371 1.4214388e-38
0.0071278159 -0.10225673 0.0085649174 1.4306583e-38
0.0089688264 -0.10225673 0.0085649174 1.4031078e-38
