# .PCD v0.7 - Point Cloud Data file format
VERSION 0.7
FIELDS x y z rgb
SIZE 4 4 4 4
TYPE F F F F
COUNT 1 1 1 1
WIDTH 930
HEIGHT 1
VIEWPOINT 0 0 0 1 0 0 0
POINTS 930
DATA ascii
-0.0159312 -0.10280241 -0.051889755 1.5308077e-38
-0.01400068 -0.10280241 -0.051889755 1.5307714e-38
-0.01207016 -0.10280241 -0.051889755 1.5031122e-38
-0.010139637 -0.10280241 -0.051889755 1.5306984e-38
-0.0081502981 -0.10190627 -0.047942974 1.5768318e-38
-0.0061860681 -0.10120471 -0.044853188 1.7334922e-38
-0.0042678863 -0.10120471 -0.044853188 1.7795901e-38
-0.0023109876 -0.10029322 -0.040838815 1.8624582e-38
-0.00039984472 -0.10029322 -0.040838815 1.9177756e-38
0.0015113 -0.10029322 -0.040838815 1.973057e-38
0.0034353007 -0.099627286 -0.037905909 1.9822765e-38
0.0053413026 -0.099627286 -0.037905909 1.9176677e-38
0.0072447341 -0.10029322 -0.040838815 1.8346919e-38
0.0091558788 -0.10029322 -0.040838815 1.7884507e-38
0.011067024 -0.10029322 -0.040838815 1.7792315e-38
0.012995765 -0.10120471 -0.044853188 1.788451e-38
0.014913947 -0.10120471 -0.044853188 1.8253293e-38
0.01685651 -0.10190627 -0.047942974 1.8530959e-38
0.018780109 -0.10190627 -0.047942974 1.8899741e-38
0.02074869 -0.10280241 -0.051889755 1.8899741e-38
0.02267921 -0.10280241 -0.051889755 1.871535e-38
0.024609732 -0.10280241 -0.051889755 1.7793038e-38
0.026540251 -0.10280241 -0.051889755 1.6779605e-38
0.02834123 -0.10120471 -0.044853188 1.6503018e-38
0.030178469 -0.10029322 -0.040838815 1.7241302e-38
0.032089613 -0.10029322 -0.040838815 1.7886671e-38
0.034000758 -0.10029322 -0.040838815 1.7610084e-38
0.035837337 -0.099627286 -0.037905909 1.7240946e-38
0.037743341 -0.099627286 -0.037905909 1.7057636e-38
0.039561581 -0.09893848 -0.034872271 1.9454368e-38
0.041341323 -0.098043531 -0.030930735 2.0560716e-38
0.043235097 -0.098043531 -0.030930735 2.2127317e-38
0.045128871 -0.098043531 -0.030930735 2.3141103e-38
0.047022641 -0.098043531 -0.030930735 2.3509879e-38
0.048916414 -0.098043531 -0.030930735 2.3509876e-38
0.050810188 -0.098043531 -0.030930735 2.3509873e-38
0.052580558 -0.097363517 -0.02793584 2.3509873e-38
0.054469083 -0.097363517 -0.02793584 2.3234372e-38
0.056357604 -0.097363517 -0.02793584 2.2867037e-38
0.058246125 -0.097363517 -0.02793584 2.1211127e-38
0.060134646 -0.097363517 -0.02793584 1.8447431e-38
0.061522759 -0.095089734 -0.017921664 1.5684095e-38
0.063393719 -0.095089734 -0.017921664 1.4671755e-38
0.091458172 -0.095089734 -0.017921664 1.4771523e-38
0.093329132 -0.095089734 -0.017921664 1.4588569e-38
0.094624847 -0.09348768 -0.010865904 1.486587e-38
0.096483439 -0.09348768 -0.010865904 1.5050258e-38
0.098342031 -0.09348768 -0.010865904 1.4402746e-38
0.10418981 -0.094171658 -0.013878323 1.3663399e-38
0.10605368 -0.094171658 -0.013878323 1.3939622e-38
0.10791756 -0.094171658 -0.013878323 1.4215488e-38
0.10978143 -0.094171658 -0.013878323 1.3938188e-38
0.11164531 -0.094171658 -0.013878323 1.3567976e-38
0.11350918 -0.094171658 -0.013878323 1.467323e-38
0.11476737 -0.092807561 -0.0078705326 8.1255455e-39
-0.11711061 -0.10633601 -0.058895923 1.4761823e-38
-0.11483036 -0.10564254 -0.055865146 1.319776e-38
-0.1105924 -0.10083917 -0.034872271 9.6975767e-39
-0.10869172 -0.10083917 -0.034872271 9.1458477e-39
-0.10679103 -0.10083917 -0.034872271 1.0530943e-38
-0.10520683 -0.10153329 -0.037905909 1.05331e-38
-0.10330082 -0.10153329 -0.037905909 1.0073563e-38
-0.10320541 -0.10564254 -0.055865146 1.0257952e-38
-0.10225892 -0.10793148 -0.065868832 9.9813663e-39
-0.10030389 -0.10793148 -0.065868832 1.0810758e-38
-0.098348856 -0.10793148 -0.065868832 1.1272088e-38
-0.096117422 -0.10725726 -0.062922217 1.1179894e-38
-0.085049942 -0.084593475 0.036128543 1.1364283e-38
-0.083273739 -0.084593475 0.036128543 1.1641941e-38
-0.08149755 -0.084593475 0.036128543 1.1181688e-38
-0.079721361 -0.084593475 0.036128543 1.0814346e-38
-0.077945158 -0.084593475 0.036128543 1.1734494e-38
-0.083830506 -0.10564254 -0.055865146 1.0899724e-38
-0.081893012 -0.10564254 -0.055865146 1.0988331e-38
-0.079955518 -0.10564254 -0.055865146 1.2092868e-38
-0.078018039 -0.10564254 -0.055865146 1.2275443e-38
-0.076080546 -0.10564254 -0.055865146 1.3377812e-38
-0.073846817 -0.10473295 -0.051889755 1.1531003e-38
-0.071916297 -0.10473295 -0.051889755 1.5861299e-38
-0.069985777 -0.10473295 -0.051889755 2.2036213e-38
-0.06778191 -0.10382988 -0.047942974 2.3417333e-38
-0.065858319 -0.10382988 -0.047942974 2.3509527e-38
-0.064194217 -0.10473295 -0.051889755 2.3509524e-38
-0.062263697 -0.10473295 -0.051889755 2.350952e-38
-0.060333177 -0.10473295 -0.051889755 2.3509879e-38
-0.058643132 -0.10564254 -0.055865146 2.3509876e-38
-0.056705639 -0.10564254 -0.055865146 2.3509876e-38
-0.054768145 -0.10564254 -0.055865146 2.3509874e-38
-0.052830651 -0.10564254 -0.055865146 2.3509876e-38
-0.050893158 -0.10564254 -0.055865146 2.3233648e-38
-0.048955671 -0.10564254 -0.055865146 2.2772669e-38
-0.04681953 -0.10473295 -0.051889755 2.21273e-38
-0.04488901 -0.10473295 -0.051889755 2.1389735e-38
-0.043143198 -0.10564254 -0.055865146 2.0468498e-38
-0.041027963 -0.10473295 -0.051889755 1.9546541e-38
-0.039097443 -0.10473295 -0.051889755 1.8902251e-38
-0.037166923 -0.10473295 -0.051889755 1.5859795e-38
-0.035393238 -0.10564254 -0.055865146 1.447758e-38
-0.033455744 -0.10564254 -0.055865146 1.4569775e-38
-0.031375367 -0.10473295 -0.051889755 1.7797342e-38
-0.029444844 -0.10473295 -0.051889755 1.7336364e-38
-0.027643275 -0.10564254 -0.055865146 1.4847801e-38
-0.025705781 -0.10564254 -0.055865146 1.1989737e-38
-0.023768291 -0.10564254 -0.055865146 1.2265969e-38
-0.021830801 -0.10564254 -0.055865146 1.2080867e-38
-0.019792244 -0.10473295 -0.051889755 1.2263824e-38
-0.017861724 -0.10473295 -0.051889755 1.2724442e-38
-0.016018331 -0.10564254 -0.055865146 1.3554197e-38
-0.014080837 -0.10564254 -0.055865146 1.4383234e-38
-0.012143347 -0.10564254 -0.055865146 1.4567623e-38
-0.010205857 -0.10564254 -0.055865146 1.4843845e-38
-0.0082091168 -0.10473295 -0.051889755 1.5120788e-38
-0.0062266961 -0.10382988 -0.047942974 1.5027874e-38
-0.0042678863 -0.1031229 -0.044853188 1.5488849e-38
-0.0023497008 -0.1031229 -0.044853188 1.6502281e-38
-0.00039984472 -0.10220437 -0.040838815 1.7793019e-38
0.0015113 -0.10220437 -0.040838815 1.9544018e-38
0.0034224447 -0.10220437 -0.040838815 2.0281583e-38
0.0053335894 -0.10220437 -0.040838815 1.9728412e-38
0.0072447341 -0.10220437 -0.040838815 1.8621708e-38
0.0091558788 -0.10220437 -0.040838815 1.825329e-38
0.011067024 -0.10220437 -0.040838815 1.8161094e-38
0.013009308 -0.10382988 -0.047942974 1.8345486e-38
0.014957128 -0.10473295 -0.051889755 1.8990855e-38
0.01685651 -0.10382988 -0.047942974 1.9820616e-38
0.018780109 -0.10382988 -0.047942974 2.0189398e-38
0.020793997 -0.10564254 -0.055865146 2.0097203e-38
0.022731487 -0.10564254 -0.055865146 1.9545108e-38
0.024668979 -0.10564254 -0.055865146 1.9268521e-38
0.026606468 -0.10564254 -0.055865146 1.8623151e-38
0.02834123 -0.1031229 -0.044853188 1.843876e-38
0.030178469 -0.10220437 -0.040838815 1.8716066e-38
0.032089613 -0.10220437 -0.040838815 1.8808262e-38
0.034000758 -0.10220437 -0.040838815 1.8255088e-38
0.035837337 -0.10153329 -0.037905909 1.7978501e-38
0.037743341 -0.10153329 -0.037905909 1.8070341e-38
0.039561581 -0.10083917 -0.034872271 1.8992303e-38
0.040417966 -0.093051672 -0.00083754212 2.0282685e-38
0.042258974 -0.093051672 -0.00083754212 2.1941841e-38
0.044238608 -0.093979403 -0.0048920885 2.2956349e-38
0.046086725 -0.093979403 -0.0048920885 2.3232211e-38
0.047934845 -0.093979403 -0.0048920885 2.3140013e-38
0.049900461 -0.094660893 -0.0078705326 2.3048893e-38
0.0517538 -0.094660893 -0.0078705326 2.3141452e-38
0.053607143 -0.094660893 -0.0078705326 2.3234374e-38
0.055327315 -0.093979403 -0.0048920885 2.2591531e-38
0.057175435 -0.093979403 -0.0048920885 2.0657233e-38
0.05945684 -0.09603554 -0.013878323 1.844599e-38
0.061320711 -0.09603554 -0.013878323 1.6789e-38
0.063184589 -0.09603554 -0.013878323 1.6421308e-38
0.065048456 -0.09603554 -0.013878323 1.6698987e-38
0.068033099 -0.093051672 -0.00083754212 1.6980594e-38
0.069874108 -0.093051672 -0.00083754212 1.799581e-38
0.089587212 -0.096960694 -0.017921664 1.4122917e-38
0.091458172 -0.096960694 -0.017921664 1.3755576e-38
0.093329132 -0.096960694 -0.017921664 1.3849209e-38
0.094624847 -0.095346272 -0.010865904 1.3850288e-38
0.096483439 -0.095346272 -0.010865904 1.3758101e-38
0.098342031 -0.095346272 -0.010865904 1.4035045e-38
0.10046206 -0.09603554 -0.013878323 1.4035404e-38
0.10232593 -0.09603554 -0.013878323 1.4218716e-38
0.10418981 -0.09603554 -0.013878323 1.4310552e-38
0.10605368 -0.09603554 -0.013878323 1.5047029e-38
0.10791756 -0.09603554 -0.013878323 1.5507283e-38
0.1101678 -0.096960694 -0.017921664 1.5505848e-38
0.11135218 -0.095346272 -0.010865904 1.5227113e-38
0.11291403 -0.094660893 -0.0078705326 1.4303736e-38
0.11476737 -0.094660893 -0.0078705326 8.3084976e-39
0.1166207 -0.094660893 -0.0078705326 4.2497094e-39
0.11910081 -0.09603554 -0.013878323 9.2884508e-40
-0.11905341 -0.10827883 -0.058895923 1.2730977e-38
-0.11711061 -0.10827883 -0.058895923 1.3378889e-38
-0.11394833 -0.10575347 -0.047942974 1.0892869e-38
-0.11092484 -0.10343929 -0.037905909 5.0877952e-39
-0.10901883 -0.10343929 -0.037905909 3.1531345e-39
-0.10711282 -0.10343929 -0.037905909 4.2605667e-39
-0.10520683 -0.10343929 -0.037905909 3.5251653e-39
-0.10330082 -0.10343929 -0.037905909 2.972353e-39
-0.10280463 -0.10666345 -0.051889755 3.1578233e-39
-0.10126792 -0.10758002 -0.055865146 2.6046495e-39
-0.10001716 -0.10920714 -0.062922217 1.6812499e-39
-0.098067299 -0.10920714 -0.062922217 1.9581927e-39
-0.095739752 -0.10827883 -0.058895923 1.4972117e-39
-0.085049942 -0.086369663 0.036128543 1.4050161e-39
-0.083273739 -0.086369663 0.036128543 1.9589088e-39
-0.08149755 -0.086369663 0.036128543 1.8674362e-39
-0.079721361 -0.086369663 0.036128543 1.6841267e-39
-0.077945158 -0.086369663 0.036128543 2.6046495e-39
-0.0764236 -0.087074608 0.033071063 4.6279269e-39
-0.074642047 -0.087074608 0.033071063 7.3898371e-39
-0.079955518 -0.10758002 -0.055865146 7.9415578e-39
-0.078018039 -0.10758002 -0.055865146 1.0243915e-38
-0.075777337 -0.10666345 -0.051889755 1.0701992e-38
-0.073846817 -0.10666345 -0.051889755 1.116043e-38
-0.071916297 -0.10666345 -0.051889755 1.2540465e-38
-0.069705516 -0.10575347 -0.047942974 1.779344e-38
-0.06778191 -0.10575347 -0.047942974 2.3508451e-38
-0.065858319 -0.10575347 -0.047942974 2.3508809e-38
-0.063934714 -0.10575347 -0.047942974 2.3508809e-38
-0.062011108 -0.10575347 -0.047942974 2.3509163e-38
-0.060333177 -0.10666345 -0.051889755 2.3509517e-38
-0.058643132 -0.10758002 -0.055865146 2.3509873e-38
-0.056705639 -0.10758002 -0.055865146 2.3509876e-38
-0.054768145 -0.10758002 -0.055865146 2.3509873e-38
-0.052830651 -0.10758002 -0.055865146 2.3048893e-38
-0.051055238 -0.10827883 -0.058895923 2.2311328e-38
-0.049112432 -0.10827883 -0.058895923 2.1112785e-38
-0.047169626 -0.10827883 -0.058895923 1.9822765e-38
-0.04488901 -0.10666345 -0.051889755 1.8808613e-38
-0.042958491 -0.10666345 -0.051889755 1.8071408e-38
-0.041027963 -0.10666345 -0.051889755 1.761043e-38
-0.039097443 -0.10666345 -0.051889755 1.7150531e-38
-0.037166923 -0.10666345 -0.051889755 1.8533466e-38
-0.035393238 -0.10758002 -0.055865146 1.9178835e-38
-0.033455744 -0.10758002 -0.055865146 1.9640532e-38
-0.031518254 -0.10758002 -0.055865146 2.185323e-38
-0.029684387 -0.10827883 -0.058895923 2.1761755e-38
-0.027643275 -0.10758002 -0.055865146 2.1761755e-38
-0.025705781 -0.10758002 -0.055865146 1.9456864e-38
-0.023768291 -0.10758002 -0.055865146 1.8258325e-38
-0.021830801 -0.10758002 -0.055865146 1.5215163e-38
-0.019893311 -0.10758002 -0.055865146 1.4016265e-38
-0.017955817 -0.10758002 -0.055865146 1.3738955e-38
-0.016018331 -0.10758002 -0.055865146 1.5214084e-38
-0.014080837 -0.10758002 -0.055865146 1.7427135e-38
-0.012143347 -0.10758002 -0.055865146 1.8993739e-38
-0.010205857 -0.10758002 -0.055865146 1.9362877e-38
-0.0082091168 -0.10666345 -0.051889755 1.92696e-38
-0.0062785968 -0.10666345 -0.051889755 1.9454348e-38
-0.0043030977 -0.10575347 -0.047942974 1.9638021e-38
-0.0023497008 -0.10504107 -0.044853188 2.0006803e-38
-0.000431519 -0.10504107 -0.044853188 2.1112432e-38
0.0014866665 -0.10504107 -0.044853188 2.2864149e-38
0.0033432953 -0.10827883 -0.058895923 2.3509879e-38
0.0052860994 -0.10827883 -0.058895923 2.3509521e-38
0.0072412156 -0.10504107 -0.044853188 2.3417327e-38
0.0091593973 -0.10504107 -0.044853188 2.341805e-38
0.011085708 -0.10575347 -0.047942974 2.3234379e-38
0.013044033 -0.10758002 -0.055865146 2.3234018e-38
0.014981524 -0.10758002 -0.055865146 2.3326213e-38
0.01688765 -0.10666345 -0.051889755 2.341805e-38
0.01881817 -0.10666345 -0.051889755 2.341805e-38
0.02074869 -0.10666345 -0.051889755 2.341805e-38
0.02188975 -0.092821583 0.0081452355 2.3418047e-38
0.02371501 -0.092821583 0.0081452355 2.3234376e-38
0.02554027 -0.092821583 0.0081452355 2.3050703e-38
0.027365528 -0.092821583 0.0081452355 2.3050703e-38
0.030178469 -0.1041155 -0.040838815 2.3234376e-38
0.032089613 -0.1041155 -0.040838815 2.3234376e-38
0.032912627 -0.093516305 0.0051321015 2.2958507e-38
0.034743167 -0.093516305 0.0051321015 2.2958507e-38
0.036573712 -0.093516305 0.0051321015 2.3234379e-38
0.038576953 -0.094892681 -0.00083754212 2.2864882e-38
0.040327784 -0.094215035 0.0021015629 2.3325856e-38
0.04216364 -0.094215035 0.0021015629 2.341805e-38
0.044099983 -0.094892681 -0.00083754212 2.341805e-38
0.045940991 -0.094892681 -0.00083754212 2.341805e-38
0.047782 -0.094892681 -0.00083754212 2.3418047e-38
0.049782962 -0.09582752 -0.0048920885 2.3234376e-38
0.051631082 -0.09582752 -0.0048920885 2.2958873e-38
0.053479198 -0.09582752 -0.0048920885 2.2775202e-38
0.055327315 -0.09582752 -0.0048920885 2.240786e-38
0.057175435 -0.09582752 -0.0048920885 2.2132353e-38
0.059311591 -0.097204864 -0.010865904 2.1856847e-38
0.061170183 -0.097204864 -0.010865904 2.158134e-38
0.063028775 -0.097204864 -0.010865904 2.1305834e-38
0.064887367 -0.097204864 -0.010865904 2.1030327e-38
0.066745959 -0.097204864 -0.010865904 2.0846656e-38
0.068033099 -0.094892681 -0.00083754212 2.0387479e-38
0.069874108 -0.094892681 -0.00083754212 2.0203808e-38
0.071960375 -0.09582752 -0.0048920885 2.0295643e-38
0.073808491 -0.09582752 -0.0048920885 2.0111972e-38
0.075656608 -0.09582752 -0.0048920885 1.8545747e-38
0.07770057 -0.09651424 -0.0078705326 1.5963584e-38
0.079553902 -0.09651424 -0.0078705326 1.5316782e-38
0.081407249 -0.09651424 -0.0078705326 1.4303355e-38
0.083260581 -0.09651424 -0.0078705326 1.5225314e-38
0.085113928 -0.09651424 -0.0078705326 1.4119331e-38
0.08696726 -0.09651424 -0.0078705326 1.2737119e-38
0.088820606 -0.09651424 -0.0078705326 1.1816603e-38
0.090907648 -0.097204864 -0.010865904 1.1264872e-38
0.093006566 -0.097899407 -0.013878323 1.0989724e-38
0.094624847 -0.097204864 -0.010865904 1.0621304e-38
0.096483439 -0.097204864 -0.010865904 1.0069574e-38
0.098342031 -0.097204864 -0.010865904 7.8594108e-39
0.10046206 -0.097899407 -0.013878323 7.9519736e-39
0.10232593 -0.097899407 -0.013878323 8.0441721e-39
0.10418981 -0.097899407 -0.013878323 8.1352957e-39
0.10605368 -0.097899407 -0.013878323 8.5944774e-39
0.10791756 -0.097899407 -0.013878323 8.8696251e-39
0.10978143 -0.097899407 -0.013878323 8.6830745e-39
0.11135218 -0.097204864 -0.010865904 8.4046799e-39
0.11291403 -0.09651424 -0.0078705326 1.0338256e-38
0.11476737 -0.09651424 -0.0078705326 6.1872792e-39
0.11723693 -0.097899407 -0.013878323 5.0780324e-39
0.11910081 -0.097899407 -0.013878323 2.4947303e-39
-0.11870535 -0.10951753 -0.055865146 8.2133886e-39
-0.11676785 -0.10951753 -0.055865146 1.05201e-38
-0.11394833 -0.10767709 -0.047942974 1.0707387e-38
-0.11092484 -0.10534529 -0.037905909 4.8083231e-39
-0.10901883 -0.10534529 -0.037905909 1.9517047e-39
-0.10711282 -0.10534529 -0.037905909 2.0457094e-39
-0.10520683 -0.10534529 -0.037905909 1.4936244e-39
-0.10360165 -0.10602666 -0.040838815 1.8631314e-39
-0.10240673 -0.10767709 -0.047942974 2.8776491e-39
-0.10048312 -0.10767709 -0.047942974 2.5088666e-39
-0.099330425 -0.10951753 -0.055865146 1.5854683e-39
-0.097682551 -0.11022164 -0.058895923 1.9538851e-39
-0.095455453 -0.10951753 -0.055865146 1.5851012e-39
-0.085049942 -0.088145852 0.036128543 1.4010658e-39
-0.083273739 -0.088145852 0.036128543 2.0467954e-39
-0.08149755 -0.088145852 0.036128543 2.3244613e-39
-0.079721361 -0.088145852 0.036128543 2.4177359e-39
-0.077945158 -0.088145852 0.036128543 3.3382587e-39
-0.0764236 -0.088856161 0.033071063 4.902353e-39
-0.074642047 -0.088856161 0.033071063 8.2181559e-39
-0.079955518 -0.10951753 -0.055865146 9.1386618e-39
-0.077707857 -0.10859399 -0.051889755 1.1810159e-38
-0.075777337 -0.10859399 -0.051889755 1.3190914e-38
-0.073846817 -0.10859399 -0.051889755 1.4663145e-38
-0.071916297 -0.10859399 -0.051889755 1.512194e-38
-0.069705516 -0.10767709 -0.047942974 1.8807948e-38
-0.06778191 -0.10767709 -0.047942974 2.3324062e-38
-0.065858319 -0.10767709 -0.047942974 2.3508451e-38
-0.063934714 -0.10767709 -0.047942974 2.3508449e-38
-0.062011108 -0.10767709 -0.047942974 2.3509163e-38
-0.060333177 -0.10859399 -0.051889755 2.350952e-38
-0.058826461 -0.11022164 -0.058895923 2.3509876e-38
-0.056883648 -0.11022164 -0.058895923 2.3509879e-38
-0.05494085 -0.11022164 -0.058895923 2.3509876e-38
-0.04841423 -0.09094049 0.024099134 2.34166e-38
-0.046616942 -0.09094049 0.024099134 2.277123e-38
-0.044819653 -0.09094049 0.024099134 2.1849274e-38
-0.043022364 -0.09094049 0.024099134 2.1019513e-38
-0.039568387 -0.091643453 0.021073245 2.009828e-38
-0.037765794 -0.091643453 0.021073245 1.991389e-38
-0.035703994 -0.090241626 0.02710738 1.9822414e-38
-0.033911981 -0.090241626 0.02710738 1.9638022e-38
-0.032594718 -0.093037367 0.015073203 2.1482295e-38
-0.030781604 -0.093037367 0.015073203 2.221986e-38
-0.028968494 -0.093037367 0.015073203 2.3234015e-38
-0.027155381 -0.093037367 0.015073203 2.268192e-38
-0.027741581 -0.11022164 -0.058895923 2.3234376e-38
-0.025798775 -0.11022164 -0.058895923 2.1852159e-38
-0.023855973 -0.11022164 -0.058895923 1.9917496e-38
-0.021830801 -0.10951753 -0.055865146 1.8075036e-38
-0.019893311 -0.10951753 -0.055865146 1.660135e-38
-0.017955817 -0.10951753 -0.055865146 1.6323681e-38
-0.016018331 -0.10951753 -0.055865146 1.7706973e-38
-0.014080837 -0.10951753 -0.055865146 1.9919668e-38
-0.012143347 -0.10951753 -0.055865146 2.1486272e-38
-0.010205857 -0.10951753 -0.055865146 2.185541e-38
-0.0082091168 -0.10859399 -0.051889755 2.1854331e-38
-0.0062785968 -0.10859399 -0.051889755 2.2499695e-38
-0.0043480769 -0.10859399 -0.051889755 2.2499336e-38
-0.0024175569 -0.10859399 -0.051889755 2.2222751e-38
-1.3358891e-05 -0.094646841 0.0081452355 2.2314228e-38
0.0017934088 -0.095346853 0.0051321015 2.2867037e-38
0.0033432953 -0.11022164 -0.058895923 2.2958873e-38
0.0052860994 -0.11022164 -0.058895923 2.3142544e-38
0.0072315615 -0.10951753 -0.055865146 2.2775202e-38
0.0091690514 -0.10951753 -0.055865146 2.240786e-38
0.011106543 -0.10951753 -0.055865146 2.2316024e-38
0.013044033 -0.10951753 -0.055865146 2.2499695e-38
0.014981524 -0.10951753 -0.055865146 2.240786e-38
0.01688765 -0.10859399 -0.051889755 2.2040159e-38
0.01881817 -0.10859399 -0.051889755 2.185577e-38
0.02074869 -0.10859399 -0.051889755 2.1947965e-38
0.02188975 -0.094646841 0.0081452355 2.2132353e-38
0.02371501 -0.094646841 0.0081452355 2.240786e-38
0.02554027 -0.094646841 0.0081452355 2.240786e-38
0.027365528 -0.094646841 0.0081452355 2.2591531e-38
0.029190788 -0.094646841 0.0081452355 2.2591531e-38
0.031016046 -0.094646841 0.0081452355 2.2591531e-38
0.032841306 -0.094646841 0.0081452355 2.240786e-38
0.034666568 -0.094646841 0.0081452355 2.2499695e-38
0.036573712 -0.095346853 0.0051321015 2.2591531e-38
0.038404256 -0.095346853 0.0051321015 2.2867037e-38
0.040234797 -0.095346853 0.0051321015 2.2867037e-38
0.042065337 -0.095346853 0.0051321015 2.2591172e-38
0.043999493 -0.096050888 0.0021015629 2.2407501e-38
0.045940991 -0.096733689 -0.00083754212 2.2316024e-38
0.047782 -0.096733689 -0.00083754212 2.2224189e-38
0.049623009 -0.096733689 -0.00083754212 2.1856488e-38
0.051631082 -0.097675636 -0.0048920885 2.1396593e-38
0.053479198 -0.097675636 -0.0048920885 2.1856847e-38
0.055327315 -0.097675636 -0.0048920885 2.1673176e-38
0.057175435 -0.097675636 -0.0048920885 2.1122163e-38
0.059167162 -0.098367572 -0.0078705326 2.0662985e-38
0.061020505 -0.098367572 -0.0078705326 1.9833955e-38
0.063028775 -0.099063456 -0.010865904 1.8358847e-38
0.064887367 -0.099063456 -0.010865904 1.6515321e-38
0.066745959 -0.099063456 -0.010865904 1.4949443e-38
0.068033099 -0.096733689 -0.00083754212 1.4582824e-38
0.069874108 -0.096733689 -0.00083754212 1.4399873e-38
0.071960375 -0.097675636 -0.0048920885 1.3569041e-38
0.073808491 -0.097675636 -0.0048920885 1.3936747e-38
0.075656608 -0.097675636 -0.0048920885 1.3474698e-38
0.077504739 -0.097675636 -0.0048920885 1.2276161e-38
0.079352856 -0.097675636 -0.0048920885 1.2551677e-38
0.081200972 -0.097675636 -0.0048920885 1.2182541e-38
0.083049089 -0.097675636 -0.0048920885 1.1998154e-38
0.085113928 -0.098367572 -0.0078705326 1.1721933e-38
0.08696726 -0.098367572 -0.0078705326 1.1261317e-38
0.088820606 -0.098367572 -0.0078705326 1.0801783e-38
0.090907648 -0.099063456 -0.010865904 1.0433724e-38
0.093006566 -0.099763289 -0.013878323 1.025077e-38
0.094624847 -0.099063456 -0.010865904 9.9749049e-39
0.096483439 -0.099063456 -0.010865904 9.5160833e-39
0.098342031 -0.099063456 -0.010865904 8.6899128e-39
0.10046206 -0.099763289 -0.013878323 8.3225652e-39
0.10232593 -0.099763289 -0.013878323 7.860871e-39
0.10418981 -0.099763289 -0.013878323 7.4913724e-39
0.10605368 -0.099763289 -0.013878323 7.7661642e-39
0.10791756 -0.099763289 -0.013878323 8.5015685e-39
0.10978143 -0.099763289 -0.013878323 9.0525773e-39
0.11164531 -0.099763289 -0.013878323 9.2344406e-39
0.11350918 -0.099763289 -0.013878323 1.1167298e-38
0.11537306 -0.099763289 -0.013878323 6.8312067e-39
0.11723693 -0.099763289 -0.013878323 5.6297642e-39
0.11910081 -0.099763289 -0.013878323 2.0323102e-39
0.12096468 -0.099763289 -0.013878323 2.9513672e-39
-0.11870535 -0.11145501 -0.055865146 7.7524077e-39
-0.11676785 -0.11145501 -0.055865146 9.7814472e-39
-0.11394833 -0.10960068 -0.047942974 9.7825374e-39
-0.11124623 -0.1079378 -0.040838815 6.3723894e-39
-0.10933509 -0.1079378 -0.040838815 3.6076135e-39
-0.10742395 -0.1079378 -0.040838815 2.1339337e-39
-0.1055128 -0.1079378 -0.040838815 1.581853e-39
-0.10360165 -0.1079378 -0.040838815 3.1491899e-39
-0.10240673 -0.10960068 -0.047942974 4.7172429e-39
-0.10048312 -0.10960068 -0.047942974 4.62505e-39
-0.098943591 -0.11052449 -0.051889755 6.0990983e-39
-0.097013071 -0.11052449 -0.051889755 7.0206917e-39
-0.087391824 -0.091333628 0.030097984 7.1132418e-39
-0.08533138 -0.090637714 0.033071063 7.2976303e-39
-0.083549827 -0.090637714 0.033071063 8.2203055e-39
-0.08149755 -0.089922056 0.036128543 8.6830787e-39
-0.079721361 -0.089922056 0.036128543 8.9600257e-39
-0.078205153 -0.090637714 0.033071063 9.6975907e-39
-0.0764236 -0.090637714 0.033071063 1.0710308e-38
-0.074642047 -0.090637714 0.033071063 1.199888e-38
-0.072860494 -0.090637714 0.033071063 1.4117554e-38
-0.077707857 -0.11052449 -0.051889755 1.4945867e-38
-0.069524139 -0.091333628 0.030097984 1.7801736e-38
-0.06751582 -0.090637714 0.033071063 1.7246414e-38
-0.065734267 -0.090637714 0.033071063 1.973351e-38
-0.063952714 -0.090637714 0.033071063 2.2958155e-38
-0.06778191 -0.10960068 -0.047942974 2.2957438e-38
-0.065858319 -0.10960068 -0.047942974 2.3325138e-38
-0.063934714 -0.10960068 -0.047942974 2.3509168e-38
-0.057400659 -0.092737779 0.024099134 2.3509527e-38
-0.05560337 -0.092737779 0.024099134 2.3509886e-38
-0.053806081 -0.092737779 0.024099134 2.341805e-38
-0.0520088 -0.092737779 0.024099134 2.3234379e-38
-0.050211512 -0.092737779 0.024099134 2.3234379e-38
-0.04841423 -0.092737779 0.024099134 2.341805e-38
-0.046616942 -0.092737779 0.024099134 2.341805e-38
-0.044819653 -0.092737779 0.024099134 2.341805e-38
-0.043022364 -0.092737779 0.024099134 2.341805e-38
-0.041370973 -0.093446046 0.021073245 2.3234379e-38
-0.039568387 -0.093446046 0.021073245 2.3234379e-38
-0.030781604 -0.094850481 0.015073203 2.2867037e-38
-0.028968494 -0.094850481 0.015073203 2.2958873e-38
-0.027155381 -0.094850481 0.015073203 2.2314589e-38
-0.025342271 -0.094850481 0.015073203 2.2867037e-38
-0.023529157 -0.094850481 0.015073203 2.2591172e-38
-0.023768291 -0.11145501 -0.055865146 2.2499695e-38
-0.021830801 -0.11145501 -0.055865146 2.1305475e-38
-0.019893311 -0.11145501 -0.055865146 2.0662268e-38
-0.017955817 -0.11145501 -0.055865146 2.066155e-38
-0.016018331 -0.11145501 -0.055865146 2.1030327e-38
-0.014080837 -0.11145501 -0.055865146 2.1213998e-38
-0.012143347 -0.11145501 -0.055865146 2.1122163e-38
-0.0090242587 -0.094850481 0.015073203 2.1213998e-38
-0.0072111487 -0.094850481 0.015073203 2.1305834e-38
-0.005489137 -0.096472099 0.0081452355 2.1856847e-38
-0.0036638789 -0.096472099 0.0081452355 2.1856847e-38
-0.0018386208 -0.096472099 0.0081452355 2.1948682e-38
-1.3358891e-05 -0.096472099 0.0081452355 2.1673176e-38
0.0017934088 -0.097177386 0.0051321015 2.1672817e-38
0.0036239512 -0.097177386 0.0051321015 2.1488429e-38
0.0054544937 -0.097177386 0.0051321015 2.1027099e-38
0.0072850361 -0.097177386 0.0051321015 2.010695e-38
0.0091129355 -0.096472099 0.0081452355 1.9279353e-38
0.010938196 -0.096472099 0.0081452355 1.9741402e-38
0.012763456 -0.096472099 0.0081452355 2.0294567e-38
0.014588714 -0.096472099 0.0081452355 2.0386761e-38
0.016413972 -0.096472099 0.0081452355 2.0016908e-38
0.018210344 -0.095770895 0.011140965 1.9463741e-38
0.020030349 -0.095770895 0.011140965 1.927935e-38
0.02188975 -0.096472099 0.0081452355 1.9371902e-38
0.02371501 -0.096472099 0.0081452355 1.835775e-38
0.02554027 -0.096472099 0.0081452355 1.8725812e-38
0.027365528 -0.096472099 0.0081452355 1.9002399e-38
0.029190788 -0.096472099 0.0081452355 1.9278623e-38
0.031016046 -0.096472099 0.0081452355 1.9278623e-38
0.032841306 -0.096472099 0.0081452355 1.9278623e-38
0.034666568 -0.096472099 0.0081452355 1.9463014e-38
0.036573712 -0.097177386 0.0051321015 1.9922913e-38
0.038404256 -0.097177386 0.0051321015 1.9921118e-38
0.040234797 -0.097177386 0.0051321015 1.9459423e-38
0.042065337 -0.097177386 0.0051321015 1.8906968e-38
0.043999493 -0.097886756 0.0021015629 1.8539627e-38
0.045940991 -0.098574698 -0.00083754212 1.8632905e-38
0.047782 -0.098574698 -0.00083754212 1.8264848e-38
0.049623009 -0.098574698 -0.00083754212 1.7252139e-38
0.051464017 -0.098574698 -0.00083754212 1.6331625e-38
0.05330503 -0.098574698 -0.00083754212 1.5871014e-38
0.055146039 -0.098574698 -0.00083754212 1.5041979e-38
0.057175435 -0.099523753 -0.0048920885 1.4396974e-38
0.059023552 -0.099523753 -0.0048920885 1.4213311e-38
0.060871672 -0.099523753 -0.0048920885 1.4120761e-38
0.06287384 -0.10022092 -0.0078705326 1.3567232e-38
0.064887367 -0.10092205 -0.010865904 1.2738193e-38
0.066580519 -0.10022092 -0.0078705326 1.2093188e-38
0.068433866 -0.10022092 -0.0078705326 1.2280465e-38
0.070287205 -0.10022092 -0.0078705326 1.228083e-38
0.071960375 -0.099523753 -0.0048920885 1.1635104e-38
0.073808491 -0.099523753 -0.0048920885 1.2371955e-38
0.075656608 -0.099523753 -0.0048920885 1.2371242e-38
0.077504739 -0.099523753 -0.0048920885 1.1448932e-38
0.079352856 -0.099523753 -0.0048920885 1.190848e-38
0.081200972 -0.099523753 -0.0048920885 1.1447147e-38
0.083049089 -0.099523753 -0.0048920885 1.107837e-38
0.085113928 -0.10022092 -0.0078705326 1.0986896e-38
0.08696726 -0.10022092 -0.0078705326 1.0802866e-38
0.088820606 -0.10022092 -0.0078705326 1.0526642e-38
0.090907648 -0.10092205 -0.010865904 9.9749119e-39
0.09276624 -0.10092205 -0.010865904 9.7915996e-39
0.094624847 -0.10092205 -0.010865904 9.9763468e-39
0.096483439 -0.10092205 -0.010865904 9.9781405e-39
0.098342031 -0.10092205 -0.010865904 9.2434495e-39
0.10020062 -0.10092205 -0.010865904 9.2445215e-39
0.10205922 -0.10092205 -0.010865904 9.0594142e-39
0.10391781 -0.10092205 -0.010865904 8.7821084e-39
0.1057764 -0.10092205 -0.010865904 9.2402125e-39
0.10791756 -0.10162716 -0.013878323 9.6993886e-39
0.10978143 -0.10162716 -0.013878323 9.9741692e-39
0.11164531 -0.10162716 -0.013878323 1.0155672e-38
0.11350918 -0.10162716 -0.013878323 1.06134e-38
0.11537306 -0.10162716 -0.013878323 7.0148721e-39
0.11723693 -0.10162716 -0.013878323 5.9056252e-39
0.11910081 -0.10162716 -0.013878323 1.4853764e-42
0.12096468 -0.10162716 -0.013878323 2.5223372e-44
0.12282854 -0.10162716 -0.013878323 8.2796841e-40
-0.11870535 -0.11339252 -0.055865146 6.2765546e-39
-0.11631827 -0.11245503 -0.051889755 6.6449867e-39
-0.11394833 -0.11152427 -0.047942974 1.0422847e-38
-0.11124623 -0.10984896 -0.040838815 1.0791633e-38
-0.10933509 -0.10984896 -0.040838815 8.6725872e-39
-0.10742395 -0.10984896 -0.040838815 4.8940223e-39
-0.1055128 -0.10984896 -0.040838815 2.9597315e-39
-0.10360165 -0.10984896 -0.040838815 4.3430401e-39
-0.10169052 -0.10984896 -0.040838815 5.5419575e-39
-0.10087411 -0.11245503 -0.051889755 5.2653748e-39
-0.098943591 -0.11245503 -0.051889755 7.7535778e-39
-0.097013071 -0.11245503 -0.051889755 9.2287065e-39
-0.087391824 -0.093120396 0.030097984 1.0058823e-38
-0.085605055 -0.093120396 0.030097984 1.0336486e-38
-0.083818287 -0.093120396 0.030097984 1.0983651e-38
-0.08149755 -0.091698244 0.036128543 1.1353512e-38
-0.079721361 -0.091698244 0.036128543 1.135459e-38
-0.078205153 -0.092419267 0.033071063 1.1540773e-38
-0.0764236 -0.092419267 0.033071063 1.2924768e-38
-0.074642047 -0.092419267 0.033071063 1.3016604e-38
-0.072860494 -0.092419267 0.033071063 1.5043801e-38
-0.071544245 -0.093825653 0.02710738 1.5871038e-38
-0.069524139 -0.093120396 0.030097984 1.799007e-38
-0.06751582 -0.092419267 0.033071063 1.8079753e-38
-0.065734267 -0.092419267 0.033071063 2.0843428e-38
-0.063952714 -0.092419267 0.033071063 2.2316024e-38
-0.062584177 -0.093825653 0.02710738 2.2591531e-38
-0.060995236 -0.094535068 0.024099134 2.2775202e-38
-0.059197947 -0.094535068 0.024099134 2.2867037e-38
-0.057400659 -0.094535068 0.024099134 2.2867037e-38
-0.05560337 -0.094535068 0.024099134 2.2683366e-38
-0.053806081 -0.094535068 0.024099134 2.2499695e-38
-0.0520088 -0.094535068 0.024099134 2.2316024e-38
-0.050211512 -0.094535068 0.024099134 2.2224189e-38
-0.04841423 -0.094535068 0.024099134 2.2132353e-38
-0.046616942 -0.094535068 0.024099134 2.2132353e-38
-0.044819653 -0.094535068 0.024099134 2.2132353e-38
-0.043022364 -0.094535068 0.024099134 2.2224189e-38
-0.041370973 -0.09524864 0.021073245 2.2224189e-38
-0.039568387 -0.09524864 0.021073245 2.2224189e-38
-0.037630506 -0.094535068 0.024099134 2.1948682e-38
-0.035703994 -0.093825653 0.02710738 2.1765011e-38
-0.033911981 -0.093825653 0.02710738 2.1672817e-38
-0.032119971 -0.093825653 0.02710738 2.2040518e-38
-0.030781604 -0.096663594 0.015073203 2.158134e-38
-0.028968494 -0.096663594 0.015073203 2.1948682e-38
-0.027155381 -0.096663594 0.015073203 2.1489146e-38
-0.025342271 -0.096663594 0.015073203 2.1580981e-38
-0.023529157 -0.096663594 0.015073203 2.0567562e-38
-0.021716043 -0.096663594 0.015073203 2.0569715e-38
-0.019902933 -0.096663594 0.015073203 1.9836466e-38
-0.018089823 -0.096663594 0.015073203 1.9285453e-38
-0.016369782 -0.097590908 0.011140965 1.9193259e-38
-0.014549777 -0.097590908 0.011140965 1.8916676e-38
-0.012650482 -0.096663594 0.015073203 1.8270599e-38
-0.010837372 -0.096663594 0.015073203 1.7440851e-38
-0.0090242587 -0.096663594 0.015073203 1.7256462e-38
-0.0072111487 -0.096663594 0.015073203 1.7533045e-38
-0.005489137 -0.098297372 0.0081452355 1.6149396e-38
-0.0036638789 -0.098297372 0.0081452355 1.6333787e-38
-0.0018386208 -0.098297372 0.0081452355 1.6424908e-38
-1.3358891e-05 -0.098297372 0.0081452355 1.6240517e-38
0.0017934088 -0.099007934 0.0051321015 1.6240517e-38
0.0036239512 -0.099007934 0.0051321015 1.6240517e-38
0.0054544937 -0.099007934 0.0051321015 1.5779541e-38
0.0072850361 -0.099007934 0.0051321015 1.5134891e-38
0.0091129355 -0.098297372 0.0081452355 1.4952658e-38
0.010938196 -0.098297372 0.0081452355 1.5230323e-38
0.012763456 -0.098297372 0.0081452355 1.5966809e-38
0.014588714 -0.098297372 0.0081452355 1.6059002e-38
0.016413972 -0.098297372 0.0081452355 1.5874611e-38
0.018210344 -0.097590908 0.011140965 1.5506184e-38
0.020030349 -0.097590908 0.011140965 1.5321074e-38
0.02188975 -0.098297372 0.0081452355 1.5228877e-38
0.02371501 -0.098297372 0.0081452355 1.6150834e-38
0.02554027 -0.098297372 0.0081452355 1.6519253e-38
0.027420999 -0.099007934 0.0051321015 1.6888036e-38
0.029190788 -0.098297372 0.0081452355 1.7256095e-38
0.031016046 -0.098297372 0.0081452355 1.7348291e-38
0.032912627 -0.099007934 0.0051321015 1.7624875e-38
0.034743167 -0.099007934 0.0051321015 1.7809266e-38
0.036573712 -0.099007934 0.0051321015 1.8268446e-38
0.038404256 -0.099007934 0.0051321015 1.8359564e-38
0.040234797 -0.099007934 0.0051321015 1.7989707e-38
0.042065337 -0.099007934 0.0051321015 1.7252865e-38
0.043999493 -0.099722609 0.0021015629 1.679297e-38
0.045940991 -0.10041572 -0.00083754212 1.642563e-38
0.047782 -0.10041572 -0.00083754212 1.5873543e-38
0.049623009 -0.10041572 -0.00083754212 1.4861555e-38
0.051464017 -0.10041572 -0.00083754212 1.3940683e-38
0.05330503 -0.10041572 -0.00083754212 1.4863e-38
0.055146039 -0.10041572 -0.00083754212 1.4033249e-38
0.057175435 -0.10137187 -0.0048920885 1.3112018e-38
0.059023552 -0.10137187 -0.0048920885 1.2927274e-38
0.060871672 -0.10137187 -0.0048920885 1.2926196e-38
0.06287384 -0.10207425 -0.0078705326 1.2465218e-38
0.064567909 -0.10137187 -0.0048920885 1.2372307e-38
0.066416025 -0.10137187 -0.0048920885 1.218971e-38
0.068264142 -0.10137187 -0.0048920885 1.1362462e-38
0.070112258 -0.10137187 -0.0048920885 1.1916352e-38
0.071960375 -0.10137187 -0.0048920885 1.1731605e-38
0.073808491 -0.10137187 -0.0048920885 1.2560651e-38
0.075656608 -0.10137187 -0.0048920885 1.2284067e-38
0.077504739 -0.10137187 -0.0048920885 1.1268843e-38
0.079352856 -0.10137187 -0.0048920885 1.1636195e-38
0.081200972 -0.10137187 -0.0048920885 1.1083747e-38
0.083049089 -0.10137187 -0.0048920885 1.062277e-38
0.085113928 -0.10207425 -0.0078705326 1.0530937e-38
0.08696726 -0.10207425 -0.0078705326 1.0439463e-38
0.088820606 -0.10207425 -0.0078705326 1.0071404e-38
0.090907648 -0.10278064 -0.010865904 9.7033417e-39
0.09276624 -0.10278064 -0.010865904 9.5196707e-39
0.094624847 -0.10278064 -0.010865904 9.6125852e-39
0.096483439 -0.10278064 -0.010865904 9.796975e-39
0.098342031 -0.10278064 -0.010865904 8.8746558e-39
0.10020062 -0.10278064 -0.010865904 9.2434355e-39
0.10205922 -0.10278064 -0.010865904 9.5189462e-39
0.10391781 -0.10278064 -0.010865904 9.6097027e-39
0.1057764 -0.10278064 -0.010865904 9.7008165e-39
0.10791756 -0.10349102 -0.013878323 1.0067078e-38
0.10978143 -0.10349102 -0.013878323 9.973079e-39
0.11164531 -0.10349102 -0.013878323 9.8783554e-39
0.11350918 -0.10349102 -0.013878323 1.0705584e-38
0.11537306 -0.10349102 -0.013878323 8.1208525e-39
0.11723693 -0.10349102 -0.013878323 7.2889142e-39
0.11910081 -0.10349102 -0.013878323 3.9937006e-43
0.12096468 -0.10349102 -0.013878323 1.9618179e-44
0.12282854 -0.10349102 -0.013878323 1.83678e-40
-0.11870535 -0.11533 -0.055865146 7.2903421e-39
-0.11631827 -0.11438553 -0.051889755 6.4595039e-39
-0.11438775 -0.11438553 -0.051889755 7.7462756e-39
-0.11124623 -0.11176009 -0.040838815 1.1249712e-38
-0.10933509 -0.11176009 -0.040838815 1.0605799e-38
-0.10742395 -0.11176009 -0.040838815 6.0896704e-39
-0.098738253 -0.096332356 0.024099134 4.0628281e-39
-0.096940964 -0.096332356 0.024099134 5.7238082e-39
-0.095143676 -0.096332356 0.024099134 7.1067566e-39
-0.093346402 -0.096332356 0.024099134 6.8305383e-39
-0.091549113 -0.096332356 0.024099134 8.0290843e-39
-0.089751825 -0.096332356 0.024099134 9.9651925e-39
-0.087672353 -0.095617667 0.02710738 1.1164455e-38
-0.085880339 -0.095617667 0.02710738 1.1350282e-38
-0.083818287 -0.094907165 0.030097984 1.1813055e-38
-0.08149755 -0.093474448 0.036128543 1.1722295e-38
-0.079721361 -0.093474448 0.036128543 1.1262756e-38
-0.078205153 -0.094200835 0.033071063 1.117271e-38
-0.076671213 -0.094907165 0.030097984 1.2374114e-38
-0.074884444 -0.094907165 0.030097984 1.3480804e-38
-0.073097676 -0.094907165 0.030097984 1.440167e-38
-0.071544245 -0.095617667 0.02710738 1.6612538e-38
-0.069752231 -0.095617667 0.02710738 1.6887685e-38
-0.067737371 -0.094907165 0.030097984 2.0203808e-38
-0.065950602 -0.094907165 0.030097984 2.0754821e-38
-0.064163834 -0.094907165 0.030097984 2.0938492e-38
-0.062584177 -0.095617667 0.02710738 2.1856847e-38
-0.060995236 -0.096332356 0.024099134 2.1948682e-38
-0.059197947 -0.096332356 0.024099134 2.1948682e-38
-0.057400659 -0.096332356 0.024099134 2.1948682e-38
-0.05560337 -0.096332356 0.024099134 2.1856847e-38
-0.053806081 -0.096332356 0.024099134 2.158134e-38
-0.0520088 -0.096332356 0.024099134 2.1213998e-38
-0.050211512 -0.096332356 0.024099134 2.1030327e-38
-0.04841423 -0.096332356 0.024099134 2.0202014e-38
-0.046616942 -0.096332356 0.024099134 1.9558448e-38
-0.044819653 -0.096332356 0.024099134 1.9097477e-38
-0.043022364 -0.096332356 0.024099134 1.87287e-38
-0.041225076 -0.096332356 0.024099134 1.8359562e-38
-0.039427787 -0.096332356 0.024099134 1.8082975e-38
-0.037630506 -0.096332356 0.024099134 1.7714913e-38
-0.035703994 -0.095617667 0.02710738 1.7530165e-38
-0.033911981 -0.095617667 0.02710738 1.706919e-38
-0.032119971 -0.095617667 0.02710738 1.7622364e-38
-0.030441359 -0.096332356 0.024099134 1.670077e-38
-0.028644074 -0.096332356 0.024099134 1.670077e-38
-0.026846785 -0.096332356 0.024099134 1.568662e-38
-0.025342271 -0.098476708 0.015073203 1.6608576e-38
-0.023529157 -0.098476708 0.015073203 1.5779539e-38
-0.021716043 -0.098476708 0.015073203 1.513597e-38
-0.019902933 -0.098476708 0.015073203 1.5138494e-38
-0.018089823 -0.098476708 0.015073203 1.4034305e-38
-0.016369782 -0.099410906 0.011140965 1.3573327e-38
-0.014549777 -0.099410906 0.011140965 1.3573327e-38
-0.012650482 -0.098476708 0.015073203 1.3849195e-38
-0.010837372 -0.098476708 0.015073203 1.3941391e-38
-0.0090242587 -0.098476708 0.015073203 1.4033587e-38
-0.0072111487 -0.098476708 0.015073203 1.4217978e-38
-0.005489137 -0.10012263 0.0081452355 1.4586041e-38
-0.0036638789 -0.10012263 0.0081452355 1.4493849e-38
-0.0018386208 -0.10012263 0.0081452355 1.449277e-38
-1.3358891e-05 -0.10012263 0.0081452355 1.4400574e-38
0.0018118992 -0.10012263 0.0081452355 1.4677161e-38
0.0036371574 -0.10012263 0.0081452355 1.5045943e-38
0.0054624174 -0.10012263 0.0081452355 1.4861555e-38
0.0072850361 -0.10083848 0.0051321015 1.412471e-38
0.0091129355 -0.10012263 0.0081452355 1.4679322e-38
0.010938196 -0.10012263 0.0081452355 1.4588205e-38
0.012763456 -0.10012263 0.0081452355 1.486371e-38
0.014588714 -0.10012263 0.0081452355 1.5048101e-38
0.016437747 -0.10083848 0.0051321015 1.541724e-38
0.018239234 -0.10012263 0.0081452355 1.560163e-38
0.020064492 -0.10012263 0.0081452355 1.5877495e-38
0.021929374 -0.10083848 0.0051321015 1.5969689e-38
0.023759916 -0.10083848 0.0051321015 1.6153719e-38
0.025590459 -0.10083848 0.0051321015 1.6338107e-38
0.027420999 -0.10083848 0.0051321015 1.6705808e-38
0.029190788 -0.10012263 0.0081452355 1.6613973e-38
0.031016046 -0.10012263 0.0081452355 1.6705448e-38
0.032912627 -0.10083848 0.0051321015 1.6797644e-38
0.034743167 -0.10083848 0.0051321015 1.6797644e-38
0.036573712 -0.10083848 0.0051321015 1.6981315e-38
0.038404256 -0.10083848 0.0051321015 1.7900028e-38
0.040234797 -0.10083848 0.0051321015 1.7439057e-38
0.042065337 -0.10083848 0.0051321015 1.6702219e-38
0.043999493 -0.10155846 0.0021015629 1.5965739e-38
0.04583535 -0.10155846 0.0021015629 1.5322533e-38
0.047671206 -0.10155846 0.0021015629 1.4954835e-38
0.049623009 -0.10225673 -0.00083754212 1.4495658e-38
0.051464017 -0.10225673 -0.00083754212 1.4219792e-38
0.05330503 -0.10225673 -0.00083754212 1.3298209e-38
0.055146039 -0.10225673 -0.00083754212 1.2745402e-38
0.057175435 -0.10322 -0.0048920885 1.2653208e-38
0.059023552 -0.10322 -0.0048920885 1.2836879e-38
0.060871672 -0.10322 -0.0048920885 1.2836162e-38
0.06287384 -0.1039276 -0.0078705326 1.2558503e-38
0.064567909 -0.10322 -0.0048920885 1.2465947e-38
0.066416025 -0.10322 -0.0048920885 1.2651054e-38
0.068264142 -0.10322 -0.0048920885 1.2008195e-38
0.070112258 -0.10322 -0.0048920885 1.2101466e-38
0.071960375 -0.10322 -0.0048920885 1.1271709e-38
0.073808491 -0.10322 -0.0048920885 1.1271351e-38
0.075656608 -0.10322 -0.0048920885 1.0624908e-38
0.077504739 -0.10322 -0.0048920885 9.7029549e-39
0.079352856 -0.10322 -0.0048920885 1.0808229e-38
0.081200972 -0.10322 -0.0048920885 1.1084819e-38
0.083049089 -0.10322 -0.0048920885 1.0624204e-38
0.085113928 -0.1039276 -0.0078705326 1.0716399e-38
0.08696726 -0.1039276 -0.0078705326 1.0809674e-38
0.088820606 -0.1039276 -0.0078705326 1.0902232e-38
0.090673953 -0.1039276 -0.0078705326 1.0903311e-38
0.09276624 -0.10463922 -0.010865904 1.0811835e-38
0.094624847 -0.10463922 -0.010865904 1.0811835e-38
0.096483439 -0.10463922 -0.010865904 1.0903665e-38
0.098342031 -0.10463922 -0.010865904 1.1454315e-38
0.10020062 -0.10463922 -0.010865904 1.154543e-38
0.10205922 -0.10463922 -0.010865904 1.1267765e-38
0.10391781 -0.10463922 -0.010865904 1.0898264e-38
0.1057764 -0.10463922 -0.010865904 1.117341e-38
0.10763499 -0.10463922 -0.010865904 1.2093925e-38
0.10978143 -0.10535492 -0.013878323 1.301336e-38
0.11164531 -0.10535492 -0.013878323 1.3564367e-38
0.11350918 -0.10535492 -0.013878323 1.4300121e-38
0.11537306 -0.10535492 -0.013878323 1.0333536e-38
0.11723693 -0.10535492 -0.013878323 8.1183063e-39
0.11910081 -0.10535492 -0.013878323 7.5109598e-43
0.12096468 -0.10535492 -0.013878323 4.624355e-40
0.12282854 -0.10535492 -0.013878323 2.5811245e-39
-0.10559247 -0.09740968 0.02710738 5.90127e-39
-0.10511921 -0.10028981 0.015073203 1.0787641e-38
-0.1033061 -0.10028981 0.015073203 1.3647164e-38
-0.10149299 -0.10028981 0.015073203 5.443931e-39
-0.098738253 -0.098129645 0.024099134 5.1684512e-39
-0.096940964 -0.098129645 0.024099134 6.3684517e-39
-0.095143676 -0.098129645 0.024099134 6.9234416e-39
-0.093346402 -0.098129645 0.024099134 6.370279e-39
-0.091549113 -0.098129645 0.024099134 7.5691865e-39
-0.089464366 -0.09740968 0.02710738 9.7826047e-39
-0.087672353 -0.09740968 0.02710738 1.0152106e-38
-0.085605055 -0.096693933 0.030097984 1.0522684e-38
-0.083818287 -0.096693933 0.030097984 1.098582e-38
-0.082031518 -0.096693933 0.030097984 1.0711029e-38
-0.079986721 -0.095982388 0.033071063 1.0896854e-38
-0.078205153 -0.095982388 0.033071063 1.0161803e-38
-0.076671213 -0.096693933 0.030097984 9.243067e-39
-0.074884444 -0.096693933 0.030097984 1.0718546e-38
-0.073336259 -0.09740968 0.02710738 1.256137e-38
-0.071778953 -0.098129645 0.024099134 1.4957705e-38
-0.069752231 -0.09740968 0.02710738 1.5048106e-38
-0.067960218 -0.09740968 0.02710738 1.7166062e-38
-0.066168204 -0.09740968 0.02710738 1.7809986e-38
-0.06437619 -0.09740968 0.02710738 1.8177687e-38
-0.062584177 -0.09740968 0.02710738 1.8913805e-38
-0.060995236 -0.098129645 0.024099134 1.8913442e-38
-0.059197947 -0.098129645 0.024099134 1.872905e-38
-0.057400659 -0.098129645 0.024099134 1.8268072e-38
-0.05560337 -0.098129645 0.024099134 1.7806741e-38
-0.053806081 -0.098129645 0.024099134 1.7438321e-38
-0.0520088 -0.098129645 0.024099134 1.7530521e-38
-0.050211512 -0.098129645 0.024099134 1.7348291e-38
-0.04841423 -0.098129645 0.024099134 1.661396e-38
-0.046616942 -0.098129645 0.024099134 1.6431008e-38
-0.044819653 -0.098129645 0.024099134 1.6523206e-38
-0.043022364 -0.098129645 0.024099134 1.6431729e-38
-0.041225076 -0.098129645 0.024099134 1.6339178e-38
-0.039427787 -0.098129645 0.024099134 1.6154787e-38
-0.037630506 -0.098129645 0.024099134 1.5878203e-38
-0.035703994 -0.09740968 0.02710738 1.5693811e-38
-0.033911981 -0.09740968 0.02710738 1.5509421e-38
-0.032119971 -0.09740968 0.02710738 1.5417226e-38
-0.030441359 -0.098129645 0.024099134 1.5325393e-38
-0.028644074 -0.098129645 0.024099134 1.5325396e-38
-0.026846785 -0.098129645 0.024099134 1.5232844e-38
-0.025342271 -0.10028981 0.015073203 1.5232844e-38
-0.023529157 -0.10028981 0.015073203 1.5140649e-38
-0.021716043 -0.10028981 0.015073203 1.4957336e-38
-0.019902933 -0.10028981 0.015073203 1.4127579e-38
-0.018089823 -0.10028981 0.015073203 1.4219774e-38
-0.016369782 -0.10123092 0.011140965 1.4219417e-38
-0.014549777 -0.10123092 0.011140965 1.4035026e-38
-0.012729771 -0.10123092 0.011140965 1.3942833e-38
-0.010909766 -0.10123092 0.011140965 1.3850637e-38
-0.009139657 -0.10194789 0.0081452355 1.4126145e-38
-0.0073143989 -0.10194789 0.0081452355 1.4310536e-38
-0.005489137 -0.10194789 0.0081452355 1.4679319e-38
-0.0036638789 -0.10194789 0.0081452355 1.4679322e-38
-0.0018386208 -0.10194789 0.0081452355 1.4771517e-38
-1.3358891e-05 -0.10194789 0.0081452355 1.4863713e-38
0.0018118992 -0.10194789 0.0081452355 1.495519e-38
0.0036371574 -0.10194789 0.0081452355 1.5047385e-38
0.0054624174 -0.10194789 0.0081452355 1.5139581e-38
0.0072876774 -0.10194789 0.0081452355 1.5048104e-38
0.0091129355 -0.10194789 0.0081452355 1.5232494e-38
0.010938196 -0.10194789 0.0081452355 1.5049182e-38
0.012763456 -0.10194789 0.0081452355 1.5324688e-38
0.014588714 -0.10194789 0.0081452355 1.5416883e-38
0.016437747 -0.10266902 0.0051321015 1.560163e-38
0.018239234 -0.10194789 0.0081452355 1.5693824e-38
0.020064492 -0.10194789 0.0081452355 1.5877495e-38
0.021929374 -0.10266902 0.0051321015 1.5877495e-38
0.023759916 -0.10266902 0.0051321015 1.6338107e-38
0.025590459 -0.10266902 0.0051321015 1.6522496e-38
0.027420999 -0.10266902 0.0051321015 1.6890197e-38
0.029251542 -0.10266902 0.0051321015 1.6890555e-38
0.031082084 -0.10266902 0.0051321015 1.6797644e-38
0.032912627 -0.10266902 0.0051321015 1.6613252e-38
0.034743167 -0.10266902 0.0051321015 1.6428861e-38
0.036573712 -0.10266902 0.0051321015 1.6612532e-38
0.038404256 -0.10266902 0.0051321015 1.7439416e-38
0.040234797 -0.10266902 0.0051321015 1.7254669e-38
0.042065337 -0.10266902 0.0051321015 1.6702219e-38
0.043895882 -0.10266902 0.0051321015 1.5965739e-38
0.04583535 -0.10339431 0.0021015629 1.5230337e-38
0.047671206 -0.10339431 0.0021015629 1.467897e-38
0.049623009 -0.10409774 -0.00083754212 1.4219075e-38
0.051464017 -0.10409774 -0.00083754212 1.4035404e-38
0.05330503 -0.10409774 -0.00083754212 1.3390403e-38
0.055146039 -0.10409774 -0.00083754212 1.3206015e-38
0.057175435 -0.1050681 -0.0048920885 1.2929432e-38
0.059023552 -0.1050681 -0.0048920885 1.2744326e-38
0.060871672 -0.1050681 -0.0048920885 1.2834724e-38
0.062719792 -0.1050681 -0.0048920885 1.2926199e-38
0.064567909 -0.1050681 -0.0048920885 1.3017673e-38
0.066416025 -0.1050681 -0.0048920885 1.3018395e-38
0.068264142 -0.1050681 -0.0048920885 1.292728e-38
0.070112258 -0.1050681 -0.0048920885 1.2559579e-38
0.071960375 -0.1050681 -0.0048920885 1.2190443e-38
0.073808491 -0.1050681 -0.0048920885 1.1913861e-38
0.075656608 -0.1050681 -0.0048920885 1.1912782e-38
0.077504739 -0.1050681 -0.0048920885 1.1636197e-38
0.079352856 -0.1050681 -0.0048920885 1.1451809e-38
0.081200972 -0.1050681 -0.0048920885 1.1267418e-38
0.083049089 -0.1050681 -0.0048920885 1.1451809e-38
0.085113928 -0.10578094 -0.0078705326 1.1268494e-38
0.08696726 -0.10578094 -0.0078705326 1.1176298e-38
0.088820606 -0.10578094 -0.0078705326 1.1084819e-38
0.090673953 -0.10578094 -0.0078705326 1.1177014e-38
0.09276624 -0.10649781 -0.010865904 1.117773e-38
0.094624847 -0.10649781 -0.010865904 1.1269926e-38
0.096483439 -0.10649781 -0.010865904 1.1545786e-38
0.098342031 -0.10649781 -0.010865904 1.2280097e-38
0.10020062 -0.10649781 -0.010865904 1.29233e-38
0.10205922 -0.10649781 -0.010865904 1.3107694e-38
0.10391781 -0.10649781 -0.010865904 1.3475758e-38
0.1057764 -0.10649781 -0.010865904 1.365943e-38
0.10763499 -0.10649781 -0.010865904 1.4026771e-38
0.10978143 -0.10721879 -0.013878323 1.420972e-38
0.11164531 -0.10721879 -0.013878323 1.4392668e-38
0.11350918 -0.10721879 -0.013878323 1.4022078e-38
0.11537306 -0.10721879 -0.013878323 1.2177075e-38
0.11723693 -0.10721879 -0.013878323 9.0409703e-39
0.11878654 -0.10649781 -0.010865904 9.2666186e-40
0.12064514 -0.10649781 -0.010865904 3.7203633e-40
0.12250373 -0.10649781 -0.010865904 1.4769364e-39
-0.10380046 -0.099201679 0.02710738 9.4983415e-39
-0.10233283 -0.099926919 0.024099134 9.5930749e-39
