# .PCD v0.7 - Point Cloud Data file format
VERSION 0.7
FIELDS x y z rgb
SIZE 4 4 4 4
TYPE F F F F
COUNT 1 1 1 1
WIDTH 939
HEIGHT 1
VIEWPOINT 0 0 0 1 0 0 0
POINTS 939
DATA ascii
-0.022183578 -0.10302909 0.0029272605 1.2098959e-38
-0.020284524 -0.10209858 0.0069325734 1.2467742e-38
-0.018403025 -0.10209858 0.0069325734 1.2927274e-38
-0.016524218 -0.10138547 0.010002093 1.3108414e-38
-0.014648101 -0.10138547 0.010002093 1.3475746e-38
-0.012784869 -0.10070263 0.012941437 1.4027838e-38
-0.010913906 -0.10070263 0.012941437 1.4950148e-38
-0.009042942 -0.10070263 0.012941437 1.5963935e-38
-0.0071719792 -0.10070263 0.012941437 1.6792967e-38
-0.0053470964 -0.099763289 0.016984778 1.7253584e-38
-0.0035228354 -0.099063456 0.019997196 1.7622001e-38
-0.0017532732 -0.097675636 0.025971012 1.8912012e-38
2.7309405e-05 -0.096733689 0.030025559 1.946446e-38
0.0018683181 -0.096733689 0.030025559 2.0384968e-38
0.0037910801 -0.097675636 0.025971012 2.0938133e-38
0.005550337 -0.096733689 0.030025559 2.1397669e-38
0.0073913457 -0.096733689 0.030025559 2.1489505e-38
0.0092323544 -0.096733689 0.030025559 2.1305116e-38
0.011073363 -0.096733689 0.030025559 2.1120369e-38
0.012914372 -0.096733689 0.030025559 2.0937416e-38
0.014755382 -0.096733689 0.030025559 2.0937057e-38
0.016596392 -0.096733689 0.030025559 2.1029251e-38
0.018233299 -0.095346853 0.0359952 2.1213639e-38
0.019955538 -0.094646841 0.039008334 2.1397669e-38
0.021780796 -0.094646841 0.039008334 2.158134e-38
0.023606058 -0.094646841 0.039008334 2.1673176e-38
0.025431316 -0.094646841 0.039008334 2.1673176e-38
0.027127888 -0.093950883 0.042004064 2.1305475e-38
0.028947897 -0.093950883 0.042004064 2.1305834e-38
0.030907094 -0.094646841 0.039008334 2.1489505e-38
0.032732353 -0.094646841 0.039008334 2.1673176e-38
0.034557614 -0.094646841 0.039008334 2.1856847e-38
0.036227923 -0.093950883 0.042004064 2.1856847e-38
0.038047928 -0.093950883 0.042004064 2.1856847e-38
0.039867938 -0.093950883 0.042004064 2.158134e-38
0.044649925 -0.10602666 -0.0099757146 2.1489505e-38
0.04656107 -0.10602666 -0.0099757146 2.158134e-38
0.048472211 -0.10602666 -0.0099757146 2.1856847e-38
0.050383359 -0.10602666 -0.0099757146 2.1948682e-38
0.047368847 -0.088145852 0.066991642 2.2040518e-38
0.049145043 -0.088145852 0.066991642 2.2224189e-38
0.050921239 -0.088145852 0.066991642 2.1213998e-38
0.058027938 -0.10602666 -0.0099757146 1.9373342e-38
0.059939079 -0.10602666 -0.0099757146 1.679585e-38
0.060911365 -0.10302909 0.0029272605 1.1728008e-38
0.062799886 -0.10302909 0.0029272605 1.0162144e-38
0.064688407 -0.10302909 0.0029272605 9.608981e-39
0.066576928 -0.10302909 0.0029272605 1.0069246e-38
0.068465441 -0.10302909 0.0029272605 1.0989763e-38
0.07059814 -0.10372485 -6.7634508e-05 9.9734503e-39
0.072491914 -0.10372485 -6.7634508e-05 1.0434426e-38
0.069196001 -0.089546859 0.060961083 9.8826868e-39
0.070982769 -0.089546859 0.060961083 9.6060986e-39
0.07471332 -0.094646841 0.039008334 1.0342585e-38
0.076538578 -0.094646841 0.039008334 1.0894681e-38
0.078363836 -0.094646841 0.039008334 1.0708492e-38
0.080189094 -0.094646841 0.039008334 1.0892521e-38
0.082302272 -0.095346853 0.0359952 1.1076913e-38
0.08413282 -0.095346853 0.0359952 1.0615932e-38
0.086263567 -0.096050888 0.032964662 1.0800676e-38
0.088099435 -0.096050888 0.032964662 9.1415093e-39
0.09065263 -0.097675636 0.025971012 7.2972281e-39
0.092811465 -0.098367572 0.022992568 6.1894372e-39
0.09530209 -0.099763289 0.016984778 5.4500645e-39
0.098249897 -0.10209858 0.0069325734 4.9869228e-39
0.10057031 -0.10302909 0.0029272605 4.5248628e-39
0.10279228 -0.10372485 -6.7634508e-05 4.6156123e-39
0.10468604 -0.10372485 -6.7634508e-05 3.7862048e-39
0.10703248 -0.10464053 -0.0040091705 3.1408339e-39
0.10928686 -0.10534529 -0.0070428085 4.06207e-39
0.11153997 -0.10602666 -0.0099757146 4.1535467e-39
0.11393327 -0.10695927 -0.013990087 4.3364961e-39
0.11585145 -0.10695927 -0.013990087 4.0595406e-39
0.11776963 -0.10695927 -0.013990087 5.0726052e-39
0.11918455 -0.10602666 -0.0099757146 1.2925703e-39
0.1210957 -0.10602666 -0.0099757146 3.7835059e-43
0.12300685 -0.10602666 -0.0099757146 9.256277e-41
0.12584595 -0.10767709 -0.017079873 9.219563e-41
-0.13019913 -0.11917825 -0.057997391 9.956035e-39
-0.12820379 -0.11917825 -0.057997391 1.0234067e-38
-0.12582994 -0.11825104 -0.054036185 1.2632959e-38
-0.12384154 -0.11825104 -0.054036185 1.5769423e-38
-0.12185314 -0.11825104 -0.054036185 1.8076845e-38
-0.11949812 -0.11730064 -0.049975917 1.8723669e-38
-0.11751683 -0.11730064 -0.049975917 1.7342188e-38
-0.11553556 -0.11730064 -0.049975917 1.6513875e-38
-0.11355428 -0.11730064 -0.049975917 1.7159963e-38
-0.11124772 -0.11638646 -0.046070263 1.7804605e-38
-0.10902828 -0.115683 -0.043064997 1.8080829e-38
-0.10705911 -0.115683 -0.043064997 1.8357412e-38
-0.10477924 -0.11475091 -0.03908281 1.8725113e-38
-0.10281707 -0.11475091 -0.03908281 1.7803522e-38
-0.10055108 -0.11379658 -0.035005733 1.9278637e-38
-0.098596051 -0.11379658 -0.035005733 1.890986e-38
-0.096431777 -0.11310686 -0.032059118 2.0476803e-38
-0.094481915 -0.11310686 -0.032059118 2.066155e-38
-0.092532054 -0.11310686 -0.032059118 2.1213998e-38
-0.090317458 -0.11216442 -0.028032823 2.1122163e-38
-0.088374659 -0.11216442 -0.028032823 2.1121087e-38
-0.086431846 -0.11216442 -0.028032823 2.0844863e-38
-0.084305719 -0.11145501 -0.025002046 1.9830718e-38
-0.082368225 -0.11145501 -0.025002046 1.9646326e-38
-0.080430731 -0.11145501 -0.025002046 2.066155e-38
-0.078493237 -0.11145501 -0.025002046 2.1122163e-38
-0.076555744 -0.11145501 -0.025002046 2.0754821e-38
-0.074412636 -0.11052449 -0.021026654 2.0479314e-38
-0.072482117 -0.11052449 -0.021026654 2.0203808e-38
-0.070361294 -0.10960068 -0.017079873 2.0020137e-38
-0.068437696 -0.10960068 -0.017079873 1.9559524e-38
-0.066375948 -0.10887744 -0.013990087 1.8822688e-38
-0.064457767 -0.10887744 -0.013990087 1.8269881e-38
-0.062374171 -0.1079378 -0.0099757146 1.8546105e-38
-0.06046303 -0.1079378 -0.0099757146 1.7900746e-38
-0.058551885 -0.1079378 -0.0099757146 1.7347222e-38
-0.056535322 -0.1072513 -0.0070428085 1.7069921e-38
-0.054629318 -0.1072513 -0.0070428085 1.6792263e-38
-0.052723318 -0.1072513 -0.0070428085 1.6238378e-38
-0.050817315 -0.1072513 -0.0070428085 1.5777046e-38
-0.048911314 -0.1072513 -0.0070428085 1.5501902e-38
-0.047005311 -0.1072513 -0.0070428085 1.4215129e-38
-0.045173872 -0.1079378 -0.0099757146 1.3571563e-38
-0.043262728 -0.1079378 -0.0099757146 1.3479369e-38
-0.041220818 -0.1065412 -0.0040091705 1.3571563e-38
-0.039240658 -0.10561861 -6.7634508e-05 1.3479369e-38
-0.037346888 -0.10561861 -6.7634508e-05 1.329498e-38
-0.035453115 -0.10561861 -6.7634508e-05 1.3203504e-38
-0.033559341 -0.10561861 -6.7634508e-05 1.3387892e-38
-0.031665567 -0.10561861 -6.7634508e-05 1.3848863e-38
-0.029771797 -0.10561861 -6.7634508e-05 1.3387892e-38
-0.027849143 -0.1049176 0.0029272605 1.3111309e-38
-0.025960622 -0.1049176 0.0029272605 1.3112027e-38
-0.024072101 -0.1049176 0.0029272605 1.3204221e-38
-0.022166023 -0.10398008 0.0069325734 1.302055e-38
-0.020284524 -0.10398008 0.0069325734 1.3296057e-38
-0.018400334 -0.1032616 0.010002093 1.357228e-38
-0.016524218 -0.1032616 0.010002093 1.3570483e-38
-0.014655831 -0.10257359 0.012941437 1.3754148e-38
-0.012784869 -0.10257359 0.012941437 1.4122568e-38
-0.010913906 -0.10257359 0.012941437 1.4676096e-38
-0.009042942 -0.10257359 0.012941437 1.5228188e-38
-0.0071719792 -0.10257359 0.012941437 1.5320019e-38
-0.0053470964 -0.10162716 0.016984778 1.5227458e-38
-0.0035228354 -0.10092205 0.019997196 1.5411126e-38
-0.0017088845 -0.10022092 0.022992568 1.5041623e-38
0.00014445488 -0.10022092 0.022992568 1.5317487e-38
0.0019977961 -0.10022092 0.022992568 1.5408967e-38
0.0038511355 -0.10022092 0.022992568 1.5408967e-38
0.0056391982 -0.099523753 0.025971012 1.5500443e-38
0.0073913457 -0.098574698 0.030025559 1.5499723e-38
0.0092323544 -0.098574698 0.030025559 1.5314974e-38
0.011073363 -0.098574698 0.030025559 1.5222782e-38
0.012914372 -0.098574698 0.030025559 1.4486661e-38
0.014755382 -0.098574698 0.030025559 1.411824e-38
0.016596392 -0.098574698 0.030025559 1.411824e-38
0.018233299 -0.097177386 0.0359952 1.4210436e-38
0.019955538 -0.096472099 0.039008334 1.411824e-38
0.021780796 -0.096472099 0.039008334 1.3933849e-38
0.023606058 -0.096472099 0.039008334 1.3933488e-38
0.025431316 -0.096472099 0.039008334 1.4025683e-38
0.027256574 -0.096472099 0.039008334 1.5039832e-38
0.029081836 -0.096472099 0.039008334 1.4947634e-38
0.030907094 -0.096472099 0.039008334 1.513238e-38
0.032732353 -0.096472099 0.039008334 1.5593355e-38
0.034557614 -0.096472099 0.039008334 1.6514946e-38
0.036227923 -0.095770895 0.042004064 1.7345062e-38
0.038047928 -0.095770895 0.042004064 1.8082623e-38
0.039867938 -0.095770895 0.042004064 1.8359923e-38
0.041687943 -0.095770895 0.042004064 1.6977713e-38
0.043507949 -0.095770895 0.042004064 1.7714557e-38
0.045327954 -0.095770895 0.042004064 1.8634709e-38
0.047147967 -0.095770895 0.042004064 1.9094243e-38
0.04794617 -0.09203364 0.057970479 1.937047e-38
0.049738184 -0.09203364 0.057970479 1.9370831e-38
0.051530197 -0.09203364 0.057970479 1.9187878e-38
0.053530551 -0.092737779 0.054962233 1.8729418e-38
0.05532784 -0.092737779 0.054962233 1.7350091e-38
0.057125121 -0.092737779 0.054962233 1.3849581e-38
0.05892241 -0.092737779 0.054962233 1.2652132e-38
0.060719699 -0.092737779 0.054962233 1.2467743e-38
0.062516987 -0.092737779 0.054962233 1.2467026e-38
0.068704367 -0.10561861 -6.7634508e-05 1.2465232e-38
0.07059814 -0.10561861 -6.7634508e-05 1.1726244e-38
0.067409232 -0.091333628 0.060961083 1.1357098e-38
0.069196001 -0.091333628 0.060961083 1.1173061e-38
0.070982769 -0.091333628 0.060961083 1.0435493e-38
0.072769538 -0.091333628 0.060961083 1.0802118e-38
0.074556306 -0.091333628 0.060961083 1.0708843e-38
0.076895282 -0.092737779 0.054962233 9.5092212e-39
0.079908088 -0.095770895 0.042004064 8.8631287e-39
0.082014352 -0.096472099 0.039008334 8.585823e-39
0.08383961 -0.096472099 0.039008334 8.0330037e-39
0.086263567 -0.097886756 0.032964662 8.218111e-39
0.088099435 -0.097886756 0.032964662 7.2043108e-39
0.090236753 -0.098574698 0.030025559 6.1897932e-39
0.092500746 -0.099523753 0.025971012 5.9117601e-39
0.094664797 -0.10022092 0.022992568 5.6333684e-39
0.097918913 -0.1032616 0.010002093 4.9858368e-39
0.10057031 -0.1049176 0.0029272605 4.3390254e-39
0.10245883 -0.1049176 0.0029272605 3.969517e-39
0.10468604 -0.10561861 -6.7634508e-05 4.3386541e-39
0.10703248 -0.1065412 -0.0040091705 4.0620644e-39
0.10928686 -0.1072513 -0.0070428085 4.9840235e-39
0.11153997 -0.1079378 -0.0099757146 4.9836605e-39
0.11393327 -0.10887744 -0.013990087 5.6272293e-39
0.11585145 -0.10887744 -0.013990087 5.8112562e-39
0.11776963 -0.10887744 -0.013990087 6.271863e-39
0.11968781 -0.10887744 -0.013990087 1.7535457e-39
0.12160599 -0.10887744 -0.013990087 1.6815582e-44
0.12392236 -0.10960068 -0.017079873 9.8090893e-45
0.12584595 -0.10960068 -0.017079873 2.8025969e-45
0.12776956 -0.10960068 -0.017079873 0
-0.13050483 -0.12190129 -0.061083242 9.6798041e-39
-0.12850408 -0.12190129 -0.061083242 8.3897883e-39
-0.12582994 -0.12023942 -0.054036185 1.3000654e-38
-0.12384154 -0.12023942 -0.054036185 1.8073583e-38
-0.12185314 -0.12023942 -0.054036185 2.0933098e-38
-0.11986475 -0.12023942 -0.054036185 2.1395876e-38
-0.11751683 -0.11928193 -0.049975917 2.0659398e-38
-0.11553556 -0.11928193 -0.049975917 2.0107667e-38
-0.11322215 -0.11836089 -0.046070263 2.0291697e-38
-0.11124772 -0.11836089 -0.046070263 2.0567204e-38
-0.10902828 -0.11765216 -0.043064997 2.0567204e-38
-0.10674143 -0.11671309 -0.03908281 2.0659398e-38
-0.10477924 -0.11671309 -0.03908281 2.1119293e-38
-0.10281707 -0.11671309 -0.03908281 2.0382098e-38
-0.10055108 -0.11575161 -0.035005733 2.1672817e-38
-0.098596051 -0.11575161 -0.035005733 2.0843069e-38
-0.096431777 -0.11505674 -0.032059118 2.1856847e-38
-0.094481915 -0.11505674 -0.032059118 2.2224189e-38
-0.092532054 -0.11505674 -0.032059118 2.2316024e-38
-0.090582192 -0.11505674 -0.032059118 2.2224189e-38
-0.088374659 -0.11410724 -0.028032823 2.240786e-38
-0.086431846 -0.11410724 -0.028032823 2.2316024e-38
-0.084305719 -0.11339252 -0.025002046 2.1302597e-38
-0.082368225 -0.11339252 -0.025002046 2.1118205e-38
-0.080430731 -0.11339252 -0.025002046 2.2224189e-38
-0.078493237 -0.11339252 -0.025002046 2.2591528e-38
-0.076555744 -0.11339252 -0.025002046 2.2591524e-38
-0.074412636 -0.11245503 -0.021026654 2.2499692e-38
-0.072482117 -0.11245503 -0.021026654 2.2224187e-38
-0.070551597 -0.11245503 -0.021026654 2.1948681e-38
-0.068437696 -0.11152427 -0.017079873 2.1673174e-38
-0.06651409 -0.11152427 -0.017079873 2.1121442e-38
-0.064457767 -0.11079563 -0.013990087 2.0845577e-38
-0.062374171 -0.10984896 -0.0099757146 2.102961e-38
-0.06046303 -0.10984896 -0.0099757146 2.0383891e-38
-0.058551885 -0.10984896 -0.0099757146 1.9738167e-38
-0.056535322 -0.10915731 -0.0070428085 1.9460865e-38
-0.054629318 -0.10915731 -0.0070428085 1.8999889e-38
-0.052723318 -0.10915731 -0.0070428085 1.863003e-38
-0.050817315 -0.10915731 -0.0070428085 1.8260893e-38
-0.048911314 -0.10915731 -0.0070428085 1.7802083e-38
-0.047005311 -0.10915731 -0.0070428085 1.6423119e-38
-0.045099307 -0.10915731 -0.0070428085 1.5502968e-38
-0.043193307 -0.10915731 -0.0070428085 1.5134186e-38
-0.041220818 -0.1084419 -0.0040091705 1.531858e-38
-0.039240658 -0.1075124 -6.7634508e-05 1.5319302e-38
-0.037346888 -0.1075124 -6.7634508e-05 1.5227106e-38
-0.035453115 -0.1075124 -6.7634508e-05 1.5227109e-38
-0.033559341 -0.1075124 -6.7634508e-05 1.5503696e-38
-0.031665567 -0.1075124 -6.7634508e-05 1.4305516e-38
-0.029737666 -0.10680611 0.0029272605 1.384454e-38
-0.027849143 -0.10680611 0.0029272605 1.3752345e-38
-0.025960622 -0.10680611 0.0029272605 1.4029293e-38
-0.024047522 -0.10586159 0.0069325734 1.430588e-38
-0.022152569 -0.10513772 0.010002093 1.412257e-38
-0.020276451 -0.10513772 0.010002093 1.4490274e-38
-0.018400334 -0.10513772 0.010002093 1.4490994e-38
-0.016524218 -0.10513772 0.010002093 1.3845633e-38
-0.014655831 -0.10444455 0.012941437 1.4030023e-38
-0.012784869 -0.10444455 0.012941437 1.4122217e-38
-0.010913906 -0.10444455 0.012941437 1.4214411e-38
-0.009042942 -0.10444455 0.012941437 1.4490994e-38
-0.0071719792 -0.10444455 0.012941437 1.5135636e-38
-0.0053470964 -0.10349102 0.016984778 1.5320025e-38
-0.0034832226 -0.10349102 0.016984778 1.5319666e-38
-0.0016642443 -0.10278064 0.019997196 1.5688443e-38
0.0001943477 -0.10278064 0.019997196 1.5595531e-38
0.0020529397 -0.10278064 0.019997196 1.5318949e-38
0.0038511355 -0.10207425 0.022992568 1.5042007e-38
0.0056391982 -0.10137187 0.025971012 1.4856898e-38
0.0074873166 -0.10137187 0.025971012 1.4579956e-38
0.0092323544 -0.10041572 0.030025559 1.4487763e-38
0.011073363 -0.10041572 0.030025559 1.4212255e-38
0.012914372 -0.10041572 0.030025559 1.4121138e-38
0.014755382 -0.10041572 0.030025559 1.3476848e-38
0.016596392 -0.10041572 0.030025559 1.3108065e-38
0.018233299 -0.099007934 0.0359952 1.2923677e-38
0.02006384 -0.099007934 0.0359952 1.2554894e-38
0.021780796 -0.098297372 0.039008334 1.2093916e-38
0.023606058 -0.098297372 0.039008334 1.1909525e-38
0.025431316 -0.098297372 0.039008334 1.2093913e-38
0.027256574 -0.098297372 0.039008334 1.3014791e-38
0.029081836 -0.098297372 0.039008334 1.273856e-38
0.030907094 -0.098297372 0.039008334 1.2277579e-38
0.032732353 -0.098297372 0.039008334 1.218538e-38
0.034557614 -0.098297372 0.039008334 1.2370129e-38
0.036227923 -0.097590908 0.042004064 1.2738909e-38
0.038047928 -0.097590908 0.042004064 1.3107691e-38
0.039867938 -0.097590908 0.042004064 1.329208e-38
0.041687943 -0.097590908 0.042004064 1.3476827e-38
0.043507949 -0.097590908 0.042004064 1.4490258e-38
0.045327954 -0.097590908 0.042004064 1.541041e-38
0.047147967 -0.097590908 0.042004064 1.614725e-38
0.048332334 -0.09524864 0.051936343 1.6699703e-38
0.049738184 -0.093825653 0.057970479 1.6423837e-38
0.051530197 -0.093825653 0.057970479 1.6056142e-38
0.053530551 -0.094535068 0.054962233 1.6058655e-38
0.05532784 -0.094535068 0.054962233 1.4862282e-38
0.057125121 -0.094535068 0.054962233 1.348188e-38
0.05892241 -0.094535068 0.054962233 1.246882e-38
0.060490258 -0.093825653 0.057970479 1.2837955e-38
0.062048934 -0.093120396 0.060961083 1.2284072e-38
0.063835703 -0.093120396 0.060961083 1.1637278e-38
0.065380074 -0.092419267 0.063934162 1.1635484e-38
0.067161635 -0.092419267 0.063934162 1.0620255e-38
0.069196001 -0.093120396 0.060961083 1.0435493e-38
0.070982769 -0.093120396 0.060961083 9.7897583e-39
0.072769538 -0.093120396 0.060961083 1.0156023e-38
0.074556306 -0.093120396 0.060961083 1.0063108e-38
0.076895282 -0.094535068 0.054962233 9.1397114e-39
0.079252049 -0.095941633 0.048997715 8.4939819e-39
0.082014352 -0.098297372 0.039008334 8.6772913e-39
0.08383961 -0.098297372 0.039008334 8.4932532e-39
0.086263567 -0.099722609 0.032964662 8.3088605e-39
0.088099435 -0.099722609 0.032964662 7.8482327e-39
0.090236753 -0.10041572 0.030025559 7.2946946e-39
0.092500746 -0.10137187 0.025971012 6.924826e-39
0.094664797 -0.10207425 0.022992568 6.2780133e-39
0.097601965 -0.10444455 0.012941437 5.5382847e-39
0.099795029 -0.10513772 0.010002093 5.1680602e-39
0.10245883 -0.10680611 0.0029272605 5.1676959e-39
0.10434735 -0.10680611 0.0029272605 4.7992665e-39
0.10657981 -0.1075124 -6.7634508e-05 4.9836549e-39
0.10928686 -0.10915731 -0.0070428085 6.0900025e-39
0.11153997 -0.10984896 -0.0099757146 6.0896424e-39
0.11393327 -0.11079563 -0.013990087 7.1030698e-39
0.11622795 -0.11152427 -0.017079873 7.8399104e-39
0.11815156 -0.11152427 -0.017079873 7.9317375e-39
0.12007515 -0.11152427 -0.017079873 2.5833049e-39
0.12199876 -0.11152427 -0.017079873 1.6815582e-44
0.12392236 -0.11152427 -0.017079873 9.8090893e-45
0.12584595 -0.11152427 -0.017079873 5.6051939e-45
0.12829202 -0.11245503 -0.021026654 0
-0.13090214 -0.12485488 -0.06509392 9.863475e-39
-0.12850408 -0.12390204 -0.061083242 9.7719983e-39
-0.12582994 -0.12222783 -0.054036185 1.5305179e-38
-0.12384154 -0.12222783 -0.054036185 2.0930199e-38
-0.12185314 -0.12222783 -0.054036185 2.2775199e-38
-0.11949812 -0.12126322 -0.049975917 2.2591531e-38
-0.11751683 -0.12126322 -0.049975917 2.2499695e-38
-0.11519659 -0.12033533 -0.046070263 2.2316024e-38
-0.1129666 -0.11962132 -0.043064997 2.2040518e-38
-0.11099744 -0.11962132 -0.043064997 2.2499695e-38
-0.1087036 -0.11867525 -0.03908281 2.2316024e-38
-0.10674143 -0.11867525 -0.03908281 2.240786e-38
-0.10477924 -0.11867525 -0.03908281 2.2591531e-38
-0.10250612 -0.11770664 -0.035005733 2.2314948e-38
-0.10055108 -0.11770664 -0.035005733 2.2775202e-38
-0.098596051 -0.11770664 -0.035005733 2.2499695e-38
-0.096641019 -0.11770664 -0.035005733 2.2775202e-38
-0.094685987 -0.11770664 -0.035005733 2.2775202e-38
-0.092532054 -0.11700659 -0.032059118 2.2775202e-38
-0.090582192 -0.11700659 -0.032059118 2.2591531e-38
-0.088374659 -0.11605005 -0.028032823 2.2867037e-38
-0.086431846 -0.11605005 -0.028032823 2.2958873e-38
-0.084489048 -0.11605005 -0.028032823 2.2591529e-38
-0.082368225 -0.11533 -0.025002046 2.2498973e-38
-0.080430731 -0.11533 -0.025002046 2.3142541e-38
-0.078493237 -0.11533 -0.025002046 2.3326199e-38
-0.076555744 -0.11533 -0.025002046 2.3509869e-38
-0.074412636 -0.11438553 -0.021026654 2.3509873e-38
-0.072482117 -0.11438553 -0.021026654 2.3418038e-38
-0.070551597 -0.11438553 -0.021026654 2.3234369e-38
-0.068437696 -0.11344786 -0.017079873 2.3142537e-38
-0.06651409 -0.11344786 -0.017079873 2.2958867e-38
-0.064457767 -0.1127138 -0.013990087 2.2867034e-38
-0.062539585 -0.1127138 -0.013990087 2.2867037e-38
-0.06046303 -0.11176009 -0.0099757146 2.2683366e-38
-0.058551885 -0.11176009 -0.0099757146 2.2683366e-38
-0.05664074 -0.11176009 -0.0099757146 2.2867037e-38
-0.054629318 -0.11106332 -0.0070428085 2.2867037e-38
-0.052723318 -0.11106332 -0.0070428085 2.2958873e-38
-0.050817315 -0.11106332 -0.0070428085 2.2866678e-38
-0.048911314 -0.11106332 -0.0070428085 2.2591531e-38
-0.047005311 -0.11106332 -0.0070428085 2.1489146e-38
-0.045099307 -0.11106332 -0.0070428085 2.0384609e-38
-0.043193307 -0.11106332 -0.0070428085 1.9831444e-38
-0.041220818 -0.11034258 -0.0040091705 1.9923638e-38
-0.039240658 -0.10940616 -6.7634508e-05 1.9739608e-38
-0.037346888 -0.10940616 -6.7634508e-05 1.9186443e-38
-0.035453115 -0.10940616 -6.7634508e-05 1.8633277e-38
-0.033559341 -0.10940616 -6.7634508e-05 1.8448889e-38
-0.031626187 -0.10869466 0.0029272605 1.8265218e-38
-0.029737666 -0.10869466 0.0029272605 1.7712052e-38
-0.027849143 -0.10869466 0.0029272605 1.7251437e-38
-0.025929021 -0.10774307 0.0069325734 1.7343634e-38
-0.024047522 -0.10774307 0.0069325734 1.7067769e-38
-0.022152569 -0.10701384 0.010002093 1.6606792e-38
-0.020276451 -0.10701384 0.010002093 1.623801e-38
-0.018397758 -0.10631551 0.012941437 1.6238378e-38
-0.016526794 -0.10631551 0.012941437 1.633165e-38
-0.014655831 -0.10631551 0.012941437 1.5871755e-38
-0.012784869 -0.10631551 0.012941437 1.5134201e-38
-0.010913906 -0.10631551 0.012941437 1.4396641e-38
-0.009042942 -0.10631551 0.012941437 1.4304801e-38
-0.0071719792 -0.10631551 0.012941437 1.5042366e-38
-0.0053470964 -0.10535492 0.016984778 1.5595531e-38
-0.0034832226 -0.10535492 0.016984778 1.559589e-38
-0.0016642443 -0.10463922 0.019997196 1.4673946e-38
0.0001943477 -0.10463922 0.019997196 1.4673948e-38
0.0020529397 -0.10463922 0.019997196 1.4582112e-38
0.0038511355 -0.1039276 0.022992568 1.4489559e-38
0.0056391982 -0.10322 0.025971012 1.4305171e-38
0.0074873166 -0.10322 0.025971012 1.4028588e-38
0.009335435 -0.10322 0.025971012 1.3751647e-38
0.011073363 -0.10225673 0.030025559 1.347614e-38
0.012914372 -0.10225673 0.030025559 1.3202069e-38
0.014755382 -0.10225673 0.030025559 1.2557061e-38
0.016501058 -0.10155846 0.032964662 1.2188278e-38
0.018336911 -0.10155846 0.032964662 1.2280477e-38
0.02006384 -0.10083848 0.0359952 1.2096087e-38
0.021780796 -0.10012263 0.039008334 1.1911696e-38
0.023606058 -0.10012263 0.039008334 1.2095731e-38
0.025431316 -0.10012263 0.039008334 1.2556709e-38
0.027256574 -0.10012263 0.039008334 1.1726948e-38
0.029081836 -0.10012263 0.039008334 1.1634753e-38
0.030907094 -0.10012263 0.039008334 1.1542197e-38
0.032732353 -0.10012263 0.039008334 1.1358522e-38
0.034557614 -0.10012263 0.039008334 1.1542194e-38
0.036227923 -0.099410906 0.042004064 1.1450716e-38
0.038047928 -0.099410906 0.042004064 1.1449997e-38
0.039650761 -0.098476708 0.045936301 1.1450353e-38
0.041463871 -0.098476708 0.045936301 1.1081571e-38
0.043276984 -0.098476708 0.045936301 1.1541104e-38
0.045090094 -0.098476708 0.045936301 1.1264153e-38
0.046903208 -0.098476708 0.045936301 1.1815885e-38
0.048332334 -0.097051233 0.051936343 1.2368337e-38
0.049935974 -0.096332356 0.054962233 1.1539295e-38
0.051733263 -0.096332356 0.054962233 1.006561e-38
0.053530551 -0.096332356 0.054962233 9.514242e-39
0.05532784 -0.096332356 0.054962233 9.1479889e-39
0.057125121 -0.096332356 0.054962233 9.5178588e-39
0.05892241 -0.096332356 0.054962233 8.5969899e-39
0.060490258 -0.095617667 0.057970479 9.611146e-39
0.062048934 -0.094907165 0.060961083 9.1501679e-39
0.063598521 -0.094200835 0.063934162 8.5030006e-39
0.065380074 -0.094200835 0.063934162 9.6089866e-39
0.067161635 -0.094200835 0.063934162 8.4089987e-39
0.068943188 -0.094200835 0.063934162 6.8402199e-39
0.070982769 -0.094907165 0.060961083 6.5621868e-39
0.072769538 -0.094907165 0.060961083 7.3905084e-39
0.07482636 -0.095617667 0.057970479 8.03444e-39
0.076895282 -0.096332356 0.054962233 7.7564112e-39
0.078976393 -0.097051233 0.051936343 7.9393605e-39
0.081352338 -0.098476708 0.045936301 8.4928916e-39
0.08383961 -0.10012263 0.039008334 8.5850845e-39
0.085963354 -0.10083848 0.0359952 8.493242e-39
0.087793902 -0.10083848 0.0359952 8.0322596e-39
0.090236753 -0.10225673 0.030025559 7.4787201e-39
0.092811465 -0.1039276 0.022992568 6.648235e-39
0.09498255 -0.10463922 0.019997196 5.9088622e-39
0.097601965 -0.10631551 0.012941437 5.630832e-39
0.099795029 -0.10701384 0.010002093 6.4584347e-39
0.10201289 -0.10774307 0.0069325734 7.4722209e-39
0.10434735 -0.10869466 0.0029272605 7.3803798e-39
0.10623588 -0.10869466 0.0029272605 7.841711e-39
0.10928686 -0.11106332 -0.0070428085 9.3157621e-39
0.11153997 -0.11176009 -0.0099757146 9.3157593e-39
0.11393327 -0.1127138 -0.013990087 1.0513941e-38
0.11585145 -0.1127138 -0.013990087 1.1803954e-38
0.11815156 -0.11344786 -0.017079873 1.1711393e-38
0.12007515 -0.11344786 -0.017079873 5.6261166e-39
0.12199876 -0.11344786 -0.017079873 7.3568169e-43
0.12392236 -0.11344786 -0.017079873 7.300765e-43
0.1263615 -0.11438553 -0.021026654 3.657389e-43
0.12829202 -0.11438553 -0.021026654 3.629363e-43
-0.13090214 -0.12686269 -0.06509392 9.2181056e-39
-0.12850408 -0.12590279 -0.061083242 9.1266289e-39
-0.12582994 -0.12421621 -0.054036185 1.6318967e-38
-0.12384154 -0.12421621 -0.054036185 2.2127656e-38
-0.12147939 -0.12324448 -0.049975917 2.3142535e-38
-0.11949812 -0.12324448 -0.049975917 2.2958867e-38
-0.11717102 -0.12230973 -0.046070263 2.2958873e-38
-0.11519659 -0.12230973 -0.046070263 2.2867037e-38
-0.1129666 -0.12159048 -0.043064997 2.2867037e-38
-0.11099744 -0.12159048 -0.043064997 2.2958873e-38
-0.1087036 -0.12063743 -0.03908281 2.3142544e-38
-0.10674143 -0.12063743 -0.03908281 2.3142544e-38
-0.10477924 -0.12063743 -0.03908281 2.3142544e-38
-0.10250612 -0.11966167 -0.035005733 2.3142544e-38
-0.10055108 -0.11966167 -0.035005733 2.3142544e-38
-0.098596051 -0.11966167 -0.035005733 2.3142544e-38
-0.096641019 -0.11966167 -0.035005733 2.3142544e-38
-0.094685987 -0.11966167 -0.035005733 2.3234379e-38
-0.092532054 -0.11895646 -0.032059118 2.3234379e-38
-0.090582192 -0.11895646 -0.032059118 2.3234379e-38
-0.088632315 -0.11895646 -0.032059118 2.3234379e-38
-0.086431846 -0.11799283 -0.028032823 2.341805e-38
-0.084489048 -0.11799283 -0.028032823 2.3234379e-38
-0.082368225 -0.11726747 -0.025002046 2.341805e-38
-0.080430731 -0.11726747 -0.025002046 2.3509883e-38
-0.078493237 -0.11726747 -0.025002046 2.3508807e-38
-0.076555744 -0.11726747 -0.025002046 2.3508807e-38
-0.074412636 -0.11631607 -0.021026654 2.3508807e-38
-0.072482117 -0.11631607 -0.021026654 2.3508807e-38
-0.070551597 -0.11631607 -0.021026654 2.3509165e-38
-0.068437696 -0.11537148 -0.017079873 2.3509527e-38
-0.066375948 -0.114632 -0.013990087 2.3509527e-38
-0.064457767 -0.114632 -0.013990087 2.3509527e-38
-0.062539585 -0.114632 -0.013990087 2.3509527e-38
-0.06046303 -0.11367123 -0.0099757146 2.3417333e-38
-0.058551885 -0.11367123 -0.0099757146 2.3417333e-38
-0.05664074 -0.11367123 -0.0099757146 2.3509527e-38
-0.054629318 -0.11296929 -0.0070428085 2.3509527e-38
-0.052723318 -0.11296929 -0.0070428085 2.3232227e-38
-0.050817315 -0.11296929 -0.0070428085 2.3232227e-38
-0.048911314 -0.11296929 -0.0070428085 2.3417691e-38
-0.047005311 -0.11296929 -0.0070428085 2.2130201e-38
-0.045099307 -0.11296929 -0.0070428085 2.2131636e-38
-0.043121498 -0.11224325 -0.0040091705 2.2039441e-38
-0.041220818 -0.11224325 -0.0040091705 2.1670665e-38
-0.039240658 -0.11129995 -6.7634508e-05 2.1394441e-38
-0.037346888 -0.11129995 -6.7634508e-05 2.1486635e-38
-0.035453115 -0.11129995 -6.7634508e-05 2.1394441e-38
-0.033559341 -0.11129995 -6.7634508e-05 2.0933111e-38
-0.031626187 -0.11058317 0.0029272605 2.0841993e-38
-0.029737666 -0.11058317 0.0029272605 2.0657246e-38
-0.027849143 -0.11058317 0.0029272605 1.9920404e-38
-0.025929021 -0.10962458 0.0069325734 1.899845e-38
-0.024047522 -0.10962458 0.0069325734 1.8722226e-38
-0.022152569 -0.10888995 0.010002093 1.9091009e-38
-0.020268722 -0.10818647 0.012941437 1.9091009e-38
-0.018397758 -0.10818647 0.012941437 1.8630758e-38
-0.016526794 -0.10818647 0.012941437 1.7618059e-38
-0.014655831 -0.10818647 0.012941437 1.7158527e-38
-0.012784869 -0.10818647 0.012941437 1.7066331e-38
-0.010913906 -0.10818647 0.012941437 1.6974496e-38
-0.009042942 -0.10818647 0.012941437 1.6698991e-38
-0.0071719792 -0.10818647 0.012941437 1.6422764e-38
-0.0053470964 -0.10721879 0.016984778 1.5961791e-38
-0.0034832226 -0.10721879 0.016984778 1.5225667e-38
-0.0016642443 -0.10649781 0.019997196 1.4580663e-38
0.0001943477 -0.10649781 0.019997196 1.4396995e-38
0.0019977961 -0.10578094 0.022992568 1.4397359e-38
0.0037910801 -0.1050681 0.025971012 1.4397724e-38
0.0056391982 -0.1050681 0.025971012 1.4214053e-38
0.0073913457 -0.10409774 0.030025559 1.4029664e-38
0.0092323544 -0.10409774 0.030025559 1.3569052e-38
0.011073363 -0.10409774 0.030025559 1.3109157e-38
0.012914372 -0.10409774 0.030025559 1.2281553e-38
0.014755382 -0.10409774 0.030025559 1.2558859e-38
0.016501058 -0.10339431 0.032964662 1.2558503e-38
0.018233299 -0.10266902 0.0359952 1.2189722e-38
0.02006384 -0.10266902 0.0359952 1.2097529e-38
0.021780796 -0.10194789 0.039008334 1.2189367e-38
0.023606058 -0.10194789 0.039008334 1.209789e-38
0.025431316 -0.10194789 0.039008334 1.2005696e-38
0.027256574 -0.10194789 0.039008334 1.1359978e-38
0.029081836 -0.10194789 0.039008334 1.1544366e-38
0.030907094 -0.10194789 0.039008334 1.1543649e-38
0.032587908 -0.10123092 0.042004064 1.0991201e-38
0.034407917 -0.10123092 0.042004064 1.1266707e-38
0.036227923 -0.10123092 0.042004064 1.1452172e-38
0.038047928 -0.10123092 0.042004064 1.1635484e-38
0.039650761 -0.10028981 0.045936301 1.1266707e-38
0.041463871 -0.10028981 0.045936301 1.1358543e-38
0.043276984 -0.10028981 0.045936301 1.1634049e-38
0.045090094 -0.10028981 0.045936301 1.1725881e-38
0.046903208 -0.10028981 0.045936301 1.1541128e-38
0.048520401 -0.099557132 0.048997715 1.1263815e-38
0.049935974 -0.098129645 0.054962233 1.071172e-38
0.051733263 -0.098129645 0.054962233 1.034402e-38
0.053530551 -0.098129645 0.054962233 9.9766789e-39
0.05532784 -0.098129645 0.054962233 9.608981e-39
0.057125121 -0.098129645 0.054962233 9.7019011e-39
0.05892241 -0.098129645 0.054962233 8.9657766e-39
0.060490258 -0.09740968 0.057970479 9.3345591e-39
0.062048934 -0.096693933 0.060961083 9.0579723e-39
0.063598521 -0.095982388 0.063934162 9.0572534e-39
0.065380074 -0.095982388 0.063934162 9.5175099e-39
0.067161635 -0.095982388 0.063934162 7.9490968e-39
0.068943188 -0.095982388 0.063934162 6.8409359e-39
0.070982769 -0.096693933 0.060961083 6.6547384e-39
0.072769538 -0.096693933 0.060961083 6.4685493e-39
0.07482636 -0.09740968 0.057970479 6.9284456e-39
0.076895282 -0.098129645 0.054962233 8.1244693e-39
0.078976393 -0.098853827 0.051936343 8.7694757e-39
0.081059799 -0.099557132 0.048997715 8.7691128e-39
0.083165452 -0.10028981 0.045936301 8.4925203e-39
0.085963354 -0.10266902 0.0359952 8.1240923e-39
0.087793902 -0.10266902 0.0359952 8.1244454e-39
0.090236753 -0.10409774 0.030025559 7.5705472e-39
0.092811465 -0.10578094 0.022992568 6.5560295e-39
0.09498255 -0.10649781 0.019997196 6.3701949e-39
0.097601965 -0.10818647 0.012941437 6.921924e-39
0.099795029 -0.10888995 0.010002093 7.2885485e-39
0.10201289 -0.10962458 0.0069325734 7.1037929e-39
0.10434735 -0.11058317 0.0029272605 7.2867366e-39
0.10623588 -0.11058317 0.0029272605 8.1168518e-39
0.10893315 -0.11224325 -0.0040091705 9.1302807e-39
0.11119287 -0.11296929 -0.0070428085 1.1066386e-38
0.11345112 -0.11367123 -0.0099757146 1.1619557e-38
0.11585145 -0.114632 -0.013990087 1.3186518e-38
0.11776963 -0.114632 -0.013990087 1.3463461e-38
0.12007515 -0.11537148 -0.017079873 7.0090455e-39
0.12199876 -0.11537148 -0.017079873 8.3121662e-40
0.12392236 -0.11537148 -0.017079873 9.8090893e-45
0.1263615 -0.11631607 -0.021026654 3.671402e-43
0.12829202 -0.11631607 -0.021026654 2.8025969e-45
-0.13090214 -0.12887047 -0.06509392 1.1338605e-38
-0.12820379 -0.12715961 -0.057997391 1.0140778e-38
-0.12582994 -0.12620462 -0.054036185 1.733204e-38
-0.12346067 -0.12522577 -0.049975917 2.2864499e-38
-0.12147939 -0.12522577 -0.049975917 2.3509873e-38
-0.11914544 -0.12428416 -0.046070263 2.3326203e-38
-0.11717102 -0.12428416 -0.046070263 2.3234374e-38
-0.11493576 -0.12355967 -0.043064997 2.3234376e-38
-0.11262797 -0.12259962 -0.03908281 2.3142542e-38
-0.11066578 -0.12259962 -0.03908281 2.341805e-38
-0.1087036 -0.12259962 -0.03908281 2.3509886e-38
-0.10674143 -0.12259962 -0.03908281 2.3509886e-38
-0.10477924 -0.12259962 -0.03908281 2.3509886e-38
-0.10250612 -0.12161671 -0.035005733 2.3509886e-38
-0.10055108 -0.12161671 -0.035005733 2.3509886e-38
-0.098596051 -0.12161671 -0.035005733 2.3509886e-38
-0.096641019 -0.12161671 -0.035005733 2.3509886e-38
-0.094685987 -0.12161671 -0.035005733 2.3509886e-38
-0.092532054 -0.12090631 -0.032059118 2.3509886e-38
-0.090582192 -0.12090631 -0.032059118 2.3509883e-38
-0.088374659 -0.11993565 -0.028032823 2.3509883e-38
-0.086431846 -0.11993565 -0.028032823 2.3509883e-38
-0.084489048 -0.11993565 -0.028032823 2.3509883e-38
-0.082368225 -0.11920498 -0.025002046 2.3509883e-38
-0.080430731 -0.11920498 -0.025002046 2.3509527e-38
-0.078493237 -0.11920498 -0.025002046 2.3508451e-38
-0.076343156 -0.11824657 -0.021026654 2.3508092e-38
-0.074412636 -0.11824657 -0.021026654 2.3508451e-38
-0.072482117 -0.11824657 -0.021026654 2.3508451e-38
-0.070361294 -0.11729507 -0.017079873 2.3508451e-38
-0.068437696 -0.11729507 -0.017079873 2.3508809e-38
-0.066375948 -0.11655019 -0.013990087 2.3508809e-38
-0.064457767 -0.11655019 -0.013990087 2.3509168e-38
-0.062539585 -0.11655019 -0.013990087 2.3508451e-38
-0.06046303 -0.11558239 -0.0099757146 2.3323699e-38
-0.058551885 -0.11558239 -0.0099757146 2.3508092e-38
-0.05664074 -0.11558239 -0.0099757146 2.3509168e-38
-0.054629318 -0.1148753 -0.0070428085 2.3509168e-38
-0.052723318 -0.1148753 -0.0070428085 2.3509168e-38
-0.050817315 -0.1148753 -0.0070428085 2.3509168e-38
-0.048911314 -0.1148753 -0.0070428085 2.3232583e-38
-0.047005311 -0.1148753 -0.0070428085 2.341805e-38
-0.045099307 -0.1148753 -0.0070428085 2.3142544e-38
-0.043121498 -0.11414395 -0.0040091705 2.3142544e-38
-0.041220818 -0.11414395 -0.0040091705 2.3142544e-38
-0.039240658 -0.11319371 -6.7634508e-05 2.3050708e-38
-0.037346888 -0.11319371 -6.7634508e-05 2.2958873e-38
-0.035453115 -0.11319371 -6.7634508e-05 2.3142544e-38
-0.033559341 -0.11319371 -6.7634508e-05 2.2867037e-38
-0.031626187 -0.11247168 0.0029272605 2.2958873e-38
-0.029737666 -0.11247168 0.0029272605 2.2867037e-38
-0.027849143 -0.11247168 0.0029272605 2.2867037e-38
-0.025929021 -0.11150609 0.0069325734 2.2867037e-38
-0.024047522 -0.11150609 0.0069325734 2.2683366e-38
-0.022139683 -0.11005743 0.012941437 2.2683366e-38
-0.020268722 -0.11005743 0.012941437 2.2591531e-38
-0.018397758 -0.11005743 0.012941437 2.2039083e-38
-0.016526794 -0.11005743 0.012941437 2.2132353e-38
-0.014655831 -0.11005743 0.012941437 2.1856488e-38
-0.012784869 -0.11005743 0.012941437 2.1395876e-38
-0.010913906 -0.11005743 0.012941437 2.0935622e-38
-0.009042942 -0.11005743 0.012941437 2.029098e-38
-0.0072109709 -0.10908265 0.016984778 1.9370472e-38
-0.0053470964 -0.10908265 0.016984778 1.8448889e-38
-0.0034832226 -0.10908265 0.016984778 1.7619854e-38
-0.001619349 -0.10908265 0.016984778 1.6975929e-38
0.0001943477 -0.1083564 0.019997196 1.6607871e-38
0.0019977961 -0.10763429 0.022992568 1.6147619e-38
0.0037910801 -0.10691623 0.025971012 1.5595889e-38
0.0056391982 -0.10691623 0.025971012 1.5135278e-38
0.0073913457 -0.10593875 0.030025559 1.4490271e-38
0.0092323544 -0.10593875 0.030025559 1.3661236e-38
0.011073363 -0.10593875 0.030025559 1.320098e-38
0.012914372 -0.10593875 0.030025559 1.3110942e-38
0.0146652 -0.10523017 0.032964662 1.301947e-38
0.016501058 -0.10523017 0.032964662 1.2742884e-38
0.018233299 -0.10449956 0.0359952 1.2189357e-38
0.019955538 -0.10377313 0.039008334 1.2097164e-38
0.021780796 -0.10377313 0.039008334 1.2189724e-38
0.023606058 -0.10377313 0.039008334 1.2281561e-38
0.025431316 -0.10377313 0.039008334 1.2096814e-38
0.027256574 -0.10377313 0.039008334 1.1728037e-38
0.029081836 -0.10377313 0.039008334 1.1819873e-38
0.030767903 -0.10305093 0.042004064 1.1451096e-38
0.032587908 -0.10305093 0.042004064 1.1082319e-38
0.034407917 -0.10305093 0.042004064 1.1082319e-38
0.036227923 -0.10305093 0.042004064 1.1175231e-38
0.038047928 -0.10305093 0.042004064 1.1358543e-38
0.039650761 -0.10210292 0.045936301 1.108196e-38
0.041463871 -0.10210292 0.045936301 1.1726602e-38
0.043276984 -0.10210292 0.045936301 1.1818079e-38
0.045090094 -0.10210292 0.045936301 1.1725885e-38
0.046903208 -0.10210292 0.045936301 1.1633332e-38
0.048520401 -0.10136487 0.048997715 1.1633332e-38
0.050134927 -0.10065642 0.051936343 1.1633691e-38
0.051733263 -0.099926919 0.054962233 1.1358543e-38
0.053530551 -0.099926919 0.054962233 1.1267066e-38
0.05532784 -0.099926919 0.054962233 1.0161442e-38
0.057125121 -0.099926919 0.054962233 1.0254356e-38
0.05892241 -0.099926919 0.054962233 9.7940968e-39
0.060490258 -0.099201679 0.057970479 1.0070684e-38
0.062048934 -0.098480701 0.060961083 9.7940968e-39
0.063598521 -0.097763941 0.063934162 9.794094e-39
0.065380074 -0.097763941 0.063934162 1.0162158e-38
0.067161635 -0.097763941 0.063934162 8.5015489e-39
0.068943188 -0.097763941 0.063934162 7.3015497e-39
0.070982769 -0.098480701 0.060961083 7.207908e-39
0.072769538 -0.098480701 0.060961083 7.2979456e-39
0.07482636 -0.099201679 0.057970479 7.7574818e-39
0.076895282 -0.099926919 0.054962233 8.6772773e-39
0.078976393 -0.10065642 0.051936343 9.1378925e-39
0.080778986 -0.10065642 0.051936343 9.3215593e-39
0.082867548 -0.10136487 0.048997715 9.2289979e-39
0.085963354 -0.10449956 0.0359952 9.5062995e-39
0.087793902 -0.10449956 0.0359952 9.3222613e-39
0.090236753 -0.10593875 0.030025559 8.8609189e-39
0.092811465 -0.10763429 0.022992568 8.3070192e-39
0.09498255 -0.1083564 0.019997196 8.3059346e-39
0.097601965 -0.11005743 0.012941437 9.2264504e-39
0.099795029 -0.11076607 0.010002093 1.0423552e-38
0.10201289 -0.11150609 0.0069325734 1.1251868e-38
0.10434735 -0.11247168 0.0029272605 1.2264213e-38
0.10623588 -0.11247168 0.0029272605 1.3093608e-38
0.10893315 -0.11414395 -0.0040091705 1.3923723e-38
0.11119287 -0.1148753 -0.0070428085 1.4845677e-38
0.11345112 -0.11558239 -0.0099757146 1.5214457e-38
0.11585145 -0.11655019 -0.013990087 1.5952379e-38
0.11776963 -0.11655019 -0.013990087 1.5583594e-38
0.12007515 -0.11729507 -0.017079873 8.0224729e-39
0.12199876 -0.11729507 -0.017079873 4.6207116e-40
0.12443098 -0.11824657 -0.021026654 1.8548147e-40
0.1263615 -0.11824657 -0.021026654 1.6598885e-39
-0.12820379 -0.12915494 -0.057997391 1.078615e-38
-0.12582994 -0.12819304 -0.054036185 1.7793018e-38
-0.12346067 -0.12720706 -0.049975917 2.3416953e-38
-0.12147939 -0.12720706 -0.049975917 2.350987e-38
-0.11914544 -0.1262586 -0.046070263 2.3509872e-38
-0.11717102 -0.1262586 -0.046070263 2.3509876e-38
-0.11493576 -0.12552883 -0.043064997 2.3509879e-38
-0.11262797 -0.1245618 -0.03908281 2.3325847e-38
-0.11066578 -0.1245618 -0.03908281 2.3509883e-38
-0.1087036 -0.1245618 -0.03908281 2.3509883e-38
-0.10674143 -0.1245618 -0.03908281 2.3509527e-38
-0.10477924 -0.1245618 -0.03908281 2.3509883e-38
-0.10281707 -0.1245618 -0.03908281 2.3509883e-38
-0.10055108 -0.12357174 -0.035005733 2.3509883e-38
-0.098596051 -0.12357174 -0.035005733 2.3509883e-38
-0.096641019 -0.12357174 -0.035005733 2.3509883e-38
-0.094685987 -0.12357174 -0.035005733 2.3509527e-38
-0.092532054 -0.12285618 -0.032059118 2.3509527e-38
-0.090582192 -0.12285618 -0.032059118 2.3509527e-38
-0.088374659 -0.12187846 -0.028032823 2.3509527e-38
-0.086431846 -0.12187846 -0.028032823 2.3509527e-38
-0.084489048 -0.12187846 -0.028032823 2.3509527e-38
-0.082368225 -0.12114246 -0.025002046 2.3509527e-38
-0.080430731 -0.12114246 -0.025002046 2.3509168e-38
-0.078493237 -0.12114246 -0.025002046 2.3508809e-38
-0.076343156 -0.12017711 -0.021026654 2.3508809e-38
-0.074412636 -0.12017711 -0.021026654 2.3508809e-38
-0.072482117 -0.12017711 -0.021026654 2.3509168e-38
-0.070361294 -0.11921866 -0.017079873 2.3509168e-38
-0.068437696 -0.11921866 -0.017079873 2.3509527e-38
-0.06651409 -0.11921866 -0.017079873 2.3509527e-38
-0.064457767 -0.11846836 -0.013990087 2.3509527e-38
-0.062539585 -0.11846836 -0.013990087 2.3509527e-38
-0.06046303 -0.11749353 -0.0099757146 2.341805e-38
-0.058551885 -0.11749353 -0.0099757146 2.3325856e-38
-0.05664074 -0.11749353 -0.0099757146 2.2772684e-38
-0.054629318 -0.11678131 -0.0070428085 2.2496097e-38
-0.052723318 -0.11678131 -0.0070428085 2.2773039e-38
-0.050817315 -0.11678131 -0.0070428085 2.3326213e-38
-0.048911314 -0.11678131 -0.0070428085 2.341805e-38
-0.047005311 -0.11678131 -0.0070428085 2.3141822e-38
-0.045022186 -0.11604463 -0.0040091705 2.3142539e-38
-0.043121498 -0.11604463 -0.0040091705 2.3050347e-38
-0.041220818 -0.11604463 -0.0040091705 2.2865955e-38
-0.039240658 -0.11508749 -6.7634508e-05 2.2865955e-38
-0.037346888 -0.11508749 -6.7634508e-05 2.3050707e-38
-0.035453115 -0.11508749 -6.7634508e-05 2.3234379e-38
-0.033559341 -0.11508749 -6.7634508e-05 2.3050708e-38
-0.031626187 -0.1143602 0.0029272605 2.2221308e-38
-0.029737666 -0.1143602 0.0029272605 2.2590813e-38
-0.027849143 -0.1143602 0.0029272605 2.2958873e-38
-0.025929021 -0.11338757 0.0069325734 2.2958873e-38
-0.024047522 -0.11338757 0.0069325734 2.2958873e-38
-0.022139683 -0.11192839 0.012941437 2.2958873e-38
-0.020268722 -0.11192839 0.012941437 2.2958873e-38
-0.018397758 -0.11192839 0.012941437 2.2958873e-38
-0.016526794 -0.11192839 0.012941437 2.3142544e-38
-0.014655831 -0.11192839 0.012941437 2.295887e-38
-0.012784869 -0.11192839 0.012941437 2.2867037e-38
-0.010913906 -0.11192839 0.012941437 2.2683366e-38
-0.009042942 -0.11192839 0.012941437 2.2224189e-38
-0.0072109709 -0.11094652 0.016984778 2.1395871e-38
-0.0053470964 -0.11094652 0.016984778 2.0658673e-38
-0.0034832226 -0.11094652 0.016984778 1.9922194e-38
-0.001619349 -0.11094652 0.016984778 1.8725097e-38
0.0001943477 -0.11021499 0.019997196 1.8265204e-38
0.0019977961 -0.10948761 0.022992568 1.7620919e-38
0.0037910801 -0.10876434 0.025971012 1.6976994e-38
0.0056391982 -0.10876434 0.025971012 1.6331992e-38
0.0073913457 -0.10777976 0.030025559 1.5502954e-38
0.0092323544 -0.10777976 0.030025559 1.4766111e-38
0.011073363 -0.10777976 0.030025559 1.4121466e-38
0.012829344 -0.10706602 0.032964662 1.3754134e-38
0.0146652 -0.10706602 0.032964662 1.3294601e-38
0.016501058 -0.10706602 0.032964662 1.274143e-38
0.018233299 -0.10633011 0.0359952 1.2187901e-38
0.019955538 -0.10559841 0.039008334 1.2187548e-38
0.021780796 -0.10559841 0.039008334 1.2556335e-38
0.023606058 -0.10559841 0.039008334 1.2555982e-38
0.025431316 -0.10559841 0.039008334 1.2095371e-38
0.027256574 -0.10559841 0.039008334 1.2555992e-38
0.029081836 -0.10559841 0.039008334 1.2555633e-38
0.030767903 -0.10487093 0.042004064 1.2186856e-38
0.032587908 -0.10487093 0.042004064 1.1818079e-38
0.034407917 -0.10487093 0.042004064 1.1910273e-38
0.036227923 -0.10487093 0.042004064 1.2002826e-38
0.038047928 -0.10487093 0.042004064 1.2186497e-38
0.039650761 -0.10391603 0.045936301 1.2002109e-38
0.041463871 -0.10391603 0.045936301 1.2370886e-38
0.043276984 -0.10391603 0.045936301 1.2093227e-38
0.04490491 -0.10317262 0.048997715 1.1724809e-38
0.046712652 -0.10317262 0.048997715 1.1632614e-38
0.048332334 -0.10245901 0.051936343 1.1725167e-38
0.050134927 -0.10245901 0.051936343 1.1725885e-38
0.051733263 -0.10172421 0.054962233 1.1725885e-38
0.053530551 -0.10172421 0.054962233 1.1450015e-38
0.05532784 -0.10172421 0.054962233 1.0804646e-38
0.057125121 -0.10172421 0.054962233 1.0897918e-38
0.058698244 -0.10099369 0.057970479 1.043694e-38
0.060262166 -0.10026747 0.060961083 1.0529853e-38
0.062048934 -0.10026747 0.060961083 1.0345461e-38
0.063598521 -0.099545494 0.063934162 1.0345461e-38
0.065380074 -0.099545494 0.063934162 1.0437657e-38
0.067161635 -0.099545494 0.063934162 8.5011803e-39
0.068943188 -0.099545494 0.063934162 7.3933796e-39
0.070982769 -0.10026747 0.060961083 7.6685204e-39
0.072769538 -0.10026747 0.060961083 7.9429493e-39
0.07482636 -0.10099369 0.057970479 8.4024855e-39
0.076895282 -0.10172421 0.054962233 9.138247e-39
0.078976393 -0.10245901 0.051936343 9.6896201e-39
0.080778986 -0.10245901 0.051936343 9.9654812e-39
0.082867548 -0.10317262 0.048997715 9.9658357e-39
0.085963354 -0.10633011 0.0359952 9.6896019e-39
0.087793902 -0.10633011 0.0359952 9.5055652e-39
0.090236753 -0.10777976 0.030025559 9.2289727e-39
0.092811465 -0.10948761 0.022992568 9.0442171e-39
0.09498255 -0.11021499 0.019997196 9.134968e-39
0.097165957 -0.11094652 0.016984778 9.6870572e-39
0.099472925 -0.11192839 0.012941437 1.0700127e-38
0.10167114 -0.11264218 0.010002093 1.2080538e-38
0.10354726 -0.11264218 0.010002093 1.3922644e-38
0.10657981 -0.11508749 -6.7634508e-05 1.475096e-38
0.10893315 -0.11604463 -0.0040091705 1.5304489e-38
0.11153997 -0.11749353 -0.0099757146 1.4935703e-38
0.11393327 -0.11846836 -0.013990087 1.5582149e-38
0.11622795 -0.11921866 -0.017079873 1.6504462e-38
0.11815156 -0.11921866 -0.017079873 1.6596658e-38
0.12056994 -0.12017711 -0.021026654 8.2986941e-39
0.12300579 -0.12114246 -0.025002046 7.300765e-43
0.12533386 -0.12187846 -0.028032823 3.6994279e-43
0.12727667 -0.12187846 -0.028032823 1.7517282e-39
0.12921947 -0.12187846 -0.028032823 1.6598871e-39
-0.12820379 -0.13115029 -0.057997391 1.0509565e-38
-0.12582994 -0.13018142 -0.054036185 1.7516433e-38
-0.12346067 -0.12918831 -0.049975917 2.3140366e-38
-0.12147939 -0.12918831 -0.049975917 2.3509873e-38
-0.11914544 -0.12823303 -0.046070263 2.3509156e-38
-0.11717102 -0.12823303 -0.046070263 2.3509876e-38
-0.11493576 -0.12749799 -0.043064997 2.3509879e-38
-0.11262797 -0.12652399 -0.03908281 2.3509521e-38
-0.11066578 -0.12652399 -0.03908281 2.3509524e-38
-0.1087036 -0.12652399 -0.03908281 2.3509524e-38
-0.10674143 -0.12652399 -0.03908281 2.3509524e-38
-0.10477924 -0.12652399 -0.03908281 2.3509524e-38
-0.10281707 -0.12652399 -0.03908281 2.3509524e-38
-0.10055108 -0.12552677 -0.035005733 2.3509524e-38
-0.098596051 -0.12552677 -0.035005733 2.3509524e-38
-0.096641019 -0.12552677 -0.035005733 2.3509524e-38
-0.094481915 -0.12480606 -0.032059118 2.3509527e-38
-0.092260256 -0.12382124 -0.028032823 2.3509527e-38
-0.090317458 -0.12382124 -0.028032823 2.3509527e-38
-0.088374659 -0.12382124 -0.028032823 2.3509527e-38
-0.086243197 -0.12307997 -0.025002046 2.3509527e-38
-0.084305719 -0.12307997 -0.025002046 2.3509527e-38
-0.082368225 -0.12307997 -0.025002046 2.3509527e-38
-0.080430731 -0.12307997 -0.025002046 2.3509527e-38
-0.078493237 -0.12307997 -0.025002046 2.3509527e-38
-0.076343156 -0.12210761 -0.021026654 2.3417691e-38
-0.074412636 -0.12210761 -0.021026654 2.3417691e-38
-0.072482117 -0.12210761 -0.021026654 2.3417691e-38
-0.070361294 -0.12114228 -0.017079873 2.3234379e-38
-0.068437696 -0.12114228 -0.017079873 2.3234379e-38
-0.06651409 -0.12114228 -0.017079873 2.3234379e-38
-0.064457767 -0.12038656 -0.013990087 2.3234379e-38
-0.062539585 -0.12038656 -0.013990087 2.2497176e-38
-0.060621392 -0.12038656 -0.013990087 2.3234379e-38
-0.058551885 -0.11940466 -0.0099757146 2.3234379e-38
-0.05664074 -0.11940466 -0.0099757146 2.3234379e-38
-0.054629318 -0.11868732 -0.0070428085 2.3234376e-38
-0.052723318 -0.11868732 -0.0070428085 2.3234376e-38
-0.050817315 -0.11868732 -0.0070428085 2.3234376e-38
-0.048911314 -0.11868732 -0.0070428085 2.3234376e-38
-0.047005311 -0.11868732 -0.0070428085 2.3234018e-38
-0.045022186 -0.11794533 -0.0040091705 2.341805e-38
-0.043121498 -0.11794533 -0.0040091705 2.3234379e-38
-0.041134432 -0.11698125 -6.7634508e-05 2.3234379e-38
-0.039240658 -0.11698125 -6.7634508e-05 2.3234379e-38
-0.037346888 -0.11698125 -6.7634508e-05 2.3234379e-38
-0.035453115 -0.11698125 -6.7634508e-05 2.3234379e-38
-0.033559341 -0.11698125 -6.7634508e-05 2.3234379e-38
-0.031626187 -0.11624874 0.0029272605 2.3234379e-38
-0.029737666 -0.11624874 0.0029272605 2.3142544e-38
-0.027849143 -0.11624874 0.0029272605 2.3234376e-38
-0.025929021 -0.11526908 0.0069325734 2.3142541e-38
-0.024047522 -0.11526908 0.0069325734 2.3050703e-38
-0.022139683 -0.11379938 0.012941437 2.3050703e-38
-0.020268722 -0.11379938 0.012941437 2.3050703e-38
-0.018397758 -0.11379938 0.012941437 2.2958503e-38
-0.016526794 -0.11379938 0.012941437 2.3326195e-38
-0.014655831 -0.11379938 0.012941437 2.3418029e-38
-0.012784869 -0.11379938 0.012941437 2.3509869e-38
-0.010938718 -0.11281042 0.016984778 2.3418035e-38
-0.0090748444 -0.11281042 0.016984778 2.3142531e-38
-0.0072109709 -0.11281042 0.016984778 2.2958866e-38
-0.0053470964 -0.11281042 0.016984778 2.2867034e-38
-0.0034832226 -0.11281042 0.016984778 2.2499695e-38
-0.001619349 -0.11281042 0.016984778 2.2316024e-38
