# .PCD v0.7 - Point Cloud Data file format
VERSION 0.7
FIELDS x y z rgb
SIZE 4 4 4 4
TYPE F F F F
COUNT 1 1 1 1
WIDTH 933
HEIGHT 1
VIEWPOINT 0 0 0 1 0 0 0
POINTS 933
DATA ascii
0.037429959 -0.099053472 -0.031183379 2.2867037e-38
0.03939214 -0.099053472 -0.031183379 2.2867037e-38
0.041236371 -0.098156333 -0.027106302 2.2683366e-38
0.043191403 -0.098156333 -0.027106302 2.2775202e-38
0.045146428 -0.098156333 -0.027106302 2.2775202e-38
0.04710146 -0.098156333 -0.027106302 2.2222395e-38
0.049056493 -0.098156333 -0.027106302 2.1575233e-38
0.051165216 -0.099053472 -0.031183379 2.0745473e-38
0.053284489 -0.09992972 -0.035165567 2.0192296e-38
0.055253655 -0.09992972 -0.035165567 1.9824595e-38
0.057222813 -0.09992972 -0.035165567 1.8165436e-38
0.059191972 -0.09992972 -0.035165567 1.844383e-38
0.06097611 -0.099053472 -0.031183379 1.6601372e-38
0.062938288 -0.099053472 -0.031183379 6.4616689e-39
0.064900465 -0.099053472 -0.031183379 6.7404348e-39
0.06686265 -0.099053472 -0.031183379 2.0395577e-39
0.06903778 -0.09992972 -0.035165567 4.806521e-39
0.071006939 -0.09992972 -0.035165567 6.2823854e-39
0.073147357 -0.100591 -0.038170833 7.1135922e-39
0.10774782 -0.1032155 -0.050097961 9.2391335e-39
0.10974317 -0.1032155 -0.050097961 8.3164542e-39
0.11173851 -0.1032155 -0.050097961 7.94695e-39
0.11373385 -0.1032155 -0.050097961 8.3146479e-39
0.11572919 -0.1032155 -0.050097961 8.5894257e-39
0.11772453 -0.1032155 -0.050097961 8.3110311e-39
0.11971989 -0.1032155 -0.050097961 8.2166649e-39
0.12171523 -0.1032155 -0.050097961 5.4486212e-39
0.12371057 -0.1032155 -0.050097961 1.8508154e-39
0.12570591 -0.1032155 -0.050097961 1.8483127e-42
-0.1042484 -0.10189888 -0.035165567 1.2281198e-38
-0.10227924 -0.10189888 -0.035165567 1.2466663e-38
-0.10031008 -0.10189888 -0.035165567 1.1730529e-38
-0.09796039 -0.10101564 -0.031183379 1.2100741e-38
-0.09599822 -0.10101564 -0.031183379 1.2562793e-38
-0.094036035 -0.10101564 -0.031183379 1.2656784e-38
-0.092073865 -0.10101564 -0.031183379 1.2841894e-38
-0.092414789 -0.10678484 -0.05719449 1.31192e-38
-0.089447297 -0.10433225 -0.046136755 1.3579814e-38
-0.086525954 -0.10189888 -0.035165567 1.4132262e-38
-0.084225141 -0.10101564 -0.031183379 1.5143887e-38
-0.082262956 -0.10101564 -0.031183379 1.4590004e-38
-0.080858223 -0.10256544 -0.038170833 1.5144605e-38
-0.078883789 -0.10256544 -0.038170833 1.5330069e-38
-0.077819042 -0.10521083 -0.050097961 1.4777263e-38
-0.076053642 -0.10589527 -0.053183813 1.5514458e-38
-0.074052893 -0.10589527 -0.053183813 1.4868022e-38
-0.072336935 -0.10678484 -0.05719449 1.182344e-38
-0.07005138 -0.10589527 -0.053183813 1.052876e-38
-0.067842327 -0.10521083 -0.050097961 1.1170175e-38
-0.063156657 -0.096135467 -0.0091804434 1.3748404e-38
-0.061233051 -0.096135467 -0.0091804434 1.4021729e-38
-0.05930946 -0.096135467 -0.0091804434 2.2224189e-38
-0.057385854 -0.096135467 -0.0091804434 2.2775202e-38
-0.055280767 -0.095450163 -0.0060906578 2.3418031e-38
-0.053362586 -0.095450163 -0.0060906578 2.3509859e-38
-0.051444404 -0.095450163 -0.0060906578 2.3509876e-38
-0.049526222 -0.095450163 -0.0060906578 2.3509886e-38
-0.04760804 -0.095450163 -0.0060906578 2.3509886e-38
-0.045689858 -0.095450163 -0.0060906578 2.3509886e-38
-0.044302635 -0.097892582 -0.017102616 2.3509883e-38
-0.042180434 -0.097010851 -0.013127225 2.3509883e-38
-0.040073447 -0.096135467 -0.0091804434 2.3509883e-38
-0.038149856 -0.096135467 -0.0091804434 2.3509883e-38
-0.03622625 -0.096135467 -0.0091804434 2.3509883e-38
-0.034302644 -0.096135467 -0.0091804434 2.3509883e-38
-0.032379046 -0.096135467 -0.0091804434 2.3509883e-38
-0.030455446 -0.096135467 -0.0091804434 2.3509883e-38
-0.028531848 -0.096135467 -0.0091804434 2.350988e-38
-0.026608245 -0.096135467 -0.0091804434 2.350988e-38
-0.024805745 -0.097010851 -0.013127225 2.350988e-38
-0.022875225 -0.097010851 -0.013127225 2.3509883e-38
-0.021135109 -0.098564804 -0.020133393 2.3509886e-38
-0.019192306 -0.098564804 -0.020133393 2.3509886e-38
-0.0172495 -0.098564804 -0.020133393 2.3509886e-38
-0.015306694 -0.098564804 -0.020133393 2.3509886e-38
-0.013363888 -0.098564804 -0.020133393 2.3509886e-38
-0.011421083 -0.098564804 -0.020133393 2.3509886e-38
-0.0094782803 -0.098564804 -0.020133393 2.3509886e-38
-0.0075354781 -0.098564804 -0.020133393 2.3509886e-38
-0.0055926722 -0.098564804 -0.020133393 2.3509886e-38
-0.0037293341 -0.10011137 -0.027106302 2.3509886e-38
-0.0018136185 -0.10101564 -0.031183379 2.3509886e-38
0.00014855899 -0.10101564 -0.031183379 2.3509886e-38
0.0021107383 -0.10101564 -0.031183379 2.3509886e-38
0.0040729176 -0.10101564 -0.031183379 2.3509886e-38
0.0060350969 -0.10101564 -0.031183379 2.3509886e-38
0.0080008488 -0.10011137 -0.027106302 2.3509883e-38
0.0099532977 -0.099457815 -0.024159687 2.350988e-38
0.011903161 -0.099457815 -0.024159687 2.3509879e-38
0.013853027 -0.099457815 -0.024159687 2.3509879e-38
0.01580289 -0.099457815 -0.024159687 2.3509521e-38
0.017776001 -0.10011137 -0.027106302 2.3509161e-38
0.019731034 -0.10011137 -0.027106302 2.3508804e-38
0.021686064 -0.10011137 -0.027106302 2.3508446e-38
0.023694709 -0.10101564 -0.031183379 2.3232583e-38
0.025656886 -0.10101564 -0.031183379 2.3509527e-38
0.027619066 -0.10101564 -0.031183379 2.341805e-38
0.029581245 -0.10101564 -0.031183379 2.3142544e-38
0.031543426 -0.10101564 -0.031183379 2.2958873e-38
0.033505604 -0.10101564 -0.031183379 2.2499336e-38
0.035467781 -0.10101564 -0.031183379 2.2039441e-38
0.037429959 -0.10101564 -0.031183379 2.20398e-38
0.03939214 -0.10101564 -0.031183379 2.2132353e-38
0.041236371 -0.10011137 -0.027106302 2.1672099e-38
0.043191403 -0.10011137 -0.027106302 2.1671023e-38
0.045146428 -0.10011137 -0.027106302 2.1208976e-38
0.04710146 -0.10011137 -0.027106302 2.0010441e-38
0.049056493 -0.10011137 -0.027106302 1.8902301e-38
0.051165216 -0.10101564 -0.031183379 1.7611208e-38
0.053284489 -0.10189888 -0.035165567 1.678181e-38
0.055253655 -0.10189888 -0.035165567 1.6321914e-38
0.057222813 -0.10189888 -0.035165567 1.7336429e-38
0.059191972 -0.10189888 -0.035165567 1.7337872e-38
0.061161138 -0.10189888 -0.035165567 1.7432952e-38
0.063130297 -0.10189888 -0.035165567 1.1903023e-38
0.065099455 -0.10189888 -0.035165567 1.264276e-38
0.067068622 -0.10189888 -0.035165567 7.5738136e-39
0.06903778 -0.10189888 -0.035165567 8.5886956e-39
0.071006939 -0.10189888 -0.035165567 8.5894229e-39
0.072976105 -0.10189888 -0.035165567 8.3132017e-39
0.090698555 -0.10189888 -0.035165567 9.6997235e-39
0.093780421 -0.10521083 -0.050097961 1.0345093e-38
0.095775761 -0.10521083 -0.050097961 1.0622043e-38
0.097771116 -0.10521083 -0.050097961 1.0068869e-38
0.10001264 -0.10589527 -0.053183813 9.7011654e-39
0.10201339 -0.10589527 -0.053183813 9.9777551e-39
0.10740403 -0.10433225 -0.046136755 8.5959025e-39
0.10939243 -0.10433225 -0.046136755 8.3193128e-39
0.11138082 -0.10433225 -0.046136755 8.3189527e-39
0.11336922 -0.10433225 -0.046136755 8.3175079e-39
0.11535762 -0.10433225 -0.046136755 7.5784996e-39
0.11734601 -0.10433225 -0.046136755 6.3781487e-39
0.11933441 -0.10433225 -0.046136755 5.5458601e-39
0.12132282 -0.10433225 -0.046136755 6.1890547e-39
0.12331121 -0.10433225 -0.046136755 2.2213888e-39
0.12529962 -0.10433225 -0.046136755 3.6377708e-42
0.12728801 -0.10433225 -0.046136755 1.4629556e-42
-0.10621757 -0.10386805 -0.035165567 1.2557427e-38
-0.1042484 -0.10386805 -0.035165567 1.2374832e-38
-0.10188476 -0.10297783 -0.031183379 1.2284431e-38
-0.099922575 -0.10297783 -0.031183379 1.2469894e-38
-0.097570799 -0.1020664 -0.027106302 1.3024137e-38
-0.095615767 -0.1020664 -0.027106302 1.3578738e-38
-0.093660749 -0.1020664 -0.027106302 1.3948232e-38
-0.092073865 -0.10297783 -0.031183379 1.394895e-38
-0.09011168 -0.10297783 -0.031183379 1.3489055e-38
-0.089447297 -0.10632066 -0.046136755 1.3212469e-38
-0.086525954 -0.10386805 -0.035165567 1.330359e-38
-0.084225141 -0.10297783 -0.031183379 1.403935e-38
-0.082262956 -0.10297783 -0.031183379 1.330072e-38
-0.080300786 -0.10297783 -0.031183379 1.376205e-38
-0.078338601 -0.10297783 -0.031183379 1.3302505e-38
-0.076376431 -0.10297783 -0.031183379 1.2288704e-38
-0.074414246 -0.10297783 -0.031183379 1.3210663e-38
-0.072452061 -0.10297783 -0.031183379 1.3024488e-38
-0.069705226 -0.1005076 -0.020133393 1.0164279e-38
-0.067552529 -0.099830076 -0.017102616 1.0437286e-38
-0.065615036 -0.099830076 -0.017102616 1.0617724e-38
-0.063156657 -0.098059073 -0.0091804434 1.2366198e-38
-0.061233051 -0.098059073 -0.0091804434 1.3653681e-38
-0.05930946 -0.098059073 -0.0091804434 2.0380663e-38
-0.057385854 -0.098059073 -0.0091804434 2.2499695e-38
-0.055280767 -0.097368345 -0.0060906578 2.3050707e-38
-0.053362586 -0.097368345 -0.0060906578 2.2865584e-38
-0.051444404 -0.097368345 -0.0060906578 2.341805e-38
-0.049526222 -0.097368345 -0.0060906578 2.341805e-38
-0.04760804 -0.097368345 -0.0060906578 2.341805e-38
-0.045689858 -0.097368345 -0.0060906578 2.3509886e-38
-0.043771677 -0.097368345 -0.0060906578 2.3509886e-38
-0.041853495 -0.097368345 -0.0060906578 2.3509886e-38
-0.039935306 -0.097368345 -0.0060906578 2.3509527e-38
-0.038017124 -0.097368345 -0.0060906578 2.3509527e-38
-0.03622625 -0.098059073 -0.0091804434 2.3509524e-38
-0.034302644 -0.098059073 -0.0091804434 2.3509524e-38
-0.032379046 -0.098059073 -0.0091804434 2.3509524e-38
-0.030455446 -0.098059073 -0.0091804434 2.3509521e-38
-0.028531848 -0.098059073 -0.0091804434 2.3509521e-38
-0.026608245 -0.098059073 -0.0091804434 2.3509521e-38
-0.024805745 -0.098941371 -0.013127225 2.3509521e-38
-0.022875225 -0.098941371 -0.013127225 2.3509521e-38
-0.021052742 -0.099830076 -0.017102616 2.3509524e-38
-0.019115252 -0.099830076 -0.017102616 2.3509524e-38
-0.0172495 -0.1005076 -0.020133393 2.3509524e-38
-0.015306694 -0.1005076 -0.020133393 2.3509524e-38
-0.013302779 -0.099830076 -0.017102616 2.3509883e-38
-0.011365289 -0.099830076 -0.017102616 2.3509883e-38
-0.0094277989 -0.099830076 -0.017102616 2.3509883e-38
-0.0074903052 -0.099830076 -0.017102616 2.3509883e-38
-0.0055926722 -0.1005076 -0.020133393 2.3509883e-38
-0.0036498662 -0.1005076 -0.020133393 2.350988e-38
-0.0017743018 -0.1020664 -0.027106302 2.3509883e-38
0.00014855899 -0.10297783 -0.031183379 2.350988e-38
0.0021107383 -0.10297783 -0.031183379 2.3509883e-38
0.0040729176 -0.10297783 -0.031183379 2.350988e-38
0.0060458183 -0.1020664 -0.027106302 2.350988e-38
0.0080008488 -0.1020664 -0.027106302 2.350988e-38
0.0099532977 -0.10140768 -0.024159687 2.350988e-38
0.011903161 -0.10140768 -0.024159687 2.350988e-38
0.013853027 -0.10140768 -0.024159687 2.3509521e-38
0.01580289 -0.10140768 -0.024159687 2.3509521e-38
0.017776001 -0.1020664 -0.027106302 2.350952e-38
0.019731034 -0.1020664 -0.027106302 2.3325131e-38
0.021686064 -0.1020664 -0.027106302 2.3141103e-38
0.023694709 -0.10297783 -0.031183379 2.2957075e-38
0.025656886 -0.10297783 -0.031183379 2.1944005e-38
0.027619066 -0.10297783 -0.031183379 2.1760698e-38
0.029581245 -0.10297783 -0.031183379 2.130116e-38
0.031543426 -0.10297783 -0.031183379 2.0103342e-38
0.033505604 -0.10297783 -0.031183379 1.8353067e-38
0.035467781 -0.10297783 -0.031183379 1.7154886e-38
0.037429959 -0.10297783 -0.031183379 1.6786467e-38
0.03939214 -0.10297783 -0.031183379 1.669535e-38
0.041236371 -0.1020664 -0.027106302 1.715633e-38
0.043191403 -0.1020664 -0.027106302 1.7709148e-38
0.045146428 -0.1020664 -0.027106302 1.8537835e-38
0.04710146 -0.1020664 -0.027106302 1.9274329e-38
0.049203038 -0.10297783 -0.031183379 1.9735303e-38
0.05131533 -0.10386805 -0.035165567 2.0472498e-38
0.053127393 -0.10297783 -0.031183379 2.1301888e-38
0.055089571 -0.10297783 -0.031183379 2.1947965e-38
0.05735191 -0.10453986 -0.038170833 2.1765011e-38
0.059013933 -0.10297783 -0.031183379 2.0567921e-38
0.06097611 -0.10297783 -0.031183379 2.0108744e-38
0.062938288 -0.10297783 -0.031183379 2.0202373e-38
0.064348303 -0.1005076 -0.020133393 1.8175893e-38
0.066291101 -0.1005076 -0.020133393 1.6056861e-38
0.06903778 -0.10386805 -0.035165567 1.4675383e-38
0.070787005 -0.10297783 -0.031183379 1.4399876e-38
0.072749183 -0.10297783 -0.031183379 1.4768294e-38
0.074711367 -0.10297783 -0.031183379 1.3016604e-38
0.080852747 -0.10386805 -0.035165567 1.2924768e-38
0.082821913 -0.10386805 -0.035165567 1.2832574e-38
0.084791072 -0.10386805 -0.035165567 1.1634037e-38
0.08676023 -0.10386805 -0.035165567 1.1173775e-38
0.088729396 -0.10386805 -0.035165567 1.0897188e-38
0.090698555 -0.10386805 -0.035165567 9.6075251e-39
0.092667706 -0.10386805 -0.035165567 9.0543513e-39
0.09463688 -0.10386805 -0.035165567 8.8703174e-39
0.096606039 -0.10386805 -0.035165567 8.3171436e-39
0.098575197 -0.10386805 -0.035165567 8.3171408e-39
0.10054436 -0.10386805 -0.035165567 8.3171408e-39
0.10251351 -0.10386805 -0.035165567 7.5802946e-39
0.10448267 -0.10386805 -0.035165567 6.7519773e-39
0.10645185 -0.10386805 -0.035165567 6.3835549e-39
0.1086871 -0.10453986 -0.038170833 5.737824e-39
0.11138082 -0.10632066 -0.046136755 4.8151488e-39
0.11336922 -0.10632066 -0.046136755 4.2605303e-39
0.11535762 -0.10632066 -0.046136755 4.2594457e-39
0.11734601 -0.10632066 -0.046136755 4.9030074e-39
0.11933441 -0.10632066 -0.046136755 5.8220756e-39
0.12132282 -0.10632066 -0.046136755 6.3730774e-39
0.12331121 -0.10632066 -0.046136755 2.4976085e-39
0.12529962 -0.10632066 -0.046136755 5.4314328e-42
0.12728801 -0.10632066 -0.046136755 5.553514e-40
0.12927641 -0.10632066 -0.046136755 1.3829344e-39
-0.10974865 -0.10087189 -0.013127225 1.4855825e-38
-0.10823982 -0.10176755 -0.017102616 1.5318231e-38
-0.10630234 -0.10176755 -0.017102616 1.3385022e-38
-0.10621757 -0.10583721 -0.035165567 1.2280485e-38
-0.1042484 -0.10583721 -0.035165567 1.2650697e-38
-0.099398978 -0.099286526 -0.0060906578 1.2098249e-38
-0.097090162 -0.098382086 -0.002076285 1.1914578e-38
-0.095179014 -0.098382086 -0.002076285 1.2653208e-38
-0.095615767 -0.10402142 -0.027106302 1.3483315e-38
-0.093660749 -0.10402142 -0.027106302 1.2562449e-38
-0.092073865 -0.10494001 -0.031183379 1.2932302e-38
-0.09011168 -0.10494001 -0.031183379 1.3670573e-38
-0.088149495 -0.10494001 -0.031183379 1.2748631e-38
-0.083640181 -0.10335754 -0.024159687 1.3576227e-38
-0.081690319 -0.10335754 -0.024159687 1.4221227e-38
-0.079740457 -0.10335754 -0.024159687 1.4037198e-38
-0.077790596 -0.10335754 -0.024159687 1.2931202e-38
-0.075840734 -0.10335754 -0.024159687 1.4037541e-38
-0.073590837 -0.1024504 -0.020133393 1.3023386e-38
-0.071648039 -0.1024504 -0.020133393 1.375916e-38
-0.069490008 -0.10176755 -0.017102616 1.1913101e-38
-0.067552529 -0.10176755 -0.017102616 1.1357064e-38
-0.065346681 -0.10087189 -0.013127225 1.144603e-38
-0.063156657 -0.099982664 -0.0091804434 1.2180717e-38
-0.061233051 -0.099982664 -0.0091804434 1.4759308e-38
-0.059117146 -0.099286526 -0.0060906578 1.8537137e-38
-0.057198949 -0.099286526 -0.0060906578 2.2038365e-38
-0.055280767 -0.099286526 -0.0060906578 2.2775202e-38
-0.053362586 -0.099286526 -0.0060906578 2.2958873e-38
-0.051222689 -0.098382086 -0.002076285 2.3142544e-38
-0.049311548 -0.098382086 -0.002076285 2.3142544e-38
-0.047400407 -0.098382086 -0.002076285 2.3234379e-38
-0.045489259 -0.098382086 -0.002076285 2.3325497e-38
-0.043578111 -0.098382086 -0.002076285 2.3325138e-38
-0.041853495 -0.099286526 -0.0060906578 2.3416974e-38
-0.039935306 -0.099286526 -0.0060906578 2.3509168e-38
-0.038017124 -0.099286526 -0.0060906578 2.3509168e-38
-0.036098942 -0.099286526 -0.0060906578 2.3507729e-38
-0.034302644 -0.099982664 -0.0091804434 2.3508807e-38
-0.032379046 -0.099982664 -0.0091804434 2.3507363e-38
-0.030455446 -0.099982664 -0.0091804434 2.3508804e-38
-0.028531848 -0.099982664 -0.0091804434 2.3507002e-38
-0.026608245 -0.099982664 -0.0091804434 2.3509161e-38
-0.024684643 -0.099982664 -0.0091804434 2.3508079e-38
-0.022761045 -0.099982664 -0.0091804434 2.3509161e-38
-0.021052742 -0.10176755 -0.017102616 2.3508802e-38
-0.019115252 -0.10176755 -0.017102616 2.3508082e-38
-0.017177759 -0.10176755 -0.017102616 2.3508798e-38
-0.015240273 -0.10176755 -0.017102616 2.3509158e-38
-0.013222622 -0.10087189 -0.013127225 2.3509517e-38
-0.011292102 -0.10087189 -0.013127225 2.3509157e-38
-0.0093615782 -0.10087189 -0.013127225 2.3508797e-38
-0.0074310582 -0.10087189 -0.013127225 2.3509517e-38
-0.0055005383 -0.10087189 -0.013127225 2.3324404e-38
-0.0036153253 -0.10176755 -0.017102616 2.3509873e-38
-0.0017070603 -0.1024504 -0.020133393 2.3509876e-38
0.00018072687 -0.10402142 -0.027106302 2.3417676e-38
0.0021357574 -0.10402142 -0.027106302 2.3509876e-38
0.0040907878 -0.10402142 -0.027106302 2.3509873e-38
0.0060458183 -0.10402142 -0.027106302 2.3142168e-38
0.0080034323 -0.10335754 -0.024159687 2.341804e-38
0.009949768 -0.1024504 -0.020133393 2.341769e-38
0.011892572 -0.1024504 -0.020133393 2.3509886e-38
0.013835376 -0.1024504 -0.020133393 2.341805e-38
0.015778182 -0.1024504 -0.020133393 2.341805e-38
0.017752754 -0.10335754 -0.024159687 2.3050347e-38
0.019702617 -0.10335754 -0.024159687 2.2682286e-38
0.021652482 -0.10335754 -0.024159687 2.2130191e-38
0.023641095 -0.10402142 -0.027106302 2.1670295e-38
0.025656886 -0.10494001 -0.031183379 2.0933451e-38
0.027619066 -0.10494001 -0.031183379 2.0749423e-38
0.029581245 -0.10494001 -0.031183379 2.00133e-38
0.031543426 -0.10494001 -0.031183379 1.8999512e-38
0.033505604 -0.10494001 -0.031183379 1.7986442e-38
0.035467781 -0.10494001 -0.031183379 1.7894609e-38
0.037429959 -0.10494001 -0.031183379 1.8448865e-38
0.03939214 -0.10494001 -0.031183379 1.9094599e-38
0.041236371 -0.10402142 -0.027106302 1.983252e-38
0.043191403 -0.10402142 -0.027106302 2.0386403e-38
0.045146428 -0.10402142 -0.027106302 2.0938492e-38
0.04710146 -0.10402142 -0.027106302 2.0569356e-38
0.049056493 -0.10402142 -0.027106302 2.0568997e-38
0.051011525 -0.10402142 -0.027106302 2.0754462e-38
0.05296655 -0.10402142 -0.027106302 2.0478238e-38
0.055089571 -0.10494001 -0.031183379 1.9649207e-38
0.057519682 -0.10739426 -0.042076487 1.9741043e-38
0.059013933 -0.10494001 -0.031183379 1.9373342e-38
0.060786672 -0.10402142 -0.027106302 1.8913447e-38
0.062741704 -0.10402142 -0.027106302 1.8269523e-38
0.064348303 -0.1024504 -0.020133393 1.762488e-38
0.066291101 -0.1024504 -0.020133393 1.6795491e-38
0.068824828 -0.10494001 -0.031183379 1.6057937e-38
0.070787005 -0.10494001 -0.031183379 1.532146e-38
0.072749183 -0.10494001 -0.031183379 1.3939981e-38
0.074711367 -0.10494001 -0.031183379 1.3295339e-38
0.07691443 -0.10583721 -0.035165567 1.2465591e-38
0.078635722 -0.10494001 -0.031183379 1.1728027e-38
0.0805979 -0.10494001 -0.031183379 1.126597e-38
0.082560085 -0.10494001 -0.031183379 1.0804992e-38
0.084791072 -0.10583721 -0.035165567 1.0344014e-38
0.08676023 -0.10583721 -0.035165567 1.0159979e-38
0.088729396 -0.10583721 -0.035165567 9.5146092e-39
0.090408795 -0.10494001 -0.031183379 8.9607151e-39
0.092370979 -0.10494001 -0.031183379 8.6841282e-39
0.094333149 -0.10494001 -0.031183379 9.0529108e-39
0.096295334 -0.10494001 -0.031183379 9.1451064e-39
0.098575197 -0.10583721 -0.035165567 8.7759637e-39
0.10021969 -0.10494001 -0.031183379 8.1305915e-39
0.10218187 -0.10494001 -0.031183379 7.8547235e-39
0.10448267 -0.10583721 -0.035165567 7.3019141e-39
0.10645185 -0.10583721 -0.035165567 7.1175214e-39
0.1086871 -0.10651429 -0.038170833 6.9327672e-39
0.11101419 -0.10739426 -0.042076487 6.7476543e-39
0.11299547 -0.10739426 -0.042076487 6.7465697e-39
0.11535762 -0.10830905 -0.046136755 6.8365989e-39
0.11734601 -0.10830905 -0.046136755 7.203215e-39
0.11933441 -0.10830905 -0.046136755 7.6620211e-39
0.12132282 -0.10830905 -0.046136755 8.0293505e-39
0.12331121 -0.10830905 -0.046136755 3.4170369e-39
0.12529962 -0.10830905 -0.046136755 2.3081558e-39
0.12728801 -0.10830905 -0.046136755 8.3121382e-40
0.12927641 -0.10830905 -0.046136755 1.3822156e-39
-0.11562001 -0.1069022 -0.031183379 1.0797766e-38
-0.11321104 -0.10597645 -0.027106302 1.208815e-38
-0.10974865 -0.10280241 -0.013127225 1.3564011e-38
-0.10823982 -0.10370506 -0.017102616 1.5410425e-38
-0.10630234 -0.10370506 -0.017102616 1.4859054e-38
-0.10323536 -0.10120471 -0.0060906578 1.2924768e-38
-0.10131717 -0.10120471 -0.0060906578 1.1173796e-38
-0.099001311 -0.10029322 -0.002076285 8.5008454e-39
-0.097090162 -0.10029322 -0.002076285 8.593041e-39
-0.095179014 -0.10029322 -0.002076285 8.408647e-39
-0.095615767 -0.10597645 -0.027106302 9.2387622e-39
-0.085247673 -0.1043932 -0.020133393 1.1270652e-38
-0.08330486 -0.1043932 -0.020133393 1.1637271e-38
-0.081362061 -0.1043932 -0.020133393 1.283652e-38
-0.079419248 -0.1043932 -0.020133393 1.375918e-38
-0.077476449 -0.1043932 -0.020133393 1.3666257e-38
-0.075302489 -0.10370506 -0.017102616 1.4681117e-38
-0.073364995 -0.10370506 -0.017102616 1.4311613e-38
-0.071427502 -0.10370506 -0.017102616 1.6338107e-38
-0.06920772 -0.10280241 -0.013127225 1.5967537e-38
-0.067003854 -0.10190627 -0.0091804434 1.6426714e-38
-0.065080263 -0.10190627 -0.0091804434 1.5871038e-38
-0.062953509 -0.10120471 -0.0060906578 1.5315e-38
-0.061035328 -0.10120471 -0.0060906578 1.5312833e-38
-0.058867268 -0.10029322 -0.002076285 1.5864195e-38
-0.05695612 -0.10029322 -0.002076285 1.7337872e-38
-0.055044986 -0.10029322 -0.002076285 2.0103004e-38
-0.053133838 -0.10029322 -0.002076285 2.2591172e-38
-0.051222689 -0.10029322 -0.002076285 2.2683366e-38
-0.049311548 -0.10029322 -0.002076285 2.3050708e-38
-0.047400407 -0.10029322 -0.002076285 2.3234379e-38
-0.045489259 -0.10029322 -0.002076285 2.341805e-38
-0.043578111 -0.10029322 -0.002076285 2.3509527e-38
-0.04166697 -0.10029322 -0.002076285 2.3509527e-38
-0.039755829 -0.10029322 -0.002076285 2.3509168e-38
-0.03784468 -0.10029322 -0.002076285 2.3509168e-38
-0.035933532 -0.10029322 -0.002076285 2.3509168e-38
-0.034180753 -0.10120471 -0.0060906578 2.3509165e-38
-0.032262571 -0.10120471 -0.0060906578 2.3508445e-38
-0.030344391 -0.10120471 -0.0060906578 2.3509165e-38
-0.028531848 -0.10190627 -0.0091804434 2.3508801e-38
-0.026608245 -0.10190627 -0.0091804434 2.350988e-38
-0.024684643 -0.10190627 -0.0091804434 2.350988e-38
-0.022761045 -0.10190627 -0.0091804434 2.350988e-38
-0.020944705 -0.10280241 -0.013127225 2.3509521e-38
-0.019014185 -0.10280241 -0.013127225 2.3508801e-38
-0.017083665 -0.10280241 -0.013127225 2.3508441e-38
-0.015066644 -0.10190627 -0.0091804434 2.3509521e-38
-0.013143042 -0.10190627 -0.0091804434 2.3509883e-38
-0.01121944 -0.10190627 -0.0091804434 2.3416971e-38
-0.0092443731 -0.10120471 -0.0060906578 2.341769e-38
-0.0072663631 -0.10029322 -0.002076285 2.3509886e-38
-0.0053552184 -0.10029322 -0.002076285 2.341805e-38
-0.0034898277 -0.10120471 -0.0060906578 2.3234379e-38
-0.0015716422 -0.10120471 -0.0060906578 2.3234379e-38
0.00018072687 -0.10597645 -0.027106302 2.3142544e-38
0.0021357574 -0.10597645 -0.027106302 2.3142544e-38
0.0040907878 -0.10597645 -0.027106302 2.3142544e-38
0.0060641579 -0.1043932 -0.020133393 2.2683007e-38
0.008006962 -0.1043932 -0.020133393 2.2958873e-38
0.00994711 -0.10370506 -0.017102616 2.2866678e-38
0.011874145 -0.10280241 -0.013127225 2.2867037e-38
0.013804667 -0.10280241 -0.013127225 2.2867037e-38
0.015759584 -0.10370506 -0.017102616 2.2775202e-38
0.017634567 -0.10190627 -0.0091804434 2.2591531e-38
0.019558169 -0.10190627 -0.0091804434 2.2499695e-38
0.021652482 -0.10530742 -0.024159687 2.2316024e-38
0.023641095 -0.10597645 -0.027106302 2.2132353e-38
0.025656886 -0.1069022 -0.031183379 2.1856847e-38
0.027619066 -0.1069022 -0.031183379 2.1765011e-38
0.029581245 -0.1069022 -0.031183379 2.158134e-38
0.031623717 -0.10780637 -0.035165567 2.1305834e-38
0.03359288 -0.10780637 -0.035165567 2.0938492e-38
0.035562038 -0.10780637 -0.035165567 2.0386403e-38
0.037429959 -0.1069022 -0.031183379 2.0109461e-38
0.039281338 -0.10597645 -0.027106302 1.9649925e-38
0.040628389 -0.10120471 -0.0060906578 1.854467e-38
0.04254657 -0.10120471 -0.0060906578 1.8268805e-38
0.045050852 -0.10530742 -0.024159687 1.7438698e-38
0.046759434 -0.10370506 -0.017102616 1.5872104e-38
0.048696928 -0.10370506 -0.017102616 1.4857596e-38
0.05048456 -0.10280241 -0.013127225 1.3936725e-38
0.052259378 -0.10190627 -0.0091804434 1.2737827e-38
0.054182976 -0.10190627 -0.0091804434 1.126306e-38
0.05627612 -0.10280241 -0.013127225 1.1263063e-38
0.05820664 -0.10280241 -0.013127225 1.1171586e-38
0.06013716 -0.10280241 -0.013127225 1.0987916e-38
0.06206768 -0.10280241 -0.013127225 1.0988635e-38
0.0639982 -0.10280241 -0.013127225 1.1080831e-38
0.06592872 -0.10280241 -0.013127225 1.0988635e-38
0.068233907 -0.1043932 -0.020133393 1.0804242e-38
0.070787005 -0.1069022 -0.031183379 1.0436184e-38
0.072749183 -0.1069022 -0.031183379 1.0345442e-38
0.074711367 -0.1069022 -0.031183379 9.8848294e-39
0.076673545 -0.1069022 -0.031183379 9.6078824e-39
0.078635722 -0.1069022 -0.031183379 9.1469043e-39
0.0805979 -0.1069022 -0.031183379 9.1458253e-39
0.082560085 -0.1069022 -0.031183379 8.961434e-39
0.084522262 -0.1069022 -0.031183379 8.8685195e-39
0.08648444 -0.1069022 -0.031183379 8.7763239e-39
0.088446617 -0.1069022 -0.031183379 9.6979172e-39
0.090112135 -0.10597645 -0.027106302 9.2369391e-39
0.09206716 -0.10597645 -0.027106302 9.3280557e-39
0.094022192 -0.10597645 -0.027106302 9.6046426e-39
0.095977224 -0.10597645 -0.027106302 9.6964781e-39
0.097932257 -0.10597645 -0.027106302 9.2355e-39
0.10021969 -0.1069022 -0.031183379 9.0500269e-39
0.10218187 -0.1069022 -0.031183379 8.774519e-39
0.10414404 -0.1069022 -0.031183379 8.0373169e-39
0.10645185 -0.10780637 -0.035165567 7.9454772e-39
0.10842101 -0.10780637 -0.035165567 8.0358722e-39
0.11066153 -0.10848872 -0.038170833 7.9433122e-39
0.11263596 -0.10848872 -0.038170833 8.0344218e-39
0.11497676 -0.10937552 -0.042076487 8.2170068e-39
0.11695803 -0.10937552 -0.042076487 8.4917846e-39
0.11933441 -0.11029746 -0.046136755 8.8587581e-39
0.12132282 -0.11029746 -0.046136755 8.8565888e-39
0.12331121 -0.11029746 -0.046136755 3.7843761e-39
0.12529962 -0.11029746 -0.046136755 2.1233988e-39
0.12728801 -0.11029746 -0.046136755 3.6987273e-40
0.12927641 -0.11029746 -0.046136755 4.6097815e-40
-0.11562001 -0.10886435 -0.031183379 9.1407666e-39
-0.11321104 -0.10793148 -0.027106302 9.5102778e-39
-0.10974865 -0.10473295 -0.013127225 1.0432959e-38
-0.10781813 -0.10473295 -0.013127225 1.2093209e-38
-0.10515354 -0.1031229 -0.0060906578 1.2462358e-38
-0.10282359 -0.10220437 -0.002076285 1.108015e-38
-0.10061676 -0.10153329 0.00085662107 1.0526977e-38
-0.098710768 -0.10153329 0.00085662107 8.2220865e-39
-0.096509553 -0.10083917 0.0038902592 7.6678337e-39
-0.094608881 -0.10083917 0.0038902592 7.11466e-39
-0.092708193 -0.10083917 0.0038902592 7.2990498e-39
-0.087641649 -0.097633243 0.017901523 7.3934034e-39
-0.08465188 -0.10473295 -0.013127225 9.1476427e-39
-0.08272136 -0.10473295 -0.013127225 9.9745322e-39
-0.08079084 -0.10473295 -0.013127225 1.1265624e-38
-0.079177462 -0.10564254 -0.017102616 1.2556709e-38
-0.077239983 -0.10564254 -0.017102616 1.3663757e-38
-0.07499928 -0.10473295 -0.013127225 1.5047388e-38
-0.07306876 -0.10473295 -0.013127225 1.5139224e-38
-0.07113824 -0.10473295 -0.013127225 1.7167138e-38
-0.068927459 -0.10382988 -0.0091804434 1.7442644e-38
-0.066789873 -0.1031229 -0.0060906578 1.6795491e-38
-0.064600699 -0.10220437 -0.002076285 1.6608592e-38
-0.062689565 -0.10220437 -0.002076285 1.6514962e-38
-0.060778417 -0.10220437 -0.002076285 1.6421328e-38
-0.058867268 -0.10220437 -0.002076285 1.5866695e-38
-0.05695612 -0.10220437 -0.002076285 1.6418414e-38
-0.055044986 -0.10220437 -0.002076285 1.9368298e-38
-0.053133838 -0.10220437 -0.002076285 2.2499695e-38
-0.051222689 -0.10220437 -0.002076285 2.2683363e-38
-0.049311548 -0.10220437 -0.002076285 2.2958867e-38
-0.047400407 -0.10220437 -0.002076285 2.3142539e-38
-0.045489259 -0.10220437 -0.002076285 2.3142539e-38
-0.043578111 -0.10220437 -0.002076285 2.3418047e-38
-0.04166697 -0.10220437 -0.002076285 2.3418047e-38
-0.039755829 -0.10220437 -0.002076285 2.3418047e-38
-0.03784468 -0.10220437 -0.002076285 2.3418047e-38
-0.035933532 -0.10220437 -0.002076285 2.3326213e-38
-0.034180753 -0.1031229 -0.0060906578 2.3326213e-38
-0.032262571 -0.1031229 -0.0060906578 2.2589368e-38
-0.030344391 -0.1031229 -0.0060906578 2.3050707e-38
-0.028426206 -0.1031229 -0.0060906578 2.2498973e-38
-0.026508024 -0.1031229 -0.0060906578 2.2867037e-38
-0.024589838 -0.1031229 -0.0060906578 2.2591529e-38
-0.022671657 -0.1031229 -0.0060906578 2.2591531e-38
-0.020944705 -0.10473295 -0.013127225 2.2775202e-38
-0.018913841 -0.10382988 -0.0091804434 2.240786e-38
-0.016990243 -0.10382988 -0.0091804434 2.2683366e-38
-0.014998926 -0.1031229 -0.0060906578 2.2591531e-38
-0.01308074 -0.1031229 -0.0060906578 2.2591531e-38
-0.011162559 -0.1031229 -0.0060906578 2.240786e-38
-0.0091775116 -0.10220437 -0.002076285 2.2315307e-38
-0.0072226543 -0.10153329 0.00085662107 2.2316024e-38
-0.0053166505 -0.10153329 0.00085662107 2.2499695e-38
-0.0034106504 -0.10153329 0.00085662107 2.2316024e-38
-0.0014373828 -0.099937305 0.0078317951 2.2039441e-38
0.00045638904 -0.099937305 0.0078317951 2.1855053e-38
0.0023501609 -0.099937305 0.0078317951 2.2315665e-38
0.0042439345 -0.099937305 0.0078317951 2.20398e-38
0.0060641579 -0.10633601 -0.020133393 2.1670665e-38
0.008006962 -0.10633601 -0.020133393 2.1947247e-38
0.00994711 -0.10564254 -0.017102616 2.2132353e-38
0.011845082 -0.10220437 -0.002076285 2.2132353e-38
0.013756227 -0.10220437 -0.002076285 2.2132353e-38
0.015692007 -0.1031229 -0.0060906578 2.1303681e-38
0.017578516 -0.10220437 -0.002076285 2.0566845e-38
0.019489661 -0.10220437 -0.002076285 1.9922562e-38
0.021400806 -0.10220437 -0.002076285 1.9738532e-38
0.02331195 -0.10220437 -0.002076285 1.9463743e-38
0.025716234 -0.10977553 -0.035165567 2.029385e-38
0.027201105 -0.1031229 -0.0060906578 1.9926149e-38
0.029045384 -0.10220437 -0.002076285 1.9834313e-38
0.030956527 -0.10220437 -0.002076285 1.9926866e-38
0.033744343 -0.11135681 -0.042076487 1.9926866e-38
0.034778818 -0.10220437 -0.002076285 1.9097836e-38
0.036689959 -0.10220437 -0.002076285 1.7991505e-38
0.038710203 -0.1031229 -0.0060906578 1.6794415e-38
0.040628389 -0.1031229 -0.0060906578 1.4676096e-38
0.04254657 -0.1031229 -0.0060906578 1.421656e-38
0.044464752 -0.1031229 -0.0060906578 1.3570836e-38
0.046488576 -0.10382988 -0.0091804434 1.2741078e-38
0.048412174 -0.10382988 -0.0091804434 1.2556331e-38
0.05033578 -0.10382988 -0.0091804434 1.2372304e-38
0.052259378 -0.10382988 -0.0091804434 1.1634742e-38
0.054182976 -0.10382988 -0.0091804434 1.0436561e-38
0.05597385 -0.1031229 -0.0060906578 1.0436561e-38
0.057892032 -0.1031229 -0.0060906578 1.0436564e-38
0.06013716 -0.10473295 -0.013127225 1.0253252e-38
0.06206768 -0.10473295 -0.013127225 1.0253252e-38
0.0639982 -0.10473295 -0.013127225 1.0345445e-38
0.06592872 -0.10473295 -0.013127225 1.0253968e-38
0.068233907 -0.10633601 -0.020133393 1.0253968e-38
0.070399083 -0.10725726 -0.024159687 1.0345445e-38
0.072348952 -0.10725726 -0.024159687 9.6989962e-39
0.074298814 -0.10725726 -0.024159687 9.6986361e-39
0.076426923 -0.10793148 -0.027106302 9.6064405e-39
0.078381956 -0.10793148 -0.027106302 9.5142448e-39
0.080148406 -0.10725726 -0.024159687 9.6057216e-39
0.082098275 -0.10725726 -0.024159687 9.6979172e-39
0.084247045 -0.10793148 -0.027106302 9.9737811e-39
0.08648444 -0.10886435 -0.031183379 9.9737811e-39
0.088157102 -0.10793148 -0.027106302 9.4198856e-39
0.090112135 -0.10793148 -0.027106302 9.32769e-39
0.09206716 -0.10793148 -0.027106302 9.6031979e-39
0.094022192 -0.10793148 -0.027106302 9.8794246e-39
0.095977224 -0.10793148 -0.027106302 9.7872276e-39
0.097932257 -0.10793148 -0.027106302 9.5106407e-39
0.10021969 -0.10886435 -0.031183379 9.3255306e-39
0.10218187 -0.10886435 -0.031183379 9.4177262e-39
0.10414404 -0.10886435 -0.031183379 8.5886816e-39
0.10645185 -0.10977553 -0.035165567 8.5890375e-39
0.10842101 -0.10977553 -0.035165567 8.6805115e-39
0.11039016 -0.10977553 -0.035165567 8.8634608e-39
0.11263596 -0.11046316 -0.038170833 8.954932e-39
0.11461038 -0.11046316 -0.038170833 9.138596e-39
0.11695803 -0.11135681 -0.042076487 9.5974063e-39
0.1189393 -0.11135681 -0.042076487 9.8721841e-39
0.12132282 -0.11228584 -0.046136755 1.0054766e-38
0.12331121 -0.11228584 -0.046136755 4.5215754e-39
0.12529962 -0.11228584 -0.046136755 2.4921813e-39
0.12728801 -0.11228584 -0.046136755 6.4717568e-40
0.12927641 -0.11228584 -0.046136755 6.4608828e-40
-0.11516608 -0.10988651 -0.027106302 9.4205933e-39
-0.11321104 -0.10988651 -0.027106302 8.8688698e-39
-0.10974865 -0.10666345 -0.013127225 8.8688726e-39
-0.10707172 -0.10504107 -0.0060906578 8.4071784e-39
-0.10473474 -0.1041155 -0.002076285 7.8536501e-39
-0.10252277 -0.10343929 0.00085662107 7.2072045e-39
-0.10031093 -0.10273984 0.0038902592 9.2340692e-39
-0.098019786 -0.10183108 0.0078317951 8.8645678e-39
-0.095444821 -0.10021709 0.014832003 6.5589582e-39
-0.093563326 -0.10021709 0.014832003 6.1901785e-39
-0.091681816 -0.10021709 0.014832003 4.8994397e-39
-0.089517765 -0.099509358 0.017901523 2.4105206e-39
-0.08465188 -0.10666345 -0.013127225 4.7186624e-39
-0.08272136 -0.10666345 -0.013127225 5.9150588e-39
-0.08079084 -0.10666345 -0.013127225 6.6529798e-39
-0.07886032 -0.10666345 -0.013127225 7.7596734e-39
-0.0769298 -0.10666345 -0.013127225 1.0435131e-38
-0.07499928 -0.10666345 -0.013127225 1.32939e-38
-0.07306876 -0.10666345 -0.013127225 1.4400594e-38
-0.07113824 -0.10666345 -0.013127225 1.6335955e-38
-0.068927459 -0.10575347 -0.0091804434 1.6335955e-38
-0.066511847 -0.1041155 -0.002076285 1.7256104e-38
-0.064600699 -0.1041155 -0.002076285 1.6979162e-38
-0.062496714 -0.10343929 0.00085662107 1.7162116e-38
-0.060590722 -0.10343929 0.00085662107 1.7529099e-38
-0.058684714 -0.10343929 0.00085662107 1.7712764e-38
-0.056778722 -0.10343929 0.00085662107 1.8265201e-38
-0.055280767 -0.10504107 -0.0060906578 2.001654e-38
-0.053362586 -0.10504107 -0.0060906578 2.2040518e-38
-0.051222689 -0.1041155 -0.002076285 2.2591528e-38
-0.049311548 -0.1041155 -0.002076285 2.2958867e-38
-0.047400407 -0.1041155 -0.002076285 2.2867033e-38
-0.045489259 -0.1041155 -0.002076285 2.2867033e-38
-0.043578111 -0.1041155 -0.002076285 2.2867036e-38
-0.041530691 -0.10343929 0.00085662107 2.2958873e-38
-0.039624698 -0.10343929 0.00085662107 2.2867037e-38
-0.037718691 -0.10343929 0.00085662107 2.2867037e-38
-0.035812691 -0.10343929 0.00085662107 2.2775202e-38
-0.033906691 -0.10343929 0.00085662107 2.2591531e-38
-0.032111242 -0.1041155 -0.002076285 2.2499695e-38
-0.030094681 -0.10343929 0.00085662107 2.2224189e-38
-0.028084958 -0.10273984 0.0038902592 2.2132353e-38
-0.026184274 -0.10273984 0.0038902592 2.1856847e-38
-0.024376674 -0.10343929 0.00085662107 2.1856847e-38
-0.022470674 -0.10343929 0.00085662107 2.1673176e-38
-0.020375108 -0.10183108 0.0078317951 2.158134e-38
-0.018481335 -0.10183108 0.0078317951 2.1489505e-38
-0.016587561 -0.10183108 0.0078317951 2.1489505e-38
-0.014846666 -0.10343929 0.00085662107 2.1397669e-38
-0.012879493 -0.10273984 0.0038902592 2.0753745e-38
-0.010906247 -0.10183108 0.0078317951 1.9739608e-38
-0.0090124737 -0.10183108 0.0078317951 1.9000978e-38
-0.0071187001 -0.10183108 0.0078317951 1.8724037e-38
-0.0052249264 -0.10183108 0.0078317951 1.5958552e-38
-0.0033311564 -0.10183108 0.0078317951 1.5958197e-38
-0.0014373828 -0.10183108 0.0078317951 1.5128086e-38
0.00048001856 -0.10114056 0.01082669 1.4574917e-38
0.0023685396 -0.10114056 0.01082669 1.5035542e-38
0.0042570625 -0.10114056 0.01082669 1.4943349e-38
0.0061455835 -0.10114056 0.01082669 1.4666405e-38
0.0080314782 -0.10183108 0.0078317951 1.512774e-38
0.009928707 -0.10273984 0.0038902592 1.3653683e-38
0.011829389 -0.10273984 0.0038902592 1.3746232e-38
0.013730073 -0.10273984 0.0038902592 1.3838788e-38
0.015649373 -0.10343929 0.00085662107 1.374695e-38
0.017555375 -0.10343929 0.00085662107 1.3563637e-38
0.019461378 -0.10343929 0.00085662107 1.3564353e-38
0.021367379 -0.10343929 0.00085662107 1.3749105e-38
0.023273382 -0.10343929 0.00085662107 1.3842379e-38
0.025223095 -0.1041155 -0.002076285 1.4211525e-38
0.02713424 -0.1041155 -0.002076285 1.4027134e-38
0.029045384 -0.1041155 -0.002076285 1.3567236e-38
0.030956527 -0.1041155 -0.002076285 1.3567599e-38
0.03286767 -0.1041155 -0.002076285 1.3659797e-38
0.034778818 -0.1041155 -0.002076285 1.3106986e-38
0.036689959 -0.1041155 -0.002076285 1.2185033e-38
0.038710203 -0.10504107 -0.0060906578 1.1172321e-38
0.040512249 -0.1041155 -0.002076285 1.163546e-38
0.042423397 -0.1041155 -0.002076285 1.1451789e-38
0.044464752 -0.10504107 -0.0060906578 1.1267401e-38
0.046382934 -0.10504107 -0.0060906578 1.0898621e-38
0.048301123 -0.10504107 -0.0060906578 1.0898983e-38
0.050219305 -0.10504107 -0.0060906578 1.1175572e-38
0.052137487 -0.10504107 -0.0060906578 1.0990825e-38
0.054055668 -0.10504107 -0.0060906578 1.0437654e-38
0.05597385 -0.10504107 -0.0060906578 1.0990828e-38
0.057892032 -0.10504107 -0.0060906578 1.0898632e-38
0.059953779 -0.10575347 -0.0091804434 1.0898632e-38
0.061877377 -0.10575347 -0.0091804434 1.0622046e-38
0.0639982 -0.10666345 -0.013127225 1.025326e-38
0.06592872 -0.10666345 -0.013127225 9.7933611e-39
0.068071835 -0.10758002 -0.017102616 9.7922821e-39
0.070176713 -0.10827883 -0.020133393 9.7919163e-39
0.072119519 -0.10827883 -0.020133393 9.3291319e-39
0.074298814 -0.10920714 -0.024159687 9.6964725e-39
0.076248683 -0.10920714 -0.024159687 9.6046342e-39
0.078198545 -0.10920714 -0.024159687 9.5124386e-39
0.080148406 -0.10920714 -0.024159687 9.6957508e-39
0.082098275 -0.10920714 -0.024159687 9.6957508e-39
0.084048137 -0.10920714 -0.024159687 9.9716161e-39
0.085997999 -0.10920714 -0.024159687 1.0064168e-38
0.087947868 -0.10920714 -0.024159687 1.0432231e-38
0.089897729 -0.10920714 -0.024159687 1.0524427e-38
0.091847591 -0.10920714 -0.024159687 1.0984326e-38
0.094022192 -0.10988651 -0.027106302 1.126055e-38
0.095977224 -0.10988651 -0.027106302 1.1168354e-38
0.098257504 -0.11082654 -0.031183379 1.098396e-38
0.10021969 -0.11082654 -0.031183379 1.0891765e-38
0.10218187 -0.11082654 -0.031183379 1.098396e-38
0.10414404 -0.11082654 -0.031183379 1.0154557e-38
0.10645185 -0.11174469 -0.035165567 1.0337866e-38
0.10842101 -0.11174469 -0.035165567 1.0521895e-38
0.11039016 -0.11174469 -0.035165567 1.0705922e-38
0.11263596 -0.11243759 -0.038170833 1.0981783e-38
0.11461038 -0.11243759 -0.038170833 1.1256926e-38
0.11658482 -0.11243759 -0.038170833 1.1532784e-38
0.1189393 -0.1133381 -0.042076487 1.1807925e-38
0.12132282 -0.11427425 -0.046136755 1.1898315e-38
0.12331121 -0.11427425 -0.046136755 5.5357245e-39
0.12529962 -0.11427425 -0.046136755 2.9531566e-39
0.12728801 -0.11427425 -0.046136755 1.4769364e-39
0.12927641 -0.11427425 -0.046136755 1.9368271e-39
-0.11516608 -0.11184154 -0.027106302 9.5153098e-39
-0.11321104 -0.11184154 -0.027106302 8.6884372e-39
-0.10974865 -0.10859399 -0.013127225 8.9632263e-39
-0.10707172 -0.10695927 -0.0060906578 7.6710483e-39
-0.10473474 -0.10602666 -0.002076285 6.7476543e-39
-0.10252277 -0.10534529 0.00085662107 4.7179141e-39
-0.10031093 -0.10464053 0.0038902592 6.3749187e-39
-0.097723089 -0.10302909 0.01082669 5.7281102e-39
-0.095444821 -0.10209858 0.014832003 7.6631394e-39
-0.093270011 -0.10138547 0.017901523 7.8468146e-39
-0.091393895 -0.10138547 0.017901523 6.7404684e-39
-0.087641649 -0.10138547 0.017901523 3.2388422e-39
-0.085765533 -0.10138547 0.017901523 4.3459128e-39
-0.08272136 -0.10859399 -0.013127225 6.3738831e-39
-0.08079084 -0.10859399 -0.013127225 6.9270569e-39
-0.07886032 -0.10859399 -0.013127225 7.1125132e-39
-0.0769298 -0.10859399 -0.013127225 9.6954173e-39
-0.074698262 -0.10767709 -0.0091804434 1.1908817e-38
-0.072774656 -0.10767709 -0.0091804434 1.3292821e-38
-0.070851065 -0.10767709 -0.0091804434 1.4952324e-38
-0.068927459 -0.10767709 -0.0091804434 1.532146e-38
-0.066511847 -0.10602666 -0.002076285 1.5874625e-38
-0.064600699 -0.10602666 -0.002076285 1.5781713e-38
-0.062496714 -0.10534529 0.00085662107 1.5503696e-38
-0.060590722 -0.10534529 0.00085662107 1.513491e-38
-0.058684714 -0.10534529 0.00085662107 1.6332715e-38
-0.056778722 -0.10534529 0.00085662107 1.8452476e-38
-0.055280767 -0.10695927 -0.0060906578 1.9927584e-38
-0.053362586 -0.10695927 -0.0060906578 2.0846656e-38
-0.051444404 -0.10695927 -0.0060906578 2.2224189e-38
-0.049311548 -0.10602666 -0.002076285 2.2499695e-38
-0.047400407 -0.10602666 -0.002076285 2.2131994e-38
-0.045489259 -0.10602666 -0.002076285 2.1947606e-38
-0.043578111 -0.10602666 -0.002076285 2.1947965e-38
-0.041530691 -0.10534529 0.00085662107 2.1856488e-38
-0.039489061 -0.10464053 0.0038902592 2.1764652e-38
-0.037419058 -0.10372485 0.0078317951 2.1580623e-38
-0.035525285 -0.10372485 0.0078317951 2.1213281e-38
-0.033631518 -0.10372485 0.0078317951 2.1305834e-38
-0.032000683 -0.10534529 0.00085662107 2.1489505e-38
-0.029985642 -0.10464053 0.0038902592 2.1213998e-38
-0.027847802 -0.10302909 0.01082669 2.0938492e-38
-0.025959281 -0.10302909 0.01082669 2.0754821e-38
-0.024283594 -0.10464053 0.0038902592 2.0662985e-38
-0.022382909 -0.10464053 0.0038902592 2.057115e-38
-0.020293718 -0.10302909 0.01082669 1.9836466e-38
-0.018405197 -0.10302909 0.01082669 1.8824123e-38
-0.016516676 -0.10302909 0.01082669 1.7532686e-38
-0.014693791 -0.10372485 0.0078317951 1.605722e-38
-0.01273963 -0.10302909 0.01082669 1.4121127e-38
-0.010851109 -0.10302909 0.01082669 1.2184664e-38
-0.0089625884 -0.10302909 0.01082669 1.0893212e-38
-0.0070740674 -0.10302909 0.01082669 1.043188e-38
-0.0051855464 -0.10302909 0.01082669 9.4166542e-39
-0.0032970253 -0.10302909 0.01082669 9.4162997e-39
-0.0014085025 -0.10302909 0.01082669 8.5865418e-39
0.00048001856 -0.10302909 0.01082669 8.3088829e-39
0.0023685396 -0.10302909 0.01082669 8.8620609e-39
0.0042570625 -0.10302909 0.01082669 9.1382919e-39
0.0061455835 -0.10302909 0.01082669 9.5059954e-39
0.0080314782 -0.10372485 0.0078317951 9.9684085e-39
0.0099252518 -0.10372485 0.0078317951 1.0983628e-38
0.011819024 -0.10372485 0.0078317951 1.1444958e-38
0.013712795 -0.10372485 0.0078317951 1.2182523e-38
0.015630756 -0.10464053 0.0038902592 1.2460186e-38
0.017555375 -0.10534529 0.00085662107 1.2736773e-38
0.019461378 -0.10534529 0.00085662107 1.3014076e-38
0.021367379 -0.10534529 0.00085662107 1.3475054e-38
0.023273382 -0.10534529 0.00085662107 1.3752001e-38
0.025179384 -0.10534529 0.00085662107 1.3384298e-38
0.02713424 -0.10602666 -0.002076285 1.3476493e-38
0.028991388 -0.10534529 0.00085662107 1.3569411e-38
0.03089739 -0.10534529 0.00085662107 1.3477934e-38
0.032803394 -0.10534529 0.00085662107 1.3477934e-38
0.034709394 -0.10534529 0.00085662107 1.3201351e-38
0.036615398 -0.10534529 0.00085662107 1.2832571e-38
0.038601108 -0.10602666 -0.002076285 1.246415e-38
0.040512249 -0.10602666 -0.002076285 1.1635832e-38
0.042423397 -0.10602666 -0.002076285 1.1820942e-38
0.044334538 -0.10602666 -0.002076285 1.1820223e-38
0.046382934 -0.10695927 -0.0060906578 1.1359248e-38
0.048301123 -0.10695927 -0.0060906578 1.0990109e-38
0.050219305 -0.10695927 -0.0060906578 1.0897914e-38
0.052137487 -0.10695927 -0.0060906578 1.0990112e-38
0.054055668 -0.10695927 -0.0060906578 1.1173424e-38
0.056106582 -0.10767709 -0.0091804434 1.0712446e-38
0.058030181 -0.10767709 -0.0091804434 1.0896837e-38
0.059953779 -0.10767709 -0.0091804434 1.0989389e-38
0.061877377 -0.10767709 -0.0091804434 1.0897193e-38
0.0639982 -0.10859399 -0.013127225 1.0620604e-38
0.06592872 -0.10859399 -0.013127225 1.0251821e-38
0.068071835 -0.10951753 -0.017102616 1.0251458e-38
0.070176713 -0.11022164 -0.020133393 1.0251094e-38
0.072119519 -0.11022164 -0.020133393 1.0709181e-38
0.074298814 -0.11115701 -0.024159687 1.0984682e-38
0.076248683 -0.11115701 -0.024159687 1.0892484e-38
0.078198545 -0.11115701 -0.024159687 1.0708092e-38
0.080148406 -0.11115701 -0.024159687 1.0615178e-38
0.082098275 -0.11115701 -0.024159687 1.0522982e-38
0.084048137 -0.11115701 -0.024159687 1.0891043e-38
0.085997999 -0.11115701 -0.024159687 1.1167627e-38
0.087947868 -0.11115701 -0.024159687 1.1075431e-38
0.089897729 -0.11115701 -0.024159687 1.1443851e-38
0.091847591 -0.11115701 -0.024159687 1.1812634e-38
0.094022192 -0.11184154 -0.027106302 1.1996662e-38
0.095977224 -0.11184154 -0.027106302 1.1996662e-38
0.098257504 -0.11278872 -0.031183379 1.199666e-38
0.10021969 -0.11278872 -0.031183379 1.199666e-38
0.10218187 -0.11278872 -0.031183379 1.2180329e-38
0.10448267 -0.11371385 -0.035165567 1.1534956e-38
0.10645185 -0.11371385 -0.035165567 1.1626789e-38
0.10842101 -0.11371385 -0.035165567 1.1902296e-38
0.11039016 -0.11371385 -0.035165567 1.2086324e-38
0.11263596 -0.11441202 -0.038170833 1.2362545e-38
0.11461038 -0.11441202 -0.038170833 1.2638408e-38
0.11658482 -0.11441202 -0.038170833 1.3005745e-38
0.1189393 -0.11531936 -0.042076487 1.3189772e-38
0.12092059 -0.11531936 -0.042076487 1.411064e-38
0.12331121 -0.11626263 -0.046136755 6.3647607e-39
0.12529962 -0.11626263 -0.046136755 2.492533e-39
0.12728801 -0.11626263 -0.046136755 1.0159568e-39
0.12927641 -0.11626263 -0.046136755 1.8457077e-39
-0.11712111 -0.11379658 -0.027106302 1.2366872e-38
-0.11516608 -0.11379658 -0.027106302 9.9762852e-39
-0.11321104 -0.11379658 -0.027106302 8.504762e-39
-0.11017732 -0.11145501 -0.017102616 8.7799112e-39
-0.10739947 -0.10960068 -0.0091804434 7.6721245e-39
-0.10473474 -0.1079378 -0.002076285 7.7621621e-39
-0.10252277 -0.1072513 0.00085662107 4.8101041e-39
-0.09991356 -0.10561861 0.0078317951 5.084533e-39
-0.097723089 -0.1049176 0.01082669 2.5934559e-39
-0.095444821 -0.10398008 0.014832003 4.3440967e-39
-0.093270011 -0.1032616 0.017901523 5.4497282e-39
-0.091393895 -0.1032616 0.017901523 7.1092509e-39
-0.089517765 -0.1032616 0.017901523 6.9245037e-39
-0.087641649 -0.1032616 0.017901523 6.279856e-39
-0.085765533 -0.1032616 0.017901523 5.0813156e-39
-0.080655359 -0.099523753 0.03387044 4.2519263e-39
-0.077721454 -0.096472099 0.046907764 4.5278083e-39
-0.08079084 -0.11052449 -0.013127225 5.819266e-39
-0.07886032 -0.11052449 -0.013127225 5.7284983e-39
-0.0769298 -0.11052449 -0.013127225 7.4812845e-39
-0.074698262 -0.10960068 -0.0091804434 7.5752682e-39
-0.072774656 -0.10960068 -0.0091804434 8.8670804e-39
-0.070851065 -0.10960068 -0.0091804434 1.0343287e-38
-0.068927459 -0.10960068 -0.0091804434 1.1173047e-38
-0.067003854 -0.10960068 -0.0091804434 1.0988659e-38
-0.065080263 -0.10960068 -0.0091804434 1.181842e-38
-0.06005948 -0.098574698 0.037924986 1.2094281e-38
-0.058477946 -0.099523753 0.03387044 1.1817324e-38
-0.056629829 -0.099523753 0.03387044 1.29233e-38
-0.054536454 -0.098574698 0.037924986 1.5412568e-38
-0.052695438 -0.098574698 0.037924986 1.7072074e-38
-0.050686948 -0.097886756 0.040864091 1.7715273e-38
-0.051222689 -0.1079378 -0.002076285 1.9462665e-38
-0.049311548 -0.1079378 -0.002076285 1.9460865e-38
-0.047400407 -0.1079378 -0.002076285 1.9276476e-38
-0.045489259 -0.1079378 -0.002076285 1.9184643e-38
-0.043578111 -0.1079378 -0.002076285 1.9460873e-38
-0.041530691 -0.1072513 0.00085662107 1.9369396e-38
-0.039489061 -0.1065412 0.0038902592 1.909389e-38
-0.037419058 -0.10561861 0.0078317951 1.8818024e-38
-0.034698553 -0.10092205 0.027896626 1.6883379e-38
-0.032839954 -0.10092205 0.027896626 1.5685921e-38
-0.031886324 -0.1065412 0.0038902592 1.411968e-38
-0.029592359 -0.10398008 0.014832003 1.0894277e-38
-0.027367176 -0.10162716 0.024884207 8.4064371e-39
-0.025503302 -0.10162716 0.024884207 5.3647016e-39
-0.02385368 -0.1032616 0.017901523 3.8902946e-39
-0.021892527 -0.10257359 0.020840866 2.6921172e-39
-0.020021563 -0.10257359 0.020840866 2.0478408e-39
-0.018225329 -0.1032616 0.017901523 1.3106401e-39
-0.016349213 -0.1032616 0.017901523 9.4113867e-40
-0.014473094 -0.1032616 0.017901523 8.4894304e-40
-0.01265887 -0.10398008 0.014832003 1.308845e-39
-0.010777371 -0.10398008 0.014832003 1.7698231e-39
-0.0089625884 -0.1049176 0.01082669 2.783259e-39
-0.0070740674 -0.1049176 0.01082669 3.7044992e-39
-0.0051855464 -0.1049176 0.01082669 6.008311e-39
-0.0032970253 -0.1049176 0.01082669 6.7451586e-39
-0.0014085025 -0.1049176 0.01082669 6.7451586e-39
0.00048001856 -0.1049176 0.01082669 7.2972561e-39
0.0023685396 -0.1049176 0.01082669 8.587995e-39
0.0042570625 -0.1049176 0.01082669 9.6014308e-39
0.0061455835 -0.1049176 0.01082669 1.0522668e-38
0.0080314782 -0.10561861 0.0078317951 1.1537892e-38
0.0099252518 -0.10561861 0.0078317951 1.255239e-38
0.011819024 -0.10561861 0.0078317951 1.3105919e-38
0.013712795 -0.10561861 0.0078317951 1.3566894e-38
0.015630756 -0.1065412 0.0038902592 1.365909e-38
0.017555375 -0.1072513 0.00085662107 1.3291023e-38
