# .PCD v0.7 - Point Cloud Data file format
VERSION 0.7
FIELDS x y z rgb
SIZE 4 4 4 4
TYPE F F F F
COUNT 1 1 1 1
WIDTH 936
HEIGHT 1
VIEWPOINT 0 0 0 1 0 0 0
POINTS 936
DATA ascii
-0.0030450411 -0.091347814 -0.064084448 2.286702e-38
-0.0011740793 -0.091347814 -0.064084448 2.295886e-38
0.00069430843 -0.092004895 -0.067023791 2.295886e-38
0.0025766268 -0.093586475 -0.074098624 2.3142537e-38
0.0044651479 -0.093586475 -0.074098624 1.9547985e-38
0.0063667968 -0.094255984 -0.077093519 1.4200285e-38
0.0082605705 -0.094255984 -0.077093519 6.9175575e-39
0.010154342 -0.094255984 -0.077093519 6.6406175e-39
0.012048115 -0.094255984 -0.077093519 9.9593084e-39
0.013986807 -0.095137119 -0.081035055 7.4703894e-39
0.015887491 -0.095137119 -0.081035055 6.0874577e-39
0.018370235 -0.10386805 -0.12009088 5.0733058e-39
0.020339398 -0.10386805 -0.12009088 6.3647607e-39
0.022235246 -0.10297783 -0.11610869 5.9963313e-39
0.024115218 -0.1020664 -0.11203162 6.4576612e-39
0.026070248 -0.1020664 -0.11203162 9.9614496e-39
0.027955532 -0.10140768 -0.109085 8.3944742e-39
0.029905397 -0.10140768 -0.109085 9.3164263e-39
0.031855263 -0.10140768 -0.109085 2.0197331e-38
0.033688646 -0.1005076 -0.10505871 1.8910577e-38
0.035631448 -0.1005076 -0.10505871 1.5225317e-38
0.037932679 -0.10297783 -0.11610869 1.2828965e-38
0.039894857 -0.10297783 -0.11610869 1.1723347e-38
0.042000171 -0.10386805 -0.12009088 1.2832216e-38
0.044082619 -0.10453986 -0.12309615 1.4584982e-38
0.045938492 -0.10386805 -0.12009088 1.3664833e-38
0.047907654 -0.10386805 -0.12009088 1.3388609e-38
0.050173685 -0.10541297 -0.12700179 1.2651406e-38
0.051485647 -0.1020664 -0.11203162 1.2928346e-38
0.05311669 -0.1005076 -0.10505871 1.2835432e-38
0.054913364 -0.099830076 -0.10202793 1.1728728e-38
0.056652203 -0.098941371 -0.098052539 1.218971e-38
0.058582723 -0.098941371 -0.098052539 1.1267398e-38
0.061478827 -0.10297783 -0.11610869 1.246559e-38
0.063441008 -0.10297783 -0.11610869 2.507007e-39
0.065403178 -0.10297783 -0.11610869 3.2398623e-39
-0.040975772 -0.085784912 -0.031089582 1.0978867e-38
-0.039162658 -0.085784912 -0.031089582 2.0659757e-38
-0.037234142 -0.085095167 -0.028028168 2.2224189e-38
-0.035426397 -0.085095167 -0.028028168 2.1763211e-38
-0.033618651 -0.085095167 -0.028028168 2.3142537e-38
-0.031810906 -0.085095167 -0.028028168 2.3418029e-38
-0.030097097 -0.085784912 -0.031089582 2.3324742e-38
-0.028195418 -0.085095167 -0.028028168 2.3509859e-38
-0.026387677 -0.085095167 -0.028028168 2.3509517e-38
-0.024657764 -0.085784912 -0.031089582 2.3508805e-38
-0.022772186 -0.085095167 -0.028028168 2.3508446e-38
-0.02096444 -0.085095167 -0.028028168 2.3509527e-38
-0.019218422 -0.085784912 -0.031089582 2.3509527e-38
-0.017348953 -0.085095167 -0.028028168 2.3509886e-38
-0.015541207 -0.085095167 -0.028028168 2.341769e-38
-0.013733461 -0.085095167 -0.028028168 2.3048907e-38
-0.012228519 -0.090283155 -0.051054873 2.3048905e-38
-0.010448482 -0.091629088 -0.057028688 2.3325492e-38
-0.0085898899 -0.091629088 -0.057028688 2.3141456e-38
-0.0067550652 -0.092307791 -0.060041107 2.350988e-38
-0.0049160048 -0.093218774 -0.064084448 2.350988e-38
-0.0030450411 -0.093218774 -0.064084448 2.350988e-38
-0.0011740793 -0.093218774 -0.064084448 2.3418045e-38
0.00068810582 -0.095475003 -0.074098624 2.2957065e-38
0.0025766268 -0.095475003 -0.074098624 2.350988e-38
0.0044651479 -0.095475003 -0.074098624 1.7056189e-38
0.0063667968 -0.096149758 -0.077093519 1.3460559e-38
0.0082605705 -0.096149758 -0.077093519 1.2262738e-38
0.010154342 -0.096149758 -0.077093519 1.3277615e-38
0.012288566 -0.10176755 -0.10202793 1.1986519e-38
0.014226057 -0.10176755 -0.10202793 1.0604307e-38
0.016401075 -0.10583721 -0.12009088 7.4696551e-39
0.018370235 -0.10583721 -0.12009088 7.2849079e-39
0.020273067 -0.10494001 -0.11610869 7.9299172e-39
0.022235246 -0.10494001 -0.11610869 5.8094149e-39
0.024115218 -0.10402142 -0.11203162 7.1001509e-39
0.026070248 -0.10402142 -0.11203162 1.1708493e-38
0.027955532 -0.10335754 -0.109085 9.8645793e-39
0.029905397 -0.10335754 -0.109085 1.2076914e-38
0.03174584 -0.1024504 -0.10505871 2.1668151e-38
0.033688646 -0.1024504 -0.10505871 2.010695e-38
0.035631448 -0.1024504 -0.10505871 1.5132031e-38
0.037475947 -0.10176755 -0.10202793 1.3012264e-38
0.039413437 -0.10176755 -0.10202793 1.3106267e-38
0.041459862 -0.1024504 -0.10505871 1.3200624e-38
0.043402668 -0.1024504 -0.10505871 1.4493505e-38
0.045781396 -0.10494001 -0.11610869 1.4772958e-38
0.047907654 -0.10583721 -0.12009088 1.2654637e-38
0.050173685 -0.10739426 -0.12700179 1.3208526e-38
0.051038381 -0.10176755 -0.10202793 1.1825244e-38
0.052791163 -0.10087189 -0.098052539 1.1363198e-38
0.054721683 -0.10087189 -0.098052539 1.1361406e-38
0.056652203 -0.10087189 -0.098052539 1.2741097e-38
0.058582723 -0.10087189 -0.098052539 1.1171971e-38
0.061478827 -0.10494001 -0.11610869 1.1538946e-38
0.063441008 -0.10494001 -0.11610869 3.976368e-39
0.065403178 -0.10494001 -0.11610869 3.7905123e-39
-0.039162658 -0.087598026 -0.031089582 1.7898952e-38
-0.037349544 -0.087598026 -0.031089582 2.0386403e-38
-0.035426397 -0.086902916 -0.028028168 2.1856847e-38
-0.033618651 -0.086902916 -0.028028168 2.2591531e-38
-0.031810906 -0.086902916 -0.028028168 2.3050703e-38
-0.030097097 -0.087598026 -0.031089582 2.3508788e-38
-0.028195418 -0.086902916 -0.028028168 2.3509869e-38
-0.026387677 -0.086902916 -0.028028168 2.3509883e-38
-0.024657764 -0.087598026 -0.031089582 2.3509527e-38
-0.022772186 -0.086902916 -0.028028168 2.3509527e-38
-0.02096444 -0.086902916 -0.028028168 2.3509886e-38
-0.019218422 -0.087598026 -0.031089582 2.3233299e-38
-0.017348953 -0.086902916 -0.028028168 2.3233296e-38
-0.015541207 -0.086902916 -0.028028168 2.3509883e-38
-0.013733461 -0.086902916 -0.028028168 2.350988e-38
-0.012057077 -0.089171067 -0.038017549 2.3509883e-38
-0.010231819 -0.089171067 -0.038017549 2.350988e-38
-0.0084065609 -0.089171067 -0.038017549 2.3509883e-38
-0.0065266378 -0.087598026 -0.031089582 2.3325492e-38
-0.004713526 -0.087598026 -0.031089582 2.3141103e-38
-0.0012266375 -0.099627286 -0.084068693 2.3417691e-38
0.00067936443 -0.099627286 -0.084068693 2.0835493e-38
0.0025792532 -0.098043531 -0.077093519 1.8254372e-38
0.004473025 -0.098043531 -0.077093519 1.6318264e-38
0.0063973721 -0.099627286 -0.084068693 1.6226068e-38
0.0084321834 -0.1043932 -0.10505871 1.6687406e-38
0.010351075 -0.10370506 -0.10202793 1.6872516e-38
0.012288566 -0.10370506 -0.10202793 1.5305914e-38
0.01438653 -0.1069022 -0.11610869 1.475274e-38
0.016348708 -0.1069022 -0.11610869 1.4107373e-38
0.018310888 -0.1069022 -0.11610869 1.4291765e-38
0.020273067 -0.1069022 -0.11610869 1.0327355e-38
0.022235246 -0.1069022 -0.11610869 8.0213855e-39
0.024197426 -0.1069022 -0.11610869 8.6660375e-39
0.026070248 -0.10597645 -0.11203162 8.4809274e-39
0.028025279 -0.10597645 -0.11203162 8.0192289e-39
0.029905397 -0.10530742 -0.109085 1.2167313e-38
0.03174584 -0.1043932 -0.10505871 2.194366e-38
0.033688646 -0.1043932 -0.10505871 2.0383891e-38
0.035631448 -0.1043932 -0.10505871 1.4855794e-38
0.037475947 -0.10370506 -0.10202793 1.3104812e-38
0.039277516 -0.10280241 -0.098052539 1.4673583e-38
0.04120804 -0.10280241 -0.098052539 1.5228907e-38
0.043402668 -0.1043932 -0.10505871 1.5416165e-38
0.045781396 -0.1069022 -0.11610869 1.4774034e-38
0.047743574 -0.1069022 -0.11610869 1.302449e-38
0.049231082 -0.1043932 -0.10505871 1.0537015e-38
0.051038381 -0.10370506 -0.10202793 1.0905451e-38
0.052791163 -0.10280241 -0.098052539 1.1733777e-38
0.054721683 -0.10280241 -0.098052539 1.2098966e-38
0.056300584 -0.10120471 -0.091015972 1.3017321e-38
0.05821877 -0.10120471 -0.091015972 9.9716301e-39
0.063441008 -0.1069022 -0.11610869 4.15859e-39
0.065403178 -0.1069022 -0.11610869 4.433721e-39
-0.037349544 -0.089411139 -0.031089582 1.4857247e-38
-0.035536435 -0.089411139 -0.031089582 1.8635071e-38
-0.033618651 -0.088710666 -0.028028168 2.112001e-38
-0.031810906 -0.088710666 -0.028028168 2.1669947e-38
-0.030217752 -0.090310872 -0.035021819 2.3141826e-38
-0.028283983 -0.089411139 -0.031089582 2.3417333e-38
-0.026470874 -0.089411139 -0.031089582 2.295672e-38
-0.024657764 -0.089411139 -0.031089582 2.3233662e-38
-0.02284465 -0.089411139 -0.031089582 2.341805e-38
-0.021031536 -0.089411139 -0.031089582 2.341805e-38
-0.019297712 -0.090310872 -0.035021819 2.341805e-38
-0.017405313 -0.089411139 -0.031089582 2.341805e-38
-0.015592199 -0.089411139 -0.031089582 2.341805e-38
-0.013779089 -0.089411139 -0.031089582 2.3418047e-38
-0.011965975 -0.089411139 -0.031089582 2.3326213e-38
-0.010152861 -0.089411139 -0.031089582 2.2865232e-38
-0.0083397515 -0.089411139 -0.031089582 2.3141822e-38
-0.0065266378 -0.089411139 -0.031089582 2.2957431e-38
0.00067936443 -0.10153329 -0.084068693 1.6595932e-38
0.0025827084 -0.10083917 -0.081035055 1.5027885e-38
0.0044833906 -0.10083917 -0.081035055 1.6503371e-38
0.0063973721 -0.10153329 -0.084068693 1.7609718e-38
0.0084321834 -0.10633601 -0.10505871 1.8532035e-38
0.010374987 -0.10633601 -0.10505871 1.7242375e-38
0.012356619 -0.10725726 -0.109085 1.5583217e-38
0.01438653 -0.10886435 -0.11610869 1.4753456e-38
0.016348708 -0.10886435 -0.11610869 1.6044198e-38
0.018310888 -0.10886435 -0.11610869 1.641298e-38
0.020273067 -0.10886435 -0.11610869 9.6827019e-39
0.022235246 -0.10886435 -0.11610869 8.6678311e-39
0.024197426 -0.10886435 -0.11610869 9.3132034e-39
0.026159605 -0.10886435 -0.11610869 7.0072336e-39
0.028121784 -0.10886435 -0.11610869 1.0970927e-38
0.029905397 -0.10725726 -0.109085 1.5211566e-38
0.03174584 -0.10633601 -0.10505871 2.1575955e-38
0.033600964 -0.10564254 -0.10202793 1.9923638e-38
0.035538454 -0.10564254 -0.10202793 1.4487726e-38
0.037475947 -0.10564254 -0.10202793 1.3473949e-38
0.039142579 -0.10382988 -0.094105758 1.5965026e-38
0.041066177 -0.10382988 -0.094105758 1.6520343e-38
0.043402668 -0.10633601 -0.10505871 1.4955911e-38
0.049231082 -0.10633601 -0.10505871 1.1366775e-38
0.051173888 -0.10633601 -0.10505871 1.1458625e-38
0.052975871 -0.10564254 -0.10202793 1.1548671e-38
0.054721683 -0.10473295 -0.098052539 1.1453966e-38
0.056300584 -0.1031229 -0.091015972 1.2464515e-38
0.05821877 -0.1031229 -0.091015972 7.8514809e-39
-0.035677772 -0.092130885 -0.035021819 1.1815533e-38
-0.033723321 -0.091224253 -0.031089582 1.4024261e-38
-0.031910211 -0.091224253 -0.031089582 1.6602488e-38
-0.030217752 -0.092130885 -0.035021819 2.0748005e-38
-0.028283983 -0.091224253 -0.031089582 2.2774484e-38
-0.026470874 -0.091224253 -0.031089582 2.2958873e-38
-0.024657764 -0.091224253 -0.031089582 2.3142544e-38
-0.02284465 -0.091224253 -0.031089582 2.3049991e-38
-0.021031536 -0.091224253 -0.031089582 2.3050708e-38
-0.019218422 -0.091224253 -0.031089582 2.3234379e-38
-0.017405313 -0.091224253 -0.031089582 2.3142544e-38
-0.015592199 -0.091224253 -0.031089582 2.3234379e-38
-0.013779089 -0.091224253 -0.031089582 2.2497892e-38
-0.01192572 -0.0905184 -0.028028168 2.3234379e-38
-0.010117974 -0.0905184 -0.028028168 2.2866674e-38
-0.0083397515 -0.091224253 -0.031089582 2.3234379e-38
-0.0065266378 -0.091224253 -0.031089582 2.0930569e-38
-0.0046947394 -0.0905184 -0.028028168 1.8809353e-38
0.0045465734 -0.10827883 -0.10505871 2.0191914e-38
0.0064893775 -0.10827883 -0.10505871 1.9453991e-38
0.0084321834 -0.10827883 -0.10505871 1.9639461e-38
0.010374987 -0.10827883 -0.10505871 1.8072855e-38
0.012356619 -0.10920714 -0.109085 1.6874311e-38
0.01438653 -0.11082654 -0.11610869 1.4938926e-38
0.016348708 -0.11082654 -0.11610869 1.6321861e-38
0.018310888 -0.11082654 -0.11610869 1.4938929e-38
0.020273067 -0.11082654 -0.11610869 9.4993869e-39
0.022235246 -0.11082654 -0.11610869 9.3149984e-39
0.024197426 -0.11082654 -0.11610869 1.0051484e-38
0.026159605 -0.11082654 -0.11610869 9.7745416e-39
0.027955532 -0.10920714 -0.109085 1.908594e-38
0.029803036 -0.10827883 -0.10505871 2.0744382e-38
0.031663474 -0.10758002 -0.10202793 2.1208609e-38
0.033600964 -0.10758002 -0.10202793 1.7804946e-38
0.035538454 -0.10758002 -0.10202793 1.4304408e-38
0.037475947 -0.10758002 -0.10202793 1.4304425e-38
0.039142579 -0.10575347 -0.094105758 1.6518191e-38
0.041066177 -0.10575347 -0.094105758 1.6152284e-38
-0.032037757 -0.093950883 -0.035021819 1.1627189e-38
-0.030217752 -0.093950883 -0.035021819 1.6233716e-38
-0.028283983 -0.093037367 -0.031089582 2.1117499e-38
-0.026470874 -0.093037367 -0.031089582 2.2775202e-38
-0.024657764 -0.093037367 -0.031089582 2.2958873e-38
-0.02284465 -0.093037367 -0.031089582 2.3142544e-38
-0.021031536 -0.093037367 -0.031089582 2.2775202e-38
-0.019218422 -0.093037367 -0.031089582 2.2774125e-38
-0.017405313 -0.093037367 -0.031089582 2.2958873e-38
-0.015592199 -0.093037367 -0.031089582 2.3142544e-38
-0.013779089 -0.093037367 -0.031089582 2.2958873e-38
-0.01192572 -0.092326149 -0.028028168 2.3142544e-38
-0.010117974 -0.092326149 -0.028028168 2.2683362e-38
-0.0083102286 -0.092326149 -0.028028168 2.3142544e-38
-0.006502483 -0.092326149 -0.028028168 2.0839452e-38
-0.0046947394 -0.092326149 -0.028028168 1.8994105e-38
-0.0028869957 -0.092326149 -0.028028168 1.3832228e-38
0.01438653 -0.11278872 -0.11610869 1.4754535e-38
0.016348708 -0.11278872 -0.11610869 1.5308428e-38
0.025917426 -0.11022164 -0.10505871 1.2818792e-38
0.02786023 -0.11022164 -0.10505871 2.2683366e-38
0.029803036 -0.11022164 -0.10505871 2.0931292e-38
0.031663474 -0.10951753 -0.10202793 1.8630005e-38
0.033600964 -0.10951753 -0.10202793 1.6146141e-38
0.035538454 -0.10951753 -0.10202793 1.5044126e-38
0.037475947 -0.10951753 -0.10202793 1.578135e-38
0.039142579 -0.10767709 -0.094105758 1.6519985e-38
0.041066177 -0.10767709 -0.094105758 1.5506924e-38
-0.032134932 -0.096472099 -0.038017549 1.0430803e-38
-0.030217752 -0.095770895 -0.035021819 1.2271465e-38
-0.028397746 -0.095770895 -0.035021819 1.5956747e-38
-0.026577737 -0.095770895 -0.035021819 1.9917521e-38
-0.024657764 -0.094850481 -0.031089582 2.2037641e-38
-0.02284465 -0.094850481 -0.031089582 2.3142544e-38
-0.021031536 -0.094850481 -0.031089582 2.2958873e-38
-0.019218422 -0.094850481 -0.031089582 2.2866677e-38
-0.017405313 -0.094850481 -0.031089582 2.2591166e-38
-0.015592199 -0.094850481 -0.031089582 2.3142544e-38
-0.013779089 -0.094850481 -0.031089582 2.295887e-38
-0.01192572 -0.094133899 -0.028028168 2.295887e-38
-0.010117974 -0.094133899 -0.028028168 2.2314579e-38
-0.0083102286 -0.094133899 -0.028028168 2.2866674e-38
-0.006502483 -0.094133899 -0.028028168 2.2683365e-38
-0.0046947394 -0.094133899 -0.028028168 2.3142544e-38
0.025917426 -0.11216442 -0.10505871 1.8535643e-38
0.02786023 -0.11216442 -0.10505871 2.2775202e-38
0.029803036 -0.11216442 -0.10505871 2.0379198e-38
0.031663474 -0.11145501 -0.10202793 1.8722564e-38
0.033600964 -0.11145501 -0.10202793 1.6701112e-38
0.035538454 -0.11145501 -0.10202793 1.7072791e-38
0.037574254 -0.11216442 -0.10505871 1.7533404e-38
0.034044512 -0.074698523 0.055004142 1.661182e-38
0.035706673 -0.074698523 0.055004142 1.4861923e-38
-0.030217752 -0.097590908 -0.035021819 1.411751e-38
-0.028397746 -0.097590908 -0.035021819 1.4851097e-38
-0.026470874 -0.096663594 -0.031089582 1.8627131e-38
-0.024657764 -0.096663594 -0.031089582 2.1299351e-38
-0.02284465 -0.096663594 -0.031089582 2.3234379e-38
-0.021031536 -0.096663594 -0.031089582 2.3142544e-38
-0.019218422 -0.096663594 -0.031089582 2.3142539e-38
-0.017405313 -0.096663594 -0.031089582 2.2958867e-38
-0.015592199 -0.096663594 -0.031089582 2.3234376e-38
-0.013779089 -0.096663594 -0.031089582 2.3050701e-38
-0.01192572 -0.095941633 -0.028028168 2.3234376e-38
-0.010117974 -0.095941633 -0.028028168 2.3142541e-38
-0.0083102286 -0.095941633 -0.028028168 2.3234379e-38
-0.006502483 -0.095941633 -0.028028168 2.2866674e-38
-0.0046767071 -0.09524864 -0.02508954 2.2958154e-38
-0.0028741136 -0.09524864 -0.02508954 2.2958873e-38
0.03575499 -0.11505674 -0.109085 1.7349733e-38
0.037574254 -0.11410724 -0.10505871 1.6888044e-38
0.034044512 -0.076360688 0.055004142 1.5413654e-38
0.035706673 -0.076360688 0.055004142 1.4124011e-38
-0.030217752 -0.099410906 -0.035021819 2.1030327e-38
-0.028397746 -0.099410906 -0.035021819 2.1489505e-38
-0.026470874 -0.098476708 -0.031089582 2.2130555e-38
-0.024657764 -0.098476708 -0.031089582 2.2958151e-38
-0.02284465 -0.098476708 -0.031089582 2.277376e-38
-0.021031536 -0.098476708 -0.031089582 2.2220586e-38
-0.019218422 -0.098476708 -0.031089582 2.2313137e-38
-0.017405313 -0.098476708 -0.031089582 2.30507e-38
-0.015592199 -0.098476708 -0.031089582 2.3234374e-38
-0.013779089 -0.098476708 -0.031089582 2.2866311e-38
-0.011965975 -0.098476708 -0.031089582 2.3142539e-38
-0.010152861 -0.098476708 -0.031089582 2.3234376e-38
-0.0083102286 -0.097749382 -0.028028168 2.2773763e-38
-0.006502483 -0.097749382 -0.028028168 2.3234379e-38
-0.0046767071 -0.097051233 -0.02508954 2.3050349e-38
-0.0028741136 -0.097051233 -0.02508954 2.2957796e-38
-0.001071522 -0.097051233 -0.02508954 2.3234379e-38
0.03575499 -0.11700659 -0.109085 1.5506559e-38
0.037574254 -0.11605005 -0.10505871 1.4399154e-38
0.03414828 -0.078743905 0.051969074 1.3661605e-38
0.03581576 -0.078743905 0.051969074 1.3570487e-38
-0.028397746 -0.10123092 -0.035021819 2.2132353e-38
-0.026470874 -0.10028981 -0.031089582 2.2958873e-38
-0.024657764 -0.10028981 -0.031089582 2.341805e-38
-0.02284465 -0.10028981 -0.031089582 2.3234018e-38
-0.021031536 -0.10028981 -0.031089582 2.2588648e-38
-0.019218422 -0.10028981 -0.031089582 2.1943276e-38
-0.017405313 -0.10028981 -0.031089582 2.185108e-38
-0.015592199 -0.10028981 -0.031089582 2.2219863e-38
-0.013779089 -0.10028981 -0.031089582 2.2680844e-38
-0.01192572 -0.099557132 -0.028028168 2.341805e-38
-0.010117974 -0.099557132 -0.028028168 2.3325856e-38
-0.0083102286 -0.099557132 -0.028028168 2.341805e-38
-0.006502483 -0.099557132 -0.028028168 2.3417691e-38
-0.0046581365 -0.098129645 -0.02206365 2.3141109e-38
-0.0028608516 -0.098129645 -0.02206365 2.2311359e-38
-0.0010556523 -0.09740968 -0.019055404 2.3417691e-38
0.00073635951 -0.09740968 -0.019055404 2.323402e-38
0.03389037 -0.11966167 -0.11203162 1.5779907e-38
0.035845403 -0.11966167 -0.11203162 1.3938891e-38
0.037800431 -0.11966167 -0.11203162 1.3016234e-38
0.03414828 -0.080411389 0.051969074 1.3107722e-38
0.03581576 -0.080411389 0.051969074 1.3200992e-38
-0.024946921 -0.088584006 0.024986111 2.2591531e-38
-0.023232132 -0.088584006 0.024986111 2.3142544e-38
-0.02284465 -0.10210292 -0.031089582 2.3142544e-38
-0.021031536 -0.10210292 -0.031089582 2.3142544e-38
-0.019218422 -0.10210292 -0.031089582 2.3050708e-38
-0.017405313 -0.10210292 -0.031089582 2.286632e-38
-0.015592199 -0.10210292 -0.031089582 2.2774125e-38
-0.013779089 -0.10210292 -0.031089582 2.286632e-38
-0.01192572 -0.10136487 -0.028028168 2.240499e-38
-0.010117974 -0.10136487 -0.028028168 2.1483039e-38
-0.0083102286 -0.10136487 -0.028028168 2.2220243e-38
-0.006502483 -0.10136487 -0.028028168 2.1759271e-38
-0.0046581365 -0.099926919 -0.02206365 2.1851107e-38
-0.0028608516 -0.099926919 -0.02206365 2.092916e-38
-0.0010556523 -0.099201679 -0.019055404 2.1574524e-38
0.00073635951 -0.099201679 -0.019055404 2.0745494e-38
0.029695466 -0.086659163 0.032970272 1.6517832e-38
0.031396262 -0.086659163 0.032970272 1.4215129e-38
0.033097055 -0.086659163 0.032970272 1.1632595e-38
0.03414828 -0.082078874 0.051969074 9.2358825e-39
0.03581576 -0.082078874 0.051969074 7.7604035e-39
0.037673291 -0.083294272 0.046927653 6.3785509e-39
0.039349612 -0.083294272 0.046927653 4.8123014e-39
0.041601025 -0.086659163 0.032970272 3.7066699e-39
0.043301817 -0.086659163 0.032970272 3.0623794e-39
-0.053822748 -0.096626461 -0.0010711327 1.2556661e-38
-0.051902607 -0.095901415 0.0019145831 1.3849935e-38
-0.050147355 -0.095901415 0.0019145831 1.2651392e-38
-0.048392117 -0.095901415 0.0019145831 1.1821993e-38
-0.023232132 -0.090298802 0.024986111 2.2316024e-38
-0.021517336 -0.090298802 0.024986111 2.2499695e-38
-0.019802544 -0.090298802 0.024986111 2.2499695e-38
-0.019218422 -0.10391603 -0.031089582 2.2499695e-38
-0.017405313 -0.10391603 -0.031089582 2.2499695e-38
-0.015592199 -0.10391603 -0.031089582 2.222383e-38
-0.013779089 -0.10391603 -0.031089582 2.1947247e-38
-0.011965975 -0.10391603 -0.031089582 2.2499695e-38
-0.010152861 -0.10391603 -0.031089582 2.1209335e-38
-0.0083102286 -0.10317262 -0.028028168 2.1577753e-38
-0.006502483 -0.10317262 -0.028028168 2.1208976e-38
-0.0046767071 -0.10245901 -0.02508954 2.1577394e-38
-0.0028608516 -0.10172421 -0.02206365 2.037851e-38
-0.0010556523 -0.10099369 -0.019055404 2.0286316e-38
0.00073635951 -0.10099369 -0.019055404 1.8995597e-38
0.033097055 -0.088359952 0.032970272 1.0803208e-38
0.03424963 -0.084466219 0.049004696 8.405417e-39
0.035922311 -0.084466219 0.049004696 7.1143264e-39
0.037673291 -0.084970593 0.046927653 6.3774803e-39
0.040099733 -0.089588001 0.027913176 5.0878148e-39
0.041601025 -0.088359952 0.032970272 3.7059538e-39
0.043174144 -0.087638199 0.035942458 3.6137554e-39
0.044869725 -0.087638199 0.035942458 3.889622e-39
-0.055413097 -0.097656667 0.0019145831 1.7622717e-38
-0.053657845 -0.097656667 0.0019145831 1.5416883e-38
-0.051902607 -0.097656667 0.0019145831 1.5235723e-38
-0.050147355 -0.097656667 0.0019145831 1.4589646e-38
-0.048392117 -0.097656667 0.0019145831 1.468184e-38
-0.046200693 -0.095444039 0.01096084 1.551087e-38
-0.04446131 -0.095444039 0.01096084 1.5050258e-38
-0.02502954 -0.092757151 0.021946095 2.1489505e-38
-0.023309417 -0.092757151 0.021946095 2.158134e-38
-0.021517336 -0.092013597 0.024986111 2.1305834e-38
-0.019802544 -0.092013597 0.024986111 2.1213998e-38
-0.018087752 -0.092013597 0.024986111 2.1305834e-38
-0.016372956 -0.092013597 0.024986111 2.1213998e-38
-0.014658168 -0.092013597 0.024986111 2.0845221e-38
-0.012943372 -0.092013597 0.024986111 2.0476086e-38
-0.011965975 -0.10572915 -0.031089582 1.9461949e-38
-0.010152861 -0.10572915 -0.031089582 1.77099e-38
-0.0083102286 -0.10498036 -0.028028168 1.7801736e-38
-0.0064792987 -0.10426159 -0.02508954 1.724857e-38
-0.0046581365 -0.10352151 -0.02206365 1.7340406e-38
-0.0028608516 -0.10352151 -0.02206365 1.5680542e-38
-0.00097670965 -0.095444039 0.01096084 1.5311763e-38
0.00076531433 -0.094707444 0.013972364 1.4021024e-38
0.0024976395 -0.094211012 0.016002022 1.3744434e-38
0.004228184 -0.094211012 0.016002022 1.3006869e-38
0.028374799 -0.093481898 0.018983029 6.9259303e-39
0.030014396 -0.092757151 0.021946095 7.4823495e-39
0.031641241 -0.092013597 0.024986111 7.3001302e-39
0.033194054 -0.090792179 0.029979847 6.8380913e-39
0.034900092 -0.090792179 0.029979847 5.9157833e-39
0.036785621 -0.092013597 0.024986111 6.0079845e-39
0.03839007 -0.091297671 0.027913176 6.5611555e-39
0.040099733 -0.091297671 0.027913176 5.9168566e-39
0.041601025 -0.090060756 0.032970272 4.6264682e-39
0.043174144 -0.089333788 0.035942458 6.2859881e-39
0.044869725 -0.089333788 0.035942458 6.6544077e-39
0.046703406 -0.090060756 0.032970272 5.3604291e-39
-0.056988217 -0.098656476 0.0049811825 1.6420207e-38
-0.055238351 -0.098656476 0.0049811825 1.7622728e-38
-0.053158224 -0.097183421 0.01096084 1.5786736e-38
-0.051418841 -0.097183421 0.01096084 1.4591439e-38
-0.049679458 -0.097183421 0.01096084 1.4682199e-38
-0.048091471 -0.09792982 0.0079309568 1.5142811e-38
-0.046200693 -0.097183421 0.01096084 1.5787453e-38
-0.04446131 -0.097183421 0.01096084 1.5418676e-38
-0.04272192 -0.097183421 0.01096084 1.4588569e-38
-0.040982537 -0.097183421 0.01096084 1.468184e-38
-0.039243154 -0.097183421 0.01096084 1.5420111e-38
-0.037503768 -0.097183421 0.01096084 1.5143887e-38
-0.030382715 -0.095941558 0.016002022 1.7075661e-38
-0.028469786 -0.094477281 0.021946095 1.7443721e-38
-0.026749663 -0.094477281 0.021946095 1.7350091e-38
-0.02502954 -0.094477281 0.021946095 1.8915958e-38
-0.023309417 -0.094477281 0.021946095 1.8546464e-38
-0.021517336 -0.093728393 0.024986111 1.8085493e-38
-0.019802544 -0.093728393 0.024986111 1.7993299e-38
-0.018087752 -0.093728393 0.024986111 1.7993299e-38
-0.016372956 -0.093728393 0.024986111 1.7716357e-38
-0.014658168 -0.093728393 0.024986111 1.7070639e-38
-0.012943372 -0.093728393 0.024986111 1.6517474e-38
-0.01122858 -0.093728393 0.024986111 1.4396646e-38
-0.0095484331 -0.094477281 0.021946095 1.2552379e-38
-0.0078283101 -0.094477281 0.021946095 1.2552026e-38
-0.0064792987 -0.10606419 -0.02508954 1.1721914e-38
-0.0046581365 -0.1053188 -0.02206365 1.1445332e-38
-0.0028608516 -0.1053188 -0.02206365 9.5088695e-39
-0.00096878968 -0.096441552 0.013972364 9.4166766e-39
0.00076709315 -0.095941558 0.016002022 8.4947175e-39
0.0024950262 -0.095207214 0.018983029 9.6921705e-39
0.0042203441 -0.095207214 0.018983029 7.4798299e-39
0.005945662 -0.095207214 0.018983029 6.464599e-39
0.0076709799 -0.095207214 0.018983029 6.5560758e-39
0.023133904 -0.094477281 0.021946095 5.8188807e-39
0.024854027 -0.094477281 0.021946095 5.8196009e-39
0.02657415 -0.094477281 0.021946095 6.3727747e-39
0.028294273 -0.094477281 0.021946095 6.6508035e-39
0.030014396 -0.094477281 0.021946095 5.5466182e-39
0.031641241 -0.093728393 0.024986111 5.9164881e-39
0.033261091 -0.093007326 0.027913176 6.1916499e-39
0.034970749 -0.093007326 0.027913176 5.6381258e-39
0.036785621 -0.093728393 0.024986111 5.7303214e-39
0.038500413 -0.093728393 0.024986111 6.1912939e-39
0.040099733 -0.093007326 0.027913176 5.5466294e-39
0.041724239 -0.092498213 0.029979847 4.1651257e-39
0.043430276 -0.092498213 0.029979847 5.6395299e-39
0.045002613 -0.091761544 0.032970272 6.284179e-39
0.046703406 -0.091761544 0.032970272 5.0827548e-39
-0.056988217 -0.10040633 0.0049811825 1.3285924e-38
-0.055070259 -0.099674508 0.0079309568 1.3105515e-38
-0.053158224 -0.098922804 0.01096084 1.2468444e-38
-0.051418841 -0.098922804 0.01096084 1.0719619e-38
-0.049679458 -0.098922804 0.01096084 1.1179156e-38
-0.047940075 -0.098922804 0.01096084 1.1454302e-38
-0.046200693 -0.098922804 0.01096084 1.1730526e-38
-0.04446131 -0.098922804 0.01096084 1.2098229e-38
-0.04272192 -0.098922804 0.01096084 1.136031e-38
-0.040982537 -0.098922804 0.01096084 1.1546146e-38
-0.039119069 -0.09817566 0.013972364 1.090222e-38
-0.037384965 -0.09817566 0.013972364 1.0627075e-38
-0.035650861 -0.09817566 0.013972364 1.0534882e-38
-0.033916757 -0.09817566 0.013972364 1.0350488e-38
-0.032182653 -0.09817566 0.013972364 1.0626352e-38
-0.030382715 -0.097672105 0.016002022 1.0718183e-38
-0.028469786 -0.096197397 0.021946095 1.0624543e-38
-0.026749663 -0.096197397 0.021946095 1.0071007e-38
-0.02502954 -0.096197397 0.021946095 1.0807491e-38
-0.023309417 -0.096197397 0.021946095 1.0715295e-38
-0.021589294 -0.096197397 0.021946095 1.0715295e-38
-0.019802544 -0.095443189 0.024986111 1.0899689e-38
-0.018087752 -0.095443189 0.024986111 1.0991527e-38
-0.016428925 -0.096197397 0.021946095 1.0438359e-38
-0.014658168 -0.095443189 0.024986111 9.5160483e-39
-0.012943372 -0.095443189 0.024986111 8.6859345e-39
-0.01122858 -0.095443189 0.024986111 8.2246046e-39
-0.0095484331 -0.096197397 0.021946095 6.3806977e-39
-0.0078283101 -0.096197397 0.021946095 6.3803459e-39
-0.0061081871 -0.096197397 0.021946095 5.5502335e-39
-0.0043880641 -0.096197397 0.021946095 4.9967066e-39
-0.0026939958 -0.097672105 0.016002022 2.9680496e-39
-0.00096345134 -0.097672105 0.016002022 3.0602495e-39
0.00076970644 -0.09693253 0.018983029 2.8744121e-39
0.0024950262 -0.09693253 0.018983029 2.4130542e-39
0.0042203441 -0.09693253 0.018983029 1.1212251e-39
0.005945662 -0.09693253 0.018983029 7.5244543e-40
0.0076527968 -0.096197397 0.021946095 1.2123446e-39
0.0093729198 -0.096197397 0.021946095 4.7406067e-40
0.011093043 -0.096197397 0.021946095 1.2002121e-41
0.012846935 -0.09693253 0.018983029 3.8042871e-40
0.014611454 -0.097672105 0.016002022 8.4140686e-40
0.019748207 -0.09693253 0.018983029 1.1187168e-39
0.021473527 -0.09693253 0.018983029 9.346871e-40
0.023133904 -0.096197397 0.021946095 4.7442781e-40
0.024854027 -0.096197397 0.021946095 1.0564529e-40
0.02657415 -0.096197397 0.021946095 1.0636836e-40
0.028294273 -0.096197397 0.021946095 3.8367412e-40
0.030014396 -0.096197397 0.021946095 8.4465227e-40
0.031734519 -0.096197397 0.021946095 1.0297694e-39
0.033356033 -0.095443189 0.024986111 1.0283415e-39
0.035070825 -0.095443189 0.024986111 3.8261754e-40
0.036785621 -0.095443189 0.024986111 2.9006178e-40
0.038500413 -0.095443189 0.024986111 4.7480476e-40
0.040215205 -0.095443189 0.024986111 1.0672429e-40
0.041809395 -0.094716981 0.027913176 1.2716784e-41
0.043519054 -0.094716981 0.027913176 1.4871981e-41
0.045136314 -0.094204247 0.029979847 2.3186781e-39
0.046842352 -0.094204247 0.029979847 2.8696911e-39
0.04878917 -0.095443189 0.024986111 1.5764229e-39
-0.056636989 -0.10066219 0.01096084 1.1349827e-38
-0.054897606 -0.10066219 0.01096084 1.3013689e-38
-0.052991897 -0.099909768 0.013972364 1.1638341e-38
-0.051257789 -0.099909768 0.013972364 9.8898783e-39
-0.049523689 -0.099909768 0.013972364 1.1178454e-38
-0.047789589 -0.099909768 0.013972364 1.1085172e-38
-0.046055481 -0.099909768 0.013972364 1.1267764e-38
-0.044321381 -0.099909768 0.013972364 1.218972e-38
-0.04258728 -0.099909768 0.013972364 1.1728743e-38
-0.040853173 -0.099909768 0.013972364 1.1914577e-38
-0.039119069 -0.099909768 0.013972364 1.1270652e-38
-0.037384965 -0.099909768 0.013972364 1.1088059e-38
-0.035650861 -0.099909768 0.013972364 1.0720717e-38
-0.033843804 -0.099402651 0.016002022 1.0260463e-38
-0.032113262 -0.099402651 0.016002022 1.0167906e-38
-0.030286022 -0.098657846 0.018983029 1.0075709e-38
-0.028560705 -0.098657846 0.018983029 9.98279e-39
-0.026749663 -0.097917527 0.021946095 9.5218091e-39
-0.02502954 -0.097917527 0.021946095 9.6132858e-39
-0.023309417 -0.097917527 0.021946095 9.7054814e-39
-0.021589294 -0.097917527 0.021946095 9.8898755e-39
-0.019869171 -0.097917527 0.021946095 1.0166465e-38
-0.018149048 -0.097917527 0.021946095 1.0166108e-38
-0.016428925 -0.097917527 0.021946095 9.7051353e-39
-0.014658168 -0.09715797 0.024986111 8.9672158e-39
-0.012943372 -0.09715797 0.024986111 8.4136917e-39
-0.011268556 -0.097917527 0.021946095 7.6757749e-39
-0.0095484331 -0.097917527 0.021946095 5.6471179e-39
-0.0078283101 -0.097917527 0.021946095 5.4623749e-39
-0.0061081871 -0.097917527 0.021946095 4.7244582e-39
-0.0043880641 -0.097917527 0.021946095 4.078737e-39
-0.0026809294 -0.098657846 0.018983029 1.8656888e-39
-0.00095561147 -0.098657846 0.018983029 1.7734988e-39
0.00077230483 -0.097917527 0.021946095 1.4036232e-39
0.0024924278 -0.097917527 0.021946095 1.7705826e-39
0.0042203441 -0.098657846 0.018983029 1.3088674e-39
0.005945662 -0.098657846 0.018983029 1.6765737e-39
0.0076527968 -0.097917527 0.021946095 1.8602461e-39
0.0093729198 -0.097917527 0.021946095 8.4537534e-40
0.011093043 -0.097917527 0.021946095 6.6026381e-40
0.012846935 -0.098657846 0.018983029 1.3971128e-39
0.014572253 -0.098657846 0.018983029 1.7658953e-39
0.016297571 -0.098657846 0.018983029 6.5954775e-40
0.018022889 -0.098657846 0.018983029 4.7479916e-40
0.019748207 -0.098657846 0.018983029 4.7551802e-40
0.021413781 -0.097917527 0.021946095 6.6063235e-40
0.023133904 -0.097917527 0.021946095 7.5354685e-40
0.024854027 -0.097917527 0.021946095 8.4574248e-40
0.02657415 -0.097917527 0.021946095 1.123051e-39
0.028294273 -0.097917527 0.021946095 1.676222e-39
0.030014396 -0.097917527 0.021946095 9.3757377e-40
0.031734519 -0.097917527 0.021946095 9.3757517e-40
0.033454642 -0.097917527 0.021946095 1.0283443e-39
0.035174765 -0.097917527 0.021946095 9.3543118e-40
0.036894888 -0.097917527 0.021946095 1.0265464e-39
0.038500413 -0.09715797 0.024986111 1.0272527e-39
0.040215205 -0.09715797 0.024986111 1.0279561e-39
0.041929998 -0.09715797 0.024986111 1.028305e-39
0.04364479 -0.09715797 0.024986111 1.0541968e-41
0.045228716 -0.096426651 0.027913176 1.3963547e-39
0.046938375 -0.096426651 0.027913176 2.7764109e-39
0.048648037 -0.096426651 0.027913176 3.6954763e-39
-0.059928313 -0.10164386 0.013972364 9.224972e-39
-0.058194205 -0.10164386 0.013972364 9.872875e-39
-0.056460105 -0.10164386 0.013972364 9.4137157e-39
-0.054726005 -0.10164386 0.013972364 1.3659059e-38
-0.052991897 -0.10164386 0.013972364 1.1636546e-38
-0.051257789 -0.10164386 0.013972364 1.0164667e-38
-0.049523689 -0.10164386 0.013972364 1.1914937e-38
-0.047688164 -0.1011332 0.016002022 1.1637271e-38
-0.045957625 -0.1011332 0.016002022 1.1543633e-38
-0.044227079 -0.1011332 0.016002022 1.2557785e-38
-0.04258728 -0.10164386 0.013972364 1.1912419e-38
-0.040853173 -0.10164386 0.013972364 1.2006055e-38
-0.039035439 -0.1011332 0.016002022 1.1453964e-38
-0.037304893 -0.1011332 0.016002022 1.1363206e-38
-0.035574351 -0.1011332 0.016002022 1.0995864e-38
-0.033843804 -0.1011332 0.016002022 1.0350863e-38
-0.032113262 -0.1011332 0.016002022 9.7987701e-39
-0.030286022 -0.10038316 0.018983029 9.8909657e-39
-0.028560705 -0.10038316 0.018983029 1.016683e-38
-0.026749663 -0.099637643 0.021946095 1.0074634e-38
-0.02502954 -0.099637643 0.021946095 9.8909629e-39
-0.023309417 -0.099637643 0.021946095 9.8909629e-39
-0.021589294 -0.099637643 0.021946095 9.7987701e-39
-0.019869171 -0.099637643 0.021946095 9.7065773e-39
-0.018149048 -0.099637643 0.021946095 9.6140243e-39
-0.016428925 -0.099637643 0.021946095 9.4296358e-39
-0.014708802 -0.099637643 0.021946095 9.1526958e-39
-0.012988679 -0.099637643 0.021946095 8.9686675e-39
-0.011268556 -0.099637643 0.021946095 8.3229492e-39
-0.0095484331 -0.099637643 0.021946095 6.0177067e-39
-0.0078283101 -0.099637643 0.021946095 5.6485725e-39
-0.0061081871 -0.099637643 0.021946095 4.9106557e-39
-0.0043880641 -0.099637643 0.021946095 4.2652919e-39
-0.0026679412 -0.099637643 0.021946095 1.8678524e-39
-0.00095561147 -0.10038316 0.018983029 1.3143241e-39
0.00077230483 -0.099637643 0.021946095 6.6786445e-40
0.0024924278 -0.099637643 0.021946095 1.3117667e-39
0.0042203441 -0.10038316 0.018983029 1.0340896e-39
0.005945662 -0.10038316 0.018983029 9.411723e-40
0.0076527968 -0.099637643 0.021946095 5.7166952e-40
0.0093729198 -0.099637643 0.021946095 1.7779675e-41
0.011093043 -0.099637643 0.021946095 7.5426571e-40
0.012813166 -0.099637643 0.021946095 1.490393e-39
0.014533289 -0.099637643 0.021946095 1.1216133e-39
0.016253412 -0.099637643 0.021946095 1.2138117e-39
0.017973535 -0.099637643 0.021946095 5.6844233e-40
0.019693658 -0.099637643 0.021946095 2.9149951e-40
0.021413781 -0.099637643 0.021946095 5.680864e-40
0.023067277 -0.098872766 0.024986111 7.5319372e-40
0.024782069 -0.098872766 0.024986111 8.4610822e-40
0.02657415 -0.099637643 0.021946095 1.3996379e-39
0.028294273 -0.099637643 0.021946095 2.1372002e-39
0.030014396 -0.099637643 0.021946095 1.583662e-39
0.031734519 -0.099637643 0.021946095 1.5829446e-39
0.033454642 -0.099637643 0.021946095 1.5825943e-39
0.035174765 -0.099637643 0.021946095 1.5822397e-39
0.036785621 -0.098872766 0.024986111 1.2134558e-39
0.038500413 -0.098872766 0.024986111 5.6843952e-40
0.040215205 -0.098872766 0.024986111 2.9255749e-40
0.041929998 -0.098872766 0.024986111 3.8545797e-40
0.04364479 -0.098872766 0.024986111 9.3790448e-40
0.045359585 -0.098872766 0.024986111 1.2126851e-39
0.046938375 -0.098136306 0.027913176 1.1176028e-39
0.048648037 -0.098136306 0.027913176 3.8802207e-39
-0.059928313 -0.10337795 0.013972364 8.6721513e-39
-0.058194205 -0.10337795 0.013972364 9.4118926e-39
-0.056340888 -0.10286374 0.016002022 1.015127e-38
-0.054610342 -0.10286374 0.016002022 1.3473574e-38
-0.052991897 -0.10337795 0.013972364 1.2741078e-38
-0.051257789 -0.10337795 0.013972364 1.2281916e-38
-0.04941871 -0.10286374 0.016002022 1.2190076e-38
-0.047688164 -0.10286374 0.016002022 1.2097162e-38
-0.045957625 -0.10286374 0.016002022 1.2096439e-38
-0.044227079 -0.10286374 0.016002022 1.1912768e-38
-0.042496532 -0.10286374 0.016002022 1.2097162e-38
-0.040765986 -0.10286374 0.016002022 1.218972e-38
-0.039035439 -0.10286374 0.016002022 1.2097526e-38
-0.037304893 -0.10286374 0.016002022 1.2098249e-38
-0.035574351 -0.10286374 0.016002022 1.2191161e-38
-0.033843804 -0.10286374 0.016002022 1.2007131e-38
-0.032113262 -0.10286374 0.016002022 1.1730548e-38
-0.030382715 -0.10286374 0.016002022 1.1177382e-38
-0.028560705 -0.10210848 0.018983029 1.0623852e-38
-0.026835382 -0.10210848 0.018983029 1.0255069e-38
-0.02502954 -0.10135777 0.021946095 1.0440537e-38
-0.023309417 -0.10135777 0.021946095 1.0533451e-38
-0.021589294 -0.10135777 0.021946095 1.0442335e-38
-0.019869171 -0.10135777 0.021946095 1.0441979e-38
-0.018149048 -0.10135777 0.021946095 1.025759e-38
-0.016428925 -0.10135777 0.021946095 9.9810062e-39
-0.014708802 -0.10135777 0.021946095 9.6118663e-39
-0.012988679 -0.10135777 0.021946095 9.2434495e-39
-0.011268556 -0.10135777 0.021946095 8.2293018e-39
-0.0095484331 -0.10135777 0.021946095 7.6757749e-39
-0.0078283101 -0.10135777 0.021946095 6.9378581e-39
-0.0061081871 -0.10135777 0.021946095 5.9233531e-39
-0.0043880641 -0.10135777 0.021946095 4.9095655e-39
-0.0026679412 -0.10135777 0.021946095 3.8954192e-39
-0.00095561147 -0.10210848 0.018983029 2.9731069e-39
0.00077230483 -0.10135777 0.021946095 2.511763e-39
0.0024924278 -0.10135777 0.021946095 2.232644e-39
0.0042125508 -0.10135777 0.021946095 2.3244725e-39
0.0059326738 -0.10135777 0.021946095 2.3241096e-39
0.0076527968 -0.10135777 0.021946095 2.1386393e-39
0.0093489345 -0.10058756 0.024986111 1.7694966e-39
0.011063727 -0.10058756 0.024986111 1.4918308e-39
0.01277852 -0.10058756 0.024986111 1.5825915e-39
0.014533289 -0.10135777 0.021946095 1.5825943e-39
0.016253412 -0.10135777 0.021946095 2.0421389e-39
0.017922899 -0.10058756 0.024986111 1.8570316e-39
0.019637691 -0.10058756 0.024986111 1.6729962e-39
0.021413781 -0.10135777 0.021946095 1.9495817e-39
0.023067277 -0.10058756 0.024986111 2.5034716e-39
0.024782069 -0.10058756 0.024986111 2.8726072e-39
0.02657415 -0.10135777 0.021946095 2.6885677e-39
0.028211655 -0.10058756 0.024986111 2.1364701e-39
0.029926449 -0.10058756 0.024986111 1.9520788e-39
0.031734519 -0.10135777 0.021946095 1.7680533e-39
0.033454642 -0.10135777 0.021946095 1.3996379e-39
0.035174765 -0.10135777 0.021946095 9.3938565e-40
0.036785621 -0.10058756 0.024986111 2.9545677e-40
0.038500413 -0.10058756 0.024986111 1.9230019e-41
0.040215205 -0.10058756 0.024986111 1.9947484e-41
0.041929998 -0.10058756 0.024986111 2.0432613e-40
0.04364479 -0.10058756 0.024986111 6.634952e-40
0.045359585 -0.10058756 0.024986111 2.9325814e-40
0.046938375 -0.099845976 0.027913176 4.7367251e-40
0.048648037 -0.099845976 0.027913176 5.0809135e-39
0.050357696 -0.099845976 0.027913176 9.870745e-39
-0.059928313 -0.10511206 0.013972364 7.8423907e-39
-0.058194205 -0.10511206 0.013972364 9.3189711e-39
-0.056340888 -0.10459428 0.016002022 1.0796989e-38
-0.054610342 -0.10459428 0.016002022 1.5132366e-38
-0.052879795 -0.10459428 0.016002022 1.5135629e-38
-0.051149249 -0.10459428 0.016002022 1.4492788e-38
-0.04941871 -0.10459428 0.016002022 1.4491712e-38
-0.047688164 -0.10459428 0.016002022 1.412401e-38
-0.045957625 -0.10459428 0.016002022 1.4215126e-38
-0.044227079 -0.10459428 0.016002022 1.412401e-38
-0.042496532 -0.10459428 0.016002022 1.4216205e-38
-0.040765986 -0.10459428 0.016002022 1.412437e-38
-0.039035439 -0.10459428 0.016002022 1.4031458e-38
-0.037304893 -0.10459428 0.016002022 1.3939981e-38
-0.035574351 -0.10459428 0.016002022 1.3847428e-38
-0.033843804 -0.10459428 0.016002022 1.347901e-38
-0.032113262 -0.10459428 0.016002022 1.3293904e-38
-0.030382715 -0.10459428 0.016002022 1.2741456e-38
-0.028560705 -0.10383381 0.018983029 1.2464153e-38
-0.026835382 -0.10383381 0.018983029 1.2095731e-38
-0.02502954 -0.1030779 0.021946095 1.1083374e-38
-0.023309417 -0.1030779 0.021946095 1.1267765e-38
-0.021589294 -0.1030779 0.021946095 1.1268488e-38
-0.019869171 -0.1030779 0.021946095 1.145288e-38
-0.018208794 -0.10383381 0.018983029 1.1545075e-38
-0.016428925 -0.1030779 0.021946095 1.1545078e-38
-0.014708802 -0.1030779 0.021946095 1.1269213e-38
-0.012988679 -0.1030779 0.021946095 1.1176661e-38
-0.011268556 -0.1030779 0.021946095 1.0070678e-38
-0.0095484331 -0.1030779 0.021946095 9.6097055e-39
-0.0078283101 -0.1030779 0.021946095 8.9639816e-39
-0.0061081871 -0.1030779 0.021946095 8.2260634e-39
-0.0043880641 -0.1030779 0.021946095 7.3048316e-39
-0.0026679412 -0.1030779 0.021946095 6.4750737e-39
-0.00095561147 -0.10383381 0.018983029 5.7371527e-39
0.00077230483 -0.1030779 0.021946095 5.183979e-39
0.0024924278 -0.1030779 0.021946095 4.0769083e-39
0.0042125508 -0.1030779 0.021946095 3.5240877e-39
0.0059326738 -0.1030779 0.021946095 2.9701936e-39
0.0076527968 -0.1030779 0.021946095 2.5088553e-39
0.0093489345 -0.10230236 0.024986111 2.599609e-39
0.011063727 -0.10230236 0.024986111 2.6907285e-39
0.01277852 -0.10230236 0.024986111 2.505261e-39
0.014493313 -0.10230236 0.024986111 2.3208726e-39
0.016208105 -0.10230236 0.024986111 3.2421156e-39
0.017922899 -0.10230236 0.024986111 3.2410394e-39
0.019637691 -0.10230236 0.024986111 3.2410394e-39
0.021352485 -0.10230236 0.024986111 3.5176235e-39
0.023067277 -0.10230236 0.024986111 3.978952e-39
0.024782069 -0.10230236 0.024986111 4.1636977e-39
0.026496863 -0.10230236 0.024986111 3.9796582e-39
0.028211655 -0.10230236 0.024986111 3.7952641e-39
0.029926449 -0.10230236 0.024986111 3.7030685e-39
0.031641241 -0.10230236 0.024986111 3.7030713e-39
0.033454642 -0.1030779 0.021946095 3.4279278e-39
0.035174765 -0.1030779 0.021946095 2.87584e-39
0.036894888 -0.1030779 0.021946095 2.1400812e-39
0.038500413 -0.10230236 0.024986111 1.7720204e-39
0.040215205 -0.10230236 0.024986111 1.5876291e-39
0.041929998 -0.10230236 0.024986111 1.6794562e-39
0.04364479 -0.10230236 0.024986111 2.968386e-39
0.045228716 -0.10155563 0.027913176 3.058404e-39
0.046938375 -0.10155563 0.027913176 3.3320916e-39
0.048548389 -0.1010284 0.029979847 7.3861559e-39
0.050254427 -0.1010284 0.029979847 1.1438422e-38
-0.059928313 -0.10684617 0.013972364 7.6572792e-39
-0.058194205 -0.10684617 0.013972364 9.3186096e-39
-0.056460105 -0.10684617 0.013972364 1.1809701e-38
-0.054726005 -0.10684617 0.013972364 1.7067385e-38
-0.052879795 -0.10632484 0.016002022 1.6239446e-38
-0.051149249 -0.10632484 0.016002022 1.5504047e-38
-0.04941871 -0.10632484 0.016002022 1.5318577e-38
-0.047688164 -0.10632484 0.016002022 1.5043069e-38
-0.045957625 -0.10632484 0.016002022 1.5318577e-38
-0.044227079 -0.10632484 0.016002022 1.5227461e-38
-0.042496532 -0.10632484 0.016002022 1.5135265e-38
-0.040765986 -0.10632484 0.016002022 1.4859397e-38
-0.039035439 -0.10632484 0.016002022 1.550405e-38
-0.037304893 -0.10632484 0.016002022 1.5227825e-38
-0.035461977 -0.10555913 0.018983029 1.4951241e-38
-0.033736657 -0.10555913 0.018983029 1.4582824e-38
-0.032011338 -0.10555913 0.018983029 1.4489552e-38
-0.030382715 -0.10632484 0.016002022 1.4213687e-38
-0.028560705 -0.10555913 0.018983029 1.4305164e-38
-0.026835382 -0.10555913 0.018983029 1.4121491e-38
-0.02502954 -0.104798 0.021946095 1.3385005e-38
-0.023309417 -0.104798 0.021946095 1.3385365e-38
-0.021589294 -0.104798 0.021946095 1.3385365e-38
-0.01993411 -0.10555913 0.018983029 1.3477561e-38
-0.018208794 -0.10555913 0.018983029 1.3294249e-38
-0.016428925 -0.104798 0.021946095 1.3294252e-38
-0.014708802 -0.104798 0.021946095 1.3202056e-38
-0.012988679 -0.104798 0.021946095 1.3201703e-38
-0.011268556 -0.104798 0.021946095 1.2095717e-38
-0.0095484331 -0.104798 0.021946095 1.1819136e-38
-0.0078283101 -0.104798 0.021946095 1.1357802e-38
-0.0061081871 -0.104798 0.021946095 1.0896828e-38
-0.0043880641 -0.104798 0.021946095 1.034402e-38
-0.0026679412 -0.104798 0.021946095 9.7904898e-39
-0.00095561147 -0.10555913 0.018983029 9.3295131e-39
0.00077230483 -0.104798 0.021946095 8.6855884e-39
0.0024924278 -0.104798 0.021946095 7.6732399e-39
0.0042125508 -0.104798 0.021946095 6.2913845e-39
0.0059326738 -0.104798 0.021946095 5.0921196e-39
0.0076527968 -0.104798 0.021946095 4.4467474e-39
0.0093729198 -0.104798 0.021946095 4.5378613e-39
0.011063727 -0.10401715 0.024986111 4.7211735e-39
0.01277852 -0.10401715 0.024986111 4.4438706e-39
0.014493313 -0.10401715 0.024986111 3.9825379e-39
0.016208105 -0.10401715 0.024986111 4.6268311e-39
0.017922899 -0.10401715 0.024986111 4.7190295e-39
0.019637691 -0.10401715 0.024986111 4.9034236e-39
0.021352485 -0.10401715 0.024986111 5.087812e-39
0.023067277 -0.10401715 0.024986111 5.1800049e-39
0.024782069 -0.10401715 0.024986111 5.1803594e-39
0.026496863 -0.10401715 0.024986111 5.0885141e-39
0.028211655 -0.10401715 0.024986111 5.0881498e-39
0.029926449 -0.10401715 0.024986111 5.7306353e-39
0.031641241 -0.10401715 0.024986111 5.9143077e-39
0.033454642 -0.104798 0.021946095 5.6391655e-39
0.035174765 -0.104798 0.021946095 5.1796307e-39
0.036894888 -0.104798 0.021946095 4.7190155e-39
0.038500413 -0.10401715 0.024986111 4.1662047e-39
0.040215205 -0.10401715 0.024986111 3.8896178e-39
0.041929998 -0.10401715 0.024986111 3.889252e-39
0.04364479 -0.10401715 0.024986111 4.4413356e-39
0.045228716 -0.1032653 0.027913176 4.716468e-39
0.046938375 -0.1032653 0.027913176 5.4511351e-39
0.048548389 -0.10273445 0.029979847 8.9523914e-39
0.050254427 -0.10273445 0.029979847 1.2545122e-38
-0.059928313 -0.10858028 0.013972364 8.3012066e-39
-0.058194205 -0.10858028 0.013972364 9.8703414e-39
-0.056460105 -0.10858028 0.013972364 1.3098995e-38
-0.054726005 -0.10858028 0.013972364 1.9278271e-38
-0.052879795 -0.10805537 0.016002022 2.0108744e-38
-0.051149249 -0.10805537 0.016002022 1.9372266e-38
-0.04941871 -0.10805537 0.016002022 1.9003489e-38
-0.047688164 -0.10805537 0.016002022 1.9003489e-38
-0.045957625 -0.10805537 0.016002022 1.9187878e-38
-0.044227079 -0.10805537 0.016002022 1.9280431e-38
-0.042496532 -0.10805537 0.016002022 1.9095683e-38
-0.040765986 -0.10805537 0.016002022 1.8543594e-38
-0.038912613 -0.10728444 0.018983029 1.84514e-38
-0.037187293 -0.10728444 0.018983029 1.8359206e-38
-0.035461977 -0.10728444 0.018983029 1.8174459e-38
-0.033630155 -0.10651813 0.021946095 1.8082982e-38
-0.031910032 -0.10651813 0.021946095 1.8082623e-38
-0.030286022 -0.10728444 0.018983029 1.8174817e-38
-0.028560705 -0.10728444 0.018983029 1.8267011e-38
-0.026835382 -0.10728444 0.018983029 1.8359206e-38
-0.02502954 -0.10651813 0.021946095 1.7990788e-38
-0.023309417 -0.10651813 0.021946095 1.7990788e-38
-0.021589294 -0.10651813 0.021946095 1.7990788e-38
-0.01993411 -0.10728444 0.018983029 1.7990788e-38
-0.018208794 -0.10728444 0.018983029 1.7715281e-38
-0.016428925 -0.10651813 0.021946095 1.7807475e-38
-0.014708802 -0.10651813 0.021946095 1.7807475e-38
-0.012988679 -0.10651813 0.021946095 1.7807475e-38
-0.011307523 -0.10728444 0.018983029 1.771564e-38
-0.0095484331 -0.10651813 0.021946095 1.7531251e-38
-0.0078283101 -0.10651813 0.021946095 1.7346504e-38
-0.0061081871 -0.10651813 0.021946095 1.7162116e-38
-0.0043880641 -0.10651813 0.021946095 1.688625e-38
-0.0026679412 -0.10651813 0.021946095 1.6609668e-38
-0.00095561147 -0.10728444 0.018983029 1.6332726e-38
0.00077230483 -0.10651813 0.021946095 1.5872831e-38
0.0024924278 -0.10651813 0.021946095 1.5599119e-38
0.0042125508 -0.10651813 0.021946095 1.4400952e-38
0.0059326738 -0.10651813 0.021946095 1.3018392e-38
0.0076527968 -0.10651813 0.021946095 1.2280465e-38
0.0093729198 -0.10651813 0.021946095 1.2371216e-38
0.011063727 -0.10573195 0.024986111 1.2279021e-38
0.01277852 -0.10573195 0.024986111 1.2001718e-38
0.014493313 -0.10573195 0.024986111 1.1540742e-38
0.016208105 -0.10573195 0.024986111 1.1262722e-38
0.017922899 -0.10573195 0.024986111 1.1539312e-38
0.019637691 -0.10573195 0.024986111 1.190774e-38
0.021352485 -0.10573195 0.024986111 1.1999935e-38
0.023067277 -0.10573195 0.024986111 1.163223e-38
0.024782069 -0.10573195 0.024986111 1.1448192e-38
0.026496863 -0.10573195 0.024986111 1.1448189e-38
0.028211655 -0.10573195 0.024986111 1.1631856e-38
0.029926449 -0.10573195 0.024986111 1.2182506e-38
0.031641241 -0.10573195 0.024986111 1.2365819e-38
0.033356033 -0.10573195 0.024986111 1.2090676e-38
0.035070825 -0.10573195 0.024986111 1.1630421e-38
0.036894888 -0.10651813 0.021946095 1.1169808e-38
0.038500413 -0.10573195 0.024986111 1.0709548e-38
0.040215205 -0.10573195 0.024986111 1.0616634e-38
0.041929998 -0.10573195 0.024986111 1.0524793e-38
0.04364479 -0.10573195 0.024986111 1.1261269e-38
0.045228716 -0.10497494 0.027913176 1.1075066e-38
0.046842352 -0.10444047 0.029979847 1.0797027e-38
0.048548389 -0.10444047 0.029979847 1.2269622e-38
-0.060115755 -0.11109848 0.01096084 8.7607428e-39
-0.058194205 -0.11031438 0.013972364 1.0514266e-38
-0.056460105 -0.11031438 0.013972364 1.4204259e-38
-0.054726005 -0.11031438 0.013972364 2.1488787e-38
