# .PCD v0.7 - Point Cloud Data file format
VERSION 0.7
FIELDS x y z rgb
SIZE 4 4 4 4
TYPE F F F F
COUNT 1 1 1 1
WIDTH 929
HEIGHT 1
VIEWPOINT 0 0 0 1 0 0 0
POINTS 929
DATA ascii
-0.024641111 -0.09348768 -0.026785415 2.3509521e-38
-0.022813447 -0.095089734 -0.033841174 2.350952e-38
-0.020942485 -0.095089734 -0.033841174 2.3415884e-38
-0.019071521 -0.095089734 -0.033841174 2.3508807e-38
-0.017204102 -0.094171658 -0.029797833 2.3417333e-38
-0.015340228 -0.094171658 -0.029797833 2.3233662e-38
-0.013476355 -0.094171658 -0.029797833 2.2403552e-38
-0.011612481 -0.094171658 -0.029797833 2.0006817e-38
-0.0095590288 -0.099627286 -0.053825419 1.9730581e-38
-0.0076822815 -0.09893848 -0.050791781 2.1851078e-38
-0.0057815984 -0.09893848 -0.050791781 2.3049626e-38
-0.0039327461 -0.098043531 -0.046850245 2.2496821e-38
-0.0020389741 -0.098043531 -0.046850245 1.8625698e-38
-7.9547754e-05 -0.09893848 -0.050791781 1.5030435e-38
0.0018211345 -0.09893848 -0.050791781 1.2635154e-38
0.0037218186 -0.09893848 -0.050791781 2.864212e-39
0.0056225024 -0.09893848 -0.050791781 4.5262431e-39
0.0079259891 -0.10280241 -0.067809269 2.1305874e-39
0.009856509 -0.10280241 -0.067809269 3.6996998e-39
0.011787029 -0.10280241 -0.067809269 3.5131505e-39
0.013603371 -0.10190627 -0.063862488 2.8624029e-39
0.015526969 -0.10190627 -0.063862488 3.0446474e-39
0.01735035 -0.10120471 -0.060772698 8.5781943e-39
0.01913128 -0.10029322 -0.056758326 1.558795e-38
0.021042425 -0.10029322 -0.056758326 1.5683041e-38
0.02295357 -0.10029322 -0.056758326 1.1812997e-38
0.02502308 -0.10120471 -0.060772698 1.0894647e-38
0.026941266 -0.10120471 -0.060772698 1.2740726e-38
0.028859448 -0.10120471 -0.060772698 1.2280474e-38
0.030915774 -0.10190627 -0.063862488 1.3110233e-38
0.032839376 -0.10190627 -0.063862488 1.4032534e-38
0.035144959 -0.10370506 -0.07178466 1.4677535e-38
0.037082449 -0.10370506 -0.07178466 1.5322536e-38
0.039019939 -0.10370506 -0.07178466 1.6243402e-38
0.038231559 -0.092131287 -0.020811599 1.6611461e-38
0.041352384 -0.097363517 -0.04385535 1.6519267e-38
0.043411564 -0.098043531 -0.046850245 1.5691313e-38
0.045536853 -0.09893848 -0.050791781 1.4954118e-38
0.047437534 -0.09893848 -0.050791781 1.2372661e-38
0.049338214 -0.09893848 -0.050791781 9.4220436e-39
0.051433042 -0.099627286 -0.053825419 8.5000901e-39
0.053531885 -0.10029322 -0.056758326 6.8398527e-39
0.055714011 -0.10120471 -0.060772698 7.9462003e-39
0.057632193 -0.10120471 -0.060772698 6.5632658e-39
0.059769787 -0.10190627 -0.063862488 7.1157165e-39
0.061693385 -0.10190627 -0.063862488 5.6398648e-39
0.063616984 -0.10190627 -0.063862488 5.9150083e-39
0.066375971 -0.1043932 -0.074815437 6.2834251e-39
0.068318769 -0.1043932 -0.074815437 6.0057536e-39
0.071143106 -0.1069022 -0.085865423 6.3738103e-39
0.073105291 -0.1069022 -0.085865423 7.018458e-39
0.075067475 -0.1069022 -0.085865423 6.9248106e-39
0.077029645 -0.1069022 -0.085865423 8.2133676e-39
0.07899183 -0.1069022 -0.085865423 3.1407989e-39
-0.084543526 -0.083898082 0.023248155 2.341513e-38
-0.082772672 -0.083898082 0.023248155 2.3509129e-38
-0.081190959 -0.084593475 0.020209033 2.3509855e-38
-0.079230934 -0.083898082 0.023248155 2.3509859e-38
-0.076936737 -0.081859455 0.032157857 2.1757783e-38
-0.075181499 -0.081859455 0.032157857 2.350987e-38
-0.0756317 -0.090996325 -0.0077742748 2.3509521e-38
-0.073806442 -0.090996325 -0.0077742748 2.3509527e-38
-0.071981184 -0.090996325 -0.0077742748 2.3509521e-38
-0.070155926 -0.090996325 -0.0077742748 2.3509879e-38
-0.06833066 -0.090996325 -0.0077742748 2.3509876e-38
-0.066645406 -0.091685757 -0.010787409 2.3509879e-38
-0.064546213 -0.090310872 -0.0047785453 2.350988e-38
-0.0627262 -0.090310872 -0.0047785453 2.3509886e-38
-0.060906198 -0.090310872 -0.0047785453 2.3509886e-38
-0.059086192 -0.090310872 -0.0047785453 2.3325138e-38
-0.057379112 -0.090996325 -0.0077742748 2.3417333e-38
-0.055553854 -0.090996325 -0.0077742748 2.3509527e-38
-0.053626172 -0.090310872 -0.0047785453 2.3509886e-38
-0.051806163 -0.090310872 -0.0047785453 2.350988e-38
-0.049986158 -0.090310872 -0.0047785453 2.3509876e-38
-0.048252817 -0.090996325 -0.0077742748 2.3048896e-38
-0.046509445 -0.091685757 -0.010787409 2.3509524e-38
-0.044830669 -0.093051672 -0.016757052 2.3508809e-38
-0.042920094 -0.092379183 -0.013817947 2.3508809e-38
-0.041017819 -0.091685757 -0.010787409 2.3509168e-38
-0.039187275 -0.091685757 -0.010787409 2.3509527e-38
-0.037466634 -0.093051672 -0.016757052 2.3509527e-38
-0.035625625 -0.093051672 -0.016757052 2.3509527e-38
-0.033784617 -0.093051672 -0.016757052 2.3509886e-38
-0.031943608 -0.093051672 -0.016757052 2.3509886e-38
-0.030102599 -0.093051672 -0.016757052 2.3141106e-38
-0.028300688 -0.093979403 -0.020811599 2.2956715e-38
-0.02647607 -0.094660893 -0.023790043 2.2311345e-38
-0.024641111 -0.095346272 -0.026785415 2.3233302e-38
-0.022795724 -0.09603554 -0.029797833 2.3509886e-38
-0.020942485 -0.096960694 -0.033841174 2.3048907e-38
-0.019071521 -0.096960694 -0.033841174 2.3509886e-38
-0.017204102 -0.09603554 -0.029797833 1.9635877e-38
-0.015340228 -0.09603554 -0.029797833 1.90827e-38
-0.013476355 -0.09603554 -0.029797833 1.7977785e-38
-0.011612481 -0.09603554 -0.029797833 1.7240935e-38
-0.0095590288 -0.10153329 -0.053825419 1.6689553e-38
-0.0076822815 -0.10083917 -0.050791781 1.6598799e-38
-0.0057815984 -0.10083917 -0.050791781 1.6784274e-38
-0.0039327461 -0.099937305 -0.046850245 1.6969394e-38
-0.0020389741 -0.099937305 -0.046850245 1.5033297e-38
-0.00014520041 -0.099937305 -0.046850245 1.4203907e-38
0.0017485714 -0.099937305 -0.046850245 1.1898665e-38
0.0036423432 -0.099937305 -0.046850245 4.7996042e-39
0.0056225024 -0.10083917 -0.050791781 8.1186441e-39
0.02502308 -0.1031229 -0.060772698 1.0895373e-38
0.025294736 -0.093979403 -0.020811599 1.0989372e-38
0.026968684 -0.093051672 -0.016757052 1.3111309e-38
0.028809693 -0.093051672 -0.016757052 1.3941057e-38
0.030650701 -0.093051672 -0.016757052 1.4955194e-38
0.03249171 -0.093051672 -0.016757052 1.569203e-38
0.034332719 -0.093051672 -0.016757052 1.6244478e-38
0.036383443 -0.093979403 -0.020811599 1.6888403e-38
0.038231559 -0.093979403 -0.020811599 1.697988e-38
0.041352384 -0.099252045 -0.04385535 1.6703297e-38
0.043411564 -0.099937305 -0.046850245 1.46761e-38
0.045305334 -0.099937305 -0.046850245 1.3939264e-38
0.047437534 -0.10083917 -0.050791781 1.2003161e-38
0.049338214 -0.10083917 -0.050791781 9.2369363e-39
0.051433042 -0.10153329 -0.053825419 8.3149828e-39
0.053339042 -0.10153329 -0.053825419 6.8387737e-39
0.055443026 -0.10220437 -0.056758326 7.6685344e-39
0.057632193 -0.1031229 -0.060772698 6.7462179e-39
0.059550375 -0.1031229 -0.060772698 6.6529405e-39
0.061468564 -0.1031229 -0.060772698 5.3618374e-39
0.063616984 -0.10382988 -0.063862488 5.7291751e-39
0.066144809 -0.10564254 -0.07178466 6.7429613e-39
0.068318769 -0.10633601 -0.074815437 7.1106564e-39
0.070582777 -0.10725726 -0.078841731 7.386879e-39
0.073105291 -0.10886435 -0.085865423 8.2159166e-39
0.075067475 -0.10886435 -0.085865423 8.9516698e-39
0.077029645 -0.10886435 -0.085865423 9.0416878e-39
0.07899183 -0.10886435 -0.085865423 3.2326316e-39
-0.084944382 -0.087074608 0.017151553 1.816214e-38
-0.083162829 -0.087074608 0.017151553 2.3325455e-38
-0.081381276 -0.087074608 0.017151553 2.3509853e-38
-0.079230934 -0.085668951 0.023248155 2.2588616e-38
-0.076936737 -0.083614707 0.032157857 2.3509859e-38
-0.075181499 -0.083614707 0.032157857 2.3418028e-38
-0.0756317 -0.092821583 -0.0077742748 2.350988e-38
-0.073806442 -0.092821583 -0.0077742748 2.3509527e-38
-0.071981184 -0.092821583 -0.0077742748 2.350988e-38
-0.070155926 -0.092821583 -0.0077742748 2.3509879e-38
-0.06833066 -0.092821583 -0.0077742748 2.3509873e-38
-0.066645406 -0.093516305 -0.010787409 2.3509873e-38
-0.064546213 -0.092130885 -0.0047785453 2.3509876e-38
-0.0627262 -0.092130885 -0.0047785453 2.350988e-38
-0.061029632 -0.092821583 -0.0077742748 2.3509886e-38
-0.059204374 -0.092821583 -0.0077742748 2.2679772e-38
-0.057379112 -0.092821583 -0.0077742748 2.2771972e-38
-0.055553854 -0.092821583 -0.0077742748 2.3232944e-38
-0.053728595 -0.092821583 -0.0077742748 2.3048556e-38
-0.051806163 -0.092130885 -0.0047785453 2.3232944e-38
-0.049986158 -0.092130885 -0.0047785453 2.3509886e-38
-0.048339989 -0.093516305 -0.010787409 2.3509883e-38
-0.046591807 -0.094215035 -0.013817947 2.3509524e-38
-0.044933751 -0.09582752 -0.020811599 2.3508804e-38
-0.04298966 -0.094892681 -0.016757052 2.3324052e-38
-0.041017819 -0.093516305 -0.010787409 2.3417327e-38
-0.039187275 -0.093516305 -0.010787409 2.3509167e-38
-0.037541278 -0.09582752 -0.020811599 2.3325494e-38
-0.035625625 -0.094892681 -0.016757052 2.3509886e-38
-0.033784617 -0.094892681 -0.016757052 2.341805e-38
-0.031943608 -0.094892681 -0.016757052 2.341805e-38
-0.030102599 -0.094892681 -0.016757052 2.3234379e-38
-0.028300688 -0.09582752 -0.020811599 2.3234379e-38
-0.026499704 -0.097204864 -0.026785415 2.3142544e-38
-0.024641111 -0.097204864 -0.026785415 2.3142544e-38
-0.022795724 -0.097899407 -0.029797833 2.2036562e-38
-0.020931851 -0.097899407 -0.029797833 1.8440932e-38
-0.019067977 -0.097899407 -0.029797833 1.7609728e-38
-0.017204102 -0.097899407 -0.029797833 1.825293e-38
-0.015340228 -0.097899407 -0.029797833 1.8528792e-38
-0.013476355 -0.097899407 -0.029797833 1.954402e-38
-0.011612481 -0.097899407 -0.029797833 2.0928391e-38
-0.0095358882 -0.1041155 -0.056758326 2.0377375e-38
-0.0076530268 -0.10343929 -0.053825419 1.8258677e-38
-0.0057815984 -0.10273984 -0.050791781 1.6599881e-38
-0.0039327461 -0.10183108 -0.046850245 1.6048151e-38
-0.0020389741 -0.10183108 -0.046850245 1.4112771e-38
-0.00014520041 -0.10183108 -0.046850245 1.4204615e-38
0.0017485714 -0.10183108 -0.046850245 1.2544386e-38
0.0036423432 -0.10183108 -0.046850245 1.0699399e-38
0.0055361167 -0.10183108 -0.046850245 8.4859902e-39
0.0074298885 -0.10183108 -0.046850245 1.2725554e-38
0.021598499 -0.09582752 -0.020811599 1.3569043e-38
0.023446616 -0.09582752 -0.020811599 1.4677176e-38
0.025294736 -0.09582752 -0.020811599 1.4678611e-38
0.026968684 -0.094892681 -0.016757052 1.4771164e-38
0.028809693 -0.094892681 -0.016757052 1.51403e-38
0.030650701 -0.094892681 -0.016757052 1.5323971e-38
0.03249171 -0.094892681 -0.016757052 1.4862282e-38
0.034332719 -0.094892681 -0.016757052 1.4215846e-38
0.036173727 -0.094892681 -0.016757052 1.3753788e-38
0.038231559 -0.09582752 -0.020811599 1.3015498e-38
0.040799301 -0.098831654 -0.033841174 1.2369772e-38
0.043240905 -0.10114056 -0.04385535 1.117196e-38
0.045129426 -0.10114056 -0.04385535 1.1172321e-38
0.047199108 -0.10183108 -0.046850245 1.1172324e-38
0.049338214 -0.10273984 -0.050791781 9.5128029e-39
0.051238902 -0.10273984 -0.050791781 9.3276956e-39
0.053339042 -0.10343929 -0.053825419 7.6681742e-39
0.055245049 -0.10343929 -0.053825419 7.8514837e-39
0.057354175 -0.1041155 -0.056758326 6.9291645e-39
0.059550375 -0.10504107 -0.060772698 7.2972267e-39
0.061468564 -0.10504107 -0.060772698 6.4667402e-39
0.063386746 -0.10504107 -0.060772698 7.0181091e-39
0.065540582 -0.10575347 -0.063862488 8.4006764e-39
0.068082303 -0.10758002 -0.07178466 9.2293497e-39
0.070261583 -0.10827883 -0.074815437 9.5052107e-39
0.072204381 -0.10827883 -0.074815437 1.0334251e-38
0.075067475 -0.11082654 -0.085865423 1.1531703e-38
0.077029645 -0.11082654 -0.085865423 1.1991582e-38
0.07899183 -0.11082654 -0.085865423 5.536442e-39
0.080954 -0.11082654 -0.085865423 3.7312374e-40
-0.083162829 -0.088856161 0.017151553 2.0930552e-38
-0.081381276 -0.088856161 0.017151553 2.2590076e-38
-0.079599716 -0.088856161 0.017151553 2.3234372e-38
-0.076936737 -0.085369945 0.032157857 2.2866307e-38
-0.075181499 -0.085369945 0.032157857 2.3418047e-38
-0.073426247 -0.085369945 0.032157857 2.341805e-38
-0.073806442 -0.094646841 -0.0077742748 2.3509527e-38
-0.070533797 -0.088145852 0.020209033 2.3509886e-38
-0.068757594 -0.088145852 0.020209033 2.3418043e-38
-0.06833066 -0.094646841 -0.0077742748 2.3509873e-38
-0.066786215 -0.096050888 -0.013817947 2.350987e-38
-0.064546213 -0.093950883 -0.0047785453 2.3509873e-38
-0.0627262 -0.093950883 -0.0047785453 2.3509876e-38
-0.061029632 -0.094646841 -0.0077742748 2.3509883e-38
-0.059204374 -0.094646841 -0.0077742748 2.3509527e-38
-0.057492699 -0.095346853 -0.010787409 2.3509527e-38
-0.055662155 -0.095346853 -0.010787409 2.3509168e-38
-0.053831615 -0.095346853 -0.010787409 2.3140391e-38
-0.05200107 -0.095346853 -0.010787409 2.267942e-38
-0.05017053 -0.095346853 -0.010787409 2.3325497e-38
-0.04842766 -0.096050888 -0.013817947 2.3509527e-38
-0.046781871 -0.097675636 -0.020811599 2.3509524e-38
-0.044933751 -0.097675636 -0.020811599 2.3509879e-38
-0.043085631 -0.097675636 -0.020811599 2.3509879e-38
-0.041302793 -0.098367572 -0.023790043 2.3509879e-38
-0.03944945 -0.098367572 -0.023790043 2.350988e-38
-0.037541278 -0.097675636 -0.020811599 2.3325492e-38
-0.035693161 -0.097675636 -0.020811599 2.31411e-38
-0.033845041 -0.097675636 -0.020811599 2.3234018e-38
-0.031943608 -0.096733689 -0.016757052 2.3050349e-38
-0.030102599 -0.096733689 -0.016757052 2.2589734e-38
-0.028358296 -0.099063456 -0.026785415 2.2775202e-38
-0.026523471 -0.099763289 -0.029797833 2.2682649e-38
-0.024659598 -0.099763289 -0.029797833 2.2498978e-38
-0.022795724 -0.099763289 -0.029797833 2.0839463e-38
-0.020931851 -0.099763289 -0.029797833 1.7520784e-38
-0.019067977 -0.099763289 -0.029797833 1.7334583e-38
-0.017204102 -0.099763289 -0.029797833 1.8806818e-38
-0.015340228 -0.099763289 -0.029797833 2.0649643e-38
-0.013476355 -0.099763289 -0.029797833 2.1480126e-38
-0.0095358882 -0.10602666 -0.056758326 2.0468495e-38
-0.0076822815 -0.10464053 -0.050791781 1.9916403e-38
-0.0057815984 -0.10464053 -0.050791781 1.8166128e-38
-0.0039327461 -0.10372485 -0.046850245 1.6230381e-38
-0.0020389741 -0.10372485 -0.046850245 1.7245255e-38
-0.00014520041 -0.10372485 -0.046850245 1.5678655e-38
0.0017485714 -0.10372485 -0.046850245 1.6047086e-38
0.0036423432 -0.10372485 -0.046850245 1.4294661e-38
0.0055361167 -0.10372485 -0.046850245 1.2633712e-38
0.0074298885 -0.10372485 -0.046850245 1.438508e-38
0.023051161 -0.095346853 -0.010787409 1.2374467e-38
0.025127672 -0.096733689 -0.016757052 1.302055e-38
0.026968684 -0.096733689 -0.016757052 1.4864435e-38
0.028809693 -0.096733689 -0.016757052 1.5049182e-38
0.030650701 -0.096733689 -0.016757052 1.4863717e-38
0.03249171 -0.096733689 -0.016757052 1.4309117e-38
0.034332719 -0.096733689 -0.016757052 1.3570485e-38
0.036173727 -0.096733689 -0.016757052 1.301587e-38
0.038231559 -0.097675636 -0.020811599 1.2553447e-38
0.040799301 -0.10070263 -0.033841174 1.190808e-38
0.042670265 -0.10070263 -0.033841174 1.1723697e-38
0.045129426 -0.10302909 -0.04385535 1.0802823e-38
0.047017947 -0.10302909 -0.04385535 1.0618432e-38
0.049092881 -0.10372485 -0.046850245 8.4979321e-39
0.051238902 -0.10464053 -0.050791781 8.4968531e-39
0.053339042 -0.10534529 -0.053825419 7.5745339e-39
0.055245049 -0.10534529 -0.053825419 7.7582049e-39
0.057354175 -0.10602666 -0.056758326 7.5730905e-39
0.059265316 -0.10602666 -0.056758326 7.7560371e-39
0.061468564 -0.10695927 -0.060772698 7.4790858e-39
0.063386746 -0.10695927 -0.060772698 8.1226476e-39
0.065540582 -0.10767709 -0.063862488 9.5048547e-39
0.068082303 -0.10951753 -0.07178466 1.0518279e-38
0.070261583 -0.11022164 -0.074815437 1.0701226e-38
0.072204381 -0.11022164 -0.074815437 1.1253677e-38
0.074727923 -0.11184154 -0.081788346 1.2360013e-38
0.07668294 -0.11184154 -0.081788346 1.4663811e-38
0.07899183 -0.11278872 -0.085865423 7.6558554e-39
0.080954 -0.11278872 -0.085865423 1.6624178e-39
0.082916185 -0.11278872 -0.085865423 5.5570873e-40
-0.086127743 -0.094850481 -0.00084630772 9.2246175e-39
-0.084118709 -0.094133899 0.002215106 1.1898294e-38
-0.08231096 -0.094133899 0.002215106 2.2315665e-38
-0.080503225 -0.094133899 0.002215106 2.2591531e-38
-0.076936737 -0.087125197 0.032157857 2.2130201e-38
-0.075006753 -0.086407393 0.035224456 2.2867037e-38
-0.07325688 -0.086407393 0.035224456 2.3142185e-38
-0.071507014 -0.086407393 0.035224456 2.3234379e-38
-0.070070192 -0.087824062 0.029172141 2.3234379e-38
-0.068605736 -0.089210689 0.023248155 2.3234376e-38
-0.066834867 -0.089210689 0.023248155 2.341804e-38
-0.065205209 -0.089922056 0.020209033 2.3418038e-38
-0.064370394 -0.094850481 -0.00084630772 2.350987e-38
-0.06255728 -0.094850481 -0.00084630772 2.3509873e-38
-0.060906198 -0.095770895 -0.0047785453 2.2957065e-38
-0.059086192 -0.095770895 -0.0047785453 2.2680128e-38
-0.057492699 -0.097177386 -0.010787409 2.314075e-38
-0.055662155 -0.097177386 -0.010787409 2.3509168e-38
-0.053831615 -0.097177386 -0.010787409 2.3509168e-38
-0.05200107 -0.097177386 -0.010787409 2.3509168e-38
-0.050263517 -0.097886756 -0.013817947 2.3417691e-38
-0.048512686 -0.098574698 -0.016757052 2.2126962e-38
-0.046781871 -0.099523753 -0.020811599 1.871571e-38
-0.045009475 -0.10022092 -0.023790043 1.9729854e-38
-0.043085631 -0.099523753 -0.020811599 2.0467779e-38
-0.041237514 -0.099523753 -0.020811599 2.0375583e-38
-0.03944945 -0.10022092 -0.023790043 1.9822412e-38
-0.037541278 -0.099523753 -0.020811599 1.926924e-38
-0.035693161 -0.099523753 -0.020811599 1.862423e-38
-0.033845041 -0.099523753 -0.020811599 1.8163255e-38
-0.032036092 -0.10022092 -0.023790043 1.622787e-38
-0.030182753 -0.10022092 -0.023790043 1.5030048e-38
-0.028358296 -0.10092205 -0.026785415 1.4754185e-38
-0.026523471 -0.10162716 -0.029797833 1.4846382e-38
-0.024684411 -0.10257359 -0.033841174 1.6045288e-38
-0.022813447 -0.10257359 -0.033841174 1.6967247e-38
-0.020942485 -0.10257359 -0.033841174 1.7059805e-38
-0.0095358882 -0.1079378 -0.056758326 2.0467064e-38
-0.0076822815 -0.1065412 -0.050791781 1.9637303e-38
-0.0057815984 -0.1065412 -0.050791781 1.8899738e-38
-0.0039327461 -0.10561861 -0.046850245 1.8255086e-38
-0.0020389741 -0.10561861 -0.046850245 1.9730933e-38
-0.00014520041 -0.10561861 -0.046850245 2.12997e-38
0.0018211345 -0.1065412 -0.050791781 2.2683363e-38
0.0036423432 -0.10561861 -0.046850245 2.2775202e-38
0.0055361167 -0.10561861 -0.046850245 2.2499695e-38
0.0074298885 -0.10561861 -0.046850245 1.9643468e-38
0.024881706 -0.097177386 -0.010787409 1.3113462e-38
0.026968684 -0.098574698 -0.016757052 9.517842e-39
0.028809693 -0.098574698 -0.016757052 1.0070656e-38
0.030650701 -0.098574698 -0.016757052 1.0622029e-38
0.03249171 -0.098574698 -0.016757052 1.0804978e-38
0.034332719 -0.098574698 -0.016757052 1.1080124e-38
0.036173727 -0.098574698 -0.016757052 1.1631856e-38
0.038231559 -0.099523753 -0.020811599 1.1907364e-38
0.040575989 -0.10162716 -0.029797833 1.1722973e-38
0.042670265 -0.10257359 -0.033841174 1.2921879e-38
0.044894166 -0.10398008 -0.039850038 1.1262358e-38
0.047017947 -0.1049176 -0.04385535 1.0893575e-38
0.049092881 -0.10561861 -0.046850245 8.4042931e-39
0.051238902 -0.1065412 -0.050791781 8.4039302e-39
0.053339042 -0.1072513 -0.053825419 8.0340659e-39
0.055245049 -0.1072513 -0.053825419 8.1258986e-39
0.057354175 -0.1079378 -0.056758326 8.401761e-39
0.059265316 -0.1079378 -0.056758326 9.6906949e-39
0.061468564 -0.10887744 -0.060772698 1.0611205e-38
0.063386746 -0.10887744 -0.060772698 1.1347686e-38
0.065540582 -0.10960068 -0.063862488 1.2729533e-38
0.068082303 -0.11145501 -0.07178466 1.4387967e-38
0.070261583 -0.11216442 -0.074815437 1.4664185e-38
0.072532654 -0.11310686 -0.078841731 1.4847854e-38
0.074727923 -0.11379658 -0.081788346 1.5769442e-38
0.07668294 -0.11379658 -0.081788346 1.5492484e-38
0.07899183 -0.11475091 -0.085865423 7.932078e-39
0.080954 -0.11475091 -0.085865423 1.2932738e-39
0.083275765 -0.115683 -0.089847609 1.2611686e-44
-0.091567084 -0.096663594 -0.00084630772 9.4129996e-39
-0.089541942 -0.095941633 0.002215106 9.8743421e-39
-0.087734208 -0.095941633 0.002215106 1.1718981e-38
-0.085926458 -0.095941633 0.002215106 1.1441319e-38
-0.084118709 -0.095941633 0.002215106 1.2639506e-38
-0.08231096 -0.095941633 0.002215106 1.4851841e-38
-0.080688402 -0.096663594 -0.00084630772 1.9553067e-38
-0.076936737 -0.088880435 0.032157857 2.1856847e-38
-0.075006753 -0.088157266 0.035224456 2.1486994e-38
-0.07325688 -0.088157266 0.035224456 2.2774843e-38
-0.071507014 -0.088157266 0.035224456 2.2958514e-38
-0.070070192 -0.089584544 0.029172141 2.3142544e-38
-0.068605736 -0.090981558 0.023248155 2.3142544e-38
-0.066834867 -0.090981558 0.023248155 2.3234374e-38
-0.065063998 -0.090981558 0.023248155 2.3234369e-38
-0.064233527 -0.095941633 0.002215106 2.3418038e-38
-0.062425781 -0.095941633 0.002215106 2.3418038e-38
-0.060744178 -0.096663594 -0.00084630772 2.3509879e-38
-0.059086192 -0.097590908 -0.0047785453 2.3509883e-38
-0.057379112 -0.098297372 -0.0077742748 2.3509527e-38
-0.055662155 -0.099007934 -0.010787409 2.3417333e-38
-0.053831615 -0.099007934 -0.010787409 2.3233303e-38
-0.05200107 -0.099007934 -0.010787409 2.3417691e-38
-0.05017053 -0.099007934 -0.010787409 2.2956362e-38
-0.04842766 -0.099722609 -0.013817947 2.0836224e-38
-0.046781871 -0.10137187 -0.020811599 1.5214074e-38
-0.044933751 -0.10137187 -0.020811599 1.7058338e-38
-0.04298966 -0.10041572 -0.016757052 1.8532389e-38
-0.041148651 -0.10041572 -0.016757052 1.8255803e-38
-0.039307643 -0.10041572 -0.016757052 1.7702629e-38
-0.037541278 -0.10137187 -0.020811599 1.7794827e-38
-0.035693161 -0.10137187 -0.020811599 1.7701913e-38
-0.033889432 -0.10207425 -0.023790043 1.7148739e-38
-0.03207548 -0.10278064 -0.026785415 1.5028601e-38
-0.030216888 -0.10278064 -0.026785415 1.4659821e-38
-0.028358296 -0.10278064 -0.026785415 1.5398109e-38
-0.026523471 -0.10349102 -0.029797833 1.6135677e-38
-0.024684411 -0.10444455 -0.033841174 1.7057996e-38
-0.022813447 -0.10444455 -0.033841174 1.7334583e-38
-0.020942485 -0.10444455 -0.033841174 1.7334585e-38
-0.0020389741 -0.1075124 -0.046850245 2.3505916e-38
-0.00014520041 -0.1075124 -0.046850245 2.3509873e-38
0.0017485714 -0.1075124 -0.046850245 2.2866663e-38
0.0018668754 -0.086747125 0.041204114 2.2224183e-38
0.0036062582 -0.086747125 0.041204114 2.1489505e-38
0.026712246 -0.099007934 -0.010787409 1.0163567e-38
0.028542791 -0.099007934 -0.010787409 1.0899332e-38
0.030650701 -0.10041572 -0.016757052 1.1358869e-38
0.03249171 -0.10041572 -0.016757052 1.1449986e-38
0.034332719 -0.10041572 -0.016757052 1.1632935e-38
0.036383443 -0.10137187 -0.020811599 1.2092116e-38
0.038231559 -0.10137187 -0.020811599 1.2459459e-38
0.040244177 -0.10207425 -0.023790043 1.2275065e-38
0.042439863 -0.10349102 -0.029797833 1.209103e-38
0.044713877 -0.10513772 -0.036780518 1.0339313e-38
0.046589993 -0.10513772 -0.036780518 1.0891767e-38
0.049092881 -0.1075124 -0.046850245 9.0478521e-39
0.051238902 -0.1084419 -0.050791781 9.8768911e-39
0.053339042 -0.10915731 -0.053825419 9.692497e-39
0.055245049 -0.10915731 -0.053825419 9.3229886e-39
0.057354175 -0.10984896 -0.056758326 9.598851e-39
0.059265316 -0.10984896 -0.056758326 1.014986e-38
0.061468564 -0.11079563 -0.060772698 1.2177075e-38
0.063386746 -0.11079563 -0.060772698 1.3189783e-38
0.065540582 -0.11152427 -0.063862488 1.4018815e-38
0.068318769 -0.11410724 -0.074815437 1.5861641e-38
0.070582777 -0.11505674 -0.078841731 1.6505565e-38
0.07277289 -0.11575161 -0.081788346 1.6228614e-38
0.074727923 -0.11575161 -0.081788346 1.6597391e-38
0.07668294 -0.11575161 -0.081788346 1.6597748e-38
0.07899183 -0.11671309 -0.085865423 8.9447852e-39
0.081306607 -0.11765216 -0.089847609 2.1215897e-39
0.083275765 -0.11765216 -0.089847609 9.256277e-41
0.085244924 -0.11765216 -0.089847609 7.0064923e-45
-0.09315744 -0.097749382 0.002215106 1.3195931e-38
-0.091349691 -0.097749382 0.002215106 1.4395199e-38
-0.089541942 -0.097749382 0.002215106 1.3290296e-38
-0.087734208 -0.097749382 0.002215106 1.1630777e-38
-0.085926458 -0.097749382 0.002215106 1.199956e-38
-0.084118709 -0.097749382 0.002215106 1.3012636e-38
-0.08231096 -0.097749382 0.002215106 1.4487047e-38
-0.080688402 -0.098476708 -0.00084630772 1.2088881e-38
-0.076936737 -0.090635687 0.032157857 1.4946584e-38
-0.075181499 -0.090635687 0.032157857 1.7156376e-38
-0.07325688 -0.089907125 0.035224456 2.2315665e-38
-0.071507014 -0.089907125 0.035224456 2.2774843e-38
-0.070070192 -0.091345012 0.029172141 2.2867037e-38
-0.068605736 -0.092752427 0.023248155 2.2958873e-38
-0.066834867 -0.092752427 0.023248155 2.3142544e-38
-0.065063998 -0.092752427 0.023248155 2.3234374e-38
-0.063429013 -0.093474448 0.020209033 2.3234369e-38
-0.06204034 -0.095617667 0.01118787 2.3418038e-38
-0.060618032 -0.097749382 0.002215106 2.3141452e-38
-0.05881029 -0.097749382 0.002215106 2.350988e-38
-0.057266183 -0.099410906 -0.0047785453 2.304891e-38
-0.055553854 -0.10012263 -0.0077742748 1.853097e-38
-0.053831615 -0.10083848 -0.010787409 1.3368378e-38
-0.05200107 -0.10083848 -0.010787409 1.1247881e-38
-0.05017053 -0.10083848 -0.010787409 1.0602514e-38
-0.048339989 -0.10083848 -0.010787409 9.4050445e-39
-0.046671677 -0.10225673 -0.016757052 1.2079783e-38
-0.044830669 -0.10225673 -0.016757052 1.4201716e-38
-0.042920094 -0.10155846 -0.013817947 1.5675767e-38
-0.041084237 -0.10155846 -0.013817947 1.5121874e-38
-0.039248381 -0.10155846 -0.013817947 1.4845643e-38
-0.037466634 -0.10225673 -0.016757052 1.6043107e-38
-0.035625625 -0.10225673 -0.016757052 1.6872149e-38
-0.033889432 -0.1039276 -0.023790043 1.6687398e-38
-0.032036092 -0.1039276 -0.023790043 1.770155e-38
-0.030182753 -0.1039276 -0.023790043 1.7240572e-38
-0.028358296 -0.10463922 -0.026785415 1.7885585e-38
-0.026523471 -0.10535492 -0.029797833 1.8069978e-38
-0.024659598 -0.10535492 -0.029797833 1.8162536e-38
-0.022795724 -0.10535492 -0.029797833 1.7978145e-38
-0.020942485 -0.10631551 -0.033841174 1.8070343e-38
-0.0015614254 -0.089206338 0.038174231 2.3509517e-38
0.00018327148 -0.089206338 0.038174231 2.3142537e-38
0.0018668754 -0.088486508 0.041204114 2.176501e-38
0.0036062582 -0.088486508 0.041204114 2.1305834e-38
0.00541736 -0.089206338 0.038174231 1.5873161e-38
0.007162055 -0.089206338 0.038174231 1.4861549e-38
0.0094780773 -0.094200835 0.017151553 1.3756306e-38
0.011259634 -0.094200835 0.017151553 1.3479369e-38
0.013132416 -0.094907165 0.014178474 1.2465232e-38
0.014919184 -0.094907165 0.014178474 9.9763272e-39
0.016808201 -0.095617667 0.01118787 8.4100777e-39
0.018708341 -0.096332356 0.0081796236 9.1479945e-39
0.02061969 -0.097051233 0.0051537342 8.9643165e-39
0.022538211 -0.097749382 0.002215106 8.8724754e-39
0.024472099 -0.098476708 -0.00084630772 1.0162848e-38
0.026454125 -0.099410906 -0.0047785453 9.8855371e-39
0.028408073 -0.10012263 -0.0077742748 1.0713856e-38
0.030650701 -0.10225673 -0.016757052 1.1265948e-38
0.03249171 -0.10225673 -0.016757052 1.1633288e-38
0.034332719 -0.10225673 -0.016757052 1.2000273e-38
0.036383443 -0.10322 -0.020811599 1.2552008e-38
0.038231559 -0.10322 -0.020811599 1.2826797e-38
0.040244177 -0.1039276 -0.023790043 1.2734238e-38
0.042097516 -0.1039276 -0.023790043 1.3195568e-38
0.044126797 -0.10463922 -0.026785415 1.1351653e-38
0.046589993 -0.10701384 -0.036780518 1.2181413e-38
0.048906468 -0.10869466 -0.04385535 1.0890313e-38
0.050986655 -0.10940616 -0.046850245 1.2181049e-38
0.053139582 -0.11034258 -0.050791781 1.27335e-38
0.055245049 -0.11106332 -0.053825419 1.2455469e-38
0.057151049 -0.11106332 -0.053825419 1.2731688e-38
0.059265316 -0.11176009 -0.056758326 1.4113535e-38
0.061468564 -0.1127138 -0.060772698 1.6601372e-38
0.063386746 -0.1127138 -0.060772698 1.7429326e-38
0.065540582 -0.11344786 -0.063862488 1.7704826e-38
0.068082303 -0.11533 -0.07178466 1.9178871e-38
0.070582777 -0.11700659 -0.078841731 1.9454731e-38
0.07277289 -0.11770664 -0.081788346 1.8715724e-38
0.074727923 -0.11770664 -0.081788346 1.8623884e-38
0.077029645 -0.11867525 -0.085865423 1.7057279e-38
0.07899183 -0.11867525 -0.085865423 9.312846e-39
0.081306607 -0.11962132 -0.089847609 2.4896491e-39
0.083275765 -0.11962132 -0.089847609 1.84757e-40
0.085244924 -0.11962132 -0.089847609 5.6051939e-45
-0.097880587 -0.09740968 0.01118787 1.2642059e-38
-0.096088573 -0.09740968 0.01118787 1.2274363e-38
-0.09429656 -0.09740968 0.01118787 1.1999935e-38
-0.092723429 -0.098129645 0.0081796236 1.2001377e-38
-0.091141015 -0.098853827 0.0051537342 1.1818428e-38
-0.089338422 -0.098853827 0.0051537342 1.1450364e-38
-0.087535828 -0.098853827 0.0051537342 1.2095734e-38
-0.085926458 -0.099557132 0.002215106 1.1173775e-38
-0.083930641 -0.098853827 0.0051537342 1.2280478e-38
-0.082128063 -0.098853827 0.0051537342 1.264854e-38
-0.080688402 -0.10028981 -0.00084630772 1.1726221e-38
-0.077112108 -0.093105495 0.029172141 1.2186476e-38
-0.075351633 -0.093105495 0.029172141 1.1537137e-38
-0.073426247 -0.092390925 0.032157857 1.5495413e-38
-0.071671009 -0.092390925 0.032157857 2.0194481e-38
-0.070225537 -0.093824327 0.026168663 2.2591172e-38
-0.068605736 -0.094523281 0.023248155 2.2775202e-38
-0.066834867 -0.094523281 0.023248155 2.2590454e-38
-0.065063998 -0.094523281 0.023248155 2.3142544e-38
-0.063293129 -0.094523281 0.023248155 2.3234374e-38
-0.061652821 -0.095250636 0.020209033 2.2958859e-38
-0.060002606 -0.095982388 0.017151553 2.2865587e-38
-0.05881029 -0.099557132 0.002215106 2.3418045e-38
-0.05711795 -0.10028981 -0.00084630772 2.341805e-38
-0.055553854 -0.10194789 -0.0077742748 2.0191209e-38
-0.053831615 -0.10266902 -0.010787409 1.4843864e-38
-0.05200107 -0.10266902 -0.010787409 1.1063843e-38
-0.05017053 -0.10266902 -0.010787409 1.0603588e-38
-0.048339989 -0.10266902 -0.010787409 1.1987238e-38
-0.046591807 -0.10339431 -0.013817947 1.2173779e-38
-0.044830669 -0.10409774 -0.016757052 1.3834016e-38
-0.042920094 -0.10339431 -0.013817947 1.4939642e-38
-0.041017819 -0.10266902 -0.010787409 1.6414412e-38
-0.039187275 -0.10266902 -0.010787409 1.4845287e-38
-0.037466634 -0.10409774 -0.016757052 1.5489934e-38
-0.035625625 -0.10409774 -0.016757052 1.6134221e-38
-0.033845041 -0.1050681 -0.020811599 1.8346193e-38
-0.032036092 -0.10578094 -0.023790043 1.9175235e-38
-0.030182753 -0.10578094 -0.023790043 1.8529866e-38
-0.028358296 -0.10649781 -0.026785415 1.7883417e-38
-0.026523471 -0.10721879 -0.029797833 1.7514638e-38
-0.024659598 -0.10721879 -0.029797833 1.7975616e-38
-0.022795724 -0.10721879 -0.029797833 1.9081966e-38
-0.0015614254 -0.090951025 0.038174231 2.341805e-38
0.00018327148 -0.090951025 0.038174231 2.2591531e-38
0.0018668754 -0.09022589 0.041204114 2.1673176e-38
0.0036062582 -0.09022589 0.041204114 1.9928301e-38
0.00541736 -0.090951025 0.038174231 1.5968251e-38
0.007162055 -0.090951025 0.038174231 1.3113086e-38
0.0091513991 -0.093105495 0.029172141 1.3021626e-38
0.011259634 -0.095982388 0.017151553 1.3204221e-38
0.013041191 -0.095982388 0.017151553 1.1452172e-38
0.014919184 -0.096693933 0.014178474 9.8848519e-39
0.016808201 -0.09740968 0.01118787 9.4242268e-39
0.018708341 -0.098129645 0.0081796236 9.055796e-39
0.020505626 -0.098129645 0.0081796236 8.7784819e-39
0.022538211 -0.099557132 0.002215106 9.3320088e-39
0.024472099 -0.10028981 -0.00084630772 1.062238e-38
0.026285209 -0.10028981 -0.00084630772 1.071349e-38
0.028274134 -0.10123092 -0.0047785453 1.1818394e-38
0.03051414 -0.10339431 -0.013817947 1.2462322e-38
0.03249171 -0.10409774 -0.016757052 1.2921862e-38
0.034332719 -0.10409774 -0.016757052 1.3381401e-38
0.036173727 -0.10409774 -0.016757052 1.2918984e-38
0.038231559 -0.1050681 -0.020811599 1.282499e-38
0.040079679 -0.1050681 -0.020811599 1.3746581e-38
0.042097516 -0.10578094 -0.023790043 1.393168e-38
0.043950859 -0.10578094 -0.023790043 1.3470698e-38
0.046412192 -0.10818647 -0.033841174 1.3194467e-38
0.048906468 -0.11058317 -0.04385535 1.356217e-38
0.050986655 -0.11129995 -0.046850245 1.383911e-38
0.053139582 -0.11224325 -0.050791781 1.4207172e-38
0.055245049 -0.11296929 -0.053825419 1.4851097e-38
0.057151049 -0.11296929 -0.053825419 1.5403906e-38
0.059265316 -0.11367123 -0.056758326 1.5955991e-38
0.061468564 -0.114632 -0.060772698 1.69687e-38
0.063386746 -0.114632 -0.060772698 1.7612981e-38
0.065540582 -0.11537148 -0.063862488 1.8626047e-38
0.068082303 -0.11726747 -0.07178466 2.0100092e-38
0.070582777 -0.11895646 -0.078841731 2.0283757e-38
0.07277289 -0.11966167 -0.081788346 1.9360719e-38
0.074727923 -0.11966167 -0.081788346 1.8623154e-38
0.077029645 -0.12063743 -0.085865423 1.7424977e-38
0.079337448 -0.12159048 -0.089847609 1.0141885e-38
0.081306607 -0.12159048 -0.089847609 4.4250371e-39
0.083275765 -0.12159048 -0.089847609 1.8439406e-40
0.085244924 -0.12159048 -0.089847609 8.2904461e-40
-0.099434018 -0.098480701 0.014178474 1.4764348e-38
-0.09764725 -0.098480701 0.014178474 1.3935676e-38
-0.095860481 -0.098480701 0.014178474 1.2922975e-38
-0.09429656 -0.099201679 0.01118787 1.2464156e-38
-0.092504546 -0.099201679 0.01118787 1.2281203e-38
-0.090926155 -0.099926919 0.0081796236 1.209789e-38
-0.089128867 -0.099926919 0.0081796236 1.1729472e-38
-0.087331578 -0.099926919 0.0081796236 1.2099325e-38
-0.085733235 -0.10065642 0.0051537342 1.1177377e-38
-0.083737001 -0.099926919 0.0081796236 1.2283355e-38
-0.081190959 -0.09702684 0.020209033 1.2835803e-38
-0.07941477 -0.09702684 0.020209033 1.2282996e-38
-0.077638574 -0.09702684 0.020209033 1.2835444e-38
-0.075689197 -0.09629415 0.023248155 1.2462696e-38
-0.073757038 -0.09559007 0.026168663 1.3099772e-38
-0.071991287 -0.09559007 0.026168663 1.5216659e-38
-0.070376605 -0.09629415 0.023248155 1.8350581e-38
-0.068605736 -0.09629415 0.023248155 2.1393006e-38
-0.066834867 -0.09629415 0.023248155 2.2867037e-38
-0.065063998 -0.09629415 0.023248155 2.2958873e-38
-0.063293129 -0.09629415 0.023248155 2.3142544e-38
-0.061522271 -0.09629415 0.023248155 2.3234374e-38
-0.059876624 -0.09702684 0.020209033 2.3418045e-38
-0.058100432 -0.09702684 0.020209033 2.3418047e-38
-0.056324236 -0.09702684 0.020209033 2.341805e-38
-0.054438803 -0.09629415 0.023248155 2.3233662e-38
-0.052667938 -0.09629415 0.023248155 2.1297556e-38
-0.05200107 -0.10449956 -0.010787409 1.8809353e-38
-0.05017053 -0.10449956 -0.010787409 1.7334223e-38
-0.048339989 -0.10449956 -0.010787409 1.6690293e-38
-0.046591807 -0.10523017 -0.013817947 1.6139633e-38
-0.04284836 -0.10449956 -0.010787409 1.742929e-38
-0.041017819 -0.10449956 -0.010787409 1.8165773e-38
-0.039187275 -0.10449956 -0.010787409 1.6321138e-38
-0.035693161 -0.10691623 -0.020811599 1.5765439e-38
-0.033845041 -0.10691623 -0.020811599 1.6963259e-38
-0.032036092 -0.10763429 -0.023790043 1.6684874e-38
-0.030182753 -0.10763429 -0.023790043 1.8528787e-38
-0.028387345 -0.10908265 -0.029797833 2.1201741e-38
-0.026523471 -0.10908265 -0.029797833 2.3414076e-38
-0.024659598 -0.10908265 -0.029797833 2.3508797e-38
-0.0033512765 -0.091965273 0.041204114 2.2866678e-38
-0.0016118938 -0.091965273 0.041204114 2.20398e-38
0.00018327148 -0.092695728 0.038174231 1.9923638e-38
0.0018668754 -0.091965273 0.041204114 1.7898588e-38
0.0036062582 -0.091965273 0.041204114 1.5412922e-38
0.00541736 -0.092695728 0.038174231 1.2188972e-38
0.007162055 -0.092695728 0.038174231 9.9773754e-39
0.0090702567 -0.094146177 0.032157857 9.7940799e-39
0.01108326 -0.09629415 0.023248155 9.330955e-39
0.013041191 -0.097763941 0.017151553 9.0543709e-39
0.014919184 -0.098480701 0.014178474 9.5153435e-39
0.016808201 -0.099201679 0.01118787 1.0713878e-38
0.018708341 -0.099926919 0.0081796236 1.1542912e-38
0.020505626 -0.099926919 0.0081796236 1.1543262e-38
0.022538211 -0.10136487 0.002215106 1.1819482e-38
0.024345957 -0.10136487 0.002215106 1.2372647e-38
0.026153702 -0.10136487 0.002215106 1.329208e-38
0.028098322 -0.10210292 -0.00084630772 1.402892e-38
0.03051414 -0.10523017 -0.013817947 1.4211511e-38
0.03249171 -0.10593875 -0.016757052 1.4671047e-38
0.034332719 -0.10593875 -0.016757052 1.5775955e-38
0.036173727 -0.10593875 -0.016757052 1.6327331e-38
0.038231559 -0.10691623 -0.020811599 1.6603202e-38
0.040079679 -0.10691623 -0.020811599 1.7340759e-38
0.042097516 -0.10763429 -0.023790043 1.7709167e-38
0.043950859 -0.10763429 -0.023790043 1.7340379e-38
0.046167612 -0.10908265 -0.029797833 1.7340735e-38
0.048906468 -0.11247168 -0.04385535 1.7709516e-38
0.050986655 -0.11319371 -0.046850245 1.8170131e-38
0.053339042 -0.1148753 -0.053825419 1.835452e-38
0.055245049 -0.1148753 -0.053825419 1.8814772e-38
0.057151049 -0.1148753 -0.053825419 1.9366863e-38
0.059265316 -0.11558239 -0.056758326 1.8905159e-38
0.061468564 -0.11655019 -0.060772698 1.8904074e-38
0.063616984 -0.11729507 -0.063862488 1.9363968e-38
0.065841615 -0.11824657 -0.067809269 2.0285197e-38
0.068318769 -0.11993565 -0.074815437 2.0929121e-38
0.070582777 -0.12090631 -0.078841731 2.0651454e-38
0.072532654 -0.12090631 -0.078841731 1.9544383e-38
0.074482515 -0.12090631 -0.078841731 1.8254368e-38
0.077029645 -0.12259962 -0.085865423 1.7332415e-38
0.07899183 -0.12259962 -0.085865423 1.06025e-38
0.081306607 -0.12355967 -0.089847609 5.0707624e-39
0.08354713 -0.12428416 -0.092852876 4.6098095e-40
0.085521564 -0.12428416 -0.092852876 9.2124024e-40
-0.10122079 -0.10026747 0.014178474 1.5505489e-38
-0.099434018 -0.10026747 0.014178474 1.449207e-38
-0.09764725 -0.10026747 0.014178474 1.3293904e-38
-0.095860481 -0.10026747 0.014178474 1.2281198e-38
-0.094073713 -0.10026747 0.014178474 1.2097529e-38
-0.092286944 -0.10026747 0.014178474 1.1822384e-38
-0.090712532 -0.10099369 0.01118787 1.1638711e-38
-0.088920519 -0.10099369 0.01118787 1.1823819e-38
-0.087331578 -0.10172421 0.0081796236 1.2192596e-38
-0.085534289 -0.10172421 0.0081796236 1.1823819e-38
-0.083544478 -0.10099369 0.01118787 1.2930508e-38
-0.081190959 -0.098803028 0.020209033 1.375918e-38
-0.07941477 -0.098803028 0.020209033 1.3482597e-38
-0.077638574 -0.098803028 0.020209033 1.3666627e-38
-0.075689197 -0.098065019 0.023248155 1.3386096e-38
-0.073757038 -0.097355813 0.026168663 1.3838423e-38
-0.071991287 -0.097355813 0.026168663 1.4387623e-38
-0.070376605 -0.098065019 0.023248155 1.6231525e-38
-0.068605736 -0.098065019 0.023248155 1.9918614e-38
-0.066834867 -0.098065019 0.023248155 2.2498978e-38
-0.065063998 -0.098065019 0.023248155 2.2683366e-38
-0.063293129 -0.098065019 0.023248155 2.2589734e-38
-0.061522271 -0.098065019 0.023248155 2.3050349e-38
-0.059876624 -0.098803028 0.020209033 2.3326213e-38
-0.058100432 -0.098803028 0.020209033 2.2957431e-38
-0.056324236 -0.098803028 0.020209033 2.304927e-38
-0.054438803 -0.098065019 0.023248155 2.341805e-38
-0.052667938 -0.098065019 0.023248155 2.3234379e-38
-0.050897073 -0.098065019 0.023248155 2.1759613e-38
-0.050263517 -0.10706602 -0.013817947 1.973131e-38
-0.04842766 -0.10706602 -0.013817947 1.8073227e-38
-0.046591807 -0.10706602 -0.013817947 1.8259778e-38
-0.044755947 -0.10706602 -0.013817947 1.8444888e-38
-0.042920094 -0.10706602 -0.013817947 1.8535643e-38
-0.028387345 -0.11094652 -0.029797833 2.1662722e-38
-0.026523471 -0.11094652 -0.029797833 2.3045656e-38
-0.0033512765 -0.093704656 0.041204114 2.1489505e-38
-0.0016118938 -0.093704656 0.041204114 2.0846656e-38
0.00012749084 -0.093704656 0.041204114 1.8176611e-38
0.0018668754 -0.093704656 0.041204114 1.550441e-38
0.0036062582 -0.093704656 0.041204114 1.3845628e-38
0.00541736 -0.094440416 0.038174231 1.2186123e-38
0.007162055 -0.094440416 0.038174231 1.0619171e-38
0.0090702567 -0.095901415 0.032157857 1.0342949e-38
0.01108326 -0.098065019 0.023248155 1.0343303e-38
0.013041191 -0.099545494 0.017151553 1.0343298e-38
0.014822748 -0.099545494 0.017151553 1.0343651e-38
0.016808201 -0.10099369 0.01118787 1.0712066e-38
0.018708341 -0.10172421 0.0081796236 1.1357067e-38
0.020505626 -0.10172421 0.0081796236 1.2000989e-38
0.022538211 -0.10317262 0.002215106 1.2369763e-38
0.024345957 -0.10317262 0.002215106 1.2553787e-38
0.026153702 -0.10317262 0.002215106 1.4026394e-38
0.027961448 -0.10317262 0.002215106 1.5039821e-38
0.03051414 -0.10706602 -0.013817947 1.5130572e-38
0.032349996 -0.10706602 -0.013817947 1.5313165e-38
0.034332719 -0.10777976 -0.016757052 1.6603541e-38
0.036173727 -0.10777976 -0.016757052 1.7892841e-38
0.038231559 -0.10876434 -0.020811599 1.8168349e-38
0.040244177 -0.10948761 -0.023790043 1.8444571e-38
0.042097516 -0.10948761 -0.023790043 1.8905536e-38
0.043950859 -0.10948761 -0.023790043 1.86293e-38
0.046167612 -0.11094652 -0.029797833 1.8813692e-38
0.048466109 -0.11264218 -0.036780518 1.9274667e-38
0.050794989 -0.1143602 -0.04385535 1.955161e-38
0.053139582 -0.11604463 -0.050791781 1.9551607e-38
0.055245049 -0.11678131 -0.053825419 1.9735277e-38
0.057151049 -0.11678131 -0.053825419 2.0011142e-38
0.059265316 -0.11749353 -0.056758326 2.0379198e-38
0.061468564 -0.11846836 -0.060772698 1.8811508e-38
0.063616984 -0.11921866 -0.063862488 1.9178846e-38
0.065841615 -0.12017711 -0.067809269 2.0192635e-38
0.068318769 -0.12187846 -0.074815437 2.0098996e-38
0.070582777 -0.12285618 -0.078841731 1.9822046e-38
0.072532654 -0.12285618 -0.078841731 1.9359989e-38
0.074482515 -0.12285618 -0.078841731 1.7793745e-38
0.077029645 -0.1245618 -0.085865423 1.7148024e-38
0.07899183 -0.1245618 -0.085865423 1.1340062e-38
0.081306607 -0.12552883 -0.089847609 6.1771072e-39
0.08354713 -0.1262586 -0.092852876 1.1063476e-39
0.085521564 -0.1262586 -0.092852876 1.0141547e-39
-0.11147729 -0.096185118 0.038174231 1.4392654e-38
-0.10973258 -0.096185118 0.038174231 1.4025678e-38
-0.1079879 -0.096185118 0.038174231 1.439555e-38
-0.10570827 -0.094707444 0.044215638 1.3382845e-38
-0.10397416 -0.094707444 0.044215638 1.199992e-38
-0.10224006 -0.094707444 0.044215638 1.2093913e-38
-0.10097839 -0.10132705 0.017151553 1.1451771e-38
-0.099196836 -0.10132705 0.017151553 1.1728358e-38
-0.097415283 -0.10132705 0.017151553 1.1729081e-38
-0.095633715 -0.10132705 0.017151553 1.2097866e-38
-0.093852162 -0.10132705 0.017151553 1.2374816e-38
-0.092286944 -0.10205424 0.014178474 1.2560289e-38
-0.090712532 -0.10278571 0.01118787 1.2560651e-38
-0.088920519 -0.10278571 0.01118787 1.3021268e-38
-0.087331578 -0.10352151 0.0081796236 1.3206373e-38
-0.085336491 -0.10278571 0.01118787 1.3390762e-38
-0.082967162 -0.10057923 0.020209033 1.4035763e-38
-0.081190959 -0.10057923 0.020209033 1.4311987e-38
-0.079599716 -0.10132705 0.017151553 1.3574433e-38
-0.077638574 -0.10057923 0.020209033 1.2652132e-38
-0.075689197 -0.099835888 0.023248155 1.2371944e-38
-0.073757038 -0.099121556 0.026168663 1.7066334e-38
-0.071991287 -0.099121556 0.026168663 1.8721884e-38
-0.070376605 -0.099835888 0.023248155 1.9459079e-38
-0.068605736 -0.099835888 0.023248155 1.9734943e-38
-0.066834867 -0.099835888 0.023248155 2.0656165e-38
-0.064928308 -0.099121556 0.026168663 2.1853618e-38
-0.063162558 -0.099121556 0.026168663 2.1668502e-38
-0.061522271 -0.099835888 0.023248155 2.0930214e-38
-0.059751403 -0.099835888 0.023248155 2.2035123e-38
-0.058100432 -0.10057923 0.020209033 2.2127318e-38
-0.056324236 -0.10057923 0.020209033 2.2588296e-38
-0.054438803 -0.099835888 0.023248155 2.3417691e-38
-0.052667938 -0.099835888 0.023248155 2.3234379e-38
-0.050802339 -0.099121556 0.026168663 2.3234379e-38
-0.049036596 -0.099121556 0.026168663 2.3050708e-38
-0.047270846 -0.099121556 0.026168663 2.2867037e-38
-0.045505103 -0.099121556 0.026168663 2.240786e-38
-0.0033512765 -0.095444039 0.041204114 1.2646696e-38
-0.0016118938 -0.095444039 0.041204114 1.2279361e-38
0.00012749084 -0.095444039 0.041204114 1.1265222e-38
0.0018668754 -0.095444039 0.041204114 1.0711342e-38
0.0036062582 -0.095444039 0.041204114 1.1724426e-38
0.00541736 -0.096185118 0.038174231 1.2277248e-38
0.007162055 -0.096185118 0.038174231 1.2183625e-38
0.0090702567 -0.097656667 0.032157857 1.2183979e-38
0.010998769 -0.099121556 0.026168663 1.2276521e-38
0.012947377 -0.10057923 0.020209033 1.2092837e-38
0.014822748 -0.10132705 0.017151553 1.1724408e-38
0.016808201 -0.10278571 0.01118787 1.1631488e-38
0.018708341 -0.10352151 0.0081796236 1.2460161e-38
0.020505626 -0.10352151 0.0081796236 1.3842731e-38
0.022538211 -0.10498036 0.002215106 1.5132381e-38
0.024345957 -0.10498036 0.002215106 1.5500796e-38
0.026153702 -0.10498036 0.002215106 1.678937e-38
0.027961448 -0.10498036 0.002215106 1.8448527e-38
0.03051414 -0.10890187 -0.013817947 1.9184648e-38
0.032349996 -0.10890187 -0.013817947 1.9459794e-38
0.034332719 -0.10962076 -0.016757052 2.0749798e-38
0.036173727 -0.10962076 -0.016757052 2.185577e-38
0.038231559 -0.11061247 -0.020811599 2.17625e-38
0.040079679 -0.11061247 -0.020811599 2.1485559e-38
0.042097516 -0.11134095 -0.023790043 2.213056e-38
0.043950859 -0.11134095 -0.023790043 2.1945811e-38
0.045985386 -0.11207359 -0.026785415 2.1945811e-38
0.048283152 -0.11379938 -0.033841174 2.2130918e-38
0.050342225 -0.1145183 -0.036780518 2.2315307e-38
0.053139582 -0.11794533 -0.050791781 2.203872e-38
0.055245049 -0.11868732 -0.053825419 2.1946882e-38
0.057151049 -0.11868732 -0.053825419 2.2039074e-38
0.059550375 -0.12038656 -0.060772698 2.0655777e-38
0.061693385 -0.12114228 -0.063862488 1.8073578e-38
0.063911088 -0.12210761 -0.067809269 1.8257246e-38
0.066144809 -0.12307997 -0.07178466 1.9362153e-38
0.068318769 -0.12382124 -0.074815437 1.8623866e-38
0.070582777 -0.12480606 -0.078841731 1.853131e-38
0.07277289 -0.12552677 -0.081788346 1.8531308e-38
0.074727923 -0.12552677 -0.081788346 1.705618e-38
0.07668294 -0.12552677 -0.081788346 1.6871797e-38
0.07899183 -0.12652399 -0.085865423 1.1985432e-38
0.080954 -0.12652399 -0.085865423 7.0990635e-39
0.082916185 -0.12652399 -0.085865423 1.6595213e-39
-0.11091058 -0.096441552 0.044215638 1.4577767e-38
-0.10917647 -0.096441552 0.044215638 1.3565418e-38
-0.10744236 -0.096441552 0.044215638 1.3750897e-38
-0.10570827 -0.096441552 0.044215638 1.2830388e-38
-0.10397416 -0.096441552 0.044215638 1.1816601e-38
-0.10206747 -0.095941558 0.046245296 1.2094983e-38
-0.099196836 -0.1031086 0.017151553 1.2006e-38
-0.097415283 -0.1031086 0.017151553 1.2190393e-38
-0.095633715 -0.1031086 0.017151553 1.2097122e-38
-0.093852162 -0.1031086 0.017151553 1.1728343e-38
-0.092286944 -0.10384102 0.014178474 1.1543597e-38
-0.090500176 -0.10384102 0.014178474 1.1543602e-38
-0.089128867 -0.1053188 0.0081796236 1.3294965e-38
-0.087331578 -0.1053188 0.0081796236 1.3203135e-38
-0.084543526 -0.10160676 0.023248155 1.3663757e-38
-0.082772672 -0.10160676 0.023248155 1.3755951e-38
-0.081001803 -0.10160676 0.023248155 1.357228e-38
-0.079230934 -0.10160676 0.023248155 1.3387533e-38
-0.077638574 -0.10235542 0.020209033 1.2649979e-38
-0.075689197 -0.10160676 0.023248155 1.2831843e-38
-0.073918335 -0.10160676 0.023248155 1.6514244e-38
-0.072147466 -0.10160676 0.023248155 2.0014756e-38
-0.070376605 -0.10160676 0.023248155 2.1488787e-38
-0.068605736 -0.10160676 0.023248155 2.0196992e-38
-0.066834867 -0.10160676 0.023248155 1.9458338e-38
-0.064928308 -0.1008873 0.026168663 2.0563239e-38
-0.063162558 -0.1008873 0.026168663 2.1115331e-38
-0.061522271 -0.10160676 0.023248155 2.0468883e-38
-0.059751403 -0.10160676 0.023248155 2.0283053e-38
-0.057980537 -0.10160676 0.023248155 2.0467447e-38
-0.056209672 -0.10160676 0.023248155 2.0835872e-38
-0.054438803 -0.10160676 0.023248155 2.1204654e-38
-0.052568085 -0.1008873 0.026168663 2.1113538e-38
-0.050704919 -0.10014741 0.029172141 2.1482319e-38
-0.04894444 -0.10014741 0.029172141 2.22206e-38
-0.047183957 -0.10014741 0.029172141 2.2958873e-38
-0.0051302621 -0.096441552 0.044215638 1.3940683e-38
-0.0033961588 -0.096441552 0.044215638 1.2650314e-38
-0.0016620548 -0.096441552 0.044215638 1.2466296e-38
0.00018327148 -0.09792982 0.038174231 1.1819496e-38
0.0018668754 -0.097183421 0.041204114 1.1633671e-38
0.0036062582 -0.097183421 0.041204114 1.2738223e-38
0.00541736 -0.09792982 0.038174231 1.3289958e-38
0.007162055 -0.09792982 0.038174231 1.3011932e-38
0.0090702567 -0.099411905 0.032157857 1.2827174e-38
0.010911878 -0.10014741 0.029172141 1.2090308e-38
0.012947377 -0.10235542 0.020209033 1.2551994e-38
0.014822748 -0.1031086 0.017151553 1.3196283e-38
0.016808201 -0.10457774 0.01118787 1.3749091e-38
0.018708341 -0.1053188 0.0081796236 1.4946549e-38
0.02061969 -0.10606419 0.0051537342 1.6236922e-38
0.022538211 -0.10678811 0.002215106 1.7157434e-38
0.024345957 -0.10678811 0.002215106 1.7249262e-38
0.026153702 -0.10678811 0.002215106 1.7892468e-38
0.028098322 -0.10754226 -0.00084630772 1.9920406e-38
0.03051414 -0.11073773 -0.013817947 2.1117499e-38
0.032349996 -0.11073773 -0.013817947 2.1209335e-38
0.034332719 -0.11146177 -0.016757052 2.2222395e-38
0.036173727 -0.11146177 -0.016757052 2.2867037e-38
0.038231559 -0.11246057 -0.020811599 2.2958873e-38
0.040079679 -0.11246057 -0.020811599 2.2958155e-38
0.042097516 -0.1131943 -0.023790043 2.3142544e-38
0.043950859 -0.1131943 -0.023790043 2.2773763e-38
