# .PCD v0.7 - Point Cloud Data file format
VERSION 0.7
FIELDS x y z rgb
SIZE 4 4 4 4
TYPE F F F F
COUNT 1 1 1 1
WIDTH 946
HEIGHT 1
VIEWPOINT 0 0 0 1 0 0 0
POINTS 946
DATA ascii
0.040997233 -0.12385099 -0.0067470856 3.6734198e-40
0.044119362 -0.13140334 -0.035753328 3.6734198e-40
0.045995481 -0.13140334 -0.035753328 7.3576017e-40
0.047871597 -0.13140334 -0.035753328 1.6577165e-39
0.049747713 -0.13140334 -0.035753328 3.041011e-39
0.052144669 -0.1340252 -0.045823056 1.8424707e-39
0.054249223 -0.13505147 -0.049764592 1.1049056e-39
0.056317452 -0.13584132 -0.05279823 4.4239511e-39
0.058390584 -0.13660498 -0.055731136 5.6217754e-39
0.060537517 -0.13765021 -0.059745509 3.5934744e-39
0.062455699 -0.13765021 -0.059745509 2.9484651e-39
0.064373888 -0.13765021 -0.059745509 3.8715032e-39
0.06629207 -0.13765021 -0.059745509 2.5811245e-39
0.068413407 -0.13845469 -0.062835291 3.643376e-43
0.071076363 -0.1413065 -0.073788241 1.8457175e-39
0.073502094 -0.14312203 -0.08076115 1.7889192e-38
0.075746633 -0.14418359 -0.084838226 1.7795917e-38
0.077998571 -0.14522041 -0.088820413 1.6597371e-38
0.080482706 -0.14701982 -0.095731333 1.5767611e-38
0.082773656 -0.148077 -0.099791601 1.5675052e-38
0.084762052 -0.148077 -0.099791601 1.5766166e-38
0.087066472 -0.14910837 -0.10375281 1.5765804e-38
-0.094484597 -0.12149437 0.0092068128 8.4841447e-39
-0.092166677 -0.11992194 0.015205663 9.1295141e-39
-0.090379909 -0.11992194 0.015205663 2.0745087e-38
-0.088345528 -0.11914261 0.018178742 2.3325847e-38
-0.086563975 -0.11914261 0.018178742 2.3417327e-38
-0.084782422 -0.11914261 0.018178742 2.3325131e-38
-0.083232835 -0.11992194 0.015205663 2.3232936e-38
-0.081446066 -0.11992194 0.015205663 2.3325131e-38
-0.079437748 -0.11914261 0.018178742 2.3417327e-38
-0.077656195 -0.11914261 0.018178742 2.3509523e-38
-0.075874642 -0.11914261 0.018178742 2.350952e-38
-0.074093089 -0.11914261 0.018178742 2.3325129e-38
-0.072311521 -0.11914261 0.018178742 2.350988e-38
-0.070328936 -0.11834116 0.021236222 2.3509879e-38
-0.068552747 -0.11834116 0.021236222 2.3509879e-38
-0.066587389 -0.11754455 0.024275344 2.3509876e-38
-0.06481652 -0.11754455 0.024275344 2.3509876e-38
-0.063045651 -0.11754455 0.024275344 2.3509876e-38
-0.061274778 -0.11754455 0.024275344 2.3509876e-38
-0.059342619 -0.11677901 0.027195852 2.3232932e-38
-0.057576869 -0.11677901 0.027195852 2.3233296e-38
-0.055655774 -0.11599173 0.03019933 2.3509527e-38
-0.053895291 -0.11599173 0.03019933 2.3417691e-38
-0.052134808 -0.11599173 0.03019933 2.3234379e-38
-0.05023561 -0.11520912 0.033185046 2.3142544e-38
-0.048480358 -0.11520912 0.033185046 2.2958873e-38
-0.04672512 -0.11520912 0.033185046 2.2958873e-38
-0.044969872 -0.11520912 0.033185046 2.2591169e-38
-0.043214627 -0.11520912 0.033185046 2.2682635e-38
-0.041343782 -0.11440529 0.036251646 2.2957777e-38
-0.039593913 -0.11440529 0.036251646 2.3509866e-38
-0.037844047 -0.11440529 0.036251646 2.3509863e-38
-0.036094178 -0.11440529 0.036251646 2.3509863e-38
-0.034344312 -0.11440529 0.036251646 2.3509863e-38
-0.032509107 -0.11363207 0.03920142 2.350879e-38
-0.030682068 -0.11283787 0.042231303 2.3509886e-38
-0.028942682 -0.11283787 0.042231303 2.3234379e-38
-0.027132016 -0.11204849 0.045242827 2.3234379e-38
-0.025397912 -0.11204849 0.045242827 2.3142544e-38
-0.023663808 -0.11204849 0.045242827 2.286632e-38
-0.021929707 -0.11204849 0.045242827 2.2958873e-38
-0.020161796 -0.11151646 0.047272485 2.2958873e-38
-0.01843125 -0.11151646 0.047272485 2.2958873e-38
-0.016700704 -0.11151646 0.047272485 2.2867037e-38
-0.014970157 -0.11151646 0.047272485 2.2867037e-38
-0.013239615 -0.11151646 0.047272485 2.2775202e-38
-0.011509068 -0.11151646 0.047272485 2.2775202e-38
-0.0097602308 -0.11073507 0.050253492 2.2591531e-38
-0.0080349129 -0.11073507 0.050253492 2.2591531e-38
-0.006309595 -0.11073507 0.050253492 2.240786e-38
-0.004584277 -0.11073507 0.050253492 2.2131994e-38
-0.0028589573 -0.11073507 0.050253492 2.222383e-38
-0.0011336394 -0.11073507 0.050253492 2.2316024e-38
0.00059167854 -0.11073507 0.050253492 2.2499695e-38
0.0023169965 -0.11073507 0.050253492 2.2499695e-38
0.0040423144 -0.11073507 0.050253492 2.2591531e-38
0.0057676332 -0.11073507 0.050253492 2.1946889e-38
0.0075269248 -0.11151646 0.047272485 2.2591172e-38
0.0092841601 -0.11204849 0.045242827 2.2314231e-38
0.011018263 -0.11204849 0.045242827 2.2221678e-38
0.012802528 -0.11283787 0.042231303 2.2958514e-38
0.014597693 -0.11363207 0.03920142 2.341805e-38
0.016584462 -0.11677901 0.027195852 2.3509883e-38
0.018414216 -0.11754455 0.024275344 2.350988e-38
0.020185081 -0.11754455 0.024275344 2.3509879e-38
0.022033213 -0.11834116 0.021236222 2.3509517e-38
0.0238925 -0.11914261 0.018178742 2.3509879e-38
0.025674056 -0.11914261 0.018178742 2.31411e-38
0.027638599 -0.12070583 0.012215059 2.341805e-38
0.029430609 -0.12070583 0.012215059 2.3325494e-38
0.031428929 -0.12228753 0.0061809234 2.2956712e-38
0.033231523 -0.12228753 0.0061809234 2.3509883e-38
0.035144892 -0.1230578 0.0032422952 2.2956349e-38
0.037228536 -0.124891 -0.0037513562 1.7700119e-38
0.039171975 -0.12567626 -0.0067470856 4.5917748e-40
0.041126668 -0.12646608 -0.0097602196 1.1045427e-39
0.043672483 -0.13065951 -0.025758225 6.3596936e-39
0.045858908 -0.13250901 -0.032813985 6.267498e-39
0.047871597 -0.13327946 -0.035753328 3.5934688e-39
0.049747713 -0.13327946 -0.035753328 4.3317527e-39
0.051989764 -0.13513394 -0.042828161 4.0551658e-39
0.054038443 -0.13591899 -0.045823056 2.7644298e-39
0.056149907 -0.13695215 -0.049764592 4.4239511e-39
0.058223456 -0.13774733 -0.05279823 5.5285008e-39
0.060537517 -0.13956837 -0.059745509 2.6704391e-39
0.062455699 -0.13956837 -0.059745509 2.3027355e-39
0.064373888 -0.13956837 -0.059745509 3.7782258e-39
0.06629207 -0.13956837 -0.059745509 1.198546e-39
0.068413407 -0.14037828 -0.062835291 2.8025969e-45
0.071076363 -0.14324932 -0.073788241 2.7673108e-39
0.073784456 -0.14614578 -0.084838226 1.7334939e-38
0.075746633 -0.14614578 -0.084838226 1.7795917e-38
0.077998571 -0.1471896 -0.088820413 1.6505176e-38
0.080191672 -0.14797734 -0.091825679 1.5859087e-38
0.08246398 -0.14900111 -0.095731333 1.5673973e-38
-0.094484597 -0.12329166 0.0092068128 9.0362367e-39
-0.092687309 -0.12329166 0.0092068128 9.4050192e-39
-0.090379909 -0.12170871 0.015205663 2.0836561e-38
-0.08859314 -0.12170871 0.015205663 2.350988e-38
-0.086806372 -0.12170871 0.015205663 2.3509521e-38
-0.085019603 -0.12170871 0.015205663 2.3509524e-38
-0.083232835 -0.12170871 0.015205663 2.3509524e-38
-0.081446066 -0.12170871 0.015205663 2.3509883e-38
-0.079437748 -0.12092416 0.018178742 2.3509883e-38
-0.077656195 -0.12092416 0.018178742 2.350988e-38
-0.075874642 -0.12092416 0.018178742 2.350988e-38
-0.074093089 -0.12092416 0.018178742 2.3417324e-38
-0.072311521 -0.12092416 0.018178742 2.3509879e-38
-0.070328936 -0.12011738 0.021236222 2.3509876e-38
-0.068358257 -0.11931543 0.024275344 2.3509873e-38
-0.066587389 -0.11931543 0.024275344 2.3509511e-38
-0.06481652 -0.11931543 0.024275344 2.3509511e-38
-0.063045651 -0.11931543 0.024275344 2.350915e-38
-0.061108362 -0.11854477 0.027195852 2.3508431e-38
-0.059342619 -0.11854477 0.027195852 2.3509873e-38
-0.057416257 -0.11775221 0.03019933 2.350988e-38
-0.055655774 -0.11775221 0.03019933 2.3142544e-38
-0.053895291 -0.11775221 0.03019933 2.286632e-38
-0.051990848 -0.11696436 0.033185046 2.2590454e-38
-0.05023561 -0.11696436 0.033185046 2.2406425e-38
-0.048480358 -0.11696436 0.033185046 2.2591531e-38
-0.04672512 -0.11696436 0.033185046 2.2775202e-38
-0.044969872 -0.11696436 0.033185046 2.2775202e-38
-0.043214627 -0.11696436 0.033185046 2.2958866e-38
-0.041459382 -0.11696436 0.033185046 2.3418033e-38
-0.039593913 -0.11615516 0.036251646 2.350986e-38
-0.037844047 -0.11615516 0.036251646 2.3509852e-38
-0.036094178 -0.11615516 0.036251646 2.3509489e-38
-0.034344312 -0.11615516 0.036251646 2.3509848e-38
-0.032509107 -0.11537679 0.03920142 2.35095e-38
-0.030682068 -0.11457725 0.042231303 2.3507002e-38
-0.028942682 -0.11457725 0.042231303 2.3507732e-38
-0.027132016 -0.1137826 0.045242827 2.3508448e-38
-0.025397912 -0.1137826 0.045242827 2.3508448e-38
-0.023663808 -0.1137826 0.045242827 2.3508445e-38
-0.021929707 -0.1137826 0.045242827 2.3508801e-38
-0.020161796 -0.11324702 0.047272485 2.3509521e-38
-0.01843125 -0.11324702 0.047272485 2.3509879e-38
-0.016700704 -0.11324702 0.047272485 2.323365e-38
-0.014970157 -0.11324702 0.047272485 2.3234369e-38
-0.013210867 -0.11246039 0.050253492 2.3234372e-38
-0.011485549 -0.11246039 0.050253492 2.3234372e-38
-0.0097602308 -0.11246039 0.050253492 2.3142537e-38
-0.0080349129 -0.11246039 0.050253492 2.3142537e-38
-0.006309595 -0.11246039 0.050253492 2.2958867e-38
-0.004584277 -0.11246039 0.050253492 2.2958873e-38
-0.0028615557 -0.1116785 0.053216558 2.2958873e-38
-0.0011414327 -0.1116785 0.053216558 2.2958873e-38
0.00057869032 -0.1116785 0.053216558 2.2313872e-38
0.0022988133 -0.1116785 0.053216558 2.2682649e-38
0.0040423144 -0.11246039 0.050253492 2.2865961e-38
0.0057676332 -0.11246039 0.050253492 2.2681931e-38
0.0074929511 -0.11246039 0.050253492 2.3142544e-38
0.0092574703 -0.11324702 0.047272485 2.3234379e-38
0.011018263 -0.1137826 0.045242827 2.3234379e-38
0.012802528 -0.11457725 0.042231303 2.341805e-38
0.014597693 -0.11537679 0.03920142 2.3509883e-38
0.016463699 -0.11696436 0.033185046 2.350988e-38
0.018414216 -0.11931543 0.024275344 2.3232211e-38
0.020185081 -0.11931543 0.024275344 2.2955624e-38
0.022033213 -0.12011738 0.021236222 2.3047817e-38
0.0238925 -0.12092416 0.018178742 2.3416603e-38
0.025760068 -0.12170871 0.015205663 2.3509883e-38
0.027638599 -0.12249784 0.012215059 2.3326213e-38
0.029528189 -0.12329166 0.0092068128 2.341769e-38
0.031428929 -0.12409012 0.0061809234 2.3509886e-38
0.033337146 -0.12486555 0.0032422952 2.3509527e-38
0.035408527 -0.126711 -0.0037513562 2.3509883e-38
0.037228536 -0.126711 -0.0037513562 1.7332415e-38
0.039296128 -0.1282966 -0.0097602196 1.01271e-39
0.041126668 -0.1282966 -0.0097602196 9.2051436e-40
0.043672483 -0.1325181 -0.025758225 7.6507953e-39
0.045858908 -0.13437997 -0.032813985 7.8351866e-39
0.047871597 -0.13515557 -0.035753328 5.6224943e-39
0.049747713 -0.13515557 -0.035753328 6.3600593e-39
0.051782597 -0.13596557 -0.038822848 4.0551686e-39
0.054038443 -0.13781275 -0.045823056 1.8421175e-39
0.056149907 -0.13885282 -0.049764592 4.1473642e-39
0.058223456 -0.13965334 -0.05279823 5.2519139e-39
0.060537517 -0.14148657 -0.059745509 1.8406756e-39
0.062642604 -0.14230187 -0.062835291 3.6734198e-40
0.064566202 -0.14230187 -0.062835291 4.5953902e-40
0.066489801 -0.14230187 -0.062835291 9.1835496e-41
0.068934284 -0.14439236 -0.070757464 4.240999e-39
0.071547061 -0.1470321 -0.08076115 1.0511021e-38
0.073784456 -0.14810793 -0.084838226 1.9270326e-38
0.076029412 -0.14915876 -0.088820413 1.8071783e-38
0.078217246 -0.14995177 -0.091825679 1.7057987e-38
0.080191672 -0.14995177 -0.091825679 1.6503734e-38
-0.096555114 -0.12589271 0.0061809234 1.0142221e-38
-0.094484597 -0.12508895 0.0092068128 8.9436781e-39
-0.092687309 -0.12508895 0.0092068128 9.1273533e-39
-0.090890035 -0.12508895 0.0092068128 2.0375223e-38
-0.088842198 -0.12428986 0.012215059 2.350988e-38
-0.086806372 -0.12349547 0.015205663 2.3417327e-38
-0.085019603 -0.12349547 0.015205663 2.3417327e-38
-0.083232835 -0.12349547 0.015205663 2.3509167e-38
-0.081446066 -0.12349547 0.015205663 2.3509527e-38
-0.079437748 -0.12270571 0.018178742 2.3509886e-38
-0.077656195 -0.12270571 0.018178742 2.3509883e-38
-0.075874642 -0.12270571 0.018178742 2.3509883e-38
-0.074093089 -0.12270571 0.018178742 2.350988e-38
-0.072311521 -0.12270571 0.018178742 2.3509879e-38
-0.070328936 -0.12189357 0.021236222 2.277123e-38
-0.068358257 -0.12108628 0.024275344 2.0650368e-38
-0.066587389 -0.12108628 0.024275344 1.8528787e-38
-0.06481652 -0.12108628 0.024275344 1.6868904e-38
-0.062874109 -0.1203105 0.027195852 1.5301578e-38
-0.061108362 -0.1203105 0.027195852 1.4195231e-38
-0.059176732 -0.11951269 0.03019933 1.1338607e-38
-0.057416257 -0.11951269 0.03019933 9.4957827e-39
-0.055655774 -0.11951269 0.03019933 7.6522401e-39
-0.053895291 -0.11951269 0.03019933 6.3625887e-39
-0.051990848 -0.11871959 0.033185046 5.5339154e-39
-0.05023561 -0.11871959 0.033185046 4.9814633e-39
-0.048480358 -0.11871959 0.033185046 4.797435e-39
-0.04672512 -0.11871959 0.033185046 4.9821794e-39
-0.044969872 -0.11871959 0.033185046 5.8119288e-39
-0.043214627 -0.11871959 0.033185046 7.6543925e-39
-0.041343782 -0.11790501 0.036251646 9.9578329e-39
-0.039593913 -0.11790501 0.036251646 1.1798857e-38
-0.037844047 -0.11790501 0.036251646 1.3456572e-38
-0.036094178 -0.11790501 0.036251646 1.6313192e-38
-0.034253802 -0.11712147 0.03920142 1.9999936e-38
-0.032509107 -0.11712147 0.03920142 2.276581e-38
-0.030682068 -0.11631663 0.042231303 2.3508431e-38
-0.028942682 -0.11631663 0.042231303 2.3508797e-38
-0.027132016 -0.11551671 0.045242827 2.3508437e-38
-0.025397912 -0.11551671 0.045242827 2.3509153e-38
-0.023663808 -0.11551671 0.045242827 2.3509153e-38
-0.021929707 -0.11551671 0.045242827 2.350951e-38
-0.020161796 -0.11497755 0.047272485 2.350951e-38
-0.01843125 -0.11497755 0.047272485 2.3509869e-38
-0.016700704 -0.11497755 0.047272485 2.3509149e-38
-0.014970157 -0.11497755 0.047272485 2.3509869e-38
-0.013210867 -0.11418571 0.050253492 2.350987e-38
-0.011485549 -0.11418571 0.050253492 2.350987e-38
-0.0097602308 -0.11418571 0.050253492 2.3325843e-38
-0.0080349129 -0.11418571 0.050253492 2.3142171e-38
-0.006309595 -0.11418571 0.050253492 2.3418043e-38
-0.004584277 -0.11418571 0.050253492 2.3234374e-38
-0.0028615557 -0.11339863 0.053216558 2.3234018e-38
-0.0011414327 -0.11339863 0.053216558 2.3234379e-38
0.00057869032 -0.11339863 0.053216558 2.304927e-38
0.0022988133 -0.11339863 0.053216558 2.341805e-38
0.0040189363 -0.11339863 0.053216558 2.341805e-38
0.0057390593 -0.11339863 0.053216558 2.2957431e-38
0.0074591823 -0.11339863 0.053216558 2.3418047e-38
0.00921827 -0.11418571 0.050253492 2.2865232e-38
0.010988015 -0.11497755 0.047272485 2.3509883e-38
0.012802528 -0.11631663 0.042231303 2.3325492e-38
0.014541913 -0.11631663 0.042231303 2.3233652e-38
0.016342388 -0.11712147 0.03920142 2.350988e-38
0.018414216 -0.12108628 0.024275344 2.350988e-38
0.020185081 -0.12108628 0.024275344 2.350988e-38
0.022033213 -0.12189357 0.021236222 2.3509879e-38
0.0238925 -0.12270571 0.018178742 2.350988e-38
0.025760068 -0.12349547 0.015205663 2.3509883e-38
0.027638599 -0.12428986 0.012215059 2.2588648e-38
0.029528189 -0.12508895 0.0092068128 2.3509886e-38
0.031428929 -0.12589271 0.0061809234 2.3509886e-38
0.033337146 -0.1266733 0.0032422952 2.2679406e-38
0.035408527 -0.12853102 -0.0037513562 2.3509527e-38
0.037228536 -0.12853102 -0.0037513562 1.7424611e-38
0.039296128 -0.13012715 -0.0097602196 3.6841958e-40
0.041256849 -0.13093217 -0.012790758 1.2903759e-39
0.043672483 -0.13437669 -0.025758225 9.0337298e-39
0.045671042 -0.13517688 -0.028770644 7.3742113e-39
0.047729872 -0.13625093 -0.032813985 3.3176035e-39
0.049600836 -0.13625093 -0.032813985 4.9771249e-39
0.051623829 -0.13703169 -0.035753328 4.1473642e-39
0.053878285 -0.13891099 -0.042828161 1.1971041e-39
0.055932216 -0.13970654 -0.045823056 1.3814953e-39
0.058223456 -0.14155935 -0.05279823 7.3576017e-40
0.060301729 -0.14233841 -0.055731136 3.6734198e-40
0.062642604 -0.14422549 -0.062835291 1.0123471e-39
0.064566202 -0.14422549 -0.062835291 2.3956416e-39
0.066489801 -0.14422549 -0.062835291 6.0845458e-39
0.068934284 -0.14632986 -0.070757464 1.5949478e-38
0.071547061 -0.14898713 -0.08076115 1.9545827e-38
-0.09475252 -0.12769531 0.0061809234 9.7730773e-39
-0.092687309 -0.12688623 0.0092068128 9.7719997e-39
-0.090890035 -0.12688623 0.0092068128 1.9637658e-38
-0.088842198 -0.12608187 0.012215059 2.3509883e-38
-0.0870502 -0.12608187 0.012215059 2.3509886e-38
-0.085258186 -0.12608187 0.012215059 2.3509886e-38
-0.083466172 -0.12608187 0.012215059 2.341805e-38
-0.081446066 -0.12528224 0.015205663 2.341805e-38
-0.079437748 -0.1244873 0.018178742 2.341805e-38
-0.077656195 -0.1244873 0.018178742 2.341805e-38
-0.075874642 -0.1244873 0.018178742 2.341805e-38
-0.073881328 -0.12366976 0.021236222 2.2219147e-38
-0.072105139 -0.12366976 0.021236222 2.3509883e-38
-0.070328936 -0.12366976 0.021236222 2.3509518e-38
-0.068358257 -0.12285714 0.024275344 1.0785798e-38
-0.066587389 -0.12285714 0.024275344 9.2181098e-39
-0.06481652 -0.12285714 0.024275344 5.3448116e-39
-0.062874109 -0.12207626 0.027195852 4.7912763e-39
-0.061108362 -0.12207626 0.027195852 3.5927331e-39
-0.059176732 -0.12127317 0.03019933 2.4860282e-39
-0.057416257 -0.12127317 0.03019933 1.0112667e-39
-0.055655774 -0.12127317 0.03019933 1.1041924e-39
-0.053746101 -0.12047486 0.033185046 9.1848108e-41
-0.051990848 -0.12047486 0.033185046 4.6064324e-40
-0.05023561 -0.12047486 0.033185046 2.0286934e-39
-0.048480358 -0.12047486 0.033185046 1.8442489e-40
-0.04672512 -0.12047486 0.033185046 9.2234586e-40
-0.044969872 -0.12047486 0.033185046 1.9618179e-44
-0.043093652 -0.11965488 0.036251646 1.1974754e-39
-0.041343782 -0.11965488 0.036251646 5.5101298e-40
-0.039593913 -0.11965488 0.036251646 1.9303461e-39
-0.037743192 -0.11886616 0.03920142 4.1412335e-39
-0.035998497 -0.11886616 0.03920142 4.0468743e-39
-0.034253802 -0.11886616 0.03920142 1.1329247e-38
-0.032509107 -0.11886616 0.03920142 1.4464613e-38
-0.030682068 -0.11805601 0.042231303 1.9815194e-38
-0.028942682 -0.11805601 0.042231303 2.1844933e-38
-0.027132016 -0.11725079 0.045242827 2.3508056e-38
-0.025397912 -0.11725079 0.045242827 2.3506978e-38
-0.023663808 -0.11725079 0.045242827 2.3509139e-38
-0.021929707 -0.11725079 0.045242827 2.35095e-38
-0.0201956 -0.11725079 0.045242827 2.3322229e-38
-0.01843125 -0.11670811 0.047272485 2.3509863e-38
-0.016700704 -0.11670811 0.047272485 2.3509869e-38
-0.014970157 -0.11670811 0.047272485 2.3324041e-38
-0.013239615 -0.11670811 0.047272485 2.3509879e-38
-0.011509068 -0.11670811 0.047272485 2.3509883e-38
-0.0097602308 -0.11591102 0.050253492 2.3509886e-38
-0.0080349129 -0.11591102 0.050253492 2.3048556e-38
-0.006309595 -0.11591102 0.050253492 2.3509527e-38
-0.004584277 -0.11591102 0.050253492 2.341805e-38
-0.0028615557 -0.11511876 0.053216558 2.3509886e-38
-0.0011414327 -0.11511876 0.053216558 2.3418045e-38
0.00057869032 -0.11511876 0.053216558 2.350988e-38
0.0022988133 -0.11511876 0.053216558 2.350988e-38
0.0040189363 -0.11511876 0.053216558 2.350988e-38
0.0057390593 -0.11511876 0.053216558 2.350988e-38
0.0074591823 -0.11511876 0.053216558 2.350988e-38
0.00921827 -0.11591102 0.050253492 2.350988e-38
0.010943588 -0.11591102 0.050253492 2.350988e-38
0.012752367 -0.11725079 0.045242827 2.350988e-38
0.014541913 -0.11805601 0.042231303 2.3509883e-38
0.016342388 -0.11886616 0.03920142 2.3418047e-38
0.018414216 -0.12285714 0.024275344 2.3418047e-38
0.020185081 -0.12285714 0.024275344 2.3418047e-38
0.022033213 -0.12366976 0.021236222 2.341805e-38
0.0238925 -0.1244873 0.018178742 2.341805e-38
0.025760068 -0.12528224 0.015205663 2.3509886e-38
0.027638599 -0.12608187 0.012215059 2.3141103e-38
0.029430609 -0.12608187 0.012215059 2.2956712e-38
0.031428929 -0.12769531 0.0061809234 2.3325494e-38
0.033337146 -0.12848105 0.0032422952 2.3509886e-38
0.035144892 -0.12848105 0.0032422952 2.3509886e-38
0.037228536 -0.13035102 -0.0037513562 1.8439126e-38
0.039296128 -0.13195769 -0.0097602196 1.8439126e-40
0.041256849 -0.13276802 -0.012790758 6.4536941e-40
0.043672483 -0.13623528 -0.025758225 8.0203009e-39
0.045671042 -0.13704078 -0.028770644 7.9281053e-39
0.047729872 -0.13812189 -0.032813985 3.6871063e-39
0.049600836 -0.13812189 -0.032813985 4.3317527e-39
0.051623829 -0.13890781 -0.035753328 4.1473614e-39
0.053878285 -0.14079951 -0.042828161 1.1971013e-39
0.055766806 -0.14079951 -0.042828161 2.7550649e-40
0.058050588 -0.1426542 -0.049764592 1.1045385e-39
0.060301729 -0.14424954 -0.055731136 3.6734198e-40
0.062642604 -0.14614908 -0.062835291 3.6734198e-40
0.064811863 -0.14720438 -0.066782072 4.7930797e-39
0.066742383 -0.14720438 -0.066782072 1.1340048e-38
0.069133557 -0.14907773 -0.073788241 1.8623503e-38
-0.096555114 -0.1294979 0.0061809234 1.0693955e-38
-0.09475252 -0.1294979 0.0061809234 9.4032158e-39
-0.092687309 -0.12868352 0.0092068128 9.4032172e-39
-0.090890035 -0.12868352 0.0092068128 1.982097e-38
-0.088842198 -0.12787388 0.012215059 2.3509883e-38
-0.0870502 -0.12787388 0.012215059 2.341805e-38
-0.085258186 -0.12787388 0.012215059 2.341805e-38
-0.083466172 -0.12787388 0.012215059 2.3234379e-38
-0.081446066 -0.12706901 0.015205663 2.3234379e-38
-0.079437748 -0.12626885 0.018178742 2.3142544e-38
-0.077656195 -0.12626885 0.018178742 2.3142544e-38
-0.075657532 -0.12544595 0.021236222 2.3142544e-38
-0.073881328 -0.12544595 0.021236222 2.3234379e-38
-0.072105139 -0.12544595 0.021236222 2.341805e-38
-0.070129111 -0.12462802 0.024275344 1.7793754e-38
-0.068358257 -0.12462802 0.024275344 1.4747629e-39
-0.066405609 -0.12384202 0.027195852 1.1052573e-39
-0.064639851 -0.12384202 0.027195852 3.6734198e-40
-0.062874109 -0.12384202 0.027195852 8.2723693e-40
-0.061108362 -0.12384202 0.027195852 8.2651947e-40
-0.059176732 -0.12303366 0.03019933 6.4284847e-40
-0.057416257 -0.12303366 0.03019933 5.5101298e-40
-0.055655774 -0.12303366 0.03019933 3.4087272e-39
-0.053746101 -0.1222301 0.033185046 7.3614412e-40
-0.051990848 -0.1222301 0.033185046 3.8715256e-39
-0.05023561 -0.1222301 0.033185046 1.2815229e-38
-0.048480358 -0.1222301 0.033185046 1.189292e-38
-0.04672512 -0.1222301 0.033185046 1.2630841e-38
-0.044843517 -0.12140475 0.036251646 1.1984745e-38
-0.043093652 -0.12140475 0.036251646 1.1154255e-38
-0.041343782 -0.12140475 0.036251646 1.0321969e-38
-0.039487891 -0.12061088 0.03920142 1.1887128e-38
-0.037743192 -0.12061088 0.03920142 1.2253747e-38
-0.035998497 -0.12061088 0.03920142 3.4008014e-39
-0.034253802 -0.12061088 0.03920142 3.7685036e-39
-0.032421451 -0.1197954 0.042231303 3.4926271e-39
-0.030682068 -0.1197954 0.042231303 2.2058456e-39
-0.028942682 -0.1197954 0.042231303 2.9448343e-39
-0.027203299 -0.1197954 0.042231303 4.8809369e-39
-0.025463913 -0.1197954 0.042231303 5.9883635e-39
-0.023663808 -0.11898489 0.045242827 8.6616808e-39
-0.021929707 -0.11898489 0.045242827 1.1520464e-38
-0.0201956 -0.11898489 0.045242827 1.5485958e-38
-0.018461499 -0.11898489 0.045242827 2.2400995e-38
-0.016661506 -0.11763634 0.050253492 2.3509869e-38
-0.014936186 -0.11763634 0.050253492 2.3509517e-38
-0.013210867 -0.11763634 0.050253492 2.3508441e-38
-0.011485549 -0.11763634 0.050253492 2.3509527e-38
-0.0097602308 -0.11763634 0.050253492 2.3509527e-38
-0.0080349129 -0.11763634 0.050253492 2.3509168e-38
-0.0063018017 -0.11683889 0.053216558 2.3509168e-38
-0.0045816787 -0.11683889 0.053216558 2.3048914e-38
-0.0028615557 -0.11683889 0.053216558 2.3509886e-38
-0.0011414327 -0.11683889 0.053216558 2.3509879e-38
0.00057869032 -0.11683889 0.053216558 2.350988e-38
0.0022988133 -0.11683889 0.053216558 2.3509879e-38
0.0040189363 -0.11683889 0.053216558 2.3509879e-38
0.0057390593 -0.11683889 0.053216558 2.3509879e-38
0.0074591823 -0.11683889 0.053216558 2.3509879e-38
0.0091793053 -0.11683889 0.053216558 2.3509879e-38
0.010943588 -0.11763634 0.050253492 2.350988e-38
0.012752367 -0.11898489 0.045242827 2.3418047e-38
0.014541913 -0.1197954 0.042231303 2.3418047e-38
0.016342388 -0.12061088 0.03920142 2.3234379e-38
0.018350208 -0.12384202 0.027195852 2.3234379e-38
0.020115953 -0.12384202 0.027195852 2.3234379e-38
0.021955948 -0.12462802 0.024275344 2.3234379e-38
0.023809409 -0.12544595 0.021236222 2.3234379e-38
0.025674056 -0.12626885 0.018178742 2.2957431e-38
0.027638599 -0.12787388 0.012215059 2.3509886e-38
0.029430609 -0.12787388 0.012215059 2.3509886e-38
0.031428929 -0.1294979 0.0061809234 2.3509886e-38
0.033337146 -0.13028879 0.0032422952 2.341769e-38
0.035144892 -0.13028879 0.0032422952 2.3325494e-38
0.037073407 -0.13111271 0.00018088147 1.8807908e-38
0.039296128 -0.13378824 -0.0097602196 0
0.041256849 -0.13460387 -0.012790758 1.5673257e-39
0.043672483 -0.13809387 -0.025758225 8.5741936e-39
0.045671042 -0.13890465 -0.028770644 8.1124966e-39
0.047729872 -0.13999285 -0.032813985 1.751354e-39
0.049600836 -0.13999285 -0.032813985 2.7550649e-40
0.051623829 -0.14078392 -0.035753328 7.361203e-40
0.053664096 -0.14161004 -0.038822848 2.7550649e-40
0.055766806 -0.14268802 -0.042828161 2.7550649e-40
0.058050588 -0.14455487 -0.049764592 2.7550649e-40
0.060301729 -0.14616071 -0.055731136 6.1763687e-39
0.062642604 -0.14807267 -0.062835291 1.290665e-38
0.064811863 -0.14913492 -0.066782072 1.8531662e-38
0.066742383 -0.14913492 -0.066782072 1.9914597e-38
-0.096281886 -0.13048081 0.0092068128 1.0325172e-38
-0.094484597 -0.13048081 0.0092068128 9.0344332e-39
-0.092687309 -0.13048081 0.0092068128 8.8493231e-39
-0.090890035 -0.13048081 0.0092068128 1.871462e-38
-0.089092746 -0.13048081 0.0092068128 2.3509883e-38
-0.0870502 -0.1296659 0.012215059 2.341805e-38
-0.085258186 -0.1296659 0.012215059 2.341805e-38
-0.083466172 -0.1296659 0.012215059 2.3234379e-38
-0.081446066 -0.12885578 0.015205663 2.3142544e-38
-0.079437748 -0.1280504 0.018178742 2.2958873e-38
-0.077656195 -0.1280504 0.018178742 2.2958873e-38
-0.075657532 -0.12722217 0.021236222 2.2958873e-38
-0.073881328 -0.12722217 0.021236222 2.2589736e-38
-0.072105139 -0.12722217 0.021236222 2.2774481e-38
-0.070129111 -0.12639888 0.024275344 1.5951283e-38
-0.068171352 -0.12560774 0.027195852 3.5873241e-43
-0.066405609 -0.12560774 0.027195852 1.8402972e-40
-0.064639851 -0.12560774 0.027195852 2.7550649e-40
-0.062874109 -0.12560774 0.027195852 7.361189e-40
-0.061108362 -0.12560774 0.027195852 1.7502638e-39
-0.059176732 -0.12479414 0.03019933 1.8438986e-39
-0.057416257 -0.12479414 0.03019933 1.3832862e-39
-0.055655774 -0.12479414 0.03019933 1.9364712e-39
-0.053746101 -0.12398534 0.033185046 9.3651579e-41
-0.051990848 -0.12398534 0.033185046 2.0301312e-39
-0.05023561 -0.12398534 0.033185046 1.069689e-38
-0.048480358 -0.12398534 0.033185046 1.0880927e-38
-0.046593387 -0.12315463 0.036251646 1.0880927e-38
-0.044843517 -0.12315463 0.036251646 1.1249345e-38
-0.043093652 -0.12315463 0.036251646 9.6809307e-39
-0.041343782 -0.12315463 0.036251646 9.7713201e-39
-0.039487891 -0.12235557 0.03920142 1.1798181e-38
-0.037743192 -0.12235557 0.03920142 1.3547734e-38
-0.035998497 -0.12235557 0.03920142 3.2196612e-39
-0.034253802 -0.12235557 0.03920142 1.9285608e-39
-0.032421451 -0.12153481 0.042231303 1.3775324e-39
-0.030682068 -0.12153481 0.042231303 1.7452332e-39
-0.028942682 -0.12153481 0.042231303 1.0101905e-39
-0.027203299 -0.12153481 0.042231303 1.0101905e-39
-0.025397912 -0.120719 0.045242827 9.1835496e-40
-0.023663808 -0.120719 0.045242827 1.5637146e-39
-0.021929707 -0.120719 0.045242827 1.656985e-39
-0.0201956 -0.120719 0.045242827 5.2522516e-39
-0.01843125 -0.12016918 0.047272485 1.3181797e-38
-0.016661506 -0.11936165 0.050253492 2.20333e-38
-0.014936186 -0.11936165 0.050253492 2.3509876e-38
-0.013210867 -0.11936165 0.050253492 2.3417324e-38
-0.011485549 -0.11936165 0.050253492 2.3325494e-38
-0.0097602308 -0.11936165 0.050253492 2.3509527e-38
-0.0080349129 -0.11936165 0.050253492 2.341805e-38
-0.0063018017 -0.11855899 0.053216558 2.3417691e-38
-0.0045816787 -0.11855899 0.053216558 2.2681212e-38
-0.0028615557 -0.11855899 0.053216558 2.341805e-38
-0.0011414327 -0.11855899 0.053216558 2.3418045e-38
0.00057869032 -0.11855899 0.053216558 2.3418047e-38
0.0022988133 -0.11855899 0.053216558 2.3418045e-38
0.0040189363 -0.11855899 0.053216558 2.350988e-38
0.0057390593 -0.11855899 0.053216558 2.350988e-38
0.0074591823 -0.11855899 0.053216558 2.350988e-38
0.0091793053 -0.11855899 0.053216558 2.350988e-38
0.010899428 -0.11855899 0.053216558 2.3418047e-38
0.012668906 -0.11936165 0.050253492 2.3418047e-38
0.014486471 -0.120719 0.045242827 2.341805e-38
0.016342388 -0.12235557 0.03920142 2.3234379e-38
0.018350208 -0.12560774 0.027195852 2.3234379e-38
0.020115953 -0.12560774 0.027195852 2.3142544e-38
0.021955948 -0.12639888 0.024275344 2.3142544e-38
0.023809409 -0.12722217 0.021236222 2.3142544e-38
0.025674056 -0.1280504 0.018178742 2.2957075e-38
0.027546838 -0.12885578 0.015205663 2.3509886e-38
0.029430609 -0.1296659 0.012215059 2.3509886e-38
0.031428929 -0.13130049 0.0061809234 2.3509886e-38
0.033337146 -0.13209651 0.0032422952 2.2864879e-38
0.035144892 -0.13209651 0.0032422952 2.341805e-38
0.036952633 -0.13209651 0.0032422952 1.9914619e-38
0.039171975 -0.13480256 -0.0067470856 9.2558566e-41
0.041256849 -0.13643973 -0.012790758 7.3828391e-40
0.043672483 -0.13995247 -0.025758225 5.9012392e-39
0.045671042 -0.14076851 -0.028770644 6.2693e-39
0.047534917 -0.14076851 -0.028770644 1.8435469e-39
0.049600836 -0.14186381 -0.032813985 2.7550649e-40
0.051471796 -0.14186381 -0.032813985 2.7550649e-40
0.053499948 -0.14266007 -0.035753328 7.3576017e-40
0.055545595 -0.14349155 -0.038822848 1.4740371e-39
0.057825986 -0.14538784 -0.045823056 1.9353697e-39
0.060718998 -0.1499963 -0.062835291 8.4823357e-39
-0.096281886 -0.1322781 0.0092068128 1.0417368e-38
-0.094484597 -0.1322781 0.0092068128 9.9563895e-39
-0.092687309 -0.1322781 0.0092068128 9.4024969e-39
-0.090890035 -0.1322781 0.0092068128 1.8438033e-38
-0.088842198 -0.13145791 0.012215059 2.3509883e-38
-0.0870502 -0.13145791 0.012215059 2.341805e-38
-0.085258186 -0.13145791 0.012215059 2.341805e-38
-0.083466172 -0.13145791 0.012215059 2.3234379e-38
-0.081446066 -0.13064255 0.015205663 2.3142544e-38
-0.079437748 -0.12983195 0.018178742 2.2958873e-38
-0.07743372 -0.12899835 0.021236222 2.2958873e-38
-0.075657532 -0.12899835 0.021236222 2.2867037e-38
-0.073881328 -0.12899835 0.021236222 2.2498619e-38
-0.072105139 -0.12899835 0.021236222 2.2958873e-38
-0.070129111 -0.12816976 0.024275344 1.7149829e-38
-0.068171352 -0.1273735 0.027195852 3.5873241e-43
-0.066405609 -0.1273735 0.027195852 1.0145051e-39
-0.064639851 -0.1273735 0.027195852 1.7506268e-39
-0.062874109 -0.1273735 0.027195852 4.6083283e-39
-0.060937215 -0.12655462 0.03019933 9.7719997e-39
-0.059176732 -0.12655462 0.03019933 8.6685304e-39
-0.057416257 -0.12655462 0.03019933 7.6558232e-39
-0.055655774 -0.12655462 0.03019933 1.7556728e-39
-0.053746101 -0.12574057 0.033185046 8.3372774e-40
-0.051990848 -0.12574057 0.033185046 6.4863163e-40
-0.05023561 -0.12574057 0.033185046 4.4293797e-39
-0.048343252 -0.1249045 0.036251646 6.2729392e-39
-0.046593387 -0.1249045 0.036251646 3.0460922e-39
-0.044843517 -0.1249045 0.036251646 2.6765866e-39
-0.042977281 -0.12410025 0.03920142 2.3996339e-39
-0.041232586 -0.12410025 0.03920142 2.4903862e-39
-0.039487891 -0.12410025 0.03920142 4.6090808e-39
-0.037743192 -0.12410025 0.03920142 7.1891179e-39
-0.035998497 -0.12410025 0.03920142 1.9321664e-39
-0.034253802 -0.12410025 0.03920142 2.3005888e-39
-0.032509107 -0.12410025 0.03920142 2.0232802e-39
-0.030764408 -0.12410025 0.03920142 1.3782625e-39
-0.028942682 -0.12327419 0.042231303 1.9317894e-39
-0.027203299 -0.12327419 0.042231303 1.4708085e-39
-0.025397912 -0.12245311 0.045242827 1.6555571e-39
-0.023663808 -0.12245311 0.045242827 2.1172513e-39
-0.021929707 -0.12245311 0.045242827 5.5101298e-40
-0.0201956 -0.12245311 0.045242827 5.5101298e-40
-0.01843125 -0.12189974 0.047272485 4.7927168e-39
-0.016661506 -0.12108697 0.050253492 1.6502281e-38
-0.014936186 -0.12108697 0.050253492 2.2772307e-38
-0.013210867 -0.12108697 0.050253492 2.3509876e-38
-0.011485549 -0.12108697 0.050253492 2.3509879e-38
-0.0097602308 -0.12108697 0.050253492 2.2957428e-38
-0.0080219246 -0.12027912 0.053216558 2.3234018e-38
-0.0063018017 -0.12027912 0.053216558 2.3234379e-38
-0.0045816787 -0.12027912 0.053216558 2.3142544e-38
-0.0028615557 -0.12027912 0.053216558 2.3234379e-38
-0.0011414327 -0.12027912 0.053216558 2.3234379e-38
0.00056536496 -0.11945029 0.056256574 2.341805e-38
0.002280158 -0.11945029 0.056256574 2.3418047e-38
0.003994951 -0.11945029 0.056256574 2.3509883e-38
0.0057390593 -0.12027912 0.053216558 2.350988e-38
0.0074591823 -0.12027912 0.053216558 2.350988e-38
0.0091793053 -0.12027912 0.053216558 2.350988e-38
0.010899428 -0.12027912 0.053216558 2.3509883e-38
0.012668906 -0.12108697 0.050253492 2.3418047e-38
0.014486471 -0.12245311 0.045242827 2.341805e-38
0.016584462 -0.1273735 0.027195852 2.3234379e-38
0.018350208 -0.1273735 0.027195852 2.3234379e-38
0.020115953 -0.1273735 0.027195852 2.3142544e-38
0.021955948 -0.12816976 0.024275344 2.3142544e-38
0.023809409 -0.12899835 0.021236222 2.3142544e-38
0.025674056 -0.12983195 0.018178742 2.341805e-38
0.027546838 -0.13064255 0.015205663 2.3509886e-38
0.029430609 -0.13145791 0.012215059 2.2956715e-38
0.031325474 -0.1322781 0.0092068128 2.3325497e-38
0.033337146 -0.13390426 0.0032422952 2.3233662e-38
0.035144892 -0.13390426 0.0032422952 2.341805e-38
0.036952633 -0.13390426 0.0032422952 1.9730228e-38
0.039048541 -0.13581105 -0.0037513562 3.5873241e-43
0.041256849 -0.13827558 -0.012790758 9.2914496e-41
0.043405391 -0.14018236 -0.01978441 4.6169421e-40
0.045671042 -0.14263238 -0.028770644 1.8474719e-40
0.047534917 -0.14263238 -0.028770644 3.5873241e-43
0.049600836 -0.14373477 -0.032813985 8.2867186e-40
0.051471796 -0.14373477 -0.032813985 3.9633191e-39
0.053499948 -0.14453618 -0.035753328 9.1259114e-39
0.055545595 -0.14537306 -0.038822848 1.3367629e-38
0.057825986 -0.1472816 -0.045823056 1.8716053e-38
-0.096281886 -0.13407536 0.0092068128 1.0510285e-38
-0.094484597 -0.13407536 0.0092068128 1.0510285e-38
-0.092687309 -0.13407536 0.0092068128 1.0325173e-38
-0.090890035 -0.13407536 0.0092068128 1.9359989e-38
-0.088842198 -0.13324992 0.012215059 2.3509521e-38
-0.0870502 -0.13324992 0.012215059 2.3509883e-38
-0.085258186 -0.13324992 0.012215059 2.3509886e-38
-0.083466172 -0.13324992 0.012215059 2.341805e-38
-0.081446066 -0.13242932 0.015205663 2.3142544e-38
-0.079437748 -0.13161351 0.018178742 2.2958873e-38
-0.07743372 -0.13077454 0.021236222 2.2958873e-38
-0.075657532 -0.13077454 0.021236222 2.2958873e-38
-0.073881328 -0.13077454 0.021236222 2.2958873e-38
-0.072105139 -0.13077454 0.021236222 2.2958873e-38
-0.070129111 -0.12994061 0.024275344 1.7242025e-38
-0.068358257 -0.12994061 0.024275344 3.5873241e-43
-0.066405609 -0.12913923 0.027195852 9.2552961e-41
-0.064639851 -0.12913923 0.027195852 7.3647763e-40
-0.062874109 -0.12913923 0.027195852 5.2536978e-39
-0.060937215 -0.12831511 0.03019933 1.3921881e-38
-0.059176732 -0.12831511 0.03019933 1.1528747e-38
-0.057416257 -0.12831511 0.03019933 1.0700789e-38
-0.055655774 -0.12831511 0.03019933 3.0482025e-39
-0.053746101 -0.12749584 0.033185046 3.7454045e-40
-0.051990848 -0.12749584 0.033185046 1.1117594e-39
-0.05023561 -0.12749584 0.033185046 5.5367979e-39
-0.048343252 -0.12665437 0.036251646 7.5647458e-39
-0.046593387 -0.12665437 0.036251646 2.7705731e-39
-0.044843517 -0.12665437 0.036251646 4.3398213e-42
-0.042977281 -0.12584494 0.03920142 3.9782863e-42
-0.041232586 -0.12584494 0.03920142 2.798407e-40
-0.039487891 -0.12584494 0.03920142 3.782553e-39
-0.037743192 -0.12584494 0.03920142 5.0718499e-39
-0.035900217 -0.12501357 0.042231303 2.8580757e-39
-0.034160834 -0.12501357 0.042231303 1.751368e-39
-0.032421451 -0.12501357 0.042231303 4.5991316e-40
-0.030682068 -0.12501357 0.042231303 5.5102979e-40
-0.028942682 -0.12501357 0.042231303 3.5909716e-39
-0.027132016 -0.12418722 0.045242827 3.4991319e-39
-0.025397912 -0.12418722 0.045242827 2.3934977e-39
-0.023663808 -0.12418722 0.045242827 2.947026e-39
-0.021929707 -0.12418722 0.045242827 1.288578e-39
-0.0201956 -0.12418722 0.045242827 6.4356594e-40
-0.018461499 -0.12418722 0.045242827 2.8569715e-39
-0.016661506 -0.12281232 0.050253492 1.3275432e-38
-0.014936186 -0.12281232 0.050253492 2.258827e-38
-0.013210867 -0.12281232 0.050253492 2.3509869e-38
-0.011485549 -0.12281232 0.050253492 2.3509869e-38
-0.0097602308 -0.12281232 0.050253492 2.2865937e-38
-0.0080219246 -0.12199925 0.053216558 2.3142524e-38
-0.0063018017 -0.12199925 0.053216558 2.3234364e-38
-0.0045816787 -0.12199925 0.053216558 2.3234369e-38
-0.0028615557 -0.12199925 0.053216558 2.3142544e-38
-0.0011494271 -0.12116508 0.056256574 2.3142544e-38
0.00056536496 -0.12116508 0.056256574 2.3234379e-38
0.002280158 -0.12116508 0.056256574 2.341805e-38
0.003994951 -0.12116508 0.056256574 2.3509886e-38
0.0057390593 -0.12199925 0.053216558 2.3509883e-38
0.0074591823 -0.12199925 0.053216558 2.3509883e-38
0.00921827 -0.12281232 0.050253492 2.3509883e-38
0.010943588 -0.12281232 0.050253492 2.3509883e-38
0.012752367 -0.12418722 0.045242827 2.3509883e-38
0.014486471 -0.12418722 0.045242827 2.3509886e-38
0.016523901 -0.12831511 0.03019933 2.341805e-38
0.01828438 -0.12831511 0.03019933 2.341805e-38
0.020115953 -0.12913923 0.027195852 2.3234379e-38
0.021955948 -0.12994061 0.024275344 2.3234379e-38
0.023809409 -0.13077454 0.021236222 2.3234379e-38
0.025585603 -0.13077454 0.021236222 2.3141106e-38
0.027546838 -0.13242932 0.015205663 2.3509527e-38
0.029333606 -0.13242932 0.015205663 2.3141106e-38
0.031325474 -0.13407536 0.0092068128 2.3509886e-38
0.033337146 -0.13571201 0.0032422952 2.341805e-38
0.035144892 -0.13571201 0.0032422952 2.3142544e-38
0.036952633 -0.13571201 0.0032422952 1.8901543e-38
0.039048541 -0.13763104 -0.0037513562 7.3900417e-40
0.041126668 -0.13927986 -0.0097602196 1.0761972e-42
0.043405391 -0.14203046 -0.01978441 3.5873241e-43
0.045671042 -0.14449625 -0.028770644 3.5873241e-43
0.047534917 -0.14449625 -0.028770644 1.2910877e-39
0.049600836 -0.14560573 -0.032813985 3.7792837e-39
0.051623829 -0.1464123 -0.035753328 7.4671075e-39
0.053664096 -0.14725454 -0.038822848 1.2906287e-38
0.055545595 -0.14725454 -0.038822848 1.7239841e-38
0.057825986 -0.14917539 -0.045823056 2.0375935e-38
-0.094484597 -0.13587265 0.0092068128 9.7727199e-39
-0.092687309 -0.13587265 0.0092068128 9.7719997e-39
-0.090890035 -0.13587265 0.0092068128 1.8991207e-38
-0.088842198 -0.13504194 0.012215059 2.3509517e-38
-0.0870502 -0.13504194 0.012215059 2.3509521e-38
-0.085258186 -0.13504194 0.012215059 2.3509883e-38
-0.083466172 -0.13504194 0.012215059 2.3509886e-38
-0.081446066 -0.13421609 0.015205663 2.341805e-38
-0.079437748 -0.13339506 0.018178742 2.3142544e-38
-0.07743372 -0.13255073 0.021236222 2.3142544e-38
-0.075657532 -0.13255073 0.021236222 2.2958873e-38
-0.073881328 -0.13255073 0.021236222 2.2683007e-38
-0.072105139 -0.13255073 0.021236222 2.2589734e-38
-0.070129111 -0.1317115 0.024275344 1.6965435e-38
-0.068358257 -0.1317115 0.024275344 3.5873241e-43
-0.066405609 -0.13090499 0.027195852 7.371979e-40
-0.064639851 -0.13090499 0.027195852 9.2086609e-40
-0.062874109 -0.13090499 0.027195852 4.8838334e-39
-0.061108362 -0.13090499 0.027195852 1.373641e-38
-0.059176732 -0.13007559 0.03019933 1.3832193e-38
-0.057416257 -0.13007559 0.03019933 1.014581e-38
-0.055655774 -0.13007559 0.03019933 5.1672573e-39
-0.053895291 -0.13007559 0.03019933 8.3371093e-40
-0.051990848 -0.12925108 0.033185046 3.5992323e-39
-0.05023561 -0.12925108 0.033185046 7.9320752e-39
-0.048343252 -0.12840421 0.036251646 7.3789042e-39
-0.046593387 -0.12840421 0.036251646 6.2718378e-39
-0.044843517 -0.12840421 0.036251646 2.1230316e-39
-0.042977281 -0.12758966 0.03920142 4.6278723e-40
-0.041232586 -0.12758966 0.03920142 1.7535218e-39
-0.039487891 -0.12758966 0.03920142 8.6678311e-39
-0.037743192 -0.12758966 0.03920142 9.0355347e-39
-0.035900217 -0.12675296 0.042231303 6.7306439e-39
-0.034160834 -0.12675296 0.042231303 3.7796677e-39
-0.032421451 -0.12675296 0.042231303 1.1974726e-39
-0.030682068 -0.12675296 0.042231303 5.0668206e-39
-0.028942682 -0.12675296 0.042231303 1.1428319e-38
-0.027132016 -0.12592132 0.045242827 1.0875142e-38
-0.025397912 -0.12592132 0.045242827 7.1876704e-39
-0.023663808 -0.12592132 0.045242827 4.9764088e-39
-0.021929707 -0.12592132 0.045242827 2.2108902e-39
-0.0201956 -0.12592132 0.045242827 1.2896486e-39
-0.018461499 -0.12592132 0.045242827 3.0417187e-39
-0.016661506 -0.12453763 0.050253492 1.3368707e-38
-0.014936186 -0.12453763 0.050253492 2.3509866e-38
-0.013210867 -0.12453763 0.050253492 2.3509866e-38
-0.011485549 -0.12453763 0.050253492 2.3509869e-38
-0.0097602308 -0.12453763 0.050253492 2.3142523e-38
-0.0080219246 -0.12371938 0.053216558 2.3418035e-38
-0.0063018017 -0.12371938 0.053216558 2.3326198e-38
-0.0045816787 -0.12371938 0.053216558 2.3050698e-38
-0.0028615557 -0.12371938 0.053216558 2.3142544e-38
-0.0011494271 -0.12287988 0.056256574 2.3142544e-38
0.00056536496 -0.12287988 0.056256574 2.3234379e-38
0.002280158 -0.12287988 0.056256574 2.341805e-38
0.003994951 -0.12287988 0.056256574 2.3509886e-38
0.0057390593 -0.12371938 0.053216558 2.3509527e-38
0.0074591823 -0.12371938 0.053216558 2.3509883e-38
0.00921827 -0.12453763 0.050253492 2.3509524e-38
0.010943588 -0.12453763 0.050253492 2.3509524e-38
0.012752367 -0.12592132 0.045242827 2.3509883e-38
0.014486471 -0.12592132 0.045242827 2.3509883e-38
0.016342388 -0.12758966 0.03920142 2.3509886e-38
0.018218944 -0.12925108 0.033185046 2.3509886e-38
0.020044861 -0.13007559 0.03019933 2.341805e-38
0.021955948 -0.1317115 0.024275344 2.341805e-38
0.023809409 -0.13255073 0.021236222 2.341805e-38
0.025585603 -0.13255073 0.021236222 2.3233302e-38
0.027455613 -0.13339506 0.018178742 2.3509527e-38
0.029333606 -0.13421609 0.015205663 2.3509886e-38
0.031325474 -0.13587265 0.0092068128 2.3325856e-38
0.033337146 -0.13751976 0.0032422952 2.341805e-38
0.035144892 -0.13751976 0.0032422952 2.2958154e-38
0.036952633 -0.13751976 0.0032422952 2.129863e-38
0.039048541 -0.13945107 -0.0037513562 1.0419901e-38
0.041126668 -0.14111041 -0.0097602196 1.3554553e-38
0.043224115 -0.14275892 -0.015729863 1.6320417e-38
0.045391899 -0.14470108 -0.022762854 1.9269954e-38
0.047534917 -0.14636014 -0.028770644 2.0468135e-38
0.049600836 -0.14747669 -0.032813985 2.0836553e-38
0.051623829 -0.14828841 -0.035753328 2.1388645e-38
0.053664096 -0.14913605 -0.038822848 2.184926e-38
0.055545595 -0.14913605 -0.038822848 2.1942175e-38
-0.094484597 -0.13766994 0.0092068128 1.0325897e-38
-0.092687309 -0.13766994 0.0092068128 9.7719997e-39
-0.090890035 -0.13766994 0.0092068128 1.8622061e-38
-0.088842198 -0.13683395 0.012215059 2.3509514e-38
-0.0870502 -0.13683395 0.012215059 2.3509517e-38
-0.085258186 -0.13683395 0.012215059 2.350952e-38
-0.083232835 -0.13600285 0.015205663 2.350988e-38
-0.081446066 -0.13600285 0.015205663 2.3509886e-38
-0.079437748 -0.13517661 0.018178742 2.341805e-38
-0.07743372 -0.13432692 0.021236222 2.3234379e-38
-0.075657532 -0.13432692 0.021236222 2.3142544e-38
-0.073881328 -0.13432692 0.021236222 2.3142544e-38
-0.07189998 -0.13348235 0.024275344 2.2866677e-38
-0.070129111 -0.13348235 0.024275344 1.7794475e-38
-0.068358257 -0.13348235 0.024275344 3.5873241e-43
-0.066405609 -0.13267075 0.027195852 6.442834e-40
-0.064639851 -0.13267075 0.027195852 1.1048958e-39
-0.062874109 -0.13267075 0.027195852 4.7916378e-39
-0.061108362 -0.13267075 0.027195852 1.3089599e-38
-0.059176732 -0.13183604 0.03019933 1.4841668e-38
-0.057416257 -0.13183604 0.03019933 1.1154922e-38
-0.055655774 -0.13183604 0.03019933 8.112114e-39
-0.053746101 -0.13100632 0.033185046 3.5941764e-39
-0.051990848 -0.13100632 0.033185046 7.9259403e-39
-0.05023561 -0.13100632 0.033185046 9.3085216e-39
-0.048343252 -0.13015409 0.036251646 7.5568075e-39
-0.046593387 -0.13015409 0.036251646 8.201458e-39
-0.044843517 -0.13015409 0.036251646 5.0671597e-39
-0.042977281 -0.12933435 0.03920142 1.4715273e-39
-0.041232586 -0.12933435 0.03920142 4.4217861e-39
-0.039487891 -0.12933435 0.03920142 1.1336458e-38
-0.037743192 -0.12933435 0.03920142 1.0783285e-38
-0.035998497 -0.12933435 0.03920142 7.8330244e-39
-0.034253802 -0.12933435 0.03920142 5.3437438e-39
-0.032421451 -0.12849234 0.042231303 2.0247039e-39
-0.030682068 -0.12849234 0.042231303 5.3433907e-39
-0.028942682 -0.12849234 0.042231303 1.2627561e-38
-0.027203299 -0.12849234 0.042231303 1.2443526e-38
-0.025397912 -0.12765543 0.045242827 8.4801917e-39
-0.023663808 -0.12765543 0.045242827 5.438089e-39
-0.021929707 -0.12765543 0.045242827 1.1048958e-39
-0.0201956 -0.12765543 0.045242827 5.5244791e-40
-0.018461499 -0.12765543 0.045242827 3.2261058e-39
-0.016661506 -0.12626295 0.050253492 1.3553098e-38
-0.014936186 -0.12626295 0.050253492 2.3509869e-38
-0.013210867 -0.12626295 0.050253492 2.3049612e-38
-0.011485549 -0.12626295 0.050253492 2.3418039e-38
-0.0097602308 -0.12626295 0.050253492 2.350988e-38
-0.0080219246 -0.12543948 0.053216558 2.3418047e-38
-0.0063018017 -0.12543948 0.053216558 2.3234018e-38
-0.0045816787 -0.12543948 0.053216558 2.3050349e-38
-0.0028615557 -0.12543948 0.053216558 2.3142544e-38
-0.0011494271 -0.12459467 0.056256574 2.3142544e-38
0.00056536496 -0.12459467 0.056256574 2.3234379e-38
0.002280158 -0.12459467 0.056256574 2.341805e-38
0.003994951 -0.12459467 0.056256574 2.3509886e-38
0.0057390593 -0.12543948 0.053216558 2.3509527e-38
0.0074591823 -0.12543948 0.053216558 2.3509524e-38
0.00921827 -0.12626295 0.050253492 2.3509165e-38
0.010943588 -0.12626295 0.050253492 2.3509521e-38
0.012752367 -0.12765543 0.045242827 2.3509521e-38
0.014486471 -0.12765543 0.045242827 2.3509521e-38
0.016342388 -0.12933435 0.03920142 2.3509524e-38
0.018218944 -0.13100632 0.033185046 2.3509524e-38
0.020044861 -0.13183604 0.03019933 2.3509527e-38
0.021955948 -0.13348235 0.024275344 2.3509527e-38
0.023726815 -0.13348235 0.024275344 2.3509886e-38
0.025585603 -0.13432692 0.021236222 2.3509527e-38
0.027455613 -0.13517661 0.018178742 2.3509168e-38
0.029333606 -0.13600285 0.015205663 2.3509886e-38
0.031325474 -0.13766994 0.0092068128 2.2772684e-38
0.033337146 -0.13932751 0.0032422952 2.3233662e-38
0.035144892 -0.13932751 0.0032422952 2.3142544e-38
0.036952633 -0.13932751 0.0032422952 2.3142544e-38
0.039048541 -0.14127107 -0.0037513562 2.0100803e-38
0.041383106 -0.14459993 -0.015729863 1.8533117e-38
0.043224115 -0.14459993 -0.015729863 2.1667764e-38
0.045391899 -0.14655443 -0.022762854 2.3418038e-38
0.047534917 -0.14822401 -0.028770644 2.3326196e-38
0.049600836 -0.14934768 -0.032813985 2.295705e-38
0.051471796 -0.14934768 -0.032813985 2.240315e-38
-0.094484597 -0.13946722 0.0092068128 1.2722983e-38
-0.092687309 -0.13946722 0.0092068128 1.1524437e-38
-0.090634212 -0.13862596 0.012215059 1.9544736e-38
-0.088842198 -0.13862596 0.012215059 2.3509517e-38
-0.0870502 -0.13862596 0.012215059 2.3509161e-38
-0.085019603 -0.13778962 0.015205663 2.350952e-38
-0.083232835 -0.13778962 0.015205663 2.3509521e-38
-0.081446066 -0.13778962 0.015205663 2.3509883e-38
-0.079209909 -0.13610314 0.021236222 2.341805e-38
-0.07743372 -0.13610314 0.021236222 2.341805e-38
-0.075657532 -0.13610314 0.021236222 2.3234379e-38
-0.073881328 -0.13610314 0.021236222 2.2865958e-38
-0.07189998 -0.13525321 0.024275344 2.3234379e-38
-0.070129111 -0.13525321 0.024275344 1.9546192e-38
-0.068358257 -0.13525321 0.024275344 1.2910919e-39
-0.066405609 -0.13443647 0.027195852 2.7622395e-40
-0.064639851 -0.13443647 0.027195852 2.7550649e-40
-0.062874109 -0.13443647 0.027195852 1.9346551e-39
-0.061108362 -0.13443647 0.027195852 8.6649333e-39
-0.059342619 -0.13443647 0.027195852 7.7429756e-39
-0.057416257 -0.13359652 0.03019933 9.4024983e-39
-0.055655774 -0.13359652 0.03019933 6.635556e-39
-0.053746101 -0.13276155 0.033185046 1.933223e-39
-0.051990848 -0.13276155 0.033185046 7.6486373e-39
-0.05023561 -0.13276155 0.033185046 8.4776819e-39
-0.048480358 -0.13276155 0.033185046 8.4766029e-39
-0.046593387 -0.13190396 0.036251646 5.8947624e-39
-0.044843517 -0.13190396 0.036251646 4.6040194e-39
-0.042977281 -0.13107903 0.03920142 1.0101905e-39
-0.041232586 -0.13107903 0.03920142 5.8951141e-39
-0.039487891 -0.13107903 0.03920142 1.0965874e-38
-0.037743192 -0.13107903 0.03920142 9.5832994e-39
-0.035998497 -0.13107903 0.03920142 6.1720639e-39
-0.034253802 -0.13107903 0.03920142 5.5266959e-39
-0.032421451 -0.13023172 0.042231303 1.2864172e-39
-0.030682068 -0.13023172 0.042231303 5.8047205e-39
-0.028942682 -0.13023172 0.042231303 1.2259489e-38
-0.027203299 -0.13023172 0.042231303 1.161412e-38
-0.025397912 -0.12938951 0.045242827 8.7560527e-39
-0.023663808 -0.12938951 0.045242827 5.8057897e-39
-0.021929707 -0.12938951 0.045242827 3.6734198e-40
-0.0201956 -0.12938951 0.045242827 3.6734198e-40
-0.01843125 -0.12882192 0.047272485 3.6870867e-39
-0.016700704 -0.12882192 0.047272485 1.2445672e-38
-0.014970157 -0.12882192 0.047272485 2.350987e-38
-0.013210867 -0.12798826 0.050253492 2.2957061e-38
