# .PCD v0.7 - Point Cloud Data file format
VERSION 0.7
FIELDS x y z rgb
SIZE 4 4 4 4
TYPE F F F F
COUNT 1 1 1 1
WIDTH 937
HEIGHT 1
VIEWPOINT 0 0 0 1 0 0 0
POINTS 937
DATA ascii
-0.003809182 -0.091210663 0.0197499 2.1479427e-38
-0.00093404937 -0.10530742 -0.042334773 2.2032963e-38
0.00094169017 -0.1043932 -0.038308479 2.2679054e-38
0.002884496 -0.1043932 -0.038308479 2.3232944e-38
0.0048273001 -0.1043932 -0.038308479 2.3417691e-38
0.0067701042 -0.1043932 -0.038308479 2.3142544e-38
0.0087129101 -0.1043932 -0.038308479 2.2958873e-38
0.010655714 -0.1043932 -0.038308479 2.2958873e-38
0.012510838 -0.10370506 -0.035277702 2.3050349e-38
0.014448328 -0.10370506 -0.035277702 2.323402e-38
0.016385822 -0.10370506 -0.035277702 2.323402e-38
0.018323312 -0.10370506 -0.035277702 2.323402e-38
0.020514457 -0.10530742 -0.042334773 2.3325497e-38
0.022464322 -0.10530742 -0.042334773 2.3325497e-38
0.024530428 -0.10597645 -0.045281388 2.323402e-38
0.02648546 -0.10597645 -0.045281388 2.323402e-38
0.028440489 -0.10597645 -0.045281388 2.2589378e-38
0.030395521 -0.10597645 -0.045281388 2.2958155e-38
0.032350551 -0.10597645 -0.045281388 2.2958873e-38
0.034163509 -0.10530742 -0.042334773 2.2867037e-38
0.034863308 -0.099627286 -0.017318467 2.2591531e-38
0.036769308 -0.099627286 -0.017318467 2.2499695e-38
0.03963571 -0.10370506 -0.035277702 2.2499695e-38
0.040581312 -0.099627286 -0.017318467 2.2499695e-38
0.042487316 -0.099627286 -0.017318467 2.1947247e-38
0.044393316 -0.099627286 -0.017318467 2.2131636e-38
0.046299323 -0.099627286 -0.017318467 2.240786e-38
0.048205324 -0.099627286 -0.017318467 2.240786e-38
0.049917184 -0.09893848 -0.014284829 2.2040518e-38
0.051817864 -0.09893848 -0.014284829 2.1672458e-38
0.053718552 -0.09893848 -0.014284829 2.1396593e-38
0.055619232 -0.09893848 -0.014284829 2.1213281e-38
0.057240024 -0.098043531 -0.010343293 2.0752668e-38
0.059133798 -0.098043531 -0.010343293 1.9001337e-38
0.061027572 -0.098043531 -0.010343293 1.743547e-38
0.062921345 -0.098043531 -0.010343293 1.7343993e-38
0.064029433 -0.095757127 -0.00027356483 1.7805682e-38
0.065671064 -0.095089734 0.0026657786 1.7990788e-38
0.067542024 -0.095089734 0.0026657786 1.8451759e-38
0.069076248 -0.094171658 0.0067091193 1.8913089e-38
0.070940129 -0.094171658 0.0067091193 1.789967e-38
0.072803997 -0.094171658 0.0067091193 1.7623446e-38
0.074667864 -0.094171658 0.0067091193 1.6978086e-38
0.076896839 -0.095089734 0.0026657786 1.5963949e-38
0.078767814 -0.095089734 0.0026657786 1.467323e-38
0.09070956 -0.10530742 -0.042334773 1.1539683e-38
0.090837769 -0.10120471 -0.024265746 1.0525531e-38
0.092755951 -0.10120471 -0.024265746 9.1433155e-39
0.093221702 -0.098043531 -0.010343293 8.3135521e-39
0.095115475 -0.098043531 -0.010343293 8.1291608e-39
0.096686311 -0.097363517 -0.0073483977 7.8536501e-39
0.098574825 -0.097363517 -0.0073483977 7.9451241e-39
0.10046335 -0.097363517 -0.0073483977 7.5774206e-39
0.10235187 -0.097363517 -0.0073483977 6.6558286e-39
0.10458433 -0.098043531 -0.010343293 6.3796046e-39
0.1064781 -0.098043531 -0.010343293 6.2863384e-39
0.10837188 -0.098043531 -0.010343293 6.4700136e-39
0.10990595 -0.097363517 -0.0073483977 6.8377199e-39
0.11130639 -0.096454084 -0.0033430848 7.0217455e-39
0.1131879 -0.096454084 -0.0033430848 7.2046836e-39
0.11468459 -0.095757127 -0.00027356483 7.479453e-39
0.11656071 -0.095757127 -0.00027356483 7.201043e-39
0.11843682 -0.095757127 -0.00027356483 3.7638596e-40
0.12031294 -0.095757127 -0.00027356483 2.9020891e-42
0.12218905 -0.095757127 -0.00027356483 7.286752e-43
-0.12145501 -0.10633601 -0.038308479 7.1948633e-39
-0.11987577 -0.10725726 -0.042334773 6.8257248e-39
-0.1179259 -0.10725726 -0.042334773 7.6554883e-39
-0.11597604 -0.10725726 -0.042334773 6.457308e-39
-0.11427674 -0.10793148 -0.045281388 9.6834516e-39
-0.11232171 -0.10793148 -0.045281388 1.1527034e-38
-0.11012644 -0.10725726 -0.042334773 1.2081665e-38
-0.10761359 -0.10564254 -0.035277702 9.5952693e-39
-0.10536592 -0.10473295 -0.031302311 6.2783959e-39
-0.1034354 -0.10473295 -0.031302311 5.266053e-39
-0.10180112 -0.10564254 -0.035277702 4.62285e-39
-0.099863626 -0.10564254 -0.035277702 4.1629565e-39
-0.097926132 -0.10564254 -0.035277702 4.532462e-39
-0.09287215 -0.095346272 0.0097215381 3.978568e-39
-0.090336613 -0.093051672 0.0197499 4.2551521e-39
-0.088495605 -0.093051672 0.0197499 4.1622376e-39
-0.086654596 -0.093051672 0.0197499 4.4388245e-39
-0.084813587 -0.093051672 0.0197499 5.7295661e-39
-0.087811865 -0.11135681 -0.060251571 6.2823854e-39
-0.085830592 -0.11135681 -0.060251571 6.3753027e-39
-0.084080674 -0.11228584 -0.06431184 6.9284708e-39
-0.08186803 -0.11135681 -0.060251571 8.1270028e-39
-0.079677887 -0.11046316 -0.056345917 8.8649196e-39
-0.077703454 -0.11046316 -0.056345917 1.1538946e-38
-0.075729027 -0.11046316 -0.056345917 1.4212971e-38
-0.073754601 -0.11046316 -0.056345917 1.550262e-38
-0.071640529 -0.10977553 -0.053340651 1.6515678e-38
-0.069311045 -0.10793148 -0.045281388 1.6974487e-38
-0.067356013 -0.10793148 -0.045281388 1.9737456e-38
-0.06540098 -0.10793148 -0.045281388 2.1946889e-38
-0.063606791 -0.10886435 -0.049358465 2.2958873e-38
-0.061490912 -0.10793148 -0.045281388 2.3417691e-38
-0.059535883 -0.10793148 -0.045281388 2.3509527e-38
-0.057720248 -0.10886435 -0.049358465 2.3233299e-38
-0.05575807 -0.10886435 -0.049358465 2.3234015e-38
-0.053795889 -0.10886435 -0.049358465 2.3234374e-38
-0.051833712 -0.10886435 -0.049358465 2.3234372e-38
-0.04987153 -0.10886435 -0.049358465 2.3141816e-38
-0.047909353 -0.10886435 -0.049358465 2.3418043e-38
-0.046041433 -0.10977553 -0.053340651 2.3141456e-38
-0.044072274 -0.10977553 -0.053340651 2.2496087e-38
-0.042103108 -0.10977553 -0.053340651 2.1850361e-38
-0.040189277 -0.11046316 -0.056345917 2.1482298e-38
-0.038214844 -0.11046316 -0.056345917 2.1113518e-38
-0.036240418 -0.11046316 -0.056345917 2.0836931e-38
-0.034317344 -0.11135681 -0.060251571 2.0375597e-38
-0.032382339 -0.11228584 -0.06431184 2.1206437e-38
-0.030393945 -0.11228584 -0.06431184 2.2497178e-38
-0.0277423 -0.093051672 0.0197499 2.3234379e-38
-0.025883256 -0.092379183 0.022689005 2.3142544e-38
-0.024047399 -0.092379183 0.022689005 2.3142544e-38
-0.022229936 -0.093979403 0.015695354 2.3142544e-38
-0.020387055 -0.095346272 0.0097215381 2.2683366e-38
-0.018528463 -0.095346272 0.0097215381 2.1212922e-38
-0.016504018 -0.10977553 -0.053340651 1.8817296e-38
-0.014552312 -0.10886435 -0.049358465 1.8724021e-38
-0.012590133 -0.10886435 -0.049358465 2.0106233e-38
-0.010627953 -0.10886435 -0.049358465 2.1948682e-38
-0.0086657749 -0.10886435 -0.049358465 2.157847e-38
-0.0074912002 -0.093051672 0.0197499 2.2130918e-38
-0.0056501916 -0.093051672 0.0197499 2.2591531e-38
-0.003809182 -0.093051672 0.0197499 2.2775202e-38
-0.0019006374 -0.093979403 0.015695354 2.2775202e-38
0.00094169017 -0.10633601 -0.038308479 2.2591531e-38
0.002884496 -0.10633601 -0.038308479 2.2316024e-38
0.0048273001 -0.10633601 -0.038308479 2.2224189e-38
0.0067701042 -0.10633601 -0.038308479 2.1948682e-38
0.0087129101 -0.10633601 -0.038308479 2.1488787e-38
0.010573348 -0.10564254 -0.035277702 2.1396593e-38
0.012510838 -0.10564254 -0.035277702 2.1856488e-38
0.013284096 -0.096960694 0.0026657786 2.1948682e-38
0.01515506 -0.096960694 0.0026657786 2.1948682e-38
0.016887782 -0.09603554 0.0067091193 2.1948682e-38
0.018751657 -0.09603554 0.0067091193 2.1948323e-38
0.020767951 -0.096960694 0.0026657786 2.1948323e-38
0.022638911 -0.096960694 0.0026657786 2.2040518e-38
0.024343276 -0.09603554 0.0067091193 2.2224189e-38
0.026207151 -0.09603554 0.0067091193 2.1948682e-38
0.02838322 -0.097633243 -0.00027356483 2.2040518e-38
0.030259339 -0.097633243 -0.00027356483 2.1856847e-38
0.034163509 -0.10725726 -0.042334773 2.1856847e-38
0.034514759 -0.099937305 -0.010343293 2.1673176e-38
0.036046457 -0.098335579 -0.0033430848 2.158134e-38
0.037763808 -0.097633243 -0.00027356483 2.1397669e-38
0.039477583 -0.096960694 0.0026657786 2.1489505e-38
0.041348547 -0.096960694 0.0026657786 2.1673176e-38
0.043392159 -0.097633243 -0.00027356483 2.1856847e-38
0.045090474 -0.096960694 0.0026657786 2.1856847e-38
0.046961434 -0.096960694 0.0026657786 2.1673176e-38
0.048832402 -0.096960694 0.0026657786 2.1397669e-38
0.050703362 -0.096960694 0.0026657786 2.0754462e-38
0.053250313 -0.099252045 -0.0073483977 2.0477879e-38
0.055138841 -0.099252045 -0.0073483977 2.0202014e-38
0.057027362 -0.099252045 -0.0073483977 1.9741402e-38
0.058624439 -0.098335579 -0.0033430848 1.7991146e-38
0.060277209 -0.097633243 -0.00027356483 1.6332009e-38
0.062153324 -0.097633243 -0.00027356483 1.531859e-38
0.064029433 -0.097633243 -0.00027356483 1.4489201e-38
0.065671064 -0.096960694 0.0026657786 1.3567613e-38
0.067542024 -0.096960694 0.0026657786 1.3106637e-38
0.069076248 -0.09603554 0.0067091193 1.3015165e-38
0.070940129 -0.09603554 0.0067091193 1.1908819e-38
0.072803997 -0.09603554 0.0067091193 1.2001377e-38
0.074667864 -0.09603554 0.0067091193 1.1909184e-38
0.076896839 -0.096960694 0.0026657786 1.1171619e-38
0.078767814 -0.096960694 0.0026657786 1.0065275e-38
0.081202425 -0.098335579 -0.0033430848 9.3273537e-39
0.08308392 -0.098335579 -0.0033430848 9.235158e-39
0.084965415 -0.098335579 -0.0033430848 9.3273551e-39
0.087243699 -0.099252045 -0.0073483977 8.4986734e-39
0.089434154 -0.099937305 -0.010343293 8.0376952e-39
0.091327928 -0.099937305 -0.010343293 7.5767157e-39
0.093221702 -0.099937305 -0.010343293 7.3923216e-39
0.094797783 -0.099252045 -0.0073483977 7.300126e-39
0.096686311 -0.099252045 -0.0073483977 7.1164508e-39
0.098574825 -0.099252045 -0.0073483977 6.7473054e-39
0.10046335 -0.099252045 -0.0073483977 6.1948504e-39
0.10269056 -0.099937305 -0.010343293 6.563633e-39
0.10458433 -0.099937305 -0.010343293 6.6554727e-39
0.1064781 -0.099937305 -0.010343293 6.6547594e-39
0.10837188 -0.099937305 -0.010343293 6.5622092e-39
0.10990595 -0.099252045 -0.0073483977 6.6533287e-39
0.11179448 -0.099252045 -0.0073483977 6.9284708e-39
0.1131879 -0.098335579 -0.0033430848 7.3879958e-39
0.1150694 -0.098335579 -0.0033430848 7.7560427e-39
0.11695089 -0.098335579 -0.0033430848 7.0166545e-39
0.11805803 -0.096960694 0.0026657786 9.9801878e-41
0.11992899 -0.096960694 0.0026657786 1.8230893e-42
0.12179995 -0.096960694 0.0026657786 7.300765e-43
0.12367093 -0.096960694 0.0026657786 5.6051939e-45
-0.12145501 -0.10827883 -0.038308479 6.5494925e-39
-0.11951221 -0.10827883 -0.038308479 6.8260807e-39
-0.11756939 -0.10827883 -0.038308479 7.8398767e-39
-0.1156266 -0.10827883 -0.038308479 7.3789014e-39
-0.11402617 -0.10920714 -0.042334773 9.2221063e-39
-0.1120763 -0.10920714 -0.042334773 1.0602901e-38
-0.10955108 -0.10758002 -0.035277702 1.2723419e-38
-0.10761359 -0.10758002 -0.035277702 1.1987663e-38
-0.10536592 -0.10666345 -0.031302311 9.4094361e-39
-0.1034354 -0.10666345 -0.031302311 8.95063e-39
-0.10150488 -0.10666345 -0.031302311 9.0449948e-39
-0.099574365 -0.10666345 -0.031302311 8.7691352e-39
-0.097926132 -0.10758002 -0.035277702 8.9542523e-39
-0.09287215 -0.097204864 0.0097215381 1.0798165e-38
-0.090336613 -0.094892681 0.0197499 1.153501e-38
-0.088495605 -0.094892681 0.0197499 1.1719401e-38
-0.086654596 -0.094892681 0.0197499 1.2549162e-38
-0.084813587 -0.094892681 0.0197499 1.4116119e-38
-0.087811865 -0.1133381 -0.060251571 1.467036e-38
-0.085830592 -0.1133381 -0.060251571 1.4762555e-38
-0.083849303 -0.1133381 -0.060251571 1.5039855e-38
-0.081652321 -0.11243759 -0.056345917 1.4579242e-38
-0.079677887 -0.11243759 -0.056345917 1.4303018e-38
-0.077703454 -0.11243759 -0.056345917 1.6239456e-38
-0.075729027 -0.11243759 -0.056345917 1.7714922e-38
-0.073754601 -0.11243759 -0.056345917 1.8176252e-38
-0.071780168 -0.11243759 -0.056345917 1.9189671e-38
-0.069311045 -0.10988651 -0.045281388 2.0570791e-38
-0.067356013 -0.10988651 -0.045281388 2.1305834e-38
-0.06540098 -0.10988651 -0.045281388 2.2224189e-38
-0.06040791 -0.092130885 0.031728409 2.2315665e-38
-0.058587901 -0.092130885 0.031728409 2.2867037e-38
-0.059535883 -0.10988651 -0.045281388 2.2958873e-38
-0.057720248 -0.11082654 -0.049358465 2.2867037e-38
-0.05575807 -0.11082654 -0.049358465 2.2775202e-38
-0.053795889 -0.11082654 -0.049358465 2.2591531e-38
-0.051833712 -0.11082654 -0.049358465 2.2591531e-38
-0.04987153 -0.11082654 -0.049358465 2.2867037e-38
-0.047909353 -0.11082654 -0.049358465 2.2958873e-38
-0.044620056 -0.097899407 0.0067091193 2.2958873e-38
-0.042756181 -0.097899407 0.0067091193 2.2958873e-38
-0.040892307 -0.097899407 0.0067091193 2.2775202e-38
-0.038862996 -0.09582752 0.015695354 2.2499336e-38
-0.037014879 -0.09582752 0.015695354 2.2314589e-38
-0.035106335 -0.094892681 0.0197499 2.2130199e-38
-0.033265326 -0.094892681 0.0197499 2.2498978e-38
-0.031424318 -0.094892681 0.0197499 2.2499695e-38
-0.029622408 -0.09582752 0.015695354 2.2591531e-38
-0.0277423 -0.094892681 0.0197499 2.2591531e-38
-0.025901292 -0.094892681 0.0197499 2.2407142e-38
-0.024078054 -0.09582752 0.015695354 2.2039441e-38
-0.022229936 -0.09582752 0.015695354 2.1855053e-38
-0.020387055 -0.097204864 0.0097215381 2.130404e-38
-0.01853109 -0.09651424 0.01271691 1.9373342e-38
-0.016677748 -0.09651424 0.01271691 1.7808193e-38
-0.014534857 -0.11174469 -0.053340651 1.8544312e-38
-0.012565695 -0.11174469 -0.053340651 1.8082623e-38
-0.010596534 -0.11174469 -0.053340651 1.900313e-38
-0.0092643881 -0.09651424 0.01271691 1.7527661e-38
-0.0074110478 -0.09651424 0.01271691 1.8725113e-38
-0.0055968743 -0.09582752 0.015695354 1.9646338e-38
-0.0037487559 -0.09582752 0.015695354 1.9093172e-38
-0.0019006374 -0.09582752 0.015695354 1.8540007e-38
-5.2520889e-05 -0.09582752 0.015695354 1.7710618e-38
0.0017955975 -0.09582752 0.015695354 1.6789743e-38
0.0036437158 -0.09582752 0.015695354 1.6144735e-38
0.0054918341 -0.09582752 0.015695354 1.5592643e-38
0.0073399525 -0.09582752 0.015695354 1.5224224e-38
0.010573348 -0.10758002 -0.035277702 1.503983e-38
0.011498168 -0.099509358 -0.00027356483 1.4762883e-38
0.013160033 -0.097899407 0.0067091193 1.4855075e-38
0.015023908 -0.097899407 0.0067091193 1.4947271e-38
0.016887782 -0.097899407 0.0067091193 1.4855075e-38
0.018751657 -0.097899407 0.0067091193 1.5038388e-38
0.020615527 -0.097899407 0.0067091193 1.5038388e-38
0.022479402 -0.097899407 0.0067091193 1.5222782e-38
0.024343276 -0.097899407 0.0067091193 1.5314974e-38
0.026207151 -0.097899407 0.0067091193 1.5407173e-38
0.028071025 -0.097899407 0.0067091193 1.5131662e-38
0.030122766 -0.098831654 0.0026657786 1.5223858e-38
0.031993732 -0.098831654 0.0026657786 1.5316772e-38
0.033864696 -0.098831654 0.0026657786 1.5409328e-38
0.035735656 -0.098831654 0.0026657786 1.5226016e-38
0.037606619 -0.098831654 0.0026657786 1.5042343e-38
0.039477583 -0.098831654 0.0026657786 1.4949429e-38
0.041348547 -0.098831654 0.0026657786 1.4763599e-38
0.043219507 -0.098831654 0.0026657786 1.4855075e-38
0.045090474 -0.098831654 0.0026657786 1.4671047e-38
0.046709768 -0.097899407 0.0067091193 1.4394463e-38
0.048573643 -0.097899407 0.0067091193 1.3933849e-38
0.05043751 -0.097899407 0.0067091193 1.3289203e-38
0.052574329 -0.098831654 0.0026657786 1.2828592e-38
0.054445289 -0.098831654 0.0026657786 1.2368339e-38
0.056316249 -0.098831654 0.0026657786 1.0894291e-38
0.058187217 -0.098831654 0.0026657786 1.0249646e-38
0.060058177 -0.098831654 0.0026657786 9.8812295e-39
0.061929144 -0.098831654 0.0026657786 9.9741496e-39
0.063800104 -0.098831654 0.0026657786 1.0066351e-38
0.065671064 -0.098831654 0.0026657786 9.6979312e-39
0.067542024 -0.098831654 0.0026657786 9.6060986e-39
0.069412984 -0.098831654 0.0026657786 9.7904898e-39
0.071283959 -0.098831654 0.0026657786 8.7759778e-39
0.073410027 -0.099509358 -0.00027356483 8.9600117e-39
0.075025879 -0.098831654 0.0026657786 8.9600117e-39
0.076896839 -0.098831654 0.0026657786 8.591232e-39
0.079038374 -0.099509358 -0.00027356483 8.1302538e-39
0.081202425 -0.10021709 -0.0033430848 7.9458626e-39
0.08308392 -0.10021709 -0.0033430848 8.038061e-39
0.084965415 -0.10021709 -0.0033430848 8.2224522e-39
0.086846925 -0.10021709 -0.0033430848 7.7614713e-39
0.089132212 -0.10114056 -0.0073483977 7.57708e-39
0.091020741 -0.10114056 -0.0073483977 7.5770772e-39
0.092909269 -0.10114056 -0.0073483977 7.6696302e-39
0.094797783 -0.10114056 -0.0073483977 7.6696274e-39
0.096686311 -0.10114056 -0.0073483977 7.3930377e-39
0.098574825 -0.10114056 -0.0073483977 6.8398639e-39
0.10046335 -0.10114056 -0.0073483977 6.2870461e-39
0.10235187 -0.10114056 -0.0073483977 6.6551069e-39
0.10458433 -0.10183108 -0.010343293 6.6551097e-39
0.1064781 -0.10183108 -0.010343293 6.8384276e-39
0.10837188 -0.10183108 -0.010343293 6.745876e-39
0.11026565 -0.10183108 -0.010343293 6.7451586e-39
0.11179448 -0.10114056 -0.0073483977 6.8359109e-39
0.11368299 -0.10114056 -0.0073483977 7.0192119e-39
0.1150694 -0.10021709 -0.0033430848 7.3865385e-39
0.11695089 -0.10021709 -0.0033430848 7.2921624e-39
0.11805803 -0.098831654 0.0026657786 7.6062481e-42
0.11992899 -0.098831654 0.0026657786 1.4671595e-42
0.12179995 -0.098831654 0.0026657786 1.4559491e-42
-0.12145501 -0.11022164 -0.038308479 8.3930421e-39
-0.11951221 -0.11022164 -0.038308479 8.8540203e-39
-0.11756939 -0.11022164 -0.038308479 8.3934051e-39
-0.1156266 -0.11022164 -0.038308479 8.1168196e-39
-0.11402617 -0.11115701 -0.042334773 9.3142908e-39
-0.1120763 -0.11115701 -0.042334773 1.0326299e-38
-0.10955108 -0.10951753 -0.035277702 1.290779e-38
-0.10761359 -0.10951753 -0.035277702 1.2263873e-38
-0.10536592 -0.10859399 -0.031302311 9.7778445e-39
-0.1034354 -0.10859399 -0.031302311 9.4112396e-39
-0.10150488 -0.10859399 -0.031302311 9.5059674e-39
-0.099574365 -0.10859399 -0.031302311 9.2304693e-39
-0.094018631 -0.096733689 0.0197499 9.2315581e-39
-0.092177622 -0.096733689 0.0197499 1.135206e-38
-0.090336613 -0.096733689 0.0197499 1.2365493e-38
-0.088495605 -0.096733689 0.0197499 1.3010863e-38
-0.086654596 -0.096733689 0.0197499 1.4025001e-38
-0.084813587 -0.096733689 0.0197499 1.5316437e-38
-0.082972579 -0.096733689 0.0197499 1.5501543e-38
-0.085830592 -0.11531936 -0.060251571 1.5040572e-38
-0.083849303 -0.11531936 -0.060251571 1.5133484e-38
-0.081652321 -0.11441202 -0.056345917 1.5409708e-38
-0.079677887 -0.11441202 -0.056345917 1.4581036e-38
-0.077703454 -0.11441202 -0.056345917 1.5687725e-38
-0.07162822 -0.095346853 0.025719544 1.6886609e-38
-0.069943793 -0.096050888 0.022689005 1.7163909e-38
-0.06810794 -0.096050888 0.022689005 1.8362434e-38
-0.066272087 -0.096050888 0.022689005 2.0754821e-38
-0.064436227 -0.096050888 0.022689005 2.0662985e-38
-0.062475506 -0.095346853 0.025719544 2.158134e-38
-0.06040791 -0.093950883 0.031728409 2.1489505e-38
-0.058587901 -0.093950883 0.031728409 2.1948682e-38
-0.056983873 -0.095346853 0.025719544 2.2224189e-38
-0.055256944 -0.096050888 0.022689005 2.1948682e-38
-0.053421091 -0.096050888 0.022689005 2.1856847e-38
-0.051675417 -0.096733689 0.0197499 2.1673176e-38
-0.049951706 -0.097675636 0.015695354 2.1305834e-38
-0.04810359 -0.097675636 0.015695354 2.1030327e-38
-0.046407346 -0.099063456 0.0097215381 2.0938133e-38
-0.044548754 -0.099063456 0.0097215381 2.0662268e-38
-0.042559233 -0.097675636 0.015695354 2.0570074e-38
-0.040711116 -0.097675636 0.015695354 2.0385685e-38
-0.038862996 -0.097675636 0.015695354 2.0109102e-38
-0.037014879 -0.097675636 0.015695354 2.0016549e-38
-0.035166759 -0.097675636 0.015695354 1.9741043e-38
-0.033265326 -0.096733689 0.0197499 1.9372266e-38
-0.031424318 -0.096733689 0.0197499 1.8819101e-38
-0.029622408 -0.097675636 0.015695354 1.8265572e-38
-0.027774291 -0.097675636 0.015695354 1.7988985e-38
-0.025926173 -0.097675636 0.015695354 1.7988988e-38
-0.024078054 -0.097675636 0.015695354 1.7897512e-38
-0.02223777 -0.098367572 0.01271691 1.771312e-38
-0.020387055 -0.099063456 0.0097215381 1.7161397e-38
-0.01853109 -0.098367572 0.01271691 1.4308029e-38
-0.016677748 -0.098367572 0.01271691 1.4032893e-38
-0.014824409 -0.098367572 0.01271691 1.4769371e-38
-0.012989346 -0.097675636 0.015695354 1.3109135e-38
-0.011141228 -0.097675636 0.015695354 1.3200611e-38
-0.0092643881 -0.098367572 0.01271691 1.264564e-38
-0.0074110478 -0.098367572 0.01271691 1.3843821e-38
-0.0055968743 -0.097675636 0.015695354 1.3843821e-38
-0.0037487559 -0.097675636 0.015695354 1.2737475e-38
-0.0019006374 -0.097675636 0.015695354 1.2553084e-38
-5.2520889e-05 -0.097675636 0.015695354 1.2276141e-38
0.0017955975 -0.097675636 0.015695354 1.2092469e-38
0.0036437158 -0.097675636 0.015695354 1.2000995e-38
0.0054918341 -0.097675636 0.015695354 1.1817324e-38
0.0073399525 -0.097675636 0.015695354 1.172585e-38
0.009432286 -0.099763289 0.0067091193 1.1633654e-38
0.011296161 -0.099763289 0.0067091193 1.26478e-38
0.013160033 -0.099763289 0.0067091193 1.2739996e-38
0.015023908 -0.099763289 0.0067091193 1.2924027e-38
0.016887782 -0.099763289 0.0067091193 1.2924027e-38
0.018751657 -0.099763289 0.0067091193 1.3015144e-38
0.020615527 -0.099763289 0.0067091193 1.3107339e-38
0.022479402 -0.099763289 0.0067091193 1.338321e-38
0.024343276 -0.099763289 0.0067091193 1.3475403e-38
0.026207151 -0.099763289 0.0067091193 1.3936384e-38
0.028071025 -0.099763289 0.0067091193 1.3844904e-38
0.030122766 -0.10070263 0.0026657786 1.4029296e-38
0.031993732 -0.10070263 0.0026657786 1.412257e-38
0.033864696 -0.10070263 0.0026657786 1.4307322e-38
0.035735656 -0.10070263 0.0026657786 1.4031814e-38
0.037390396 -0.099763289 0.0067091193 1.3847423e-38
0.03925427 -0.099763289 0.0067091193 1.3570836e-38
0.041348547 -0.10070263 0.0026657786 1.3292454e-38
0.043219507 -0.10070263 0.0026657786 1.3383929e-38
0.045090474 -0.10070263 0.0026657786 1.3199182e-38
0.046709768 -0.099763289 0.0067091193 1.2922598e-38
0.048573643 -0.099763289 0.0067091193 1.2278307e-38
0.05043751 -0.099763289 0.0067091193 1.1725498e-38
0.052574329 -0.10070263 0.0026657786 1.0988656e-38
0.054445289 -0.10070263 0.0026657786 1.0620238e-38
0.056316249 -0.10070263 0.0026657786 1.0712436e-38
0.058187217 -0.10070263 0.0026657786 1.0159625e-38
0.060058177 -0.10070263 0.0026657786 9.6071776e-39
0.061929144 -0.10070263 0.0026657786 9.2387566e-39
0.063800104 -0.10070263 0.0026657786 8.9621725e-39
0.065671064 -0.10070263 0.0026657786 8.4097218e-39
0.067542024 -0.10070263 0.0026657786 8.2253333e-39
0.069412984 -0.10070263 0.0026657786 8.3175289e-39
0.071533911 -0.10138547 -0.00027356483 8.8696237e-39
0.073410027 -0.10138547 -0.00027356483 8.777068e-39
0.075025879 -0.10070263 0.0026657786 8.5004811e-39
0.076896839 -0.10070263 0.0026657786 8.3160898e-39
0.079038374 -0.10138547 -0.00027356483 8.2228152e-39
0.08091449 -0.10138547 -0.00027356483 8.0384239e-39
0.082790606 -0.10138547 -0.00027356483 7.9462283e-39
0.084965415 -0.10209858 -0.0033430848 7.761837e-39
0.086846925 -0.10209858 -0.0033430848 8.7759862e-39
0.089132212 -0.10302909 -0.0073483977 8.3153639e-39
0.091020741 -0.10302909 -0.0073483977 7.6699917e-39
0.092909269 -0.10302909 -0.0073483977 7.3012078e-39
0.094797783 -0.10302909 -0.0073483977 7.3015637e-39
0.096686311 -0.10302909 -0.0073483977 7.3937566e-39
0.098574825 -0.10302909 -0.0073483977 7.5781478e-39
0.10046335 -0.10302909 -0.0073483977 7.6699777e-39
0.10235187 -0.10302909 -0.0073483977 7.5763416e-39
0.1042404 -0.10302909 -0.0073483977 7.3919503e-39
0.10612891 -0.10302909 -0.0073483977 7.3912328e-39
0.10837188 -0.10372485 -0.010343293 7.6663876e-39
0.11026565 -0.10372485 -0.010343293 7.8504187e-39
0.11215942 -0.10372485 -0.010343293 7.7575014e-39
0.11368299 -0.10302909 -0.0073483977 7.5720199e-39
0.11557152 -0.10302909 -0.0073483977 7.570564e-39
0.11695089 -0.10209858 -0.0033430848 7.9375318e-39
0.11843682 -0.10138547 -0.00027356483 2.8347567e-40
0.11992899 -0.10070263 0.0026657786 1.4699621e-42
0.12179995 -0.10070263 0.0026657786 2.1790191e-42
0.12367093 -0.10070263 0.0026657786 2.776771e-40
-0.11174098 -0.11216442 -0.038308479 9.4968884e-39
-0.10785537 -0.11216442 -0.038308479 8.8540651e-39
-0.10591257 -0.11216442 -0.038308479 5.5379203e-39
-0.099541657 -0.098574698 0.0197499 4.8943712e-39
-0.097700648 -0.098574698 0.0197499 4.8969047e-39
-0.095859639 -0.098574698 0.0197499 4.5295782e-39
-0.094018631 -0.098574698 0.0197499 4.6232199e-39
-0.092177622 -0.098574698 0.0197499 4.8072553e-39
-0.090336613 -0.098574698 0.0197499 5.82141e-39
-0.088495605 -0.098574698 0.0197499 6.558975e-39
-0.086654596 -0.098574698 0.0197499 7.2965373e-39
-0.084813587 -0.098574698 0.0197499 8.1270168e-39
-0.082794793 -0.097886756 0.022689005 7.7593133e-39
-0.080958933 -0.097886756 0.022689005 7.0221084e-39
-0.078950383 -0.097177386 0.025719544 7.0231874e-39
-0.077119842 -0.097177386 0.025719544 6.9309946e-39
-0.075289302 -0.097177386 0.025719544 7.0235433e-39
-0.073458754 -0.097177386 0.025719544 7.577429e-39
-0.07162822 -0.097177386 0.025719544 1.0159614e-38
-0.069797672 -0.097177386 0.025719544 1.0528743e-38
-0.06810794 -0.097886756 0.022689005 1.2280446e-38
-0.066272087 -0.097886756 0.022689005 1.4492407e-38
-0.064436227 -0.097886756 0.022689005 1.4490598e-38
-0.062475506 -0.097177386 0.025719544 1.6055757e-38
-0.060526092 -0.096472099 0.028732678 1.6146868e-38
-0.05870083 -0.096472099 0.028732678 1.6422016e-38
-0.056983873 -0.097177386 0.025719544 1.6514571e-38
-0.055256944 -0.097886756 0.022689005 1.6423458e-38
-0.053421091 -0.097886756 0.022689005 1.5871366e-38
-0.051675417 -0.098574698 0.0197499 1.5318915e-38
-0.049951706 -0.099523753 0.015695354 1.4951576e-38
-0.04810359 -0.099523753 0.015695354 1.4859746e-38
-0.046331193 -0.10022092 0.01271691 1.4399131e-38
-0.04447785 -0.10022092 0.01271691 1.4122544e-38
-0.042559233 -0.099523753 0.015695354 1.3939232e-38
-0.040711116 -0.099523753 0.015695354 1.403035e-38
-0.038862996 -0.099523753 0.015695354 1.357045e-38
-0.037014879 -0.099523753 0.015695354 1.3569371e-38
-0.035166759 -0.099523753 0.015695354 1.3385703e-38
-0.033318643 -0.099523753 0.015695354 1.3754486e-38
-0.031470526 -0.099523753 0.015695354 1.3385703e-38
-0.02965113 -0.10022092 0.01271691 1.3016923e-38
-0.02779779 -0.10022092 0.01271691 1.3109119e-38
-0.025944451 -0.10022092 0.01271691 1.3293513e-38
-0.02409111 -0.10022092 0.01271691 1.3293513e-38
-0.02223777 -0.10022092 0.01271691 1.27407e-38
-0.020384429 -0.10022092 0.01271691 1.1912385e-38
-0.018533701 -0.099523753 0.015695354 1.2374816e-38
-0.016685583 -0.099523753 0.015695354 1.2468458e-38
-0.014837464 -0.099523753 0.015695354 1.2558853e-38
-0.012989346 -0.099523753 0.015695354 1.1175558e-38
-0.011141228 -0.099523753 0.015695354 1.1727653e-38
-0.0092931101 -0.099523753 0.015695354 1.2187913e-38
-0.0074110478 -0.10022092 0.01271691 1.2556333e-38
-0.0055968743 -0.099523753 0.015695354 1.1817689e-38
-0.0037487559 -0.099523753 0.015695354 1.2002082e-38
-0.0018510277 -0.10022092 0.01271691 1.2095357e-38
-5.2520889e-05 -0.099523753 0.015695354 1.2555979e-38
0.0017955975 -0.099523753 0.015695354 1.2833285e-38
0.003708994 -0.10022092 0.01271691 1.2925843e-38
0.0055623334 -0.10022092 0.01271691 1.2833648e-38
0.0074156746 -0.10022092 0.01271691 1.2373749e-38
0.009432286 -0.10162716 0.0067091193 1.2189357e-38
0.011296161 -0.10162716 0.0067091193 1.2558493e-38
0.013160033 -0.10162716 0.0067091193 1.2650687e-38
0.015023908 -0.10162716 0.0067091193 1.2926195e-38
0.016887782 -0.10162716 0.0067091193 1.2926195e-38
0.018751657 -0.10162716 0.0067091193 1.3017673e-38
0.020615527 -0.10162716 0.0067091193 1.3017673e-38
0.022479402 -0.10162716 0.0067091193 1.32939e-38
0.024343276 -0.10162716 0.0067091193 1.3478291e-38
0.026207151 -0.10162716 0.0067091193 1.384707e-38
0.028071025 -0.10162716 0.0067091193 1.3939264e-38
0.0299349 -0.10162716 0.0067091193 1.4123652e-38
0.031798776 -0.10162716 0.0067091193 1.4031817e-38
0.033864696 -0.10257359 0.0026657786 1.3663757e-38
0.035526522 -0.10162716 0.0067091193 1.3203862e-38
0.037390396 -0.10162716 0.0067091193 1.2834724e-38
0.03925427 -0.10162716 0.0067091193 1.2558137e-38
0.041348547 -0.10257359 0.0026657786 1.3294263e-38
0.043219507 -0.10257359 0.0026657786 1.3201351e-38
0.045090474 -0.10257359 0.0026657786 1.2924767e-38
0.046709768 -0.10162716 0.0067091193 1.2555985e-38
0.048573643 -0.10162716 0.0067091193 1.2095368e-38
0.050703362 -0.10257359 0.0026657786 1.1542197e-38
0.052574329 -0.10257359 0.0026657786 1.0897191e-38
0.054445289 -0.10257359 0.0026657786 1.034474e-38
0.056316249 -0.10257359 0.0026657786 1.0529134e-38
0.058187217 -0.10257359 0.0026657786 9.7922877e-39
0.060058177 -0.10257359 0.0026657786 9.1465609e-39
0.061929144 -0.10257359 0.0026657786 8.5022733e-39
0.063800104 -0.10257359 0.0026657786 8.4104406e-39
0.065671064 -0.10257359 0.0026657786 8.6870275e-39
0.067542024 -0.10257359 0.0026657786 9.0558129e-39
0.069657795 -0.1032616 -0.00027356483 9.4238765e-39
0.071283959 -0.10257359 0.0026657786 9.054015e-39
0.073154919 -0.10257359 0.0026657786 8.9614592e-39
0.075025879 -0.10257359 0.0026657786 8.777068e-39
0.076896839 -0.10257359 0.0026657786 8.8692636e-39
0.079038374 -0.1032616 -0.00027356483 9.2369643e-39
0.08091449 -0.1032616 -0.00027356483 9.2369643e-39
0.082790606 -0.1032616 -0.00027356483 9.0525731e-39
0.084666722 -0.1032616 -0.00027356483 8.8685377e-39
0.086542837 -0.1032616 -0.00027356483 8.2231655e-39
0.08872842 -0.10398008 -0.0033430848 7.9465772e-39
0.090609916 -0.10398008 -0.0033430848 7.6696274e-39
0.092909269 -0.1049176 -0.0073483977 7.4855893e-39
0.094372921 -0.10398008 -0.0033430848 7.3933908e-39
0.096254416 -0.10398008 -0.0033430848 7.4855851e-39
0.098135911 -0.10398008 -0.0033430848 7.5774206e-39
0.10046335 -0.1049176 -0.0073483977 7.4852193e-39
0.10235187 -0.1049176 -0.0073483977 8.2213424e-39
0.1042404 -0.1049176 -0.0073483977 8.2206208e-39
0.10612891 -0.1049176 -0.0073483977 8.1273517e-39
0.10837188 -0.10561861 -0.010343293 8.4035785e-39
0.11026565 -0.10561861 -0.010343293 8.8634804e-39
0.11215942 -0.10561861 -0.010343293 8.8631147e-39
0.11368299 -0.1049176 -0.0073483977 8.7694729e-39
0.11557152 -0.1049176 -0.0073483977 8.6761871e-39
0.11695089 -0.10398008 -0.0033430848 8.213753e-39
0.11883239 -0.10398008 -0.0033430848 6.1671145e-42
0.11992899 -0.10257359 0.0026657786 3.9096227e-43
0.12179995 -0.10257359 0.0026657786 3.7835059e-43
0.12367093 -0.10257359 0.0026657786 1.0930128e-42
-0.10506468 -0.10041572 0.0197499 9.5001366e-39
-0.10322367 -0.10041572 0.0197499 6.3669411e-39
-0.10138267 -0.10041572 0.0197499 2.6820152e-39
-0.099541657 -0.10041572 0.0197499 1.762961e-39
-0.097700648 -0.10041572 0.0197499 1.4885531e-39
-0.095859639 -0.10041572 0.0197499 1.1212251e-39
-0.094018631 -0.10041572 0.0197499 1.5822145e-39
-0.092177622 -0.10041572 0.0197499 2.412701e-39
-0.090336613 -0.10041572 0.0197499 3.5190486e-39
-0.088495605 -0.10041572 0.0197499 3.9800268e-39
-0.086654596 -0.10041572 0.0197499 4.2576884e-39
-0.084813587 -0.10041572 0.0197499 4.7190267e-39
-0.082794793 -0.099722609 0.022689005 4.2591248e-39
-0.080958933 -0.099722609 0.022689005 3.8910611e-39
-0.078950383 -0.099007934 0.025719544 4.2605695e-39
-0.077119842 -0.099007934 0.025719544 4.5378865e-39
-0.075289302 -0.099007934 0.025719544 5.4609218e-39
-0.073458754 -0.099007934 0.025719544 5.3697967e-39
-0.07162822 -0.099007934 0.025719544 9.3345549e-39
-0.069797672 -0.099007934 0.025719544 9.6118439e-39
-0.067967132 -0.099007934 0.025719544 1.14561e-38
-0.066272087 -0.099722609 0.022689005 1.3113809e-38
-0.064436227 -0.099722609 0.022689005 1.3573697e-38
-0.062600374 -0.099722609 0.022689005 1.3756281e-38
-0.060764514 -0.099722609 0.022689005 1.4953381e-38
-0.058928657 -0.099722609 0.022689005 1.4583159e-38
-0.057198443 -0.10041572 0.0197499 1.3937792e-38
-0.055357434 -0.10041572 0.0197499 1.4306939e-38
-0.053516425 -0.10041572 0.0197499 1.3847403e-38
-0.051799823 -0.10137187 0.015695354 1.3202758e-38
-0.049951706 -0.10137187 0.015695354 1.3665897e-38
-0.04810359 -0.10137187 0.015695354 1.3759179e-38
-0.046255469 -0.10137187 0.015695354 1.3298921e-38
-0.044407349 -0.10137187 0.015695354 1.311453e-38
-0.042559233 -0.10137187 0.015695354 1.3299281e-38
-0.040711116 -0.10137187 0.015695354 1.3482956e-38
-0.038862996 -0.10137187 0.015695354 1.3022697e-38
-0.037014879 -0.10137187 0.015695354 1.2837587e-38
-0.035166759 -0.10137187 0.015695354 1.2838308e-38
-0.033318643 -0.10137187 0.015695354 1.2930504e-38
-0.031470526 -0.10137187 0.015695354 1.2838308e-38
-0.02965113 -0.10207425 0.01271691 1.2930148e-38
-0.02779779 -0.10207425 0.01271691 1.3022344e-38
-0.025944451 -0.10207425 0.01271691 1.3022344e-38
-0.02409111 -0.10207425 0.01271691 1.274576e-38
-0.02223777 -0.10207425 0.01271691 1.2284781e-38
-0.020384429 -0.10207425 0.01271691 1.1915999e-38
-0.018533701 -0.10137187 0.015695354 1.2284064e-38
-0.016685583 -0.10137187 0.015695354 1.2560651e-38
-0.014837464 -0.10137187 0.015695354 1.2282266e-38
-0.012989346 -0.10137187 0.015695354 1.2374102e-38
-0.011141228 -0.10137187 0.015695354 1.2465218e-38
-0.0092931101 -0.10137187 0.015695354 1.3478651e-38
-0.0074110478 -0.10207425 0.01271691 1.2833282e-38
-0.0055968743 -0.10137187 0.015695354 1.2371944e-38
-0.0037487559 -0.10137187 0.015695354 1.2740726e-38
-0.0018510277 -0.10207425 0.01271691 1.3109509e-38
2.3135217e-06 -0.10207425 0.01271691 1.3478291e-38
0.0018556529 -0.10207425 0.01271691 1.3478651e-38
0.003708994 -0.10207425 0.01271691 1.311059e-38
0.0055623334 -0.10207425 0.01271691 1.2834004e-38
0.0074156746 -0.10207425 0.01271691 1.2465941e-38
0.009432286 -0.10349102 0.0067091193 1.2465941e-38
0.011296161 -0.10349102 0.0067091193 1.2835797e-38
0.013160033 -0.10349102 0.0067091193 1.292799e-38
0.015023908 -0.10349102 0.0067091193 1.3111662e-38
0.016887782 -0.10349102 0.0067091193 1.3295333e-38
0.018751657 -0.10349102 0.0067091193 1.3386813e-38
0.020615527 -0.10349102 0.0067091193 1.3479009e-38
0.022479402 -0.10349102 0.0067091193 1.3754875e-38
0.024343276 -0.10349102 0.0067091193 1.3939264e-38
0.026207151 -0.10349102 0.0067091193 1.329282e-38
0.028071025 -0.10349102 0.0067091193 1.3386094e-38
0.0299349 -0.10349102 0.0067091193 1.3662681e-38
0.031798776 -0.10349102 0.0067091193 1.3663399e-38
0.033662647 -0.10349102 0.0067091193 1.3570846e-38
0.035526522 -0.10349102 0.0067091193 1.3387173e-38
0.037390396 -0.10349102 0.0067091193 1.3479369e-38
0.03925427 -0.10349102 0.0067091193 1.3663757e-38
0.041118145 -0.10349102 0.0067091193 1.3293904e-38
0.042982019 -0.10349102 0.0067091193 1.3017321e-38
0.045090474 -0.10444455 0.0026657786 1.2648542e-38
0.046961434 -0.10444455 0.0026657786 1.2279759e-38
0.048832402 -0.10444455 0.0026657786 1.1818781e-38
0.050703362 -0.10444455 0.0026657786 1.1265607e-38
0.052772738 -0.10513772 -0.00027356483 1.0528405e-38
0.054445289 -0.10444455 0.0026657786 9.9752342e-39
0.056316249 -0.10444455 0.0026657786 1.1081582e-38
0.058187217 -0.10444455 0.0026657786 1.02529e-38
0.060058177 -0.10444455 0.0026657786 9.5149791e-39
0.061929144 -0.10444455 0.0026657786 9.054001e-39
0.063800104 -0.10444455 0.0026657786 8.962527e-39
0.065671064 -0.10444455 0.0026657786 9.1469183e-39
0.067542024 -0.10444455 0.0026657786 9.1465609e-39
0.069657795 -0.10513772 -0.00027356483 9.1462008e-39
0.071283959 -0.10444455 0.0026657786 9.1451218e-39
0.073154919 -0.10444455 0.0026657786 9.1451218e-39
0.075025879 -0.10444455 0.0026657786 9.1444029e-39
0.076896839 -0.10444455 0.0026657786 8.960369e-39
0.079038374 -0.10513772 -0.00027356483 8.6837793e-39
0.08091449 -0.10513772 -0.00027356483 8.4071924e-39
0.082790606 -0.10513772 -0.00027356483 8.2224382e-39
0.084666722 -0.10513772 -0.00027356483 8.1302398e-39
0.086542837 -0.10513772 -0.00027356483 8.3139066e-39
0.08872842 -0.10586159 -0.0033430848 8.4060994e-39
0.090609916 -0.10586159 -0.0033430848 8.6823234e-39
0.092491411 -0.10586159 -0.0033430848 8.8670692e-39
0.094372921 -0.10586159 -0.0033430848 8.8670664e-39
0.096254416 -0.10586159 -0.0033430848 8.7748679e-39
0.098135911 -0.10586159 -0.0033430848 8.681952e-39
0.10046335 -0.10680611 -0.0073483977 8.497558e-39
0.10235187 -0.10680611 -0.0073483977 8.7730631e-39
0.1042404 -0.10680611 -0.0073483977 8.9563753e-39
0.10612891 -0.10680611 -0.0073483977 9.0478521e-39
0.10801742 -0.10680611 -0.0073483977 9.0478549e-39
0.10990595 -0.10680611 -0.0073483977 9.4159143e-39
0.11179448 -0.10680611 -0.0073483977 9.5995853e-39
0.11368299 -0.10680611 -0.0073483977 1.0059477e-38
0.11557152 -0.10680611 -0.0073483977 1.0519007e-38
0.11695089 -0.10586159 -0.0033430848 9.9651028e-39
0.11883239 -0.10586159 -0.0033430848 7.4372655e-40
0.12031294 -0.10513772 -0.00027356483 7.4689208e-43
0.12179995 -0.10444455 0.0026657786 3.7554799e-43
0.12367093 -0.10444455 0.0026657786 7.300765e-43
-0.10482506 -0.10155846 0.022689005 1.0237704e-38
-0.10322367 -0.10225673 0.0197499 6.5516981e-39
-0.10138267 -0.10225673 0.0197499 2.8667722e-39
-0.099541657 -0.10225673 0.0197499 1.947718e-39
-0.097700648 -0.10225673 0.0197499 1.4889203e-39
-0.095859639 -0.10225673 0.0197499 7.5245384e-40
-0.094018631 -0.10225673 0.0197499 1.0301309e-39
-0.091974072 -0.10155846 0.022689005 1.9520928e-39
-0.090138204 -0.10155846 0.022689005 2.9662448e-39
-0.088302352 -0.10155846 0.022689005 3.1513549e-39
-0.086466499 -0.10155846 0.022689005 3.0602355e-39
-0.084630646 -0.10155846 0.022689005 3.5212108e-39
-0.082794793 -0.10155846 0.022689005 3.2464204e-39
-0.080958933 -0.10155846 0.022689005 3.5230045e-39
-0.079123072 -0.10155846 0.022689005 4.0779845e-39
-0.077287219 -0.10155846 0.022689005 3.6184623e-39
-0.075289302 -0.10083848 0.025719544 4.9106431e-39
-0.073458754 -0.10083848 0.025719544 4.265624e-39
-0.07162822 -0.10083848 0.025719544 8.9683046e-39
-0.069797672 -0.10083848 0.025719544 8.9690066e-39
-0.067967132 -0.10083848 0.025719544 1.0905097e-38
-0.066272087 -0.10155846 0.022689005 1.200999e-38
-0.064436227 -0.10155846 0.022689005 1.3206724e-38
-0.062600374 -0.10155846 0.022689005 1.3573699e-38
-0.060764514 -0.10155846 0.022689005 1.5507642e-38
-0.058928657 -0.10155846 0.022689005 1.4677164e-38
-0.057092801 -0.10155846 0.022689005 1.3385709e-38
-0.055256944 -0.10155846 0.022689005 1.4032519e-38
-0.053421091 -0.10155846 0.022689005 1.3940689e-38
-0.051799823 -0.10322 0.015695354 1.3664466e-38
-0.049834404 -0.10225673 0.0197499 1.4864435e-38
-0.047993395 -0.10225673 0.0197499 1.4312345e-38
-0.046152387 -0.10225673 0.0197499 1.3852092e-38
-0.044407349 -0.10322 0.015695354 1.3944286e-38
-0.042559233 -0.10322 0.015695354 1.4497451e-38
-0.040711116 -0.10322 0.015695354 1.4774034e-38
-0.038862996 -0.10322 0.015695354 1.4405257e-38
-0.037014879 -0.10322 0.015695354 1.4036121e-38
-0.035166759 -0.10322 0.015695354 1.4036121e-38
-0.033318643 -0.10322 0.015695354 1.3851733e-38
-0.031470526 -0.10322 0.015695354 1.4036121e-38
-0.029622408 -0.10322 0.015695354 1.4128316e-38
-0.027774291 -0.10322 0.015695354 1.4128316e-38
-0.025944451 -0.1039276 0.01271691 1.3943927e-38
-0.02409111 -0.1039276 0.01271691 1.3759539e-38
-0.02223777 -0.1039276 0.01271691 1.3759539e-38
-0.020384429 -0.1039276 0.01271691 1.394321e-38
-0.01853109 -0.1039276 0.01271691 1.3388602e-38
-0.016677748 -0.1039276 0.01271691 1.4125444e-38
-0.014824409 -0.1039276 0.01271691 1.3940334e-38
-0.012971069 -0.1039276 0.01271691 1.5045953e-38
-0.011117728 -0.1039276 0.01271691 1.4123286e-38
-0.0092643881 -0.1039276 0.01271691 1.4675741e-38
-0.0074110478 -0.1039276 0.01271691 1.3938179e-38
-0.0055577075 -0.1039276 0.01271691 1.4490271e-38
-0.0037043672 -0.1039276 0.01271691 1.4490274e-38
-0.0018510277 -0.1039276 0.01271691 1.4674662e-38
2.3135217e-06 -0.1039276 0.01271691 1.4766858e-38
0.0018556529 -0.1039276 0.01271691 1.4399154e-38
0.003708994 -0.1039276 0.01271691 1.4214766e-38
0.0055623334 -0.1039276 0.01271691 1.4215126e-38
0.0074156746 -0.1039276 0.01271691 1.4768294e-38
0.009350419 -0.10463922 0.0097215381 1.5138147e-38
0.011209011 -0.10463922 0.0097215381 1.4585339e-38
0.013160033 -0.10535492 0.0067091193 1.4677532e-38
0.015023908 -0.10535492 0.0067091193 1.4953399e-38
0.016887782 -0.10535492 0.0067091193 1.4953399e-38
0.018751657 -0.10535492 0.0067091193 1.5044877e-38
0.020615527 -0.10535492 0.0067091193 1.5320383e-38
0.022479402 -0.10535492 0.0067091193 1.5596249e-38
0.024343276 -0.10535492 0.0067091193 1.5780637e-38
0.026207151 -0.10535492 0.0067091193 1.4858689e-38
0.028071025 -0.10535492 0.0067091193 1.5043081e-38
0.0299349 -0.10535492 0.0067091193 1.5043083e-38
0.031798776 -0.10535492 0.0067091193 1.4490628e-38
0.033662647 -0.10535492 0.0067091193 1.3845259e-38
0.035526522 -0.10535492 0.0067091193 1.3385001e-38
0.037390396 -0.10535492 0.0067091193 1.3477197e-38
0.03925427 -0.10535492 0.0067091193 1.3753788e-38
0.041118145 -0.10535492 0.0067091193 1.3753438e-38
0.042982019 -0.10535492 0.0067091193 1.3476493e-38
0.045090474 -0.10631551 0.0026657786 1.3015515e-38
0.046961434 -0.10631551 0.0026657786 1.2554537e-38
0.048832402 -0.10631551 0.0026657786 1.2093559e-38
0.050703362 -0.10631551 0.0026657786 1.1540385e-38
0.052772738 -0.10701384 -0.00027356483 1.0619148e-38
0.054648861 -0.10701384 -0.00027356483 1.015817e-38
0.056524977 -0.10701384 -0.00027356483 1.0895737e-38
0.058401093 -0.10701384 -0.00027356483 1.0711346e-38
0.060058177 -0.10631551 0.0026657786 1.061915e-38
0.061929144 -0.10631551 0.0026657786 1.0711346e-38
0.063800104 -0.10631551 0.0026657786 1.0987933e-38
0.065671064 -0.10631551 0.0026657786 1.0988653e-38
0.067542024 -0.10631551 0.0026657786 1.071099e-38
0.069657795 -0.10701384 -0.00027356483 1.0157816e-38
0.071283959 -0.10631551 0.0026657786 1.0434406e-38
0.073154919 -0.10631551 0.0026657786 1.0894665e-38
0.075025879 -0.10631551 0.0026657786 1.1263448e-38
0.076896839 -0.10631551 0.0026657786 1.1171608e-38
0.078767814 -0.10631551 0.0026657786 1.0986135e-38
0.080638774 -0.10631551 0.0026657786 1.0709545e-38
0.082509734 -0.10631551 0.0026657786 1.0709903e-38
0.084666722 -0.10701384 -0.00027356483 1.1077964e-38
0.086542837 -0.10701384 -0.00027356483 1.0617339e-38
0.08872842 -0.10774307 -0.0033430848 1.0432584e-38
0.090609916 -0.10774307 -0.0033430848 1.0063798e-38
0.092491411 -0.10774307 -0.0033430848 1.0063075e-38
0.094372921 -0.10774307 -0.0033430848 1.0247463e-38
0.096254416 -0.10774307 -0.0033430848 1.0708799e-38
0.098135911 -0.10774307 -0.0033430848 1.1353449e-38
0.10001741 -0.10774307 -0.0033430848 1.1722229e-38
0.1018989 -0.10774307 -0.0033430848 1.126053e-38
0.10378041 -0.10774307 -0.0033430848 1.1536398e-38
0.10612891 -0.10869466 -0.0073483977 1.1628594e-38
0.10801742 -0.10869466 -0.0073483977 1.1627875e-38
0.10990595 -0.10869466 -0.0073483977 1.1536035e-38
0.11179448 -0.10869466 -0.0073483977 1.2088127e-38
0.11368299 -0.10869466 -0.0073483977 1.3100839e-38
0.11557152 -0.10869466 -0.0073483977 1.3929871e-38
0.11746003 -0.10869466 -0.0073483977 1.3467447e-38
0.11883239 -0.10774307 -0.0033430848 3.2326414e-39
0.1207139 -0.10774307 -0.0033430848 3.6237578e-42
0.12259539 -0.10774307 -0.0033430848 2.5335476e-42
-0.10482506 -0.10339431 0.022689005 9.4065158e-39
-0.1029892 -0.10339431 0.022689005 7.4725866e-39
-0.10115335 -0.10339431 0.022689005 3.0493768e-39
-0.099317484 -0.10339431 0.022689005 1.8537357e-39
-0.097481631 -0.10339431 0.022689005 2.408727e-39
-0.09542527 -0.10266902 0.025719544 5.6627312e-40
-0.093594722 -0.10266902 0.025719544 2.6878628e-39
-0.091764174 -0.10266902 0.025719544 2.503117e-39
-0.089933641 -0.10266902 0.025719544 3.5183508e-39
-0.088103093 -0.10266902 0.025719544 3.9793247e-39
-0.08627256 -0.10266902 0.025719544 4.0722364e-39
-0.084442012 -0.10266902 0.025719544 4.3491792e-39
-0.082611464 -0.10266902 0.025719544 3.9821918e-39
-0.080780931 -0.10266902 0.025719544 4.1665802e-39
-0.078950383 -0.10266902 0.025719544 4.7215589e-39
-0.077287219 -0.10339431 0.022689005 4.5404228e-39
-0.075451367 -0.10339431 0.022689005 5.003203e-39
-0.073615506 -0.10339431 0.022689005 4.7273238e-39
-0.07162822 -0.10266902 0.025719544 8.5076908e-39
-0.069797672 -0.10266902 0.025719544 8.6924225e-39
-0.067967132 -0.10266902 0.025719544 1.2103271e-38
-0.066136591 -0.10266902 0.025719544 1.2194025e-38
-0.064436227 -0.10339431 0.022689005 1.4035763e-38
-0.062600374 -0.10339431 0.022689005 1.4125793e-38
-0.060764514 -0.10339431 0.022689005 1.4769359e-38
-0.058928657 -0.10339431 0.022689005 1.5135981e-38
-0.057092801 -0.10339431 0.022689005 1.4675006e-38
-0.055256944 -0.10339431 0.022689005 1.4490258e-38
-0.053421091 -0.10339431 0.022689005 1.467609e-38
-0.051675417 -0.10409774 0.0197499 1.513743e-38
-0.049834404 -0.10409774 0.0197499 1.5506566e-38
-0.047993395 -0.10409774 0.0197499 1.5320369e-38
-0.046152387 -0.10409774 0.0197499 1.5689144e-38
-0.044407349 -0.1050681 0.015695354 1.596573e-38
-0.042559233 -0.1050681 0.015695354 1.6334513e-38
-0.040711116 -0.1050681 0.015695354 1.6518548e-38
-0.038862996 -0.1050681 0.015695354 1.6518548e-38
-0.037014879 -0.1050681 0.015695354 1.6426353e-38
-0.035166759 -0.1050681 0.015695354 1.6334157e-38
-0.033318643 -0.1050681 0.015695354 1.6426353e-38
-0.031470526 -0.1050681 0.015695354 1.6334157e-38
-0.029622408 -0.1050681 0.015695354 1.6241961e-38
-0.027774291 -0.1050681 0.015695354 1.6149769e-38
-0.025926173 -0.1050681 0.015695354 1.6057573e-38
-0.02409111 -0.10578094 0.01271691 1.5965377e-38
-0.02223777 -0.10578094 0.01271691 1.5873183e-38
-0.020384429 -0.10578094 0.01271691 1.5873182e-38
-0.01853109 -0.10578094 0.01271691 1.5965377e-38
-0.016677748 -0.10578094 0.01271691 1.614869e-38
-0.014824409 -0.10578094 0.01271691 1.5964298e-38
-0.012971069 -0.10578094 0.01271691 1.5594797e-38
-0.011117728 -0.10578094 0.01271691 1.5133819e-38
-0.0092355032 -0.10649781 0.0097215381 1.5501881e-38
-0.0073769102 -0.10649781 0.0097215381 1.6146533e-38
-0.0055577075 -0.10578094 0.01271691 1.6791182e-38
-0.0037043672 -0.10578094 0.01271691 1.6514597e-38
-0.0018510277 -0.10578094 0.01271691 1.6698987e-38
2.3135217e-06 -0.10578094 0.01271691 1.6791182e-38
0.0018556529 -0.10578094 0.01271691 1.660751e-38
0.003708994 -0.10578094 0.01271691 1.6238727e-38
0.0055623334 -0.10578094 0.01271691 1.5962859e-38
0.0074156746 -0.10578094 0.01271691 1.5962856e-38
0.009350419 -0.10649781 0.0097215381 1.6055049e-38
0.011209011 -0.10649781 0.0097215381 1.6239796e-38
0.013067601 -0.10649781 0.0097215381 1.6333068e-38
0.015023908 -0.10721879 0.0067091193 1.6792967e-38
0.016784785 -0.10649781 0.0097215381 1.697664e-38
0.018643377 -0.10649781 0.0097215381 1.6791888e-38
0.020615527 -0.10721879 0.0067091193 1.6607497e-38
0.022479402 -0.10721879 0.0067091193 1.6790812e-38
0.024343276 -0.10721879 0.0067091193 1.6883008e-38
0.026207151 -0.10721879 0.0067091193 1.6698261e-38
0.028071025 -0.10721879 0.0067091193 1.6698261e-38
0.0299349 -0.10721879 0.0067091193 1.6606065e-38
0.031798776 -0.10721879 0.0067091193 1.6606065e-38
0.033662647 -0.10721879 0.0067091193 1.6513872e-38
0.035526522 -0.10721879 0.0067091193 1.6238364e-38
0.037390396 -0.10721879 0.0067091193 1.6238364e-38
0.03925427 -0.10721879 0.0067091193 1.6054337e-38
0.041118145 -0.10721879 0.0067091193 1.4855804e-38
0.042982019 -0.10721879 0.0067091193 1.4856528e-38
0.045090474 -0.10818647 0.0026657786 1.4672137e-38
0.046961434 -0.10818647 0.0026657786 1.4211159e-38
0.048832402 -0.10818647 0.0026657786 1.3934572e-38
0.050703362 -0.10818647 0.0026657786 1.3657985e-38
0.052772738 -0.10888995 -0.00027356483 1.3197007e-38
0.054445289 -0.10818647 0.0026657786 1.2551994e-38
0.056316249 -0.10818647 0.0026657786 1.2366526e-38
0.058187217 -0.10818647 0.0026657786 1.2366526e-38
0.060058177 -0.10818647 0.0026657786 1.2366526e-38
0.061929144 -0.10818647 0.0026657786 1.2274331e-38
0.063800104 -0.10818647 0.0026657786 1.2274328e-38
0.065671064 -0.10818647 0.0026657786 1.2091016e-38
0.067542024 -0.10818647 0.0026657786 1.2274328e-38
0.069412984 -0.10818647 0.0026657786 1.209066e-38
0.071283959 -0.10818647 0.0026657786 1.1814078e-38
0.073154919 -0.10818647 0.0026657786 1.1537134e-38
0.075025879 -0.10818647 0.0026657786 1.162933e-38
0.076896839 -0.10818647 0.0026657786 1.2275056e-38
0.078767814 -0.10818647 0.0026657786 1.2827504e-38
0.080638774 -0.10818647 0.0026657786 1.2735306e-38
0.082509734 -0.10818647 0.0026657786 1.2274682e-38
0.084666722 -0.10888995 -0.00027356483 1.2273961e-38
0.086542837 -0.10888995 -0.00027356483 1.2735295e-38
0.08872842 -0.10962458 -0.0033430848 1.2273596e-38
0.090609916 -0.10962458 -0.0033430848 1.1997363e-38
0.092491411 -0.10962458 -0.0033430848 1.2365422e-38
0.094372921 -0.10962458 -0.0033430848 1.2549813e-38
0.096254416 -0.10962458 -0.0033430848 1.2365419e-38
0.098135911 -0.10962458 -0.0033430848 1.2180309e-38
0.10001741 -0.10962458 -0.0033430848 1.2088471e-38
0.1018989 -0.10962458 -0.0033430848 1.2825678e-38
