# .PCD v0.7 - Point Cloud Data file format
VERSION 0.7
FIELDS x y z rgb
SIZE 4 4 4 4
TYPE F F F F
COUNT 1 1 1 1
WIDTH 931
HEIGHT 1
VIEWPOINT 0 0 0 1 0 0 0
POINTS 931
DATA ascii
0.010041697 -0.086680889 -0.046312418 2.3509527e-38
0.015670244 -0.082336128 -0.026247587 6.9299016e-39
0.017528836 -0.082336128 -0.026247587 1.0989727e-38
-0.083079994 -0.10973148 -0.14323303 1.2369421e-38
-0.08006312 -0.1071233 -0.13128492 1.4674306e-38
-0.077706859 -0.10624625 -0.12726697 1.5597325e-38
-0.074754387 -0.10362239 -0.11524698 1.46761e-38
-0.07273975 -0.10362239 -0.11524698 1.2925116e-38
-0.07102102 -0.10451011 -0.11931369 1.2096074e-38
-0.068710476 -0.10362239 -0.11524698 1.2188631e-38
-0.066695839 -0.10362239 -0.11524698 1.3664833e-38
-0.064955711 -0.10451011 -0.11931369 1.3480804e-38
-0.062666565 -0.10362239 -0.11524698 1.283544e-38
-0.060651913 -0.10362239 -0.11524698 1.1913484e-38
-0.027342316 -0.097091287 -0.085327595 2.2404983e-38
-0.025240742 -0.096201301 -0.081250519 2.2680125e-38
-0.023285709 -0.096201301 -0.081250519 2.350988e-38
-0.021330681 -0.096201301 -0.081250519 2.3509879e-38
-0.019290403 -0.095558092 -0.078303903 2.3509879e-38
-0.017231118 -0.094679192 -0.07427761 2.3509883e-38
-0.015288316 -0.094679192 -0.07427761 2.3509886e-38
-0.01344081 -0.095558092 -0.078303903 2.3509886e-38
-0.011336282 -0.094017595 -0.071246833 2.3509886e-38
-0.0093186311 -0.093149811 -0.067271441 2.3509886e-38
-0.0073154494 -0.092288271 -0.06332466 2.3509886e-38
-0.0053403825 -0.091613799 -0.060234871 2.3509886e-38
-0.0034222007 -0.091613799 -0.060234871 2.341805e-38
-0.0014512278 -0.090737507 -0.056220498 2.3509886e-38
0.00045991689 -0.090737507 -0.056220498 2.341805e-38
0.002399344 -0.090097278 -0.053287592 2.3417691e-38
0.0043053441 -0.090097278 -0.053287592 2.3326213e-38
0.0062299632 -0.089435071 -0.050253954 2.3509886e-38
0.0081479251 -0.088574663 -0.046312418 2.2404257e-38
0.010060107 -0.087046593 -0.03931221 2.3509886e-38
0.011944298 -0.086376548 -0.03624269 2.2867037e-38
0.013817837 -0.085734919 -0.033303346 2.1673176e-38
0.015670244 -0.08419472 -0.026247587 1.540932e-38
0.017528836 -0.08419472 -0.026247587 8.5893865e-39
0.019405914 -0.084852293 -0.029260006 1.0989369e-38
-0.082435742 -0.11005636 -0.13533089 1.2090679e-38
-0.079742581 -0.10828196 -0.12726697 1.3197024e-38
-0.077395529 -0.10740392 -0.12327668 1.3105905e-38
-0.075064555 -0.10653187 -0.11931369 1.4028577e-38
-0.07273975 -0.10563703 -0.11524698 1.5504413e-38
-0.070725113 -0.10563703 -0.11524698 1.5597684e-38
-0.068710476 -0.10563703 -0.11524698 1.4399873e-38
-0.066695839 -0.10563703 -0.11524698 1.5875701e-38
-0.064681202 -0.10563703 -0.11524698 1.6244478e-38
-0.062409595 -0.10477705 -0.1113387 1.606009e-38
-0.060401797 -0.10477705 -0.1113387 1.5322536e-38
-0.033392936 -0.09992972 -0.089309782 6.5459009e-39
-0.031266674 -0.099053472 -0.085327595 2.2495382e-38
-0.029304489 -0.099053472 -0.085327595 2.3324778e-38
-0.027342316 -0.099053472 -0.085327595 2.3509527e-38
-0.025240742 -0.098156333 -0.081250519 2.3509527e-38
-0.023285709 -0.098156333 -0.081250519 2.3509527e-38
-0.021330681 -0.098156333 -0.081250519 2.323258e-38
-0.019290403 -0.097507954 -0.078303903 2.3509527e-38
-0.017148752 -0.095955089 -0.071246833 2.3509527e-38
-0.015211262 -0.095955089 -0.071246833 2.3509886e-38
-0.013273768 -0.095955089 -0.071246833 2.3509886e-38
-0.011336282 -0.095955089 -0.071246833 2.3509886e-38
-0.0091767497 -0.093531981 -0.060234871 2.3509886e-38
-0.007258568 -0.093531981 -0.060234871 2.341805e-38
-0.0052246675 -0.092003286 -0.053287592 2.341805e-38
-0.0032734498 -0.091335744 -0.050253954 2.341805e-38
-0.0013727695 -0.091335744 -0.050253954 2.341805e-38
0.00052791461 -0.091335744 -0.050253954 2.341805e-38
0.0024666078 -0.090468436 -0.046312418 2.341805e-38
0.0043603797 -0.090468436 -0.046312418 2.3141466e-38
0.0062725302 -0.089809433 -0.043317523 2.341805e-38
0.0081610531 -0.089809433 -0.043317523 2.3325856e-38
0.010060107 -0.088928089 -0.03931221 2.304927e-38
0.011944298 -0.088252664 -0.03624269 2.2775202e-38
0.013814293 -0.086716175 -0.029260006 2.2499695e-38
0.015678167 -0.086716175 -0.029260006 2.1673176e-38
0.01754204 -0.086716175 -0.029260006 1.9558807e-38
0.019405914 -0.086716175 -0.029260006 9.6057006e-39
0.021269787 -0.086716175 -0.029260006 5.2764913e-39
-0.08448559 -0.11210622 -0.13533089 1.2088872e-38
-0.082105875 -0.11120884 -0.13128492 1.2549494e-38
-0.079424247 -0.10943262 -0.12327668 1.2273263e-38
-0.077086315 -0.10855366 -0.11931369 1.1536412e-38
-0.074754387 -0.10765167 -0.11524698 1.1906271e-38
-0.07273975 -0.10765167 -0.11524698 1.3843093e-38
-0.070440724 -0.10678484 -0.1113387 1.5872831e-38
-0.068432942 -0.10678484 -0.1113387 1.6887685e-38
-0.06642516 -0.10678484 -0.1113387 1.5043785e-38
-0.064681202 -0.10765167 -0.11524698 1.5966461e-38
-0.062409595 -0.10678484 -0.1113387 1.6795491e-38
-0.060401797 -0.10678484 -0.1113387 1.6795491e-38
-0.033228852 -0.10101564 -0.085327595 8.2029013e-39
-0.031266674 -0.10101564 -0.085327595 2.2031521e-38
-0.029150799 -0.10011137 -0.081250519 2.3507732e-38
-0.02719577 -0.10011137 -0.081250519 2.3137866e-38
-0.025240742 -0.10011137 -0.081250519 2.3507732e-38
-0.023190133 -0.099457815 -0.078303903 2.3508809e-38
-0.021240268 -0.099457815 -0.078303903 2.3415898e-38
-0.019173924 -0.098564804 -0.07427761 2.3509527e-38
-0.017148752 -0.097892582 -0.071246833 2.3509527e-38
-0.015211262 -0.097892582 -0.071246833 2.3509883e-38
-0.013273768 -0.097892582 -0.071246833 2.3509886e-38
-0.011336282 -0.097892582 -0.071246833 2.3509886e-38
-0.0091767497 -0.095450163 -0.060234871 2.341805e-38
-0.007258568 -0.095450163 -0.060234871 2.341805e-38
-0.0051084831 -0.09236221 -0.046312418 2.341805e-38
-0.0031700768 -0.091697961 -0.043317523 2.3234379e-38
-0.0012815557 -0.091697961 -0.043317523 2.2865961e-38
0.00060696527 -0.091697961 -0.043317523 2.3234379e-38
0.0025341138 -0.090809584 -0.03931221 2.3234379e-38
0.0044156108 -0.090809584 -0.03931221 2.2958155e-38
0.0062971096 -0.090809584 -0.03931221 2.3234379e-38
0.0081786085 -0.090809584 -0.03931221 2.3234379e-38
0.010060107 -0.090809584 -0.03931221 2.3234379e-38
0.011944298 -0.090128779 -0.03624269 2.2681567e-38
0.013814293 -0.088580042 -0.029260006 2.3234376e-38
0.015678167 -0.088580042 -0.029260006 2.1210037e-38
0.01754204 -0.088580042 -0.029260006 2.1489505e-38
0.019405914 -0.088580042 -0.029260006 1.6150834e-38
0.021269787 -0.088580042 -0.029260006 5.923269e-39
0.023172654 -0.089476839 -0.033303346 3.8989518e-39
-0.08414863 -0.11325158 -0.13128492 1.4944397e-38
-0.081778288 -0.11235337 -0.12726697 1.4206837e-38
-0.079108089 -0.11057542 -0.11931369 1.3748379e-38
-0.076769024 -0.1096663 -0.11524698 1.3380678e-38
-0.074456304 -0.10879262 -0.1113387 1.107795e-38
-0.072448522 -0.10879262 -0.1113387 9.6964501e-39
-0.070440724 -0.10879262 -0.1113387 1.2278284e-38
-0.068148151 -0.10789602 -0.10732803 1.6334879e-38
-0.066147387 -0.10789602 -0.10732803 1.6702938e-38
-0.064417377 -0.10879262 -0.1113387 1.7900746e-38
-0.062409595 -0.10879262 -0.1113387 1.8729059e-38
-0.060401797 -0.10879262 -0.1113387 1.8452117e-38
-0.033228852 -0.10297783 -0.085327595 7.9274047e-39
-0.031105831 -0.1020664 -0.081250519 1.4749154e-38
-0.029150799 -0.1020664 -0.081250519 1.8805397e-38
-0.02708986 -0.10140768 -0.078303903 1.8713558e-38
-0.025139995 -0.10140768 -0.078303903 2.0373795e-38
-0.023190133 -0.10140768 -0.078303903 2.323186e-38
-0.021240268 -0.10140768 -0.078303903 2.3509527e-38
-0.019173924 -0.1005076 -0.07427761 2.3048545e-38
-0.017148752 -0.099830076 -0.071246833 2.3509883e-38
-0.015211262 -0.099830076 -0.071246833 2.3509883e-38
-0.01334551 -0.1005076 -0.07427761 2.3509886e-38
-0.011336282 -0.099830076 -0.071246833 2.3509886e-38
-0.0089755021 -0.095137119 -0.050253954 2.341805e-38
-0.007074818 -0.095137119 -0.050253954 2.341805e-38
-0.0051084831 -0.094255984 -0.046312418 2.3234379e-38
-0.0031700768 -0.093586475 -0.043317523 2.3234379e-38
-0.0012815557 -0.093586475 -0.043317523 2.3234379e-38
0.00060696527 -0.093586475 -0.043317523 2.3142544e-38
0.0025341138 -0.092691094 -0.03931221 2.3234379e-38
0.0044156108 -0.092691094 -0.03931221 2.3050349e-38
0.0062971096 -0.092691094 -0.03931221 2.2865958e-38
0.0081786085 -0.092691094 -0.03931221 2.3234379e-38
0.010060107 -0.092691094 -0.03931221 2.3142544e-38
0.011944298 -0.092004895 -0.03624269 2.3418047e-38
0.013817837 -0.091347814 -0.033303346 2.3508441e-38
0.015678167 -0.090443924 -0.029260006 2.3418047e-38
0.01754204 -0.090443924 -0.029260006 2.2316024e-38
0.019405914 -0.090443924 -0.029260006 2.1030327e-38
0.021269787 -0.090443924 -0.029260006 1.827311e-38
0.023172654 -0.091347814 -0.033303346 7.6749972e-39
0.025043616 -0.091347814 -0.033303346 4.2663092e-39
-0.086535439 -0.11620592 -0.13533089 1.6324411e-38
-0.08414863 -0.11529435 -0.13128492 1.6785389e-38
-0.081778288 -0.11438908 -0.12726697 1.595708e-38
-0.079108089 -0.11259718 -0.11931369 1.4947623e-38
-0.076464087 -0.1108004 -0.1113387 1.3660498e-38
-0.074150413 -0.10989676 -0.10732803 1.0622736e-38
-0.072149649 -0.10989676 -0.10732803 8.3196505e-39
-0.069924369 -0.10920154 -0.10424218 9.3334395e-39
-0.066585898 -0.10494001 -0.085327595 1.2281532e-38
-0.06413728 -0.10335754 -0.078303903 1.5412568e-38
-0.062187418 -0.10335754 -0.078303903 1.8175535e-38
-0.060237557 -0.10335754 -0.078303903 1.9648131e-38
-0.057581648 -0.10087189 -0.067271441 1.9830363e-38
-0.031105831 -0.10402142 -0.081250519 7.1019712e-39
-0.029150799 -0.10402142 -0.081250519 4.888546e-39
-0.02708986 -0.10335754 -0.078303903 1.0327715e-38
-0.025139995 -0.10335754 -0.078303903 1.5306267e-38
-0.023190133 -0.10335754 -0.078303903 1.6965061e-38
-0.021116726 -0.1024504 -0.07427761 2.1943616e-38
-0.019173924 -0.1024504 -0.07427761 2.2865573e-38
-0.017148752 -0.10176755 -0.071246833 2.3418039e-38
-0.015211262 -0.10176755 -0.071246833 2.3049621e-38
-0.013273768 -0.10176755 -0.071246833 2.3049624e-38
-0.011006951 -0.098382086 -0.056220498 2.3326213e-38
-0.0088960268 -0.096149758 -0.046312418 2.341805e-38
-0.0069471188 -0.095475003 -0.043317523 2.3325856e-38
-0.0050585978 -0.095475003 -0.043317523 2.341805e-38
-0.0031700768 -0.095475003 -0.043317523 2.341805e-38
-0.0012815557 -0.095475003 -0.043317523 2.341805e-38
0.00065261498 -0.094572589 -0.03931221 2.341805e-38
0.0025341138 -0.094572589 -0.03931221 2.304927e-38
0.0044156108 -0.094572589 -0.03931221 2.3234018e-38
0.0063159466 -0.093881011 -0.03624269 2.3418047e-38
0.0081920624 -0.093881011 -0.03624269 2.3418047e-38
0.01006818 -0.093881011 -0.03624269 2.2865229e-38
0.011944298 -0.093881011 -0.03624269 2.3232932e-38
0.013817837 -0.093218774 -0.033303346 2.3508082e-38
0.015688801 -0.093218774 -0.033303346 2.3507369e-38
0.017559763 -0.093218774 -0.033303346 2.3234379e-38
0.019430727 -0.093218774 -0.033303346 2.222383e-38
0.02130169 -0.093218774 -0.033303346 2.158134e-38
0.023172654 -0.093218774 -0.033303346 1.4395905e-38
0.025043616 -0.093218774 -0.033303346 1.1818045e-38
-0.086535439 -0.11825575 -0.13533089 2.0101896e-38
-0.08414863 -0.11733709 -0.13128492 2.0747265e-38
-0.081778288 -0.11642478 -0.12726697 2.0289175e-38
-0.079108089 -0.11461894 -0.11931369 1.8726548e-38
-0.076151162 -0.11189754 -0.10732803 1.5596956e-38
-0.073915049 -0.11119686 -0.10424218 1.1637604e-38
-0.071624532 -0.11029746 -0.10028097 8.6898736e-39
-0.068251416 -0.10597645 -0.081250519 8.3203708e-39
-0.065801233 -0.1043932 -0.07427761 9.0554079e-39
-0.063648537 -0.10370506 -0.071246833 1.2277919e-38
-0.061711043 -0.10370506 -0.071246833 1.6330909e-38
-0.059512168 -0.10280241 -0.067271441 1.9554861e-38
-0.057581648 -0.10280241 -0.067271441 2.1027816e-38
-0.055651128 -0.10280241 -0.067271441 2.1397669e-38
-0.053052127 -0.10029322 -0.056220498 2.0937416e-38
-0.051140994 -0.10029322 -0.056220498 1.9740683e-38
-0.049229845 -0.10029322 -0.056220498 1.9280789e-38
-0.023190133 -0.10530742 -0.078303903 1.4384662e-38
-0.021116726 -0.1043932 -0.07427761 1.5582478e-38
-0.019173924 -0.1043932 -0.07427761 2.1206412e-38
-0.017148752 -0.10370506 -0.071246833 2.2588997e-38
-0.015211262 -0.10370506 -0.071246833 2.3418045e-38
-0.01268357 -0.098043531 -0.046312418 2.332621e-38
-0.0107898 -0.098043531 -0.046312418 2.1482298e-38
-0.0088356398 -0.097363517 -0.043317523 1.8993019e-38
-0.0068733804 -0.096454084 -0.03931221 1.7978511e-38
-0.0049918815 -0.096454084 -0.03931221 1.8992665e-38
-0.0031103864 -0.096454084 -0.03931221 2.0467796e-38
-0.0012288839 -0.096454084 -0.03931221 2.304927e-38
0.00068759546 -0.095757127 -0.03624269 2.3325856e-38
0.0025637131 -0.095757127 -0.03624269 2.341805e-38
0.0044398308 -0.095757127 -0.03624269 2.3418047e-38
0.0063339844 -0.095089734 -0.033303346 2.2680841e-38
0.0082049482 -0.095089734 -0.033303346 2.0652534e-38
0.01006818 -0.095757127 -0.03624269 2.0929479e-38
0.011944298 -0.095757127 -0.03624269 2.3509518e-38
0.013817837 -0.095089734 -0.033303346 2.3509161e-38
0.015688801 -0.095089734 -0.033303346 2.3508449e-38
0.017559763 -0.095089734 -0.033303346 2.3325138e-38
0.019430727 -0.095089734 -0.033303346 2.2867037e-38
0.02130169 -0.095089734 -0.033303346 2.2132353e-38
0.023172654 -0.095089734 -0.033303346 1.678974e-38
0.025043616 -0.095089734 -0.033303346 1.5318225e-38
0.026953232 -0.095757127 -0.03624269 1.4491712e-38
-0.086535439 -0.12030561 -0.13533089 2.2222032e-38
-0.08414863 -0.11937986 -0.13128492 2.1298997e-38
-0.081778288 -0.11846052 -0.12726697 2.1946171e-38
-0.078151911 -0.11389829 -0.10732803 2.0567562e-38
-0.075601324 -0.11228584 -0.10028097 1.7068838e-38
-0.073612928 -0.11228584 -0.10028097 1.3754134e-38
-0.07103093 -0.11046316 -0.092315048 1.2004945e-38
-0.068037003 -0.10725726 -0.078303903 1.071385e-38
-0.065801233 -0.10633601 -0.07427761 9.6067782e-39
-0.063648537 -0.10564254 -0.071246833 1.0341092e-38
-0.061442688 -0.10473295 -0.067271441 1.4210058e-38
-0.059252664 -0.10382988 -0.06332466 1.7803155e-38
-0.056874424 -0.10220437 -0.056220498 2.0106591e-38
-0.054963276 -0.10220437 -0.056220498 2.158134e-38
-0.052874729 -0.10153329 -0.053287592 2.1673176e-38
-0.050968722 -0.10153329 -0.053287592 2.0846656e-38
-0.049062714 -0.10153329 -0.053287592 2.0479314e-38
-0.021240268 -0.10725726 -0.078303903 1.3183975e-38
-0.019173924 -0.10633601 -0.07427761 1.9361079e-38
-0.017231118 -0.10633601 -0.07427761 1.9546187e-38
-0.014501207 -0.099252045 -0.043317523 2.0375947e-38
-0.012612686 -0.099252045 -0.043317523 2.0560342e-38
-0.010724165 -0.099252045 -0.043317523 1.9361798e-38
-0.0088356398 -0.099252045 -0.043317523 1.8071062e-38
-0.0068733804 -0.098335579 -0.03931221 1.7241302e-38
-0.0049918815 -0.098335579 -0.03931221 1.6687772e-38
-0.0031103864 -0.098335579 -0.03931221 1.6134598e-38
-0.0012288839 -0.098335579 -0.03931221 1.6872163e-38
0.00068759546 -0.097633243 -0.03624269 1.8347293e-38
0.002592057 -0.096960694 -0.033303346 1.9453997e-38
0.0044630207 -0.096960694 -0.033303346 1.954619e-38
0.0063339844 -0.096960694 -0.033303346 1.8716429e-38
0.0082049482 -0.096960694 -0.033303346 1.779447e-38
0.01006818 -0.097633243 -0.03624269 1.9269957e-38
0.011944298 -0.097633243 -0.03624269 2.2311694e-38
0.013820414 -0.097633243 -0.03624269 2.3417323e-38
0.015696531 -0.097633243 -0.03624269 2.3049624e-38
0.017559763 -0.096960694 -0.033303346 2.2775202e-38
0.019430727 -0.096960694 -0.033303346 2.2224189e-38
0.02130169 -0.096960694 -0.033303346 2.1489505e-38
0.023200998 -0.097633243 -0.03624269 1.5225289e-38
0.025077116 -0.097633243 -0.03624269 1.3292436e-38
0.026953232 -0.097633243 -0.03624269 1.3664113e-38
-0.086535439 -0.12235548 -0.13533089 2.2774125e-38
-0.08414863 -0.1214226 -0.13128492 2.2773765e-38
-0.081778288 -0.12049623 -0.12726697 2.2958873e-38
-0.07758972 -0.11427425 -0.10028097 2.1856129e-38
-0.075284526 -0.1133381 -0.096220702 1.8816585e-38
-0.073005363 -0.11243759 -0.092315048 1.6054333e-38
-0.070510253 -0.11082654 -0.085327595 1.43977e-38
-0.067744046 -0.10827883 -0.07427761 1.2461956e-38
-0.065586016 -0.10758002 -0.071246833 1.0433652e-38
-0.063373208 -0.10666345 -0.067271441 1.1169055e-38
-0.06117627 -0.10575347 -0.06332466 1.2919685e-38
-0.059049517 -0.10504107 -0.060234871 1.4853985e-38
-0.056874424 -0.1041155 -0.056220498 1.6881565e-38
-0.054780722 -0.10343929 -0.053287592 1.9278637e-38
-0.052691221 -0.10273984 -0.050253954 2.0477162e-38
-0.050790533 -0.10273984 -0.050253954 2.0386044e-38
-0.049062714 -0.10343929 -0.053287592 2.057115e-38
-0.014501207 -0.10114056 -0.043317523 2.148374e-38
-0.012612686 -0.10114056 -0.043317523 1.9178852e-38
-0.010724165 -0.10114056 -0.043317523 1.7242744e-38
-0.0088356398 -0.10114056 -0.043317523 1.7150192e-38
-0.0069471188 -0.10114056 -0.043317523 1.7703366e-38
-0.0050585978 -0.10114056 -0.043317523 1.7057998e-38
-0.0031103864 -0.10021709 -0.03931221 1.5582868e-38
-0.0012288839 -0.10021709 -0.03931221 1.5214085e-38
0.00072109699 -0.098831654 -0.033303346 1.742678e-38
0.002592057 -0.098831654 -0.033303346 1.7979953e-38
0.0044630207 -0.098831654 -0.033303346 1.7242388e-38
0.0063339844 -0.098831654 -0.033303346 1.8256896e-38
0.0082049482 -0.098831654 -0.033303346 2.0469588e-38
0.01007591 -0.098831654 -0.033303346 2.2036914e-38
0.011944298 -0.099509358 -0.03624269 2.2866671e-38
0.013820414 -0.099509358 -0.03624269 2.3418043e-38
0.015696531 -0.099509358 -0.03624269 2.3142538e-38
0.017572649 -0.099509358 -0.03624269 2.1947602e-38
0.019448765 -0.099509358 -0.03624269 2.093562e-38
0.02132488 -0.099509358 -0.03624269 1.6422367e-38
0.023200998 -0.099509358 -0.03624269 1.1077917e-38
0.025043616 -0.098831654 -0.033303346 1.0159578e-38
0.026861411 -0.097899407 -0.029260006 1.2005665e-38
0.028725283 -0.097899407 -0.029260006 1.1178435e-38
0.030589158 -0.097899407 -0.029260006 1.1272441e-38
0.051524021 -0.089143202 0.0087174512 9.7883711e-39
-0.08414863 -0.12346537 -0.13128492 2.3509886e-38
-0.081778288 -0.12253194 -0.12726697 2.341805e-38
-0.07758972 -0.11626263 -0.10028097 2.2958873e-38
-0.074979797 -0.11441202 -0.092315048 2.1486276e-38
-0.072776154 -0.11371385 -0.089309782 1.9552708e-38
-0.070206448 -0.11184154 -0.081250519 1.7342543e-38
-0.067744046 -0.11022164 -0.07427761 1.466996e-38
-0.065586016 -0.10951753 -0.071246833 1.2366512e-38
-0.063373208 -0.10859399 -0.067271441 1.2182487e-38
-0.06117627 -0.10767709 -0.06332466 1.273566e-38
-0.058785573 -0.10602666 -0.056220498 1.3011526e-38
-0.056686729 -0.10534529 -0.053287592 1.3841286e-38
-0.054591894 -0.10464053 -0.050253954 1.559264e-38
-0.052452788 -0.10372485 -0.046312418 1.7067049e-38
-0.050559014 -0.10372485 -0.046312418 1.8173382e-38
-0.049062714 -0.10534529 -0.053287592 1.9373342e-38
-0.014501207 -0.10302909 -0.043317523 2.1762859e-38
-0.012612686 -0.10302909 -0.043317523 2.0287729e-38
-0.010724165 -0.10302909 -0.043317523 1.8167229e-38
-0.0088356398 -0.10302909 -0.043317523 1.7245276e-38
-0.0069471188 -0.10302909 -0.043317523 1.7614058e-38
-0.0050585978 -0.10302909 -0.043317523 1.761406e-38
-0.0031700768 -0.10302909 -0.043317523 1.7060886e-38
0.00072109699 -0.10070263 -0.033303346 1.9642364e-38
0.002592057 -0.10070263 -0.033303346 1.8996994e-38
0.0044630207 -0.10070263 -0.033303346 1.7890645e-38
0.0063339844 -0.10070263 -0.033303346 1.9181384e-38
0.0082049482 -0.10070263 -0.033303346 2.1486272e-38
0.01007591 -0.10070263 -0.033303346 2.2316024e-38
0.011944298 -0.10138547 -0.03624269 2.240786e-38
0.013820414 -0.10138547 -0.03624269 2.3142532e-38
0.015696531 -0.10138547 -0.03624269 2.3142531e-38
0.017572649 -0.10138547 -0.03624269 2.2131623e-38
0.019448765 -0.10138547 -0.03624269 2.0382798e-38
0.02132488 -0.10138547 -0.03624269 1.6790423e-38
0.023200998 -0.10138547 -0.03624269 1.2828907e-38
0.025043616 -0.10070263 -0.033303346 1.2278987e-38
0.026861411 -0.099763289 -0.029260006 1.3203837e-38
0.028725283 -0.099763289 -0.029260006 1.2376248e-38
0.030589158 -0.099763289 -0.029260006 1.2469896e-38
0.03245303 -0.099763289 -0.029260006 1.2654643e-38
0.034195766 -0.098367572 -0.023252215 1.154903e-38
0.035983831 -0.097675636 -0.020273771 1.0719636e-38
0.037831947 -0.097675636 -0.020273771 1.0443052e-38
-0.088927045 -0.12737687 -0.13926861 2.3234018e-38
-0.086535439 -0.12645517 -0.13533089 2.3509886e-38
-0.08414863 -0.12550814 -0.13128492 2.3140384e-38
-0.081452966 -0.12363364 -0.12327668 2.3141103e-38
-0.07758972 -0.11825104 -0.10028097 2.3325856e-38
-0.074979797 -0.11638646 -0.092315048 2.3142544e-38
-0.072776154 -0.115683 -0.089309782 2.2591531e-38
-0.070206448 -0.11379658 -0.081250519 2.0380663e-38
-0.067744046 -0.11216442 -0.07427761 1.752441e-38
-0.065303728 -0.11052449 -0.067271441 1.5129493e-38
-0.063099861 -0.10960068 -0.06332466 1.264238e-38
-0.060967699 -0.10887744 -0.060234871 1.2828579e-38
-0.058592722 -0.1072513 -0.053287592 1.2828943e-38
-0.056686729 -0.1072513 -0.053287592 1.2644555e-38
-0.054346561 -0.10561861 -0.046312418 1.292042e-38
-0.052271634 -0.1049176 -0.043317523 1.3288483e-38
-0.050383106 -0.1049176 -0.043317523 1.4855444e-38
-0.048494592 -0.1049176 -0.043317523 1.7252875e-38
-0.010724165 -0.1049176 -0.043317523 2.2499695e-38
-0.0088356398 -0.1049176 -0.043317523 2.2499695e-38
-0.0069471188 -0.1049176 -0.043317523 2.2224189e-38
-0.0050585978 -0.1049176 -0.043317523 2.1947247e-38
-0.0031700768 -0.1049176 -0.043317523 2.1394441e-38
-0.0012815557 -0.1049176 -0.043317523 2.0471768e-38
0.00060696527 -0.1049176 -0.043317523 2.0288093e-38
0.0044630207 -0.10257359 -0.033303346 1.9366137e-38
0.0063339844 -0.10257359 -0.033303346 2.0103342e-38
0.0082049482 -0.10257359 -0.033303346 2.0195897e-38
0.01007591 -0.10257359 -0.033303346 2.0840905e-38
0.011946874 -0.10257359 -0.033303346 2.2315307e-38
0.013817837 -0.10257359 -0.033303346 2.2588643e-38
0.015696531 -0.1032616 -0.03624269 2.3418043e-38
0.017559763 -0.10257359 -0.033303346 2.2867037e-38
0.019430727 -0.10257359 -0.033303346 2.2499695e-38
0.02132488 -0.1032616 -0.03624269 2.1765011e-38
0.023172654 -0.10257359 -0.033303346 1.8450682e-38
0.025043616 -0.10257359 -0.033303346 1.688625e-38
0.026861411 -0.10162716 -0.029260006 1.5690237e-38
0.028725283 -0.10162716 -0.029260006 1.587606e-38
0.030589158 -0.10162716 -0.029260006 1.5232494e-38
0.032342426 -0.10022092 -0.023252215 1.5141017e-38
0.034195766 -0.10022092 -0.023252215 1.3666268e-38
0.035983831 -0.099523753 -0.020273771 1.2559579e-38
0.037831947 -0.099523753 -0.020273771 1.2007131e-38
0.039680067 -0.099523753 -0.020273771 1.0715685e-38
0.051524021 -0.092737779 0.0087174512 6.2874791e-39
0.057172097 -0.094133899 0.0027529337 6.5579353e-39
0.058979843 -0.094133899 0.0027529337 6.0954984e-39
-0.088927045 -0.12943362 -0.13926861 2.31411e-38
-0.086535439 -0.12850504 -0.13533089 2.3509883e-38
-0.08414863 -0.12755089 -0.13128492 2.3509883e-38
-0.081452966 -0.12566237 -0.12327668 2.350988e-38
-0.07758972 -0.12023942 -0.10028097 2.350988e-38
-0.075284526 -0.11928193 -0.096220702 2.3509883e-38
-0.072776154 -0.11765216 -0.089309782 2.3509886e-38
-0.070206448 -0.11575161 -0.081250519 2.2036209e-38
-0.067523509 -0.11339252 -0.071246833 1.9181395e-38
-0.065303728 -0.11245503 -0.067271441 1.660317e-38
-0.063099861 -0.11152427 -0.06332466 1.402459e-38
-0.060967699 -0.11079563 -0.060234871 1.3474667e-38
-0.058592722 -0.10915731 -0.053287592 1.2646716e-38
-0.056492582 -0.1084419 -0.050253954 1.2094267e-38
-0.054160148 -0.10680611 -0.043317523 1.1908799e-38
-0.052271634 -0.10680611 -0.043317523 1.1354185e-38
-0.050147846 -0.10586159 -0.03931221 1.199883e-38
-0.048266351 -0.10586159 -0.03931221 1.3934572e-38
-0.028733008 -0.090981558 0.023785982 2.0568636e-38
-0.026962142 -0.090981558 0.023785982 2.1304039e-38
0.01007591 -0.10444455 -0.033303346 2.2774843e-38
0.011946874 -0.10444455 -0.033303346 2.3142544e-38
0.013817837 -0.10444455 -0.033303346 2.3509168e-38
0.015696531 -0.10513772 -0.03624269 2.3508809e-38
0.017559763 -0.10444455 -0.033303346 2.314075e-38
0.019430727 -0.10444455 -0.033303346 2.2128766e-38
0.02132488 -0.10513772 -0.03624269 2.2315307e-38
0.023172654 -0.10444455 -0.033303346 1.7892488e-38
0.025043616 -0.10444455 -0.033303346 1.6789393e-38
0.026861411 -0.10349102 -0.029260006 1.5500826e-38
0.028725283 -0.10349102 -0.029260006 1.3658729e-38
0.030589158 -0.10349102 -0.029260006 1.2921894e-38
0.032342426 -0.10207425 -0.023252215 1.3752005e-38
0.034195766 -0.10207425 -0.023252215 1.2831498e-38
0.035894968 -0.10041572 -0.016219225 1.2278333e-38
0.03766641 -0.099722609 -0.01328012 1.2093585e-38
0.039502263 -0.099722609 -0.01328012 1.0802859e-38
0.047929447 -0.094535068 0.0087174512 7.487062e-39
0.049726736 -0.094535068 0.0087174512 6.1952526e-39
0.051524021 -0.094535068 0.0087174512 5.9165133e-39
0.053321306 -0.094535068 0.0087174512 4.993478e-39
0.055118594 -0.094535068 0.0087174512 6.3742489e-39
0.057172097 -0.095941633 0.0027529337 4.3437786e-39
0.058979843 -0.095941633 0.0027529337 5.7252613e-39
0.060787585 -0.095941633 0.0027529337 6.1855024e-39
0.062453639 -0.09524864 0.0056915618 5.1698945e-39
0.064256236 -0.09524864 0.0056915618 4.7078233e-39
0.066058822 -0.09524864 0.0056915618 4.7989288e-39
0.067861415 -0.09524864 0.0056915618 4.4290602e-39
-0.088927045 -0.13149039 -0.13926861 2.3417687e-38
-0.086535439 -0.13055487 -0.13533089 2.3509883e-38
-0.08414863 -0.12959366 -0.13128492 2.3418043e-38
-0.081452966 -0.12769108 -0.12327668 2.3509879e-38
-0.078783661 -0.1257834 -0.11524698 2.3509516e-38
-0.075284526 -0.12126322 -0.096220702 2.3415881e-38
-0.072776154 -0.11962132 -0.089309782 2.350916e-38
-0.069986865 -0.11700659 -0.078303903 2.3509886e-38
-0.067523509 -0.11533 -0.071246833 2.176142e-38
-0.065303728 -0.11438553 -0.067271441 1.9459423e-38
-0.063099861 -0.11344786 -0.06332466 1.6052526e-38
-0.060967699 -0.1127138 -0.060234871 1.4211867e-38
-0.05839327 -0.11034258 -0.050253954 1.2094262e-38
-0.056240335 -0.10940616 -0.046312418 1.163473e-38
-0.054160148 -0.10869466 -0.043317523 1.2094632e-38
-0.052271634 -0.10869466 -0.043317523 1.1079761e-38
-0.049967557 -0.10701384 -0.03624269 1.0525146e-38
-0.048091441 -0.10701384 -0.03624269 1.1077601e-38
-0.046215326 -0.10701384 -0.03624269 1.3013356e-38
-0.042096704 -0.097051233 0.0056915618 1.4580677e-38
-0.040294111 -0.097051233 0.0056915618 1.6424921e-38
-0.038189992 -0.095617667 0.011725698 1.6885533e-38
-0.036397979 -0.095617667 0.011725698 1.5594445e-38
-0.034605965 -0.095617667 0.011725698 1.4579922e-38
-0.030503877 -0.092752427 0.023785982 1.6606403e-38
-0.028612673 -0.092058569 0.026706491 1.8541058e-38
-0.02684693 -0.092058569 0.026706491 2.158134e-38
-0.025191277 -0.092752427 0.023785982 2.2316024e-38
0.008494243 -0.090635687 0.032695685 2.341805e-38
0.012004733 -0.090635687 0.032695685 2.3232944e-38
0.013759978 -0.090635687 0.032695685 2.3508092e-38
0.015515223 -0.090635687 0.032695685 2.3231151e-38
0.017572649 -0.10701384 -0.03624269 2.3509168e-38
0.019448765 -0.10701384 -0.03624269 2.2588661e-38
0.02132488 -0.10701384 -0.03624269 2.1391929e-38
0.023200998 -0.10701384 -0.03624269 1.3465656e-38
0.025043616 -0.10631551 -0.033303346 1.0978906e-38
0.02691458 -0.10631551 -0.033303346 9.3215565e-39
0.028725283 -0.10535492 -0.029260006 1.0060215e-38
0.029807137 -0.094200835 0.017689381 9.6010427e-39
0.031588696 -0.094200835 0.017689381 1.2091052e-38
0.034135714 -0.10322 -0.020273771 1.3289599e-38
0.035894968 -0.10225673 -0.016219225 1.4211542e-38
0.03766641 -0.10155846 -0.01328012 1.485726e-38
0.039094649 -0.097749382 0.0027529337 1.4119706e-38
0.040902399 -0.097749382 0.0027529337 1.5135278e-38
0.042625125 -0.097051233 0.0056915618 1.338574e-38
0.044427719 -0.097051233 0.0056915618 1.3570846e-38
0.046230309 -0.097051233 0.0056915618 1.1450378e-38
0.047929447 -0.096332356 0.0087174512 1.1449302e-38
0.049726736 -0.096332356 0.0087174512 1.1448585e-38
0.051524021 -0.096332356 0.0087174512 1.3014452e-38
0.053321306 -0.096332356 0.0087174512 1.0893257e-38
0.055118594 -0.096332356 0.0087174512 9.9694987e-39
0.056915879 -0.096332356 0.0087174512 1.1165517e-38
0.058713168 -0.096332356 0.0087174512 1.1625768e-38
0.060651049 -0.097051233 0.0056915618 1.245336e-38
0.062453639 -0.097051233 0.0056915618 9.2257862e-39
0.064256236 -0.097051233 0.0056915618 1.2081326e-38
0.066058822 -0.097051233 0.0056915618 1.1711817e-38
0.067861415 -0.097051233 0.0056915618 1.0235605e-38
0.069496885 -0.096332356 0.0087174512 5.072266e-39
0.071294174 -0.096332356 0.0087174512 2.7666074e-39
0.073091462 -0.096332356 0.0087174512 3.2275631e-39
-0.08414863 -0.1316364 -0.13128492 2.3049621e-38
-0.081452966 -0.12971978 -0.12327668 2.3509879e-38
-0.078783661 -0.12779804 -0.11524698 2.3509873e-38
-0.075601324 -0.12421621 -0.10028097 2.350987e-38
-0.073005363 -0.12230973 -0.092315048 2.3509869e-38
-0.069686845 -0.11799283 -0.07427761 2.3509873e-38
-0.067523509 -0.11726747 -0.071246833 2.2774479e-38
-0.065303728 -0.11631607 -0.067271441 2.1671382e-38
-0.063099861 -0.11537148 -0.06332466 1.8356683e-38
-0.060696706 -0.11367123 -0.056220498 1.5962854e-38
-0.058134109 -0.11129995 -0.046312418 1.4951956e-38
-0.056240335 -0.11129995 -0.046312418 1.3570833e-38
-0.054160148 -0.11058317 -0.043317523 1.1819482e-38
-0.052029356 -0.10962458 -0.03931221 1.0804614e-38
-0.049967557 -0.10888995 -0.03624269 1.0342915e-38
-0.048091441 -0.10888995 -0.03624269 1.0801741e-38
-0.044230685 -0.10028981 -0.00030848011 1.0432256e-38
-0.041934893 -0.098129645 0.0087174512 1.2367649e-38
-0.040137604 -0.098129645 0.0087174512 1.5410425e-38
-0.038189992 -0.09740968 0.011725698 1.6517115e-38
-0.035963014 -0.095250636 0.020746861 1.6240532e-38
-0.034045607 -0.094523281 0.023785982 1.5225667e-38
-0.032274738 -0.094523281 0.023785982 1.4856512e-38
-0.030503877 -0.094523281 0.023785982 1.7345061e-38
-0.028612673 -0.093824327 0.026706491 1.835812e-38
-0.02684693 -0.093824327 0.026706491 2.0477162e-38
-0.024739809 -0.091656998 0.035762284 2.1856847e-38
-0.02298994 -0.091656998 0.035762284 2.1948682e-38
-0.021240074 -0.091656998 0.035762284 2.2131993e-38
-0.019490205 -0.091656998 0.035762284 2.2775202e-38
0.0049601961 -0.093105495 0.029709969 2.3508442e-38
0.008494243 -0.092390925 0.032695685 2.3508446e-38
0.010249488 -0.092390925 0.032695685 2.3508807e-38
0.012004733 -0.092390925 0.032695685 2.3509165e-38
0.013759978 -0.092390925 0.032695685 2.3141456e-38
0.015530974 -0.093824327 0.026706491 2.2774116e-38
0.017283555 -0.093105495 0.029709969 2.2958873e-38
0.019080389 -0.094523281 0.023785982 2.2407501e-38
0.020851254 -0.094523281 0.023785982 2.2316024e-38
0.022622121 -0.094523281 0.023785982 2.0659398e-38
0.024392989 -0.094523281 0.023785982 1.9923638e-38
0.026203819 -0.095250636 0.020746861 1.8634353e-38
0.027980015 -0.095250636 0.020746861 1.9004207e-38
0.029807137 -0.095982388 0.017689381 1.4764689e-38
0.031588696 -0.095982388 0.017689381 1.4211525e-38
0.033370249 -0.095982388 0.017689381 1.559589e-38
0.035983831 -0.1050681 -0.020273771 1.5226754e-38
0.037145726 -0.098129645 0.0087174512 1.4765783e-38
0.038943015 -0.098129645 0.0087174512 1.4120424e-38
0.040822536 -0.098853827 0.0056915618 1.2185406e-38
0.042625125 -0.098853827 0.0056915618 1.0157844e-38
0.044427719 -0.098853827 0.0056915618 1.0342247e-38
0.046132162 -0.098129645 0.0087174512 1.0065657e-38
0.047929447 -0.098129645 0.0087174512 1.052627e-38
0.049618609 -0.09740968 0.011725698 1.2000674e-38
0.051297884 -0.096693933 0.014716301 1.2922257e-38
0.053084653 -0.096693933 0.014716301 1.3474705e-38
0.054871421 -0.096693933 0.014716301 1.4303377e-38
0.056786656 -0.09740968 0.011725698 1.5499391e-38
0.05857867 -0.09740968 0.011725698 1.3746617e-38
0.060651049 -0.098853827 0.0056915618 1.3928489e-38
0.062453639 -0.098853827 0.0056915618 9.8707996e-39
0.064105026 -0.098129645 0.0087174512 1.1435604e-38
0.065902315 -0.098129645 0.0087174512 1.1711112e-38
0.067699596 -0.098129645 0.0087174512 1.041965e-38
0.069496885 -0.098129645 0.0087174512 4.7953302e-39
0.071294174 -0.098129645 0.0087174512 2.6740586e-39
0.073091462 -0.098129645 0.0087174512 2.9509762e-39
0.074888751 -0.098129645 0.0087174512 2.766585e-39
-0.086535439 -0.13465457 -0.13533089 2.3509883e-38
-0.083813995 -0.1327105 -0.12726697 2.2773037e-38
-0.081129849 -0.13079311 -0.11931369 2.3142174e-38
-0.078151911 -0.12790357 -0.10732803 2.332548e-38
-0.075601324 -0.12620462 -0.10028097 2.3509507e-38
-0.073005363 -0.12428416 -0.092315048 2.3509866e-38
-0.069686845 -0.11993565 -0.07427761 2.3509867e-38
-0.067523509 -0.11920498 -0.071246833 2.2774111e-38
-0.065303728 -0.11824657 -0.067271441 2.2591531e-38
-0.063099861 -0.11729507 -0.06332466 2.1213639e-38
-0.060498729 -0.1148753 -0.053287592 1.780531e-38
-0.058134109 -0.11319371 -0.046312418 1.5688065e-38
-0.056048676 -0.11247168 -0.043317523 1.4123274e-38
-0.053910851 -0.11150609 -0.03931221 1.1727275e-38
-0.052029356 -0.11150609 -0.03931221 1.0067402e-38
-0.048618816 -0.10523017 -0.01328012 1.01596e-38
-0.046267867 -0.10305093 -0.0042407177 1.1817694e-38
-0.044230685 -0.10210292 -0.00030848011 1.0432982e-38
-0.041934893 -0.099926919 0.0087174512 1.0524103e-38
-0.039982006 -0.099201679 0.011725698 1.126202e-38
-0.038040556 -0.098480701 0.014716301 1.1815544e-38
-0.035963014 -0.09702684 0.020746861 1.3475054e-38
-0.034045607 -0.09629415 0.023785982 1.5318949e-38
-0.032144167 -0.09559007 0.026706491 1.6885533e-38
-0.030378416 -0.09559007 0.026706491 1.9927225e-38
-0.028612673 -0.09559007 0.026706491 1.9926866e-38
-0.02684693 -0.09559007 0.026706491 2.1213998e-38
-0.024739809 -0.093406871 0.035762284 2.158134e-38
-0.02298994 -0.093406871 0.035762284 2.1856847e-38
-0.021139219 -0.092695728 0.038712058 2.2132353e-38
-0.019394524 -0.092695728 0.038712058 2.2224189e-38
-0.017740339 -0.093406871 0.035762284 2.2499695e-38
-0.014486708 -0.09559007 0.026706491 2.341805e-38
-0.012644604 -0.094865978 0.029709969 2.3509527e-38
-0.010884121 -0.094865978 0.029709969 2.3509527e-38
-0.009123642 -0.094865978 0.029709969 2.3509527e-38
-0.0073631629 -0.094865978 0.029709969 2.3509527e-38
-0.0056026839 -0.094865978 0.029709969 2.3509527e-38
-0.0038422048 -0.094865978 0.029709969 2.3509527e-38
-0.002081722 -0.094865978 0.029709969 2.3509527e-38
-0.00032124296 -0.094865978 0.029709969 2.28638e-38
0.0014392361 -0.094865978 0.029709969 2.314039e-38
0.0031997152 -0.094865978 0.029709969 2.3232585e-38
0.0049601961 -0.094865978 0.029709969 2.3324421e-38
0.006738998 -0.094146177 0.032695685 2.3509168e-38
0.008494243 -0.094146177 0.032695685 2.3509168e-38
0.010249488 -0.094146177 0.032695685 2.3509168e-38
0.012004733 -0.094146177 0.032695685 2.2864526e-38
0.013765229 -0.09559007 0.026706491 2.2775202e-38
0.015530974 -0.09559007 0.026706491 2.2316024e-38
0.017283555 -0.094865978 0.029709969 2.2224189e-38
0.019044034 -0.094865978 0.029709969 2.1212563e-38
0.020804515 -0.094865978 0.029709969 2.0937057e-38
0.022622121 -0.09629415 0.023785982 1.8726548e-38
0.024392989 -0.09629415 0.023785982 1.7713487e-38
0.026203819 -0.09702684 0.020746861 1.6423483e-38
0.027980015 -0.09702684 0.020746861 1.2828943e-38
0.029756211 -0.09702684 0.020746861 9.0500101e-39
0.031588696 -0.097763941 0.017689381 8.2209739e-39
0.033370249 -0.097763941 0.017689381 8.6826779e-39
0.035151806 -0.097763941 0.017689381 7.1149977e-39
0.037074521 -0.099201679 0.011725698 5.4558393e-39
0.038943015 -0.099926919 0.0087174512 4.5338858e-39
0.0407403 -0.099926919 0.0087174512 2.9662111e-39
0.042537585 -0.099926919 0.0087174512 3.3353762e-39
0.044334874 -0.099926919 0.0087174512 2.9669608e-39
0.046132162 -0.099926919 0.0087174512 1.6765765e-39
0.047929447 -0.099926919 0.0087174512 7.542545e-40
0.049618609 -0.099201679 0.011725698 7.5388736e-40
0.051297884 -0.098480701 0.014716301 2.0106671e-40
0.053084653 -0.098480701 0.014716301 1.4514649e-41
0.054871421 -0.098480701 0.014716301 1.0634874e-40
0.05665819 -0.098480701 0.014716301 9.3503041e-40
0.05857867 -0.099201679 0.011725698 1.9494444e-40
0.060510453 -0.099926919 0.0087174512 1.2998543e-39
0.062307741 -0.099926919 0.0087174512 3.7537983e-40
0.064105026 -0.099926919 0.0087174512 1.7572325e-39
0.065902315 -0.099926919 0.0087174512 2.1245731e-39
0.067699596 -0.099926919 0.0087174512 3.2294801e-39
0.069496885 -0.099926919 0.0087174512 2.3067727e-39
0.071294174 -0.099926919 0.0087174512 3.2279513e-39
0.073091462 -0.099926919 0.0087174512 3.6885413e-39
0.074888751 -0.099926919 0.0087174512 3.4119544e-39
-0.086535439 -0.13670443 -0.13533089 2.3509883e-38
-0.083813995 -0.13474621 -0.12726697 2.3418047e-38
-0.081129849 -0.13281487 -0.11931369 2.3141816e-38
-0.078151911 -0.12990431 -0.10732803 2.3509876e-38
-0.075601324 -0.12819304 -0.10028097 2.3417673e-38
-0.073005363 -0.1262586 -0.092315048 2.3509866e-38
-0.069986865 -0.12285618 -0.078303903 2.3509866e-38
-0.067523509 -0.12114246 -0.071246833 2.2497875e-38
-0.065303728 -0.12017711 -0.067271441 2.286703e-38
-0.062607855 -0.11749353 -0.056220498 2.1672813e-38
-0.060498729 -0.11678131 -0.053287592 2.0753027e-38
-0.05793719 -0.1143602 -0.043317523 1.8819817e-38
-0.055792347 -0.11338757 -0.03931221 1.6148677e-38
-0.053910851 -0.11338757 -0.03931221 1.3384261e-38
-0.050454676 -0.10706602 -0.01328012 1.1449243e-38
-0.048263833 -0.10559841 -0.0072364472 1.062093e-38
-0.046267867 -0.10487093 -0.0042407177 1.052803e-38
-0.044061601 -0.10317262 0.0027529337 1.0986862e-38
-0.041934893 -0.10172421 0.0087174512 1.0433335e-38
-0.039982006 -0.10099369 0.011725698 1.0248941e-38
-0.037891984 -0.099545494 0.017689381 9.8805134e-39
-0.035963014 -0.098803028 0.020746861 1.1540385e-38
-0.033909917 -0.097355813 0.026706491 1.421369e-38
-0.032009885 -0.096626461 0.029709969 1.5965026e-38
-0.030121148 -0.095901415 0.032695685 1.8546105e-38
-0.028239544 -0.095156729 0.035762284 1.9651719e-38
-0.026489679 -0.095156729 0.035762284 2.0295643e-38
-0.024628613 -0.094440416 0.038712058 2.0846656e-38
-0.022883918 -0.094440416 0.038712058 2.1213998e-38
-0.021139219 -0.094440416 0.038712058 2.1213998e-38
-0.019394524 -0.094440416 0.038712058 2.1121804e-38
-0.017740339 -0.095156729 0.035762284 2.1397669e-38
-0.01599047 -0.095156729 0.035762284 2.1856847e-38
-0.014323942 -0.095901415 0.032695685 2.1580981e-38
-0.012644604 -0.096626461 0.029709969 2.2040518e-38
-0.010884121 -0.096626461 0.029709969 2.2132353e-38
-0.009123642 -0.096626461 0.029709969 2.2132353e-38
-0.0073631629 -0.096626461 0.029709969 2.2132353e-38
-0.0056026839 -0.096626461 0.029709969 2.2040518e-38
-0.0038422048 -0.096626461 0.029709969 2.2132353e-38
-0.002081722 -0.096626461 0.029709969 2.2132353e-38
-0.00032124296 -0.096626461 0.029709969 2.2132353e-38
0.0014392361 -0.096626461 0.029709969 2.2132353e-38
0.0031997152 -0.096626461 0.029709969 2.2040518e-38
0.0049601961 -0.096626461 0.029709969 2.1764294e-38
0.006738998 -0.095901415 0.032695685 2.1579905e-38
0.008494243 -0.095901415 0.032695685 2.0842351e-38
0.010265311 -0.094440416 0.038712058 1.9274691e-38
0.012010008 -0.094440416 0.038712058 1.7524424e-38
0.013754703 -0.094440416 0.038712058 1.4945479e-38
0.015523076 -0.096626461 0.029709969 1.3656549e-38
0.017283555 -0.096626461 0.029709969 1.3288129e-38
0.019044034 -0.096626461 0.029709969 1.1721528e-38
0.020804515 -0.096626461 0.029709969 1.1629701e-38
0.022564996 -0.096626461 0.029709969 9.5102862e-39
0.024392989 -0.098065019 0.023785982 8.4053848e-39
0.026163854 -0.098065019 0.023785982 6.9306204e-39
0.027934723 -0.098065019 0.023785982 6.7469564e-39
0.029756211 -0.098803028 0.020746861 4.4424314e-39
0.031588696 -0.099545494 0.017689381 4.3506001e-39
0.033370249 -0.099545494 0.017689381 4.8123042e-39
0.035151806 -0.099545494 0.017689381 3.5212094e-39
0.037003733 -0.10026747 0.014716301 2.3233865e-39
0.038790502 -0.10026747 0.014716301 2.0464437e-39
0.040658548 -0.10099369 0.011725698 1.2166858e-39
0.042450558 -0.10099369 0.011725698 8.4790608e-40
0.044242572 -0.10099369 0.011725698 5.7239539e-40
0.046132162 -0.10172421 0.0087174512 1.7778274e-41
0.047929447 -0.10172421 0.0087174512 1.5972e-41
0.049618609 -0.10099369 0.011725698 1.740693e-41
0.051297884 -0.10026747 0.014716301 1.668386e-41
0.053084653 -0.10026747 0.014716301 1.4884592e-41
0.054871421 -0.10026747 0.014716301 1.5964993e-41
0.05665819 -0.10026747 0.014716301 1.3806994e-41
0.05857867 -0.10099369 0.011725698 1.2369262e-41
0.06037068 -0.10099369 0.011725698 1.9676052e-40
0.062307741 -0.10172421 0.0087174512 3.7863085e-40
0.063954711 -0.10099369 0.011725698 8.3888172e-40
0.065746717 -0.10099369 0.011725698 8.3743698e-40
0.067699596 -0.10172421 0.0087174512 2.1270884e-39
0.069496885 -0.10172421 0.0087174512 3.4159971e-39
0.071294174 -0.10172421 0.0087174512 3.2290303e-39
0.073091462 -0.10172421 0.0087174512 3.9647652e-39
0.074888751 -0.10172421 0.0087174512 3.780374e-39
-0.088585287 -0.13875429 -0.13533089 2.3509886e-38
-0.086191386 -0.13776468 -0.13128492 2.341805e-38
-0.083813995 -0.13678192 -0.12726697 2.2957431e-38
-0.081129849 -0.13483663 -0.11931369 2.3234015e-38
-0.078471869 -0.13288604 -0.1113387 2.3049978e-38
-0.075601324 -0.13018142 -0.10028097 1.5121151e-38
-0.073005363 -0.12823303 -0.092315048 9.4053752e-39
-0.069986865 -0.12480606 -0.078303903 8.3912218e-39
-0.067523509 -0.12307997 -0.071246833 1.1894656e-38
-0.065303728 -0.12210761 -0.067271441 1.8349429e-38
-0.062194631 -0.11794533 -0.050253954 2.1208581e-38
-0.060027882 -0.11698125 -0.046312418 2.2499694e-38
-0.05793719 -0.11624874 -0.043317523 2.1856847e-38
-0.055792347 -0.11526908 -0.03931221 1.9555574e-38
-0.052725837 -0.11061247 -0.020273771 1.6423821e-38
-0.050089091 -0.10742365 -0.0072364472 1.3199508e-38
-0.048263833 -0.10742365 -0.0072364472 1.1357048e-38
-0.046267867 -0.10669093 -0.0042407177 1.0067402e-38
-0.043732181 -0.10352151 0.0087174512 1.0342561e-38
-0.041614093 -0.10205424 0.014716301 1.0895381e-38
-0.039515406 -0.10057923 0.020746861 1.1079773e-38
-0.037739202 -0.10057923 0.020746861 9.5128029e-39
-0.035816476 -0.099835888 0.023785982 9.3284088e-39
-0.03377036 -0.098386943 0.029709969 1.0434755e-38
-0.031876385 -0.097656667 0.032695685 1.1448541e-38
-0.030121148 -0.097656667 0.032695685 1.3661592e-38
-0.028239544 -0.096906602 0.035762284 1.283075e-38
-0.026489679 -0.096906602 0.035762284 1.2738193e-38
-0.024628613 -0.096185118 0.038712058 1.2921862e-38
-0.022883918 -0.096185118 0.038712058 1.3657985e-38
-0.021240074 -0.096906602 0.035762284 1.3749461e-38
-0.019490205 -0.096906602 0.035762284 1.3564351e-38
-0.017740339 -0.096906602 0.035762284 1.3932414e-38
-0.01599047 -0.096906602 0.035762284 1.4486304e-38
-0.014323942 -0.097656667 0.032695685 1.4026043e-38
-0.012644604 -0.098386943 0.029709969 1.4303706e-38
-0.010884121 -0.098386943 0.029709969 1.4672489e-38
-0.009123642 -0.098386943 0.029709969 1.4672489e-38
-0.0073631629 -0.098386943 0.029709969 1.4396258e-38
-0.0056026839 -0.098386943 0.029709969 1.4211867e-38
-0.0038422048 -0.098386943 0.029709969 1.4304062e-38
-0.002081722 -0.098386943 0.029709969 1.4580649e-38
-0.00032124296 -0.098386943 0.029709969 1.4580293e-38
0.0014392361 -0.098386943 0.029709969 1.4211514e-38
0.0031997152 -0.098386943 0.029709969 1.3842732e-38
0.0049601961 -0.098386943 0.029709969 1.3750181e-38
0.006738998 -0.097656667 0.032695685 1.3750181e-38
0.008494243 -0.097656667 0.032695685 1.3104814e-38
0.010265311 -0.096185118 0.038712058 1.1814078e-38
0.012010008 -0.096185118 0.038712058 1.0432234e-38
0.013754703 -0.096185118 0.038712058 1.0802471e-38
0.015515223 -0.097656667 0.032695685 9.6961362e-39
0.017283555 -0.098386943 0.029709969 9.1440428e-39
0.019044034 -0.098386943 0.029709969 7.9451437e-39
0.020804515 -0.098386943 0.029709969 8.4068435e-39
0.022564996 -0.098386943 0.029709969 6.9320778e-39
0.024392989 -0.099835888 0.023785982 6.1952358e-39
0.026163854 -0.099835888 0.023785982 4.9048627e-39
0.027934723 -0.099835888 0.023785982 5.2732907e-39
0.029756211 -0.10057923 0.020746861 3.6144952e-39
0.031532407 -0.10057923 0.020746861 3.4301068e-39
0.033308603 -0.10057923 0.020746861 3.707058e-39
0.035151806 -0.10132705 0.017689381 2.6929089e-39
0.036933362 -0.10132705 0.017689381 1.7713155e-39
0.038714916 -0.10132705 0.017689381 1.6791213e-39
0.04057727 -0.10205424 0.014716301 1.4025302e-39
0.042364039 -0.10205424 0.014716301 1.1255776e-39
0.044150811 -0.10205424 0.014716301 1.2181277e-39
0.046034582 -0.10278571 0.011725698 3.8908033e-40
0.047826596 -0.10278571 0.011725698 2.05045e-40
0.049618609 -0.10278571 0.011725698 9.422457e-40
0.051297884 -0.10205424 0.014716301 1.0344413e-39
0.053084653 -0.10205424 0.014716301 7.5749851e-40
0.054871421 -0.10205424 0.014716301 1.2177592e-39
0.05665819 -0.10205424 0.014716301 5.7095065e-40
0.05857867 -0.10278571 0.011725698 1.5833047e-39
0.06037068 -0.10278571 0.011725698 1.1205259e-39
0.062307741 -0.10352151 0.0087174512 1.1190784e-39
0.063954711 -0.10278571 0.011725698 1.6711619e-39
0.065746717 -0.10278571 0.011725698 2.6842236e-39
0.067538731 -0.10278571 0.011725698 2.8678876e-39
0.069330744 -0.10278571 0.011725698 2.6802257e-39
0.071122751 -0.10278571 0.011725698 3.0446362e-39
0.072914764 -0.10278571 0.011725698 3.8725696e-39
0.074706778 -0.10278571 0.011725698 4.056242e-39
-0.088585287 -0.14080413 -0.13533089 2.3233662e-38
-0.086191386 -0.13980745 -0.13128492 2.3325856e-38
-0.083813995 -0.13881765 -0.12726697 2.3509886e-38
-0.081129849 -0.13685839 -0.11931369 2.3509886e-38
-0.078471869 -0.13489382 -0.1113387 2.341805e-38
-0.076151162 -0.13390581 -0.10732803 1.0419901e-38
-0.073612928 -0.13216983 -0.10028097 1.9378991e-39
-0.07103093 -0.13020746 -0.092315048 1.3850784e-39
-0.069056511 -0.13020746 -0.092315048 5.62499e-39
-0.064519003 -0.12131582 -0.056220498 1.2631492e-38
-0.062194631 -0.119846 -0.050253954 1.9913866e-38
-0.060027882 -0.11887501 -0.046312418 2.3049242e-38
-0.05793719 -0.11813726 -0.043317523 2.3326201e-38
-0.055792347 -0.11715056 -0.03931221 2.240786e-38
-0.052473471 -0.11146177 -0.016219225 1.9554134e-38
-0.050089091 -0.10924892 -0.0072364472 1.5224559e-38
-0.048263833 -0.10924892 -0.0072364472 1.3107314e-38
-0.046267867 -0.10851096 -0.0042407177 1.200242e-38
-0.043732181 -0.1053188 0.0087174512 1.0435105e-38
-0.041614093 -0.10384102 0.014716301 1.108048e-38
-0.039515406 -0.10235542 0.020746861 1.1264872e-38
-0.037587345 -0.10160676 0.023785982 9.0528996e-39
-0.035816476 -0.10160676 0.023785982 8.3153345e-39
-0.03377036 -0.10014741 0.029709969 8.9607053e-39
-0.031876385 -0.099411905 0.032695685 9.6986305e-39
-0.030121148 -0.099411905 0.032695685 1.2095717e-38
-0.028365899 -0.099411905 0.032695685 1.2003161e-38
-0.026489679 -0.098656476 0.035762284 1.1357792e-38
-0.024739809 -0.098656476 0.035762284 1.1448908e-38
-0.02298994 -0.098656476 0.035762284 1.1909168e-38
-0.021240074 -0.098656476 0.035762284 1.2000284e-38
-0.019490205 -0.098656476 0.035762284 1.163114e-38
-0.017740339 -0.098656476 0.035762284 1.1815531e-38
-0.01599047 -0.098656476 0.035762284 1.2369067e-38
-0.014323942 -0.099411905 0.032695685 1.1266678e-38
-0.012644604 -0.10014741 0.029709969 1.1452511e-38
-0.010813452 -0.099411905 0.032695685 1.1913486e-38
-0.0090582073 -0.099411905 0.032695685 1.1913486e-38
-0.0073631629 -0.10014741 0.029709969 1.1636897e-38
-0.0056026839 -0.10014741 0.029709969 1.1452505e-38
-0.0038422048 -0.10014741 0.029709969 1.1636897e-38
-0.002081722 -0.10014741 0.029709969 1.1821288e-38
-0.00032124296 -0.10014741 0.029709969 1.1544704e-38
0.0014392361 -0.10014741 0.029709969 1.1452511e-38
0.0031997152 -0.10014741 0.029709969 1.135996e-38
0.0049601961 -0.10014741 0.029709969 1.1359961e-38
0.006720677 -0.10014741 0.029709969 1.1359964e-38
0.0084811561 -0.10014741 0.029709969 1.1083021e-38
0.010257553 -0.098656476 0.035762284 1.0714241e-38
0.012007421 -0.098656476 0.035762284 1.0529495e-38
0.013759978 -0.099411905 0.032695685 9.9770503e-39
0.015515223 -0.099411905 0.032695685 8.8703482e-39
0.01729672 -0.1008873 0.026706491 8.5937641e-39
0.019044034 -0.10014741 0.029709969 7.4874166e-39
0.020804515 -0.10014741 0.029709969 8.2249844e-39
0.022564996 -0.10014741 0.029709969 7.2108325e-39
0.024392989 -0.10160676 0.023785982 6.8424115e-39
0.026163854 -0.10160676 0.023785982 5.7360667e-39
0.027934723 -0.10160676 0.023785982 6.0123005e-39
0.029705588 -0.10160676 0.023785982 4.8137601e-39
0.031532407 -0.10235542 0.020746861 4.0758377e-39
0.033308603 -0.10235542 0.020746861 3.7077769e-39
0.035084795 -0.10235542 0.020746861 3.0620515e-39
0.036860991 -0.10235542 0.020746861 2.3255655e-39
0.038714916 -0.1031086 0.017689381 2.141177e-39
0.040496472 -0.1031086 0.017689381 2.1400952e-39
0.042364039 -0.10384102 0.014716301 2.3244781e-39
0.044150811 -0.10384102 0.014716301 2.3244725e-39
