# .PCD v0.7 - Point Cloud Data file format
VERSION 0.7
FIELDS x y z rgb
SIZE 4 4 4 4
TYPE F F F F
COUNT 1 1 1 1
WIDTH 949
HEIGHT 1
VIEWPOINT 0 0 0 1 0 0 0
POINTS 949
DATA ascii
0.0447203 -0.12803085 0.023513772 2.3509883e-38
0.046414442 -0.12726043 0.026452877 2.3509883e-38
0.048250295 -0.12726043 0.026452877 2.3509883e-38
0.050086148 -0.12726043 0.026452877 2.3509527e-38
0.051922008 -0.12726043 0.026452877 2.3509527e-38
0.053757861 -0.12726043 0.026452877 2.3509886e-38
0.055593722 -0.12726043 0.026452877 2.3509886e-38
0.057246253 -0.12646608 0.029483415 2.3509886e-38
0.059076801 -0.12646608 0.029483415 2.3509886e-38
0.060907342 -0.12646608 0.029483415 2.3509886e-38
0.062737882 -0.12646608 0.029483415 2.3509886e-38
0.064568423 -0.12646608 0.029483415 2.3509886e-38
0.066398963 -0.12646608 0.029483415 2.3509886e-38
0.068015546 -0.12567626 0.032496549 2.3509886e-38
0.069840804 -0.12567626 0.032496549 2.3509886e-38
0.071666062 -0.12567626 0.032496549 2.3509886e-38
0.073491327 -0.12567626 0.032496549 2.3509886e-38
0.075316586 -0.12567626 0.032496549 2.3509886e-38
0.077141844 -0.12567626 0.032496549 2.3509886e-38
0.078967102 -0.12567626 0.032496549 2.3509886e-38
0.08079236 -0.12567626 0.032496549 2.3509886e-38
0.082617618 -0.12567626 0.032496549 2.3509886e-38
0.084442876 -0.12567626 0.032496549 2.3509886e-38
0.086268149 -0.12567626 0.032496549 2.3509886e-38
0.087822892 -0.124891 0.035492279 2.3509886e-38
0.089642905 -0.124891 0.035492279 2.3509886e-38
0.091462918 -0.124891 0.035492279 2.3509886e-38
0.092907168 -0.12386028 0.039424516 2.3509886e-38
0.094720282 -0.12386028 0.039424516 2.3509886e-38
0.096533395 -0.12386028 0.039424516 2.3509886e-38
0.098346509 -0.12386028 0.039424516 2.3233299e-38
0.10015961 -0.12386028 0.039424516 2.3509886e-38
0.10197272 -0.12386028 0.039424516 2.3509886e-38
0.10378584 -0.12386028 0.039424516 2.341769e-38
0.10559895 -0.12386028 0.039424516 1.9729865e-38
0.10707658 -0.1230578 0.04248593 1.6687409e-38
0.10855716 -0.12228753 0.045424558 1.1433697e-38
0.11035974 -0.12228753 0.045424558 8.5781494e-39
0.11216233 -0.12228753 0.045424558 3.7309852e-40
0.11430756 -0.1230578 0.04248593 3.9558656e-42
-0.11579827 -0.14042725 -0.016487502 1.0878717e-38
-0.11388712 -0.14042725 -0.016487502 1.1616282e-38
-0.11197598 -0.14042725 -0.016487502 1.5857283e-38
-0.11006483 -0.14042725 -0.016487502 2.350988e-38
-0.10815369 -0.14042725 -0.016487502 2.3509883e-38
-0.10597257 -0.13965334 -0.013554596 2.3509527e-38
-0.10379265 -0.13885282 -0.010520958 2.3509168e-38
-0.10189196 -0.13885282 -0.010520958 2.3509527e-38
-0.099991269 -0.13885282 -0.010520958 2.3509168e-38
-0.098090582 -0.13885282 -0.010520958 2.3509527e-38
-0.095861636 -0.13781275 -0.0065794224 2.3509886e-38
-0.093967862 -0.13781275 -0.0065794224 2.3509886e-38
-0.092074104 -0.13781275 -0.0065794224 2.3509886e-38
-0.08994665 -0.13702248 -0.0035845274 2.3509886e-38
-0.088058136 -0.13702248 -0.0035845274 2.3509886e-38
-0.086169608 -0.13702248 -0.0035845274 2.3509886e-38
-0.084281094 -0.13702248 -0.0035845274 2.3509886e-38
-0.082392566 -0.13702248 -0.0035845274 2.3509886e-38
-0.080504052 -0.13702248 -0.0035845274 2.3509886e-38
-0.078615524 -0.13702248 -0.0035845274 2.3509886e-38
-0.076726995 -0.13702248 -0.0035845274 2.3509886e-38
-0.074838482 -0.13702248 -0.0035845274 2.3509886e-38
-0.072949953 -0.13702248 -0.0035845274 2.3509886e-38
-0.070819162 -0.13596557 0.00042078551 2.3509886e-38
-0.068937652 -0.13596557 0.00042078551 2.3509886e-38
-0.067056157 -0.13596557 0.00042078551 2.3509886e-38
-0.065174662 -0.13596557 0.00042078551 2.3509886e-38
-0.063129015 -0.13515557 0.0034903055 2.3509886e-38
-0.061252899 -0.13515557 0.0034903055 2.3509886e-38
-0.059376784 -0.13515557 0.0034903055 2.3509886e-38
-0.057500668 -0.13515557 0.0034903055 2.3509886e-38
-0.055624552 -0.13515557 0.0034903055 2.3509886e-38
-0.053748429 -0.13515557 0.0034903055 2.3509886e-38
-0.051746048 -0.13437997 0.006429649 2.3509886e-38
-0.049875088 -0.13437997 0.006429649 2.3509886e-38
-0.047844611 -0.13331302 0.01047299 2.3141103e-38
-0.045980737 -0.13331302 0.01047299 2.3509883e-38
-0.04411687 -0.13331302 0.01047299 2.3048905e-38
-0.042252995 -0.13331302 0.01047299 2.350988e-38
-0.040389121 -0.13331302 0.01047299 2.350988e-38
-0.038525246 -0.13331302 0.01047299 1.6226784e-38
-0.036661372 -0.13331302 0.01047299 9.4356432e-41
-0.034907378 -0.13437997 0.006429649 4.6748017e-40
-0.033036418 -0.13437997 0.006429649 1.6663877e-39
-0.031165453 -0.13437997 0.006429649 1.0192092e-39
-0.02935891 -0.13515557 0.0034903055 4.8888977e-39
-0.027482795 -0.13515557 0.0034903055 7.7444329e-39
-0.025606679 -0.13515557 0.0034903055 1.4657299e-38
-0.023730563 -0.13515557 0.0034903055 1.4840967e-38
-0.021810638 -0.13437997 0.006429649 1.4379267e-38
-0.019939678 -0.13437997 0.006429649 1.1152067e-38
-0.01806871 -0.13437997 0.006429649 1.287499e-39
-0.01619775 -0.13437997 0.006429649 4.5917888e-40
-0.014326787 -0.13437997 0.006429649 3.1321403e-39
-0.012455823 -0.13437997 0.006429649 6.8188879e-39
-0.010584859 -0.13437997 0.006429649 8.1096267e-39
-0.0087032635 -0.13331302 0.01047299 8.292939e-39
-0.006839389 -0.13331302 0.01047299 8.7549961e-39
-0.0049755145 -0.13331302 0.01047299 6.6377336e-39
-0.00311164 -0.13331302 0.01047299 1.8512834e-40
-0.0012477674 -0.13331302 0.01047299 1.1070258e-42
0.00059762038 -0.1325181 0.013485408 8.3086489e-40
0.0024562124 -0.1325181 0.013485408 3.8740255e-39
0.0042859195 -0.13172771 0.016480781 3.8743773e-39
0.0061392598 -0.13172771 0.016480781 6.5480505e-39
0.0079926001 -0.13172771 0.016480781 5.0725687e-39
0.0098459404 -0.13172771 0.016480781 4.2413885e-39
0.01164967 -0.13094176 0.019459225 1.2896991e-39
0.013497787 -0.13094176 0.019459225 1.2886173e-39
0.015345905 -0.13094176 0.019459225 2.2094833e-39
0.017259302 -0.13172771 0.016480781 1.563737e-39
0.019042142 -0.13094176 0.019459225 3.0377867e-39
0.02089026 -0.13094176 0.019459225 2.5753778e-39
0.022738378 -0.13094176 0.019459225 1.5619531e-39
0.024586495 -0.13094176 0.019459225 2.4857143e-39
0.026434613 -0.13094176 0.019459225 2.8552157e-39
0.02828273 -0.13094176 0.019459225 3.6853295e-39
0.029992225 -0.12987186 0.023513772 1.2893179e-39
0.031833231 -0.12987186 0.023513772 5.5210879e-40
0.03367424 -0.12987186 0.023513772 1.6501947e-38
0.035515249 -0.12987186 0.023513772 2.3509168e-38
0.037356257 -0.12987186 0.023513772 2.3509167e-38
0.039197274 -0.12987186 0.023513772 2.3509883e-38
0.041038282 -0.12987186 0.023513772 2.350988e-38
0.042879291 -0.12987186 0.023513772 2.350988e-38
0.0447203 -0.12987186 0.023513772 2.3509883e-38
0.046414442 -0.12909628 0.026452877 2.3509524e-38
0.048250295 -0.12909628 0.026452877 2.3509527e-38
0.050086148 -0.12909628 0.026452877 2.3509168e-38
0.051922008 -0.12909628 0.026452877 2.3509527e-38
0.053757861 -0.12909628 0.026452877 2.3509886e-38
0.055593722 -0.12909628 0.026452877 2.3509886e-38
0.057246253 -0.1282966 0.029483415 2.3509886e-38
0.059076801 -0.1282966 0.029483415 2.3509886e-38
0.060907342 -0.1282966 0.029483415 2.3509886e-38
0.062737882 -0.1282966 0.029483415 2.3509886e-38
0.064568423 -0.1282966 0.029483415 2.3509886e-38
0.066190287 -0.1275015 0.032496549 2.3509886e-38
0.068015546 -0.1275015 0.032496549 2.3509886e-38
0.06962283 -0.126711 0.035492279 2.3509886e-38
0.071442835 -0.126711 0.035492279 2.3509886e-38
0.073491327 -0.1275015 0.032496549 2.3509886e-38
0.075316586 -0.1275015 0.032496549 2.3509886e-38
0.077141844 -0.1275015 0.032496549 2.3509886e-38
0.078967102 -0.1275015 0.032496549 2.3509886e-38
0.08079236 -0.1275015 0.032496549 2.3509886e-38
0.082617618 -0.1275015 0.032496549 2.3509883e-38
0.084442876 -0.1275015 0.032496549 2.3509883e-38
0.086268149 -0.1275015 0.032496549 2.3509883e-38
0.088093407 -0.1275015 0.032496549 2.3509883e-38
0.089642905 -0.126711 0.035492279 2.3509883e-38
0.091462918 -0.126711 0.035492279 2.3509883e-38
0.092907168 -0.1256734 0.039424516 2.3509883e-38
0.094720282 -0.1256734 0.039424516 2.3509883e-38
0.096533395 -0.1256734 0.039424516 2.3509883e-38
0.098346509 -0.1256734 0.039424516 2.31411e-38
0.099845611 -0.12486555 0.04248593 2.3509883e-38
0.10165334 -0.12486555 0.04248593 2.3509883e-38
0.10378584 -0.1256734 0.039424516 2.3417687e-38
0.10559895 -0.1256734 0.039424516 1.9268884e-38
0.10741206 -0.1256734 0.039424516 1.6503015e-38
0.10888433 -0.12486555 0.04248593 1.2079423e-38
0.11069208 -0.12486555 0.04248593 8.6703451e-39
0.11249981 -0.12486555 0.04248593 3.7309852e-40
0.11430756 -0.12486555 0.04248593 1.8834713e-40
-0.11579827 -0.14233841 -0.016487502 1.0786522e-38
-0.11388712 -0.14233841 -0.016487502 1.3183608e-38
-0.11197598 -0.14233841 -0.016487502 1.5949478e-38
-0.10978457 -0.14155935 -0.013554596 2.350988e-38
-0.10787857 -0.14155935 -0.013554596 2.3509527e-38
-0.10597257 -0.14155935 -0.013554596 2.3509527e-38
-0.10379265 -0.14075352 -0.010520958 2.3416974e-38
-0.10189196 -0.14075352 -0.010520958 2.3509527e-38
-0.099991269 -0.14075352 -0.010520958 2.3509168e-38
-0.098090582 -0.14075352 -0.010520958 2.3509527e-38
-0.095861636 -0.13970654 -0.0065794224 2.3509886e-38
-0.093967862 -0.13970654 -0.0065794224 2.3509886e-38
-0.092074104 -0.13970654 -0.0065794224 2.3509886e-38
-0.08994665 -0.13891099 -0.0035845274 2.3509886e-38
-0.088058136 -0.13891099 -0.0035845274 2.3509886e-38
-0.086169608 -0.13891099 -0.0035845274 2.3509886e-38
-0.084281094 -0.13891099 -0.0035845274 2.3509886e-38
-0.082392566 -0.13891099 -0.0035845274 2.3509886e-38
-0.080504052 -0.13891099 -0.0035845274 2.3509886e-38
-0.078615524 -0.13891099 -0.0035845274 2.3509886e-38
-0.076726995 -0.13891099 -0.0035845274 2.3509886e-38
-0.074838482 -0.13891099 -0.0035845274 2.3509886e-38
-0.072949953 -0.13891099 -0.0035845274 2.3509886e-38
-0.070819162 -0.13784705 0.00042078551 2.3509886e-38
-0.068937652 -0.13784705 0.00042078551 2.3509886e-38
-0.066881247 -0.13703169 0.0034903055 2.3509886e-38
-0.065005131 -0.13703169 0.0034903055 2.3509886e-38
-0.063129015 -0.13703169 0.0034903055 2.3509886e-38
-0.061252899 -0.13703169 0.0034903055 2.3509886e-38
-0.059376784 -0.13703169 0.0034903055 2.3509886e-38
-0.057500668 -0.13703169 0.0034903055 2.3509886e-38
-0.055624552 -0.13703169 0.0034903055 2.3509886e-38
-0.053748429 -0.13703169 0.0034903055 2.3509886e-38
-0.051746048 -0.13625093 0.006429649 2.3509886e-38
-0.049875088 -0.13625093 0.006429649 2.3509886e-38
-0.047844611 -0.13517688 0.01047299 2.2956712e-38
-0.045980737 -0.13517688 0.01047299 2.3509883e-38
-0.04411687 -0.13517688 0.01047299 2.3417687e-38
-0.042252995 -0.13517688 0.01047299 2.31411e-38
-0.040389121 -0.13517688 0.01047299 2.3141456e-38
-0.038525246 -0.13517688 0.01047299 1.7056189e-38
-0.036661372 -0.13517688 0.01047299 7.2447131e-43
-0.034797497 -0.13517688 0.01047299 4.7055602e-42
-0.032933623 -0.13517688 0.01047299 1.5752781e-39
-0.03106975 -0.13517688 0.01047299 9.2773946e-40
-0.029294493 -0.13625093 0.006429649 5.2584047e-39
-0.027423529 -0.13625093 0.006429649 7.5600445e-39
-0.025552565 -0.13625093 0.006429649 1.5763646e-38
-0.023681602 -0.13625093 0.006429649 1.6223183e-38
-0.021810638 -0.13625093 0.006429649 1.6406852e-38
-0.019939678 -0.13625093 0.006429649 1.3456598e-38
-0.01806871 -0.13625093 0.006429649 1.9325083e-39
-0.016158758 -0.13517688 0.01047299 1.7495618e-39
-0.014294883 -0.13517688 0.01047299 5.805815e-39
-0.012455823 -0.13625093 0.006429649 9.0330249e-39
-0.010584859 -0.13625093 0.006429649 9.6776783e-39
-0.0087032635 -0.13517688 0.01047299 9.2167001e-39
-0.006839389 -0.13517688 0.01047299 9.4940059e-39
-0.0049755145 -0.13517688 0.01047299 6.7299321e-39
-0.00311164 -0.13517688 0.01047299 7.3865525e-40
-0.0012477674 -0.13517688 0.01047299 1.1992817e-39
0.00059762038 -0.13437669 0.013485408 6.8235696e-39
0.0024325792 -0.13358103 0.016480781 8.2994018e-39
0.0042859195 -0.13358103 0.016480781 8.2997479e-39
0.0061392598 -0.13358103 0.016480781 8.2079068e-39
0.0079926001 -0.13358103 0.016480781 7.4699872e-39
0.0098015517 -0.13278987 0.019459225 4.2406458e-39
0.01164967 -0.13278987 0.019459225 4.5991316e-40
0.013497787 -0.13278987 0.019459225 2.2105511e-39
0.015345905 -0.13278987 0.019459225 8.3872926e-39
0.017194023 -0.13278987 0.019459225 1.0506699e-38
0.019042142 -0.13278987 0.019459225 1.2073306e-38
0.02089026 -0.13278987 0.019459225 1.0043577e-38
0.022738378 -0.13278987 0.019459225 8.7532095e-39
0.024586495 -0.13278987 0.019459225 4.5147384e-39
0.026434613 -0.13278987 0.019459225 2.3034852e-39
0.028151216 -0.13171287 0.023513772 1.8421442e-39
0.029992225 -0.13171287 0.023513772 5.5175707e-40
0.031833231 -0.13171287 0.023513772 1.1049266e-39
0.03367424 -0.13171287 0.023513772 1.6409752e-38
0.035399303 -0.13093217 0.026452877 2.3509527e-38
0.037235163 -0.13093217 0.026452877 2.3325131e-38
0.039071016 -0.13093217 0.026452877 2.350988e-38
0.040906869 -0.13093217 0.026452877 2.350988e-38
0.042742729 -0.13093217 0.026452877 2.350988e-38
0.044578582 -0.13093217 0.026452877 2.350988e-38
0.046414442 -0.13093217 0.026452877 2.3509527e-38
0.048402317 -0.13171287 0.023513772 2.3509168e-38
0.050243326 -0.13171287 0.023513772 2.3509168e-38
0.052084334 -0.13171287 0.023513772 2.3509527e-38
0.053757861 -0.13093217 0.026452877 2.3509527e-38
0.055593722 -0.13093217 0.026452877 2.3509886e-38
0.057246253 -0.13012715 0.029483415 2.3509886e-38
0.059076801 -0.13012715 0.029483415 2.3509886e-38
0.060907342 -0.13012715 0.029483415 2.3509886e-38
0.062737882 -0.13012715 0.029483415 2.3509886e-38
0.064568423 -0.13012715 0.029483415 2.3509886e-38
0.066190287 -0.12932678 0.032496549 2.3509886e-38
0.067802817 -0.12853102 0.035492279 2.3509886e-38
0.06962283 -0.12853102 0.035492279 2.3509886e-38
0.071442835 -0.12853102 0.035492279 2.3509886e-38
0.073262841 -0.12853102 0.035492279 2.3509886e-38
0.075316586 -0.12932678 0.032496549 2.3509886e-38
0.077141844 -0.12932678 0.032496549 2.3509886e-38
0.078967102 -0.12932678 0.032496549 2.3509886e-38
0.08079236 -0.12932678 0.032496549 2.3509886e-38
0.082617618 -0.12932678 0.032496549 2.3509883e-38
0.084442876 -0.12932678 0.032496549 2.3509883e-38
0.086268149 -0.12932678 0.032496549 2.3509883e-38
0.088093407 -0.12932678 0.032496549 2.3509883e-38
0.089642905 -0.12853102 0.035492279 2.3509883e-38
0.091462918 -0.12853102 0.035492279 2.3509883e-38
0.092907168 -0.12748651 0.039424516 2.3509883e-38
0.094720282 -0.12748651 0.039424516 2.3509883e-38
0.096533395 -0.12748651 0.039424516 2.3509883e-38
0.098037861 -0.1266733 0.04248593 2.3048905e-38
0.099845611 -0.1266733 0.04248593 2.3509883e-38
0.10165334 -0.1266733 0.04248593 2.3509883e-38
0.10378584 -0.12748651 0.039424516 2.3417687e-38
0.10559895 -0.12748651 0.039424516 1.8992297e-38
0.10741206 -0.12748651 0.039424516 1.6318624e-38
0.10888433 -0.1266733 0.04248593 1.2448205e-38
0.11069208 -0.1266733 0.04248593 8.5781494e-39
-0.11770941 -0.14424954 -0.016487502 1.0141152e-38
-0.11579827 -0.14424954 -0.016487502 1.1524087e-38
-0.11388712 -0.14424954 -0.016487502 1.2446043e-38
-0.11169057 -0.14346536 -0.013554596 1.6041674e-38
-0.10978457 -0.14346536 -0.013554596 2.350988e-38
-0.10787857 -0.14346536 -0.013554596 2.3509527e-38
-0.10569332 -0.1426542 -0.010520958 2.3509167e-38
-0.10379265 -0.1426542 -0.010520958 2.332478e-38
-0.10189196 -0.1426542 -0.010520958 2.3509168e-38
-0.099991269 -0.1426542 -0.010520958 2.3416615e-38
-0.098090582 -0.1426542 -0.010520958 2.3509168e-38
-0.095861636 -0.1416003 -0.0065794224 2.3509886e-38
-0.093967862 -0.1416003 -0.0065794224 2.3509886e-38
-0.092074104 -0.1416003 -0.0065794224 2.3509886e-38
-0.08994665 -0.14079951 -0.0035845274 2.3509886e-38
-0.088058136 -0.14079951 -0.0035845274 2.3509886e-38
-0.086169608 -0.14079951 -0.0035845274 2.3509886e-38
-0.084281094 -0.14079951 -0.0035845274 2.3509886e-38
-0.082392566 -0.14079951 -0.0035845274 2.3509886e-38
-0.080504052 -0.14079951 -0.0035845274 2.3509886e-38
-0.078615524 -0.14079951 -0.0035845274 2.3509886e-38
-0.076726995 -0.14079951 -0.0035845274 2.3509886e-38
-0.074838482 -0.14079951 -0.0035845274 2.3509886e-38
-0.072949953 -0.14079951 -0.0035845274 2.3509886e-38
-0.070819162 -0.13972856 0.00042078551 2.3509886e-38
-0.068937652 -0.13972856 0.00042078551 2.3509886e-38
-0.066881247 -0.13890781 0.0034903055 2.3509886e-38
-0.065005131 -0.13890781 0.0034903055 2.3509886e-38
-0.063129015 -0.13890781 0.0034903055 2.3509527e-38
-0.061252899 -0.13890781 0.0034903055 2.3509886e-38
-0.059376784 -0.13890781 0.0034903055 2.3509886e-38
-0.057500668 -0.13890781 0.0034903055 2.3509886e-38
-0.055624552 -0.13890781 0.0034903055 2.3509886e-38
-0.053748429 -0.13890781 0.0034903055 2.3509886e-38
-0.051746048 -0.13812189 0.006429649 2.3509886e-38
-0.049875088 -0.13812189 0.006429649 2.3509886e-38
-0.047844611 -0.13704078 0.01047299 2.3509886e-38
-0.045980737 -0.13704078 0.01047299 2.3233299e-38
-0.04411687 -0.13704078 0.01047299 2.3509886e-38
-0.042252995 -0.13704078 0.01047299 2.3325494e-38
-0.040389121 -0.13704078 0.01047299 2.3325492e-38
-0.038525246 -0.13704078 0.01047299 1.7148387e-38
-0.036661372 -0.13704078 0.01047299 2.5293437e-42
-0.034797497 -0.13704078 0.01047299 5.7915666e-42
-0.032933623 -0.13704078 0.01047299 8.3736131e-40
-0.03106975 -0.13704078 0.01047299 5.4286303e-42
-0.029294493 -0.13812189 0.006429649 6.4826589e-40
-0.027423529 -0.13812189 0.006429649 8.5738405e-39
-0.025552565 -0.13812189 0.006429649 1.4656221e-38
-0.023681602 -0.13812189 0.006429649 1.4286358e-38
-0.021810638 -0.13812189 0.006429649 1.5207233e-38
-0.019939678 -0.13812189 0.006429649 1.3825023e-38
-0.018022632 -0.13704078 0.01047299 8.2652227e-40
-0.016158758 -0.13704078 0.01047299 1.564816e-39
-0.014294883 -0.13704078 0.01047299 8.1110714e-39
-0.012431011 -0.13704078 0.01047299 1.1984012e-38
-0.010567136 -0.13704078 0.01047299 1.0416689e-38
-0.0087032635 -0.13704078 0.01047299 1.2076211e-38
-0.006839389 -0.13704078 0.01047299 8.1117945e-39
-0.0049755145 -0.13704078 0.01047299 6.7309998e-39
-0.00311164 -0.13704078 0.01047299 9.2911693e-41
-0.0012477674 -0.13704078 0.01047299 1.9364712e-39
0.00059762038 -0.13623528 0.013485408 7.0075839e-39
0.0024325792 -0.13543437 0.016480781 7.9305968e-39
0.0042859195 -0.13543437 0.016480781 9.0376492e-39
0.0061392598 -0.13543437 0.016480781 9.9592412e-39
0.0079534333 -0.134638 0.019459225 9.129126e-39
0.0098015517 -0.134638 0.019459225 6.8217395e-39
0.01164967 -0.134638 0.019459225 3.6734198e-40
0.013497787 -0.134638 0.019459225 1.3800492e-39
0.015345905 -0.134638 0.019459225 1.0322657e-38
0.017194023 -0.134638 0.019459225 1.1427917e-38
0.019042142 -0.134638 0.019459225 1.1611589e-38
0.02089026 -0.134638 0.019459225 1.0781482e-38
0.022738378 -0.134638 0.019459225 8.2929376e-39
0.024586495 -0.134638 0.019459225 5.3444977e-39
0.026434613 -0.134638 0.019459225 2.3960438e-39
0.028151216 -0.13355388 0.023513772 2.5800721e-39
0.029992225 -0.13355388 0.023513772 3.6772874e-40
0.031833231 -0.13355388 0.023513772 1.3822324e-39
0.03367424 -0.13355388 0.023513772 1.7148038e-38
0.035399303 -0.13276802 0.026452877 2.3416974e-38
0.037235163 -0.13276802 0.026452877 2.3509883e-38
0.039071016 -0.13276802 0.026452877 2.350988e-38
0.040906869 -0.13276802 0.026452877 2.3509879e-38
0.042742729 -0.13276802 0.026452877 2.3509521e-38
0.044578582 -0.13276802 0.026452877 2.3509521e-38
0.046414442 -0.13276802 0.026452877 2.3509527e-38
0.048250295 -0.13276802 0.026452877 2.3509168e-38
0.050243326 -0.13355388 0.023513772 2.3509168e-38
0.052084334 -0.13355388 0.023513772 2.3509527e-38
0.053757861 -0.13276802 0.026452877 2.3509527e-38
0.055593722 -0.13276802 0.026452877 2.3509886e-38
0.057246253 -0.13195769 0.029483415 2.3509886e-38
0.059076801 -0.13195769 0.029483415 2.3509886e-38
0.060907342 -0.13195769 0.029483415 2.3509886e-38
0.062737882 -0.13195769 0.029483415 2.3509886e-38
0.064568423 -0.13195769 0.029483415 2.3509886e-38
0.066190287 -0.13115202 0.032496549 2.3509886e-38
0.067802817 -0.13035102 0.035492279 2.3509886e-38
0.06962283 -0.13035102 0.035492279 2.3509886e-38
0.071442835 -0.13035102 0.035492279 2.3509886e-38
0.073262841 -0.13035102 0.035492279 2.3509886e-38
0.075082846 -0.13035102 0.035492279 2.3509886e-38
0.076902851 -0.13035102 0.035492279 2.3509886e-38
0.078967102 -0.13115202 0.032496549 2.3509886e-38
0.08079236 -0.13115202 0.032496549 2.3509886e-38
0.082617618 -0.13115202 0.032496549 2.3509883e-38
0.084442876 -0.13115202 0.032496549 2.3509883e-38
0.086268149 -0.13115202 0.032496549 2.3417687e-38
0.088093407 -0.13115202 0.032496549 2.3233296e-38
0.089642905 -0.13035102 0.035492279 2.3233296e-38
0.091462918 -0.13035102 0.035492279 2.3233296e-38
0.093282916 -0.13035102 0.035492279 2.31411e-38
0.094720282 -0.1292996 0.039424516 2.3048905e-38
0.096533395 -0.1292996 0.039424516 2.31411e-38
0.098037861 -0.12848105 0.04248593 2.3509883e-38
0.099845611 -0.12848105 0.04248593 2.3509883e-38
0.10165334 -0.12848105 0.04248593 2.3509883e-38
0.10378584 -0.1292996 0.039424516 2.3325492e-38
0.10559895 -0.1292996 0.039424516 1.9453275e-38
0.10741206 -0.1292996 0.039424516 1.6410819e-38
0.10922518 -0.1292996 0.039424516 1.2170539e-38
0.11103829 -0.1292996 0.039424516 9.3149956e-39
-0.11388712 -0.14616071 -0.016487502 1.1339695e-38
-0.11169057 -0.14537133 -0.013554596 1.5765087e-38
-0.10978457 -0.14537133 -0.013554596 2.350952e-38
-0.10787857 -0.14537133 -0.013554596 2.3509883e-38
-0.10569332 -0.14455487 -0.010520958 2.3509167e-38
-0.10379265 -0.14455487 -0.010520958 2.3416974e-38
-0.10189196 -0.14455487 -0.010520958 2.3509527e-38
-0.099991269 -0.14455487 -0.010520958 2.3509168e-38
-0.098090582 -0.14455487 -0.010520958 2.3509527e-38
-0.095861636 -0.14349405 -0.0065794224 2.3509886e-38
-0.093967862 -0.14349405 -0.0065794224 2.3509886e-38
-0.092074104 -0.14349405 -0.0065794224 2.3509886e-38
-0.08994665 -0.14268802 -0.0035845274 2.3509886e-38
-0.088058136 -0.14268802 -0.0035845274 2.3509886e-38
-0.086169608 -0.14268802 -0.0035845274 2.3509886e-38
-0.084281094 -0.14268802 -0.0035845274 2.3509886e-38
-0.082392566 -0.14268802 -0.0035845274 2.3509886e-38
-0.080504052 -0.14268802 -0.0035845274 2.3509886e-38
-0.078615524 -0.14268802 -0.0035845274 2.3509886e-38
-0.076726995 -0.14268802 -0.0035845274 2.3509886e-38
-0.074838482 -0.14268802 -0.0035845274 2.3509886e-38
-0.072700657 -0.14161004 0.00042078551 2.3509886e-38
-0.070819162 -0.14161004 0.00042078551 2.3509886e-38
-0.068757363 -0.14078392 0.0034903055 2.3509886e-38
-0.066881247 -0.14078392 0.0034903055 2.3509886e-38
-0.065005131 -0.14078392 0.0034903055 2.3509527e-38
-0.063129015 -0.14078392 0.0034903055 2.3509527e-38
-0.061252899 -0.14078392 0.0034903055 2.3509886e-38
-0.059376784 -0.14078392 0.0034903055 2.3509886e-38
-0.057500668 -0.14078392 0.0034903055 2.3509886e-38
-0.055624552 -0.14078392 0.0034903055 2.3509886e-38
-0.053617008 -0.13999285 0.006429649 2.3509886e-38
-0.051746048 -0.13999285 0.006429649 2.3509886e-38
-0.049875088 -0.13999285 0.006429649 2.3509886e-38
-0.047844611 -0.13890465 0.01047299 2.3509886e-38
-0.045980737 -0.13890465 0.01047299 2.2956712e-38
-0.04411687 -0.13890465 0.01047299 2.3509886e-38
-0.042252995 -0.13890465 0.01047299 2.3509886e-38
-0.040291406 -0.13809387 0.013485408 2.3509886e-38
-0.038432814 -0.13809387 0.013485408 1.5949844e-38
-0.036661372 -0.13890465 0.01047299 3.7134409e-43
-0.034797497 -0.13890465 0.01047299 5.4356367e-42
-0.032933623 -0.13890465 0.01047299 1.2061438e-39
-0.03106975 -0.13890465 0.01047299 8.351921e-40
-0.029294493 -0.13999285 0.006429649 1.108528e-39
-0.027423529 -0.13999285 0.006429649 8.3887317e-39
-0.025552565 -0.13999285 0.006429649 1.5116843e-38
-0.023681602 -0.13999285 0.006429649 1.4839532e-38
-0.021810638 -0.13999285 0.006429649 1.4100888e-38
-0.019939678 -0.13999285 0.006429649 1.4378199e-38
-0.018022632 -0.13890465 0.01047299 1.4718959e-39
-0.016158758 -0.13890465 0.01047299 1.4729833e-39
-0.014294883 -0.13890465 0.01047299 9.2181435e-39
-0.012431011 -0.13890465 0.01047299 1.2353161e-38
-0.010567136 -0.13890465 0.01047299 8.8500896e-39
-0.0087032635 -0.13890465 0.01047299 8.5735041e-39
-0.006839389 -0.13890465 0.01047299 6.3611579e-39
-0.0049755145 -0.13890465 0.01047299 6.0856276e-39
-0.00311164 -0.13890465 0.01047299 9.3270426e-41
-0.0012477674 -0.13890465 0.01047299 1.3836533e-39
0.00059762038 -0.13809387 0.013485408 6.4544074e-39
0.0024325792 -0.13728772 0.016480781 9.0362283e-39
0.0042859195 -0.13728772 0.016480781 1.0603903e-38
0.0061392598 -0.13728772 0.016480781 1.0326948e-38
0.0079534333 -0.13648613 0.019459225 8.9429425e-39
0.0098015517 -0.13648613 0.019459225 7.8351754e-39
0.01164967 -0.13648613 0.019459225 8.268782e-40
0.013497787 -0.13648613 0.019459225 1.4715259e-39
0.015345905 -0.13648613 0.019459225 8.9393621e-39
0.017194023 -0.13648613 0.019459225 1.0321924e-38
0.019042142 -0.13648613 0.019459225 1.1796332e-38
0.02089026 -0.13648613 0.019459225 1.1610513e-38
0.022738378 -0.13648613 0.019459225 8.754266e-39
0.024586495 -0.13648613 0.019459225 4.2392263e-39
0.026434613 -0.13648613 0.019459225 1.84287e-39
0.028151216 -0.13539489 0.023513772 2.4885926e-39
0.029992225 -0.13539489 0.023513772 1.4747952e-39
0.031833231 -0.13539489 0.023513772 1.5666237e-39
0.03367424 -0.13539489 0.023513772 1.6779253e-38
0.035515249 -0.13539489 0.023513772 2.2587213e-38
0.037235163 -0.13460387 0.026452877 2.3048545e-38
0.039071016 -0.13460387 0.026452877 2.350988e-38
0.040906869 -0.13460387 0.026452877 2.3509879e-38
0.042742729 -0.13460387 0.026452877 2.3509521e-38
0.044578582 -0.13460387 0.026452877 2.3509521e-38
0.046414442 -0.13460387 0.026452877 2.3509527e-38
0.048250295 -0.13460387 0.026452877 2.3509527e-38
0.050086148 -0.13460387 0.026452877 2.3509168e-38
0.051922008 -0.13460387 0.026452877 2.3509527e-38
0.053757861 -0.13460387 0.026452877 2.3509886e-38
0.055593722 -0.13460387 0.026452877 2.3509886e-38
0.057246253 -0.13378824 0.029483415 2.3509886e-38
0.059076801 -0.13378824 0.029483415 2.3509886e-38
0.060907342 -0.13378824 0.029483415 2.3509886e-38
0.062737882 -0.13378824 0.029483415 2.3509886e-38
0.064568423 -0.13378824 0.029483415 2.3509886e-38
0.066190287 -0.13297729 0.032496549 2.3509886e-38
0.067802817 -0.13217102 0.035492279 2.3509886e-38
0.06962283 -0.13217102 0.035492279 2.3509886e-38
0.071442835 -0.13217102 0.035492279 2.3509886e-38
0.073262841 -0.13217102 0.035492279 2.3509886e-38
0.075082846 -0.13217102 0.035492279 2.3509886e-38
0.076902851 -0.13217102 0.035492279 2.3509886e-38
0.078967102 -0.13297729 0.032496549 2.3509886e-38
0.08079236 -0.13297729 0.032496549 2.3509886e-38
0.082617618 -0.13297729 0.032496549 2.31411e-38
0.084442876 -0.13297729 0.032496549 2.3325492e-38
0.086268149 -0.13297729 0.032496549 2.3509883e-38
0.088093407 -0.13297729 0.032496549 2.3509883e-38
0.089918666 -0.13297729 0.032496549 2.3509883e-38
0.091462918 -0.13217102 0.035492279 2.3509883e-38
0.093282916 -0.13217102 0.035492279 2.3509883e-38
0.095102929 -0.13217102 0.035492279 2.3509883e-38
0.096922927 -0.13217102 0.035492279 2.3509883e-38
0.098346509 -0.13111271 0.039424516 2.3509883e-38
0.099845611 -0.13028879 0.04248593 2.31411e-38
0.10165334 -0.13028879 0.04248593 2.2956709e-38
0.10378584 -0.13111271 0.039424516 2.3233296e-38
0.10559895 -0.13111271 0.039424516 1.9822058e-38
0.10741206 -0.13111271 0.039424516 1.6687406e-38
0.10922518 -0.13111271 0.039424516 1.235493e-38
0.11103829 -0.13111271 0.039424516 1.1157829e-38
-0.11388712 -0.14807184 -0.016487502 1.0510291e-38
-0.11197598 -0.14807184 -0.016487502 1.5396303e-38
-0.10978457 -0.14727734 -0.013554596 2.3325129e-38
-0.10787857 -0.14727734 -0.013554596 2.3509883e-38
-0.10569332 -0.14645557 -0.010520958 2.3509527e-38
-0.10379265 -0.14645557 -0.010520958 2.3509168e-38
-0.10189196 -0.14645557 -0.010520958 2.3509527e-38
-0.099991269 -0.14645557 -0.010520958 2.3509527e-38
-0.098090582 -0.14645557 -0.010520958 2.3509527e-38
-0.095861636 -0.14538784 -0.0065794224 2.3509886e-38
-0.093967862 -0.14538784 -0.0065794224 2.3509886e-38
-0.092074104 -0.14538784 -0.0065794224 2.3509886e-38
-0.08994665 -0.14457656 -0.0035845274 2.3509886e-38
-0.088058136 -0.14457656 -0.0035845274 2.3509886e-38
-0.086169608 -0.14457656 -0.0035845274 2.3509886e-38
-0.084281094 -0.14457656 -0.0035845274 2.3509886e-38
-0.082392566 -0.14457656 -0.0035845274 2.3509886e-38
-0.080504052 -0.14457656 -0.0035845274 2.3509886e-38
-0.078345157 -0.14349155 0.00042078551 2.3509886e-38
-0.076463647 -0.14349155 0.00042078551 2.3509886e-38
-0.074582152 -0.14349155 0.00042078551 2.3509886e-38
-0.072700657 -0.14349155 0.00042078551 2.3509886e-38
-0.070819162 -0.14349155 0.00042078551 2.3509886e-38
-0.068757363 -0.14266007 0.0034903055 2.3509886e-38
-0.066881247 -0.14266007 0.0034903055 2.3509886e-38
-0.065005131 -0.14266007 0.0034903055 2.3509527e-38
-0.063129015 -0.14266007 0.0034903055 2.3509527e-38
-0.061252899 -0.14266007 0.0034903055 2.3509886e-38
-0.059229903 -0.14186381 0.006429649 2.3509886e-38
-0.057358943 -0.14186381 0.006429649 2.3509886e-38
-0.055487975 -0.14186381 0.006429649 2.3509886e-38
-0.053617008 -0.14186381 0.006429649 2.3509886e-38
-0.051746048 -0.14186381 0.006429649 2.3509883e-38
-0.049875088 -0.14186381 0.006429649 2.3509883e-38
-0.047844611 -0.14076851 0.01047299 2.3509883e-38
-0.045980737 -0.14076851 0.01047299 2.3325494e-38
-0.04411687 -0.14076851 0.01047299 2.3509886e-38
-0.042252995 -0.14076851 0.01047299 2.3417691e-38
-0.040291406 -0.13995247 0.013485408 2.3509886e-38
-0.038432814 -0.13995247 0.013485408 1.6963999e-38
-0.036574222 -0.13995247 0.013485408 1.2921948e-39
-0.03471563 -0.13995247 0.013485408 2.1930321e-42
-0.032857038 -0.13995247 0.013485408 6.8775729e-42
-0.030998448 -0.13995247 0.013485408 1.0188603e-39
-0.029294493 -0.14186381 0.006429649 1.9372096e-39
-0.027423529 -0.14186381 0.006429649 6.9136016e-39
-0.025552565 -0.14186381 0.006429649 1.2535369e-38
-0.023614252 -0.14076851 0.01047299 1.3179653e-38
-0.021750377 -0.14076851 0.01047299 1.262648e-38
-0.019886507 -0.14076851 0.01047299 9.8616954e-39
-0.018022632 -0.14076851 0.01047299 1.1038378e-39
-0.016158758 -0.14076851 0.01047299 1.5659048e-39
-0.014294883 -0.14076851 0.01047299 9.3114209e-39
-0.012431011 -0.14076851 0.01047299 1.1248255e-38
-0.010567136 -0.14076851 0.01047299 8.5745831e-39
-0.0087032635 -0.14076851 0.01047299 7.8366622e-39
-0.006839389 -0.14076851 0.01047299 7.9284865e-39
-0.0049755145 -0.14076851 0.01047299 6.1774701e-39
-0.00311164 -0.14076851 0.01047299 1.8446287e-39
-0.0012477674 -0.14076851 0.01047299 2.4889331e-39
0.00059762038 -0.13995247 0.013485408 5.9001714e-39
0.0024325792 -0.13914107 0.016480781 8.9422572e-39
0.0042859195 -0.13914107 0.016480781 1.0970914e-38
0.0061392598 -0.13914107 0.016480781 1.060141e-38
0.0079926001 -0.13914107 0.016480781 9.5869064e-39
0.0098015517 -0.13833423 0.019459225 6.9114549e-39
0.01164967 -0.13833423 0.019459225 2.1162087e-39
0.013497787 -0.13833423 0.019459225 2.9456022e-39
0.015345905 -0.13833423 0.019459225 9.1230514e-39
0.017194023 -0.13833423 0.019459225 1.0689999e-38
0.019042142 -0.13833423 0.019459225 1.2718293e-38
0.02089026 -0.13833423 0.019459225 1.1979296e-38
0.022738378 -0.13833423 0.019459225 8.2010895e-39
0.024586495 -0.13833423 0.019459225 5.1615344e-39
0.026434613 -0.13833423 0.019459225 2.028692e-39
0.028151216 -0.13723589 0.023513772 1.3825995e-39
0.029992225 -0.13723589 0.023513772 5.5283326e-40
0.031833231 -0.13723589 0.023513772 1.2611686e-44
0.03367424 -0.13723589 0.023513772 1.5949492e-38
0.035515249 -0.13723589 0.023513772 2.2955996e-38
0.037235163 -0.13643973 0.026452877 2.3509883e-38
0.039071016 -0.13643973 0.026452877 2.3509521e-38
0.040906869 -0.13643973 0.026452877 2.3509521e-38
0.042742729 -0.13643973 0.026452877 2.350988e-38
0.044578582 -0.13643973 0.026452877 2.350988e-38
0.046414442 -0.13643973 0.026452877 2.3509527e-38
0.048250295 -0.13643973 0.026452877 2.3509886e-38
0.050086148 -0.13643973 0.026452877 2.3509527e-38
0.051922008 -0.13643973 0.026452877 2.3509886e-38
0.053757861 -0.13643973 0.026452877 2.3509886e-38
0.055415712 -0.13561879 0.029483415 2.3509886e-38
0.057246253 -0.13561879 0.029483415 2.3509886e-38
0.059076801 -0.13561879 0.029483415 2.3509886e-38
0.060907342 -0.13561879 0.029483415 2.3509886e-38
0.062737882 -0.13561879 0.029483415 2.3509886e-38
0.064365029 -0.13480256 0.032496549 2.3509886e-38
0.066190287 -0.13480256 0.032496549 2.3509886e-38
0.067802817 -0.13399105 0.035492279 2.3509886e-38
0.06962283 -0.13399105 0.035492279 2.3509886e-38
0.071442835 -0.13399105 0.035492279 2.3509886e-38
0.073262841 -0.13399105 0.035492279 2.3509886e-38
0.075082846 -0.13399105 0.035492279 2.3509886e-38
0.076902851 -0.13399105 0.035492279 2.3509886e-38
0.078722857 -0.13399105 0.035492279 2.3509886e-38
0.08054287 -0.13399105 0.035492279 2.3509886e-38
0.082617618 -0.13480256 0.032496549 2.3417687e-38
0.084442876 -0.13480256 0.032496549 2.350988e-38
0.086268149 -0.13480256 0.032496549 2.350988e-38
0.088093407 -0.13480256 0.032496549 2.350988e-38
0.089918666 -0.13480256 0.032496549 2.3325847e-38
0.091743924 -0.13480256 0.032496549 2.3049261e-38
0.093569182 -0.13480256 0.032496549 2.2957065e-38
0.095102929 -0.13399105 0.035492279 2.2957065e-38
0.096922927 -0.13399105 0.035492279 2.350988e-38
0.098346509 -0.13292582 0.039424516 2.3418043e-38
0.099845611 -0.13209651 0.04248593 2.3141456e-38
0.10165334 -0.13209651 0.04248593 2.3325847e-38
0.10378584 -0.13292582 0.039424516 2.350988e-38
0.10559895 -0.13292582 0.039424516 2.0006805e-38
0.10741206 -0.13292582 0.039424516 1.714874e-38
0.10966297 -0.13399105 0.035492279 1.3369082e-38
0.11148299 -0.13399105 0.035492279 1.1803199e-38
-0.11197598 -0.14998297 -0.016487502 1.5396303e-38
-0.10978457 -0.14918335 -0.013554596 2.3232932e-38
-0.10759401 -0.14835624 -0.010520958 2.350988e-38
-0.10569332 -0.14835624 -0.010520958 2.3509883e-38
-0.10379265 -0.14835624 -0.010520958 2.3509527e-38
-0.10189196 -0.14835624 -0.010520958 2.3509527e-38
-0.099991269 -0.14835624 -0.010520958 2.3509527e-38
-0.098090582 -0.14835624 -0.010520958 2.3509527e-38
-0.095861636 -0.1472816 -0.0065794224 2.3509886e-38
-0.093967862 -0.1472816 -0.0065794224 2.3509886e-38
-0.092074104 -0.1472816 -0.0065794224 2.3509886e-38
-0.08994665 -0.14646508 -0.0035845274 2.3509886e-38
-0.088058136 -0.14646508 -0.0035845274 2.3509886e-38
-0.086169608 -0.14646508 -0.0035845274 2.3509886e-38
-0.084281094 -0.14646508 -0.0035845274 2.3509886e-38
-0.082392566 -0.14646508 -0.0035845274 2.3509886e-38
-0.080504052 -0.14646508 -0.0035845274 2.3509886e-38
-0.078345157 -0.14537306 0.00042078551 2.3509886e-38
-0.076463647 -0.14537306 0.00042078551 2.3509886e-38
-0.074582152 -0.14537306 0.00042078551 2.3509886e-38
-0.072700657 -0.14537306 0.00042078551 2.3509886e-38
-0.070819162 -0.14537306 0.00042078551 2.3509886e-38
-0.068757363 -0.14453618 0.0034903055 2.3509886e-38
-0.066881247 -0.14453618 0.0034903055 2.3509886e-38
-0.065005131 -0.14453618 0.0034903055 2.3509527e-38
-0.063129015 -0.14453618 0.0034903055 2.3509527e-38
-0.061252899 -0.14453618 0.0034903055 2.3509886e-38
-0.059229903 -0.14373477 0.006429649 2.3509886e-38
-0.057358943 -0.14373477 0.006429649 2.3509886e-38
-0.055487975 -0.14373477 0.006429649 2.3509886e-38
-0.053617008 -0.14373477 0.006429649 2.3509883e-38
-0.051746048 -0.14373477 0.006429649 2.3509883e-38
-0.049875088 -0.14373477 0.006429649 2.2864513e-38
-0.047844611 -0.14263238 0.01047299 2.3509883e-38
-0.045980737 -0.14263238 0.01047299 2.3509886e-38
-0.04411687 -0.14263238 0.01047299 2.3509886e-38
-0.042252995 -0.14263238 0.01047299 2.3141106e-38
-0.040291406 -0.14181106 0.013485408 2.3509886e-38
-0.038432814 -0.14181106 0.013485408 2.0835859e-38
-0.036574222 -0.14181106 0.013485408 1.1249323e-38
-0.03471563 -0.14181106 0.013485408 2.863496e-39
-0.032857038 -0.14181106 0.013485408 1.5731201e-39
-0.030998448 -0.14181106 0.013485408 2.4003514e-39
-0.029205875 -0.14263238 0.01047299 2.2134322e-39
-0.027342001 -0.14263238 0.01047299 2.0275906e-39
-0.025478126 -0.14263238 0.01047299 2.6704363e-39
-0.023614252 -0.14263238 0.01047299 2.3012908e-39
-0.021750377 -0.14263238 0.01047299 2.6704335e-39
-0.019886507 -0.14263238 0.01047299 2.8559093e-39
-0.018022632 -0.14263238 0.01047299 9.1842503e-41
-0.016158758 -0.14263238 0.01047299 1.821688e-44
-0.014294883 -0.14263238 0.01047299 3.6882106e-39
-0.012431011 -0.14263238 0.01047299 3.3197924e-39
-0.010567136 -0.14263238 0.01047299 3.2275995e-39
-0.0087032635 -0.14263238 0.01047299 3.2275995e-39
-0.006839389 -0.14263238 0.01047299 4.3335828e-39
-0.0049755145 -0.14263238 0.01047299 3.5967198e-39
-0.0031195637 -0.14181106 0.013485408 1.8450028e-39
-0.0012609717 -0.14181106 0.013485408 2.4885912e-39
0.00059762038 -0.14181106 0.013485408 3.3183532e-39
0.0024325792 -0.14099441 0.016480781 4.4246896e-39
0.0042859195 -0.14099441 0.016480781 5.0693387e-39
0.0061392598 -0.14099441 0.016480781 4.0555427e-39
0.0079926001 -0.14099441 0.016480781 4.1459517e-39
0.0098015517 -0.14018236 0.019459225 3.4991628e-39
0.01164967 -0.14018236 0.019459225 1.654174e-39
0.013497787 -0.14018236 0.019459225 2.9448988e-39
0.015345905 -0.14018236 0.019459225 7.3706295e-39
0.017194023 -0.14018236 0.019459225 8.384759e-39
0.019042142 -0.14018236 0.019459225 1.0689999e-38
0.02089026 -0.14018236 0.019459225 9.9517162e-39
0.022738378 -0.14018236 0.019459225 6.7266782e-39
0.024586495 -0.14018236 0.019459225 3.3179749e-39
0.026434613 -0.14018236 0.019459225 1.1992817e-39
0.02828273 -0.14018236 0.019459225 5.5319059e-40
0.029992225 -0.1390769 0.023513772 5.5318499e-40
0.031833231 -0.1390769 0.023513772 3.6843079e-40
0.03367424 -0.1390769 0.023513772 1.6502665e-38
0.035515249 -0.1390769 0.023513772 2.3048191e-38
0.037235163 -0.13827558 0.026452877 2.3509167e-38
0.039071016 -0.13827558 0.026452877 2.3509524e-38
0.040906869 -0.13827558 0.026452877 2.3509521e-38
0.042742729 -0.13827558 0.026452877 2.350988e-38
0.044578582 -0.13827558 0.026452877 2.3509883e-38
0.046414442 -0.13827558 0.026452877 2.3509883e-38
0.048250295 -0.13827558 0.026452877 2.3509886e-38
0.050086148 -0.13827558 0.026452877 2.341805e-38
0.051922008 -0.13827558 0.026452877 2.341805e-38
0.053757861 -0.13827558 0.026452877 2.3509886e-38
0.055415712 -0.13744931 0.029483415 2.3509886e-38
0.057246253 -0.13744931 0.029483415 2.3509886e-38
0.059076801 -0.13744931 0.029483415 2.3509886e-38
0.060907342 -0.13744931 0.029483415 2.3509886e-38
0.062539771 -0.13662781 0.032496549 2.3509886e-38
0.064365029 -0.13662781 0.032496549 2.3509886e-38
0.066190287 -0.13662781 0.032496549 2.3509886e-38
0.068015546 -0.13662781 0.032496549 2.3509886e-38
0.06962283 -0.13581105 0.035492279 2.3509886e-38
0.071442835 -0.13581105 0.035492279 2.3509886e-38
0.073262841 -0.13581105 0.035492279 2.3509886e-38
0.075082846 -0.13581105 0.035492279 2.3509886e-38
0.076902851 -0.13581105 0.035492279 2.3509886e-38
0.078722857 -0.13581105 0.035492279 2.3509886e-38
0.08054287 -0.13581105 0.035492279 2.3509883e-38
0.082617618 -0.13662781 0.032496549 2.3509883e-38
0.084442876 -0.13662781 0.032496549 2.350988e-38
0.086268149 -0.13662781 0.032496549 2.350988e-38
0.088093407 -0.13662781 0.032496549 2.350988e-38
0.089642905 -0.13581105 0.035492279 2.350988e-38
0.091462918 -0.13581105 0.035492279 2.350988e-38
0.093569182 -0.13662781 0.032496549 2.350988e-38
0.095102929 -0.13581105 0.035492279 2.350988e-38
0.096922927 -0.13581105 0.035492279 2.3141456e-38
0.098346509 -0.13473894 0.039424516 2.3233652e-38
0.10015961 -0.13473894 0.039424516 2.350988e-38
0.10197272 -0.13473894 0.039424516 2.350988e-38
0.10378584 -0.13473894 0.039424516 2.350988e-38
0.10559895 -0.13473894 0.039424516 1.9730218e-38
0.10741206 -0.13473894 0.039424516 1.7056545e-38
0.10922518 -0.13473894 0.039424516 1.3830058e-38
0.11103829 -0.13473894 0.039424516 1.2263458e-38
-0.099649183 -0.14917539 -0.0065794224 2.3509527e-38
-0.09775541 -0.14917539 -0.0065794224 2.3509168e-38
-0.095861636 -0.14917539 -0.0065794224 2.3509886e-38
-0.093967862 -0.14917539 -0.0065794224 2.3509886e-38
-0.092074104 -0.14917539 -0.0065794224 2.3509886e-38
-0.09018033 -0.14917539 -0.0065794224 2.3509886e-38
-0.088058136 -0.14835359 -0.0035845274 2.3509886e-38
-0.086169608 -0.14835359 -0.0035845274 2.3509886e-38
-0.084281094 -0.14835359 -0.0035845274 2.3509886e-38
-0.082392566 -0.14835359 -0.0035845274 2.3509886e-38
-0.080504052 -0.14835359 -0.0035845274 2.3509886e-38
-0.078345157 -0.14725454 0.00042078551 2.3509886e-38
-0.076463647 -0.14725454 0.00042078551 2.3509886e-38
-0.074582152 -0.14725454 0.00042078551 2.3509886e-38
-0.072700657 -0.14725454 0.00042078551 2.3509886e-38
-0.070819162 -0.14725454 0.00042078551 2.3509886e-38
-0.068757363 -0.1464123 0.0034903055 2.3509886e-38
-0.066881247 -0.1464123 0.0034903055 2.3509886e-38
-0.065005131 -0.1464123 0.0034903055 2.3509527e-38
-0.063129015 -0.1464123 0.0034903055 2.3509527e-38
-0.061252899 -0.1464123 0.0034903055 2.3509886e-38
-0.059229903 -0.14560573 0.006429649 2.3509886e-38
-0.057358943 -0.14560573 0.006429649 2.3509886e-38
-0.055487975 -0.14560573 0.006429649 2.3509886e-38
-0.053617008 -0.14560573 0.006429649 2.3509883e-38
-0.051746048 -0.14560573 0.006429649 2.3509883e-38
-0.049875088 -0.14560573 0.006429649 2.31411e-38
-0.047844611 -0.14449625 0.01047299 2.3417687e-38
-0.045980737 -0.14449625 0.01047299 2.3509886e-38
-0.04411687 -0.14449625 0.01047299 2.3509886e-38
-0.042252995 -0.14449625 0.01047299 2.3141106e-38
-0.040291406 -0.14366965 0.013485408 2.3509527e-38
-0.038432814 -0.14366965 0.013485408 2.3509527e-38
-0.036574222 -0.14366965 0.013485408 2.0284132e-38
-0.03471563 -0.14366965 0.013485408 1.6507362e-38
-0.032857038 -0.14366965 0.013485408 1.2727701e-38
-0.030998448 -0.14366965 0.013485408 1.0512479e-38
-0.029205875 -0.14449625 0.01047299 7.3756616e-39
-0.027342001 -0.14449625 0.01047299 3.8707773e-39
-0.025478126 -0.14449625 0.01047299 1.9339474e-39
-0.023614252 -0.14449625 0.01047299 9.1907243e-40
-0.021750377 -0.14449625 0.01047299 1.0119911e-39
-0.019886507 -0.14449625 0.01047299 9.1838299e-41
-0.018022632 -0.14449625 0.01047299 3.6914966e-40
-0.016158758 -0.14449625 0.01047299 1.8512974e-40
-0.014294883 -0.14449625 0.01047299 1.3851177e-39
-0.012431011 -0.14449625 0.01047299 1.8272932e-42
-0.010567136 -0.14449625 0.01047299 8.3158936e-40
-0.0087032635 -0.14449625 0.01047299 2.7733658e-40
-0.006839389 -0.14449625 0.01047299 7.3867206e-40
-0.0049755145 -0.14449625 0.01047299 9.2413952e-40
-0.0031195637 -0.14366965 0.013485408 1.2003719e-39
-0.0012609717 -0.14366965 0.013485408 2.5818812e-39
0.00059762038 -0.14366965 0.013485408 2.5815253e-39
0.0024325792 -0.14284773 0.016480781 2.858101e-39
0.0042859195 -0.14284773 0.016480781 2.9495707e-39
0.0061392598 -0.14284773 0.016480781 1.5662747e-39
0.0079926001 -0.14284773 0.016480781 1.6573998e-39
0.0098459404 -0.14284773 0.016480781 3.1307502e-39
0.01169928 -0.14284773 0.016480781 2.669056e-39
0.013497787 -0.14203046 0.019459225 2.6694021e-39
0.015345905 -0.14203046 0.019459225 4.2367082e-39
0.017194023 -0.14203046 0.019459225 3.6838721e-39
0.019042142 -0.14203046 0.019459225 6.0813074e-39
0.02089026 -0.14203046 0.019459225 6.7259594e-39
0.022738378 -0.14203046 0.019459225 5.7128921e-39
0.024586495 -0.14203046 0.019459225 3.1342983e-39
0.026434613 -0.14203046 0.019459225 1.6606087e-39
0.02828273 -0.14203046 0.019459225 9.2561369e-41
0.029992225 -0.14091791 0.023513772 2.8025969e-45
0.031833231 -0.14091791 0.023513772 8.2976347e-40
0.03367424 -0.14091791 0.023513772 1.6502302e-38
0.035515249 -0.14091791 0.023513772 2.3416251e-38
0.037235163 -0.14011143 0.026452877 2.3509527e-38
0.039071016 -0.14011143 0.026452877 2.3509527e-38
0.040906869 -0.14011143 0.026452877 2.3509524e-38
0.042742729 -0.14011143 0.026452877 2.3509883e-38
0.044578582 -0.14011143 0.026452877 2.3509883e-38
0.046263002 -0.13927986 0.029483415 2.3509883e-38
0.048093542 -0.13927986 0.029483415 2.3418047e-38
0.049924091 -0.13927986 0.029483415 2.3234376e-38
0.051754631 -0.13927986 0.029483415 2.3234379e-38
0.053585172 -0.13927986 0.029483415 2.341805e-38
0.055415712 -0.13927986 0.029483415 2.3509886e-38
0.057246253 -0.13927986 0.029483415 2.3509886e-38
0.059076801 -0.13927986 0.029483415 2.3509886e-38
0.060907342 -0.13927986 0.029483415 2.3509886e-38
0.062539771 -0.13845308 0.032496549 2.3509886e-38
0.064365029 -0.13845308 0.032496549 2.3509886e-38
0.066190287 -0.13845308 0.032496549 2.3509886e-38
0.068015546 -0.13845308 0.032496549 2.3509886e-38
0.06962283 -0.13763104 0.035492279 2.3509886e-38
0.071442835 -0.13763104 0.035492279 2.3509886e-38
0.073262841 -0.13763104 0.035492279 2.3509886e-38
0.075082846 -0.13763104 0.035492279 2.3509886e-38
0.076902851 -0.13763104 0.035492279 2.3509886e-38
0.078722857 -0.13763104 0.035492279 2.3509886e-38
0.08054287 -0.13763104 0.035492279 2.3509883e-38
0.082362883 -0.13763104 0.035492279 2.3509883e-38
0.084182881 -0.13763104 0.035492279 2.3418043e-38
0.086002894 -0.13763104 0.035492279 2.3141456e-38
0.087822892 -0.13763104 0.035492279 2.3141456e-38
0.089642905 -0.13763104 0.035492279 2.3418043e-38
0.091462918 -0.13763104 0.035492279 2.350988e-38
0.093282916 -0.13763104 0.035492279 2.350988e-38
0.095102929 -0.13763104 0.035492279 2.3418043e-38
0.096922927 -0.13763104 0.035492279 2.350988e-38
0.098346509 -0.13655205 0.039424516 2.3418043e-38
0.10015961 -0.13655205 0.039424516 2.350988e-38
0.10197272 -0.13655205 0.039424516 2.350988e-38
0.10378584 -0.13655205 0.039424516 2.350988e-38
0.10559895 -0.13655205 0.039424516 1.9545827e-38
0.10741206 -0.13655205 0.039424516 1.6595567e-38
0.10922518 -0.13655205 0.039424516 1.3092133e-38
0.11103829 -0.13655205 0.039424516 1.3184694e-38
-0.078345157 -0.14913605 0.00042078551 2.3509886e-38
-0.076463647 -0.14913605 0.00042078551 2.3509886e-38
-0.074582152 -0.14913605 0.00042078551 2.3509886e-38
-0.072700657 -0.14913605 0.00042078551 2.3509886e-38
-0.070819162 -0.14913605 0.00042078551 2.3509886e-38
-0.068757363 -0.14828841 0.0034903055 2.3509886e-38
-0.066881247 -0.14828841 0.0034903055 2.3509886e-38
-0.065005131 -0.14828841 0.0034903055 2.3509527e-38
-0.062971823 -0.14747669 0.006429649 2.3509527e-38
-0.061100863 -0.14747669 0.006429649 2.3509527e-38
-0.059229903 -0.14747669 0.006429649 2.3509886e-38
-0.057358943 -0.14747669 0.006429649 2.3509886e-38
-0.055487975 -0.14747669 0.006429649 2.3509886e-38
-0.053617008 -0.14747669 0.006429649 2.3509883e-38
-0.051746048 -0.14747669 0.006429649 2.3509883e-38
-0.049875088 -0.14747669 0.006429649 2.3509883e-38
-0.047844611 -0.14636014 0.01047299 2.31411e-38
-0.045980737 -0.14636014 0.01047299 2.3141103e-38
-0.04411687 -0.14636014 0.01047299 2.3509886e-38
-0.042252995 -0.14636014 0.01047299 2.3417333e-38
-0.040291406 -0.14552824 0.013485408 2.3417333e-38
-0.038432814 -0.14552824 0.013485408 2.3509527e-38
-0.036661372 -0.14636014 0.01047299 2.3234379e-38
-0.034797497 -0.14636014 0.01047299 2.2498619e-38
-0.032933623 -0.14636014 0.01047299 2.2038365e-38
-0.03106975 -0.14636014 0.01047299 2.3142544e-38
-0.029294493 -0.14747669 0.006429649 2.3509886e-38
-0.027423529 -0.14747669 0.006429649 2.3509524e-38
-0.025552565 -0.14747669 0.006429649 2.350952e-38
-0.023614252 -0.14636014 0.01047299 2.2401732e-38
-0.021750377 -0.14636014 0.01047299 1.9913893e-38
-0.019939678 -0.14747669 0.006429649 1.8346933e-38
-0.018022632 -0.14636014 0.01047299 1.5121171e-38
-0.016158758 -0.14636014 0.01047299 9.4986848e-39
-0.014294883 -0.14636014 0.01047299 6.1800065e-39
-0.012431011 -0.14636014 0.01047299 2.584021e-39
-0.010567136 -0.14636014 0.01047299 2.3074341e-39
-0.0087032635 -0.14636014 0.01047299 1.8460958e-39
-0.006839389 -0.14636014 0.01047299 2.7676962e-39
-0.0049755145 -0.14636014 0.01047299 4.6352571e-40
-0.0031195637 -0.14552824 0.013485408 2.1930321e-42
-0.0012609717 -0.14552824 0.013485408 1.8623677e-40
0.00059762038 -0.14552824 0.013485408 4.0637655e-44
0.0024325792 -0.14470108 0.016480781 2.9427268e-44
0.0042859195 -0.14470108 0.016480781 4.624355e-40
0.0061392598 -0.14470108 0.016480781 1.2611686e-44
0.0079926001 -0.14470108 0.016480781 1.6815582e-44
0.0098459404 -0.14470108 0.016480781 9.1870529e-41
0.01169928 -0.14470108 0.016480781 1.8371023e-40
0.013497787 -0.14387859 0.019459225 5.5104661e-40
0.015345905 -0.14387859 0.019459225 1.5651845e-39
0.017194023 -0.14387859 0.019459225 1.5655208e-39
0.019042142 -0.14387859 0.019459225 4.3313855e-39
0.02089026 -0.14387859 0.019459225 6.266419e-39
0.022738378 -0.14387859 0.019459225 7.0969027e-39
0.024586495 -0.14387859 0.019459225 6.2693e-39
0.026434613 -0.14387859 0.019459225 8.1150105e-39
