# .PCD v0.7 - Point Cloud Data file format
VERSION 0.7
FIELDS x y z rgb
SIZE 4 4 4 4
TYPE F F F F
COUNT 1 1 1 1
WIDTH 931
HEIGHT 1
VIEWPOINT 0 0 0 1 0 0 0
POINTS 931
DATA ascii
-0.027850339 -0.099722609 -0.012088876 2.3509153e-38
-0.026014486 -0.099722609 -0.012088876 2.3509153e-38
-0.024243044 -0.10041572 -0.015027981 2.3509511e-38
-0.02248379 -0.10137187 -0.019082528 2.3509511e-38
-0.020561026 -0.10041572 -0.015027981 2.3509873e-38
-0.018720018 -0.10041572 -0.015027981 2.3509873e-38
-0.016879009 -0.10041572 -0.015027981 2.3509876e-38
-0.015038 -0.10041572 -0.015027981 2.3509876e-38
-0.013196992 -0.10041572 -0.015027981 2.3509876e-38
-0.011355981 -0.10041572 -0.015027981 2.3509879e-38
-0.0095149726 -0.10041572 -0.015027981 2.350988e-38
-0.0076739639 -0.10041572 -0.015027981 2.3509883e-38
-0.0058329534 -0.10041572 -0.015027981 2.3509883e-38
-0.0039919447 -0.10041572 -0.015027981 2.3509886e-38
-0.00215449 -0.10137187 -0.019082528 2.341805e-38
-0.00030637346 -0.10137187 -0.019082528 2.3234379e-38
0.0015417449 -0.10137187 -0.019082528 2.3142544e-38
0.0034469757 -0.10444455 -0.032112103 2.3234379e-38
0.0053179394 -0.10444455 -0.032112103 2.3142544e-38
0.0071889032 -0.10444455 -0.032112103 2.3142544e-38
0.009059866 -0.10444455 -0.032112103 2.3142544e-38
0.010930829 -0.10444455 -0.032112103 2.3142544e-38
0.012748622 -0.10349102 -0.028068762 2.2958873e-38
0.014612496 -0.10349102 -0.028068762 2.2958873e-38
0.01647637 -0.10349102 -0.028068762 2.2958873e-38
0.018340245 -0.10349102 -0.028068762 2.2958873e-38
0.020204118 -0.10349102 -0.028068762 2.2867037e-38
0.021651346 -0.099007934 -0.0090583377 2.2958873e-38
0.023339659 -0.097590908 -0.0030494742 2.2591531e-38
0.025059696 -0.096663594 0.00088276342 2.2314589e-38
0.026872808 -0.096663594 0.00088276342 2.1855053e-38
0.028799679 -0.097590908 -0.0030494742 2.2040518e-38
0.030619686 -0.097590908 -0.0030494742 2.158134e-38
0.032536864 -0.098297372 -0.0060452037 2.1305834e-38
0.034362122 -0.098297372 -0.0060452037 2.1489505e-38
0.036187381 -0.098297372 -0.0060452037 2.158134e-38
0.038012639 -0.098297372 -0.0060452037 2.1489505e-38
0.039956771 -0.099007934 -0.0090583377 2.1489505e-38
0.041787311 -0.099007934 -0.0090583377 2.1122163e-38
0.043617852 -0.099007934 -0.0090583377 2.0662985e-38
0.0454484 -0.099007934 -0.0090583377 2.0479314e-38
0.047278941 -0.099007934 -0.0090583377 2.0295643e-38
0.049255602 -0.099722609 -0.012088876 1.9466613e-38
0.051238328 -0.10041572 -0.015027981 1.8360999e-38
0.052927315 -0.099722609 -0.012088876 1.707028e-38
0.054763168 -0.099722609 -0.012088876 1.5411478e-38
0.056599028 -0.099722609 -0.012088876 1.402819e-38
0.058602363 -0.10041572 -0.015027981 1.4027484e-38
0.060443372 -0.10041572 -0.015027981 1.2460888e-38
0.062529638 -0.10137187 -0.019082528 1.2000642e-38
0.064377755 -0.10137187 -0.019082528 1.2002811e-38
0.066225871 -0.10137187 -0.019082528 1.1358171e-38
0.068073995 -0.10137187 -0.019082528 1.0344744e-38
0.070123166 -0.10207425 -0.022060972 1.0343312e-38
0.071976505 -0.10207425 -0.022060972 1.0527343e-38
0.073829845 -0.10207425 -0.022060972 1.071029e-38
0.075901136 -0.10278064 -0.025056344 1.0616651e-38
0.077759728 -0.10278064 -0.025056344 1.0339695e-38
0.07961832 -0.10278064 -0.025056344 1.0247135e-38
0.081711955 -0.10349102 -0.028068762 1.0247491e-38
0.08357583 -0.10349102 -0.028068762 1.0156012e-38
0.085439712 -0.10349102 -0.028068762 9.8794246e-39
0.087303579 -0.10349102 -0.028068762 9.4198884e-39
0.089167461 -0.10349102 -0.028068762 8.7748861e-39
0.091031328 -0.10349102 -0.028068762 8.8678048e-39
0.092895195 -0.10349102 -0.028068762 9.5124512e-39
0.094759077 -0.10349102 -0.028068762 9.9727105e-39
0.096622944 -0.10349102 -0.028068762 1.0156021e-38
0.098486826 -0.10349102 -0.028068762 9.7868759e-39
0.10073707 -0.10444455 -0.032112103 9.3255348e-39
0.10260803 -0.10444455 -0.032112103 9.0478661e-39
0.10447899 -0.10444455 -0.032112103 8.8631105e-39
0.10634996 -0.10444455 -0.032112103 8.4024855e-39
0.1085224 -0.10513772 -0.035051446 7.9415045e-39
0.11039852 -0.10513772 -0.035051446 7.5730793e-39
0.11260025 -0.10586159 -0.038120966 7.2042912e-39
0.11491364 -0.10680611 -0.042126279 6.8362247e-39
0.11680216 -0.10680611 -0.042126279 7.1124515e-39
0.11902413 -0.1075124 -0.045121174 7.848576e-39
0.1205792 -0.10680611 -0.042126279 8.766938e-39
0.12246773 -0.10680611 -0.042126279 8.0272065e-39
0.12435624 -0.10680611 -0.042126279 7.2881855e-39
0.12577073 -0.10586159 -0.038120966 3.9236357e-43
0.12728357 -0.10513772 -0.035051446 1.5414283e-44
0.12915969 -0.10513772 -0.035051446 5.6051939e-45
0.1310358 -0.10513772 -0.035051446 2.7622395e-40
-0.11816563 -0.10631551 -0.032112103 9.6028013e-39
-0.11585867 -0.10535492 -0.028068762 9.5120504e-39
-0.11367525 -0.10463922 -0.025056344 9.2365537e-39
-0.11181666 -0.10463922 -0.025056344 8.500795e-39
-0.10965084 -0.1039276 -0.022060972 8.8706677e-39
-0.10679214 -0.10155846 -0.012088876 9.8859098e-39
-0.10495628 -0.10155846 -0.012088876 8.5958997e-39
-0.10282552 -0.10083848 -0.0090583377 1.0532735e-38
-0.1004208 -0.099410906 -0.0030494742 1.0440186e-38
-0.098231927 -0.098476708 0.00088276342 9.9781307e-39
-0.096418828 -0.098476708 0.00088276342 8.686673e-39
-0.09523128 -0.10012263 -0.0060452037 7.2111828e-39
-0.093406022 -0.10012263 -0.0060452037 6.4718199e-39
-0.092105299 -0.10155846 -0.012088876 6.7476865e-39
-0.090269431 -0.10155846 -0.012088876 7.1161131e-39
-0.088433579 -0.10155846 -0.012088876 5.9175727e-39
-0.086837351 -0.10225673 -0.015027981 5.9186517e-39
-0.084996343 -0.10225673 -0.015027981 5.920088e-39
-0.083155334 -0.10225673 -0.015027981 6.3817823e-39
-0.081314325 -0.10225673 -0.015027981 7.1211438e-39
-0.079473317 -0.10225673 -0.015027981 8.6895415e-39
-0.077927321 -0.10322 -0.019082528 1.0350135e-38
-0.076290712 -0.1039276 -0.022060972 1.1549747e-38
-0.074437365 -0.1039276 -0.022060972 1.4499962e-38
-0.072382972 -0.10322 -0.019082528 1.4314857e-38
-0.070268273 -0.10225673 -0.015027981 1.4774752e-38
-0.068427265 -0.10225673 -0.015027981 1.5880365e-38
-0.066586256 -0.10225673 -0.015027981 1.6985261e-38
-0.064745247 -0.10225673 -0.015027981 1.7445156e-38
-0.062731601 -0.10155846 -0.012088876 1.7628109e-38
-0.060723051 -0.10083848 -0.0090583377 1.7719586e-38
-0.058892511 -0.10083848 -0.0090583377 1.7995092e-38
-0.056740634 -0.099410906 -0.0030494742 1.7439775e-38
-0.054717243 -0.098476708 0.00088276342 1.7159944e-38
-0.052904129 -0.098476708 0.00088276342 2.0567921e-38
-0.051091015 -0.098476708 0.00088276342 2.2591531e-38
-0.049277902 -0.098476708 0.00088276342 2.2774125e-38
-0.047464788 -0.098476708 0.00088276342 2.3141106e-38
-0.045651674 -0.098476708 0.00088276342 2.3509527e-38
-0.043838568 -0.098476708 0.00088276342 2.3509527e-38
-0.042025454 -0.098476708 0.00088276342 2.3509527e-38
-0.040212341 -0.098476708 0.00088276342 2.3417691e-38
-0.038540572 -0.099410906 -0.0030494742 2.3142544e-38
-0.036720566 -0.099410906 -0.0030494742 2.2958873e-38
-0.034900554 -0.099410906 -0.0030494742 2.2958873e-38
-0.033080548 -0.099410906 -0.0030494742 2.2958873e-38
-0.031260543 -0.099410906 -0.0030494742 2.3234379e-38
-0.029440535 -0.099410906 -0.0030494742 2.350988e-38
-0.027850339 -0.10155846 -0.012088876 2.3509873e-38
-0.026014486 -0.10155846 -0.012088876 2.3509873e-38
-0.02417863 -0.10155846 -0.012088876 2.3509517e-38
-0.022342773 -0.10155846 -0.012088876 2.3509517e-38
-0.02050692 -0.10155846 -0.012088876 2.3509879e-38
-0.01867106 -0.10155846 -0.012088876 2.3509524e-38
-0.016835207 -0.10155846 -0.012088876 2.3509527e-38
-0.015038 -0.10225673 -0.015027981 2.3509527e-38
-0.013196992 -0.10225673 -0.015027981 2.3509527e-38
-0.011355981 -0.10225673 -0.015027981 2.3509527e-38
-0.0095149726 -0.10225673 -0.015027981 2.3417691e-38
-0.0076739639 -0.10225673 -0.015027981 2.3509168e-38
-0.0058329534 -0.10225673 -0.015027981 2.3417691e-38
-0.0039919447 -0.10225673 -0.015027981 2.3417333e-38
-0.00214836 -0.10155846 -0.012088876 2.3142185e-38
-0.00031516142 -0.10083848 -0.0090583377 2.2775202e-38
0.001515381 -0.10083848 -0.0090583377 2.2591531e-38
0.0033459235 -0.10083848 -0.0090583377 2.2591531e-38
0.0050786408 -0.097051233 0.0068828054 2.2591531e-38
0.0068812333 -0.097051233 0.0068828054 2.2591531e-38
0.009059866 -0.10631551 -0.032112103 2.2591531e-38
0.010930829 -0.10631551 -0.032112103 2.2499695e-38
0.012801792 -0.10631551 -0.032112103 2.2499695e-38
0.014672756 -0.10631551 -0.032112103 2.2224189e-38
0.016543718 -0.10631551 -0.032112103 2.2316024e-38
0.018340245 -0.10535492 -0.028068762 2.2224189e-38
0.020204118 -0.10535492 -0.028068762 2.2040518e-38
0.021519652 -0.099410906 -0.0030494742 2.1671741e-38
0.023246583 -0.098476708 0.00088276342 2.1118575e-38
0.024981864 -0.097749382 0.0039441772 2.0565051e-38
0.026789609 -0.097749382 0.0039441772 1.982965e-38
0.028597353 -0.097749382 0.0039441772 1.8633632e-38
0.030405099 -0.097749382 0.0039441772 1.7529449e-38
0.032312147 -0.098476708 0.00088276342 1.6607496e-38
0.034259699 -0.099410906 -0.0030494742 1.5962488e-38
0.036187381 -0.10012263 -0.0060452037 1.5685907e-38
0.038012639 -0.10012263 -0.0060452037 1.50409e-38
0.039837904 -0.10012263 -0.0060452037 1.4119668e-38
0.041663162 -0.10012263 -0.0060452037 1.3290273e-38
0.043488421 -0.10012263 -0.0060452037 1.2645986e-38
0.045313679 -0.10012263 -0.0060452037 1.2830739e-38
0.047278941 -0.10083848 -0.0090583377 1.2738906e-38
0.049109481 -0.10083848 -0.0090583377 1.2277928e-38
0.051091462 -0.10155846 -0.012088876 1.1818031e-38
0.052927315 -0.10155846 -0.012088876 1.1818031e-38
0.054763168 -0.10155846 -0.012088876 1.1726196e-38
0.056599028 -0.10155846 -0.012088876 1.1633284e-38
0.058434881 -0.10155846 -0.012088876 1.1447818e-38
0.060270742 -0.10155846 -0.012088876 1.0618786e-38
0.06228438 -0.10225673 -0.015027981 1.0803186e-38
0.064125389 -0.10225673 -0.015027981 1.1081219e-38
0.065966398 -0.10225673 -0.015027981 1.0436938e-38
0.068073995 -0.10322 -0.019082528 1.0160716e-38
0.069922112 -0.10322 -0.019082528 1.0252192e-38
0.071976505 -0.1039276 -0.022060972 9.9748853e-39
0.073829845 -0.1039276 -0.022060972 1.0526253e-38
0.075901136 -0.10463922 -0.025056344 1.0524808e-38
0.077759728 -0.10463922 -0.025056344 1.0339331e-38
0.07961832 -0.10463922 -0.025056344 1.0247488e-38
0.081711955 -0.10535492 -0.028068762 1.0247487e-38
0.08357583 -0.10535492 -0.028068762 1.0155647e-38
0.085439712 -0.10535492 -0.028068762 9.8794204e-39
0.087303579 -0.10535492 -0.028068762 9.6035552e-39
0.089167461 -0.10535492 -0.028068762 1.0432961e-38
0.091031328 -0.10535492 -0.028068762 1.0340766e-38
0.092895195 -0.10535492 -0.028068762 1.024857e-38
0.094759077 -0.10535492 -0.028068762 1.0063816e-38
0.096622944 -0.10535492 -0.028068762 1.0246767e-38
0.098486826 -0.10535492 -0.028068762 1.0246045e-38
0.10035069 -0.10535492 -0.028068762 1.0521909e-38
0.10221457 -0.10535492 -0.028068762 1.0613739e-38
0.10407844 -0.10535492 -0.028068762 1.0614093e-38
0.10634996 -0.10631551 -0.032112103 1.0797763e-38
0.1085224 -0.10701384 -0.035051446 1.0890313e-38
0.11039852 -0.10701384 -0.035051446 1.0798114e-38
0.11302511 -0.10869466 -0.042126279 1.0245294e-38
0.11491364 -0.10869466 -0.042126279 9.6006419e-39
0.11680216 -0.10869466 -0.042126279 1.0060901e-38
0.11902413 -0.10940616 -0.045121174 1.0889942e-38
0.1205792 -0.10869466 -0.042126279 1.061012e-38
0.12246773 -0.10869466 -0.042126279 9.8703891e-39
0.12435624 -0.10869466 -0.042126279 9.3157593e-39
0.12577073 -0.10774307 -0.038120966 5.5571994e-40
0.12693055 -0.10631551 -0.032112103 1.1210388e-44
0.12880151 -0.10631551 -0.032112103 3.6806365e-40
0.13067247 -0.10631551 -0.032112103 3.6734198e-40
-0.12564948 -0.10818647 -0.032112103 9.5890588e-39
-0.12145029 -0.10721879 -0.028068762 1.0237329e-38
-0.11958642 -0.10721879 -0.028068762 9.2289587e-39
-0.11772254 -0.10721879 -0.028068762 1.0799538e-38
-0.11585867 -0.10721879 -0.028068762 1.0247452e-38
-0.11367525 -0.10649781 -0.025056344 9.3273032e-39
-0.11181666 -0.10649781 -0.025056344 9.0525268e-39
-0.10934533 -0.1050681 -0.019082528 8.7770315e-39
-0.10679214 -0.10339431 -0.012088876 9.0550688e-39
-0.10465607 -0.10266902 -0.0090583377 8.5026251e-39
-0.10253231 -0.10194789 -0.0060452037 9.7011767e-39
-0.10004504 -0.10028981 0.00088276342 8.779226e-39
-0.098231927 -0.10028981 0.00088276342 9.4238779e-39
-0.096418828 -0.10028981 0.00088276342 9.607193e-39
-0.094329268 -0.099557132 0.0039441772 7.4859746e-39
-0.092521533 -0.099557132 0.0039441772 6.2859923e-39
-0.090979487 -0.10028981 0.00088276342 5.9164909e-39
-0.089500755 -0.10123092 -0.0030494742 5.0867302e-39
-0.087680757 -0.10123092 -0.0030494742 4.9941815e-39
-0.085860744 -0.10123092 -0.0030494742 3.7959998e-39
-0.084279731 -0.10194789 -0.0060452037 5.5484385e-39
-0.082454473 -0.10194789 -0.0060452037 3.9821918e-39
-0.080629215 -0.10194789 -0.0060452037 4.7211987e-39
-0.078580722 -0.10123092 -0.0030494742 5.3676443e-39
-0.076760709 -0.10123092 -0.0030494742 7.48922e-39
-0.075367391 -0.10266902 -0.0090583377 1.0440188e-38
-0.073746741 -0.10339431 -0.012088876 1.173019e-38
-0.071910873 -0.10339431 -0.012088876 1.3205297e-38
-0.07007502 -0.10339431 -0.012088876 1.4771882e-38
-0.068239167 -0.10339431 -0.012088876 1.5784942e-38
-0.066403314 -0.10339431 -0.012088876 1.6706526e-38
-0.064745247 -0.10409774 -0.015027981 1.7903974e-38
-0.062731601 -0.10339431 -0.012088876 1.882484e-38
-0.060723051 -0.10266902 -0.0090583377 1.9193259e-38
-0.058892511 -0.10266902 -0.0090583377 1.937693e-38
-0.056740634 -0.10123092 -0.0030494742 1.9743554e-38
-0.054558888 -0.099557132 0.0039441772 2.0202014e-38
-0.052751154 -0.099557132 0.0039441772 2.0935972e-38
-0.050943404 -0.099557132 0.0039441772 2.2039072e-38
-0.049277902 -0.10028981 0.00088276342 2.2958863e-38
-0.047464788 -0.10028981 0.00088276342 2.3509873e-38
-0.045651674 -0.10028981 0.00088276342 2.3325843e-38
-0.043838568 -0.10028981 0.00088276342 2.2773391e-38
-0.042025454 -0.10028981 0.00088276342 2.2313498e-38
-0.040212341 -0.10028981 0.00088276342 2.1669573e-38
-0.038399234 -0.10028981 0.00088276342 2.0933451e-38
-0.036586121 -0.10028981 0.00088276342 2.0472836e-38
-0.034773007 -0.10028981 0.00088276342 2.0197331e-38
-0.032959893 -0.10028981 0.00088276342 2.0658309e-38
-0.031260543 -0.10123092 -0.0030494742 2.1486628e-38
-0.029440535 -0.10123092 -0.0030494742 2.2867037e-38
-0.02762053 -0.10123092 -0.0030494742 2.3234379e-38
-0.026014486 -0.10339431 -0.012088876 2.3142544e-38
-0.02417863 -0.10339431 -0.012088876 2.2589734e-38
-0.022342773 -0.10339431 -0.012088876 2.2774125e-38
-0.02050692 -0.10339431 -0.012088876 2.3142544e-38
-0.01867106 -0.10339431 -0.012088876 2.3142544e-38
-0.016835207 -0.10339431 -0.012088876 2.2958873e-38
-0.014999351 -0.10339431 -0.012088876 2.286632e-38
-0.013163494 -0.10339431 -0.012088876 2.268229e-38
-0.011327637 -0.10339431 -0.012088876 2.2774484e-38
-0.0094678719 -0.10266902 -0.0090583377 2.2774843e-38
-0.0076373294 -0.10266902 -0.0090583377 2.286632e-38
-0.0058067869 -0.10266902 -0.0090583377 2.2774484e-38
-0.0039762445 -0.10266902 -0.0090583377 2.2590096e-38
-0.00214836 -0.10339431 -0.012088876 2.17625e-38
-0.00031516142 -0.10266902 -0.0090583377 2.1488429e-38
0.001515381 -0.10266902 -0.0090583377 2.1028534e-38
0.0032760482 -0.098853827 0.0068828054 2.0014756e-38
0.0050600721 -0.098129645 0.0099086948 1.8539648e-38
0.0068573589 -0.098129645 0.0099086948 1.77099e-38
0.0086546456 -0.098129645 0.0099086948 1.8079036e-38
0.010486417 -0.098853827 0.0068828054 1.8909501e-38
0.012289009 -0.098853827 0.0068828054 1.9554861e-38
0.014091602 -0.098853827 0.0068828054 1.9186084e-38
0.015894193 -0.098853827 0.0068828054 1.844853e-38
0.017696787 -0.098853827 0.0068828054 1.7434384e-38
0.019499378 -0.098853827 0.0068828054 1.6789014e-38
0.021366375 -0.099557132 0.0039441772 1.6420235e-38
0.02317412 -0.099557132 0.0039441772 1.6143648e-38
0.024981864 -0.099557132 0.0039441772 1.5682672e-38
0.026789609 -0.099557132 0.0039441772 1.5038388e-38
0.028597353 -0.099557132 0.0039441772 1.4671413e-38
0.030405099 -0.099557132 0.0039441772 1.4488465e-38
0.032312147 -0.10028981 0.00088276342 1.4580663e-38
0.034259699 -0.10123092 -0.0030494742 1.4212604e-38
0.036079705 -0.10123092 -0.0030494742 1.3935662e-38
0.03789971 -0.10123092 -0.0030494742 1.3659441e-38
0.039719723 -0.10123092 -0.0030494742 1.3475414e-38
0.041663162 -0.10194789 -0.0060452037 1.3292105e-38
0.043488421 -0.10194789 -0.0060452037 1.1817338e-38
0.045313679 -0.10194789 -0.0060452037 1.2095006e-38
0.047138937 -0.10194789 -0.0060452037 1.2095368e-38
0.049109481 -0.10266902 -0.0090583377 1.1634393e-38
0.050940022 -0.10266902 -0.0090583377 1.1173775e-38
0.052927315 -0.10339431 -0.012088876 1.1358166e-38
0.054601111 -0.10266902 -0.0090583377 1.1359245e-38
0.056431651 -0.10266902 -0.0090583377 1.1542912e-38
0.058434881 -0.10339431 -0.012088876 1.1725498e-38
0.060270742 -0.10339431 -0.012088876 1.1541104e-38
0.06228438 -0.10409774 -0.015027981 1.1265246e-38
0.064125389 -0.10409774 -0.015027981 1.1081579e-38
0.065966398 -0.10409774 -0.015027981 1.0805718e-38
0.068073995 -0.1050681 -0.019082528 1.0437657e-38
0.069922112 -0.1050681 -0.019082528 9.8837644e-39
0.071976505 -0.10578094 -0.022060972 9.6057356e-39
0.073829845 -0.10578094 -0.022060972 1.0894667e-38
0.075901136 -0.10649781 -0.025056344 1.0616634e-38
0.077759728 -0.10649781 -0.025056344 1.0431158e-38
0.07961832 -0.10649781 -0.025056344 1.0523348e-38
0.081476912 -0.10649781 -0.025056344 1.0615899e-38
0.083335504 -0.10649781 -0.025056344 1.0340033e-38
0.085194111 -0.10649781 -0.025056344 1.0248556e-38
0.087052703 -0.10649781 -0.025056344 1.0432947e-38
0.088911295 -0.10649781 -0.025056344 1.0616623e-38
0.090769887 -0.10649781 -0.025056344 1.089213e-38
0.092895195 -0.10721879 -0.028068762 1.1168357e-38
0.094759077 -0.10721879 -0.028068762 1.1536058e-38
0.096622944 -0.10721879 -0.028068762 1.1627889e-38
0.098486826 -0.10721879 -0.028068762 1.1627526e-38
0.10035069 -0.10721879 -0.028068762 1.1442409e-38
0.10221457 -0.10721879 -0.028068762 1.1257656e-38
0.10407844 -0.10721879 -0.028068762 1.0888868e-38
0.10634996 -0.10818647 -0.032112103 1.0888144e-38
0.1085224 -0.10888995 -0.035051446 1.0980695e-38
0.11071874 -0.10962458 -0.038120966 1.1257279e-38
0.11302511 -0.11058317 -0.042126279 1.1072885e-38
0.11523658 -0.11129995 -0.045121174 1.0520788e-38
0.11713035 -0.11129995 -0.045121174 1.0704459e-38
0.11902413 -0.11129995 -0.045121174 1.1164718e-38
0.1205792 -0.11058317 -0.042126279 1.2268552e-38
0.12246773 -0.11058317 -0.042126279 1.1897963e-38
0.12435624 -0.11058317 -0.042126279 1.0144433e-38
0.12577073 -0.10962458 -0.038120966 3.6988394e-40
0.12693055 -0.10818647 -0.032112103 5.6051939e-45
0.12880151 -0.10818647 -0.032112103 7.361231e-40
-0.12190756 -0.11005743 -0.032112103 9.8689023e-39
-0.11958642 -0.10908265 -0.028068762 1.2269255e-38
-0.11772254 -0.10908265 -0.028068762 1.3194464e-38
-0.11585867 -0.10908265 -0.028068762 1.2181401e-38
-0.11367525 -0.1083564 -0.025056344 1.1353449e-38
-0.11181666 -0.1083564 -0.025056344 1.0802084e-38
-0.10934533 -0.10691623 -0.019082528 9.420959e-39
-0.1064866 -0.10449956 -0.0090583377 8.6844842e-39
-0.10435757 -0.10377313 -0.0060452037 7.4870312e-39
-0.10185815 -0.10210292 0.00088276342 6.5650833e-39
-0.099752501 -0.10136487 0.0039441772 5.3665457e-39
-0.09766911 -0.10065642 0.0068828054 4.8126559e-39
-0.095587984 -0.099926919 0.0099086948 4.0750908e-39
-0.093790695 -0.099926919 0.0099086948 4.073293e-39
-0.091993406 -0.099926919 0.0099086948 5.4558673e-39
-0.090196118 -0.099926919 0.0099086948 6.1916317e-39
-0.088398844 -0.099926919 0.0099086948 4.624306e-39
-0.086601555 -0.099926919 0.0099086948 4.7165058e-39
-0.08505097 -0.10065642 0.0068828054 1.5822201e-39
-0.084040731 -0.10305093 -0.0030494742 2.0439227e-39
-0.082220733 -0.10305093 -0.0030494742 1.7677016e-39
-0.080100805 -0.10210292 0.00088276342 2.7822192e-39
-0.078287706 -0.10210292 0.00088276342 1.492921e-39
-0.076474592 -0.10210292 0.00088276342 1.5861956e-39
-0.074940696 -0.10305093 -0.0030494742 3.6144952e-39
-0.073536843 -0.10449956 -0.0090583377 3.4297326e-39
-0.071300685 -0.10305093 -0.0030494742 7.1175438e-39
-0.069480687 -0.10305093 -0.0030494742 1.1358166e-38
-0.068045229 -0.10449956 -0.0090583377 1.3478287e-38
-0.066403314 -0.10523017 -0.012088876 1.4307308e-38
-0.064745247 -0.10593875 -0.015027981 1.5689507e-38
-0.062731601 -0.10523017 -0.012088876 1.7902181e-38
-0.059470832 -0.099201679 0.012916941 1.9928301e-38
-0.057349443 -0.097763941 0.018880624 2.0387479e-38
-0.05556789 -0.097763941 0.018880624 2.0295643e-38
-0.05378633 -0.097763941 0.018880624 2.0754462e-38
-0.052453101 -0.099926919 0.0099086948 2.1673176e-38
-0.050943404 -0.10136487 0.0039441772 2.2591531e-38
-0.049135655 -0.10136487 0.0039441772 2.2958867e-38
-0.047327921 -0.10136487 0.0039441772 2.3142537e-38
-0.045651674 -0.10210292 0.00088276342 2.3142538e-38
-0.043838568 -0.10210292 0.00088276342 2.2867037e-38
-0.042025454 -0.10210292 0.00088276342 2.2499695e-38
-0.040212341 -0.10210292 0.00088276342 2.2040518e-38
-0.038399234 -0.10210292 0.00088276342 2.1765011e-38
-0.036586121 -0.10210292 0.00088276342 2.158134e-38
-0.034773007 -0.10210292 0.00088276342 2.1856847e-38
-0.032959893 -0.10210292 0.00088276342 2.1856847e-38
-0.031260543 -0.10305093 -0.0030494742 2.1856847e-38
-0.029440535 -0.10305093 -0.0030494742 2.1672817e-38
-0.02762053 -0.10305093 -0.0030494742 2.2132353e-38
-0.025800521 -0.10305093 -0.0030494742 2.2224189e-38
-0.02417863 -0.10523017 -0.012088876 2.2132353e-38
-0.022342773 -0.10523017 -0.012088876 2.2132353e-38
-0.02050692 -0.10523017 -0.012088876 2.2132353e-38
-0.01867106 -0.10523017 -0.012088876 2.1579547e-38
-0.016373659 -0.097763941 0.018880624 2.056541e-38
-0.014592102 -0.097763941 0.018880624 1.844566e-38
-0.012810545 -0.097763941 0.018880624 1.6877984e-38
-0.011327637 -0.10523017 -0.012088876 1.4850046e-38
-0.0094678719 -0.10449956 -0.0090583377 1.3282366e-38
-0.0076373294 -0.10449956 -0.0090583377 1.1715043e-38
-0.0058067869 -0.10449956 -0.0090583377 1.0239916e-38
-0.003902765 -0.097763941 0.018880624 9.2254078e-39
-0.0021212101 -0.097763941 0.018880624 8.5822006e-39
-0.00033965334 -0.097763941 0.018880624 6.6493406e-39
0.0014734566 -0.10065642 0.0068828054 7.019565e-39
0.0032760482 -0.10065642 0.0068828054 7.6649316e-39
0.0050600721 -0.099926919 0.0099086948 7.9418759e-39
0.0068573589 -0.099926919 0.0099086948 8.495044e-39
0.0086838249 -0.10065642 0.0068828054 9.7861388e-39
0.010486417 -0.10065642 0.0068828054 1.0893563e-38
0.012289009 -0.10065642 0.0068828054 1.1723322e-38
0.014091602 -0.10065642 0.0068828054 1.2829667e-38
0.015894193 -0.10065642 0.0068828054 1.2737471e-38
0.017696787 -0.10065642 0.0068828054 1.2828946e-38
0.019499378 -0.10065642 0.0068828054 1.2921142e-38
0.02130197 -0.10065642 0.0068828054 1.3289569e-38
0.02317412 -0.10136487 0.0039441772 1.3658351e-38
0.024981864 -0.10136487 0.0039441772 1.3750548e-38
0.026789609 -0.10136487 0.0039441772 1.3567236e-38
0.028597353 -0.10136487 0.0039441772 1.4212249e-38
0.030405099 -0.10136487 0.0039441772 1.4305167e-38
0.032312147 -0.10210292 0.00088276342 1.4397006e-38
0.034259699 -0.10305093 -0.0030494742 1.4213335e-38
0.036079705 -0.10305093 -0.0030494742 1.4028588e-38
0.03789971 -0.10305093 -0.0030494742 1.3568693e-38
0.039719723 -0.10305093 -0.0030494742 1.3384663e-38
0.041539729 -0.10305093 -0.0030494742 1.3200992e-38
0.043359734 -0.10305093 -0.0030494742 1.2371603e-38
0.045313679 -0.10377313 -0.0060452037 1.2463797e-38
0.047138937 -0.10377313 -0.0060452037 1.2187573e-38
0.048964195 -0.10377313 -0.0060452037 1.1910989e-38
0.050940022 -0.10449956 -0.0090583377 1.1635483e-38
0.052770562 -0.10449956 -0.0090583377 1.1819873e-38
0.054601111 -0.10449956 -0.0090583377 1.1727677e-38
0.056431651 -0.10449956 -0.0090583377 1.154256e-38
0.058262192 -0.10449956 -0.0090583377 1.1355994e-38
0.060270742 -0.10523017 -0.012088876 1.1539661e-38
0.062106594 -0.10523017 -0.012088876 1.1356713e-38
0.064125389 -0.10593875 -0.015027981 1.1173766e-38
0.065966398 -0.10593875 -0.015027981 1.1174131e-38
0.068073995 -0.10691623 -0.019082528 1.0989383e-38
0.069922112 -0.10691623 -0.019082528 1.0804629e-38
0.071976505 -0.10763429 -0.022060972 1.0895381e-38
0.073829845 -0.10763429 -0.022060972 1.0432597e-38
0.075683184 -0.10763429 -0.022060972 1.0707739e-38
0.077759728 -0.1083564 -0.025056344 1.116763e-38
0.07961832 -0.1083564 -0.025056344 1.1352018e-38
0.081476912 -0.1083564 -0.025056344 1.1352374e-38
0.083335504 -0.1083564 -0.025056344 1.1076508e-38
0.085194111 -0.1083564 -0.025056344 1.1353813e-38
0.087052703 -0.1083564 -0.025056344 1.1999183e-38
0.088911295 -0.1083564 -0.025056344 1.1813352e-38
0.090769887 -0.1083564 -0.025056344 1.1904826e-38
0.092895195 -0.10908265 -0.028068762 1.2273249e-38
0.094759077 -0.10908265 -0.028068762 1.3009733e-38
0.096622944 -0.10908265 -0.028068762 1.3746933e-38
0.098486826 -0.10908265 -0.028068762 1.4114992e-38
0.10035069 -0.10908265 -0.028068762 1.3929881e-38
0.10260803 -0.11005743 -0.032112103 1.3745124e-38
0.10447899 -0.11005743 -0.032112103 1.3191224e-38
0.10664628 -0.11076607 -0.035051446 1.3099386e-38
0.1085224 -0.11076607 -0.035051446 1.3191579e-38
0.11071874 -0.11150609 -0.038120966 1.3468163e-38
0.11334281 -0.11319371 -0.045121174 1.3560714e-38
0.11523658 -0.11319371 -0.045121174 1.365363e-38
0.11713035 -0.11319371 -0.045121174 1.4114966e-38
0.11902413 -0.11319371 -0.045121174 1.4851453e-38
0.1205792 -0.11247168 -0.042126279 1.4295765e-38
0.12246773 -0.11247168 -0.042126279 1.346492e-38
0.12435624 -0.11247168 -0.042126279 1.1066022e-38
0.12624475 -0.11247168 -0.042126279 1.0152449e-39
0.12728357 -0.11076607 -0.035051446 6.4465335e-40
0.12915969 -0.11076607 -0.035051446 1.4736853e-39
0.13291192 -0.11076607 -0.035051446 1.9346635e-39
-0.12190756 -0.11192839 -0.032112103 1.1251118e-38
-0.11958642 -0.11094652 -0.028068762 1.2635881e-38
-0.11739244 -0.11021499 -0.025056344 1.3559656e-38
-0.11553384 -0.11021499 -0.025056344 1.2362556e-38
-0.11367525 -0.11021499 -0.025056344 1.1626799e-38
-0.11150417 -0.10948761 -0.022060972 1.1260905e-38
-0.10934533 -0.10876434 -0.019082528 1.0063812e-38
-0.1064866 -0.10633011 -0.0090583377 9.0514688e-39
-0.10406081 -0.10487093 -0.0030494742 7.3933936e-39
-0.10156025 -0.10317262 0.0039441772 7.8547375e-39
-0.099471703 -0.10245901 0.0068828054 5.8271567e-39
-0.097385272 -0.10172421 0.0099086948 4.5353389e-39
-0.095587984 -0.10172421 0.0099086948 3.7974137e-39
-0.093519062 -0.10099369 0.012916941 4.0725587e-39
-0.091727048 -0.10099369 0.012916941 5.5469671e-39
-0.089935035 -0.10099369 0.012916941 6.560396e-39
-0.08763589 -0.099545494 0.018880624 6.0994178e-39
-0.085854337 -0.099545494 0.018880624 5.6380865e-39
-0.084072784 -0.099545494 0.018880624 3.0562544e-39
-0.083006978 -0.10172421 0.0099086948 3.0569802e-39
-0.081445783 -0.10245901 0.0068828054 3.2410198e-39
-0.07964319 -0.10245901 0.0068828054 4.163346e-39
-0.077840596 -0.10245901 0.0068828054 3.0577243e-39
-0.076038003 -0.10245901 0.0068828054 2.5971105e-39
-0.074444085 -0.10317262 0.0039441772 3.6112625e-39
-0.073120698 -0.10487093 -0.0030494742 4.0722364e-39
-0.071035251 -0.10391603 0.00088276342 6.8380941e-39
-0.069222137 -0.10391603 0.00088276342 9.8801757e-39
-0.067660674 -0.10487093 -0.0030494742 1.153968e-38
-0.065840676 -0.10487093 -0.0030494742 1.2645292e-38
-0.062325329 -0.098065019 0.024977226 1.4489191e-38
-0.06055446 -0.098065019 0.024977226 1.7346863e-38
-0.058783591 -0.098065019 0.024977226 1.9559524e-38
-0.056851432 -0.097355813 0.027897734 2.0662985e-38
-0.055085681 -0.097355813 0.027897734 2.0203449e-38
-0.053470999 -0.098065019 0.024977226 2.0477521e-38
-0.052004769 -0.099545494 0.018880624 2.139731e-38
-0.051091015 -0.10391603 0.00088276342 2.2132353e-38
-0.049135655 -0.10317262 0.0039441772 2.2224189e-38
-0.047327921 -0.10317262 0.0039441772 2.2131636e-38
-0.045651674 -0.10391603 0.00088276342 2.2224189e-38
-0.044000588 -0.10487093 -0.0030494742 2.2224189e-38
-0.042180583 -0.10487093 -0.0030494742 2.1856847e-38
-0.040360577 -0.10487093 -0.0030494742 2.1397669e-38
-0.038399234 -0.10391603 0.00088276342 2.1305834e-38
-0.036586121 -0.10391603 0.00088276342 2.1213998e-38
-0.034900554 -0.10487093 -0.0030494742 2.1213998e-38
-0.033080548 -0.10487093 -0.0030494742 2.1213998e-38
-0.031260543 -0.10487093 -0.0030494742 2.0754821e-38
-0.029440535 -0.10487093 -0.0030494742 2.0846656e-38
-0.02762053 -0.10487093 -0.0030494742 2.057115e-38
-0.025137128 -0.098065019 0.024977226 2.0295643e-38
-0.023366267 -0.098065019 0.024977226 1.9466613e-38
-0.021595398 -0.098065019 0.024977226 1.8636865e-38
-0.019880483 -0.098803028 0.021938104 1.7345787e-38
-0.018104287 -0.098803028 0.021938104 1.5409349e-38
-0.016328091 -0.098803028 0.021938104 1.3749479e-38
-0.014592102 -0.099545494 0.018880624 9.8772666e-39
-0.012810545 -0.099545494 0.018880624 8.4017834e-39
-0.011028988 -0.099545494 0.018880624 7.1110474e-39
-0.0092233103 -0.098803028 0.021938104 6.5575191e-39
-0.0074471142 -0.098803028 0.021938104 5.8199569e-39
-0.0056843217 -0.099545494 0.018880624 4.8980006e-39
-0.0038867313 -0.098065019 0.024977226 4.805449e-39
-0.002113305 -0.097355813 0.027897734 4.9920011e-39
-0.00034755841 -0.097355813 0.027897734 3.4275606e-39
0.0014181864 -0.097355813 0.027897734 4.2594821e-39
0.0032760482 -0.10245901 0.0068828054 5.8260819e-39
0.0050786408 -0.10245901 0.0068828054 6.7480354e-39
0.0068812333 -0.10245901 0.0068828054 7.5781506e-39
0.0086838249 -0.10245901 0.0068828054 8.6844926e-39
0.010486417 -0.10245901 0.0068828054 9.5146092e-39
0.012289009 -0.10245901 0.0068828054 9.8833875e-39
0.014091602 -0.10245901 0.0068828054 1.1543265e-38
0.015894193 -0.10245901 0.0068828054 1.1819852e-38
0.017696787 -0.10245901 0.0068828054 1.2464502e-38
0.019499378 -0.10245901 0.0068828054 1.292548e-38
0.02130197 -0.10245901 0.0068828054 1.3386457e-38
0.02317412 -0.10317262 0.0039441772 1.3755234e-38
0.024907155 -0.10245901 0.0068828054 1.4124011e-38
0.026709747 -0.10245901 0.0068828054 1.4583547e-38
0.028597353 -0.10317262 0.0039441772 1.4029299e-38
0.030405099 -0.10317262 0.0039441772 1.4396996e-38
0.032212839 -0.10317262 0.0039441772 1.4673227e-38
0.034125254 -0.10391603 0.00088276342 1.4581753e-38
0.035938367 -0.10391603 0.00088276342 1.4489201e-38
0.03789971 -0.10487093 -0.0030494742 1.4121141e-38
0.039719723 -0.10487093 -0.0030494742 1.3936394e-38
0.041539729 -0.10487093 -0.0030494742 1.3753082e-38
0.043359734 -0.10487093 -0.0030494742 1.3108079e-38
0.045313679 -0.10559841 -0.0060452037 1.3015884e-38
0.047138937 -0.10559841 -0.0060452037 1.2555985e-38
0.048964195 -0.10559841 -0.0060452037 1.2371593e-38
0.050940022 -0.10633011 -0.0090583377 1.2647823e-38
0.052770562 -0.10633011 -0.0090583377 1.2832932e-38
0.054601111 -0.10633011 -0.0090583377 1.264854e-38
0.056431651 -0.10633011 -0.0090583377 1.246306e-38
0.058262192 -0.10633011 -0.0090583377 1.2737475e-38
0.060270742 -0.10706602 -0.012088876 1.2921142e-38
0.062106594 -0.10706602 -0.012088876 1.2737475e-38
0.064125389 -0.10777976 -0.015027981 1.2277582e-38
0.065966398 -0.10777976 -0.015027981 1.1817327e-38
0.067807406 -0.10777976 -0.015027981 1.1448544e-38
0.069922112 -0.10876434 -0.019082528 1.1447821e-38
0.071770228 -0.10876434 -0.019082528 1.1631128e-38
0.073829845 -0.10948761 -0.022060972 1.1812997e-38
0.075683184 -0.10948761 -0.022060972 1.2365443e-38
0.077759728 -0.11021499 -0.025056344 1.2917891e-38
0.07961832 -0.11021499 -0.025056344 1.2917888e-38
0.081476912 -0.11021499 -0.025056344 1.2272519e-38
0.083335504 -0.11021499 -0.025056344 1.1628228e-38
0.085194111 -0.11021499 -0.025056344 1.1905897e-38
0.087052703 -0.11021499 -0.025056344 1.282749e-38
0.088911295 -0.11021499 -0.025056344 1.34707e-38
0.090769887 -0.11021499 -0.025056344 1.3654369e-38
0.092895195 -0.11094652 -0.028068762 1.3838038e-38
0.094759077 -0.11094652 -0.028068762 1.4298653e-38
0.096622944 -0.11094652 -0.028068762 1.4942941e-38
0.098486826 -0.11094652 -0.028068762 1.5126968e-38
0.10035069 -0.11094652 -0.028068762 1.4941854e-38
0.10260803 -0.11192839 -0.032112103 1.4573068e-38
0.10447899 -0.11192839 -0.032112103 1.4849291e-38
0.10664628 -0.11264218 -0.035051446 1.4849647e-38
0.1085224 -0.11264218 -0.035051446 1.457306e-38
0.1111366 -0.1143602 -0.042126279 1.429647e-38
0.11302511 -0.1143602 -0.042126279 1.4388666e-38
0.11491364 -0.1143602 -0.042126279 1.485036e-38
0.11680216 -0.1143602 -0.042126279 1.5495729e-38
0.11902413 -0.11508749 -0.045121174 1.5955991e-38
0.1205792 -0.1143602 -0.042126279 1.6416254e-38
0.12246773 -0.1143602 -0.042126279 1.5122994e-38
0.12435624 -0.1143602 -0.042126279 1.1803218e-38
0.12577073 -0.11338757 -0.038120966 1.1989103e-39
0.12765223 -0.11338757 -0.038120966 6.4500647e-40
0.12953372 -0.11338757 -0.038120966 1.7499107e-39
-0.12190756 -0.11379938 -0.032112103 1.3463091e-38
-0.11958642 -0.11281042 -0.028068762 1.6875437e-38
-0.11739244 -0.11207359 -0.025056344 1.8443857e-38
-0.11553384 -0.11207359 -0.025056344 1.6417361e-38
-0.11335751 -0.11134095 -0.022060972 1.3837689e-38
-0.11150417 -0.11134095 -0.022060972 1.2365088e-38
-0.10862799 -0.10890187 -0.012088876 1.1261269e-38
-0.10618284 -0.10742365 -0.0060452037 9.9719804e-39
-0.10367127 -0.10572915 0.00088276342 7.4841459e-39
-0.1012743 -0.10426159 0.0068828054 7.4855893e-39
-0.099182561 -0.10352151 0.0099086948 5.2732571e-39
-0.097103089 -0.10278571 0.012916941 4.2583863e-39
-0.095311075 -0.10278571 0.012916941 4.1665466e-39
-0.093249023 -0.10205424 0.015907545 2.9665615e-39
-0.091462255 -0.10205424 0.015907545 1.4907111e-39
-0.089675486 -0.10205424 0.015907545 2.2275531e-39
-0.087375894 -0.10057923 0.021938104 4.0707468e-39
-0.085346594 -0.099835888 0.024977226 5.3614884e-39
-0.08333762 -0.099121556 0.027897734 5.1767426e-39
-0.081094071 -0.097656667 0.033886928 4.9005215e-39
-0.079338834 -0.097656667 0.033886928 3.609431e-39
-0.07964319 -0.10426159 0.0068828054 3.0559054e-39
-0.077840596 -0.10426159 0.0068828054 2.8711639e-39
-0.076038003 -0.10426159 0.0068828054 2.5953014e-39
-0.074444085 -0.10498036 0.0039441772 2.5953042e-39
-0.073120698 -0.10669093 -0.0030494742 4.4392168e-39
-0.068196714 -0.095444039 0.042933185 5.9136211e-39
-0.066457316 -0.095444039 0.042933185 7.4812985e-39
-0.064717934 -0.095444039 0.042933185 8.4028848e-39
-0.062978551 -0.095444039 0.042933185 9.4177416e-39
-0.061239168 -0.095444039 0.042933185 1.1446034e-38
-0.060031131 -0.097656667 0.033886928 1.4304095e-38
-0.058275893 -0.097656667 0.033886928 1.6517474e-38
-0.056520641 -0.097656667 0.033886928 1.6701503e-38
-0.054765403 -0.097656667 0.033886928 1.5870306e-38
-0.053010151 -0.097656667 0.033886928 1.5684112e-38
-0.051254913 -0.097656667 0.033886928 1.6328036e-38
-0.051091015 -0.10572915 0.00088276342 1.6787933e-38
-0.049277902 -0.10572915 0.00088276342 1.6602462e-38
-0.047464788 -0.10572915 0.00088276342 1.641915e-38
-0.045820594 -0.10669093 -0.0030494742 1.6696103e-38
-0.044124022 -0.10742365 -0.0060452037 1.5499004e-38
-0.042298764 -0.10742365 -0.0060452037 1.5408252e-38
-0.040473506 -0.10742365 -0.0060452037 1.5316782e-38
-0.037212953 -0.097656667 0.033886928 1.513347e-38
-0.035457708 -0.097656667 0.033886928 1.4949798e-38
-0.03360299 -0.096906602 0.036953527 1.4764685e-38
-0.031853124 -0.096906602 0.036953527 1.4302983e-38
-0.030191975 -0.097656667 0.033886928 1.3290276e-38
-0.02843673 -0.097656667 0.033886928 1.1725481e-38
-0.026757391 -0.098386943 0.030901212 9.974853e-39
-0.025137128 -0.099835888 0.024977226 7.8543564e-39
-0.023366267 -0.099835888 0.024977226 6.0104452e-39
-0.021595398 -0.099835888 0.024977226 4.7193532e-39
-0.019880483 -0.10057923 0.021938104 3.5204555e-39
-0.018104287 -0.10057923 0.021938104 2.2297223e-39
-0.016328091 -0.10057923 0.021938104 1.3074129e-39
-0.014592102 -0.10132705 0.018880624 2.6903487e-39
-0.012810545 -0.10132705 0.018880624 2.2279356e-39
-0.011028988 -0.10132705 0.018880624 2.5045253e-39
-0.0092233103 -0.10057923 0.021938104 3.5186801e-39
-0.0074471142 -0.10057923 0.021938104 3.8871053e-39
-0.0056843217 -0.10132705 0.018880624 3.5183227e-39
-0.0038867313 -0.099835888 0.024977226 3.9793009e-39
-0.002113305 -0.099121556 0.027897734 4.7186638e-39
-0.00034755841 -0.099121556 0.027897734 6.4718227e-39
0.0014338605 -0.10057923 0.021938104 7.3952181e-39
0.0032495987 -0.10278571 0.012916941 9.0540164e-39
0.0050416114 -0.10278571 0.012916941 1.0160718e-38
0.0068573589 -0.10352151 0.0099086948 1.1174865e-38
0.0086546456 -0.10352151 0.0099086948 1.2097173e-38
0.010451932 -0.10352151 0.0099086948 1.2742891e-38
0.012289009 -0.10426159 0.0068828054 1.3019115e-38
0.014091602 -0.10426159 0.0068828054 1.2742528e-38
0.015894193 -0.10426159 0.0068828054 1.3479369e-38
0.017696787 -0.10426159 0.0068828054 1.4124728e-38
0.019499378 -0.10426159 0.0068828054 1.4401311e-38
0.02130197 -0.10426159 0.0068828054 1.4492788e-38
0.023104561 -0.10426159 0.0068828054 1.4492788e-38
0.024907155 -0.10426159 0.0068828054 1.4677176e-38
0.026709747 -0.10426159 0.0068828054 1.5229265e-38
0.028597353 -0.10498036 0.0039441772 1.5502614e-38
0.030405099 -0.10498036 0.0039441772 1.60547e-38
0.032212839 -0.10498036 0.0039441772 1.6423486e-38
0.034125254 -0.10572915 0.00088276342 1.651568e-38
0.035938367 -0.10572915 0.00088276342 1.6423127e-38
0.03789971 -0.10669093 -0.0030494742 1.6055426e-38
0.039719723 -0.10669093 -0.0030494742 1.5870679e-38
0.041539729 -0.10669093 -0.0030494742 1.5778485e-38
0.043359734 -0.10669093 -0.0030494742 1.6055426e-38
0.045313679 -0.10742365 -0.0060452037 1.614762e-38
0.047138937 -0.10742365 -0.0060452037 1.5872114e-38
0.048964195 -0.10742365 -0.0060452037 1.577992e-38
0.050940022 -0.10816063 -0.0090583377 1.6056502e-38
0.052770562 -0.10816063 -0.0090583377 1.6517474e-38
0.054601111 -0.10816063 -0.0090583377 1.6610027e-38
0.056431651 -0.10816063 -0.0090583377 1.6424921e-38
0.058262192 -0.10816063 -0.0090583377 1.7158887e-38
0.060270742 -0.10890187 -0.012088876 1.7342917e-38
0.062106594 -0.10890187 -0.012088876 1.6883381e-38
0.064125389 -0.10962076 -0.015027981 1.6330571e-38
0.065966398 -0.10962076 -0.015027981 1.5410057e-38
0.067807406 -0.10962076 -0.015027981 1.4949079e-38
0.069922112 -0.11061247 -0.019082528 1.5224224e-38
0.071770228 -0.11061247 -0.019082528 1.5316053e-38
0.073829845 -0.11134095 -0.022060972 1.6420237e-38
0.075683184 -0.11134095 -0.022060972 1.6788651e-38
0.077759728 -0.11207359 -0.025056344 1.7156714e-38
0.07961832 -0.11207359 -0.025056344 1.7064874e-38
0.081476912 -0.11207359 -0.025056344 1.6234757e-38
0.083335504 -0.11207359 -0.025056344 1.5314239e-38
0.085194111 -0.11207359 -0.025056344 1.531496e-38
0.087052703 -0.11207359 -0.025056344 1.6051805e-38
0.088911295 -0.11207359 -0.025056344 1.8354534e-38
0.091031328 -0.11281042 -0.028068762 1.8538559e-38
0.092895195 -0.11281042 -0.028068762 1.890662e-38
0.094759077 -0.11281042 -0.028068762 1.8906617e-38
0.096622944 -0.11281042 -0.028068762 1.8906254e-38
0.098486826 -0.11281042 -0.028068762 1.8721141e-38
0.10073707 -0.11379938 -0.032112103 1.8536027e-38
0.10260803 -0.11379938 -0.032112103 1.8351274e-38
0.10447899 -0.11379938 -0.032112103 1.8996641e-38
0.10664628 -0.1145183 -0.035051446 1.8904443e-38
0.1085224 -0.1145183 -0.035051446 1.8443464e-38
0.1111366 -0.11624874 -0.042126279 1.7890291e-38
0.11302511 -0.11624874 -0.042126279 1.7614423e-38
0.11491364 -0.11624874 -0.042126279 1.7983202e-38
0.11680216 -0.11624874 -0.042126279 1.8260871e-38
0.11902413 -0.11698125 -0.045121174 1.872077e-38
0.1205792 -0.11624874 -0.042126279 1.8351274e-38
0.12246773 -0.11624874 -0.042126279 1.6597757e-38
0.12435624 -0.11624874 -0.042126279 1.272445e-38
0.12577073 -0.11526908 -0.038120966 1.4751329e-39
0.12765223 -0.11526908 -0.038120966 9.2086889e-40
-0.12190756 -0.11567034 -0.032112103 1.4845657e-38
-0.11958642 -0.11467429 -0.028068762 1.5767636e-38
-0.11739244 -0.11393218 -0.025056344 1.9179248e-38
-0.11553384 -0.11393218 -0.025056344 1.8075426e-38
-0.11335751 -0.1131943 -0.022060972 1.4942225e-38
-0.11150417 -0.1131943 -0.022060972 1.3470346e-38
-0.10831715 -0.10999118 -0.0090583377 1.3380678e-38
-0.10618284 -0.10924892 -0.0060452037 1.2369056e-38
-0.103368 -0.10678811 0.0039441772 9.3284088e-39
-0.1012743 -0.10606419 0.0068828054 7.6699763e-39
-0.099182561 -0.1053188 0.0099086948 6.2877621e-39
-0.097103089 -0.10457774 0.012916941 5.4576455e-39
-0.095311075 -0.10457774 0.012916941 5.0885029e-39
-0.093249023 -0.10384102 0.015907545 3.4282599e-39
-0.091199011 -0.1031086 0.018880624 1.1226475e-39
-0.088888332 -0.10160676 0.024977226 1.0300889e-39
-0.086869106 -0.1008873 0.027897734 3.1495094e-39
-0.084853217 -0.10014741 0.030901212 3.8870744e-39
-0.082849324 -0.099411905 0.033886928 4.7164792e-39
-0.080849424 -0.098656476 0.036953527 4.8079573e-39
-0.078869417 -0.09792982 0.039903302 4.9923542e-39
-0.076893628 -0.097183421 0.042933185 4.530304e-39
-0.074929833 -0.096441552 0.045944709 4.5303083e-39
-0.073195726 -0.096441552 0.045944709 4.806542e-39
-0.071461633 -0.096441552 0.045944709 4.898739e-39
-0.069727525 -0.096441552 0.045944709 3.1466661e-39
-0.067993417 -0.096441552 0.045944709 5.3593613e-39
-0.066457316 -0.097183421 0.042933185 7.8489992e-39
-0.064717934 -0.097183421 0.042933185 8.9560614e-39
-0.062791109 -0.096441552 0.045944709 9.1404499e-39
-0.061057001 -0.096441552 0.045944709 9.9712839e-39
-0.059499785 -0.097183421 0.042933185 1.2183979e-38
-0.057760403 -0.097183421 0.042933185 1.4213335e-38
-0.05602102 -0.097183421 0.042933185 1.4859054e-38
-0.054443665 -0.09792982 0.039903302 1.38442e-38
-0.05269897 -0.09792982 0.039903302 1.2828969e-38
-0.050954267 -0.09792982 0.039903302 1.255094e-38
-0.04920958 -0.09792982 0.039903302 1.2181077e-38
-0.047464877 -0.09792982 0.039903302 1.1535708e-38
-0.045720182 -0.09792982 0.039903302 1.1168005e-38
-0.043975487 -0.09792982 0.039903302 1.1444955e-38
-0.042352334 -0.098656476 0.036953527 1.1077617e-38
-0.040602468 -0.098656476 0.036953527 1.1632232e-38
-0.038852595 -0.098656476 0.036953527 1.2369441e-38
-0.037102729 -0.098656476 0.036953527 1.227832e-38
-0.035457708 -0.099411905 0.033886928 1.2185404e-38
-0.03360299 -0.098656476 0.036953527 1.2183959e-38
-0.031853124 -0.098656476 0.036953527 1.1722617e-38
-0.030103257 -0.098656476 0.036953527 1.0986132e-38
-0.02843673 -0.099411905 0.033886928 9.7908401e-39
-0.026757391 -0.10014741 0.030901212 7.5803128e-39
-0.025068002 -0.1008873 0.027897734 5.3676177e-39
-0.023366267 -0.10160676 0.024977226 3.892489e-39
-0.021595398 -0.10160676 0.024977226 3.5226303e-39
-0.019880483 -0.10235542 0.021938104 3.3382419e-39
-0.018104287 -0.10235542 0.021938104 3.2449728e-39
-0.016328091 -0.10235542 0.021938104 3.0605816e-39
-0.014592102 -0.1031086 0.018880624 2.7839975e-39
-0.012810545 -0.1031086 0.018880624 2.5985272e-39
-0.011028988 -0.1031086 0.018880624 2.9676657e-39
-0.0092233103 -0.10235542 0.021938104 4.0740132e-39
-0.0074471142 -0.10235542 0.021938104 4.7186638e-39
-0.0056843217 -0.1031086 0.018880624 4.8108594e-39
-0.003894724 -0.10235542 0.021938104 5.7328143e-39
-0.0021185298 -0.10235542 0.021938104 7.0239091e-39
-0.00034233369 -0.10235542 0.021938104 7.8536669e-39
0.0014338605 -0.10235542 0.021938104 8.6837821e-39
0.0032100566 -0.10235542 0.021938104 9.8816036e-39
0.0050232587 -0.10384102 0.015907545 1.0619522e-38
0.0068336232 -0.10457774 0.012916941 1.1725142e-38
0.0086256359 -0.10457774 0.012916941 1.2739646e-38
0.010451932 -0.1053188 0.0099086948 1.3477564e-38
0.012249219 -0.1053188 0.0099086948 1.3753785e-38
0.014046506 -0.1053188 0.0099086948 1.4582821e-38
0.015843792 -0.1053188 0.0099086948 1.5228188e-38
0.017696787 -0.10606419 0.0068828054 1.6057579e-38
0.019499378 -0.10606419 0.0068828054 1.6334161e-38
0.02130197 -0.10606419 0.0068828054 1.6333444e-38
0.023104561 -0.10606419 0.0068828054 1.624125e-38
0.024907155 -0.10606419 0.0068828054 1.660895e-38
0.026789609 -0.10678811 0.0039441772 1.7161039e-38
0.028597353 -0.10678811 0.0039441772 1.7526931e-38
0.030405099 -0.10678811 0.0039441772 1.7987179e-38
0.032312147 -0.10754226 0.00088276342 1.8355962e-38
0.034125254 -0.10754226 0.00088276342 1.8540356e-38
0.036079705 -0.10851096 -0.0030494742 1.844816e-38
0.03789971 -0.10851096 -0.0030494742 1.8171935e-38
0.039719723 -0.10851096 -0.0030494742 1.8079742e-38
0.041539729 -0.10851096 -0.0030494742 1.7987546e-38
0.043359734 -0.10851096 -0.0030494742 1.7987546e-38
0.04517974 -0.10851096 -0.0030494742 1.8356329e-38
0.047138937 -0.10924892 -0.0060452037 1.8540717e-38
0.048964195 -0.10924892 -0.0060452037 1.8356326e-38
0.050789461 -0.10924892 -0.0060452037 1.8356683e-38
0.052770562 -0.10999118 -0.0090583377 1.8725466e-38
0.054601111 -0.10999118 -0.0090583377 1.900205e-38
0.056431651 -0.10999118 -0.0090583377 1.9093527e-38
0.058262192 -0.10999118 -0.0090583377 1.8998813e-38
0.060270742 -0.11073773 -0.012088876 1.9182488e-38
0.062106594 -0.11073773 -0.012088876 1.899954e-38
0.063942447 -0.11073773 -0.012088876 1.8723316e-38
0.065778308 -0.11073773 -0.012088876 1.8171584e-38
0.067807406 -0.11146177 -0.015027981 1.7987549e-38
0.069648415 -0.11146177 -0.015027981 1.835561e-38
0.071770228 -0.11246057 -0.019082528 1.8815145e-38
0.073618345 -0.11246057 -0.019082528 1.8721863e-38
0.075683184 -0.1131943 -0.022060972 1.8813693e-38
0.077759728 -0.11393218 -0.025056344 1.90892e-38
0.07961832 -0.11393218 -0.025056344 1.9365788e-38
0.081476912 -0.11393218 -0.025056344 1.8906252e-38
0.08357583 -0.11467429 -0.028068762 1.8353441e-38
0.085194111 -0.11393218 -0.025056344 1.8170131e-38
0.087052703 -0.11393218 -0.025056344 1.8354523e-38
0.088911295 -0.11393218 -0.025056344 1.9366867e-38
0.091031328 -0.11467429 -0.028068762 2.0011156e-38
0.092895195 -0.11467429 -0.028068762 2.0563967e-38
0.094759077 -0.11467429 -0.028068762 2.065616e-38
0.096622944 -0.11467429 -0.028068762 2.0471045e-38
0.098486826 -0.11467429 -0.028068762 2.0286292e-38
0.10073707 -0.11567034 -0.032112103 2.028629e-38
0.10260803 -0.11567034 -0.032112103 2.0469959e-38
0.10447899 -0.11567034 -0.032112103 1.982459e-38
0.10695575 -0.11715056 -0.038120966 1.9548359e-38
0.10924807 -0.11813726 -0.042126279 1.9179576e-38
0.1111366 -0.11813726 -0.042126279 1.8811157e-38
0.11302511 -0.11813726 -0.042126279 1.8443093e-38
0.11491364 -0.11813726 -0.042126279 1.8350897e-38
0.11713035 -0.11887501 -0.045121174 1.8443816e-38
0.11902413 -0.11887501 -0.045121174 1.899627e-38
0.1205792 -0.11813726 -0.042126279 1.9732761e-38
0.12246773 -0.11813726 -0.042126279 1.7796292e-38
0.12435624 -0.11813726 -0.042126279 1.3922985e-38
0.12624475 -0.11813726 -0.042126279 2.5811147e-39
0.13002181 -0.11813726 -0.042126279 3.2243149e-39
-0.12145029 -0.11653815 -0.028068762 1.5398825e-38
-0.11958642 -0.11653815 -0.028068762 1.8808996e-38
-0.11739244 -0.11579077 -0.025056344 2.2958873e-38
-0.11553384 -0.11579077 -0.025056344 2.2499695e-38
-0.11335751 -0.11504765 -0.022060972 1.8906617e-38
-0.11119345 -0.1143087 -0.019082528 1.6419869e-38
-0.10831715 -0.11182173 -0.0090583377 1.5224577e-38
-0.10588081 -0.11033095 -0.0030494742 1.338284e-38
-0.103368 -0.10859586 0.0039441772 9.7890199e-39
-0.1012743 -0.10786678 0.0068828054 7.7625251e-39
-0.099182561 -0.10711606 0.0099086948 7.3019141e-39
-0.097103089 -0.10636975 0.012916941 5.4576483e-39
-0.095311075 -0.10636975 0.012916941 3.5215429e-39
-0.092980564 -0.10489015 0.018880624 2.783259e-39
-0.090659186 -0.10337763 0.024977226 1.8609398e-39
-0.088634849 -0.10265306 0.027897734 9.3790448e-40
-0.0866137 -0.10190789 0.030901212 9.3718281e-40
-0.084604561 -0.10116716 0.033886928 1.4506242e-41
-0.082599297 -0.10040633 0.036953527 1.3425841e-41
-0.080372393 -0.098922804 0.042933185 1.988947e-40
-0.078398034 -0.09817566 0.045944709 4.7157617e-39
-0.076663941 -0.09817566 0.045944709 6.1894526e-39
-0.074778587 -0.097672105 0.047974367 5.6362817e-39
-0.07304804 -0.097672105 0.047974367 5.7277584e-39
-0.071317494 -0.097672105 0.047974367 6.6497175e-39
-0.069586948 -0.097672105 0.047974367 7.2025354e-39
-0.067856416 -0.097672105 0.047974367 7.3876483e-39
-0.06625931 -0.09817566 0.045944709 7.4805656e-39
-0.064525217 -0.09817566 0.045944709 6.9277548e-39
-0.062791109 -0.09817566 0.045944709 5.4533464e-39
-0.061057001 -0.09817566 0.045944709 3.7945481e-39
-0.059499785 -0.098922804 0.042933185 2.8740323e-39
-0.057760403 -0.098922804 0.042933185 2.7825556e-39
-0.05602102 -0.098922804 0.042933185 1.8613181e-39
-0.054281637 -0.098922804 0.042933185 2.045708e-39
-0.052542254 -0.098922804 0.042933185 2.5063232e-39
