# .PCD v0.7 - Point Cloud Data file format
VERSION 0.7
FIELDS x y z rgb
SIZE 4 4 4 4
TYPE F F F F
COUNT 1 1 1 1
WIDTH 945
HEIGHT 1
VIEWPOINT 0 0 0 1 0 0 0
POINTS 945
DATA ascii
0.0040411633 -0.12237583 0.038017333 2.3234379e-38
0.0057419576 -0.12237583 0.038017333 2.3234379e-38
0.0074401293 -0.1232069 0.035026908 2.341805e-38
0.0091479793 -0.12378122 0.032960236 2.3509168e-38
0.010865338 -0.12459467 0.030033171 2.3509168e-38
0.01258013 -0.12459467 0.030033171 2.3509168e-38
0.014313579 -0.12543948 0.026993155 2.3509527e-38
0.016080599 -0.12709136 0.021049082 2.3509527e-38
0.017830718 -0.12765543 0.019019425 2.341805e-38
0.019599143 -0.12849234 0.0160079 2.341805e-38
0.021338526 -0.12849234 0.0160079 2.3234379e-38
0.023167027 -0.13015409 0.010028243 2.3234379e-38
0.024967974 -0.13100632 0.0069616437 2.3234379e-38
0.026723219 -0.13100632 0.0069616437 2.2957079e-38
0.028538667 -0.13183604 0.0039759278 1.5397037e-38
0.030364973 -0.13267075 0.00097244978 4.701624e-39
0.032199845 -0.13348235 -0.0019480586 9.1841101e-41
0.034125708 -0.13517661 -0.0080446601 2.1187072e-39
0.035988063 -0.13600285 -0.01101774 1.3088545e-38
0.037861351 -0.13683395 -0.014008343 1.2625043e-38
0.039745666 -0.13766994 -0.01701659 4.9717243e-39
0.041641101 -0.13851084 -0.020042479 2.2069344e-39
0.043443695 -0.13851084 -0.020042479 2.9459386e-39
0.045351911 -0.13932751 -0.022981107 3.4079985e-39
0.047159657 -0.13932751 -0.022981107 9.2051717e-40
0.049088173 -0.14017828 -0.026042521 7.3721191e-40
0.051063307 -0.14127107 -0.029974759 7.0064923e-45
0.053141434 -0.14294095 -0.035983622 1.2611686e-44
0.05523888 -0.14459993 -0.041953266 3.6879373e-40
0.057079889 -0.14459993 -0.041953266 9.2160457e-40
0.058920898 -0.14459993 -0.041953266 6.5451709e-39
0.060964514 -0.1457267 -0.046007812 1.1615559e-38
0.062966689 -0.14655443 -0.048986256 1.8253633e-38
0.065141305 -0.14822401 -0.054994047 2.212512e-38
0.067005172 -0.14822401 -0.054994047 2.3509859e-38
0.069099456 -0.14934768 -0.059037387 2.3138571e-38
-0.092633434 -0.13276155 0.0069616437 2.3325497e-38
-0.090574406 -0.13190396 0.010028243 2.3509886e-38
-0.088824533 -0.13190396 0.010028243 2.341805e-38
-0.086503275 -0.13023172 0.0160079 2.341805e-38
-0.084763892 -0.13023172 0.0160079 2.3325856e-38
-0.082747288 -0.12938951 0.019019425 1.0234078e-38
-0.08101318 -0.12938951 0.019019425 9.2232344e-40
-0.079099365 -0.12882192 0.021049082 9.8090893e-45
-0.077368833 -0.12882192 0.021049082 1.6815582e-44
-0.075638287 -0.12882192 0.021049082 1.1892885e-38
-0.073659472 -0.12798826 0.024030089 1.1062383e-38
-0.071934156 -0.12798826 0.024030089 1.1246765e-38
-0.069729932 -0.12630944 0.030033171 8.8482455e-39
-0.068015136 -0.12630944 0.030033171 6.4284847e-40
-0.066077091 -0.12549089 0.032960236 2.3927676e-39
-0.064367436 -0.12549089 0.032960236 8.3840542e-39
-0.062507398 -0.12491293 0.035026908 7.555018e-39
-0.06080135 -0.12491293 0.035026908 4.513644e-39
-0.059095316 -0.12491293 0.035026908 1.9346873e-39
-0.057389282 -0.12491293 0.035026908 7.3758185e-40
-0.055683248 -0.12491293 0.035026908 1.7531701e-39
-0.053977206 -0.12491293 0.035026908 4.1513327e-39
-0.052085035 -0.12407662 0.038017333 3.5992323e-39
-0.050204456 -0.12324543 0.040989518 9.6514432e-41
-0.048508875 -0.12324543 0.040989518 1.4349296e-42
-0.046639718 -0.12239362 0.044035494 1.8618352e-40
-0.044842966 -0.12185432 0.045963943 2.3938382e-39
-0.04315611 -0.12185432 0.045963943 1.1938615e-39
-0.041313313 -0.12101121 0.048978746 3.4980277e-39
-0.039482027 -0.12017335 0.051974714 1.4700868e-39
-0.037805706 -0.12017335 0.051974714 1.3786128e-39
-0.036129385 -0.12017335 0.051974714 5.5101298e-40
-0.034453064 -0.12017335 0.051974714 1.0139358e-38
-0.032687519 -0.1195925 0.054051757 2.2678683e-38
-0.031014837 -0.1195925 0.054051757 2.3509523e-38
-0.029342156 -0.1195925 0.054051757 2.350952e-38
-0.027557731 -0.11876349 0.057016134 2.3417687e-38
-0.025890246 -0.11876349 0.057016134 2.3418043e-38
-0.022393469 -0.11736839 0.062004745 2.3418047e-38
-0.020734735 -0.11736839 0.062004745 2.3418047e-38
-0.01913251 -0.11791472 0.060051203 2.3234376e-38
-0.017470352 -0.11791472 0.060051203 2.2683365e-38
-0.015808187 -0.11791472 0.060051203 2.2683366e-38
-0.014217868 -0.11876349 0.057016134 2.2775202e-38
-0.012550384 -0.11876349 0.057016134 2.2958873e-38
-0.010882903 -0.11876349 0.057016134 2.3142544e-38
-0.0092699938 -0.1195925 0.054051757 2.3234379e-38
-0.0075973123 -0.1195925 0.054051757 2.341805e-38
-0.0059555881 -0.12017335 0.051974714 2.341805e-38
-0.004318662 -0.12101121 0.048978746 2.3509527e-38
-0.0026714467 -0.12185432 0.045963943 2.3509527e-38
-0.0010031834 -0.12239362 0.044035494 2.341805e-38
0.0006630253 -0.12324543 0.040989518 2.341805e-38
0.0023586079 -0.12324543 0.040989518 2.341805e-38
0.0040411633 -0.12407662 0.038017333 2.3234379e-38
0.0057340916 -0.12491293 0.035026908 2.3234379e-38
0.0074383169 -0.12549089 0.032960236 2.341805e-38
0.0091479793 -0.12549089 0.032960236 2.3509168e-38
0.010865338 -0.12630944 0.030033171 2.3509168e-38
0.01258013 -0.12630944 0.030033171 2.3509527e-38
0.014313579 -0.12715961 0.026993155 2.3509527e-38
0.01605708 -0.12798826 0.024030089 2.3509527e-38
0.017811146 -0.12882192 0.021049082 2.341805e-38
0.019599143 -0.13023172 0.0160079 2.341805e-38
0.02137837 -0.13107903 0.012978017 2.3234379e-38
0.023167027 -0.13190396 0.010028243 2.2497178e-38
0.024967974 -0.13276155 0.0069616437 2.3234379e-38
0.026723219 -0.13276155 0.0069616437 2.3234379e-38
0.028538667 -0.13359652 0.0039759278 1.6042405e-38
0.030364973 -0.13443647 0.00097244978 6.0852773e-39
0.032199845 -0.13525321 -0.0019480586 1.8439406e-40
0.034125708 -0.13695817 -0.0080446601 5.6051939e-45
0.035988063 -0.13778962 -0.01101774 6.1753121e-39
0.037861351 -0.13862596 -0.014008343 4.7895036e-39
0.039745666 -0.13946722 -0.01701659 1.1938685e-39
0.041641101 -0.14031343 -0.020042479 8.2652087e-40
0.043443695 -0.14031343 -0.020042479 9.1835496e-40
0.045351911 -0.14113526 -0.022981107 1.1045413e-39
0.047159657 -0.14113526 -0.022981107 2.7550649e-40
0.049088173 -0.14199139 -0.026042521 1.1066993e-39
0.051063307 -0.14309107 -0.029974759 1.1988963e-39
0.053141434 -0.1447715 -0.035983622 5.0714785e-39
0.05523888 -0.14644094 -0.041953266 1.2907751e-38
0.057079889 -0.14644094 -0.041953266 1.9084498e-38
0.058920898 -0.14644094 -0.041953266 2.3141103e-38
0.060964514 -0.14757483 -0.046007812 2.3325129e-38
0.062966689 -0.14840777 -0.048986256 2.3047814e-38
-0.092633434 -0.13451682 0.0069616437 2.341805e-38
-0.090574406 -0.13365383 0.010028243 2.341805e-38
-0.088824533 -0.13365383 0.010028243 2.341805e-38
-0.086503275 -0.13197111 0.0160079 2.2957078e-38
-0.084763892 -0.13197111 0.0160079 2.3234379e-38
-0.082747288 -0.13112362 0.019019425 1.1248957e-38
-0.08101318 -0.13112362 0.019019425 1.2611686e-44
-0.079099365 -0.13055246 0.021049082 9.2932713e-41
-0.077368833 -0.13055246 0.021049082 5.5391226e-40
-0.075638287 -0.13055246 0.021049082 1.0324843e-38
-0.073659472 -0.12971358 0.024030089 1.1152067e-38
-0.071934156 -0.12971358 0.024030089 1.2256964e-38
-0.069729932 -0.12802424 0.030033171 1.2164414e-38
-0.068015136 -0.12802424 0.030033171 1.7463108e-39
-0.066077091 -0.12720053 0.032960236 7.0003855e-39
-0.064367436 -0.12720053 0.032960236 9.028332e-39
-0.062507398 -0.12661897 0.035026908 1.1795283e-38
-0.06080135 -0.12661897 0.035026908 4.235604e-39
-0.059095316 -0.12661897 0.035026908 1.3789814e-39
-0.057389282 -0.12661897 0.035026908 1.933953e-39
-0.055683248 -0.12661897 0.035026908 3.7793048e-39
-0.053977206 -0.12661897 0.035026908 5.716492e-39
-0.052085035 -0.12577744 0.038017333 4.5190278e-39
-0.050204456 -0.12494104 0.040989518 2.7982389e-40
-0.048508875 -0.12494104 0.040989518 1.0789998e-42
-0.046639718 -0.12408386 0.044035494 1.2925311e-39
-0.044842966 -0.12354116 0.045963943 4.0537112e-39
-0.04315611 -0.12354116 0.045963943 3.6827679e-39
-0.041313313 -0.12269278 0.048978746 2.4845891e-39
-0.039482027 -0.12184967 0.051974714 1.6555571e-39
-0.037805706 -0.12184967 0.051974714 1.7484772e-39
-0.036129385 -0.12184967 0.051974714 8.2832154e-40
-0.034453064 -0.12184967 0.051974714 4.3324785e-39
-0.032687519 -0.12126519 0.054051757 2.3325497e-38
-0.031014837 -0.12126519 0.054051757 2.341805e-38
-0.029342156 -0.12126519 0.054051757 2.3418047e-38
-0.027557731 -0.12043096 0.057016134 2.3418045e-38
-0.025890246 -0.12043096 0.057016134 2.3509879e-38
-0.022393469 -0.11902712 0.062004745 2.350988e-38
-0.020734735 -0.11902712 0.062004745 2.350988e-38
-0.01913251 -0.11957689 0.060051203 2.3509883e-38
-0.017470352 -0.11957689 0.060051203 2.341805e-38
-0.015808187 -0.11957689 0.060051203 2.3234379e-38
-0.014217868 -0.12043096 0.057016134 2.3234379e-38
-0.012550384 -0.12043096 0.057016134 2.341805e-38
-0.010942675 -0.12126519 0.054051757 2.341805e-38
-0.0092699938 -0.12126519 0.054051757 2.341805e-38
-0.0075973123 -0.12126519 0.054051757 2.3509886e-38
-0.0059555881 -0.12184967 0.051974714 2.3509886e-38
-0.004279267 -0.12184967 0.051974714 2.3509886e-38
-0.0026370883 -0.12269278 0.048978746 2.3509886e-38
-0.0010031834 -0.12408386 0.044035494 2.3509886e-38
0.0006630253 -0.12494104 0.040989518 2.3509886e-38
0.0023586079 -0.12494104 0.040989518 2.3509886e-38
0.0040411633 -0.12577744 0.038017333 2.341805e-38
0.0057340916 -0.12661897 0.035026908 2.341805e-38
0.0074383169 -0.12720053 0.032960236 2.3509886e-38
0.0091479793 -0.12720053 0.032960236 2.3509168e-38
0.010865338 -0.12802424 0.030033171 2.3509527e-38
0.01258013 -0.12802424 0.030033171 2.3509527e-38
0.014313579 -0.12887974 0.026993155 2.3509527e-38
0.01605708 -0.12971358 0.024030089 2.3509527e-38
0.017811146 -0.13055246 0.021049082 2.3509886e-38
0.019599143 -0.13197111 0.0160079 2.341805e-38
0.02137837 -0.13282375 0.012978017 2.341805e-38
0.023212731 -0.13451682 0.0069616437 2.3234379e-38
0.024967974 -0.13451682 0.0069616437 2.2958154e-38
0.026723219 -0.13451682 0.0069616437 2.2865958e-38
0.028538667 -0.13535701 0.0039759278 1.668957e-38
0.030364973 -0.13620223 0.00097244978 5.2573117e-39
0.032199845 -0.13702409 -0.0019480586 1.0775985e-42
0.034125708 -0.13873972 -0.0080446601 9.4356432e-41
0.035988063 -0.13957639 -0.01101774 5.6051939e-45
0.037861351 -0.14041798 -0.014008343 9.1848108e-41
0.039745666 -0.14126451 -0.01701659 5.5102839e-40
0.041641101 -0.14211603 -0.020042479 3.6734479e-40
0.043443695 -0.14211603 -0.020042479 3.6734198e-40
0.045351911 -0.14294298 -0.022981107 9.2086609e-40
0.047159657 -0.14294298 -0.022981107 6.4464214e-40
0.049088173 -0.14380451 -0.026042521 2.8573092e-39
0.051063307 -0.14491107 -0.029974759 8.1124601e-39
0.053141434 -0.14660202 -0.035983622 1.244566e-38
0.055107471 -0.14745484 -0.039014161 1.6686308e-38
0.057079889 -0.14828195 -0.041953266 2.2125858e-38
0.058920898 -0.14828195 -0.041953266 2.3509879e-38
0.060964514 -0.14942293 -0.046007812 2.3509883e-38
-0.092633434 -0.13627206 0.0069616437 2.341805e-38
-0.090574406 -0.13540371 0.010028243 2.341805e-38
-0.088537492 -0.13456844 0.012978017 2.341805e-38
-0.086503275 -0.13371049 0.0160079 2.2403905e-38
-0.084763892 -0.13371049 0.0160079 2.3142185e-38
-0.082747288 -0.13285773 0.019019425 1.0511395e-38
-0.08101318 -0.13285773 0.019019425 8.3049775e-40
-0.079099365 -0.13228302 0.021049082 1.6815582e-44
-0.077368833 -0.13228302 0.021049082 1.2914773e-39
-0.075638287 -0.13228302 0.021049082 9.6798363e-39
-0.073659472 -0.1314389 0.024030089 1.1797085e-38
-0.071934156 -0.1314389 0.024030089 1.1703083e-38
-0.069729932 -0.12973903 0.030033171 1.0504541e-38
-0.068015136 -0.12973903 0.030033171 1.4693693e-39
-0.066077091 -0.1289102 0.032960236 5.9869552e-39
-0.064367436 -0.1289102 0.032960236 8.2918459e-39
-0.062507398 -0.128325 0.035026908 1.114991e-38
-0.06080135 -0.128325 0.035026908 5.1575575e-39
-0.059095316 -0.128325 0.035026908 4.1434055e-39
-0.057389282 -0.128325 0.035026908 3.5920296e-39
-0.055486627 -0.12747823 0.038017333 5.8972805e-39
-0.053785831 -0.12747823 0.038017333 9.4025123e-39
-0.052085035 -0.12747823 0.038017333 7.3756476e-39
-0.050204456 -0.12663661 0.040989518 8.3047953e-40
-0.048508875 -0.12663661 0.040989518 9.4353629e-41
-0.046639718 -0.1257741 0.044035494 6.5462414e-39
-0.044842966 -0.12522803 0.045963943 9.0315536e-39
-0.04315611 -0.12522803 0.045963943 1.032085e-38
-0.041313313 -0.12437434 0.048978746 8.7538919e-39
-0.039631732 -0.12437434 0.048978746 1.6559172e-39
-0.037805706 -0.12352599 0.051974714 5.5101578e-40
-0.036129385 -0.12352599 0.051974714 9.1841101e-41
-0.034453064 -0.12352599 0.051974714 4.056256e-39
-0.032687519 -0.12293784 0.054051757 2.341805e-38
-0.031014837 -0.12293784 0.054051757 2.3234379e-38
-0.029342156 -0.12293784 0.054051757 2.3234376e-38
-0.027557731 -0.12209846 0.057016134 2.3418045e-38
-0.025890246 -0.12209846 0.057016134 2.3418043e-38
-0.024118997 -0.12123902 0.060051203 2.3509879e-38
-0.022456832 -0.12123902 0.060051203 2.350988e-38
-0.020794675 -0.12123902 0.060051203 2.3509521e-38
-0.01913251 -0.12123902 0.060051203 2.3509524e-38
-0.017470352 -0.12123902 0.060051203 2.3509527e-38
-0.015885353 -0.12209846 0.057016134 2.3509886e-38
-0.014217868 -0.12209846 0.057016134 2.3509886e-38
-0.012550384 -0.12209846 0.057016134 2.3509886e-38
-0.010942675 -0.12293784 0.054051757 2.3509886e-38
-0.0092699938 -0.12293784 0.054051757 2.3509886e-38
-0.0075973123 -0.12293784 0.054051757 2.3509886e-38
-0.0059555881 -0.12352599 0.051974714 2.3509886e-38
-0.004279267 -0.12352599 0.051974714 2.3509886e-38
-0.0026370883 -0.12437434 0.048978746 2.3509886e-38
-0.00098458678 -0.12522803 0.045963943 2.3509886e-38
0.0006630253 -0.12663661 0.040989518 2.3509886e-38
0.0023586079 -0.12663661 0.040989518 2.3509886e-38
0.0040411633 -0.12747823 0.038017333 2.3509886e-38
0.0057340916 -0.128325 0.035026908 2.3509886e-38
0.0074383169 -0.1289102 0.032960236 2.3509886e-38
0.0091479793 -0.1289102 0.032960236 2.3509527e-38
0.010865338 -0.12973903 0.030033171 2.3509527e-38
0.01258013 -0.12973903 0.030033171 2.3509527e-38
0.014313579 -0.13059987 0.026993155 2.3509527e-38
0.016080599 -0.13228302 0.021049082 2.3509527e-38
0.017830718 -0.13285773 0.019019425 2.3509527e-38
0.019633673 -0.13456844 0.012978017 2.3509886e-38
0.02137837 -0.13456844 0.012978017 2.341805e-38
0.023167027 -0.13540371 0.010028243 2.277376e-38
0.024967974 -0.13627206 0.0069616437 2.3234379e-38
0.026723219 -0.13627206 0.0069616437 2.3142544e-38
0.028538667 -0.13711749 0.0039759278 1.705835e-38
0.030364973 -0.13796796 0.00097244978 5.9037573e-39
0.032199845 -0.13879494 -0.0019480586 6.4860641e-40
0.034047976 -0.13965552 -0.0049871802 2.2159321e-39
0.035907265 -0.14052127 -0.0080446601 3.966217e-39
0.037861351 -0.14220999 -0.014008343 6.9146863e-39
0.039745666 -0.1430618 -0.01701659 1.1247162e-38
0.041641101 -0.14391862 -0.020042479 1.3828628e-38
0.043544166 -0.14475073 -0.022981107 1.558105e-38
0.045351911 -0.14475073 -0.022981107 1.8991912e-38
0.047275059 -0.14561762 -0.026042521 2.1388631e-38
0.049088173 -0.14561762 -0.026042521 2.2863035e-38
0.051063307 -0.14673109 -0.029974759 2.3509848e-38
0.053141434 -0.14843257 -0.035983622 2.3509853e-38
0.055107471 -0.14929073 -0.039014161 2.3509859e-38
-0.090574406 -0.13715358 0.010028243 2.3141822e-38
-0.088537492 -0.13631313 0.012978017 2.341805e-38
-0.086503275 -0.13544987 0.0160079 2.3049273e-38
-0.084763892 -0.13544987 0.0160079 2.3142185e-38
-0.082747288 -0.13459183 0.019019425 1.2263112e-38
-0.08101318 -0.13459183 0.019019425 3.2279401e-39
-0.079099365 -0.13401355 0.021049082 1.5414283e-44
-0.077368833 -0.13401355 0.021049082 1.1992803e-39
-0.075638287 -0.13401355 0.021049082 7.3756672e-39
-0.073659472 -0.13316421 0.024030089 9.2174162e-39
-0.071934156 -0.13316421 0.024030089 8.9393874e-39
-0.070208825 -0.13316421 0.024030089 8.1096267e-39
-0.068015136 -0.13145383 0.030033171 3.0381482e-39
-0.066077091 -0.13061987 0.032960236 6.7263307e-39
-0.064367436 -0.13061987 0.032960236 8.4773288e-39
-0.062507398 -0.13003103 0.035026908 9.7680676e-39
-0.06080135 -0.13003103 0.035026908 5.3426746e-39
-0.059095316 -0.13003103 0.035026908 2.3002188e-39
-0.057389282 -0.13003103 0.035026908 3.8679005e-39
-0.055486627 -0.12917902 0.038017333 6.1735073e-39
-0.053785831 -0.12917902 0.038017333 8.4787581e-39
-0.052085035 -0.12917902 0.038017333 6.1756653e-39
-0.050204456 -0.12833218 0.040989518 2.7622395e-40
-0.048508875 -0.12833218 0.040989518 7.371993e-40
-0.046639718 -0.12746434 0.044035494 7.8355383e-39
-0.044842966 -0.1269149 0.045963943 9.9535099e-39
-0.042994887 -0.12605591 0.048978746 1.0874024e-38
-0.041313313 -0.12605591 0.048978746 9.6758482e-39
-0.039482027 -0.12520231 0.051974714 1.1027434e-39
-0.037805706 -0.12520231 0.051974714 2.2105371e-39
-0.036129385 -0.12520231 0.051974714 3.6806926e-40
-0.034453064 -0.12520231 0.051974714 3.5952778e-39
-0.032687519 -0.12461053 0.054051757 2.3141467e-38
-0.031014837 -0.12461053 0.054051757 2.3234379e-38
-0.029342156 -0.12461053 0.054051757 2.3234379e-38
-0.027557731 -0.12376593 0.057016134 2.3418047e-38
-0.025890246 -0.12376593 0.057016134 2.3418045e-38
-0.024118997 -0.12290119 0.060051203 2.350988e-38
-0.022456832 -0.12290119 0.060051203 2.350988e-38
-0.020794675 -0.12290119 0.060051203 2.3509165e-38
-0.01913251 -0.12290119 0.060051203 2.3509527e-38
-0.017470352 -0.12290119 0.060051203 2.3509527e-38
-0.015808187 -0.12290119 0.060051203 2.3509886e-38
-0.014217868 -0.12376593 0.057016134 2.3509886e-38
-0.012550384 -0.12376593 0.057016134 2.3509886e-38
-0.010942675 -0.12461053 0.054051757 2.3509886e-38
-0.0092699938 -0.12461053 0.054051757 2.3509886e-38
-0.0075973123 -0.12461053 0.054051757 2.3509886e-38
-0.0059555881 -0.12520231 0.051974714 2.3509886e-38
-0.004279267 -0.12520231 0.051974714 2.3509886e-38
-0.0026370883 -0.12605591 0.048978746 2.3509886e-38
-0.00098458678 -0.1269149 0.045963943 2.3509886e-38
0.0006630253 -0.12833218 0.040989518 2.3509886e-38
0.0023403689 -0.12917902 0.038017333 2.3509886e-38
0.0040411633 -0.12917902 0.038017333 2.3509886e-38
0.0057286564 -0.13061987 0.032960236 2.3509886e-38
0.0074383169 -0.13061987 0.032960236 2.3509886e-38
0.0091505442 -0.13145383 0.030033171 2.3509527e-38
0.010865338 -0.13145383 0.030033171 2.3509527e-38
0.01258013 -0.13145383 0.030033171 2.3509527e-38
0.014331762 -0.13316421 0.024030089 2.3509527e-38
0.016080599 -0.13401355 0.021049082 2.3509527e-38
0.017830718 -0.13459183 0.019019425 2.3509527e-38
0.019599143 -0.13544987 0.0160079 2.3509886e-38
0.02137837 -0.13631313 0.012978017 2.341805e-38
0.023167027 -0.13715358 0.010028243 2.3234379e-38
0.024967974 -0.1380273 0.0069616437 2.3234379e-38
0.026723219 -0.1380273 0.0069616437 2.3142544e-38
0.028538667 -0.13887797 0.0039759278 1.9639827e-38
0.030364973 -0.13973372 0.00097244978 1.4200285e-38
0.032130718 -0.13973372 0.00097244978 1.1711003e-38
0.033970714 -0.14056583 -0.0019480586 1.2634038e-38
0.035907265 -0.14230286 -0.0080446601 1.4108092e-38
0.037774831 -0.14314993 -0.01101774 1.3922628e-38
0.039653365 -0.14400201 -0.014008343 1.7517535e-38
0.041542955 -0.14485909 -0.01701659 1.890082e-38
0.043544166 -0.14655848 -0.022981107 1.9453627e-38
0.045461949 -0.14743073 -0.026042521 2.2035096e-38
0.047275059 -0.14743073 -0.026042521 2.3509863e-38
0.049243301 -0.14855109 -0.029974759 2.3509859e-38
0.051063307 -0.14855109 -0.029974759 2.3508781e-38
-0.090574406 -0.13890342 0.010028243 2.3141822e-38
-0.088537492 -0.13805781 0.012978017 2.2403901e-38
-0.086503275 -0.13718925 0.0160079 2.341805e-38
-0.084763892 -0.13718925 0.0160079 2.2773408e-38
-0.082747288 -0.13632594 0.019019425 2.1298281e-38
-0.08101318 -0.13632594 0.019019425 1.0327001e-38
-0.079099365 -0.13574408 0.021049082 6.0860046e-39
-0.077368833 -0.13574408 0.021049082 1.2611686e-44
-0.075638287 -0.13574408 0.021049082 7.3830212e-40
-0.073659472 -0.13488953 0.024030089 1.7513793e-39
-0.071934156 -0.13488953 0.024030089 1.4747924e-39
-0.069729932 -0.13316862 0.030033171 1.6581046e-39
-0.068015136 -0.13316862 0.030033171 3.6736581e-40
-0.066077091 -0.13232954 0.032960236 3.5009354e-39
-0.064367436 -0.13232954 0.032960236 5.2522909e-39
-0.062507398 -0.13173707 0.035026908 6.3575566e-39
-0.06080135 -0.13173707 0.035026908 4.4218043e-39
-0.059095316 -0.13173707 0.035026908 1.932158e-39
-0.057187416 -0.1308798 0.038017333 4.2370459e-39
-0.055486627 -0.1308798 0.038017333 6.0809557e-39
-0.053785831 -0.1308798 0.038017333 7.2798548e-39
-0.052085035 -0.1308798 0.038017333 6.0820277e-39
-0.050204456 -0.13002776 0.040989518 2.0254186e-39
-0.048508875 -0.13002776 0.040989518 2.3030845e-39
-0.046639718 -0.12915458 0.044035494 8.2028789e-39
-0.044842966 -0.12860174 0.045963943 9.3996158e-39
-0.042994887 -0.12773751 0.048978746 1.1243528e-38
-0.041313313 -0.12773751 0.048978746 9.8609625e-39
-0.039482027 -0.12687863 0.051974714 6.4284847e-40
-0.037805706 -0.12687863 0.051974714 7.3540984e-40
-0.036129385 -0.12687863 0.051974714 9.1841101e-41
-0.034453064 -0.12687863 0.051974714 3.0421041e-39
-0.032687519 -0.12628321 0.054051757 2.341805e-38
-0.031014837 -0.12628321 0.054051757 2.3234379e-38
-0.029342156 -0.12628321 0.054051757 2.3234379e-38
-0.027557731 -0.12543343 0.057016134 2.3418047e-38
-0.025781158 -0.12456335 0.060051203 2.3418045e-38
-0.024118997 -0.12456335 0.060051203 2.3509883e-38
-0.022456832 -0.12456335 0.060051203 2.3509883e-38
-0.020794675 -0.12456335 0.060051203 2.3509527e-38
-0.01913251 -0.12456335 0.060051203 2.3509168e-38
-0.017470352 -0.12456335 0.060051203 2.3509527e-38
-0.015808187 -0.12456335 0.060051203 2.3509886e-38
-0.014217868 -0.12543343 0.057016134 2.3509886e-38
-0.012550384 -0.12543343 0.057016134 2.3509886e-38
-0.010882903 -0.12543343 0.057016134 2.3509886e-38
-0.009215422 -0.12543343 0.057016134 2.3509886e-38
-0.0075479373 -0.12543343 0.057016134 2.3509886e-38
-0.0059246346 -0.12628321 0.054051757 2.3509886e-38
-0.004279267 -0.12687863 0.051974714 2.3509886e-38
-0.0026370883 -0.12773751 0.048978746 2.3509886e-38
-0.00098458678 -0.12860174 0.045963943 2.3509886e-38
0.0006630253 -0.13002776 0.040989518 2.3509886e-38
0.0023403689 -0.1308798 0.038017333 2.3509886e-38
0.0040280558 -0.13173707 0.035026908 2.3509886e-38
0.0057286564 -0.13232954 0.032960236 2.3509886e-38
0.0074357521 -0.13316862 0.030033171 2.3509886e-38
0.0091505442 -0.13316862 0.030033171 2.3509527e-38
0.010873333 -0.1340401 0.026993155 2.3509527e-38
0.012593456 -0.1340401 0.026993155 2.3509527e-38
0.014331762 -0.13488953 0.024030089 2.3509527e-38
0.016080599 -0.13574408 0.021049082 2.3509527e-38
0.017830718 -0.13632594 0.019019425 2.3509527e-38
0.019599143 -0.13718925 0.0160079 2.3509886e-38
0.02137837 -0.13805781 0.012978017 2.3509886e-38
0.023167027 -0.13890342 0.010028243 2.341805e-38
0.024967974 -0.13978253 0.0069616437 2.3234379e-38
0.026723219 -0.13978253 0.0069616437 2.3050347e-38
0.028538667 -0.14063846 0.0039759278 2.2774479e-38
0.030364973 -0.14149947 0.00097244978 2.295887e-38
0.032130718 -0.14149947 0.00097244978 2.2866674e-38
0.033970714 -0.14233668 -0.0019480586 2.2406775e-38
0.035824172 -0.14320792 -0.0049871802 2.2590087e-38
0.037688822 -0.14408441 -0.0080446601 2.3142544e-38
0.039561603 -0.1449367 -0.01101774 2.3234379e-38
0.041445374 -0.14579402 -0.014008343 2.30507e-38
0.043544166 -0.14836623 -0.022981107 2.3234367e-38
0.045461949 -0.14924385 -0.026042521 2.3418038e-38
0.047275059 -0.14924385 -0.026042521 2.3509873e-38
-0.090574406 -0.1406533 0.010028243 2.341769e-38
-0.088537492 -0.13980253 0.012978017 2.341805e-38
-0.086503275 -0.13892864 0.0160079 2.2403904e-38
-0.084763892 -0.13892864 0.0160079 2.341805e-38
-0.082747288 -0.13806005 0.019019425 2.2680492e-38
-0.080829911 -0.13747464 0.021049082 2.3234379e-38
-0.079099365 -0.13747464 0.021049082 1.5674347e-38
-0.077368833 -0.13747464 0.021049082 1.24475e-38
-0.075384788 -0.13661484 0.024030089 7.2849107e-39
-0.073659472 -0.13661484 0.024030089 7.4829338e-43
-0.071692578 -0.13576023 0.026993155 3.9376487e-43
-0.069729932 -0.13488342 0.030033171 7.5529987e-43
-0.068015136 -0.13488342 0.030033171 2.7662052e-40
-0.066077091 -0.13403918 0.032960236 1.4744406e-39
-0.064367436 -0.13403918 0.032960236 2.0272501e-39
-0.062507398 -0.1334431 0.035026908 2.303474e-39
-0.06080135 -0.1334431 0.035026908 2.1176394e-39
-0.059095316 -0.1334431 0.035026908 3.5920436e-39
-0.057187416 -0.13258059 0.038017333 3.7760706e-39
-0.055486627 -0.13258059 0.038017333 4.4214344e-39
-0.053785831 -0.13258059 0.038017333 6.7259594e-39
-0.052085035 -0.13258059 0.038017333 6.910708e-39
-0.050204456 -0.13172336 0.040989518 3.4072712e-39
-0.048508875 -0.13172336 0.040989518 3.3150756e-39
-0.046639718 -0.13084482 0.044035494 7.740819e-39
-0.044842966 -0.13028862 0.045963943 9.4918115e-39
-0.042994887 -0.12941907 0.048978746 1.1888898e-38
-0.041158356 -0.12855496 0.051974714 9.7687669e-39
-0.039482027 -0.12855496 0.051974714 2.1176156e-39
-0.037805706 -0.12855496 0.051974714 9.198011e-40
-0.036129385 -0.12855496 0.051974714 1.5662551e-39
-0.034453064 -0.12855496 0.051974714 3.8718675e-39
-0.032687519 -0.1279559 0.054051757 2.2680492e-38
-0.031014837 -0.1279559 0.054051757 2.3234379e-38
-0.029342156 -0.1279559 0.054051757 2.3234379e-38
-0.027557731 -0.1271009 0.057016134 2.3418047e-38
-0.025781158 -0.12622552 0.060051203 2.3418047e-38
-0.024118997 -0.12622552 0.060051203 2.3509527e-38
-0.022393469 -0.12566207 0.062004745 2.3509527e-38
-0.020734735 -0.12566207 0.062004745 2.3509168e-38
-0.01913251 -0.12622552 0.060051203 2.3509168e-38
-0.017470352 -0.12622552 0.060051203 2.3509527e-38
-0.015808187 -0.12622552 0.060051203 2.3509886e-38
-0.01414603 -0.12622552 0.060051203 2.3509886e-38
-0.012550384 -0.1271009 0.057016134 2.3509886e-38
-0.010882903 -0.1271009 0.057016134 2.3509886e-38
-0.009215422 -0.1271009 0.057016134 2.3509886e-38
-0.0075479373 -0.1271009 0.057016134 2.3509886e-38
-0.0058804527 -0.1271009 0.057016134 2.3509886e-38
-0.0042519532 -0.1279559 0.054051757 2.3509886e-38
-0.0026370883 -0.12941907 0.048978746 2.3509886e-38
-0.00098458678 -0.13028862 0.045963943 2.3509886e-38
0.0006630253 -0.13172336 0.040989518 2.3509886e-38
0.0023403689 -0.13258059 0.038017333 2.3509886e-38
0.0040280558 -0.1334431 0.035026908 2.3509886e-38
0.0057286564 -0.13403918 0.032960236 2.3509886e-38
0.0074357521 -0.13488342 0.030033171 2.3509886e-38
0.0091505442 -0.13488342 0.030033171 2.3509527e-38
0.010873333 -0.13576023 0.026993155 2.3509527e-38
0.012606444 -0.13661484 0.024030089 2.3509527e-38
0.014350055 -0.13747464 0.021049082 2.3509527e-38
0.016096614 -0.13806005 0.019019425 2.3509527e-38
0.017830718 -0.13806005 0.019019425 2.3509527e-38
0.019599143 -0.13892864 0.0160079 2.3509886e-38
0.02137837 -0.13980253 0.012978017 2.3509886e-38
0.023167027 -0.1406533 0.010028243 2.2865235e-38
0.024967974 -0.14153777 0.0069616437 2.3234379e-38
0.026723219 -0.14153777 0.0069616437 2.3234379e-38
0.028538667 -0.14239894 0.0039759278 2.3234379e-38
0.030364973 -0.1432652 0.00097244978 2.3142544e-38
0.032130718 -0.1432652 0.00097244978 2.3142544e-38
0.033970714 -0.14410757 -0.0019480586 2.3142544e-38
0.035824172 -0.14498411 -0.0049871802 2.3142541e-38
0.037688822 -0.14586596 -0.0080446601 2.3142538e-38
0.039561603 -0.14672346 -0.01101774 2.2590439e-38
0.041348372 -0.14672346 -0.01101774 2.2221657e-38
-0.090574406 -0.14240317 0.010028243 2.3509886e-38
-0.088537492 -0.14154722 0.012978017 2.341805e-38
-0.086503275 -0.14066802 0.0160079 2.341805e-38
-0.084763892 -0.14066802 0.0160079 2.2127317e-38
-0.082747288 -0.13979416 0.019019425 2.341805e-38
-0.080829911 -0.13920517 0.021049082 2.3234379e-38
-0.079099365 -0.13920517 0.021049082 2.3234379e-38
-0.077368833 -0.13920517 0.021049082 2.2773765e-38
-0.075384788 -0.13834016 0.024030089 2.2312796e-38
-0.073412694 -0.13748036 0.026993155 2.2314231e-38
-0.071444713 -0.13659821 0.030033171 1.8627156e-38
-0.069729932 -0.13659821 0.030033171 1.3370208e-38
-0.068015136 -0.13659821 0.030033171 7.6537156e-39
-0.066077091 -0.13574885 0.032960236 3.1354039e-39
-0.064213432 -0.13514914 0.035026908 1.8477942e-40
-0.062507398 -0.13514914 0.035026908 2.2420775e-44
-0.06080135 -0.13514914 0.035026908 9.185091e-41
-0.059095316 -0.13514914 0.035026908 3.6735179e-40
-0.057187416 -0.13428138 0.038017333 5.5101858e-40
-0.055486627 -0.13428138 0.038017333 6.4284847e-40
-0.053785831 -0.13428138 0.038017333 7.3468397e-40
-0.052085035 -0.13428138 0.038017333 1.2867745e-39
-0.050384246 -0.13428138 0.038017333 7.3468397e-40
-0.048508875 -0.13341893 0.040989518 7.3468397e-40
-0.04652983 -0.13197549 0.045963943 1.0105492e-39
-0.04467646 -0.13110064 0.048978746 2.8537261e-39
-0.042994887 -0.13110064 0.048978746 3.2232317e-39
-0.041158356 -0.13023128 0.051974714 2.5782294e-39
-0.039482027 -0.13023128 0.051974714 9.187165e-40
-0.037805706 -0.13023128 0.051974714 2.7551209e-40
-0.036129385 -0.13023128 0.051974714 9.1842503e-41
-0.034453064 -0.13023128 0.051974714 4.6094326e-39
-0.032687519 -0.12962858 0.054051757 2.341805e-38
-0.031014837 -0.12962858 0.054051757 2.3234379e-38
-0.029342156 -0.12962858 0.054051757 2.3234379e-38
-0.027669478 -0.12962858 0.054051757 2.341805e-38
-0.025781158 -0.12788768 0.060051203 2.341805e-38
-0.024118997 -0.12788768 0.060051203 2.3509527e-38
-0.022393469 -0.12732081 0.062004745 2.3509527e-38
-0.020734735 -0.12732081 0.062004745 2.3509168e-38
-0.01913251 -0.12788768 0.060051203 2.3509527e-38
-0.017470352 -0.12788768 0.060051203 2.3509527e-38
-0.015808187 -0.12788768 0.060051203 2.3509886e-38
-0.01414603 -0.12788768 0.060051203 2.3509886e-38
-0.012483865 -0.12788768 0.060051203 2.3509886e-38
-0.010882903 -0.1287684 0.057016134 2.3509886e-38
-0.009215422 -0.1287684 0.057016134 2.3509886e-38
-0.0075479373 -0.1287684 0.057016134 2.3509886e-38
-0.0058804527 -0.1287684 0.057016134 2.3509886e-38
-0.0042519532 -0.12962858 0.054051757 2.3509886e-38
-0.0026370883 -0.13110064 0.048978746 2.3509886e-38
-0.00098458678 -0.13197549 0.045963943 2.3509886e-38
0.0006630253 -0.13341893 0.040989518 2.3509886e-38
0.0023403689 -0.13428138 0.038017333 2.3509886e-38
0.0040280558 -0.13514914 0.035026908 2.3509886e-38
0.0057286564 -0.13574885 0.032960236 2.3509886e-38
0.0074357521 -0.13659821 0.030033171 2.3509886e-38
0.0091505442 -0.13659821 0.030033171 2.3509527e-38
0.010873333 -0.13748036 0.026993155 2.3509527e-38
0.012606444 -0.13834016 0.024030089 2.3509527e-38
0.014350055 -0.13920517 0.021049082 2.3509527e-38
0.016096614 -0.13979416 0.019019425 2.3509527e-38
0.017859759 -0.14066802 0.0160079 2.3509527e-38
0.019599143 -0.14066802 0.0160079 2.3509886e-38
0.02137837 -0.14154722 0.012978017 2.3509886e-38
0.023167027 -0.14240317 0.010028243 2.3141822e-38
0.024967974 -0.14329304 0.0069616437 2.341805e-38
0.026723219 -0.14329304 0.0069616437 2.3234379e-38
0.028538667 -0.14415942 0.0039759278 2.2958151e-38
0.030364973 -0.14503096 0.00097244978 2.3050347e-38
0.032199845 -0.14587842 -0.0019480586 2.2590087e-38
0.033970714 -0.14587842 -0.0019480586 2.2405696e-38
0.035824172 -0.1467603 -0.0049871802 2.2958867e-38
0.037688822 -0.14764751 -0.0080446601 2.3142537e-38
0.039561603 -0.14851023 -0.01101774 2.3142534e-38
0.041348372 -0.14851023 -0.01101774 2.3142534e-38
-0.088537492 -0.14329191 0.012978017 2.2864519e-38
-0.086503275 -0.1424074 0.0160079 2.3509886e-38
-0.084763892 -0.1424074 0.0160079 2.341805e-38
-0.082747288 -0.14152823 0.019019425 2.341805e-38
-0.080829911 -0.14093573 0.021049082 2.2588292e-38
-0.079099365 -0.14093573 0.021049082 2.2864879e-38
-0.077368833 -0.14093573 0.021049082 2.2957075e-38
-0.075384788 -0.14006548 0.024030089 2.3142544e-38
-0.073412694 -0.13920046 0.026993155 2.2775202e-38
-0.071444713 -0.13831301 0.030033171 2.2223112e-38
-0.069729932 -0.13831301 0.030033171 2.0654016e-38
-0.068015136 -0.13831301 0.030033171 1.7426806e-38
-0.066077091 -0.13745852 0.032960236 1.3645703e-38
-0.064213432 -0.13685517 0.035026908 9.0355571e-39
-0.062507398 -0.13685517 0.035026908 5.9923782e-39
-0.06080135 -0.13685517 0.035026908 4.2402969e-39
-0.058888219 -0.1359822 0.038017333 1.4740623e-39
-0.057187416 -0.1359822 0.038017333 1.2889466e-39
-0.055486627 -0.1359822 0.038017333 1.1041924e-39
-0.053785831 -0.1359822 0.038017333 5.5101298e-40
-0.052085035 -0.1359822 0.038017333 6.4284847e-40
-0.050204456 -0.13511451 0.040989518 1.1031022e-39
-0.048508875 -0.13511451 0.040989518 1.3796862e-39
-0.04652983 -0.13366233 0.045963943 6.4284847e-40
-0.04467646 -0.13278224 0.048978746 7.3468397e-40
-0.042994887 -0.13278224 0.048978746 6.4284847e-40
-0.041313313 -0.13278224 0.048978746 1.4726007e-39
-0.039631732 -0.13278224 0.048978746 1.5651649e-39
-0.037805706 -0.1319076 0.051974714 2.7551209e-40
-0.036129385 -0.1319076 0.051974714 9.1842503e-41
-0.034453064 -0.1319076 0.051974714 7.4674971e-39
-0.032776739 -0.1319076 0.051974714 2.3233662e-38
-0.031014837 -0.13130127 0.054051757 2.341805e-38
-0.029342156 -0.13130127 0.054051757 2.341805e-38
-0.027669478 -0.13130127 0.054051757 2.341805e-38
-0.025890246 -0.13043587 0.057016134 2.341805e-38
-0.024118997 -0.12954985 0.060051203 2.3509527e-38
-0.022456832 -0.12954985 0.060051203 2.3509527e-38
-0.020794675 -0.12954985 0.060051203 2.3509168e-38
-0.01913251 -0.12954985 0.060051203 2.3509168e-38
-0.017470352 -0.12954985 0.060051203 2.3509527e-38
-0.015808187 -0.12954985 0.060051203 2.3509886e-38
-0.01414603 -0.12954985 0.060051203 2.3509886e-38
-0.012483865 -0.12954985 0.060051203 2.3509886e-38
-0.010882903 -0.13043587 0.057016134 2.3509886e-38
-0.009215422 -0.13043587 0.057016134 2.3509886e-38
-0.0075479373 -0.13043587 0.057016134 2.3509886e-38
-0.0058804527 -0.13043587 0.057016134 2.3509886e-38
-0.0042519532 -0.13130127 0.054051757 2.3509886e-38
-0.002602946 -0.1319076 0.051974714 2.3509886e-38
-0.00098458678 -0.13366233 0.045963943 2.3509886e-38
0.00068705902 -0.13422529 0.044035494 2.3509886e-38
0.0023403689 -0.1359822 0.038017333 2.3509886e-38
0.0040411633 -0.1359822 0.038017333 2.3509886e-38
0.0057340916 -0.13685517 0.035026908 2.3509886e-38
0.0074383169 -0.13745852 0.032960236 2.3509886e-38
0.0091505442 -0.13831301 0.030033171 2.3509527e-38
0.010873333 -0.13920046 0.026993155 2.3509527e-38
0.012606444 -0.14006548 0.024030089 2.3509527e-38
0.014350055 -0.14093573 0.021049082 2.3509527e-38
0.016096614 -0.14152823 0.019019425 2.3509527e-38
0.017830718 -0.14152823 0.019019425 2.3509527e-38
0.019599143 -0.1424074 0.0160079 2.3509886e-38
0.021338526 -0.1424074 0.0160079 2.3509886e-38
0.023123067 -0.14329191 0.012978017 2.341805e-38
0.024916895 -0.14415304 0.010028243 2.341805e-38
0.026723219 -0.14504828 0.0069616437 2.3049626e-38
0.028538667 -0.1459199 0.0039759278 2.2958151e-38
0.030364973 -0.14679669 0.00097244978 2.3234379e-38
0.032199845 -0.14764927 -0.0019480586 2.3234379e-38
0.034047976 -0.14853649 -0.0049871802 2.3234379e-38
0.035824172 -0.14853649 -0.0049871802 2.3234376e-38
0.037688822 -0.14942907 -0.0080446601 2.3234374e-38
-0.088537492 -0.14503662 0.012978017 2.3509886e-38
-0.086503275 -0.14414679 0.0160079 2.3417691e-38
-0.084763892 -0.14414679 0.0160079 2.341805e-38
-0.082747288 -0.14326234 0.019019425 2.2957431e-38
-0.08101318 -0.14326234 0.019019425 2.341805e-38
-0.079099365 -0.14266627 0.021049082 2.341805e-38
-0.077368833 -0.14266627 0.021049082 2.341805e-38
-0.075384788 -0.14179079 0.024030089 2.3234379e-38
-0.073412694 -0.14092059 0.026993155 2.2774484e-38
-0.071444713 -0.14002781 0.030033171 2.2590454e-38
-0.069729932 -0.14002781 0.030033171 2.2958873e-38
-0.068015136 -0.14002781 0.030033171 2.3142185e-38
-0.066077091 -0.13916816 0.032960236 2.3142185e-38
-0.064367436 -0.13916816 0.032960236 2.3049632e-38
-0.062507398 -0.13856123 0.035026908 2.3325497e-38
-0.06080135 -0.13856123 0.035026908 2.295672e-38
-0.058888219 -0.13768299 0.038017333 2.1573426e-38
-0.057187416 -0.13768299 0.038017333 1.8899391e-38
-0.055486627 -0.13768299 0.038017333 1.8714997e-38
-0.053785831 -0.13768299 0.038017333 1.935964e-38
-0.052085035 -0.13768299 0.038017333 1.7607921e-38
-0.050204456 -0.13681011 0.040989518 1.7238778e-38
-0.048508875 -0.13681011 0.040989518 1.8345124e-38
-0.04652983 -0.1353492 0.045963943 1.8436597e-38
-0.044842966 -0.1353492 0.045963943 1.972733e-38
-0.042994887 -0.1344638 0.048978746 1.9819528e-38
-0.041313313 -0.1344638 0.048978746 2.0557819e-38
-0.039631732 -0.1344638 0.048978746 1.9820621e-38
-0.037805706 -0.13358392 0.051974714 2.2402825e-38
-0.036129385 -0.13358392 0.051974714 2.2863446e-38
-0.034453064 -0.13358392 0.051974714 2.3232944e-38
-0.032776739 -0.13358392 0.051974714 2.3325856e-38
-0.031014837 -0.13297392 0.054051757 2.341805e-38
-0.029342156 -0.13297392 0.054051757 2.341805e-38
-0.027669478 -0.13297392 0.054051757 2.341805e-38
-0.025890246 -0.13210334 0.057016134 2.3509886e-38
-0.024222765 -0.13210334 0.057016134 2.3509886e-38
-0.022456832 -0.13121201 0.060051203 2.3509527e-38
-0.020794675 -0.13121201 0.060051203 2.3509168e-38
-0.01913251 -0.13121201 0.060051203 2.3509168e-38
-0.017470352 -0.13121201 0.060051203 2.3509886e-38
-0.015808187 -0.13121201 0.060051203 2.3509886e-38
-0.01414603 -0.13121201 0.060051203 2.3509886e-38
-0.012483865 -0.13121201 0.060051203 2.3509886e-38
-0.010821708 -0.13121201 0.060051203 2.3509886e-38
-0.009215422 -0.13210334 0.057016134 2.3509886e-38
-0.0075479373 -0.13210334 0.057016134 2.3509886e-38
-0.0058804527 -0.13210334 0.057016134 2.3509886e-38
-0.0042519532 -0.13297392 0.054051757 2.3509886e-38
-0.002602946 -0.13358392 0.051974714 2.3509886e-38
-0.00098458678 -0.1353492 0.045963943 2.3509886e-38
0.00068705902 -0.13591556 0.044035494 2.3509886e-38
0.0023403689 -0.13768299 0.038017333 2.3509886e-38
0.0040411633 -0.13768299 0.038017333 2.3509886e-38
0.0057340916 -0.13856123 0.035026908 2.3509886e-38
0.0074383169 -0.13916816 0.032960236 2.3509886e-38
0.0091505442 -0.14002781 0.030033171 2.3509527e-38
0.010873333 -0.14092059 0.026993155 2.3509527e-38
0.012606444 -0.14179079 0.024030089 2.3509527e-38
0.014350055 -0.14266627 0.021049082 2.3509527e-38
0.016096614 -0.14326234 0.019019425 2.3509527e-38
0.017830718 -0.14326234 0.019019425 2.3509527e-38
0.019599143 -0.14414679 0.0160079 2.3509886e-38
0.021338526 -0.14414679 0.0160079 2.3509886e-38
0.023123067 -0.14503662 0.012978017 2.341805e-38
0.024916895 -0.14590292 0.010028243 2.3141822e-38
0.026723219 -0.14680351 0.0069616437 2.341805e-38
0.028538667 -0.14768039 0.0039759278 2.341805e-38
0.030364973 -0.14856245 0.00097244978 2.3326213e-38
0.032199845 -0.14942016 -0.0019480586 2.3234379e-38
-0.088537492 -0.14678131 0.012978017 2.3509886e-38
-0.086503275 -0.14588617 0.0160079 2.3509886e-38
-0.084763892 -0.14588617 0.0160079 2.3509886e-38
-0.082747288 -0.14499645 0.019019425 2.3509886e-38
-0.08101318 -0.14499645 0.019019425 2.341805e-38
-0.079099365 -0.14439683 0.021049082 2.3418047e-38
-0.077368833 -0.14439683 0.021049082 2.3418047e-38
-0.075384788 -0.14351611 0.024030089 2.341805e-38
-0.073412694 -0.14264072 0.026993155 2.3234379e-38
-0.071444713 -0.1417426 0.030033171 2.3234379e-38
-0.069729932 -0.1417426 0.030033171 2.3417691e-38
-0.068015136 -0.1417426 0.030033171 2.3417691e-38
-0.066077091 -0.14087783 0.032960236 2.341805e-38
-0.064367436 -0.14087783 0.032960236 2.341805e-38
-0.062657766 -0.14087783 0.032960236 2.341805e-38
-0.060948111 -0.14087783 0.032960236 2.341805e-38
-0.059095316 -0.14026727 0.035026908 2.341805e-38
-0.057187416 -0.13938378 0.038017333 2.341805e-38
-0.055486627 -0.13938378 0.038017333 2.341805e-38
-0.053785831 -0.13938378 0.038017333 2.341805e-38
-0.051900037 -0.13850568 0.040989518 2.3418047e-38
-0.050204456 -0.13850568 0.040989518 2.3509883e-38
-0.048329957 -0.1376058 0.044035494 2.3509883e-38
-0.04652983 -0.13703607 0.045963943 2.350988e-38
-0.044842966 -0.13703607 0.045963943 2.3509517e-38
-0.042994887 -0.13614537 0.048978746 2.3509517e-38
-0.041313313 -0.13614537 0.048978746 2.3509521e-38
-0.039631732 -0.13614537 0.048978746 2.3509168e-38
-0.037950166 -0.13614537 0.048978746 2.3509168e-38
-0.036129385 -0.13526024 0.051974714 2.3509168e-38
-0.034453064 -0.13526024 0.051974714 2.3509527e-38
-0.032776739 -0.13526024 0.051974714 2.3509527e-38
-0.031100418 -0.13526024 0.051974714 2.3141466e-38
-0.029424097 -0.13526024 0.051974714 2.341805e-38
-0.027669478 -0.13464661 0.054051757 2.3509886e-38
-0.025890246 -0.13377084 0.057016134 2.3509886e-38
-0.024222765 -0.13377084 0.057016134 2.3509886e-38
-0.022393469 -0.13229702 0.062004745 2.3509527e-38
-0.020734735 -0.13229702 0.062004745 2.3509168e-38
-0.01913251 -0.13287418 0.060051203 2.3416615e-38
-0.017470352 -0.13287418 0.060051203 2.3509886e-38
-0.015808187 -0.13287418 0.060051203 2.3509886e-38
-0.01414603 -0.13287418 0.060051203 2.3509886e-38
-0.012483865 -0.13287418 0.060051203 2.3509886e-38
-0.010821708 -0.13287418 0.060051203 2.3509886e-38
-0.0091595426 -0.13287418 0.060051203 2.3509886e-38
-0.0074973851 -0.13287418 0.060051203 2.3509886e-38
-0.0058804527 -0.13377084 0.057016134 2.3509886e-38
-0.0042519532 -0.13464661 0.054051757 2.3509886e-38
-0.002602946 -0.13526024 0.051974714 2.3509886e-38
-0.00098458678 -0.13703607 0.045963943 2.3509886e-38
0.00068705902 -0.1376058 0.044035494 2.3509886e-38
0.0023586079 -0.13850568 0.040989518 2.3509886e-38
0.0040411633 -0.13938378 0.038017333 2.3509886e-38
0.0057419576 -0.13938378 0.038017333 2.3509886e-38
0.0074401293 -0.14026727 0.035026908 2.3509886e-38
0.0091479793 -0.14087783 0.032960236 2.3509527e-38
0.010873333 -0.14264072 0.026993155 2.3509527e-38
0.012593456 -0.14264072 0.026993155 2.3509527e-38
0.014331762 -0.14351611 0.024030089 2.3509527e-38
0.016080599 -0.14439683 0.021049082 2.3509527e-38
0.017830718 -0.14499645 0.019019425 2.3509527e-38
0.019599143 -0.14588617 0.0160079 2.3509886e-38
0.021338526 -0.14588617 0.0160079 2.3509886e-38
0.023123067 -0.14678131 0.012978017 2.3509886e-38
0.024916895 -0.14765279 0.010028243 2.3509886e-38
0.026723219 -0.14855875 0.0069616437 2.3509886e-38
0.028538667 -0.14944084 0.0039759278 2.3509886e-38
-0.086503275 -0.14762555 0.0160079 2.3509886e-38
-0.084481396 -0.14673056 0.019019425 2.3509886e-38
-0.082747288 -0.14673056 0.019019425 2.3509886e-38
-0.080829911 -0.14612736 0.021049082 2.3418047e-38
-0.079099365 -0.14612736 0.021049082 2.3418047e-38
-0.077368833 -0.14612736 0.021049082 2.3418045e-38
-0.075384788 -0.14524142 0.024030089 2.350988e-38
-0.073159508 -0.14345737 0.030033171 2.3509883e-38
-0.071444713 -0.14345737 0.030033171 2.3509883e-38
-0.069496416 -0.1425875 0.032960236 2.3509883e-38
-0.067786761 -0.1425875 0.032960236 2.3509883e-38
-0.066077091 -0.1425875 0.032960236 2.3509883e-38
-0.064367436 -0.1425875 0.032960236 2.341805e-38
-0.062657766 -0.1425875 0.032960236 2.341805e-38
-0.060948111 -0.1425875 0.032960236 2.341805e-38
-0.059095316 -0.1419733 0.035026908 2.3234379e-38
-0.057389282 -0.1419733 0.035026908 2.3142544e-38
-0.055486627 -0.14108457 0.038017333 2.3142544e-38
-0.053785831 -0.14108457 0.038017333 2.3142544e-38
-0.051900037 -0.14020126 0.040989518 2.3142544e-38
-0.050204456 -0.14020126 0.040989518 2.3142544e-38
-0.048329957 -0.13929604 0.044035494 2.3142544e-38
-0.04652983 -0.13872291 0.045963943 2.3418047e-38
-0.044842966 -0.13872291 0.045963943 2.3509879e-38
-0.042994887 -0.13782693 0.048978746 2.3509879e-38
-0.041313313 -0.13782693 0.048978746 2.3509524e-38
-0.039631732 -0.13782693 0.048978746 2.3509527e-38
-0.037950166 -0.13782693 0.048978746 2.3509168e-38
-0.036129385 -0.13693659 0.051974714 2.3509168e-38
-0.034453064 -0.13693659 0.051974714 2.3509527e-38
-0.032776739 -0.13693659 0.051974714 2.3509527e-38
-0.031100418 -0.13693659 0.051974714 2.341805e-38
-0.029424097 -0.13693659 0.051974714 2.3418047e-38
-0.027669478 -0.13631929 0.054051757 2.3509883e-38
-0.025996797 -0.13631929 0.054051757 2.31411e-38
-0.024222765 -0.13543831 0.057016134 2.3141103e-38
-0.022393469 -0.13395576 0.062004745 2.3417691e-38
-0.020734735 -0.13395576 0.062004745 2.3509168e-38
-0.01913251 -0.13453631 0.060051203 2.3509527e-38
-0.017470352 -0.13453631 0.060051203 2.3509886e-38
-0.015808187 -0.13453631 0.060051203 2.3509886e-38
-0.01414603 -0.13453631 0.060051203 2.3509886e-38
-0.012483865 -0.13453631 0.060051203 2.3509886e-38
-0.010821708 -0.13453631 0.060051203 2.3509886e-38
-0.0091595426 -0.13453631 0.060051203 2.3509886e-38
-0.0074973851 -0.13453631 0.060051203 2.3509886e-38
-0.0058804527 -0.13543831 0.057016134 2.3509886e-38
-0.0042519532 -0.13631929 0.054051757 2.3509886e-38
-0.002602946 -0.13693659 0.051974714 2.3509886e-38
-0.00098458678 -0.13872291 0.045963943 2.3509886e-38
0.00068705902 -0.13929604 0.044035494 2.3509886e-38
0.0023586079 -0.14020126 0.040989518 2.3509886e-38
0.0040411633 -0.14108457 0.038017333 2.3509886e-38
0.0057419576 -0.14108457 0.038017333 2.3509886e-38
0.0074401293 -0.1419733 0.035026908 2.3509886e-38
0.0091479793 -0.1425875 0.032960236 2.3509527e-38
0.010865338 -0.14345737 0.030033171 2.3509527e-38
0.012593456 -0.14436086 0.026993155 2.3509527e-38
0.014331762 -0.14524142 0.024030089 2.3509527e-38
0.016080599 -0.14612736 0.021049082 2.3509527e-38
0.017830718 -0.14673056 0.019019425 2.3509527e-38
0.019599143 -0.14762555 0.0160079 2.3509886e-38
0.021338526 -0.14762555 0.0160079 2.3509886e-38
0.023123067 -0.148526 0.012978017 2.3509886e-38
0.024916895 -0.14940263 0.010028243 2.3509886e-38
-0.086503275 -0.14936493 0.0160079 2.3509886e-38
-0.084481396 -0.14846466 0.019019425 2.3509886e-38
-0.082747288 -0.14846466 0.019019425 2.3509886e-38
-0.080829911 -0.14785792 0.021049082 2.3509883e-38
-0.079099365 -0.14785792 0.021049082 2.3509883e-38
-0.077368833 -0.14785792 0.021049082 2.3418045e-38
-0.075384788 -0.14696677 0.024030089 2.3509879e-38
-0.073159508 -0.14517216 0.030033171 2.3509517e-38
-0.071444713 -0.14517216 0.030033171 2.3509517e-38
-0.069496416 -0.14429714 0.032960236 2.3509517e-38
-0.067786761 -0.14429714 0.032960236 2.3509876e-38
-0.066077091 -0.14429714 0.032960236 2.3509876e-38
-0.064367436 -0.14429714 0.032960236 2.3509879e-38
-0.062657766 -0.14429714 0.032960236 2.3418045e-38
-0.060948111 -0.14429714 0.032960236 2.3234374e-38
-0.059095316 -0.14367934 0.035026908 2.3142538e-38
-0.057389282 -0.14367934 0.035026908 2.295887e-38
-0.055683248 -0.14367934 0.035026908 2.2958873e-38
-0.053785831 -0.14278536 0.038017333 2.2958873e-38
-0.051900037 -0.14189686 0.040989518 2.2958873e-38
-0.050204456 -0.14189686 0.040989518 2.2958873e-38
-0.048329957 -0.14098628 0.044035494 2.2958873e-38
-0.04652983 -0.14040978 0.045963943 2.3142544e-38
-0.044842966 -0.14040978 0.045963943 2.350988e-38
-0.042994887 -0.13950853 0.048978746 2.350988e-38
-0.041313313 -0.13950853 0.048978746 2.3509527e-38
-0.039631732 -0.13950853 0.048978746 2.3509527e-38
-0.037950166 -0.13950853 0.048978746 2.3509527e-38
-0.036268584 -0.13950853 0.048978746 2.3509527e-38
-0.034587011 -0.13950853 0.048978746 2.3509527e-38
-0.032776739 -0.13861291 0.051974714 2.3509886e-38
-0.031100418 -0.13861291 0.051974714 2.3509883e-38
-0.029424097 -0.13861291 0.051974714 2.3418043e-38
-0.027747776 -0.13861291 0.051974714 2.3509879e-38
-0.025996797 -0.13799198 0.054051757 2.3509879e-38
-0.024222765 -0.13710581 0.057016134 2.350988e-38
-0.022393469 -0.1356145 0.062004745 2.3509883e-38
-0.020734735 -0.1356145 0.062004745 2.3509886e-38
-0.01913251 -0.13619848 0.060051203 2.3417691e-38
-0.017470352 -0.13619848 0.060051203 2.3509886e-38
-0.015808187 -0.13619848 0.060051203 2.3509886e-38
-0.01414603 -0.13619848 0.060051203 2.3509886e-38
-0.012483865 -0.13619848 0.060051203 2.3509886e-38
-0.010821708 -0.13619848 0.060051203 2.3509886e-38
-0.0091595426 -0.13619848 0.060051203 2.3509886e-38
-0.0075479373 -0.13710581 0.057016134 2.3509886e-38
-0.0058804527 -0.13710581 0.057016134 2.3509886e-38
-0.0042519532 -0.13799198 0.054051757 2.3509886e-38
-0.002602946 -0.13861291 0.051974714 2.3509886e-38
-0.00095551461 -0.13950853 0.048978746 2.3509886e-38
0.0007022731 -0.14040978 0.045963943 2.3509886e-38
0.0023586079 -0.14189686 0.040989518 2.3509886e-38
0.0040411633 -0.14278536 0.038017333 2.3509886e-38
0.0057419576 -0.14278536 0.038017333 2.3509886e-38
0.0074401293 -0.14367934 0.035026908 2.3509886e-38
0.0091479793 -0.14429714 0.032960236 2.3509527e-38
0.010865338 -0.14517216 0.030033171 2.3509527e-38
0.012593456 -0.14608096 0.026993155 2.3509527e-38
0.014331762 -0.14696677 0.024030089 2.3509527e-38
0.016080599 -0.14785792 0.021049082 2.3509527e-38
0.017830718 -0.14846466 0.019019425 2.3509527e-38
0.019564822 -0.14846466 0.019019425 2.3509527e-38
0.021338526 -0.14936493 0.0160079 2.3509527e-38
-0.080829911 -0.14958845 0.021049082 2.3509883e-38
