# .PCD v0.7 - Point Cloud Data file format
VERSION 0.7
FIELDS x y z rgb
SIZE 4 4 4 4
TYPE F F F F
COUNT 1 1 1 1
WIDTH 943
HEIGHT 1
VIEWPOINT 0 0 0 1 0 0 0
POINTS 943
DATA ascii
0.0048406292 -0.10572915 0.025348585 1.2372307e-38
0.0066027483 -0.10498036 0.028409999 1.2280477e-38
0.008410492 -0.10498036 0.028409999 1.2280122e-38
0.010158985 -0.10426159 0.031348627 1.181987e-38
0.011961577 -0.10426159 0.031348627 1.1451092e-38
0.013764168 -0.10426159 0.031348627 1.135854e-38
0.015566762 -0.10426159 0.031348627 1.1542931e-38
0.017369352 -0.10426159 0.031348627 1.172732e-38
0.019171946 -0.10426159 0.031348627 1.1634758e-38
0.020881694 -0.10352151 0.034374516 1.154256e-38
0.022678982 -0.10352151 0.034374516 1.1634756e-38
0.024476267 -0.10352151 0.034374516 1.181915e-38
0.026273556 -0.10352151 0.034374516 1.1818794e-38
0.028070841 -0.10352151 0.034374516 1.1451092e-38
0.029868126 -0.10352151 0.034374516 1.172732e-38
0.031665415 -0.10352151 0.034374516 1.2096097e-38
0.033592682 -0.10426159 0.031348627 1.2280485e-38
0.035259988 -0.10352151 0.034374516 1.2096097e-38
0.036778547 -0.10205424 0.040373366 1.2003902e-38
0.038565315 -0.10205424 0.040373366 1.2096097e-38
0.040501527 -0.10278571 0.037382763 1.1819514e-38
0.042293537 -0.10278571 0.037382763 1.1359259e-38
0.043925624 -0.10205424 0.040373366 1.1451092e-38
0.045548189 -0.10132705 0.043346446 1.1727678e-38
0.047329746 -0.10132705 0.043346446 1.1634042e-38
0.048931714 -0.10057923 0.046403926 1.0896837e-38
0.05070791 -0.10057923 0.046403926 1.0528779e-38
0.052484103 -0.10057923 0.046403926 1.062242e-38
0.054260299 -0.10057923 0.046403926 1.0439109e-38
0.056036495 -0.10057923 0.046403926 9.6104272e-39
0.057812691 -0.10057923 0.046403926 9.4245954e-39
0.05980064 -0.10132705 0.043346446 9.5160693e-39
0.061365083 -0.10057923 0.046403926 9.7904898e-39
0.063141279 -0.10057923 0.046403926 9.4209814e-39
0.064917468 -0.10057923 0.046403926 9.5113764e-39
0.066693664 -0.10057923 0.046403926 9.3262649e-39
0.068232737 -0.099835888 0.049443047 8.5883439e-39
0.069770619 -0.099121556 0.052363556 8.5883467e-39
0.071536362 -0.099121556 0.052363556 8.4046785e-39
0.073302113 -0.099121556 0.052363556 7.4837942e-39
0.075316198 -0.099835888 0.049443047 6.9320455e-39
0.077087067 -0.099835888 0.049443047 7.0253118e-39
0.079127036 -0.10057923 0.046403926 7.2089842e-39
0.081179298 -0.10132705 0.043346446 7.1160655e-39
0.083234526 -0.10205424 0.040373366 6.6547244e-39
0.085021295 -0.10205424 0.040373366 6.6539999e-39
0.087093838 -0.10278571 0.037382763 7.2060891e-39
0.088885851 -0.10278571 0.037382763 8.0344036e-39
0.091275625 -0.10426159 0.031348627 8.3099045e-39
0.094990887 -0.10890187 0.012376945 9.8768631e-39
0.09682674 -0.10890187 0.012376945 1.1811884e-38
0.098969214 -0.10962076 0.0094378404 1.254872e-38
0.10124031 -0.11061247 0.0053832941 1.2179571e-38
0.10308843 -0.11061247 0.0053832941 1.1994814e-38
0.10559119 -0.11207359 -0.00059052184 1.282385e-38
0.10823534 -0.11379938 -0.0076462813 1.4020587e-38
0.11043871 -0.1145183 -0.010585625 1.4847452e-38
0.11312733 -0.11624874 -0.017660458 1.5675048e-38
0.1158246 -0.11794533 -0.024596889 1.613603e-38
0.11772529 -0.11794533 -0.024596889 1.7610084e-38
0.11999033 -0.11868732 -0.027630527 1.5858014e-38
0.12189632 -0.11868732 -0.027630527 4.8867355e-39
0.12416486 -0.11940466 -0.030563433 1.2611686e-44
0.12607601 -0.11940466 -0.030563433 1.4744252e-39
0.12939192 -0.12210761 -0.041614372 6.4430442e-40
0.13132244 -0.12210761 -0.041614372 6.4430442e-40
-0.12585153 -0.12501745 -0.045589764 8.3011954e-39
-0.12391404 -0.12501745 -0.045589764 2.1577368e-38
-0.12197655 -0.12501745 -0.045589764 2.295887e-38
-0.12003905 -0.12501745 -0.045589764 2.2775202e-38
-0.11810156 -0.12501745 -0.045589764 2.3142544e-38
-0.11578421 -0.12403814 -0.041614372 2.3234379e-38
-0.11385369 -0.12403814 -0.041614372 2.3325497e-38
-0.11192317 -0.12403814 -0.041614372 2.3325138e-38
-0.10999265 -0.12403814 -0.041614372 2.3416974e-38
-0.10806211 -0.12403814 -0.041614372 2.3508801e-38
-0.10613159 -0.12403814 -0.041614372 2.3508795e-38
-0.10386545 -0.12306587 -0.037667591 2.3508793e-38
-0.10168453 -0.12230472 -0.034577806 2.3509157e-38
-0.099766351 -0.12230472 -0.034577806 2.3509518e-38
-0.097527914 -0.12131582 -0.030563433 2.3509521e-38
-0.095616765 -0.12131582 -0.030563433 2.3509521e-38
-0.093481921 -0.12059332 -0.027630527 2.3509883e-38
-0.091575928 -0.12059332 -0.027630527 2.3509886e-38
-0.089669921 -0.12059332 -0.027630527 2.341805e-38
-0.087763913 -0.12059332 -0.027630527 2.3234379e-38
-0.08585792 -0.12059332 -0.027630527 2.3142544e-38
-0.083951913 -0.12059332 -0.027630527 2.2958873e-38
-0.081846453 -0.119846 -0.024596889 2.2867037e-38
-0.079693519 -0.11887501 -0.020655353 2.2775202e-38
-0.077799745 -0.11887501 -0.020655353 2.2775202e-38
-0.075724818 -0.11813726 -0.017660458 2.2499695e-38
-0.073836289 -0.11813726 -0.017660458 2.240786e-38
-0.071947776 -0.11813726 -0.017660458 2.2591531e-38
-0.070059247 -0.11813726 -0.017660458 2.3234379e-38
-0.068170734 -0.11813726 -0.017660458 2.3509527e-38
-0.066075042 -0.11715056 -0.013655145 2.3509886e-38
-0.064193539 -0.11715056 -0.013655145 2.3509886e-38
-0.06231204 -0.11715056 -0.013655145 2.3509886e-38
-0.060287926 -0.11639442 -0.010585625 2.3509886e-38
-0.058411803 -0.11639442 -0.010585625 2.3509886e-38
-0.056535687 -0.11639442 -0.010585625 2.3509886e-38
-0.054538462 -0.11567034 -0.0076462813 2.3325494e-38
-0.052667495 -0.11567034 -0.0076462813 2.3325494e-38
-0.050796535 -0.11567034 -0.0076462813 2.3416971e-38
-0.048925571 -0.11567034 -0.0076462813 2.3416974e-38
-0.046916366 -0.11467429 -0.0036029406 2.3416974e-38
-0.045052491 -0.11467429 -0.0036029406 2.3324778e-38
-0.043188617 -0.11467429 -0.0036029406 2.3232583e-38
-0.041324746 -0.11467429 -0.0036029406 2.3232585e-38
-0.039460871 -0.11467429 -0.0036029406 2.3232944e-38
-0.037596997 -0.11467429 -0.0036029406 2.3325138e-38
-0.035733122 -0.11467429 -0.0036029406 2.3325138e-38
-0.033869248 -0.11467429 -0.0036029406 2.3233662e-38
-0.031944633 -0.11393218 -0.00059052184 2.3142544e-38
-0.030030895 -0.1131943 0.00240485 2.2958514e-38
-0.028177556 -0.1131943 0.00240485 2.2775202e-38
-0.026279826 -0.11246057 0.0053832941 2.2683366e-38
-0.024431709 -0.11246057 0.0053832941 2.2315307e-38
-0.022583593 -0.11246057 0.0053832941 2.1855053e-38
-0.020696376 -0.11146177 0.0094378404 2.1486635e-38
-0.018855367 -0.11146177 0.0094378404 2.1303323e-38
-0.01699632 -0.11073773 0.012376945 2.1119293e-38
-0.015160465 -0.11073773 0.012376945 2.065868e-38
-0.013324608 -0.11073773 0.012376945 1.9829647e-38
-0.011488753 -0.11073773 0.012376945 1.8909491e-38
-0.0096555548 -0.10999118 0.015407484 1.8912012e-38
-0.0078250123 -0.10999118 0.015407484 1.8083695e-38
-0.0059944699 -0.10999118 0.015407484 1.7345774e-38
-0.0041639274 -0.10999118 0.015407484 1.6884799e-38
-0.0023333849 -0.10999118 0.015407484 1.6608576e-38
-0.00050284248 -0.10999118 0.015407484 1.6147245e-38
0.0012933603 -0.10924892 0.018420618 1.5318211e-38
0.0030792253 -0.10851096 0.021416347 1.4673208e-38
0.0048406292 -0.10754226 0.025348585 1.4949443e-38
0.0066537401 -0.10754226 0.025348585 1.4304799e-38
0.008410492 -0.10678811 0.028409999 1.375199e-38
0.010218238 -0.10678811 0.028409999 1.347505e-38
0.012025981 -0.10678811 0.028409999 1.3383219e-38
0.013764168 -0.10606419 0.031348627 1.3291029e-38
0.015566762 -0.10606419 0.031348627 1.3198477e-38
0.017369352 -0.10606419 0.031348627 1.3014442e-38
0.019171946 -0.10606419 0.031348627 1.2646735e-38
0.020974539 -0.10606419 0.031348627 1.2186476e-38
0.022777129 -0.10606419 0.031348627 1.2001729e-38
0.024579722 -0.10606419 0.031348627 1.1909536e-38
0.026382316 -0.10606419 0.031348627 1.1632951e-38
0.028184906 -0.10606419 0.031348627 1.1264894e-38
0.029987499 -0.10606419 0.031348627 1.1448929e-38
0.031790093 -0.10606419 0.031348627 1.190991e-38
0.0334627 -0.1053188 0.034374516 1.1818076e-38
0.035259988 -0.1053188 0.034374516 1.1725881e-38
0.036778547 -0.10384102 0.040373366 1.1726599e-38
0.038565315 -0.10384102 0.040373366 1.1910991e-38
0.040501527 -0.10457774 0.037382763 1.1818795e-38
0.042138856 -0.10384102 0.040373366 1.1451092e-38
0.043766633 -0.1031086 0.043346446 1.1726599e-38
0.045548189 -0.1031086 0.043346446 1.2095379e-38
0.047329746 -0.1031086 0.043346446 1.2186138e-38
0.048931714 -0.10235542 0.046403926 1.1264908e-38
0.05070791 -0.10235542 0.046403926 1.0804293e-38
0.052484103 -0.10235542 0.046403926 1.1082319e-38
0.054260299 -0.10235542 0.046403926 1.0990842e-38
0.056036495 -0.10235542 0.046403926 1.0161806e-38
0.057812691 -0.10235542 0.046403926 1.0068167e-38
0.059588887 -0.10235542 0.046403926 1.0344388e-38
0.061365083 -0.10235542 0.046403926 1.0711364e-38
0.063141279 -0.10235542 0.046403926 1.0248941e-38
0.064917468 -0.10235542 0.046403926 9.9716315e-39
0.066461876 -0.10160676 0.049443047 9.5102918e-39
0.068232737 -0.10160676 0.049443047 9.0489563e-39
0.069770619 -0.1008873 0.052363556 9.5099373e-39
0.071536362 -0.1008873 0.052363556 9.4191864e-39
0.073302113 -0.1008873 0.052363556 8.589776e-39
0.075316198 -0.10160676 0.049443047 7.3912104e-39
0.077087067 -0.10160676 0.049443047 7.3915593e-39
0.079127036 -0.10235542 0.046403926 7.4833948e-39
0.080903225 -0.10235542 0.046403926 7.8514557e-39
0.083234526 -0.10384102 0.040373366 8.4961034e-39
0.085021295 -0.10384102 0.040373366 9.1407512e-39
0.087093838 -0.10457774 0.037382763 9.5084477e-39
0.088885851 -0.10457774 0.037382763 9.5080805e-39
0.091275625 -0.10606419 0.031348627 1.005981e-38
0.094990887 -0.11073773 0.012376945 1.0981041e-38
0.09682674 -0.11073773 0.012376945 1.2086662e-38
0.098969214 -0.11146177 0.0094378404 1.2639107e-38
0.10124031 -0.11246057 0.0053832941 1.291425e-38
0.10308843 -0.11246057 0.0053832941 1.300608e-38
0.10526294 -0.1131943 0.00240485 1.3190826e-38
0.10778516 -0.11467429 -0.0036029406 1.3742192e-38
0.1101063 -0.11567034 -0.0076462813 1.7334569e-38
0.11347126 -0.11887501 -0.020655353 1.7425679e-38
0.1158246 -0.119846 -0.024596889 1.7148739e-38
0.11772529 -0.119846 -0.024596889 1.8162536e-38
0.11999033 -0.12059332 -0.027630527 1.6779607e-38
0.12189632 -0.12059332 -0.027630527 6.1767555e-39
0.12416486 -0.12131582 -0.030563433 6.4466456e-40
0.12607601 -0.12131582 -0.030563433 1.2900368e-39
0.12798716 -0.12131582 -0.030563433 1.6588193e-39
0.12989831 -0.12131582 -0.030563433 1.0134471e-39
-0.12585153 -0.12695493 -0.045589764 8.4841419e-39
-0.12391404 -0.12695493 -0.045589764 2.185323e-38
-0.12197655 -0.12695493 -0.045589764 2.2958864e-38
-0.12003905 -0.12695493 -0.045589764 2.3050707e-38
-0.11810156 -0.12695493 -0.045589764 2.3234379e-38
-0.11578421 -0.12596865 -0.041614372 2.3234379e-38
-0.11385369 -0.12596865 -0.041614372 2.341805e-38
-0.11192317 -0.12596865 -0.041614372 2.3509527e-38
-0.10999265 -0.12596865 -0.041614372 2.3509168e-38
-0.10806211 -0.12596865 -0.041614372 2.3509883e-38
-0.10613159 -0.12596865 -0.041614372 2.3509876e-38
-0.10386545 -0.12498946 -0.037667591 2.3509876e-38
-0.10194186 -0.12498946 -0.037667591 2.350952e-38
-0.099766351 -0.12422292 -0.034577806 2.3509523e-38
-0.097527914 -0.12322696 -0.030563433 2.3416971e-38
-0.095616765 -0.12322696 -0.030563433 2.3416971e-38
-0.093705617 -0.12322696 -0.030563433 2.3416971e-38
-0.091575928 -0.1224993 -0.027630527 2.3325494e-38
-0.089669921 -0.1224993 -0.027630527 2.3325494e-38
-0.087763913 -0.1224993 -0.027630527 2.3325494e-38
-0.08585792 -0.1224993 -0.027630527 2.3417691e-38
-0.083747141 -0.12174667 -0.024596889 2.3509886e-38
-0.081846453 -0.12174667 -0.024596889 2.3509886e-38
-0.079693519 -0.1207688 -0.020655353 2.3509886e-38
-0.077799745 -0.1207688 -0.020655353 2.3509886e-38
-0.075724818 -0.12002577 -0.017660458 2.3509527e-38
-0.073836289 -0.12002577 -0.017660458 2.341805e-38
-0.071947776 -0.12002577 -0.017660458 2.3509527e-38
-0.070059247 -0.12002577 -0.017660458 2.3325497e-38
-0.067956544 -0.11903207 -0.013655145 2.341769e-38
-0.066075042 -0.11903207 -0.013655145 2.3509167e-38
-0.064193539 -0.11903207 -0.013655145 2.3509883e-38
-0.06231204 -0.11903207 -0.013655145 2.350988e-38
-0.060430545 -0.11903207 -0.013655145 2.3509879e-38
-0.058411803 -0.11827053 -0.010585625 2.3509518e-38
-0.056535687 -0.11827053 -0.010585625 2.3325843e-38
-0.054538462 -0.1175413 -0.0076462813 2.3509876e-38
-0.052667495 -0.1175413 -0.0076462813 2.3509879e-38
-0.050796535 -0.1175413 -0.0076462813 2.3509879e-38
-0.04878024 -0.11653815 -0.0036029406 2.3509521e-38
-0.046916366 -0.11653815 -0.0036029406 2.3509524e-38
-0.045052491 -0.11653815 -0.0036029406 2.3509527e-38
-0.043188617 -0.11653815 -0.0036029406 2.3509168e-38
-0.041324746 -0.11653815 -0.0036029406 2.3509168e-38
-0.039379004 -0.11579077 -0.00059052184 2.3509527e-38
-0.037520412 -0.11579077 -0.00059052184 2.3509524e-38
-0.03566182 -0.11579077 -0.00059052184 2.3509524e-38
-0.033803228 -0.11579077 -0.00059052184 2.3509524e-38
-0.031944633 -0.11579077 -0.00059052184 2.350988e-38
-0.030030895 -0.11504765 0.00240485 2.350988e-38
-0.028177556 -0.11504765 0.00240485 2.350988e-38
-0.026279826 -0.1143087 0.0053832941 2.3418047e-38
-0.024431709 -0.1143087 0.0053832941 2.3234376e-38
-0.022537384 -0.11330278 0.0094378404 2.3142544e-38
-0.020696376 -0.11330278 0.0094378404 2.2958873e-38
-0.018855367 -0.11330278 0.0094378404 2.2958873e-38
-0.01699632 -0.11257361 0.012376945 2.2867037e-38
-0.015160465 -0.11257361 0.012376945 2.2775202e-38
-0.013324608 -0.11257361 0.012376945 2.2775202e-38
-0.011486095 -0.11182173 0.015407484 2.2316024e-38
-0.0096555548 -0.11182173 0.015407484 2.2224189e-38
-0.0078250123 -0.11182173 0.015407484 2.1948682e-38
-0.0059944699 -0.11182173 0.015407484 2.1948682e-38
-0.0041639274 -0.11182173 0.015407484 2.1948682e-38
-0.0023333849 -0.11182173 0.015407484 2.1856847e-38
-0.00050284248 -0.11182173 0.015407484 2.1673176e-38
0.0012933603 -0.11107419 0.018420618 2.1305834e-38
0.0030792253 -0.11033095 0.021416347 2.0937774e-38
0.0048992326 -0.11033095 0.021416347 1.9831802e-38
0.0066537401 -0.10935538 0.025348585 1.8910577e-38
0.0084668538 -0.10935538 0.025348585 1.78968e-38
0.010218238 -0.10859586 0.028409999 1.7159963e-38
0.012025981 -0.10859586 0.028409999 1.6883022e-38
0.013833727 -0.10859586 0.028409999 1.6514245e-38
0.01564147 -0.10859586 0.028409999 1.5868878e-38
0.017449215 -0.10859586 0.028409999 1.5132392e-38
0.019171946 -0.10786678 0.031348627 1.5041639e-38
0.020974539 -0.10786678 0.031348627 1.4489188e-38
0.022777129 -0.10786678 0.031348627 1.4212604e-38
0.024579722 -0.10786678 0.031348627 1.3936018e-38
0.026382316 -0.10786678 0.031348627 1.338321e-38
0.028070841 -0.10711606 0.034374516 1.2829683e-38
0.029868126 -0.10711606 0.034374516 1.2645654e-38
0.031665415 -0.10711606 0.034374516 1.2922246e-38
0.0334627 -0.10711606 0.034374516 1.2830774e-38
0.03512549 -0.10636975 0.037382763 1.2647103e-38
0.0369175 -0.10636975 0.037382763 1.2923689e-38
0.038709514 -0.10636975 0.037382763 1.3016604e-38
0.040501527 -0.10636975 0.037382763 1.3108798e-38
0.042138856 -0.10562779 0.040373366 1.2925127e-38
0.043766633 -0.10489015 0.043346446 1.3293187e-38
0.045548189 -0.10489015 0.043346446 1.3845276e-38
0.047329746 -0.10489015 0.043346446 1.3935676e-38
0.048931714 -0.10413162 0.046403926 1.3289599e-38
0.05070791 -0.10413162 0.046403926 1.2461286e-38
0.052484103 -0.10413162 0.046403926 1.2186138e-38
0.054260299 -0.10413162 0.046403926 1.1634049e-38
0.056036495 -0.10413162 0.046403926 1.0804646e-38
0.057812691 -0.10413162 0.046403926 1.0251469e-38
0.059588887 -0.10413162 0.046403926 1.0343301e-38
0.061365083 -0.10413162 0.046403926 1.0987581e-38
0.063141279 -0.10413162 0.046403926 1.0525883e-38
0.064917468 -0.10413162 0.046403926 1.052516e-38
0.066461876 -0.10337763 0.049443047 1.0248573e-38
0.068232737 -0.10337763 0.049443047 9.8794358e-39
0.069770619 -0.10265306 0.052363556 9.9730734e-39
0.071536362 -0.10265306 0.052363556 9.5128211e-39
0.073302113 -0.10265306 0.052363556 8.3139066e-39
0.075316198 -0.10337763 0.049443047 7.0213419e-39
0.077087067 -0.10337763 0.049443047 8.2191508e-39
0.078857936 -0.10337763 0.049443047 9.0489115e-39
0.080903225 -0.10413162 0.046403926 9.5088078e-39
0.082960866 -0.10489015 0.043346446 9.6928375e-39
0.084742419 -0.10489015 0.043346446 1.0337841e-38
0.087093838 -0.10636975 0.037382763 1.1442747e-38
0.088885851 -0.10636975 0.037382763 1.2087389e-38
0.091275625 -0.10786678 0.031348627 1.4575589e-38
0.094685353 -0.11182173 0.015407484 1.4667058e-38
0.096515901 -0.11182173 0.015407484 1.485036e-38
0.098662592 -0.11257361 0.012376945 1.5218778e-38
0.10081022 -0.11330278 0.0094378404 1.6047094e-38
0.10308843 -0.1143087 0.0053832941 1.6138925e-38
0.10493655 -0.1143087 0.0053832941 1.5125129e-38
0.10744978 -0.11579077 -0.00059052184 1.4294278e-38
0.1101063 -0.1175413 -0.0076462813 1.5305179e-38
0.11347126 -0.1207688 -0.020655353 1.5673598e-38
0.11617831 -0.1224993 -0.027630527 1.5581047e-38
0.11772529 -0.12174667 -0.024596889 1.714874e-38
0.11962598 -0.12174667 -0.024596889 1.7148387e-38
0.12189632 -0.1224993 -0.027630527 7.7440812e-39
0.12380233 -0.1224993 -0.027630527 1.8432077e-39
0.12570834 -0.1224993 -0.027630527 1.474428e-39
0.12798716 -0.12322696 -0.030563433 2.3041887e-39
-0.12778901 -0.12889244 -0.045589764 1.0603198e-38
-0.12585153 -0.12889244 -0.045589764 9.8663533e-39
-0.12391404 -0.12889244 -0.045589764 2.2682269e-38
-0.12197655 -0.12889244 -0.045589764 2.2405329e-38
-0.12003905 -0.12889244 -0.045589764 2.3234379e-38
-0.11810156 -0.12889244 -0.045589764 2.3142544e-38
-0.11578421 -0.12789918 -0.041614372 2.3234379e-38
-0.11385369 -0.12789918 -0.041614372 2.3234379e-38
-0.11192317 -0.12789918 -0.041614372 2.3417691e-38
-0.10999265 -0.12789918 -0.041614372 2.341805e-38
-0.10806211 -0.12789918 -0.041614372 2.3509886e-38
-0.10578906 -0.12691309 -0.037667591 2.350988e-38
-0.10386545 -0.12691309 -0.037667591 2.3418047e-38
-0.10168453 -0.12614109 -0.034577806 2.3234379e-38
-0.099766351 -0.12614109 -0.034577806 2.3234379e-38
-0.097527914 -0.12513812 -0.030563433 2.3234379e-38
-0.095616765 -0.12513812 -0.030563433 2.341805e-38
-0.093705617 -0.12513812 -0.030563433 2.341805e-38
-0.091575928 -0.12440531 -0.027630527 2.3417333e-38
-0.089669921 -0.12440531 -0.027630527 2.3509886e-38
-0.087763913 -0.12440531 -0.027630527 2.3509527e-38
-0.08585792 -0.12440531 -0.027630527 2.3508444e-38
-0.083747141 -0.12364738 -0.024596889 2.3508445e-38
-0.081846453 -0.12364738 -0.024596889 2.3508442e-38
-0.079693519 -0.12266256 -0.020655353 2.3508801e-38
-0.077799745 -0.12266256 -0.020655353 2.3508442e-38
-0.075724818 -0.12191428 -0.017660458 2.3508798e-38
-0.073836289 -0.12191428 -0.017660458 2.3508439e-38
-0.071947776 -0.12191428 -0.017660458 2.3508802e-38
-0.070059247 -0.12191428 -0.017660458 2.3417333e-38
-0.067956544 -0.12091358 -0.013655145 2.3050708e-38
-0.066075042 -0.12091358 -0.013655145 2.3234379e-38
-0.064193539 -0.12091358 -0.013655145 2.3142544e-38
-0.06231204 -0.12091358 -0.013655145 2.3234376e-38
-0.060430545 -0.12091358 -0.013655145 2.3142538e-38
-0.058411803 -0.12014665 -0.010585625 2.3234372e-38
-0.056535687 -0.12014665 -0.010585625 2.3142537e-38
-0.054538462 -0.11941226 -0.0076462813 2.2774111e-38
-0.052667495 -0.11941226 -0.0076462813 2.2866307e-38
-0.050796535 -0.11941226 -0.0076462813 2.2958504e-38
-0.04878024 -0.11840202 -0.0036029406 2.332621e-38
-0.046916366 -0.11840202 -0.0036029406 2.341805e-38
-0.045052491 -0.11840202 -0.0036029406 2.341805e-38
-0.043188617 -0.11840202 -0.0036029406 2.3509527e-38
-0.041324746 -0.11840202 -0.0036029406 2.3509527e-38
-0.039379004 -0.11764936 -0.00059052184 2.3509527e-38
-0.037520412 -0.11764936 -0.00059052184 2.3509527e-38
-0.03566182 -0.11764936 -0.00059052184 2.3509523e-38
-0.033803228 -0.11764936 -0.00059052184 2.3509523e-38
-0.031884234 -0.11690097 0.00240485 2.3418043e-38
-0.030030895 -0.11690097 0.00240485 2.3418042e-38
-0.028177556 -0.11690097 0.00240485 2.3418042e-38
-0.026279826 -0.1161568 0.0053832941 2.3418043e-38
-0.024431709 -0.1161568 0.0053832941 2.3234369e-38
-0.022537384 -0.11514379 0.0094378404 2.30507e-38
-0.020696376 -0.11514379 0.0094378404 2.30507e-38
-0.018832177 -0.11440946 0.012376945 2.3142539e-38
-0.01699632 -0.11440946 0.012376945 2.3234379e-38
-0.015160465 -0.11440946 0.012376945 2.3142544e-38
-0.013324608 -0.11440946 0.012376945 2.3142544e-38
-0.011486095 -0.11365227 0.015407484 2.3142544e-38
-0.0096555548 -0.11365227 0.015407484 2.2589736e-38
-0.0078250123 -0.11365227 0.015407484 2.2681931e-38
-0.0059944699 -0.11365227 0.015407484 2.2774125e-38
-0.0041639274 -0.11365227 0.015407484 2.2774843e-38
-0.0023333849 -0.11365227 0.015407484 2.2867037e-38
-0.00050284248 -0.11365227 0.015407484 2.2775202e-38
0.0012933603 -0.11289944 0.018420618 2.2775202e-38
0.0030792253 -0.11215095 0.021416347 2.2591531e-38
0.0048992326 -0.11215095 0.021416347 2.2499695e-38
0.0066537401 -0.11116849 0.025348585 2.1948323e-38
0.0084668538 -0.11116849 0.025348585 2.1119293e-38
0.010218238 -0.11040358 0.028409999 2.0382098e-38
0.012025981 -0.11040358 0.028409999 2.0013318e-38
0.013833727 -0.11040358 0.028409999 1.9368669e-38
0.01564147 -0.11040358 0.028409999 1.8815498e-38
0.017449215 -0.11040358 0.028409999 1.8171573e-38
0.019171946 -0.10966937 0.031348627 1.6606773e-38
0.020974539 -0.10966937 0.031348627 1.633091e-38
0.022777129 -0.10966937 0.031348627 1.6238359e-38
0.024579722 -0.10966937 0.031348627 1.6054689e-38
0.026382316 -0.10966937 0.031348627 1.531749e-38
0.028070841 -0.10891335 0.034374516 1.4395179e-38
0.029868126 -0.10891335 0.034374516 1.365834e-38
0.031665415 -0.10891335 0.034374516 1.356579e-38
0.033333477 -0.10816176 0.037382763 1.3843098e-38
0.03512549 -0.10816176 0.037382763 1.3567234e-38
0.036778547 -0.10741456 0.040373366 1.3659076e-38
0.038565315 -0.10741456 0.040373366 1.375199e-38
0.040352087 -0.10741456 0.040373366 1.356832e-38
0.042138856 -0.10741456 0.040373366 1.3108063e-38
0.043766633 -0.10667174 0.043346446 1.3383929e-38
0.045548189 -0.10667174 0.043346446 1.3935665e-38
0.047329746 -0.10667174 0.043346446 1.4208299e-38
0.048931714 -0.10590781 0.046403926 1.420722e-38
0.05070791 -0.10590781 0.046403926 1.3839881e-38
0.052484103 -0.10590781 0.046403926 1.3473259e-38
0.054260299 -0.10590781 0.046403926 1.3013723e-38
0.056036495 -0.10590781 0.046403926 1.2369795e-38
0.057812691 -0.10590781 0.046403926 1.2001729e-38
0.059378408 -0.10514848 0.049443047 1.1817694e-38
0.061149269 -0.10514848 0.049443047 1.1540385e-38
0.063141279 -0.10590781 0.046403926 1.1263798e-38
0.064917468 -0.10590781 0.046403926 1.1264517e-38
0.066461876 -0.10514848 0.049443047 1.089646e-38
0.068004869 -0.1044188 0.052363556 1.0436565e-38
0.069770619 -0.1044188 0.052363556 1.0345459e-38
0.071536362 -0.1044188 0.052363556 9.1490777e-39
0.073302113 -0.1044188 0.052363556 7.7636125e-39
0.075316198 -0.10514848 0.049443047 6.9295022e-39
0.077087067 -0.10514848 0.049443047 9.3236921e-39
0.078857936 -0.10514848 0.049443047 1.0706627e-38
0.080903225 -0.10590781 0.046403926 1.0889936e-38
0.082960866 -0.10667174 0.043346446 1.0520791e-38
0.084742419 -0.10667174 0.043346446 1.1165435e-38
0.087093838 -0.10816176 0.037382763 1.2639484e-38
0.088885851 -0.10816176 0.037382763 1.38373e-38
0.091275625 -0.10966937 0.031348627 1.4020249e-38
0.093374483 -0.11040358 0.028409999 1.5218424e-38
0.09549623 -0.11116849 0.025348585 1.6784665e-38
0.098032095 -0.11289944 0.018420618 1.7337473e-38
0.10081022 -0.11514379 0.0094378404 1.7151638e-38
0.10308843 -0.1161568 0.0053832941 1.5583947e-38
0.10493655 -0.1161568 0.0053832941 1.3186859e-38
0.10744978 -0.11764936 -0.00059052184 1.1434053e-38
0.1101063 -0.11941226 -0.0076462813 1.0141502e-38
0.11347126 -0.12266256 -0.020655353 1.3367625e-38
0.1158246 -0.12364738 -0.024596889 1.5949107e-38
0.11772529 -0.12364738 -0.024596889 1.8069976e-38
0.11962598 -0.12364738 -0.024596889 1.7700842e-38
0.12152665 -0.12364738 -0.024596889 8.2968934e-39
0.12380233 -0.12440531 -0.027630527 2.3963815e-39
0.12570834 -0.12440531 -0.027630527 1.7510149e-39
0.12761433 -0.12440531 -0.027630527 2.3045502e-39
-0.12778901 -0.13082992 -0.045589764 9.865633e-39
-0.12585153 -0.13082992 -0.045589764 9.5890476e-39
-0.12391404 -0.13082992 -0.045589764 2.268119e-38
-0.12197655 -0.13082992 -0.045589764 2.2312413e-38
-0.12003905 -0.13082992 -0.045589764 2.3234376e-38
-0.11810156 -0.13082992 -0.045589764 2.3234379e-38
-0.11578421 -0.12982969 -0.041614372 2.3234379e-38
-0.11385369 -0.12982969 -0.041614372 2.3234379e-38
-0.11192317 -0.12982969 -0.041614372 2.341805e-38
-0.10999265 -0.12982969 -0.041614372 2.341805e-38
-0.10771266 -0.12883668 -0.037667591 2.341805e-38
-0.10578906 -0.12883668 -0.037667591 2.332621e-38
-0.10386545 -0.12883668 -0.037667591 2.3234018e-38
-0.10168453 -0.12805928 -0.034577806 2.2957796e-38
-0.099766351 -0.12805928 -0.034577806 2.2958514e-38
-0.097527914 -0.12704925 -0.030563433 2.3142185e-38
-0.095616765 -0.12704925 -0.030563433 2.3142185e-38
-0.093705617 -0.12704925 -0.030563433 2.3233662e-38
-0.091575928 -0.12631132 -0.027630527 2.3325138e-38
-0.089669921 -0.12631132 -0.027630527 2.3509886e-38
-0.087763913 -0.12631132 -0.027630527 2.3509527e-38
-0.085647814 -0.12554805 -0.024596889 2.3509524e-38
-0.083747141 -0.12554805 -0.024596889 2.3509521e-38
-0.081846453 -0.12554805 -0.024596889 2.3509161e-38
-0.079693519 -0.12455635 -0.020655353 2.3508802e-38
-0.077799745 -0.12455635 -0.020655353 2.35088e-38
-0.075724818 -0.12380283 -0.017660458 2.3508797e-38
-0.073836289 -0.12380283 -0.017660458 2.3508797e-38
-0.071947776 -0.12380283 -0.017660458 2.3509161e-38
-0.070059247 -0.12380283 -0.017660458 2.341805e-38
-0.067956544 -0.12279506 -0.013655145 2.2958873e-38
-0.066075042 -0.12279506 -0.013655145 2.2958873e-38
-0.064193539 -0.12279506 -0.013655145 2.2958873e-38
-0.06231204 -0.12279506 -0.013655145 2.2958873e-38
-0.060430545 -0.12279506 -0.013655145 2.295887e-38
-0.058411803 -0.12202276 -0.010585625 2.286703e-38
-0.056535687 -0.12202276 -0.010585625 2.30507e-38
-0.054538462 -0.12128322 -0.0076462813 2.3142538e-38
-0.052667495 -0.12128322 -0.0076462813 2.3142538e-38
-0.050796535 -0.12128322 -0.0076462813 2.3234376e-38
-0.04878024 -0.12026589 -0.0036029406 2.341805e-38
-0.046916366 -0.12026589 -0.0036029406 2.3509886e-38
-0.045052491 -0.12026589 -0.0036029406 2.3509886e-38
-0.043188617 -0.12026589 -0.0036029406 2.3509168e-38
-0.041324746 -0.12026589 -0.0036029406 2.3416974e-38
-0.039460871 -0.12026589 -0.0036029406 2.3509524e-38
-0.037520412 -0.11950795 -0.00059052184 2.3509161e-38
-0.03566182 -0.11950795 -0.00059052184 2.3509518e-38
-0.033803228 -0.11950795 -0.00059052184 2.3509516e-38
-0.031884234 -0.11875431 0.00240485 2.3509513e-38
-0.030030895 -0.11875431 0.00240485 2.350987e-38
-0.028177556 -0.11875431 0.00240485 2.350987e-38
-0.026279826 -0.11800493 0.0053832941 2.350987e-38
-0.024431709 -0.11800493 0.0053832941 2.3509873e-38
-0.022537384 -0.1169848 0.0094378404 2.3509876e-38
-0.020696376 -0.1169848 0.0094378404 2.3509879e-38
-0.018832177 -0.11624531 0.012376945 2.350988e-38
-0.01699632 -0.11624531 0.012376945 2.350988e-38
-0.015160465 -0.11624531 0.012376945 2.3418047e-38
-0.013324608 -0.11624531 0.012376945 2.3418047e-38
-0.011486095 -0.11548282 0.015407484 2.3509886e-38
-0.0096555548 -0.11548282 0.015407484 2.3509527e-38
-0.0078250123 -0.11548282 0.015407484 2.3509527e-38
-0.0059944699 -0.11548282 0.015407484 2.3509527e-38
-0.0041639274 -0.11548282 0.015407484 2.3509527e-38
-0.0023333849 -0.11548282 0.015407484 2.3417691e-38
-0.00050284248 -0.11548282 0.015407484 2.3049991e-38
0.0012933603 -0.11472471 0.018420618 2.3049991e-38
0.0030792253 -0.11397095 0.021416347 2.3050708e-38
0.0048992326 -0.11397095 0.021416347 2.3142544e-38
0.0066537401 -0.1129816 0.025348585 2.2958873e-38
0.0084668538 -0.1129816 0.025348585 2.2867037e-38
0.010279966 -0.1129816 0.025348585 2.2867037e-38
0.012093077 -0.1129816 0.025348585 2.2683366e-38
0.013906189 -0.1129816 0.025348585 2.2683366e-38
0.01564147 -0.11221133 0.028409999 2.2775202e-38
0.017449215 -0.11221133 0.028409999 2.2499695e-38
0.019171946 -0.11147197 0.031348627 2.1948682e-38
0.020974539 -0.11147197 0.031348627 2.1673176e-38
0.022777129 -0.11147197 0.031348627 2.1673176e-38
0.024579722 -0.11147197 0.031348627 2.1673176e-38
0.026273556 -0.11071064 0.034374516 2.0753745e-38
0.028070841 -0.11071064 0.034374516 1.9278278e-38
0.029749453 -0.10995375 0.037382763 1.8172301e-38
0.031541463 -0.10995375 0.037382763 1.7803521e-38
0.033333477 -0.10995375 0.037382763 1.7988635e-38
0.034991778 -0.10920133 0.040373366 1.7620217e-38
0.036778547 -0.10920133 0.040373366 1.7435829e-38
0.038565315 -0.10920133 0.040373366 1.7159963e-38
0.040352087 -0.10920133 0.040373366 1.6791184e-38
0.042138856 -0.10920133 0.040373366 1.6146533e-38
0.043766633 -0.10845329 0.043346446 1.6054337e-38
0.045548189 -0.10845329 0.043346446 1.6513518e-38
0.047329746 -0.10845329 0.043346446 1.6234057e-38
0.049111299 -0.10845329 0.043346446 1.6693956e-38
0.05070791 -0.107684 0.046403926 1.6603205e-38
0.052484103 -0.107684 0.046403926 1.6143667e-38
0.054260299 -0.107684 0.046403926 1.5500459e-38
0.056036495 -0.107684 0.046403926 1.5040923e-38
0.057812691 -0.107684 0.046403926 1.4580663e-38
0.059378408 -0.10691936 0.049443047 1.402821e-38
0.061149269 -0.10691936 0.049443047 1.4120405e-38
0.062920138 -0.10691936 0.049443047 1.3843818e-38
0.064691007 -0.10691936 0.049443047 1.3751987e-38
0.066461876 -0.10691936 0.049443047 1.3200614e-38
0.068004869 -0.10618456 0.052363556 1.2648529e-38
0.069770619 -0.10618456 0.052363556 1.2649612e-38
0.071536362 -0.10618456 0.052363556 1.1452157e-38
0.073302113 -0.10618456 0.052363556 9.6989878e-39
0.075316198 -0.10691936 0.049443047 1.0155256e-38
0.077087067 -0.10691936 0.049443047 1.1443101e-38
0.078857936 -0.10691936 0.049443047 1.227178e-38
0.080903225 -0.107684 0.046403926 1.3008982e-38
0.082960866 -0.10845329 0.043346446 1.4022413e-38
0.085021295 -0.10920133 0.040373366 1.5404262e-38
0.087093838 -0.10995375 0.037382763 1.604855e-38
0.089178585 -0.11071064 0.034374516 1.6047824e-38
0.091566734 -0.11221133 0.028409999 1.8628221e-38
0.093374483 -0.11221133 0.028409999 1.8627858e-38
0.095182233 -0.11221133 0.028409999 1.6967614e-38
0.097719572 -0.11397095 0.021416347 1.2634055e-38
0.10081022 -0.1169848 0.0094378404 7.562571e-39
0.10265123 -0.1169848 0.0094378404 3.7829061e-39
0.10493655 -0.11800493 0.0053832941 1.939348e-39
0.10744978 -0.11950795 -0.00059052184 1.4769251e-39
0.1101063 -0.12128322 -0.0076462813 2.3055928e-39
0.11312733 -0.12380283 -0.017660458 9.2188245e-39
0.1158246 -0.12554805 -0.024596889 1.5304461e-38
0.11772529 -0.12554805 -0.024596889 1.8715346e-38
0.11962598 -0.12554805 -0.024596889 1.7793394e-38
0.12152665 -0.12554805 -0.024596889 8.1132182e-39
0.12380233 -0.12631132 -0.027630527 2.9499112e-39
0.12570834 -0.12631132 -0.027630527 3.1339466e-39
0.12761433 -0.12631132 -0.027630527 2.5814945e-39
0.12952034 -0.12631132 -0.027630527 2.3049076e-39
-0.12778901 -0.13276742 -0.045589764 9.9578329e-39
-0.12585153 -0.13276742 -0.045589764 1.0049673e-38
-0.12391404 -0.13276742 -0.045589764 2.2219496e-38
-0.12197655 -0.13276742 -0.045589764 2.350988e-38
-0.12003905 -0.13276742 -0.045589764 2.3418047e-38
-0.11771473 -0.13176022 -0.041614372 2.341805e-38
-0.11578421 -0.13176022 -0.041614372 2.341805e-38
-0.11385369 -0.13176022 -0.041614372 2.341805e-38
-0.11192317 -0.13176022 -0.041614372 2.3509886e-38
-0.10963625 -0.13076027 -0.037667591 2.3509886e-38
-0.10771266 -0.13076027 -0.037667591 2.3509886e-38
-0.10578906 -0.13076027 -0.037667591 2.3509886e-38
-0.10386545 -0.13076027 -0.037667591 2.3509886e-38
-0.10168453 -0.12997745 -0.034577806 2.341805e-38
-0.099766351 -0.12997745 -0.034577806 2.341805e-38
-0.097527914 -0.12896039 -0.030563433 2.341805e-38
-0.095616765 -0.12896039 -0.030563433 2.341805e-38
-0.093705617 -0.12896039 -0.030563433 2.3509886e-38
-0.091575928 -0.12821732 -0.027630527 2.3509886e-38
-0.089669921 -0.12821732 -0.027630527 2.3509886e-38
-0.087763913 -0.12821732 -0.027630527 2.3509886e-38
-0.085647814 -0.12744872 -0.024596889 2.3509527e-38
-0.083747141 -0.12744872 -0.024596889 2.3509883e-38
-0.081587292 -0.12645011 -0.020655353 2.3509883e-38
-0.079693519 -0.12645011 -0.020655353 2.3509524e-38
-0.077799745 -0.12645011 -0.020655353 2.3509524e-38
-0.075724818 -0.12569134 -0.017660458 2.3509521e-38
-0.073836289 -0.12569134 -0.017660458 2.3509521e-38
-0.071947776 -0.12569134 -0.017660458 2.3509527e-38
-0.070059247 -0.12569134 -0.017660458 2.3234379e-38
-0.067956544 -0.12467657 -0.013655145 2.2774843e-38
-0.066075042 -0.12467657 -0.013655145 2.249826e-38
-0.064193539 -0.12467657 -0.013655145 2.2498619e-38
-0.06231204 -0.12467657 -0.013655145 2.2958873e-38
-0.060430545 -0.12467657 -0.013655145 2.295887e-38
-0.058411803 -0.12389888 -0.010585625 2.3142538e-38
-0.056535687 -0.12389888 -0.010585625 2.3234374e-38
-0.054659571 -0.12389888 -0.010585625 2.3234015e-38
-0.052783448 -0.12389888 -0.010585625 2.3509883e-38
-0.050796535 -0.12315418 -0.0076462813 2.3509527e-38
-0.04878024 -0.12212978 -0.0036029406 2.295527e-38
-0.046916366 -0.12212978 -0.0036029406 2.3509521e-38
-0.045052491 -0.12212978 -0.0036029406 2.3508801e-38
-0.043188617 -0.12212978 -0.0036029406 2.3508078e-38
-0.041324746 -0.12212978 -0.0036029406 2.3508797e-38
-0.039460871 -0.12212978 -0.0036029406 2.3508794e-38
-0.037596997 -0.12212978 -0.0036029406 2.3506992e-38
-0.035733122 -0.12212978 -0.0036029406 2.3509149e-38
-0.033803228 -0.12136655 -0.00059052184 2.3509502e-38
-0.031884234 -0.12060766 0.00240485 2.3230751e-38
-0.030030895 -0.12060766 0.00240485 2.3509499e-38
-0.028177556 -0.12060766 0.00240485 2.350986e-38
-0.026279826 -0.11985306 0.0053832941 2.3416586e-38
-0.024431709 -0.11985306 0.0053832941 2.3509869e-38
-0.022537384 -0.11882581 0.0094378404 2.3509513e-38
-0.020696376 -0.11882581 0.0094378404 2.3231854e-38
-0.018832177 -0.11808117 0.012376945 2.3325131e-38
-0.01699632 -0.11808117 0.012376945 2.3509883e-38
-0.015160465 -0.11808117 0.012376945 2.3509883e-38
-0.013324608 -0.11808117 0.012376945 2.3325492e-38
-0.011486095 -0.11731337 0.015407484 2.341805e-38
-0.0096555548 -0.11731337 0.015407484 2.3234379e-38
-0.0078250123 -0.11731337 0.015407484 2.323402e-38
-0.0059944699 -0.11731337 0.015407484 2.323402e-38
-0.0041639274 -0.11731337 0.015407484 2.2865243e-38
-0.0023333849 -0.11731337 0.015407484 2.2865243e-38
-0.00053189881 -0.11654995 0.018420618 2.323402e-38
0.0012592189 -0.11579098 0.021416347 2.3234379e-38
0.0030792253 -0.11579098 0.021416347 2.3325856e-38
0.0048992326 -0.11579098 0.021416347 2.341805e-38
0.0066537401 -0.11479472 0.025348585 2.3049621e-38
0.0084668538 -0.11479472 0.025348585 2.3142537e-38
0.010279966 -0.11479472 0.025348585 2.3142537e-38
0.012093077 -0.11479472 0.025348585 2.341805e-38
0.013906189 -0.11479472 0.025348585 2.341805e-38
0.01564147 -0.11401908 0.028409999 2.3141467e-38
0.017449215 -0.11401908 0.028409999 2.3142544e-38
0.019256961 -0.11401908 0.028409999 2.2683366e-38
0.020974539 -0.11327456 0.031348627 2.2591531e-38
0.022777129 -0.11327456 0.031348627 2.2591531e-38
0.024579722 -0.11327456 0.031348627 2.2591531e-38
0.026273556 -0.11250792 0.034374516 2.2316024e-38
0.028070841 -0.11250792 0.034374516 2.1671023e-38
0.029749453 -0.11174576 0.037382763 2.1117857e-38
0.031541463 -0.11174576 0.037382763 2.0656881e-38
0.033333477 -0.11174576 0.037382763 2.0011512e-38
0.034991778 -0.1109881 0.040373366 1.9827844e-38
0.036778547 -0.1109881 0.040373366 1.9735649e-38
0.038565315 -0.1109881 0.040373366 1.9643454e-38
0.040352087 -0.1109881 0.040373366 1.9458707e-38
0.041985076 -0.11023484 0.043346446 1.9274315e-38
0.043766633 -0.11023484 0.043346446 1.9089927e-38
0.045548189 -0.11023484 0.043346446 1.8905898e-38
0.047329746 -0.11023484 0.043346446 1.8537119e-38
0.049111299 -0.11023484 0.043346446 1.8445285e-38
0.05070791 -0.10946019 0.046403926 1.8077581e-38
0.052484103 -0.10946019 0.046403926 1.7709162e-38
0.054260299 -0.10946019 0.046403926 1.7249265e-38
0.056036495 -0.10946019 0.046403926 1.678865e-38
0.057812691 -0.10946019 0.046403926 1.6512782e-38
0.059378408 -0.10869022 0.049443047 1.6144721e-38
0.061149269 -0.10869022 0.049443047 1.5407159e-38
0.062920138 -0.10869022 0.049443047 1.5684465e-38
0.064691007 -0.10869022 0.049443047 1.4854351e-38
0.066461876 -0.10869022 0.049443047 1.4394096e-38
0.068004869 -0.10795029 0.052363556 1.430262e-38
0.069770619 -0.10795029 0.052363556 1.4763964e-38
0.071536362 -0.10795029 0.052363556 1.4303709e-38
0.073302113 -0.10795029 0.052363556 1.1537112e-38
0.075316198 -0.10869022 0.049443047 1.1168307e-38
0.077087067 -0.10869022 0.049443047 1.0797355e-38
0.078857936 -0.10869022 0.049443047 1.2456511e-38
0.080903225 -0.10946019 0.046403926 1.3561415e-38
0.082960866 -0.11023484 0.043346446 1.5403885e-38
0.085021295 -0.1109881 0.040373366 1.632476e-38
0.087093838 -0.11174576 0.037382763 1.5032581e-38
0.089178585 -0.11250792 0.034374516 1.8718967e-38
0.091566734 -0.11401908 0.028409999 1.9455456e-38
0.093374483 -0.11401908 0.028409999 1.8164717e-38
0.095182233 -0.11401908 0.028409999 1.6505195e-38
0.097719572 -0.11579098 0.021416347 1.1434793e-38
0.10081022 -0.11882581 0.0094378404 6.9179204e-39
0.10265123 -0.11882581 0.0094378404 9.2592057e-40
0.10493655 -0.11985306 0.0053832941 2.2170139e-39
0.10678466 -0.11985306 0.0053832941 2.5125281e-42
0.1101063 -0.12315418 -0.0076462813 1.8457049e-39
0.11231483 -0.12389888 -0.010585625 9.5894161e-39
0.1158246 -0.12744872 -0.024596889 1.2816263e-38
0.11772529 -0.12744872 -0.024596889 1.7610079e-38
0.11962598 -0.12744872 -0.024596889 1.7517883e-38
0.12152665 -0.12744872 -0.024596889 1.0511021e-38
0.12380233 -0.12821732 -0.027630527 3.0428187e-39
0.12570834 -0.12821732 -0.027630527 2.4896491e-39
0.12761433 -0.12821732 -0.027630527 2.765164e-39
0.12952034 -0.12821732 -0.027630527 2.7651668e-39
-0.12811051 -0.13547809 -0.048620541 9.4964988e-39
-0.1261677 -0.13547809 -0.048620541 9.6808929e-39
-0.12391404 -0.1347049 -0.045589764 2.1850716e-38
-0.12197655 -0.1347049 -0.045589764 2.350988e-38
-0.12003905 -0.1347049 -0.045589764 2.3418043e-38
-0.11771473 -0.13369073 -0.041614372 2.3509883e-38
-0.11578421 -0.13369073 -0.041614372 2.3509883e-38
-0.11385369 -0.13369073 -0.041614372 2.3509886e-38
-0.11192317 -0.13369073 -0.041614372 2.3509886e-38
-0.10963625 -0.13268389 -0.037667591 2.3509886e-38
-0.10743908 -0.13189565 -0.034577806 2.3509886e-38
-0.1055209 -0.13189565 -0.034577806 2.3509886e-38
-0.10360271 -0.13189565 -0.034577806 2.3509886e-38
-0.10168453 -0.13189565 -0.034577806 2.3509886e-38
-0.099439047 -0.13087155 -0.030563433 2.3509886e-38
-0.097527914 -0.13087155 -0.030563433 2.3509886e-38
-0.095616765 -0.13087155 -0.030563433 2.3509886e-38
-0.093705617 -0.13087155 -0.030563433 2.3509886e-38
-0.091575928 -0.13012333 -0.027630527 2.3509886e-38
-0.089669921 -0.13012333 -0.027630527 2.3509886e-38
-0.087763913 -0.13012333 -0.027630527 2.3509886e-38
-0.085647814 -0.12934943 -0.024596889 2.3509886e-38
-0.083747141 -0.12934943 -0.024596889 2.3509886e-38
-0.081587292 -0.1283439 -0.020655353 2.3509886e-38
-0.079693519 -0.1283439 -0.020655353 2.3509886e-38
-0.077799745 -0.1283439 -0.020655353 2.3509886e-38
-0.075724818 -0.12757985 -0.017660458 2.3509886e-38
-0.073836289 -0.12757985 -0.017660458 2.3509886e-38
-0.071947776 -0.12757985 -0.017660458 2.341805e-38
-0.070059247 -0.12757985 -0.017660458 2.3049991e-38
-0.067956544 -0.12655805 -0.013655145 2.3142544e-38
-0.066075042 -0.12655805 -0.013655145 2.3142544e-38
-0.064193539 -0.12655805 -0.013655145 2.3142544e-38
-0.06231204 -0.12655805 -0.013655145 2.2866671e-38
-0.060430545 -0.12655805 -0.013655145 2.2774832e-38
-0.058411803 -0.12577499 -0.010585625 2.2774113e-38
-0.056535687 -0.12577499 -0.010585625 2.2865229e-38
-0.054659571 -0.12577499 -0.010585625 2.3325494e-38
-0.052507985 -0.12399365 -0.0036029406 2.28638e-38
-0.050644111 -0.12399365 -0.0036029406 2.2862721e-38
-0.04878024 -0.12399365 -0.0036029406 2.2309184e-38
-0.046813369 -0.12322514 -0.00059052184 2.3138219e-38
-0.044954777 -0.12322514 -0.00059052184 2.2399934e-38
-0.043188617 -0.12399365 -0.0036029406 2.3413e-38
-0.041324746 -0.12399365 -0.0036029406 2.184531e-38
-0.039379004 -0.12322514 -0.00059052184 2.1751306e-38
-0.037520412 -0.12322514 -0.00059052184 2.0275452e-38
-0.03566182 -0.12322514 -0.00059052184 2.082862e-38
-0.033803228 -0.12322514 -0.00059052184 1.990774e-38
-0.031884234 -0.12246101 0.00240485 1.9908097e-38
-0.030030895 -0.12246101 0.00240485 2.0738218e-38
-0.028177556 -0.12246101 0.00240485 2.2582851e-38
-0.026279826 -0.12170117 0.0053832941 2.230699e-38
-0.024431709 -0.12170117 0.0053832941 2.3508063e-38
-0.022583593 -0.12170117 0.0053832941 2.3508788e-38
-0.020696376 -0.12066682 0.0094378404 2.3508797e-38
-0.018855367 -0.12066682 0.0094378404 2.35088e-38
-0.017014358 -0.12066682 0.0094378404 2.3508802e-38
-0.015160465 -0.11991702 0.012376945 2.3508442e-38
-0.013324608 -0.11991702 0.012376945 2.3508797e-38
-0.011488753 -0.11991702 0.012376945 2.3508439e-38
-0.0096528968 -0.11991702 0.012376945 2.3324055e-38
-0.0078170421 -0.11991702 0.012376945 2.2863803e-38
-0.0059944699 -0.11914389 0.015407484 2.3324421e-38
-0.0041639274 -0.11914389 0.015407484 2.3509168e-38
-0.0023333849 -0.11914389 0.015407484 2.3509168e-38
-0.00053189881 -0.11837523 0.018420618 2.3416974e-38
0.0012592189 -0.11761098 0.021416347 2.2955996e-38
0.0030792253 -0.11761098 0.021416347 2.3325131e-38
0.0048992326 -0.11761098 0.021416347 2.3509876e-38
0.0066537401 -0.11660783 0.025348585 2.3234004e-38
0.0084668538 -0.11660783 0.025348585 2.3509873e-38
0.010279966 -0.11660783 0.025348585 2.341804e-38
0.012093077 -0.11660783 0.025348585 2.3141816e-38
0.013906189 -0.11660783 0.025348585 2.341805e-38
0.015719302 -0.11660783 0.025348585 2.341805e-38
0.017532416 -0.11660783 0.025348585 2.3142185e-38
0.019256961 -0.11582683 0.028409999 2.3050708e-38
0.021064706 -0.11582683 0.028409999 2.2958873e-38
0.022777129 -0.11507715 0.031348627 2.2958873e-38
0.024579722 -0.11507715 0.031348627 2.2958873e-38
0.026273556 -0.11430521 0.034374516 2.2958873e-38
0.028070841 -0.11430521 0.034374516 2.2775202e-38
0.029749453 -0.11353777 0.037382763 2.2498619e-38
0.031541463 -0.11353777 0.037382763 2.2406423e-38
0.03320501 -0.11277486 0.040373366 2.2867037e-38
0.034991778 -0.11277486 0.040373366 2.2867037e-38
0.036778547 -0.11277486 0.040373366 2.2867037e-38
0.038565315 -0.11277486 0.040373366 2.2867037e-38
0.040352087 -0.11277486 0.040373366 2.2774843e-38
0.041985076 -0.11201639 0.043346446 2.2682649e-38
0.043766633 -0.11201639 0.043346446 2.2590454e-38
0.045548189 -0.11201639 0.043346446 2.2498619e-38
0.047329746 -0.11201639 0.043346446 2.2315665e-38
0.049111299 -0.11201639 0.043346446 2.1948323e-38
0.050892856 -0.11201639 0.043346446 2.1763935e-38
0.052674413 -0.11201639 0.043346446 2.1395876e-38
0.054260299 -0.11123641 0.046403926 2.1119293e-38
0.056036495 -0.11123641 0.046403926 2.065868e-38
0.057812691 -0.11123641 0.046403926 2.0382098e-38
0.059378408 -0.11046107 0.049443047 2.0014038e-38
0.061149269 -0.11046107 0.049443047 1.9921844e-38
0.062920138 -0.11046107 0.049443047 2.0014397e-38
0.064691007 -0.11046107 0.049443047 1.9000256e-38
0.066239126 -0.10971604 0.052363556 1.8355607e-38
0.068004869 -0.10971604 0.052363556 1.8171219e-38
0.069770619 -0.10971604 0.052363556 1.8079745e-38
0.071536362 -0.10971604 0.052363556 1.7434019e-38
0.073302113 -0.10971604 0.052363556 1.4299721e-38
0.075067855 -0.10971604 0.052363556 1.3562861e-38
0.077087067 -0.11046107 0.049443047 1.3931276e-38
0.078857936 -0.11046107 0.049443047 1.5589353e-38
0.081179298 -0.11201639 0.043346446 1.6233279e-38
0.082960866 -0.11201639 0.043346446 1.7246345e-38
0.085021295 -0.11277486 0.040373366 1.8627839e-38
0.087093838 -0.11353777 0.037382763 1.8995184e-38
0.089178585 -0.11430521 0.034374516 2.0929495e-38
0.091275625 -0.11507715 0.031348627 1.9822074e-38
0.093374483 -0.11582683 0.028409999 1.1432272e-38
0.095182233 -0.11582683 0.028409999 5.8090618e-39
0.097719572 -0.11761098 0.021416347 2.8595177e-39
0.10081022 -0.12066682 0.0094378404 3.7825502e-39
0.10265123 -0.12066682 0.0094378404 2.7694716e-39
0.10493655 -0.12170117 0.0053832941 4.4297062e-39
0.10678466 -0.12170117 0.0053832941 1.8478657e-39
0.10930837 -0.12322514 -0.00059052184 2.3070459e-39
0.11231483 -0.12577499 -0.010585625 9.7745318e-39
0.11536504 -0.1283439 -0.020655353 1.3001376e-38
0.11772529 -0.12934943 -0.024596889 1.7242375e-38
0.11962598 -0.12934943 -0.024596889 1.7056905e-38
0.12152665 -0.12934943 -0.024596889 1.0695409e-38
0.12342734 -0.12934943 -0.024596889 3.8729353e-39
0.1248339 -0.1283439 -0.020655353 2.3974521e-39
0.12672769 -0.1283439 -0.020655353 3.6871203e-39
0.12862144 -0.1283439 -0.020655353 3.5949275e-39
-0.13005331 -0.13742088 -0.048620541 9.3121075e-39
-0.12811051 -0.13742088 -0.048620541 8.5745425e-39
-0.12585153 -0.13664238 -0.045589764 9.2199147e-39
-0.12391404 -0.13664238 -0.045589764 2.1389738e-38
-0.12197655 -0.13664238 -0.045589764 2.3418043e-38
-0.12003905 -0.13664238 -0.045589764 2.3418043e-38
-0.11771473 -0.13562126 -0.041614372 2.3509883e-38
-0.11578421 -0.13562126 -0.041614372 2.3509883e-38
-0.11385369 -0.13562126 -0.041614372 2.3509886e-38
-0.11192317 -0.13562126 -0.041614372 2.3509886e-38
-0.10963625 -0.13460748 -0.037667591 2.3509886e-38
-0.10743908 -0.13381381 -0.034577806 2.3509886e-38
-0.1055209 -0.13381381 -0.034577806 2.3509886e-38
-0.10360271 -0.13381381 -0.034577806 2.3509886e-38
-0.10168453 -0.13381381 -0.034577806 2.3509886e-38
-0.099439047 -0.13278268 -0.030563433 2.3509886e-38
-0.097527914 -0.13278268 -0.030563433 2.3509886e-38
-0.095616765 -0.13278268 -0.030563433 2.3509886e-38
-0.093705617 -0.13278268 -0.030563433 2.3509886e-38
-0.091575928 -0.13202934 -0.027630527 2.3509886e-38
-0.089669921 -0.13202934 -0.027630527 2.3509886e-38
-0.087548502 -0.1312501 -0.024596889 2.3509886e-38
-0.085647814 -0.1312501 -0.024596889 2.3509886e-38
-0.083747141 -0.1312501 -0.024596889 2.3509886e-38
-0.081587292 -0.13023765 -0.020655353 2.3509886e-38
-0.079693519 -0.13023765 -0.020655353 2.3509886e-38
-0.077799745 -0.13023765 -0.020655353 2.3509886e-38
-0.075724818 -0.1294684 -0.017660458 2.3509886e-38
-0.073836289 -0.1294684 -0.017660458 2.3509886e-38
-0.071947776 -0.1294684 -0.017660458 2.3509886e-38
-0.06983804 -0.12843956 -0.013655145 2.3509527e-38
-0.067956544 -0.12843956 -0.013655145 2.3509527e-38
-0.066075042 -0.12843956 -0.013655145 2.3141106e-38
-0.064193539 -0.12843956 -0.013655145 2.31411e-38
-0.06231204 -0.12843956 -0.013655145 2.3418043e-38
-0.060430545 -0.12843956 -0.013655145 2.3418043e-38
-0.058411803 -0.12765111 -0.010585625 2.3418043e-38
-0.056535687 -0.12765111 -0.010585625 2.2773034e-38
-0.054538462 -0.1268961 -0.0076462813 1.9361082e-38
-0.052507985 -0.12585752 -0.0036029406 1.9452925e-38
-0.050644111 -0.12585752 -0.0036029406 1.9728794e-38
-0.048671961 -0.12508373 -0.00059052184 1.935929e-38
-0.046813369 -0.12508373 -0.00059052184 1.7330623e-38
-0.044954777 -0.12508373 -0.00059052184 1.4472556e-38
-0.043188617 -0.12585752 -0.0036029406 1.4747698e-38
-0.041237596 -0.12508373 -0.00059052184 1.2072216e-38
-0.039379004 -0.12508373 -0.00059052184 1.3266423e-38
-0.037520412 -0.12508373 -0.00059052184 1.1511818e-38
-0.03566182 -0.12508373 -0.00059052184 1.2157541e-38
-0.033737577 -0.12431435 0.00240485 1.2803985e-38
-0.031884234 -0.12431435 0.00240485 1.4187275e-38
-0.030030895 -0.12431435 0.00240485 1.4556418e-38
-0.028127946 -0.1235493 0.0053832941 1.6215942e-38
-0.026279826 -0.1235493 0.0053832941 1.5386906e-38
-0.024431709 -0.1235493 0.0053832941 1.6861686e-38
-0.022583593 -0.1235493 0.0053832941 1.7415227e-38
-0.020696376 -0.12250783 0.0094378404 2.02733e-38
-0.018855367 -0.12250783 0.0094378404 2.3131367e-38
-0.017014358 -0.12250783 0.0094378404 2.3503029e-38
-0.015160465 -0.12175287 0.012376945 2.350663e-38
-0.013324608 -0.12175287 0.012376945 2.3507708e-38
-0.011488753 -0.12175287 0.012376945 2.3505906e-38
-0.0096528968 -0.12175287 0.012376945 2.3508424e-38
-0.0078170421 -0.12175287 0.012376945 2.3508425e-38
-0.0059944699 -0.12097444 0.015407484 2.3508787e-38
-0.0041639274 -0.12097444 0.015407484 2.350879e-38
-0.0023333849 -0.12097444 0.015407484 2.3508072e-38
-0.00053189881 -0.12020047 0.018420618 2.3507352e-38
0.0012933603 -0.12020047 0.018420618 2.350915e-38
0.0031186193 -0.12020047 0.018420618 2.3509869e-38
0.0048992326 -0.11943097 0.021416347 2.3509504e-38
