# .PCD v0.7 - Point Cloud Data file format
VERSION 0.7
FIELDS x y z rgb
SIZE 4 4 4 4
TYPE F F F F
COUNT 1 1 1 1
WIDTH 940
HEIGHT 1
VIEWPOINT 0 0 0 1 0 0 0
POINTS 940
DATA ascii
-0.094878614 -0.11824657 -0.070989102 2.213056e-38
-0.092660919 -0.11729507 -0.067042321 2.0657604e-38
-0.090517908 -0.11655019 -0.063952535 1.964418e-38
-0.088599727 -0.11655019 -0.063952535 2.0106591e-38
-0.086410552 -0.11558239 -0.059938166 1.9093531e-38
-0.084306568 -0.1148753 -0.05700526 1.771205e-38
-0.082400575 -0.1148753 -0.05700526 1.633056e-38
-0.08030574 -0.11414395 -0.053971622 1.5501164e-38
-0.07798548 -0.11247168 -0.047035191 1.5040551e-38
-0.076096952 -0.11247168 -0.047035191 1.4856883e-38
-0.073980197 -0.11150609 -0.043029878 1.4856883e-38
-0.071929172 -0.11076607 -0.039960358 1.5408615e-38
-0.069895864 -0.11005743 -0.037021015 1.5776681e-38
-0.068024904 -0.11005743 -0.037021015 1.5869244e-38
-0.065951899 -0.10908265 -0.032977674 1.5500826e-38
-0.064088024 -0.10908265 -0.032977674 1.4855825e-38
-0.062084183 -0.1083564 -0.029965255 1.4487407e-38
-0.060225591 -0.1083564 -0.029965255 1.4488483e-38
-0.058366999 -0.1083564 -0.029965255 1.4673948e-38
-0.056384981 -0.10763429 -0.026969884 1.4306606e-38
-0.054414146 -0.10691623 -0.023991439 1.3939264e-38
-0.052413184 -0.10593875 -0.019936893 1.3571201e-38
-0.050466534 -0.10523017 -0.016997788 1.3203138e-38
-0.048630677 -0.10523017 -0.016997788 1.2835078e-38
-0.046696521 -0.10449956 -0.01396725 1.2558493e-38
-0.044865981 -0.10449956 -0.01396725 1.2374465e-38
-0.04303544 -0.10449956 -0.01396725 1.2374102e-38
-0.04112301 -0.10377313 -0.010954116 1.4122933e-38
-0.039297752 -0.10377313 -0.010954116 1.3477201e-38
-0.037401579 -0.10305093 -0.0079583861 1.2554166e-38
-0.035581574 -0.10305093 -0.0079583861 1.1724402e-38
-0.033682279 -0.10210292 -0.0040261485 1.1539292e-38
-0.031758711 -0.10065642 0.0019738935 1.2275417e-38
-0.029956117 -0.10065642 0.0019738935 1.3104814e-38
-0.028153524 -0.10065642 0.0019738935 1.393313e-38
-0.026311141 -0.099926919 0.0049997829 1.5500092e-38
-0.024513856 -0.099926919 0.0049997829 1.6328765e-38
-0.022716567 -0.099926919 0.0049997829 1.7249276e-38
-0.017271981 -0.09702684 0.017029192 2.1027099e-38
-0.015487791 -0.09629415 0.020068314 2.1763935e-38
-0.013716924 -0.09629415 0.020068314 2.1764652e-38
-0.011943393 -0.09702684 0.017029192 2.1213998e-38
-0.010167199 -0.09702684 0.017029192 2.1030327e-38
-0.0084043248 -0.09629415 0.020068314 2.1305834e-38
-0.0047910316 -0.098480701 0.010998633 2.1856847e-38
-0.0030042632 -0.098480701 0.010998633 2.1856847e-38
-0.0012174947 -0.098480701 0.010998633 2.1764294e-38
0.00056927465 -0.098480701 0.010998633 2.2131636e-38
0.0023560431 -0.098480701 0.010998633 2.2867037e-38
0.0040932903 -0.097763941 0.013971712 2.3142544e-38
0.0058185579 -0.09702684 0.017029192 2.3418047e-38
0.007594754 -0.09702684 0.017029192 2.3509879e-38
0.0093709482 -0.09702684 0.017029192 2.3509873e-38
0.011219514 -0.097763941 0.013971712 2.3509511e-38
0.013076656 -0.098480701 0.010998633 2.3509869e-38
0.014863425 -0.098480701 0.010998633 2.3509154e-38
0.016650192 -0.098480701 0.010998633 2.350988e-38
0.018436965 -0.098480701 0.010998633 2.3509883e-38
0.020223733 -0.098480701 0.010998633 2.350952e-38
0.022010501 -0.098480701 0.010998633 2.350988e-38
0.023904763 -0.099201679 0.0080080293 2.3509886e-38
0.025696773 -0.099201679 0.0080080293 2.3142544e-38
0.027488787 -0.099201679 0.0080080293 2.2591531e-38
0.027345538 -0.087878346 0.054976609 2.1948682e-38
0.029055197 -0.087878346 0.054976609 1.78968e-38
0.030764859 -0.087878346 0.054976609 1.1077952e-38
0.032474518 -0.087878346 0.054976609 9.5135288e-39
0.061988901 -0.094865978 0.0259923 9.2326847e-39
0.06374938 -0.094865978 0.0259923 9.0468544e-39
0.065509863 -0.094865978 0.0259923 8.216372e-39
0.067270339 -0.094865978 0.0259923 7.5695607e-39
0.069275692 -0.09559007 0.022988822 6.0937089e-39
0.071284667 -0.09629415 0.020068314 4.1568692e-39
0.073055536 -0.09629415 0.020068314 2.6799217e-39
0.074826404 -0.09629415 0.020068314 2.4955164e-39
0.076597273 -0.09629415 0.020068314 1.8505015e-39
0.078642562 -0.09702684 0.017029192 1.4813504e-39
0.080418751 -0.09702684 0.017029192 1.5738978e-39
0.082194954 -0.09702684 0.017029192 2.1274233e-39
0.083971143 -0.09702684 0.017029192 2.3110887e-39
0.085747346 -0.09702684 0.017029192 1.7589911e-39
0.087826416 -0.097763941 0.013971712 2.4965547e-39
0.089907721 -0.098480701 0.010998633 2.1284925e-39
0.092309788 -0.099926919 0.0049997829 2.0366598e-39
0.094422743 -0.10065642 0.0019738935 2.0373857e-39
0.096225336 -0.10065642 0.0019738935 1.7622449e-39
0.097701639 -0.099926919 0.0049997829 1.3938281e-39
0.099498928 -0.099926919 0.0049997829 1.3019968e-39
0.10163312 -0.10065642 0.0019738935 2.0366808e-39
0.1034357 -0.10065642 0.0019738935 1.6632054e-39
0.10489079 -0.099926919 0.0049997829 1.4762735e-39
0.10668808 -0.099926919 0.0049997829 9.4390063e-41
0.10955359 -0.10210292 -0.0040261485 5.5570593e-40
0.11136669 -0.10210292 -0.0040261485 7.393601e-40
0.11365898 -0.10305093 -0.0079583861 7.3863563e-40
0.11499292 -0.10210292 -0.0040261485 1.751717e-39
-0.12279244 -0.12720706 -0.099938363 1.1799212e-38
-0.12081116 -0.12720706 -0.099938363 1.5672156e-38
-0.11846352 -0.1262586 -0.096032709 2.1019162e-38
-0.11621246 -0.12552883 -0.093027443 2.3509168e-38
-0.11388372 -0.1245618 -0.089045256 2.3508809e-38
-0.11192153 -0.1245618 -0.089045256 2.3417333e-38
-0.10960551 -0.12357174 -0.084968179 2.3509886e-38
-0.10765047 -0.12357174 -0.084968179 2.323365e-38
-0.10545003 -0.12285618 -0.082021564 2.3509879e-38
-0.10350017 -0.12285618 -0.082021564 2.3509879e-38
-0.1012291 -0.12187846 -0.07799527 2.350988e-38
-0.099049836 -0.12114246 -0.074964494 2.3509883e-38
-0.097112343 -0.12114246 -0.074964494 2.341805e-38
-0.094878614 -0.12017711 -0.070989102 2.3142544e-38
-0.092660919 -0.11921866 -0.067042321 2.2958873e-38
-0.090737313 -0.11921866 -0.067042321 2.2775202e-38
-0.088599727 -0.11846836 -0.063952535 2.1763218e-38
-0.086410552 -0.11749353 -0.059938166 2.121077e-38
-0.084306568 -0.11678131 -0.05700526 2.0381739e-38
-0.082400575 -0.11678131 -0.05700526 1.946087e-38
-0.08030574 -0.11604463 -0.053971622 1.8908061e-38
-0.07798548 -0.1143602 -0.047035191 1.8356329e-38
-0.076096952 -0.1143602 -0.047035191 1.8264136e-38
-0.073980197 -0.11338757 -0.043029878 1.8447806e-38
-0.071929172 -0.11264218 -0.039960358 1.909029e-38
-0.069895864 -0.11192839 -0.037021015 1.9182125e-38
-0.068024904 -0.11192839 -0.037021015 1.8997742e-38
-0.065951899 -0.11094652 -0.032977674 1.8629326e-38
-0.064088024 -0.11094652 -0.032977674 1.7984683e-38
-0.062084183 -0.11021499 -0.029965255 1.7432954e-38
-0.060225591 -0.11021499 -0.029965255 1.7248925e-38
-0.058366999 -0.11021499 -0.029965255 1.6974136e-38
-0.056384981 -0.10948761 -0.026969884 1.6514595e-38
-0.054414146 -0.10876434 -0.023991439 1.6055055e-38
-0.052413184 -0.10777976 -0.019936893 1.531893e-38
-0.050466534 -0.10706602 -0.016997788 1.4674284e-38
-0.048527066 -0.10633011 -0.01396725 1.4305867e-38
-0.046696521 -0.10633011 -0.01396725 1.412184e-38
-0.044865981 -0.10633011 -0.01396725 1.3938175e-38
-0.042948268 -0.10559841 -0.010954116 1.375523e-38
-0.04112301 -0.10559841 -0.010954116 1.3112027e-38
-0.039221589 -0.10487093 -0.0079583861 1.2467385e-38
-0.037401579 -0.10487093 -0.0079583861 1.1637625e-38
-0.035495393 -0.10391603 -0.0040261485 1.0992256e-38
-0.033682279 -0.10391603 -0.0040261485 1.0898981e-38
-0.031758711 -0.10245901 0.0019738935 1.1083012e-38
-0.029905714 -0.10172421 0.0049997829 1.1635107e-38
-0.028108429 -0.10172421 0.0049997829 1.2003527e-38
-0.026271582 -0.10099369 0.0080080293 1.1634379e-38
-0.024445489 -0.10026747 0.010998633 1.2186109e-38
-0.022658721 -0.10026747 0.010998633 1.2737838e-38
-0.020848494 -0.099545494 0.013971712 1.3658351e-38
-0.019066937 -0.099545494 0.013971712 1.4948724e-38
-0.017271981 -0.098803028 0.017029192 1.6791904e-38
-0.015487791 -0.098065019 0.020068314 1.799007e-38
-0.013716924 -0.098065019 0.020068314 1.84514e-38
-0.011946059 -0.098065019 0.020068314 1.9836107e-38
-0.010175192 -0.098065019 0.020068314 2.0020137e-38
-0.0084043248 -0.098065019 0.020068314 2.057115e-38
-0.0066148089 -0.098803028 0.017029192 2.0938492e-38
-0.0048144897 -0.099545494 0.013971712 2.1213998e-38
-0.0030329339 -0.099545494 0.013971712 2.1489505e-38
-0.0012513781 -0.099545494 0.013971712 2.1856847e-38
0.00053017866 -0.099545494 0.013971712 2.2132353e-38
0.0023117345 -0.099545494 0.013971712 2.2131994e-38
0.0040423637 -0.098803028 0.017029192 2.2407501e-38
0.0057088407 -0.097355813 0.022988822 2.2682649e-38
0.0074745873 -0.097355813 0.022988822 2.3050349e-38
0.0092403339 -0.097355813 0.022988822 2.3325494e-38
0.011219514 -0.099545494 0.013971712 2.3417324e-38
0.013076656 -0.10026747 0.010998633 2.3509518e-38
0.0149447 -0.10099369 0.0080080293 2.3509879e-38
0.016650192 -0.10026747 0.010998633 2.3325483e-38
0.018436965 -0.10026747 0.010998633 2.3509873e-38
0.020223733 -0.10026747 0.010998633 2.350987e-38
0.02211275 -0.10099369 0.0080080293 2.3509869e-38
0.02401289 -0.10172421 0.0049997829 2.3142168e-38
0.025810175 -0.10172421 0.0049997829 2.2683356e-38
0.02760746 -0.10172421 0.0049997829 2.2040518e-38
0.027345538 -0.089588001 0.054976609 2.1122163e-38
0.029055197 -0.089588001 0.054976609 1.8360282e-38
0.030764859 -0.089588001 0.054976609 1.2371557e-38
0.032474518 -0.089588001 0.054976609 1.0899689e-38
0.04687231 -0.092480466 0.043065455 9.7937394e-39
0.048602857 -0.092480466 0.043065455 9.8859379e-39
0.050333399 -0.092480466 0.043065455 1.016217e-38
0.05413479 -0.093704656 0.038024273 1.0990483e-38
0.055874173 -0.093704656 0.038024273 1.1080884e-38
0.057828706 -0.094440416 0.03499439 1.172445e-38
0.060011175 -0.095901415 0.028978016 1.0247907e-38
0.061988901 -0.096626461 0.0259923 9.5089003e-39
0.06374938 -0.096626461 0.0259923 9.3230713e-39
0.065509863 -0.096626461 0.0259923 8.5840643e-39
0.067032151 -0.095901415 0.028978016 7.2918836e-39
0.068787396 -0.095901415 0.028978016 5.3554124e-39
0.070791304 -0.096626461 0.0259923 3.3263841e-39
0.072551787 -0.096626461 0.0259923 2.1278353e-39
0.07431227 -0.096626461 0.0259923 1.9437958e-39
0.076338679 -0.097355813 0.022988822 1.5753678e-39
0.078368142 -0.098065019 0.020068314 1.5753551e-39
0.080139011 -0.098065019 0.020068314 2.1288764e-39
0.081909865 -0.098065019 0.020068314 2.9593434e-39
0.083680734 -0.098065019 0.020068314 3.6039855e-39
0.085747346 -0.098803028 0.017029192 3.4210278e-39
0.087523535 -0.098803028 0.017029192 1.3005255e-39
0.089607984 -0.099545494 0.013971712 1.3008884e-39
0.09200123 -0.10099369 0.0080080293 1.2101333e-39
0.094422743 -0.10245901 0.0019738935 1.3026975e-39
0.095904365 -0.10172421 0.0049997829 9.3500239e-40
0.097701639 -0.10172421 0.0049997829 4.7475151e-40
0.099498928 -0.10172421 0.0049997829 4.7512005e-40
0.10129622 -0.10172421 0.0049997829 1.3941897e-39
0.1034357 -0.10245901 0.0019738935 1.9415873e-39
0.10489079 -0.10172421 0.0049997829 2.2152749e-39
0.10668808 -0.10172421 0.0049997829 5.5608708e-40
0.10884348 -0.10245901 0.0019738935 7.4081605e-40
0.110999 -0.10317262 -0.0009647347 1.3850924e-39
0.11365898 -0.10487093 -0.0079583861 1.0148652e-39
0.11499292 -0.10391603 -0.0040261485 1.5673285e-39
0.11680603 -0.10391603 -0.0040261485 1.8431993e-39
-0.12279244 -0.12918831 -0.099938363 1.1062726e-38
-0.12081116 -0.12918831 -0.099938363 1.5118626e-38
-0.11846352 -0.12823303 -0.096032709 2.064966e-38
-0.11621246 -0.12749799 -0.093027443 2.3508451e-38
-0.11424328 -0.12749799 -0.093027443 2.3508809e-38
-0.11192153 -0.12652399 -0.089045256 2.3508451e-38
-0.10995935 -0.12652399 -0.089045256 2.350988e-38
-0.10765047 -0.12552677 -0.084968179 2.3509513e-38
-0.10569544 -0.12552677 -0.084968179 2.3509873e-38
-0.10350017 -0.12480606 -0.082021564 2.3509873e-38
-0.1012291 -0.12382124 -0.07799527 2.3509156e-38
-0.099049836 -0.12307997 -0.074964494 2.3508798e-38
-0.097112343 -0.12307997 -0.074964494 2.3417324e-38
-0.094878614 -0.12210761 -0.070989102 2.3417687e-38
-0.092660919 -0.12114228 -0.067042321 2.3326213e-38
-0.090737313 -0.12114228 -0.067042321 2.2958514e-38
-0.088599727 -0.12038656 -0.063952535 2.2958873e-38
-0.086410552 -0.11940466 -0.059938166 2.2867037e-38
-0.084306568 -0.11868732 -0.05700526 2.2775202e-38
-0.082400575 -0.11868732 -0.05700526 2.2591531e-38
-0.08030574 -0.11794533 -0.053971622 2.2499695e-38
-0.07798548 -0.11624874 -0.047035191 2.2316024e-38
-0.075861692 -0.11526908 -0.043029878 2.2316024e-38
-0.073980197 -0.11526908 -0.043029878 2.2591531e-38
-0.071929172 -0.1145183 -0.039960358 2.3142544e-38
-0.069895864 -0.11379938 -0.037021015 2.3417691e-38
-0.068024904 -0.11379938 -0.037021015 2.323402e-38
-0.065951899 -0.11281042 -0.032977674 2.3142185e-38
-0.064088024 -0.11281042 -0.032977674 2.2867037e-38
-0.062084183 -0.11207359 -0.029965255 2.2775202e-38
-0.060225591 -0.11207359 -0.029965255 2.2499695e-38
-0.058366999 -0.11207359 -0.029965255 2.2132353e-38
-0.056384981 -0.11134095 -0.026969884 2.1673176e-38
-0.054254193 -0.10962076 -0.019936893 2.1028892e-38
-0.052413184 -0.10962076 -0.019936893 1.9831802e-38
-0.050466534 -0.10890187 -0.016997788 1.845032e-38
-0.048527066 -0.10816063 -0.01396725 1.7343982e-38
-0.046696521 -0.10816063 -0.01396725 1.6330557e-38
-0.044865981 -0.10816063 -0.01396725 1.5777751e-38
-0.042948268 -0.10742365 -0.010954116 1.5042715e-38
-0.04112301 -0.10742365 -0.010954116 1.357192e-38
-0.039221589 -0.10669093 -0.0079583861 1.2560654e-38
-0.037401579 -0.10669093 -0.0079583861 1.209932e-38
-0.035495393 -0.10572915 -0.0040261485 1.1914931e-38
-0.033682279 -0.10572915 -0.0040261485 1.1914933e-38
-0.031758711 -0.10426159 0.0019738935 1.1730185e-38
-0.029905714 -0.10352151 0.0049997829 1.126921e-38
-0.028108429 -0.10352151 0.0049997829 1.0899709e-38
-0.026271582 -0.10278571 0.0080080293 1.1360687e-38
-0.024445489 -0.10205424 0.010998633 1.1267768e-38
-0.022658721 -0.10205424 0.010998633 1.1174131e-38
-0.020848494 -0.10132705 0.013971712 1.0989019e-38
-0.019066937 -0.10132705 0.013971712 1.1357439e-38
-0.017271981 -0.10057923 0.017029192 1.2094278e-38
-0.015487791 -0.099835888 0.020068314 1.2555254e-38
-0.013714365 -0.099121556 0.022988822 1.2831832e-38
-0.011951252 -0.098386943 0.0259923 1.2463401e-38
-0.010190771 -0.098386943 0.0259923 1.3015847e-38
-0.0084302919 -0.098386943 0.0259923 1.3845245e-38
-0.0066148089 -0.10057923 0.017029192 1.476648e-38
-0.0048386129 -0.10057923 0.017029192 1.5963579e-38
-0.0030624177 -0.10057923 0.017029192 1.7529816e-38
-0.0012513781 -0.10132705 0.013971712 1.946446e-38
0.00053017866 -0.10132705 0.013971712 2.0938133e-38
0.0023117345 -0.10132705 0.013971712 2.158134e-38
0.0039917408 -0.099835888 0.020068314 2.1948682e-38
0.0056535481 -0.098386943 0.0259923 2.2224189e-38
0.0074140271 -0.098386943 0.0259923 2.2499695e-38
0.0091745062 -0.098386943 0.0259923 2.2775202e-38
0.011289886 -0.10205424 0.010998633 2.2683007e-38
0.013076656 -0.10205424 0.010998633 2.2682649e-38
0.0149447 -0.10278571 0.0080080293 2.3142544e-38
0.016736712 -0.10278571 0.0080080293 2.2773037e-38
0.018528726 -0.10278571 0.0080080293 2.3326203e-38
0.020320736 -0.10278571 0.0080080293 2.3509873e-38
0.02033399 -0.090060756 0.060033705 2.3326198e-38
0.022034787 -0.090060756 0.060033705 2.3234367e-38
0.023926213 -0.091297671 0.054976609 2.286703e-38
0.025635876 -0.091297671 0.054976609 2.2224189e-38
0.027345538 -0.091297671 0.054976609 2.1397669e-38
0.029180933 -0.092013597 0.052049544 1.8730852e-38
0.030895729 -0.092013597 0.052049544 1.3017994e-38
0.032610521 -0.092013597 0.052049544 1.0901114e-38
0.03418418 -0.091297671 0.054976609 1.0995486e-38
0.035641138 -0.090060756 0.060033705 1.0996941e-38
0.03734193 -0.090060756 0.060033705 1.1919242e-38
0.044614069 -0.092013597 0.052049544 1.3114897e-38
0.046328861 -0.092013597 0.052049544 1.3207091e-38
0.048602857 -0.094211012 0.043065455 1.3206373e-38
0.050333399 -0.094211012 0.043065455 1.2745044e-38
0.052063946 -0.094211012 0.043065455 1.2098249e-38
0.053931501 -0.094707444 0.041035797 1.1175231e-38
0.055665601 -0.094707444 0.041035797 1.0528795e-38
0.057399709 -0.094707444 0.041035797 9.8816331e-39
0.059352938 -0.095444039 0.038024273 8.0362827e-39
0.061537903 -0.096906602 0.032044616 7.0206889e-39
0.063521661 -0.097656667 0.028978016 6.7426615e-39
0.065276906 -0.097656667 0.028978016 5.7270704e-39
0.067032151 -0.097656667 0.028978016 4.895865e-39
0.068787396 -0.097656667 0.028978016 4.3419723e-39
0.070791304 -0.098386943 0.0259923 3.6969589e-39
0.072551787 -0.098386943 0.0259923 2.0378005e-39
0.07431227 -0.098386943 0.0259923 1.6700941e-39
0.076072738 -0.098386943 0.0259923 1.4849756e-39
0.078104421 -0.099121556 0.022988822 1.3927688e-39
0.079870179 -0.099121556 0.022988822 1.4849532e-39
0.081909865 -0.099835888 0.020068314 1.5774977e-39
0.083680734 -0.099835888 0.020068314 1.7615176e-39
0.085747346 -0.10057923 0.017029192 1.5774767e-39
0.087523535 -0.10057923 0.017029192 1.7618666e-39
0.089607984 -0.10132705 0.013971712 2.2239237e-39
0.09200123 -0.10278571 0.0080080293 3.0540459e-39
0.094107077 -0.10352151 0.0049997829 3.2398819e-39
0.095904365 -0.10352151 0.0049997829 2.7799912e-39
0.097701639 -0.10352151 0.0049997829 2.3193788e-39
0.099498928 -0.10352151 0.0049997829 2.1353518e-39
0.10129622 -0.10352151 0.0049997829 2.6860033e-39
0.1034357 -0.10426159 0.0019738935 3.5096291e-39
0.10489079 -0.10352151 0.0049997829 3.3223385e-39
0.10668808 -0.10352151 0.0049997829 6.4935891e-40
0.10884348 -0.10426159 0.0019738935 9.2520731e-40
0.110999 -0.10498036 -0.0009647347 2.3070515e-39
0.11365898 -0.10669093 -0.0079583861 1.6602374e-39
0.11499292 -0.10572915 -0.0040261485 1.7513638e-39
0.11680603 -0.10572915 -0.0040261485 2.3960158e-39
-0.12279244 -0.1311696 -0.099938363 1.0694305e-38
-0.12081116 -0.1311696 -0.099938363 1.4658367e-38
-0.11846352 -0.13020746 -0.096032709 2.0373792e-38
-0.11621246 -0.12946714 -0.093027443 2.3509168e-38
-0.11424328 -0.12946714 -0.093027443 2.3509168e-38
-0.11192153 -0.12848614 -0.089045256 2.3416974e-38
-0.10995935 -0.12848614 -0.089045256 2.3509879e-38
-0.10765047 -0.1274818 -0.084968179 2.3509873e-38
-0.10569544 -0.1274818 -0.084968179 2.3509876e-38
-0.10350017 -0.12675591 -0.082021564 2.3509518e-38
-0.1012291 -0.12576406 -0.07799527 2.3509158e-38
-0.099049836 -0.12501745 -0.074964494 2.3508801e-38
-0.097112343 -0.12501745 -0.074964494 2.3509161e-38
-0.094878614 -0.12403814 -0.070989102 2.350988e-38
-0.092948094 -0.12403814 -0.070989102 2.3509883e-38
-0.090737313 -0.12306587 -0.067042321 2.3509886e-38
-0.088599727 -0.12230472 -0.063952535 2.304927e-38
-0.086410552 -0.12131582 -0.059938166 2.2958155e-38
-0.084306568 -0.12059332 -0.05700526 2.3049991e-38
-0.082400575 -0.12059332 -0.05700526 2.3142544e-38
-0.08030574 -0.119846 -0.053971622 2.3142544e-38
-0.07798548 -0.11813726 -0.047035191 2.2958873e-38
-0.075861692 -0.11715056 -0.043029878 2.2958873e-38
-0.073980197 -0.11715056 -0.043029878 2.3142544e-38
-0.071929172 -0.11639442 -0.039960358 2.3509527e-38
-0.069895864 -0.11567034 -0.037021015 2.3509168e-38
-0.068024904 -0.11567034 -0.037021015 2.3508451e-38
-0.065951899 -0.11467429 -0.032977674 2.3509168e-38
-0.063942775 -0.11393218 -0.029965255 2.3509527e-38
-0.062084183 -0.11393218 -0.029965255 2.3417691e-38
-0.060225591 -0.11393218 -0.029965255 2.3142185e-38
-0.058366999 -0.11393218 -0.029965255 2.2682649e-38
-0.056384981 -0.1131943 -0.026969884 2.2867037e-38
-0.054254193 -0.11146177 -0.019936893 2.2407501e-38
-0.052413184 -0.11146177 -0.019936893 2.1486991e-38
-0.050466534 -0.11073773 -0.016997788 2.0473563e-38
-0.048527066 -0.10999118 -0.01396725 1.945978e-38
-0.046696521 -0.10999118 -0.01396725 1.863003e-38
-0.044865981 -0.10999118 -0.01396725 1.8076505e-38
-0.042948268 -0.10924892 -0.010954116 1.7157797e-38
-0.04112301 -0.10924892 -0.010954116 1.7163551e-38
-0.039221589 -0.10851096 -0.0079583861 1.5138506e-38
-0.037401579 -0.10851096 -0.0079583861 1.3571187e-38
-0.035495393 -0.10754226 -0.0040261485 1.2741791e-38
-0.033682279 -0.10754226 -0.0040261485 1.2649964e-38
-0.031758711 -0.10606419 0.0019738935 1.2558493e-38
-0.029905714 -0.1053188 0.0049997829 1.1913133e-38
-0.028108429 -0.1053188 0.0049997829 1.1084097e-38
-0.026271582 -0.10457774 0.0080080293 1.1729469e-38
-0.024445489 -0.10384102 0.010998633 1.136069e-38
-0.022658721 -0.10384102 0.010998633 1.1084103e-38
-0.020848494 -0.1031086 0.013971712 1.1083024e-38
-0.019066937 -0.1031086 0.013971712 1.1083024e-38
-0.017271981 -0.10235542 0.017029192 1.1083021e-38
-0.015487791 -0.10160676 0.020068314 1.1083021e-38
-0.013714365 -0.1008873 0.022988822 1.1175208e-38
-0.011951252 -0.10014741 0.0259923 1.1542543e-38
-0.010198624 -0.099411905 0.028978016 1.1911317e-38
-0.0084433788 -0.099411905 0.028978016 1.22801e-38
-0.0066881338 -0.099411905 0.028978016 1.26478e-38
-0.0048856344 -0.1008873 0.022988822 1.3292085e-38
-0.0031198887 -0.1008873 0.022988822 1.4397711e-38
-0.0013883719 -0.10014741 0.0259923 1.6055785e-38
0.00037210714 -0.10014741 0.0259923 1.7069563e-38
0.0021325871 -0.10014741 0.0259923 1.9372983e-38
0.0038930671 -0.10014741 0.0259923 1.9557013e-38
0.0055985795 -0.099411905 0.028978016 2.0293132e-38
0.0071714232 -0.097183421 0.038024273 2.1029968e-38
0.0089108059 -0.097183421 0.038024273 2.1397669e-38
0.010650191 -0.097183421 0.038024273 2.1489146e-38
0.013152686 -0.10457774 0.0080080293 2.1856847e-38
0.0149447 -0.10457774 0.0080080293 2.2224189e-38
0.015318121 -0.092498213 0.05704328 2.2775202e-38
0.017024159 -0.092498213 0.05704328 2.2958873e-38
0.018730197 -0.092498213 0.05704328 2.3142544e-38
0.02033399 -0.091761544 0.060033705 2.2498971e-38
0.022034787 -0.091761544 0.060033705 2.2683361e-38
0.023735579 -0.091761544 0.060033705 2.2591531e-38
0.025554344 -0.092498213 0.05704328 2.2132353e-38
0.027260382 -0.092498213 0.05704328 2.0754821e-38
0.029055197 -0.093007326 0.054976609 1.7623787e-38
0.030764859 -0.093007326 0.054976609 1.3477881e-38
0.032474518 -0.093007326 0.054976609 1.219004e-38
0.034084532 -0.092498213 0.05704328 1.2100378e-38
0.035641138 -0.091761544 0.060033705 1.2285503e-38
0.03734193 -0.091761544 0.060033705 1.3207808e-38
0.039042726 -0.091761544 0.060033705 1.3023061e-38
0.040908679 -0.092498213 0.05704328 1.2839749e-38
0.042732485 -0.093007326 0.054976609 1.283939e-38
0.044614069 -0.093728393 0.052049544 1.2655002e-38
0.046328861 -0.093728393 0.052049544 1.2562807e-38
0.048417307 -0.095207214 0.046046462 1.274612e-38
0.050333399 -0.095941558 0.043065455 1.2376984e-38
0.052063946 -0.095941558 0.043065455 1.1454324e-38
0.053794492 -0.095941558 0.043065455 1.025472e-38
0.055525031 -0.095941558 0.043065455 9.4242436e-39
0.057399709 -0.096441552 0.041035797 9.8834267e-39
0.059352938 -0.097183421 0.038024273 7.854404e-39
0.061092321 -0.097183421 0.038024273 6.7466145e-39
0.063287772 -0.098656476 0.032044616 6.4685857e-39
0.065276906 -0.099411905 0.028978016 5.4529946e-39
0.067032151 -0.099411905 0.028978016 4.4384784e-39
0.068787396 -0.099411905 0.028978016 3.8845857e-39
0.070791304 -0.10014741 0.0259923 3.2392163e-39
0.072551787 -0.10014741 0.0259923 2.1339491e-39
0.07431227 -0.10014741 0.0259923 1.7651666e-39
0.076072738 -0.10014741 0.0259923 1.3960198e-39
0.078104421 -0.1008873 0.022988822 1.487128e-39
0.079870179 -0.1008873 0.022988822 1.5789523e-39
0.081909865 -0.10160676 0.020068314 1.8544518e-39
0.083680734 -0.10160676 0.020068314 2.1310274e-39
0.085747346 -0.10235542 0.017029192 2.4068871e-39
0.087523535 -0.10235542 0.017029192 1.1161454e-39
0.089607984 -0.1031086 0.013971712 2.0384577e-39
0.091694489 -0.10384102 0.010998633 2.9614902e-39
0.094107077 -0.1053188 0.0049997829 3.5150269e-39
0.095904365 -0.1053188 0.0049997829 3.6075854e-39
0.097701639 -0.1053188 0.0049997829 3.5164688e-39
0.099498928 -0.1053188 0.0049997829 3.6090274e-39
0.10129622 -0.1053188 0.0049997829 4.0682007e-39
0.1034357 -0.10606419 0.0019738935 6.460241e-39
0.10489079 -0.1053188 0.0049997829 4.6145109e-39
0.10668808 -0.1053188 0.0049997829 8.3374736e-40
0.10884348 -0.10606419 0.0019738935 1.0181218e-39
0.11064607 -0.10606419 0.0019738935 2.8613043e-39
0.11402403 -0.10924892 -0.010954116 2.3985255e-39
0.11547898 -0.10851096 -0.0079583861 2.304539e-39
0.11729899 -0.10851096 -0.0079583861 2.6726083e-39
-0.12477371 -0.13315089 -0.099938363 1.041916e-38
-0.12279244 -0.13315089 -0.099938363 1.0326964e-38
-0.12081116 -0.13315089 -0.099938363 1.4291025e-38
-0.11818162 -0.1314363 -0.093027443 2.0098647e-38
-0.11621246 -0.1314363 -0.093027443 2.3509527e-38
-0.11424328 -0.1314363 -0.093027443 2.3509527e-38
-0.11192153 -0.13044833 -0.089045256 2.3325497e-38
-0.10995935 -0.13044833 -0.089045256 2.3509876e-38
-0.10765047 -0.12943684 -0.084968179 2.3509872e-38
-0.10569544 -0.12943684 -0.084968179 2.3417324e-38
-0.10350017 -0.12870578 -0.082021564 2.3509523e-38
-0.1012291 -0.12770687 -0.07799527 2.3509883e-38
-0.099049836 -0.12695493 -0.074964494 2.3509883e-38
-0.097112343 -0.12695493 -0.074964494 2.3509883e-38
-0.094878614 -0.12596865 -0.070989102 2.3509883e-38
-0.092948094 -0.12596865 -0.070989102 2.3509527e-38
-0.090737313 -0.12498946 -0.067042321 2.3509527e-38
-0.088599727 -0.12422292 -0.063952535 2.341769e-38
-0.086410552 -0.12322696 -0.059938166 2.3509886e-38
-0.084306568 -0.1224993 -0.05700526 2.3509886e-38
-0.082400575 -0.1224993 -0.05700526 2.3509886e-38
-0.08030574 -0.12174667 -0.053971622 2.3509886e-38
-0.07798548 -0.12002577 -0.047035191 2.3509886e-38
-0.075861692 -0.11903207 -0.043029878 2.3325856e-38
-0.073980197 -0.11903207 -0.043029878 2.341769e-38
-0.071929172 -0.11827053 -0.039960358 2.3509527e-38
-0.069895864 -0.1175413 -0.037021015 2.3509165e-38
-0.068024904 -0.1175413 -0.037021015 2.3508808e-38
-0.065951899 -0.11653815 -0.032977674 2.3509167e-38
-0.063942775 -0.11579077 -0.029965255 2.3509167e-38
-0.062084183 -0.11579077 -0.029965255 2.3509167e-38
-0.060225591 -0.11579077 -0.029965255 2.3325492e-38
-0.058366999 -0.11579077 -0.029965255 2.3141816e-38
-0.056384981 -0.11504765 -0.026969884 2.3418043e-38
-0.054414146 -0.1143087 -0.023991439 2.3234372e-38
-0.052413184 -0.11330278 -0.019936893 2.3142538e-38
-0.050466534 -0.11257361 -0.016997788 2.2958873e-38
-0.048527066 -0.11182173 -0.01396725 2.2958873e-38
-0.046696521 -0.11182173 -0.01396725 2.2867037e-38
-0.044865981 -0.11182173 -0.01396725 2.2867037e-38
-0.042948268 -0.11107419 -0.010954116 2.2316024e-38
-0.041041594 -0.11033095 -0.0079583861 2.1213998e-38
-0.039221589 -0.11033095 -0.0079583861 1.9189313e-38
-0.037308507 -0.10935538 -0.0040261485 1.7345422e-38
-0.035495393 -0.10935538 -0.0040261485 1.624052e-38
-0.033620551 -0.10859586 -0.0009647347 1.5872827e-38
-0.031758711 -0.10786678 0.0019738935 1.5504772e-38
-0.029956117 -0.10786678 0.0019738935 1.4399517e-38
-0.028108429 -0.10711606 0.0049997829 1.3386813e-38
-0.026311141 -0.10711606 0.0049997829 1.2003887e-38
-0.024479572 -0.10636975 0.0080080293 1.1543633e-38
-0.022658721 -0.10562779 0.010998633 1.1359608e-38
-0.020848494 -0.10489015 0.013971712 1.1636197e-38
-0.019066937 -0.10489015 0.013971712 1.1636919e-38
-0.017271981 -0.10413162 0.017029192 1.1544725e-38
-0.015480109 -0.10265306 0.022988822 1.1636919e-38
-0.013711731 -0.10190789 0.0259923 1.1912784e-38
-0.011951252 -0.10190789 0.0259923 1.1912419e-38
-0.010198624 -0.10116716 0.028978016 1.2372672e-38
-0.0084433788 -0.10116716 0.028978016 1.2188281e-38
-0.0066881338 -0.10116716 0.028978016 1.172694e-38
-0.0049328897 -0.10116716 0.028978016 1.1173766e-38
-0.0031776447 -0.10116716 0.028978016 1.1173045e-38
-0.0014223997 -0.10116716 0.028978016 1.1356713e-38
0.00029252004 -0.10040633 0.032044616 1.1356351e-38
0.0020423876 -0.10040633 0.032044616 1.1539661e-38
0.0037922552 -0.10040633 0.032044616 1.1354906e-38
0.0054320386 -0.098922804 0.038024273 1.1722967e-38
0.0071107009 -0.09817566 0.041035797 1.2828592e-38
0.0088448031 -0.09817566 0.041035797 1.3565795e-38
0.010578907 -0.09817566 0.041035797 1.4118969e-38
0.012110292 -0.096197397 0.049009528 1.5224235e-38
0.013668249 -0.094716981 0.054976609 1.6422051e-38
0.015318121 -0.094204247 0.05704328 1.9461949e-38
0.017024159 -0.094204247 0.05704328 2.0290262e-38
0.018633198 -0.093462333 0.060033705 2.1119293e-38
0.02033399 -0.093462333 0.060033705 2.1672817e-38
0.022034787 -0.093462333 0.060033705 2.2132353e-38
0.023735579 -0.093462333 0.060033705 2.1856847e-38
0.025436372 -0.093462333 0.060033705 2.0754821e-38
0.027137168 -0.093462333 0.060033705 1.9466254e-38
0.028966419 -0.094204247 0.05704328 1.7164623e-38
0.030672457 -0.094204247 0.05704328 1.5415078e-38
0.032378495 -0.094204247 0.05704328 1.54176e-38
0.034084532 -0.094204247 0.05704328 1.4774034e-38
0.03579057 -0.094204247 0.05704328 1.3759898e-38
0.03734193 -0.093462333 0.060033705 1.2838673e-38
0.039042726 -0.093462333 0.060033705 1.1455392e-38
0.040908679 -0.094204247 0.05704328 1.1271005e-38
0.042732485 -0.094716981 0.054976609 9.980632e-39
0.044614069 -0.095443189 0.052049544 9.0593988e-39
0.046328861 -0.095443189 0.052049544 8.5062264e-39
0.048417307 -0.09693253 0.046046462 8.5058705e-39
0.050142627 -0.09693253 0.046046462 8.6891883e-39
0.051867943 -0.09693253 0.046046462 8.3200513e-39
0.053794492 -0.097672105 0.043065455 7.7661614e-39
0.055525031 -0.097672105 0.043065455 7.3973817e-39
0.057255577 -0.097672105 0.043065455 8.7792372e-39
0.059133809 -0.09817566 0.041035797 7.2108325e-39
0.061092321 -0.098922804 0.038024273 6.3799928e-39
0.0628317 -0.098922804 0.038024273 6.4707465e-39
0.065276906 -0.10116716 0.028978016 5.8250141e-39
0.067032151 -0.10116716 0.028978016 4.7179449e-39
0.068787396 -0.10116716 0.028978016 3.1498975e-39
0.070791304 -0.10190789 0.0259923 1.2137865e-39
0.072551787 -0.10190789 0.0259923 1.9524306e-39
0.07431227 -0.10190789 0.0259923 1.5825662e-39
0.076072738 -0.10190789 0.0259923 1.2134208e-39
0.078104421 -0.10265306 0.022988822 1.58076e-39
0.079870179 -0.10265306 0.022988822 2.3165201e-39
0.081909865 -0.10337763 0.020068314 3.4217803e-39
0.083680734 -0.10337763 0.020068314 4.711073e-39
0.085747346 -0.10413162 0.017029192 5.7248591e-39
0.087523535 -0.10413162 0.017029192 6.3691411e-39
0.089607984 -0.10489015 0.013971712 7.1067006e-39
0.091389537 -0.10489015 0.013971712 7.9368158e-39
0.094107077 -0.10711606 0.0049997829 8.4899867e-39
0.095904365 -0.10711606 0.0049997829 9.0438766e-39
0.097701639 -0.10711606 0.0049997829 9.6906809e-39
0.099498928 -0.10711606 0.0049997829 1.0336049e-38
0.10129622 -0.10711606 0.0049997829 1.08885e-38
0.1030935 -0.10711606 0.0049997829 1.0424645e-38
0.10523829 -0.10786678 0.0019738935 6.3669439e-39
0.10704088 -0.10786678 0.0019738935 1.4798342e-39
0.10884348 -0.10786678 0.0019738935 1.4790972e-39
0.11064607 -0.10786678 0.0019738935 3.1378912e-39
0.11244866 -0.10786678 0.0019738935 2.9517021e-39
-0.12279244 -0.13513215 -0.099938363 9.4986456e-39
-0.12081116 -0.13513215 -0.099938363 1.3554899e-38
-0.11818162 -0.13340546 -0.093027443 1.9546913e-38
-0.11621246 -0.13340546 -0.093027443 2.3234379e-38
-0.11424328 -0.13340546 -0.093027443 2.341805e-38
-0.11192153 -0.13241051 -0.089045256 2.3325856e-38
-0.10995935 -0.13241051 -0.089045256 2.341804e-38
-0.10765047 -0.13139187 -0.084968179 2.3418036e-38
-0.10569544 -0.13139187 -0.084968179 2.341769e-38
-0.10374041 -0.13139187 -0.084968179 2.3509527e-38
-0.10155031 -0.13065563 -0.082021564 2.3509527e-38
-0.099049836 -0.12889244 -0.074964494 2.3509527e-38
-0.097112343 -0.12889244 -0.074964494 2.3509527e-38
-0.094878614 -0.12789918 -0.070989102 2.3416974e-38
-0.092948094 -0.12789918 -0.070989102 2.3416974e-38
-0.090737313 -0.12691309 -0.067042321 2.3324778e-38
-0.088599727 -0.12614109 -0.063952535 2.3509527e-38
-0.086410552 -0.12513812 -0.059938166 2.3509527e-38
-0.084306568 -0.12440531 -0.05700526 2.3509527e-38
-0.082400575 -0.12440531 -0.05700526 2.3509527e-38
-0.08030574 -0.12364738 -0.053971622 2.3509527e-38
-0.07798548 -0.12191428 -0.047035191 2.3509527e-38
-0.075861692 -0.12091358 -0.043029878 2.3509524e-38
-0.073980197 -0.12091358 -0.043029878 2.3509527e-38
-0.071929172 -0.12014665 -0.039960358 2.3509527e-38
-0.069895864 -0.11941226 -0.037021015 2.3509527e-38
-0.067815766 -0.11840202 -0.032977674 2.3509527e-38
-0.065951899 -0.11840202 -0.032977674 2.341805e-38
-0.064088024 -0.11840202 -0.032977674 2.341805e-38
-0.062084183 -0.11764936 -0.029965255 2.341805e-38
-0.060225591 -0.11764936 -0.029965255 2.3418045e-38
-0.058366999 -0.11764936 -0.029965255 2.341804e-38
-0.056384981 -0.11690097 -0.026969884 2.3418038e-38
-0.054414146 -0.1161568 -0.023991439 2.3418038e-38
-0.052413184 -0.11514379 -0.019936893 2.3234369e-38
-0.050572176 -0.11514379 -0.019936893 2.3234374e-38
-0.048527066 -0.11365227 -0.01396725 2.3142544e-38
-0.046696521 -0.11365227 -0.01396725 2.2957438e-38
-0.044865981 -0.11365227 -0.01396725 2.2864885e-38
-0.042948268 -0.11289944 -0.010954116 2.2681214e-38
-0.041041594 -0.11215095 -0.0079583861 2.2867037e-38
-0.039221589 -0.11215095 -0.0079583861 2.2315664e-38
-0.037308507 -0.11116849 -0.0040261485 2.1118208e-38
-0.035428297 -0.11040358 -0.0009647347 2.0289535e-38
-0.033620551 -0.11040358 -0.0009647347 1.9369391e-38
-0.031758711 -0.10966937 0.0019738935 1.8080105e-38
-0.029956117 -0.10966937 0.0019738935 1.633056e-38
-0.028108429 -0.10891335 0.0049997829 1.5041274e-38
-0.026311141 -0.10891335 0.0049997829 1.448991e-38
-0.024479572 -0.10816176 0.0080080293 1.3476848e-38
-0.022658721 -0.10741456 0.010998633 1.273965e-38
-0.020848494 -0.10667174 0.013971712 1.2279758e-38
-0.019066937 -0.10667174 0.013971712 1.191134e-38
-0.017271981 -0.10590781 0.017029192 1.1542557e-38
-0.015480109 -0.1044188 0.022988822 1.1267052e-38
-0.013711731 -0.10366838 0.0259923 1.1451087e-38
-0.011951252 -0.10366838 0.0259923 1.1543286e-38
-0.010198624 -0.10292239 0.028978016 1.1912067e-38
-0.0084568216 -0.10215621 0.032044616 1.2004261e-38
-0.006706953 -0.10215621 0.032044616 1.1819873e-38
-0.0049803583 -0.10141921 0.03499439 1.1912067e-38
-0.0032356624 -0.10141921 0.03499439 1.218865e-38
-0.0014909664 -0.10141921 0.03499439 1.2280126e-38
0.00025373045 -0.10141921 0.03499439 1.2003541e-38
0.0019532712 -0.10066219 0.038024273 1.181915e-38
0.003692654 -0.10066219 0.038024273 1.1081582e-38
0.0054320386 -0.10066219 0.038024273 1.0897191e-38
0.0071107009 -0.099909768 0.041035797 1.1449645e-38
0.0088448031 -0.099909768 0.041035797 1.1450001e-38
0.010460305 -0.098657846 0.046046462 1.0896828e-38
0.012110292 -0.097917527 0.049009528 1.0804632e-38
0.013668249 -0.096426651 0.054976609 1.1357084e-38
0.015318121 -0.095910296 0.05704328 1.2277956e-38
0.017024159 -0.095910296 0.05704328 1.3475053e-38
0.018633198 -0.095163137 0.060033705 1.5226396e-38
0.02033399 -0.095163137 0.060033705 1.6977727e-38
0.022034787 -0.095163137 0.060033705 1.7807117e-38
0.023735579 -0.095163137 0.060033705 1.7715999e-38
0.025436372 -0.095163137 0.060033705 1.7532686e-38
0.027137168 -0.095163137 0.060033705 1.7350091e-38
0.028966419 -0.095910296 0.05704328 1.5784583e-38
0.030672457 -0.095910296 0.05704328 1.4956629e-38
0.032378495 -0.095910296 0.05704328 1.5419394e-38
0.034084532 -0.095910296 0.05704328 1.4498528e-38
0.03579057 -0.095910296 0.05704328 1.3208526e-38
0.037496604 -0.095910296 0.05704328 1.2378419e-38
0.039202642 -0.095910296 0.05704328 1.0994428e-38
0.041022822 -0.096426651 0.054976609 1.0717843e-38
0.042732485 -0.096426651 0.054976609 1.0717845e-38
0.044614069 -0.09715797 0.052049544 9.9799243e-39
0.046328861 -0.09715797 0.052049544 9.1512455e-39
0.048232876 -0.097917527 0.049009528 8.9664969e-39
0.049953002 -0.097917527 0.049009528 8.6899156e-39
0.051673125 -0.097917527 0.049009528 8.4129728e-39
0.053593259 -0.098657846 0.046046462 8.3207814e-39
0.055318583 -0.098657846 0.046046462 8.5970123e-39
0.057255577 -0.099402651 0.043065455 8.0431183e-39
0.059133809 -0.099909768 0.041035797 7.3048316e-39
0.060867909 -0.099909768 0.041035797 7.1193613e-39
0.0628317 -0.10066219 0.038024273 6.9346071e-39
0.065037638 -0.10215621 0.032044616 6.2888762e-39
0.067032151 -0.10292239 0.028978016 5.8268162e-39
0.068787396 -0.10292239 0.028978016 4.6279101e-39
0.070542648 -0.10292239 0.028978016 2.9676643e-39
0.072551787 -0.10366838 0.0259923 3.7974109e-39
0.07431227 -0.10366838 0.0259923 3.3349881e-39
0.076072738 -0.10366838 0.0259923 2.9647664e-39
0.078104421 -0.1044188 0.022988822 3.0558802e-39
0.079870179 -0.1044188 0.022988822 3.6065359e-39
0.081909865 -0.10514848 0.020068314 4.52633e-39
0.083680734 -0.10514848 0.020068314 5.9074595e-39
0.085747346 -0.10590781 0.017029192 7.196755e-39
0.087523535 -0.10590781 0.017029192 8.2094594e-39
0.089607984 -0.10667174 0.013971712 8.9462972e-39
0.091389537 -0.10667174 0.013971712 9.5920155e-39
0.093793243 -0.10816176 0.0080080293 1.0237016e-38
0.095904365 -0.10891335 0.0049997829 1.0883814e-38
0.097701639 -0.10891335 0.0049997829 1.1990514e-38
0.099498928 -0.10891335 0.0049997829 1.2636236e-38
0.10129622 -0.10891335 0.0049997829 1.2636598e-38
0.1030935 -0.10891335 0.0049997829 1.4387967e-38
0.10489079 -0.10891335 0.0049997829 8.395245e-39
0.10704088 -0.10966937 0.0019738935 2.6787334e-39
0.10884348 -0.10966937 0.0019738935 2.1255456e-39
0.11064607 -0.10966937 0.0019738935 3.0456956e-39
0.11244866 -0.10966937 0.0019738935 3.1360962e-39
-0.12279244 -0.13711344 -0.099938363 8.9436767e-39
-0.12081116 -0.13711344 -0.099938363 1.3000649e-38
-0.11818162 -0.13537462 -0.093027443 1.9269603e-38
-0.11621246 -0.13537462 -0.093027443 2.3325856e-38
-0.11424328 -0.13537462 -0.093027443 2.341805e-38
-0.11192153 -0.1343727 -0.089045256 2.3325856e-38
-0.10995935 -0.1343727 -0.089045256 2.3418043e-38
-0.10765047 -0.13334687 -0.084968179 2.3418043e-38
-0.10569544 -0.13334687 -0.084968179 2.3141466e-38
-0.10350017 -0.13260551 -0.082021564 2.3233662e-38
-0.10155031 -0.13260551 -0.082021564 2.341805e-38
-0.099049836 -0.13082992 -0.074964494 2.341805e-38
-0.097112343 -0.13082992 -0.074964494 2.3509527e-38
-0.094878614 -0.12982969 -0.070989102 2.3509527e-38
-0.092948094 -0.12982969 -0.070989102 2.3509527e-38
-0.090737313 -0.12883668 -0.067042321 2.3509527e-38
-0.088599727 -0.12805928 -0.063952535 2.3509527e-38
-0.086410552 -0.12704925 -0.059938166 2.3509167e-38
-0.084499419 -0.12704925 -0.059938166 2.3417327e-38
-0.082400575 -0.12631132 -0.05700526 2.3508804e-38
-0.08030574 -0.12554805 -0.053971622 2.3508804e-38
-0.07798548 -0.12380283 -0.047035191 2.3509164e-38
-0.076096952 -0.12380283 -0.047035191 2.3509524e-38
-0.073980197 -0.12279506 -0.043029878 2.3509527e-38
-0.071766831 -0.12128322 -0.037021015 2.3325856e-38
-0.069895864 -0.12128322 -0.037021015 2.3234379e-38
-0.067815766 -0.12026589 -0.032977674 2.3234379e-38
-0.065951899 -0.12026589 -0.032977674 2.3418047e-38
-0.064088024 -0.12026589 -0.032977674 2.3417691e-38
-0.062084183 -0.11950795 -0.029965255 2.3325494e-38
-0.060225591 -0.11950795 -0.029965255 2.3509874e-38
-0.058366999 -0.11950795 -0.029965255 2.350987e-38
-0.056384981 -0.11875431 -0.026969884 2.3418033e-38
-0.054414146 -0.11800493 -0.023991439 2.3326199e-38
-0.052413184 -0.1169848 -0.019936893 2.3325846e-38
-0.050572176 -0.1169848 -0.019936893 2.3325847e-38
-0.048527066 -0.11548282 -0.01396725 2.3509523e-38
-0.046598788 -0.11472471 -0.010954116 2.3509527e-38
-0.044773526 -0.11472471 -0.010954116 2.3509168e-38
-0.042948268 -0.11472471 -0.010954116 2.3509168e-38
-0.04112301 -0.11472471 -0.010954116 2.3509879e-38
-0.039221589 -0.11397095 -0.0079583861 2.3509873e-38
-0.037308507 -0.1129816 -0.0040261485 2.3418043e-38
-0.035428297 -0.11221133 -0.0009647347 2.3142544e-38
-0.0335613 -0.11147197 0.0019738935 2.2775202e-38
-0.031758711 -0.11147197 0.0019738935 2.240786e-38
-0.029956117 -0.11147197 0.0019738935 2.1764652e-38
-0.028108429 -0.11071064 0.0049997829 2.1213639e-38
-0.026271582 -0.10995375 0.0080080293 2.0108744e-38
-0.024479572 -0.10995375 0.0080080293 1.8634712e-38
-0.022658721 -0.10920133 0.010998633 1.6976292e-38
-0.020848494 -0.10845329 0.013971712 1.5687008e-38
-0.019066937 -0.10845329 0.013971712 1.4488836e-38
-0.017258659 -0.10691936 0.020068314 1.3567246e-38
-0.015480109 -0.10618456 0.022988822 1.3199538e-38
-0.013711731 -0.10542886 0.0259923 1.3200264e-38
-0.011953869 -0.10467763 0.028978016 1.2279759e-38
-0.010198624 -0.10467763 0.028978016 1.2187929e-38
-0.0084568216 -0.10390608 0.032044616 1.1911342e-38
-0.006706953 -0.10390608 0.032044616 1.1450367e-38
-0.0049803583 -0.10316391 0.03499439 1.1542563e-38
-0.0032356624 -0.10316391 0.03499439 1.181987e-38
-0.0015254971 -0.10240157 0.038024273 1.1912067e-38
0.00021388754 -0.10240157 0.038024273 1.1635483e-38
0.0019532712 -0.10240157 0.038024273 1.1635843e-38
0.003692654 -0.10240157 0.038024273 1.1174868e-38
0.0053765969 -0.10164386 0.041035797 1.1175947e-38
0.0070697749 -0.1011332 0.043065455 1.2005337e-38
0.0087349871 -0.10038316 0.046046462 1.1913143e-38
0.010390169 -0.099637643 0.049009528 1.0714615e-38
0.012110292 -0.099637643 0.049009528 9.7004634e-39
0.013747797 -0.098872766 0.052049544 9.5160721e-39
0.01537791 -0.098136306 0.054976609 9.5160721e-39
0.017087571 -0.098136306 0.054976609 9.4231506e-39
0.018730197 -0.09761633 0.05704328 9.4227863e-39
0.02033399 -0.096863925 0.060033705 9.329862e-39
0.022034787 -0.096863925 0.060033705 8.5922885e-39
0.023735579 -0.096863925 0.060033705 8.1313048e-39
0.025436372 -0.096863925 0.060033705 8.8695873e-39
0.027137168 -0.096863925 0.060033705 1.0161407e-38
0.02883796 -0.096863925 0.060033705 1.0808221e-38
0.030538756 -0.096863925 0.060033705 9.6107593e-39
0.032239549 -0.096863925 0.060033705 9.5189322e-39
0.034084532 -0.09761633 0.05704328 9.243067e-39
0.03579057 -0.09761633 0.05704328 9.8880804e-39
0.037496604 -0.09761633 0.05704328 1.0717843e-38
0.039202642 -0.09761633 0.05704328 1.016323e-38
0.041022822 -0.098136306 0.054976609 1.0070678e-38
0.042732485 -0.098136306 0.054976609 1.0071404e-38
0.044614069 -0.098872766 0.052049544 9.7026228e-39
0.046328861 -0.098872766 0.052049544 9.3345591e-39
0.048232876 -0.099637643 0.049009528 9.149812e-39
0.049953002 -0.099637643 0.049009528 8.5044453e-39
0.051673125 -0.099637643 0.049009528 7.8590787e-39
0.053393248 -0.099637643 0.049009528 7.9512744e-39
0.055318583 -0.10038316 0.046046462 8.4122525e-39
0.057043899 -0.10038316 0.046046462 8.8725118e-39
0.058986124 -0.1011332 0.043065455 9.1480169e-39
0.06071667 -0.1011332 0.043065455 9.2391307e-39
0.0628317 -0.10240157 0.038024273 8.2242543e-39
0.06480749 -0.10316391 0.03499439 6.9331526e-39
0.066787504 -0.10390608 0.032044616 7.2090136e-39
0.068537377 -0.10390608 0.032044616 7.6696302e-39
0.070542648 -0.10467763 0.028978016 7.4837914e-39
0.072551787 -0.10542886 0.0259923 7.8518354e-39
0.07431227 -0.10542886 0.0259923 7.6667155e-39
0.076072738 -0.10542886 0.0259923 7.9415073e-39
0.078104421 -0.10618456 0.022988822 8.6776332e-39
0.079870179 -0.10618456 0.022988822 9.5052331e-39
0.081909865 -0.10691936 0.020068314 1.042503e-38
0.083680734 -0.10691936 0.020068314 1.1714327e-38
0.085747346 -0.107684 0.017029192 1.3003621e-38
0.087523535 -0.107684 0.017029192 1.4108881e-38
0.089607984 -0.10845329 0.013971712 1.5029391e-38
0.091389537 -0.10845329 0.013971712 1.5767307e-38
0.093481258 -0.10920133 0.010998633 1.6412668e-38
0.095585257 -0.10995375 0.0080080293 1.7150582e-38
0.097701639 -0.11071064 0.0049997829 1.7889217e-38
0.099498928 -0.11071064 0.0049997829 1.8073243e-38
0.10129622 -0.11071064 0.0049997829 1.7520432e-38
0.1030935 -0.11071064 0.0049997829 1.6968348e-38
0.10489079 -0.11071064 0.0049997829 9.9614805e-39
0.10704088 -0.11147197 0.0019738935 3.6925195e-39
0.10884348 -0.11147197 0.0019738935 3.0460599e-39
0.11064607 -0.11147197 0.0019738935 3.0446166e-39
0.11244866 -0.11147197 0.0019738935 3.1350144e-39
-0.12015077 -0.13734378 -0.093027443 1.2536074e-38
-0.11818162 -0.13734378 -0.093027443 1.9451472e-38
-0.11621246 -0.13734378 -0.093027443 2.3416248e-38
-0.11424328 -0.13734378 -0.093027443 2.3509886e-38
-0.11192153 -0.13633488 -0.089045256 2.341805e-38
-0.10995935 -0.13633488 -0.089045256 2.2957075e-38
-0.10765047 -0.1353019 -0.084968179 2.341805e-38
-0.10569544 -0.1353019 -0.084968179 2.341805e-38
-0.10350017 -0.13455538 -0.082021564 2.3509886e-38
-0.10155031 -0.13455538 -0.082021564 2.3509886e-38
-0.099049836 -0.13276742 -0.074964494 2.3509886e-38
-0.097112343 -0.13276742 -0.074964494 2.3509886e-38
-0.094878614 -0.13176022 -0.070989102 2.3509886e-38
-0.092948094 -0.13176022 -0.070989102 2.3509886e-38
-0.090737313 -0.13076027 -0.067042321 2.3509886e-38
-0.088599727 -0.12997745 -0.063952535 2.3509886e-38
-0.086410552 -0.12896039 -0.059938166 2.3509886e-38
-0.084499419 -0.12896039 -0.059938166 2.3509886e-38
-0.082400575 -0.12821732 -0.05700526 2.3509527e-38
-0.08030574 -0.12744872 -0.053971622 2.3509527e-38
-0.078166634 -0.12645011 -0.050030086 2.3509527e-38
-0.076096952 -0.12569134 -0.047035191 2.3509527e-38
-0.073980197 -0.12467657 -0.043029878 2.3418047e-38
-0.071766831 -0.12315418 -0.037021015 2.3142541e-38
-0.069895864 -0.12315418 -0.037021015 2.3142534e-38
-0.067815766 -0.12212978 -0.032977674 2.2774093e-38
-0.065951899 -0.12212978 -0.032977674 2.3509863e-38
-0.064088024 -0.12212978 -0.032977674 2.350952e-38
-0.062084183 -0.12136655 -0.029965255 2.3508082e-38
-0.060225591 -0.12136655 -0.029965255 2.3507352e-38
-0.058366999 -0.12136655 -0.029965255 2.3509866e-38
-0.056384981 -0.12060766 -0.026969884 2.350987e-38
-0.054414146 -0.11985306 -0.023991439 2.304782e-38
-0.052413184 -0.11882581 -0.019936893 2.3509168e-38
-0.050572176 -0.11882581 -0.019936893 2.3509168e-38
-0.048630677 -0.11808117 -0.016997788 2.3047454e-38
-0.046598788 -0.11654995 -0.010954116 2.350987e-38
-0.044773526 -0.11654995 -0.010954116 2.3509163e-38
-0.042948268 -0.11654995 -0.010954116 2.3509165e-38
-0.041041594 -0.11579098 -0.0079583861 2.350952e-38
-0.03912162 -0.11479472 -0.0040261485 2.2957064e-38
-0.037308507 -0.11479472 -0.0040261485 2.3509873e-38
-0.035428297 -0.11401908 -0.0009647347 2.3418045e-38
-0.0335613 -0.11327456 0.0019738935 2.3142185e-38
-0.031758711 -0.11327456 0.0019738935 2.3142544e-38
-0.029956117 -0.11327456 0.0019738935 2.2590813e-38
-0.028108429 -0.11250792 0.0049997829 2.2775202e-38
-0.026271582 -0.11174576 0.0080080293 2.2499695e-38
-0.024445489 -0.1109881 0.010998633 2.1579547e-38
-0.022658721 -0.1109881 0.010998633 2.0013318e-38
-0.020848494 -0.11023484 0.013971712 1.8263043e-38
-0.019066937 -0.11023484 0.013971712 1.7433302e-38
-0.017258659 -0.10869022 0.020068314 1.6880494e-38
-0.015480109 -0.10795029 0.022988822 1.5774862e-38
-0.013711731 -0.10718934 0.0259923 1.4117865e-38
-0.011953869 -0.1064329 0.028978016 1.3475392e-38
-0.010198624 -0.1064329 0.028978016 1.3107339e-38
-0.0084568216 -0.10565595 0.032044616 1.2462693e-38
-0.006706953 -0.10565595 0.032044616 1.2186109e-38
-0.0049803583 -0.1049086 0.03499439 1.2463059e-38
-0.0032356624 -0.1049086 0.03499439 1.2832922e-38
-0.0015254971 -0.10414095 0.038024273 1.2741092e-38
0.00017428584 -0.10337795 0.041035797 1.246415e-38
0.0019083889 -0.10337795 0.041035797 1.2648903e-38
0.0036424929 -0.10337795 0.041035797 1.2096455e-38
0.0053392304 -0.10286374 0.043065455 1.1635843e-38
0.0070697749 -0.10286374 0.043065455 1.1452531e-38
0.0087349871 -0.10210848 0.046046462 1.1452889e-38
0.010390169 -0.10135777 0.049009528 1.1175948e-38
0.012110292 -0.10135777 0.049009528 1.0530586e-38
0.013747797 -0.10058756 0.052049544 9.9774118e-39
0.01537791 -0.099845976 0.054976609 1.0161803e-38
0.017087571 -0.099845976 0.054976609 9.7011823e-39
0.018730197 -0.099322364 0.05704328 9.1480085e-39
0.02033399 -0.098564714 0.060033705 8.5026363e-39
0.022034787 -0.098564714 0.060033705 7.6728728e-39
0.023735579 -0.098564714 0.060033705 7.3044462e-39
0.025436372 -0.098564714 0.060033705 7.9498156e-39
0.027137168 -0.098564714 0.060033705 8.8717719e-39
0.028710287 -0.097811699 0.063005894 1.0808599e-38
0.030405868 -0.097811699 0.063005894 9.6100558e-39
0.032101452 -0.097811699 0.063005894 9.2401985e-39
0.033940341 -0.098564714 0.060033705 1.0254706e-38
0.035641138 -0.098564714 0.060033705 1.1360335e-38
0.03734193 -0.098564714 0.060033705 1.1360334e-38
0.039042726 -0.098564714 0.060033705 1.1358895e-38
0.041022822 -0.099845976 0.054976609 1.1359256e-38
0.042732485 -0.099845976 0.054976609 1.0806811e-38
0.044614069 -0.10058756 0.052049544 1.043839e-38
0.046328861 -0.10058756 0.052049544 1.0253999e-38
0.048043657 -0.10058756 0.052049544 1.016216e-38
0.049953002 -0.10135777 0.049009528 9.7011823e-39
