# .PCD v0.7 - Point Cloud Data file format
VERSION 0.7
FIELDS x y z rgb
SIZE 4 4 4 4
TYPE F F F F
COUNT 1 1 1 1
WIDTH 924
HEIGHT 1
VIEWPOINT 0 0 0 1 0 0 0
POINTS 924
DATA ascii
-0.016896669 -0.087358251 -0.068338759 2.3509527e-38
-0.014966149 -0.087358251 -0.068338759 2.341805e-38
-0.013035629 -0.087358251 -0.068338759 2.3234379e-38
-0.011199202 -0.088205129 -0.072314151 2.3234379e-38
-0.0090880878 -0.086517468 -0.064391978 2.3142544e-38
-0.0070212409 -0.085004061 -0.05728782 2.3142544e-38
-0.0051100962 -0.085004061 -0.05728782 2.295887e-38
-0.0031989552 -0.085004061 -0.05728782 2.295887e-38
-0.0012440979 -0.084379271 -0.054354914 2.2867034e-38
0.00066190585 -0.084379271 -0.054354914 2.2867037e-38
0.0025679059 -0.084379271 -0.054354914 2.2683366e-38
0.0045031644 -0.083733007 -0.051321276 2.2130915e-38
0.0064349454 -0.082893357 -0.04737974 2.2775202e-38
0.0083287172 -0.082893357 -0.04737974 2.1392647e-38
0.010235619 -0.082255349 -0.044384845 1.7705548e-38
0.01212414 -0.082255349 -0.044384845 1.1620642e-38
0.014012661 -0.082255349 -0.044384845 3.3230294e-39
0.015901182 -0.082255349 -0.044384845 3.6111461e-42
-0.035078648 -0.093166932 -0.086394913 2.3509527e-38
-0.03294133 -0.092291236 -0.082317837 2.3509527e-38
-0.030864883 -0.091658354 -0.079371221 2.3509886e-38
-0.02875619 -0.09079358 -0.075344928 2.3509886e-38
-0.02681338 -0.09079358 -0.075344928 2.3509886e-38
-0.024870574 -0.09079358 -0.075344928 2.3509886e-38
-0.02282415 -0.090142623 -0.072314151 2.3509886e-38
-0.02088666 -0.090142623 -0.072314151 2.3509886e-38
-0.018949166 -0.090142623 -0.072314151 2.3509886e-38
-0.016896669 -0.089288771 -0.068338759 2.3509883e-38
-0.014966149 -0.089288771 -0.068338759 2.341804e-38
-0.013035629 -0.089288771 -0.068338759 2.3418038e-38
-0.011199202 -0.090142623 -0.072314151 2.3418043e-38
-0.0090880878 -0.088441074 -0.064391978 2.3234374e-38
-0.0070212409 -0.08691521 -0.05728782 2.3234379e-38
-0.0051100962 -0.08691521 -0.05728782 2.3142544e-38
-0.0031989552 -0.08691521 -0.05728782 2.3142544e-38
-0.0012440979 -0.086285278 -0.054354914 2.2958873e-38
0.00066190585 -0.086285278 -0.054354914 2.2037289e-38
0.0025679059 -0.086285278 -0.054354914 2.2958873e-38
0.0045031644 -0.085633695 -0.051321276 2.2958873e-38
0.0064038467 -0.085633695 -0.051321276 2.2867037e-38
0.0083287172 -0.084787115 -0.04737974 2.2867037e-38
0.010222491 -0.084787115 -0.04737974 2.2775202e-38
0.012116263 -0.084787115 -0.04737974 2.0471394e-38
0.014010035 -0.084787115 -0.04737974 1.2912431e-38
0.015901182 -0.084143862 -0.044384845 4.5240739e-39
-0.037040818 -0.095129102 -0.086394913 2.3509886e-38
-0.034896363 -0.094246268 -0.082317837 2.3509527e-38
-0.032814752 -0.093608215 -0.079371221 2.3325494e-38
-0.030698989 -0.092736378 -0.075344928 2.3509886e-38
-0.028636623 -0.092080101 -0.072314151 2.3509886e-38
-0.026699129 -0.092080101 -0.072314151 2.3509886e-38
-0.02476164 -0.092080101 -0.072314151 2.3509886e-38
-0.022688229 -0.091219291 -0.068338759 2.3509886e-38
-0.020757709 -0.091219291 -0.068338759 2.3509886e-38
-0.018949166 -0.092080101 -0.072314151 2.3509886e-38
-0.016896669 -0.091219291 -0.068338759 2.350988e-38
-0.01485889 -0.090364665 -0.064391978 2.3418038e-38
-0.012935285 -0.090364665 -0.064391978 2.3418035e-38
-0.011105109 -0.091219291 -0.068338759 2.341804e-38
-0.0090880878 -0.090364665 -0.064391978 2.3418045e-38
-0.007102184 -0.089695618 -0.061302193 2.341805e-38
-0.0051100962 -0.088826358 -0.05728782 2.3234379e-38
-0.0031989552 -0.088826358 -0.05728782 2.3234379e-38
-0.0012878068 -0.088826358 -0.05728782 2.3234379e-38
0.00066190585 -0.088191271 -0.054354914 2.323402e-38
0.0025679059 -0.088191271 -0.054354914 2.3142544e-38
0.0045031644 -0.087534383 -0.051321276 2.2681572e-38
0.0064038467 -0.087534383 -0.051321276 2.2774125e-38
0.0083287172 -0.086680889 -0.04737974 2.2498618e-38
0.010222491 -0.086680889 -0.04737974 2.2958873e-38
0.01212414 -0.086032391 -0.044384845 2.2958873e-38
0.014012661 -0.086032391 -0.044384845 2.2591529e-38
0.015901182 -0.086032391 -0.044384845 2.2316024e-38
0.019603401 -0.082336128 -0.027314909 2.1763576e-38
-0.036851387 -0.096201301 -0.082317837 2.341805e-38
-0.034896363 -0.096201301 -0.082317837 2.3509886e-38
-0.032641795 -0.094679192 -0.075344928 2.3509886e-38
-0.030574117 -0.094017595 -0.072314151 2.3509886e-38
-0.028636623 -0.094017595 -0.072314151 2.3509886e-38
-0.026699129 -0.094017595 -0.072314151 2.3509886e-38
-0.024618752 -0.093149811 -0.068338759 2.3509886e-38
-0.022688229 -0.093149811 -0.068338759 2.3509886e-38
-0.020757709 -0.093149811 -0.068338759 2.3509886e-38
-0.018827189 -0.093149811 -0.068338759 2.3509886e-38
-0.016782489 -0.092288271 -0.064391978 2.3509886e-38
-0.014774915 -0.091613799 -0.061302193 2.3509886e-38
-0.012856733 -0.091613799 -0.061302193 2.3509886e-38
-0.011011686 -0.092288271 -0.064391978 2.3509886e-38
-0.0090203695 -0.091613799 -0.061302193 2.3509883e-38
-0.007102184 -0.091613799 -0.061302193 2.3509883e-38
-0.0051840022 -0.091613799 -0.061302193 2.3418045e-38
-0.0031989552 -0.090737507 -0.05728782 2.3418045e-38
-0.0012878068 -0.090737507 -0.05728782 2.3418045e-38
0.00062333792 -0.090737507 -0.05728782 2.3418047e-38
0.0025344826 -0.090737507 -0.05728782 2.3050703e-38
0.0044739097 -0.090097278 -0.054354914 2.2958151e-38
0.0064038467 -0.089435071 -0.051321276 2.3234379e-38
0.0083287172 -0.088574663 -0.04737974 2.3234379e-38
0.010235619 -0.087920904 -0.044384845 2.1759256e-38
0.01212414 -0.087920904 -0.044384845 2.2773408e-38
0.014012661 -0.087920904 -0.044384845 2.3142544e-38
0.015901182 -0.087920904 -0.044384845 2.2407501e-38
0.017744809 -0.08419472 -0.027314909 2.2591531e-38
0.019603401 -0.08419472 -0.027314909 2.2775202e-38
-0.10136431 -0.10234386 -0.10134829 1.5409708e-38
-0.099375919 -0.10234386 -0.10134829 1.4672154e-38
-0.097387522 -0.10234386 -0.10134829 1.2922616e-38
-0.092868745 -0.09662199 -0.075344928 1.1265631e-38
-0.09131068 -0.097507954 -0.079371221 9.8845113e-39
-0.040761445 -0.098156333 -0.082317837 2.3326213e-38
-0.03880642 -0.098156333 -0.082317837 2.3234018e-38
-0.036851387 -0.098156333 -0.082317837 2.3234018e-38
-0.034896363 -0.098156333 -0.082317837 2.341805e-38
-0.032641795 -0.09662199 -0.075344928 2.341805e-38
-0.030574117 -0.095955089 -0.072314151 2.3509886e-38
-0.028636623 -0.095955089 -0.072314151 2.3509886e-38
-0.026549272 -0.095080331 -0.068338759 2.3509886e-38
-0.024618752 -0.095080331 -0.068338759 2.3509886e-38
-0.022688229 -0.095080331 -0.068338759 2.3509886e-38
-0.020757709 -0.095080331 -0.068338759 2.3509886e-38
-0.018706087 -0.094211861 -0.064391978 2.3509886e-38
-0.0166931 -0.093531981 -0.061302193 2.3509886e-38
-0.014774915 -0.093531981 -0.061302193 2.3509527e-38
-0.012856733 -0.093531981 -0.061302193 2.3509527e-38
-0.011011686 -0.094211861 -0.064391978 2.3509886e-38
-0.0090203695 -0.093531981 -0.061302193 2.3509886e-38
-0.007102184 -0.093531981 -0.061302193 2.3509883e-38
-0.0051100962 -0.09264864 -0.05728782 2.350988e-38
-0.0031989552 -0.09264864 -0.05728782 2.3509879e-38
-0.0012878068 -0.09264864 -0.05728782 2.3509879e-38
0.00062333792 -0.09264864 -0.05728782 2.3509879e-38
0.0025344826 -0.09264864 -0.05728782 2.350988e-38
0.0044739097 -0.092003286 -0.054354914 2.2956709e-38
0.0064349454 -0.090468436 -0.04737974 2.3509886e-38
0.0083470959 -0.089809433 -0.044384845 2.3509527e-38
0.010253174 -0.088928089 -0.040379532 2.314075e-38
0.012134673 -0.088928089 -0.040379532 2.3509527e-38
0.014024984 -0.086716175 -0.030327328 2.3417691e-38
0.015888859 -0.086716175 -0.030327328 2.3142544e-38
0.017744809 -0.086053312 -0.027314909 2.2406423e-38
0.019603401 -0.086053312 -0.027314909 2.2958873e-38
-0.10534111 -0.10433225 -0.10134829 1.2742891e-38
-0.10335271 -0.10433225 -0.10134829 1.4399876e-38
-0.10136431 -0.10433225 -0.10134829 1.4675024e-38
-0.099375919 -0.10433225 -0.10134829 1.3845635e-38
-0.097387522 -0.10433225 -0.10134829 1.2648545e-38
-0.092868745 -0.098564804 -0.075344928 1.3019115e-38
-0.09131068 -0.099457815 -0.079371221 1.1452889e-38
-0.089360803 -0.099457815 -0.079371221 9.4260345e-39
-0.040761445 -0.10011137 -0.082317837 2.2865955e-38
-0.03880642 -0.10011137 -0.082317837 2.2497173e-38
-0.037040818 -0.10101564 -0.086394913 2.2497173e-38
-0.034896363 -0.10011137 -0.082317837 2.3234018e-38
-0.032641795 -0.098564804 -0.075344928 2.341805e-38
-0.030574117 -0.097892582 -0.072314151 2.341805e-38
-0.028479788 -0.097010851 -0.068338759 2.341805e-38
-0.026549272 -0.097010851 -0.068338759 2.341805e-38
-0.024618752 -0.097010851 -0.068338759 2.341805e-38
-0.022553291 -0.096135467 -0.064391978 2.341805e-38
-0.020629689 -0.096135467 -0.064391978 2.341805e-38
-0.018706087 -0.096135467 -0.064391978 2.341805e-38
-0.0166931 -0.095450163 -0.061302193 2.3509886e-38
-0.01466582 -0.094559789 -0.05728782 2.3509886e-38
-0.012754675 -0.094559789 -0.05728782 2.3509527e-38
-0.011011686 -0.096135467 -0.064391978 2.3509527e-38
-0.0090203695 -0.095450163 -0.061302193 2.3509527e-38
-0.007102184 -0.095450163 -0.061302193 2.3509527e-38
-0.0051100962 -0.094559789 -0.05728782 2.3509527e-38
-0.0031989552 -0.094559789 -0.05728782 2.3509527e-38
-0.0012878068 -0.094559789 -0.05728782 2.3509527e-38
0.00062333792 -0.094559789 -0.05728782 2.3509527e-38
0.0025344826 -0.094559789 -0.05728782 2.3509527e-38
0.0044739097 -0.093909279 -0.054354914 2.3324778e-38
0.0064349454 -0.09236221 -0.04737974 2.3509168e-38
0.0083470959 -0.091697961 -0.044384845 2.3509527e-38
0.010266628 -0.090128779 -0.037310012 2.3416974e-38
0.012142746 -0.090128779 -0.037310012 2.3509168e-38
0.014024984 -0.088580042 -0.030327328 2.28638e-38
0.015888859 -0.088580042 -0.030327328 2.2957075e-38
0.017744809 -0.087911904 -0.027314909 2.341805e-38
0.019603401 -0.087911904 -0.027314909 2.2957431e-38
-0.10534111 -0.10632066 -0.10134829 1.0439447e-38
-0.10335271 -0.10632066 -0.10134829 1.1728382e-38
-0.10094786 -0.10541297 -0.09728802 1.1265962e-38
-0.09857282 -0.10453986 -0.093382366 1.2187199e-38
-0.094811544 -0.1005076 -0.075344928 1.384707e-38
-0.092868745 -0.1005076 -0.075344928 1.3295339e-38
-0.09131068 -0.10140768 -0.079371221 1.2835803e-38
-0.089360803 -0.10140768 -0.079371221 1.2283355e-38
-0.042927358 -0.10297783 -0.086394913 2.3049624e-38
-0.040965181 -0.10297783 -0.086394913 2.2680841e-38
-0.039003003 -0.10297783 -0.086394913 2.2127667e-38
-0.037040818 -0.10297783 -0.086394913 2.2127667e-38
-0.034896363 -0.1020664 -0.082317837 2.2773037e-38
-0.032511603 -0.099830076 -0.072314151 2.341805e-38
-0.030410308 -0.098941371 -0.068338759 2.341805e-38
-0.028479788 -0.098941371 -0.068338759 2.3234379e-38
-0.026400492 -0.098059073 -0.064391978 2.3234379e-38
-0.02447689 -0.098059073 -0.064391978 2.3234379e-38
-0.022553291 -0.098059073 -0.064391978 2.3234379e-38
-0.020629689 -0.098059073 -0.064391978 2.3234379e-38
-0.018611282 -0.097368345 -0.061302193 2.341805e-38
-0.0166931 -0.097368345 -0.061302193 2.341805e-38
-0.01466582 -0.096470937 -0.05728782 2.3509886e-38
-0.012754675 -0.096470937 -0.05728782 2.3509527e-38
-0.011011686 -0.098059073 -0.064391978 2.3509527e-38
-0.0090203695 -0.097368345 -0.061302193 2.3509527e-38
-0.007102184 -0.097368345 -0.061302193 2.3509527e-38
-0.0051840022 -0.097368345 -0.061302193 2.3509168e-38
-0.0032658167 -0.097368345 -0.061302193 2.3509168e-38
-0.0012878068 -0.096470937 -0.05728782 2.3509168e-38
0.00062333792 -0.096470937 -0.05728782 2.3415179e-38
0.0025344826 -0.096470937 -0.05728782 2.3509168e-38
0.0044456273 -0.096470937 -0.05728782 2.350773e-38
0.0083905123 -0.092004895 -0.037310012 2.3509168e-38
0.010266628 -0.092004895 -0.037310012 2.3507728e-38
0.012150476 -0.091347814 -0.034370668 2.3509168e-38
0.014024984 -0.090443924 -0.030327328 2.3509527e-38
0.015888859 -0.090443924 -0.030327328 2.3509886e-38
0.017744809 -0.089770496 -0.027314909 2.2957431e-38
0.019603401 -0.089770496 -0.027314909 2.3417687e-38
-0.10491042 -0.10739426 -0.09728802 1.0900795e-38
-0.10292913 -0.10739426 -0.09728802 1.1359613e-38
-0.10023901 -0.10583721 -0.0903771 1.1450367e-38
-0.097868368 -0.10494001 -0.086394913 1.2555992e-38
-0.094811544 -0.1024504 -0.075344928 1.2279406e-38
-0.092868745 -0.1024504 -0.075344928 1.2187213e-38
-0.09131068 -0.10335754 -0.079371221 1.274038e-38
-0.088983133 -0.1024504 -0.075344928 1.301768e-38
-0.08676134 -0.10176755 -0.072314151 1.2834009e-38
-0.084464893 -0.10087189 -0.068338759 1.2649621e-38
-0.082534358 -0.10087189 -0.068338759 1.2557785e-38
-0.080603838 -0.10087189 -0.068338759 1.2189008e-38
-0.078673318 -0.10087189 -0.068338759 1.1636195e-38
-0.076742798 -0.10087189 -0.068338759 1.1177377e-38
-0.074812278 -0.10087189 -0.068338759 1.02565e-38
-0.042927358 -0.10494001 -0.086394913 2.3047463e-38
-0.040965181 -0.10494001 -0.086394913 2.3048542e-38
-0.039003003 -0.10494001 -0.086394913 2.2864869e-38
-0.037040818 -0.10494001 -0.086394913 2.2680838e-38
-0.034764614 -0.10335754 -0.079371221 2.2773034e-38
-0.032340828 -0.10087189 -0.068338759 2.2866311e-38
-0.030247692 -0.099982664 -0.064391978 2.3050703e-38
-0.028324086 -0.099982664 -0.064391978 2.3050704e-38
-0.026400492 -0.099982664 -0.064391978 2.3050707e-38
-0.02447689 -0.099982664 -0.064391978 2.295887e-38
-0.022553291 -0.099982664 -0.064391978 2.2958873e-38
-0.020629689 -0.099982664 -0.064391978 2.3050708e-38
-0.018611282 -0.099286526 -0.061302193 2.3234379e-38
-0.0166931 -0.099286526 -0.061302193 2.3234379e-38
-0.014774915 -0.099286526 -0.061302193 2.341805e-38
-0.012935285 -0.099982664 -0.064391978 2.3141106e-38
-0.011011686 -0.099982664 -0.064391978 2.304891e-38
-0.0090880878 -0.099982664 -0.064391978 2.3509167e-38
-0.007102184 -0.099286526 -0.061302193 2.3509527e-38
-0.0051840022 -0.099286526 -0.061302193 2.3509165e-38
-0.0033172853 -0.099982664 -0.064391978 2.3508807e-38
-0.0013476349 -0.099286526 -0.061302193 2.3508446e-38
0.00057054684 -0.099286526 -0.061302193 2.3508448e-38
0.0024887286 -0.099286526 -0.061302193 2.3507728e-38
0.0063250959 -0.099286526 -0.061302193 2.3508448e-38
0.010297237 -0.092307791 -0.030327328 2.350737e-38
0.01216111 -0.092307791 -0.030327328 2.350665e-38
0.014027625 -0.091629088 -0.027314909 2.3508091e-38
0.015886217 -0.091629088 -0.027314909 2.3509886e-38
0.017744809 -0.091629088 -0.027314909 2.2958151e-38
-0.10491042 -0.10937552 -0.09728802 1.1359611e-38
-0.10292913 -0.10937552 -0.09728802 1.1726954e-38
-0.099830553 -0.1069022 -0.086394913 1.1449645e-38
-0.097457334 -0.10597645 -0.082317837 1.2279046e-38
-0.095210403 -0.10530742 -0.079371221 1.2185769e-38
-0.093260542 -0.10530742 -0.079371221 1.2000658e-38
-0.09131068 -0.10530742 -0.079371221 1.2369441e-38
-0.088983133 -0.1043932 -0.075344928 1.2277967e-38
-0.08676134 -0.10370506 -0.072314151 1.1726232e-38
-0.084464893 -0.10280241 -0.068338759 1.1450367e-38
-0.082534358 -0.10280241 -0.068338759 1.1266696e-38
-0.080603838 -0.10280241 -0.068338759 1.1083026e-38
-0.078673318 -0.10280241 -0.068338759 1.0531293e-38
-0.076742798 -0.10280241 -0.068338759 1.0993712e-38
-0.074490502 -0.10190627 -0.064391978 1.1086265e-38
-0.072566897 -0.10190627 -0.064391978 1.1178459e-38
-0.063634634 -0.098043531 -0.04737974 1.2190443e-38
-0.061528195 -0.097363517 -0.044384845 1.283365e-38
-0.059639681 -0.097363517 -0.044384845 1.4582112e-38
-0.057480786 -0.096454084 -0.040379532 1.4118243e-38
-0.055599276 -0.096454084 -0.040379532 1.6235846e-38
-0.043133337 -0.10780637 -0.0903771 2.3509521e-38
-0.041164171 -0.10780637 -0.0903771 2.3509879e-38
-0.039195005 -0.10780637 -0.0903771 2.350988e-38
-0.037040818 -0.1069022 -0.086394913 2.3418045e-38
-0.034449089 -0.10370506 -0.072314151 2.3142537e-38
-0.032171298 -0.10190627 -0.064391978 2.2958504e-38
-0.030120384 -0.10120471 -0.061302193 2.1207506e-38
-0.028202195 -0.10120471 -0.061302193 2.0377389e-38
-0.026284017 -0.10120471 -0.061302193 1.9455433e-38
-0.024365835 -0.10120471 -0.061302193 1.9086651e-38
-0.022447649 -0.10120471 -0.061302193 1.936324e-38
-0.020529468 -0.10120471 -0.061302193 2.0007891e-38
-0.018611282 -0.10120471 -0.061302193 2.0468872e-38
-0.0166931 -0.10120471 -0.061302193 2.0561067e-38
-0.01485889 -0.10190627 -0.064391978 2.0837654e-38
-0.013035629 -0.10280241 -0.068338759 2.0561067e-38
-0.011105109 -0.10280241 -0.068338759 2.0836931e-38
-0.0090203695 -0.10120471 -0.061302193 2.1758888e-38
-0.007102184 -0.10120471 -0.061302193 2.2864153e-38
-0.0052408837 -0.10190627 -0.064391978 2.3508441e-38
-0.0013936833 -0.10190627 -0.064391978 2.3509161e-38
0.00052991882 -0.10190627 -0.064391978 2.3509161e-38
0.012169033 -0.09348768 -0.027314909 2.3509168e-38
0.014030252 -0.092807561 -0.024319537 2.3509527e-38
0.015807318 -0.073052809 0.062684052 2.3142544e-38
0.017508112 -0.073052809 0.062684052 2.2958873e-38
0.019208906 -0.073052809 0.062684052 2.3142544e-38
-0.10689169 -0.11135681 -0.09728802 1.0895733e-38
-0.10449611 -0.11046316 -0.093382366 1.3015873e-38
-0.10252169 -0.11046316 -0.093382366 1.3383576e-38
-0.099412367 -0.10793148 -0.082317837 1.2368705e-38
-0.097457334 -0.10793148 -0.082317837 1.2644575e-38
-0.095210403 -0.10725726 -0.079371221 1.2367988e-38
-0.093260542 -0.10725726 -0.079371221 1.3290307e-38
-0.09131068 -0.10725726 -0.079371221 1.3198833e-38
-0.088983133 -0.10633601 -0.075344928 1.2554187e-38
-0.08676134 -0.10564254 -0.072314151 1.1541475e-38
-0.084464893 -0.10473295 -0.068338759 1.0897188e-38
-0.082534358 -0.10473295 -0.068338759 1.0622043e-38
-0.080603838 -0.10473295 -0.068338759 1.0346538e-38
-0.078673318 -0.10473295 -0.068338759 9.9781195e-39
-0.076742798 -0.10473295 -0.068338759 1.0071405e-38
-0.074490502 -0.10382988 -0.064391978 1.0624218e-38
-0.072320402 -0.1031229 -0.061302193 1.1177383e-38
-0.070089012 -0.10220437 -0.05728782 1.1361771e-38
-0.067954168 -0.10153329 -0.054354914 1.1269577e-38
-0.065528408 -0.099937305 -0.04737974 1.126886e-38
-0.063416719 -0.099252045 -0.044384845 1.1452889e-38
-0.061243776 -0.098335579 -0.040379532 1.2004617e-38
-0.059362281 -0.098335579 -0.040379532 1.3109153e-38
-0.057480786 -0.098335579 -0.040379532 1.3475039e-38
-0.055599276 -0.098335579 -0.040379532 1.4394097e-38
-0.053717781 -0.098335579 -0.040379532 2.0568997e-38
-0.051836286 -0.098335579 -0.040379532 2.2040518e-38
-0.034449089 -0.10564254 -0.072314151 2.2681917e-38
-0.032171298 -0.10382988 -0.064391978 2.2220939e-38
-0.029709134 -0.10083917 -0.051321276 2.1759961e-38
-0.027808454 -0.10083917 -0.051321276 2.0377026e-38
-0.026022129 -0.10153329 -0.054354914 1.8901896e-38
-0.024221543 -0.10220437 -0.05728782 1.8348723e-38
-0.022310399 -0.10220437 -0.05728782 1.8900817e-38
-0.020529468 -0.1031229 -0.061302193 1.9361796e-38
-0.018488109 -0.10220437 -0.05728782 1.9361435e-38
-0.016576964 -0.10220437 -0.05728782 1.8993013e-38
-0.01485889 -0.10382988 -0.064391978 1.6598804e-38
-0.0090203695 -0.1031229 -0.061302193 1.6413333e-38
-0.007102184 -0.1031229 -0.061302193 1.687431e-38
0.010336626 -0.093979403 -0.021341093 2.2775202e-38
0.012184745 -0.093979403 -0.021341093 2.2591531e-38
0.014032863 -0.093979403 -0.021341093 2.2499695e-38
0.015807318 -0.074753612 0.062684052 2.1578823e-38
0.017508112 -0.074753612 0.062684052 2.2224189e-38
0.019208906 -0.074753612 0.062684052 2.2591531e-38
0.020909701 -0.074753612 0.062684052 2.2775202e-38
-0.10689169 -0.1133381 -0.09728802 1.5040195e-38
-0.10449611 -0.11243759 -0.093382366 1.7436905e-38
-0.10220817 -0.11174469 -0.0903771 1.7252516e-38
-0.099412367 -0.10988651 -0.082317837 1.540826e-38
-0.097457334 -0.10988651 -0.082317837 1.5315349e-38
-0.095210403 -0.10920714 -0.079371221 1.5131679e-38
-0.093260542 -0.10920714 -0.079371221 1.559302e-38
-0.090925932 -0.10827883 -0.075344928 1.5133484e-38
-0.088983133 -0.10827883 -0.075344928 1.4212615e-38
-0.08676134 -0.10758002 -0.072314151 1.3016234e-38
-0.084823847 -0.10758002 -0.072314151 1.2280111e-38
-0.082534358 -0.10666345 -0.068338759 1.2004969e-38
-0.080603838 -0.10666345 -0.068338759 1.1728742e-38
-0.078673318 -0.10666345 -0.068338759 1.1176298e-38
-0.076414108 -0.10575347 -0.064391978 9.516791e-39
-0.073911294 -0.1041155 -0.05728782 9.2402125e-39
-0.071766183 -0.10343929 -0.054354914 8.9636284e-39
-0.069860175 -0.10343929 -0.054354914 8.7792344e-39
-0.067422181 -0.10183108 -0.04737974 8.7792344e-39
-0.065305233 -0.10114056 -0.044384845 9.14837e-39
-0.063416719 -0.10114056 -0.044384845 9.7933751e-39
-0.061243776 -0.10021709 -0.040379532 1.0346538e-38
-0.059362281 -0.10021709 -0.040379532 1.1174126e-38
-0.057480786 -0.10021709 -0.040379532 1.4122214e-38
-0.055599276 -0.10021709 -0.040379532 1.4212232e-38
-0.053521339 -0.099509358 -0.037310012 1.8451759e-38
-0.051645223 -0.099509358 -0.037310012 2.1029968e-38
-0.049769107 -0.099509358 -0.037310012 2.1948682e-38
-0.035228048 -0.10183108 -0.04737974 2.3142544e-38
-0.033334274 -0.10183108 -0.04737974 2.3142544e-38
-0.0314405 -0.10183108 -0.04737974 2.3142544e-38
-0.029546726 -0.10183108 -0.04737974 2.3142541e-38
-0.02765296 -0.10183108 -0.04737974 2.2958867e-38
-0.025759187 -0.10183108 -0.04737974 2.1484093e-38
-0.024116125 -0.10343929 -0.054354914 2.0561418e-38
-0.022310399 -0.1041155 -0.05728782 2.0099361e-38
-0.020399254 -0.1041155 -0.05728782 1.926924e-38
-0.018488109 -0.1041155 -0.05728782 1.7886305e-38
-0.016576964 -0.1041155 -0.05728782 1.6688122e-38
-0.01485889 -0.10575347 -0.064391978 1.6690643e-38
0.012184745 -0.09582752 -0.021341093 1.3835832e-38
0.014032863 -0.09582752 -0.021341093 1.3836195e-38
0.015807318 -0.076454401 0.062684052 1.512622e-38
0.017508112 -0.076454401 0.062684052 1.5218415e-38
0.019208906 -0.076454401 0.062684052 1.5217333e-38
0.020909701 -0.076454401 0.062684052 1.5770143e-38
-0.10689169 -0.11531936 -0.09728802 1.7616966e-38
-0.10449611 -0.11441202 -0.093382366 1.918429e-38
-0.10220817 -0.11371385 -0.0903771 1.8538925e-38
-0.099412367 -0.11184154 -0.082317837 1.6510267e-38
-0.097457334 -0.11184154 -0.082317837 1.6511348e-38
-0.095210403 -0.11115701 -0.079371221 1.6880497e-38
-0.093260542 -0.11115701 -0.079371221 1.6236571e-38
-0.090925932 -0.11022164 -0.075344928 1.5868874e-38
-0.088983133 -0.11022164 -0.075344928 1.4948724e-38
-0.08676134 -0.10951753 -0.072314151 1.384454e-38
-0.084823847 -0.10951753 -0.072314151 1.3200614e-38
-0.082534358 -0.10859399 -0.068338759 1.2741078e-38
-0.080603838 -0.10859399 -0.068338759 1.218827e-38
-0.078673318 -0.10859399 -0.068338759 1.1451792e-38
-0.076414108 -0.10767709 -0.064391978 1.181987e-38
-0.073672175 -0.10534529 -0.054354914 1.0990476e-38
-0.071766183 -0.10534529 -0.054354914 9.7926562e-39
-0.069860175 -0.10534529 -0.054354914 9.3316781e-39
-0.067422181 -0.10372485 -0.04737974 9.3323969e-39
-0.065305233 -0.10302909 -0.044384845 9.6089838e-39
-0.063416719 -0.10302909 -0.044384845 9.7015326e-39
-0.061243776 -0.10209858 -0.040379532 9.7933639e-39
-0.059362281 -0.10209858 -0.040379532 9.7004396e-39
-0.05727357 -0.10138547 -0.037310012 1.366304e-38
-0.055397455 -0.10138547 -0.037310012 1.320133e-38
-0.053521339 -0.10138547 -0.037310012 1.5596607e-38
-0.051462267 -0.10070263 -0.034370668 1.8176252e-38
-0.049591307 -0.10070263 -0.034370668 1.9834672e-38
-0.047720347 -0.10070263 -0.034370668 2.0846656e-38
-0.0314405 -0.10372485 -0.04737974 2.2407501e-38
-0.029546726 -0.10372485 -0.04737974 2.2683366e-38
-0.02765296 -0.10372485 -0.04737974 2.2499336e-38
-0.025759187 -0.10372485 -0.04737974 2.2222387e-38
-0.024116125 -0.10534529 -0.054354914 2.1944718e-38
-0.022310399 -0.10602666 -0.05728782 2.1390825e-38
-0.020399254 -0.10602666 -0.05728782 2.0468146e-38
-0.018611282 -0.10695927 -0.061302193 1.9361079e-38
-0.0166931 -0.10695927 -0.061302193 1.8439845e-38
-0.014774915 -0.10695927 -0.061302193 1.6965801e-38
0.010656614 -0.080716297 0.051659875 1.4020951e-38
0.012376737 -0.080716297 0.051659875 1.3744367e-38
0.01409686 -0.080716297 0.051659875 1.3928042e-38
0.01580994 -0.078849927 0.059693627 1.4110284e-38
0.017515978 -0.078849927 0.059693627 1.4939328e-38
0.019208906 -0.07815519 0.062684052 1.5400662e-38
0.020909701 -0.07815519 0.062684052 1.6044947e-38
0.072287135 -0.093950883 -0.0053080395 6.0994725e-39
0.07410714 -0.093950883 -0.0053080395 6.4621369e-39
0.075927146 -0.093950883 -0.0053080395 5.8142452e-39
0.077928364 -0.094646841 -0.0083037689 5.9057121e-39
0.079753622 -0.094646841 -0.0083037689 4.9841075e-39
-0.10689169 -0.11730064 -0.09728802 2.1854694e-38
-0.10449611 -0.11638646 -0.093382366 2.240786e-38
-0.10220817 -0.115683 -0.0903771 2.1485917e-38
-0.099412367 -0.11379658 -0.082317837 1.9826769e-38
-0.097457334 -0.11379658 -0.082317837 2.0565051e-38
-0.095210403 -0.11310686 -0.079371221 2.1119293e-38
-0.093260542 -0.11310686 -0.079371221 2.0659398e-38
-0.090925932 -0.11216442 -0.075344928 2.0107667e-38
-0.088983133 -0.11216442 -0.075344928 1.9095325e-38
-0.08676134 -0.11145501 -0.072314151 1.7990429e-38
-0.084464893 -0.11052449 -0.068338759 1.6978086e-38
-0.082534358 -0.11052449 -0.068338759 1.6149773e-38
-0.080603838 -0.11052449 -0.068338759 1.5135992e-38
-0.078337699 -0.10960068 -0.064391978 1.4122566e-38
-0.07615678 -0.10887744 -0.061302193 1.3754154e-38
-0.073672175 -0.1072513 -0.054354914 1.3017313e-38
-0.071766183 -0.1072513 -0.054354914 1.2280114e-38
-0.070089012 -0.1079378 -0.05728782 1.2096085e-38
-0.067422181 -0.10561861 -0.04737974 1.2004611e-38
-0.065305233 -0.1049176 -0.044384845 1.1728746e-38
-0.063416719 -0.1049176 -0.044384845 1.0991181e-38
-0.061243776 -0.10398008 -0.040379532 1.0253613e-38
-0.059362281 -0.10398008 -0.040379532 1.0069221e-38
-0.05727357 -0.1032616 -0.037310012 1.1175205e-38
-0.055397455 -0.1032616 -0.037310012 1.0159609e-38
-0.053333241 -0.10257359 -0.034370668 1.080497e-38
-0.051210601 -0.10162716 -0.030327328 1.2462325e-38
-0.049346734 -0.10162716 -0.030327328 1.3107328e-38
-0.047720347 -0.10257359 -0.034370668 1.4305507e-38
-0.031277437 -0.094850481 -0.0013758019 2.2132353e-38
-0.029206585 -0.093446046 0.0046242401 2.2040518e-38
-0.027279321 -0.092737779 0.0076501295 2.2132353e-38
-0.025363356 -0.09203364 0.010658376 2.2316024e-38
-0.023571342 -0.09203364 0.010658376 2.2591531e-38
-0.02476164 -0.11145501 -0.072314151 2.2775202e-38
-0.02282415 -0.11145501 -0.072314151 2.2867037e-38
-0.02088666 -0.11145501 -0.072314151 2.2867037e-38
-0.018949166 -0.11145501 -0.072314151 2.2774125e-38
-0.017011676 -0.11145501 -0.072314151 2.2681931e-38
-0.015074186 -0.11145501 -0.072314151 2.1483038e-38
0.0089183077 -0.083129987 0.048696809 1.936614e-38
0.010656614 -0.082436413 0.051659875 1.7891012e-38
0.012376737 -0.082436413 0.051659875 1.6324407e-38
0.014099525 -0.081724837 0.05469989 1.5862352e-38
0.01580994 -0.080555961 0.059693627 1.8994494e-38
0.017515978 -0.080555961 0.059693627 2.0467829e-38
0.019222014 -0.080555961 0.059693627 2.1297942e-38
0.020909701 -0.079855993 0.062684052 2.092916e-38
0.022610493 -0.079855993 0.062684052 2.0652928e-38
0.072287135 -0.095770895 -0.0053080395 2.7811515e-39
0.07410714 -0.095770895 -0.0053080395 4.2519599e-39
0.075927146 -0.095770895 -0.0053080395 4.2490775e-39
0.077928364 -0.096472099 -0.0083037689 4.9869956e-39
0.079753622 -0.096472099 -0.0083037689 5.1710197e-39
0.08138717 -0.095770895 -0.0053080395 5.6323482e-39
0.083207175 -0.095770895 -0.0053080395 6.369186e-39
0.085229404 -0.096472099 -0.0083037689 5.722732e-39
0.087263338 -0.097177386 -0.011316903 5.9985874e-39
0.089093886 -0.097177386 -0.011316903 6.7347035e-39
0.090924427 -0.097177386 -0.011316903 5.9964028e-39
-0.10689169 -0.11928193 -0.09728802 2.3050708e-38
-0.10417733 -0.11765216 -0.0903771 2.3142544e-38
-0.10220817 -0.11765216 -0.0903771 2.2681931e-38
-0.099412367 -0.11575161 -0.082317837 2.1668505e-38
-0.097457334 -0.11575161 -0.082317837 2.2498978e-38
-0.095210403 -0.11505674 -0.079371221 2.2683366e-38
-0.093260542 -0.11505674 -0.079371221 2.2039441e-38
-0.090925932 -0.11410724 -0.075344928 2.1579905e-38
-0.088698834 -0.11339252 -0.072314151 2.0567562e-38
-0.08676134 -0.11339252 -0.072314151 1.9554861e-38
-0.084464893 -0.11245503 -0.068338759 1.8818742e-38
-0.082534358 -0.11245503 -0.068338759 1.799007e-38
-0.080261305 -0.11152427 -0.064391978 1.6976645e-38
-0.078337699 -0.11152427 -0.064391978 1.5962854e-38
-0.075822443 -0.10984896 -0.05728782 1.5502957e-38
-0.073911294 -0.10984896 -0.05728782 1.4857951e-38
-0.072000161 -0.10984896 -0.05728782 1.412111e-38
-0.069860175 -0.10915731 -0.054354914 1.3661217e-38
-0.067422181 -0.1075124 -0.04737974 1.3293161e-38
-0.065305233 -0.10680611 -0.044384845 1.2556681e-38
-0.063125268 -0.10586159 -0.040379532 1.1819485e-38
-0.061243776 -0.10586159 -0.040379532 1.1174479e-38
-0.059362281 -0.10586159 -0.040379532 1.1912047e-38
-0.05727357 -0.10513772 -0.037310012 1.1266325e-38
-0.055397455 -0.10513772 -0.037310012 1.1542912e-38
-0.053333241 -0.10444455 -0.034370668 1.181878e-38
-0.051210601 -0.10349102 -0.030327328 1.2279398e-38
-0.048983309 -0.10207425 -0.024319537 1.1817341e-38
-0.046955038 -0.10137187 -0.021341093 1.1171608e-38
-0.044875871 -0.10041572 -0.017286547 1.2921876e-38
-0.042872537 -0.099722609 -0.014347441 1.3380674e-38
-0.040874619 -0.099007934 -0.011316903 1.5316408e-38
-0.038733277 -0.097590908 -0.0053080395 1.7159242e-38
-0.036913272 -0.097590908 -0.0053080395 1.799007e-38
-0.034903664 -0.096663594 -0.0013758019 1.9279713e-38
-0.03309055 -0.096663594 -0.0013758019 2.0570432e-38
-0.031277437 -0.096663594 -0.0013758019 2.1213998e-38
-0.027279321 -0.094535068 0.0076501295 2.1397669e-38
-0.025363356 -0.093825653 0.010658376 2.158134e-38
-0.023571342 -0.093825653 0.010658376 2.1856847e-38
-0.021564975 -0.092419267 0.016622059 2.1948682e-38
-0.019678883 -0.091698244 0.019679539 2.2224189e-38
-0.017902691 -0.091698244 0.019679539 2.2224189e-38
-0.014350299 -0.091698244 0.019679539 2.2591531e-38
0.0072163679 -0.084156543 0.051659875 2.0284132e-38
0.0089364909 -0.084156543 0.051659875 2.0007905e-38
0.010656614 -0.084156543 0.051659875 1.9639122e-38
0.012376737 -0.084156543 0.051659875 1.9731318e-38
0.014099525 -0.083439633 0.05469989 2.0099384e-38
0.01580994 -0.082261994 0.059693627 2.1572361e-38
0.017515978 -0.082261994 0.059693627 2.147873e-38
0.019222014 -0.082261994 0.059693627 2.0741165e-38
0.020909701 -0.081556782 0.062684052 1.9728448e-38
0.022610493 -0.081556782 0.062684052 1.9544054e-38
0.068647116 -0.097590908 -0.0053080395 3.7038182e-39
0.070256844 -0.096663594 -0.0013758019 3.9807624e-39
0.072287135 -0.097590908 -0.0053080395 4.6250444e-39
0.07410714 -0.097590908 -0.0053080395 4.9912976e-39
0.075927146 -0.097590908 -0.0053080395 4.4370364e-39
0.077928364 -0.098297372 -0.0083037689 4.5292321e-39
0.079753622 -0.098297372 -0.0083037689 3.7913013e-39
0.08138717 -0.097590908 -0.0053080395 3.6991042e-39
0.083207175 -0.097590908 -0.0053080395 4.3437506e-39
0.085229404 -0.098297372 -0.0083037689 3.8816878e-39
0.087054662 -0.098297372 -0.0083037689 4.4334183e-39
0.088879921 -0.098297372 -0.0083037689 5.0776989e-39
0.090487204 -0.097590908 -0.0053080395 4.9836942e-39
0.09230721 -0.097590908 -0.0053080395 3.2312415e-39
0.094127215 -0.097590908 -0.0053080395 8.3269639e-40
0.095947221 -0.097590908 -0.0053080395 7.5109598e-43
-0.10689169 -0.12126322 -0.09728802 2.3141819e-38
-0.10417733 -0.11962132 -0.0903771 2.3418047e-38
-0.10220817 -0.11962132 -0.0903771 2.3418047e-38
-0.099412367 -0.11770664 -0.082317837 2.3049626e-38
-0.097457334 -0.11770664 -0.082317837 2.3234379e-38
-0.095210403 -0.11700659 -0.079371221 2.286632e-38
-0.093260542 -0.11700659 -0.079371221 2.2958873e-38
-0.090925932 -0.11605005 -0.075344928 2.2775202e-38
-0.088698834 -0.11533 -0.072314151 2.2316024e-38
-0.086395413 -0.11438553 -0.068338759 2.1948323e-38
-0.084464893 -0.11438553 -0.068338759 2.1948682e-38
-0.082184911 -0.11344786 -0.064391978 2.1856847e-38
-0.079993144 -0.1127138 -0.061302193 2.1213998e-38
-0.077733591 -0.11176009 -0.05728782 2.0477162e-38
-0.075822443 -0.11176009 -0.05728782 2.0201297e-38
-0.073672175 -0.11106332 -0.054354914 1.9096401e-38
-0.071766183 -0.11106332 -0.054354914 1.7713472e-38
-0.069623485 -0.11034258 -0.051321276 1.6147234e-38
-0.067422181 -0.10940616 -0.04737974 1.5041974e-38
-0.065305233 -0.10869466 -0.044384845 1.4398053e-38
-0.063125268 -0.10774307 -0.040379532 1.4213672e-38
-0.061243776 -0.10774307 -0.040379532 1.4121846e-38
-0.059149701 -0.10701384 -0.037310012 1.3753432e-38
-0.05727357 -0.10701384 -0.037310012 1.2370865e-38
-0.05493835 -0.10535492 -0.030327328 1.3109156e-38
-0.053074483 -0.10535492 -0.030327328 1.2186845e-38
-0.0510231 -0.10463922 -0.027314909 1.2647827e-38
-0.048983309 -0.1039276 -0.024319537 1.3200634e-38
-0.046955038 -0.10322 -0.021341093 1.2370165e-38
-0.044875871 -0.10225673 -0.017286547 1.3291752e-38
-0.042872537 -0.10155846 -0.014347441 1.4305167e-38
-0.040874619 -0.10083848 -0.011316903 1.4582102e-38
-0.038733277 -0.099410906 -0.0053080395 1.4304797e-38
-0.036913272 -0.099410906 -0.0053080395 1.3291364e-38
-0.034903664 -0.098476708 -0.0013758019 1.3014777e-38
-0.03309055 -0.098476708 -0.0013758019 1.356795e-38
-0.03114057 -0.097749382 0.0016856119 1.3751979e-38
-0.029206585 -0.097051233 0.0046242401 1.3566506e-38
-0.027279321 -0.096332356 0.0076501295 1.4395905e-38
-0.025363356 -0.095617667 0.010658376 1.5040548e-38
-0.023571342 -0.095617667 0.010658376 1.6145814e-38
-0.021564975 -0.094200835 0.016622059 1.7528023e-38
-0.019678883 -0.093474448 0.019679539 1.909389e-38
-0.017902691 -0.093474448 0.019679539 2.0291697e-38
-0.016126495 -0.093474448 0.019679539 2.1121445e-38
0.0072163679 -0.085876659 0.051659875 2.341805e-38
0.0089364909 -0.085876659 0.051659875 2.3509527e-38
0.010656614 -0.085876659 0.051659875 2.3417691e-38
0.012384731 -0.085154429 0.05469989 2.3325497e-38
0.014099525 -0.085154429 0.05469989 2.3509527e-38
0.015811753 -0.084459022 0.057626955 2.3508809e-38
0.017521413 -0.084459022 0.057626955 2.3508451e-38
0.019222014 -0.083968028 0.059693627 2.3507374e-38
0.020909701 -0.083257571 0.062684052 2.3509168e-38
0.022610493 -0.083257571 0.062684052 2.3509168e-38
0.044352595 -0.094200835 0.016622059 7.0271405e-39
0.046134152 -0.094200835 0.016622059 7.2111828e-39
0.047816534 -0.093474448 0.019679539 7.3952181e-39
0.049592726 -0.093474448 0.019679539 7.3952237e-39
0.064817503 -0.098476708 -0.0013758019 6.5611583e-39
0.066630617 -0.098476708 -0.0013758019 5.9157861e-39
0.068647116 -0.099410906 -0.0053080395 4.9941829e-39
0.070256844 -0.098476708 -0.0013758019 4.3488135e-39
0.072069958 -0.098476708 -0.0013758019 4.440279e-39
0.073883072 -0.098476708 -0.0013758019 3.9785652e-39
0.075927146 -0.099410906 -0.0053080395 3.0569592e-39
0.077747151 -0.099410906 -0.0053080395 2.9640447e-39
0.079567164 -0.099410906 -0.0053080395 1.857337e-39
0.08138717 -0.099410906 -0.0053080395 1.6729458e-39
0.083207175 -0.099410906 -0.0053080395 2.5938217e-39
0.085027181 -0.099410906 -0.0053080395 2.6838593e-39
0.087054662 -0.10012263 -0.0083037689 3.512178e-39
0.088879921 -0.10012263 -0.0083037689 1.4824294e-39
0.090487204 -0.099410906 -0.0053080395 2.31146e-39
0.09230721 -0.099410906 -0.0053080395 2.2174511e-39
0.094127215 -0.099410906 -0.0053080395 1.0174506e-39
0.095947221 -0.099410906 -0.0053080395 4.6353552e-40
0.097767226 -0.099410906 -0.0053080395 9.2485278e-40
-0.10689169 -0.12324448 -0.09728802 2.3418045e-38
-0.10417733 -0.12159048 -0.0903771 2.3418043e-38
-0.1013674 -0.11966167 -0.082317837 2.3509879e-38
-0.099412367 -0.11966167 -0.082317837 2.3509879e-38
-0.097160265 -0.11895646 -0.079371221 2.3418045e-38
-0.095210403 -0.11895646 -0.079371221 2.3418045e-38
-0.092868745 -0.11799283 -0.075344928 2.3141819e-38
-0.090925932 -0.11799283 -0.075344928 2.3234379e-38
-0.088698834 -0.11726747 -0.072314151 2.3142544e-38
-0.086395413 -0.11631607 -0.068338759 2.2958873e-38
-0.084464893 -0.11631607 -0.068338759 2.2867037e-38
-0.082184911 -0.11537148 -0.064391978 2.2775202e-38
-0.079993144 -0.114632 -0.061302193 2.2499336e-38
-0.077733591 -0.11367123 -0.05728782 2.240786e-38
-0.075822443 -0.11367123 -0.05728782 2.1580623e-38
-0.073672175 -0.11296929 -0.054354914 2.0937057e-38
-0.071524158 -0.11224325 -0.051321276 1.9922548e-38
-0.069315955 -0.11129995 -0.04737974 1.8541061e-38
-0.067193761 -0.11058317 -0.044384845 1.78957e-38
-0.065305233 -0.11058317 -0.044384845 1.7528363e-38
-0.063125268 -0.10962458 -0.040379532 1.7159592e-38
-0.061025817 -0.10888995 -0.037310012 1.6330923e-38
-0.059149701 -0.10888995 -0.037310012 1.5410057e-38
-0.057075161 -0.10818647 -0.034370668 1.4488112e-38
-0.05493835 -0.10721879 -0.030327328 1.3659078e-38
-0.052881692 -0.10649781 -0.027314909 1.3659445e-38
-0.050836656 -0.10578094 -0.024319537 1.3567616e-38
-0.048803154 -0.1050681 -0.021341093 1.338287e-38
-0.04671688 -0.10409774 -0.017286547 1.3107005e-38
-0.04470839 -0.10339431 -0.014347441 1.3199558e-38
-0.042872537 -0.10339431 -0.014347441 1.3754517e-38
-0.040874619 -0.10266902 -0.011316903 1.366304e-38
-0.038888227 -0.10194789 -0.0083037689 1.3662681e-38
-0.036913272 -0.10123092 -0.0053080395 1.3202064e-38
-0.034903664 -0.10028981 -0.0013758019 1.2833285e-38
-0.032948304 -0.099557132 0.0016856119 1.2464502e-38
-0.031009179 -0.098853827 0.0046242401 1.2371588e-38
-0.029076602 -0.098129645 0.0076501295 1.2371944e-38
-0.027279321 -0.098129645 0.0076501295 1.2186472e-38
-0.025363356 -0.09740968 0.010658376 1.1448547e-38
-0.023571342 -0.09740968 0.010658376 1.1539661e-38
-0.021564975 -0.095982388 0.016622059 1.2737841e-38
-0.019678883 -0.095250636 0.019679539 1.4212605e-38
-0.017902691 -0.095250636 0.019679539 1.5594455e-38
-0.016126495 -0.095250636 0.019679539 1.7161398e-38
-0.014350299 -0.095250636 0.019679539 1.8911295e-38
-0.012574103 -0.095250636 0.019679539 2.0476444e-38
-0.010797907 -0.095250636 0.019679539 2.1396593e-38
-0.0090217143 -0.095250636 0.019679539 2.1948682e-38
-0.0072455183 -0.095250636 0.019679539 2.2132353e-38
0.0071694702 -0.089019388 0.045715801 2.3050703e-38
0.0089364909 -0.087596789 0.051659875 2.3049621e-38
0.010656614 -0.087596789 0.051659875 2.3141455e-38
0.012384731 -0.086869225 0.05469989 2.3509876e-38
0.014099525 -0.086869225 0.05469989 2.3509876e-38
0.015814317 -0.086869225 0.05469989 2.3509876e-38
0.017529111 -0.086869225 0.05469989 2.3509876e-38
0.019231074 -0.086168692 0.057626955 2.3418043e-38
0.020940734 -0.086168692 0.057626955 2.3234372e-38
0.042571038 -0.095982388 0.016622059 9.7940659e-39
0.044352595 -0.095982388 0.016622059 1.0436949e-38
0.046134152 -0.095982388 0.016622059 1.1173437e-38
0.047816534 -0.095250636 0.019679539 1.1542214e-38
0.049592726 -0.095250636 0.019679539 1.0896495e-38
0.051368922 -0.095250636 0.019679539 9.6968887e-39
0.053145118 -0.095250636 0.019679539 8.4983455e-39
0.055041932 -0.095982388 0.016622059 8.2210425e-39
0.056945987 -0.096693933 0.013648979 8.3132382e-39
0.058990445 -0.098129645 0.0076501295 8.2206796e-39
0.060787734 -0.098129645 0.0076501295 7.9440899e-39
0.062725618 -0.098853827 0.0046242401 7.2987177e-39
0.064669892 -0.099557132 0.0016856119 6.5604296e-39
0.066477641 -0.099557132 0.0016856119 5.4544366e-39
0.06844373 -0.10028981 -0.0013758019 4.5324747e-39
0.070256844 -0.10028981 -0.0013758019 4.0714965e-39
0.071900874 -0.099557132 0.0016856119 3.9792897e-39
0.073708624 -0.099557132 0.0016856119 3.0580368e-39
0.075696185 -0.10028981 -0.0013758019 2.8739959e-39
0.077509291 -0.10028981 -0.0013758019 2.4119387e-39
0.079322405 -0.10028981 -0.0013758019 2.4119387e-39
0.08138717 -0.10123092 -0.0053080395 3.056948e-39
0.083207175 -0.10123092 -0.0053080395 2.5952538e-39
0.085027181 -0.10123092 -0.0053080395 2.3161488e-39
0.087054662 -0.10194789 -0.0083037689 2.7756892e-39
0.088879921 -0.10194789 -0.0083037689 1.0225303e-39
0.090487204 -0.10123092 -0.0053080395 2.1270688e-39
0.09230721 -0.10123092 -0.0053080395 2.495117e-39
0.094127215 -0.10123092 -0.0053080395 1.6639018e-39
0.095947221 -0.10123092 -0.0053080395 8.3339984e-40
-0.10689169 -0.12522577 -0.09728802 2.3418045e-38
-0.10417733 -0.12355967 -0.0903771 2.3418043e-38
-0.1013674 -0.12161671 -0.082317837 2.3509879e-38
-0.099412367 -0.12161671 -0.082317837 2.3509876e-38
-0.097160265 -0.12090631 -0.079371221 2.3509876e-38
-0.094811544 -0.11993565 -0.075344928 2.3509876e-38
-0.092868745 -0.11993565 -0.075344928 2.3509876e-38
-0.090636328 -0.11920498 -0.072314151 2.3325846e-38
-0.088698834 -0.11920498 -0.072314151 2.2957065e-38
-0.086395413 -0.11824657 -0.068338759 2.3049261e-38
-0.084464893 -0.11824657 -0.068338759 2.3325492e-38
-0.082184911 -0.11729507 -0.064391978 2.3326213e-38
-0.079993144 -0.11655019 -0.061302193 2.341805e-38
-0.077733591 -0.11558239 -0.05728782 2.3234379e-38
-0.075822443 -0.11558239 -0.05728782 2.2499336e-38
-0.073672175 -0.1148753 -0.054354914 2.2591531e-38
-0.071524158 -0.11414395 -0.051321276 2.2316024e-38
-0.069315955 -0.11319371 -0.04737974 2.2040159e-38
-0.067193761 -0.11247168 -0.044384845 2.1856847e-38
-0.065305233 -0.11247168 -0.044384845 2.1856847e-38
-0.063125268 -0.11150609 -0.040379532 2.1304758e-38
-0.061025817 -0.11076607 -0.037310012 2.0476086e-38
-0.059149701 -0.11076607 -0.037310012 1.9647414e-38
-0.056802217 -0.10908265 -0.030327328 1.8265577e-38
-0.054740284 -0.1083564 -0.027314909 1.6883022e-38
-0.052881692 -0.1083564 -0.027314909 1.6238738e-38
-0.050836656 -0.10763429 -0.024319537 1.5686291e-38
-0.048803154 -0.10691623 -0.021341093 1.504129e-38
-0.04671688 -0.10593875 -0.017286547 1.4672154e-38
-0.04470839 -0.10523017 -0.014347441 1.4304812e-38
-0.042872537 -0.10523017 -0.014347441 1.2648175e-38
-0.040874619 -0.10449956 -0.011316903 1.2557061e-38
-0.038888227 -0.10377313 -0.0083037689 1.2649256e-38
-0.036913272 -0.10305093 -0.0053080395 1.2558143e-38
-0.035093267 -0.10305093 -0.0053080395 1.2557785e-38
-0.032948304 -0.10136487 0.0016856119 1.2374114e-38
-0.031009179 -0.10065642 0.0046242401 1.2281561e-38
-0.029076602 -0.099926919 0.0076501295 1.2281203e-38
-0.027279321 -0.099926919 0.0076501295 1.1359248e-38
-0.025363356 -0.099201679 0.010658376 1.02529e-38
-0.023571342 -0.099201679 0.010658376 9.6986473e-39
-0.021671839 -0.098480701 0.013648979 9.9748713e-39
-0.019783419 -0.097763941 0.016622059 1.0342932e-38
-0.018001866 -0.097763941 0.016622059 1.0618797e-38
-0.016126495 -0.09702684 0.019679539 1.0895381e-38
-0.014350299 -0.09702684 0.019679539 1.1816248e-38
-0.012574103 -0.09702684 0.019679539 1.2828941e-38
-0.010720644 -0.09629415 0.022718661 1.347322e-38
-0.0088806488 -0.09559007 0.025639169 1.4118228e-38
-0.0070490763 -0.094865978 0.028642647 1.485579e-38
-0.0052885972 -0.094865978 0.028642647 1.6053967e-38
-0.0035281181 -0.094865978 0.028642647 1.7712764e-38
-0.0016668253 -0.093406871 0.034694962 1.9739967e-38
8.3040446e-05 -0.093406871 0.034694962 2.102961e-38
0.0019115433 -0.091965273 0.040674619 2.1765011e-38
0.0036509261 -0.091965273 0.040674619 2.2224189e-38
0.0053903107 -0.091965273 0.040674619 2.2316024e-38
0.0071929898 -0.090031251 0.048696809 2.2591531e-38
0.0089364909 -0.089316905 0.051659875 2.2867037e-38
0.010656614 -0.089316905 0.051659875 2.2958873e-38
0.012384731 -0.088584006 0.05469989 2.2866674e-38
0.014099525 -0.088584006 0.05469989 2.2498968e-38
0.015814317 -0.088584006 0.05469989 2.2867034e-38
0.017529111 -0.088584006 0.05469989 2.2683362e-38
0.019231074 -0.087878346 0.057626955 2.2407857e-38
0.020940734 -0.087878346 0.057626955 2.2132353e-38
0.031580668 -0.093406871 0.034694962 2.1856847e-38
0.033330537 -0.093406871 0.034694962 2.0754462e-38
0.035020925 -0.092695728 0.037644736 1.7345777e-38
0.036765624 -0.092695728 0.037644736 1.5228531e-38
0.038510323 -0.092695728 0.037644736 1.5231418e-38
0.040330008 -0.093406871 0.034694962 1.4957705e-38
0.04224436 -0.094865978 0.028642647 1.4219792e-38
0.044352595 -0.097763941 0.016622059 1.2835085e-38
0.046134152 -0.097763941 0.016622059 1.283365e-38
0.047915708 -0.097763941 0.016622059 1.2187932e-38
0.049697261 -0.097763941 0.016622059 1.1081243e-38
0.051368922 -0.09702684 0.019679539 9.5135736e-39
0.053145118 -0.09702684 0.019679539 8.1306392e-39
0.055041932 -0.097763941 0.016622059 7.3001582e-39
0.056945987 -0.098480701 0.013648979 6.8391801e-39
0.058732755 -0.098480701 0.013648979 6.7462628e-39
0.060653236 -0.099201679 0.010658376 6.1930862e-39
0.062585019 -0.099926919 0.0076501295 5.5473553e-39
0.064528205 -0.10065642 0.0046242401 4.7175918e-39
0.066330798 -0.10065642 0.0046242401 3.9803799e-39
0.068285383 -0.10136487 0.0016856119 3.6108757e-39
0.070256844 -0.10210292 -0.0013758019 3.0576991e-39
0.071900874 -0.10136487 0.0016856119 2.7814639e-39
0.073708624 -0.10136487 0.0016856119 3.5197338e-39
0.075696185 -0.10210292 -0.0013758019 3.4271697e-39
0.077509291 -0.10210292 -0.0013758019 2.597409e-39
0.079322405 -0.10210292 -0.0013758019 2.5963328e-39
0.08138717 -0.10305093 -0.0053080395 2.9643965e-39
0.082948633 -0.10210292 -0.0013758019 2.4108625e-39
0.084761739 -0.10210292 -0.0013758019 1.8558909e-39
0.086847186 -0.10305093 -0.0053080395 2.3154299e-39
0.088879921 -0.10377313 -0.0083037689 2.6820502e-39
0.090487204 -0.10305093 -0.0053080395 2.773157e-39
0.09230721 -0.10305093 -0.0053080395 3.1404864e-39
0.094127215 -0.10305093 -0.0053080395 1.8490091e-39
-0.10689169 -0.12720706 -0.09728802 2.3234379e-38
-0.10417733 -0.12552883 -0.0903771 2.3234376e-38
-0.1013674 -0.12357174 -0.082317837 2.3418045e-38
-0.099412367 -0.12357174 -0.082317837 2.3509879e-38
-0.097160265 -0.12285618 -0.079371221 2.3509876e-38
-0.094811544 -0.12187846 -0.075344928 2.3509876e-38
-0.092868745 -0.12187846 -0.075344928 2.3509876e-38
-0.090636328 -0.12114246 -0.072314151 2.3140013e-38
-0.088698834 -0.12114246 -0.072314151 2.3508795e-38
-0.086395413 -0.12017711 -0.068338759 2.3509517e-38
-0.084464893 -0.12017711 -0.068338759 2.3509517e-38
-0.082184911 -0.11921866 -0.064391978 2.350916e-38
-0.079993144 -0.11846836 -0.061302193 2.3508079e-38
-0.077733591 -0.11749353 -0.05728782 2.3139661e-38
-0.075822443 -0.11749353 -0.05728782 2.3325856e-38
-0.073672175 -0.11678131 -0.054354914 2.3234379e-38
-0.071524158 -0.11604463 -0.051321276 2.3142544e-38
-0.069315955 -0.11508749 -0.04737974 2.2958873e-38
-0.067193761 -0.1143602 -0.044384845 2.2958873e-38
-0.065305233 -0.1143602 -0.044384845 2.2867037e-38
-0.063125268 -0.11338757 -0.040379532 2.2775202e-38
-0.061025817 -0.11264218 -0.037310012 2.1947606e-38
-0.058946121 -0.11192839 -0.034370668 2.1303323e-38
-0.056802217 -0.11094652 -0.030327328 2.0106233e-38
-0.054740284 -0.11021499 -0.027314909 1.9092451e-38
-0.052690003 -0.10948761 -0.024319537 1.8356329e-38
-0.050651271 -0.10876434 -0.021341093 1.7895716e-38
-0.048803154 -0.10876434 -0.021341093 1.6974485e-38
-0.04671688 -0.10777976 -0.017286547 1.6145087e-38
-0.04470839 -0.10706602 -0.014347441 1.522494e-38
-0.042872537 -0.10706602 -0.014347441 1.4859054e-38
-0.040874619 -0.10633011 -0.011316903 1.4031458e-38
-0.038888227 -0.10559841 -0.0083037689 1.3386456e-38
-0.036913272 -0.10487093 -0.0053080395 1.3017676e-38
-0.035093267 -0.10487093 -0.0053080395 1.2742532e-38
-0.032948304 -0.10317262 0.0016856119 1.2650697e-38
-0.031009179 -0.10245901 0.0046242401 1.246595e-38
-0.029076602 -0.10172421 0.0076501295 1.2190085e-38
-0.027279321 -0.10172421 0.0076501295 1.1913502e-38
-0.025482029 -0.10172421 0.0076501295 1.089936e-38
-0.023571342 -0.10099369 0.010658376 1.025399e-38
-0.021671839 -0.10026747 0.013648979 1.0621694e-38
-0.019783419 -0.099545494 0.016622059 1.0806082e-38
-0.018001866 -0.099545494 0.016622059 1.0621331e-38
-0.016126495 -0.098803028 0.019679539 1.0344744e-38
-0.014350299 -0.098803028 0.019679539 1.0436935e-38
-0.012491513 -0.098065019 0.022718661 9.884112e-39
-0.010646395 -0.097355813 0.025639169 9.8844637e-39
-0.0088095553 -0.096626461 0.028642647 1.016033e-38
-0.0070490763 -0.096626461 0.028642647 1.0436196e-38
-0.0052283965 -0.095901415 0.031628363 1.1357787e-38
-0.0034731515 -0.095901415 0.031628363 1.3016583e-38
-0.0016176924 -0.094440416 0.037644736 1.5043801e-38
0.0001270026 -0.094440416 0.037644736 1.6426356e-38
0.0019115433 -0.093704656 0.040674619 1.8083699e-38
0.0036852472 -0.092973351 0.043686144 1.909676e-38
0.0054389238 -0.092480466 0.045715801 1.9925431e-38
0.0071929898 -0.091756567 0.048696809 2.0477162e-38
0.0089364909 -0.091037035 0.051659875 2.1305834e-38
0.010656614 -0.091037035 0.051659875 2.1856847e-38
0.012376737 -0.091037035 0.051659875 2.1948682e-38
0.014099525 -0.090298802 0.05469989 2.1765011e-38
0.015814317 -0.090298802 0.05469989 2.158134e-38
0.017529111 -0.090298802 0.05469989 2.1305834e-38
0.019231074 -0.089588001 0.057626955 2.1030327e-38
0.020940734 -0.089588001 0.057626955 2.0662985e-38
0.026262917 -0.093704656 0.040674619 2.0111972e-38
0.031531535 -0.094440416 0.037644736 1.946733e-38
