# .PCD v0.7 - Point Cloud Data file format
VERSION 0.7
FIELDS x y z rgb
SIZE 4 4 4 4
TYPE F F F F
COUNT 1 1 1 1
WIDTH 932
HEIGHT 1
VIEWPOINT 0 0 0 1 0 0 0
POINTS 932
DATA ascii
-0.007326901 -0.082336128 -0.045310788 2.3509886e-38
-0.0054683089 -0.082336128 -0.045310788 2.3509886e-38
-0.0036097169 -0.082336128 -0.045310788 2.3417691e-38
-0.0017537661 -0.082988426 -0.048323207 2.3509879e-38
0.00011010841 -0.082988426 -0.048323207 2.3509856e-38
0.0019660592 -0.082336128 -0.045310788 2.3509865e-38
0.0038246512 -0.082336128 -0.045310788 2.2867037e-38
0.00570173 -0.082988426 -0.048323207 2.1027816e-38
0.0075656036 -0.082988426 -0.048323207 1.8359923e-38
0.0094294772 -0.082988426 -0.048323207 1.3200943e-38
0.011293352 -0.082988426 -0.048323207 1.2005294e-38
-0.095482469 -0.10624625 -0.14633018 4.9825507e-39
-0.093446761 -0.10624625 -0.14633018 7.1041432e-39
-0.091411039 -0.10624625 -0.14633018 9.4094137e-39
-0.089375332 -0.10624625 -0.14633018 1.0424307e-38
-0.087339625 -0.10624625 -0.14633018 1.0425045e-38
-0.085303903 -0.10624625 -0.14633018 9.5967379e-39
-0.082984835 -0.10537519 -0.14233989 8.4918435e-39
-0.080956131 -0.10537519 -0.14233989 8.3088984e-39
-0.078927413 -0.10537519 -0.14233989 8.2181475e-39
-0.076638132 -0.10451011 -0.13837689 8.1270364e-39
-0.074616358 -0.10451011 -0.13837689 8.7738506e-39
-0.072341457 -0.10362239 -0.13431019 1.0340819e-38
-0.07032682 -0.10362239 -0.13431019 1.0710313e-38
-0.068312183 -0.10362239 -0.13431019 1.0618478e-38
-0.066297546 -0.10362239 -0.13431019 1.1264555e-38
-0.064726397 -0.10537519 -0.14233989 1.2189006e-38
-0.062911063 -0.10624625 -0.14633018 1.2744681e-38
-0.06087536 -0.10624625 -0.14633018 1.3115255e-38
-0.058839638 -0.10624625 -0.14633018 1.2655719e-38
-0.056611527 -0.10537519 -0.14233989 1.3301079e-38
-0.054398682 -0.10451011 -0.13837689 1.3945362e-38
-0.052020352 -0.10276926 -0.13040191 1.5600912e-38
-0.049840283 -0.10189377 -0.12639123 1.9099988e-38
-0.047712382 -0.10122015 -0.12330537 2.158134e-38
-0.045560766 -0.10035546 -0.11934417 2.1947247e-38
-0.043158788 -0.097960562 -0.10837298 2.3509886e-38
-0.0410465 -0.097091287 -0.10439079 2.3509521e-38
-0.038944926 -0.096201301 -0.10031372 2.3508446e-38
-0.036989894 -0.096201301 -0.10031372 2.3509168e-38
-0.034820911 -0.094679192 -0.093340807 2.3324421e-38
-0.032878108 -0.094679192 -0.093340807 2.3509527e-38
-0.030935302 -0.094679192 -0.093340807 2.3509527e-38
-0.028915446 -0.094017595 -0.09031003 2.3509886e-38
-0.026977953 -0.094017595 -0.09031003 2.3509886e-38
-0.024953336 -0.093149811 -0.086334638 2.3509886e-38
-0.022943236 -0.092288271 -0.082387857 2.3509886e-38
-0.020962752 -0.091613799 -0.079298072 2.3509886e-38
-0.018878322 -0.089435071 -0.069317155 2.3509886e-38
-0.016918894 -0.088574663 -0.065375619 2.3509886e-38
-0.014933068 -0.087046593 -0.058375411 2.3509886e-38
-0.012983087 -0.085734919 -0.052366547 2.3233302e-38
-0.011112127 -0.085734919 -0.052366547 2.3233302e-38
-0.0092092603 -0.084852293 -0.048323207 2.3509886e-38
-0.007326901 -0.08419472 -0.045310788 2.3509886e-38
-0.0054683089 -0.08419472 -0.045310788 2.3325497e-38
-0.0036097169 -0.08419472 -0.045310788 2.2772323e-38
-0.0017537661 -0.084852293 -0.048323207 2.3232944e-38
0.00011010841 -0.084852293 -0.048323207 2.267942e-38
0.0019660592 -0.08419472 -0.045310788 2.3142185e-38
0.0038246512 -0.08419472 -0.045310788 2.2316024e-38
0.00570173 -0.084852293 -0.048323207 1.8080108e-38
0.0075656036 -0.084852293 -0.048323207 1.5317514e-38
0.0094294772 -0.084852293 -0.048323207 1.1910261e-38
0.011293352 -0.084852293 -0.048323207 1.1544351e-38
-0.095482469 -0.10828196 -0.14633018 5.6282774e-39
-0.093446761 -0.10828196 -0.14633018 6.0899899e-39
-0.091411039 -0.10828196 -0.14633018 6.2747595e-39
-0.089375332 -0.10828196 -0.14633018 7.475123e-39
-0.087339625 -0.10828196 -0.14633018 1.0979657e-38
-0.085303903 -0.10828196 -0.14633018 1.291722e-38
-0.082984835 -0.10740392 -0.14233989 1.1812681e-38
-0.08012934 -0.10477705 -0.13040191 1.0062772e-38
-0.077850819 -0.10389452 -0.12639123 9.5110415e-39
-0.07585007 -0.10389452 -0.12639123 8.4983315e-39
-0.07384932 -0.10389452 -0.12639123 8.3153836e-39
-0.072098196 -0.10477705 -0.13040191 9.2377056e-39
-0.070090413 -0.10477705 -0.13040191 9.4228199e-39
-0.068312183 -0.10563703 -0.13431019 9.6072112e-39
-0.066297546 -0.10563703 -0.13431019 1.0345482e-38
-0.064726397 -0.10740392 -0.14233989 1.0897544e-38
-0.062697679 -0.10740392 -0.14233989 1.2374097e-38
-0.06087536 -0.10828196 -0.14633018 1.2745761e-38
-0.058839638 -0.10828196 -0.14633018 1.2655002e-38
-0.056611527 -0.10740392 -0.14233989 1.3670214e-38
-0.054209728 -0.10563703 -0.13431019 1.4959857e-38
-0.051841039 -0.10389452 -0.12639123 1.5601271e-38
-0.049707722 -0.1032155 -0.12330537 1.6150473e-38
-0.047549162 -0.10234386 -0.11934417 2.0845939e-38
-0.045560766 -0.10234386 -0.11934417 2.2683366e-38
-0.043158788 -0.09992972 -0.10837298 2.3509879e-38
-0.0410465 -0.099053472 -0.10439079 2.3509873e-38
-0.038944926 -0.098156333 -0.10031372 2.3508441e-38
-0.036894318 -0.097507954 -0.0973671 2.3507728e-38
-0.034820911 -0.09662199 -0.093340807 2.3509168e-38
-0.032790426 -0.095955089 -0.09031003 2.3509527e-38
-0.030852936 -0.095955089 -0.09031003 2.3509527e-38
-0.028915446 -0.095955089 -0.09031003 2.3509886e-38
-0.026883859 -0.095080331 -0.086334638 2.3509886e-38
-0.024866838 -0.094211861 -0.082387857 2.3509886e-38
-0.022943236 -0.094211861 -0.082387857 2.3509886e-38
-0.020888846 -0.09264864 -0.075283699 2.3509886e-38
-0.018878322 -0.091335744 -0.069317155 2.3509886e-38
-0.016918894 -0.090468436 -0.065375619 2.3509886e-38
-0.014933068 -0.088928089 -0.058375411 2.3509886e-38
-0.012983087 -0.087605879 -0.052366547 2.304891e-38
-0.011112127 -0.087605879 -0.052366547 2.3509886e-38
-0.0092092603 -0.086716175 -0.048323207 2.3509886e-38
-0.007326901 -0.086053312 -0.045310788 2.3233302e-38
-0.0054683089 -0.086053312 -0.045310788 2.3233302e-38
-0.0036097169 -0.086053312 -0.045310788 2.3509886e-38
-0.0017511249 -0.086053312 -0.045310788 2.341805e-38
0.00011010841 -0.086716175 -0.048323207 2.3142544e-38
0.0019660592 -0.086053312 -0.045310788 2.2499695e-38
0.0038246512 -0.086053312 -0.045310788 1.8539627e-38
0.00570173 -0.086716175 -0.048323207 1.3011517e-38
0.0075656036 -0.086716175 -0.048323207 1.2092134e-38
0.0094684688 -0.087605879 -0.052366547 1.089649e-38
0.011339432 -0.087605879 -0.052366547 1.071605e-38
-0.095810056 -0.11120884 -0.15034813 5.2605627e-39
-0.093446761 -0.11031766 -0.14633018 5.629718e-39
-0.091411039 -0.11031766 -0.14633018 4.5244704e-39
-0.089375332 -0.11031766 -0.14633018 4.8947103e-39
-0.087339625 -0.11031766 -0.14633018 8.8605811e-39
-0.085013554 -0.10943262 -0.14233989 1.2182157e-38
-0.082703426 -0.10855366 -0.13837689 1.2091412e-38
-0.08012934 -0.10678484 -0.13040191 1.1171619e-38
-0.077850819 -0.10589527 -0.12639123 1.0896477e-38
-0.07585007 -0.10589527 -0.12639123 9.7919304e-39
-0.07384932 -0.10589527 -0.12639123 9.1472868e-39
-0.072098196 -0.10678484 -0.13040191 9.0565317e-39
-0.070090413 -0.10678484 -0.13040191 8.5040796e-39
-0.068312183 -0.10765167 -0.13431019 8.596278e-39
-0.066297546 -0.10765167 -0.13431019 9.8852162e-39
-0.064282909 -0.10765167 -0.13431019 1.0803924e-38
-0.062697679 -0.10943262 -0.14233989 1.246308e-38
-0.060668964 -0.10943262 -0.14233989 1.246595e-38
-0.058442216 -0.10855366 -0.13837689 1.2375908e-38
-0.056224365 -0.10765167 -0.13431019 1.3115255e-38
-0.054028135 -0.10678484 -0.13040191 1.4589646e-38
-0.051703069 -0.10521083 -0.12330537 1.5231418e-38
-0.049707722 -0.10521083 -0.12330537 1.4858301e-38
-0.047549162 -0.10433225 -0.11934417 1.8816569e-38
-0.045560766 -0.10433225 -0.11934417 2.2867037e-38
-0.043008674 -0.10101564 -0.10439079 2.3417676e-38
-0.0410465 -0.10101564 -0.10439079 2.3509149e-38
-0.038844179 -0.099457815 -0.0973671 2.3509514e-38
-0.036763716 -0.098564804 -0.093340807 2.3508441e-38
-0.034727916 -0.097892582 -0.09031003 2.3509527e-38
-0.032675419 -0.097010851 -0.086334638 2.341805e-38
-0.030744899 -0.097010851 -0.086334638 2.3509527e-38
-0.028814379 -0.097010851 -0.086334638 2.3509886e-38
-0.026883859 -0.097010851 -0.086334638 2.3509886e-38
-0.024866838 -0.096135467 -0.082387857 2.3509886e-38
-0.022943236 -0.096135467 -0.082387857 2.3509886e-38
-0.020888846 -0.094559789 -0.075283699 2.3509886e-38
-0.018878322 -0.093236431 -0.069317155 2.3509886e-38
-0.016977634 -0.093236431 -0.069317155 2.3509886e-38
-0.012983087 -0.089476839 -0.052366547 2.304891e-38
-0.011112127 -0.089476839 -0.052366547 2.3509886e-38
-0.0092092603 -0.088580042 -0.048323207 2.3509886e-38
-0.007326901 -0.087911904 -0.045310788 2.2495736e-38
-0.0054551791 -0.087247536 -0.042315416 2.3509886e-38
-0.0036018398 -0.087247536 -0.042315416 2.3509886e-38
-0.0017484985 -0.087247536 -0.042315416 2.1483374e-38
0.00010746717 -0.087911904 -0.045310788 2.2591508e-38
0.0019660592 -0.087911904 -0.045310788 1.9923956e-38
0.0038246512 -0.087911904 -0.045310788 1.4486254e-38
0.00570173 -0.088580042 -0.048323207 1.0800989e-38
0.007597506 -0.089476839 -0.052366547 1.1173047e-38
0.0094684688 -0.089476839 -0.052366547 1.0161439e-38
-0.095810056 -0.11325158 -0.15034813 5.1683643e-39
-0.093446761 -0.11235337 -0.14633018 6.4594772e-39
-0.091411039 -0.11235337 -0.14633018 6.2765405e-39
-0.089375332 -0.11235337 -0.14633018 5.1716517e-39
-0.087042272 -0.11146136 -0.14233989 6.740432e-39
-0.084725201 -0.11057542 -0.13837689 9.6932243e-39
-0.082137123 -0.10879262 -0.13040191 1.0801381e-38
-0.079851568 -0.10789602 -0.12639123 1.071099e-38
-0.077642515 -0.10720618 -0.12330537 1.1265607e-38
-0.075647175 -0.10720618 -0.12330537 1.1174854e-38
-0.073651835 -0.10720618 -0.12330537 1.0715317e-38
-0.071656495 -0.10720618 -0.12330537 1.0439452e-38
-0.070090413 -0.10879262 -0.13040191 9.6100516e-39
-0.068082631 -0.10879262 -0.13040191 9.6100544e-39
-0.066074848 -0.10879262 -0.13040191 1.0991551e-38
-0.064067066 -0.10879262 -0.13040191 1.1726238e-38
-0.062268276 -0.1096663 -0.13431019 1.2832216e-38
-0.060253639 -0.1096663 -0.13431019 1.2005337e-38
-0.058239002 -0.1096663 -0.13431019 1.1454324e-38
-0.056035925 -0.10879262 -0.13040191 1.1548312e-38
-0.053841788 -0.10789602 -0.12639123 1.2376984e-38
-0.051703069 -0.10720618 -0.12330537 1.3296054e-38
-0.049707722 -0.10720618 -0.12330537 1.3106958e-38
-0.047549162 -0.10632066 -0.11934417 1.6236184e-38
-0.045560766 -0.10632066 -0.11934417 2.2591531e-38
-0.042854983 -0.1020664 -0.10031372 2.2773391e-38
-0.040899955 -0.1020664 -0.10031372 2.350879e-38
-0.038706522 -0.1005076 -0.093340807 2.350987e-38
-0.03666541 -0.099830076 -0.09031003 2.3509876e-38
-0.034605939 -0.098941371 -0.086334638 2.3234376e-38
-0.032675419 -0.098941371 -0.086334638 2.2681564e-38
-0.030744899 -0.098941371 -0.086334638 2.341805e-38
-0.028814379 -0.098941371 -0.086334638 2.341805e-38
-0.026883859 -0.098941371 -0.086334638 2.3509886e-38
-0.024866838 -0.098059073 -0.082387857 2.3509886e-38
-0.022943236 -0.098059073 -0.082387857 2.3509886e-38
-0.021019634 -0.098059073 -0.082387857 2.3509886e-38
-0.019227993 -0.099830076 -0.09031003 2.3509527e-38
-0.0054551791 -0.089100882 -0.042315416 2.3509527e-38
-0.0036018398 -0.089100882 -0.042315416 2.2310989e-38
-0.0017484985 -0.089100882 -0.042315416 1.4753456e-38
0.00010746717 -0.089770496 -0.045310788 1.2086956e-38
0.0019660592 -0.089770496 -0.045310788 1.3473139e-38
0.0038246512 -0.089770496 -0.045310788 1.3750847e-38
0.00570173 -0.090443924 -0.048323207 1.5595869e-38
0.007597506 -0.091347814 -0.052366547 1.5965026e-38
-0.095810056 -0.11529435 -0.15034813 6.1814484e-39
-0.093446761 -0.11438908 -0.14633018 5.4449708e-39
-0.091411039 -0.11438908 -0.14633018 6.1843477e-39
-0.089070991 -0.11349006 -0.14233989 5.4482358e-39
-0.086746961 -0.11259718 -0.13837689 7.2017619e-39
-0.084144905 -0.1108004 -0.13040191 9.0471276e-39
-0.081633195 -0.10920154 -0.12330537 9.6946662e-39
-0.079637855 -0.10920154 -0.12330537 9.6035552e-39
-0.077101037 -0.10739426 -0.1152839 1.0158172e-38
-0.074665368 -0.10583721 -0.10837298 1.0158895e-38
-0.072696209 -0.10583721 -0.10837298 1.0528041e-38
-0.07072705 -0.10583721 -0.10837298 9.9748671e-39
-0.070090413 -0.1108004 -0.13040191 9.5146078e-39
-0.068082631 -0.1108004 -0.13040191 1.0713151e-38
-0.066074848 -0.1108004 -0.13040191 1.0805347e-38
-0.064067066 -0.1108004 -0.13040191 1.1728382e-38
-0.058792669 -0.097037792 -0.069317155 1.0899709e-38
-0.056891982 -0.097037792 -0.069317155 1.2838314e-38
-0.055142898 -0.097721294 -0.072350793 1.1825971e-38
-0.053236891 -0.097721294 -0.072350793 1.1273882e-38
-0.053841788 -0.10989676 -0.12639123 1.2471331e-38
-0.051525962 -0.10830905 -0.11934417 1.2284072e-38
-0.049537558 -0.10830905 -0.11934417 1.5505848e-38
-0.047549162 -0.10830905 -0.11934417 1.6974853e-38
-0.045400593 -0.10739426 -0.1152839 2.0473575e-38
-0.042592131 -0.1024504 -0.093340807 2.2867037e-38
-0.040649325 -0.1024504 -0.093340807 2.3509879e-38
-0.0386029 -0.10176755 -0.09031003 2.3141805e-38
-0.036536459 -0.10087189 -0.086334638 2.277374e-38
-0.034484837 -0.099982664 -0.082387857 2.2958857e-38
-0.032561239 -0.099982664 -0.082387857 2.2958863e-38
-0.030744899 -0.10087189 -0.086334638 2.3142541e-38
-0.028814379 -0.10087189 -0.086334638 2.3234379e-38
-0.026883859 -0.10087189 -0.086334638 2.341805e-38
-0.024866838 -0.099982664 -0.082387857 2.3509886e-38
-0.022943236 -0.099982664 -0.082387857 2.3509886e-38
-0.095482469 -0.11642478 -0.14633018 9.2239042e-39
-0.093446761 -0.11642478 -0.14633018 9.5937741e-39
-0.091099709 -0.11551876 -0.14233989 9.8721687e-39
-0.088768736 -0.11461894 -0.13837689 9.1356953e-39
-0.086152703 -0.11280818 -0.13040191 1.0889942e-38
-0.08362855 -0.11119686 -0.12330537 1.1075785e-38
-0.081351921 -0.11029746 -0.11934417 9.2329622e-39
-0.079363525 -0.11029746 -0.11934417 8.4050092e-39
-0.077101037 -0.10937552 -0.1152839 4.8101041e-39
-0.074403539 -0.1069022 -0.10439079 3.6122826e-39
-0.072180435 -0.10597645 -0.10031372 3.8885136e-39
-0.069791391 -0.1043932 -0.093340807 4.8104699e-39
-0.067848593 -0.1043932 -0.093340807 7.5763387e-39
-0.064672902 -0.099627286 -0.072350793 7.5766947e-39
-0.062766895 -0.099627286 -0.072350793 3.9817882e-39
-0.060693357 -0.09893848 -0.069317155 5.3665261e-39
-0.058792669 -0.09893848 -0.069317155 2.7872149e-39
-0.056891982 -0.09893848 -0.069317155 3.803899e-39
-0.055142898 -0.099627286 -0.072350793 3.8979009e-39
-0.053236891 -0.099627286 -0.072350793 4.7287461e-39
-0.051330883 -0.099627286 -0.072350793 7.1247479e-39
-0.051525962 -0.11029746 -0.11934417 9.5175043e-39
-0.049537558 -0.11029746 -0.11934417 1.4860847e-38
-0.047549162 -0.11029746 -0.11934417 1.8819101e-38
-0.045400593 -0.10937552 -0.1152839 2.1856488e-38
-0.04247788 -0.10370506 -0.09031003 2.2774484e-38
-0.04054039 -0.10370506 -0.09031003 2.3326213e-38
-0.0386029 -0.10370506 -0.09031003 2.3509876e-38
-0.036408439 -0.10190627 -0.082387857 2.3418035e-38
-0.034484837 -0.10190627 -0.082387857 2.295886e-38
-0.032561239 -0.10190627 -0.082387857 2.249932e-38
-0.030637641 -0.10190627 -0.082387857 2.2682636e-38
-0.028714035 -0.10190627 -0.082387857 2.2866311e-38
-0.026790436 -0.10190627 -0.082387857 2.3141819e-38
-0.024866838 -0.10190627 -0.082387857 2.332621e-38
-0.022943236 -0.10190627 -0.082387857 2.3509883e-38
-0.097852811 -0.11937986 -0.15034813 6.6416881e-39
-0.095482469 -0.11846052 -0.14633018 9.2242531e-39
-0.093446761 -0.11846052 -0.14633018 9.7788731e-39
-0.091099709 -0.1175475 -0.14233989 1.0794475e-38
-0.088458568 -0.11571021 -0.13431019 1.0518981e-38
-0.086152703 -0.11481597 -0.13040191 1.2365066e-38
-0.08362855 -0.11319222 -0.12330537 1.2274682e-38
-0.081351921 -0.11228584 -0.11934417 9.695018e-39
-0.079082325 -0.11135681 -0.1152839 9.7882996e-39
-0.076634526 -0.10977553 -0.10837298 3.9803434e-39
-0.074403539 -0.10886435 -0.10439079 3.9807092e-39
-0.072180435 -0.10793148 -0.10031372 4.0739866e-39
-0.069791391 -0.10633601 -0.093340807 3.7970424e-39
-0.067186043 -0.10382988 -0.082387857 7.2082807e-39
-0.064494714 -0.10083917 -0.069317155 8.4068239e-39
-0.062594026 -0.10083917 -0.069317155 7.2082863e-39
-0.060693357 -0.10083917 -0.069317155 7.3004931e-39
-0.058581892 -0.099937305 -0.065375619 5.4583896e-39
-0.056688119 -0.099937305 -0.065375619 5.921174e-39
-0.054991301 -0.10083917 -0.069317155 4.6329562e-39
-0.053090621 -0.10083917 -0.069317155 3.9886686e-39
-0.051330883 -0.10153329 -0.072350793 5.2786773e-39
-0.04942489 -0.10153329 -0.072350793 7.3959216e-39
-0.047518883 -0.10153329 -0.072350793 1.2278307e-38
-0.047549162 -0.11228584 -0.11934417 1.8541083e-38
-0.045560766 -0.11228584 -0.11934417 2.2224189e-38
-0.042328022 -0.10473295 -0.086334638 2.3142185e-38
-0.040397502 -0.10473295 -0.086334638 2.314039e-38
-0.038466979 -0.10473295 -0.086334638 2.3509527e-38
-0.036408439 -0.10382988 -0.082387857 2.3509527e-38
-0.034484837 -0.10382988 -0.082387857 2.341805e-38
-0.032561239 -0.10382988 -0.082387857 2.2773763e-38
-0.030637641 -0.10382988 -0.082387857 2.3234376e-38
-0.028714035 -0.10382988 -0.082387857 2.3234374e-38
-0.026790436 -0.10382988 -0.082387857 2.3418045e-38
-0.097852811 -0.1214226 -0.15034813 7.5632758e-39
-0.095810056 -0.1214226 -0.15034813 9.6859389e-39
-0.093446761 -0.12049623 -0.14633018 1.2637289e-38
-0.091099709 -0.1195762 -0.14233989 1.7524388e-38
-0.088458568 -0.11772485 -0.13431019 1.7434005e-38
-0.086152703 -0.11682375 -0.13040191 1.6790448e-38
-0.08362855 -0.11518754 -0.12330537 1.4579567e-38
-0.081351921 -0.11427425 -0.11934417 1.16304e-38
-0.079082325 -0.1133381 -0.1152839 8.9578172e-39
-0.076634526 -0.11174469 -0.10837298 3.427527e-39
-0.074403539 -0.11082654 -0.10439079 4.7182742e-39
-0.071991861 -0.10920714 -0.0973671 4.8111943e-39
-0.069602743 -0.10758002 -0.09031003 3.2438686e-39
-0.067186043 -0.10575347 -0.082387857 4.4424146e-39
-0.064494714 -0.10273984 -0.069317155 6.6551097e-39
-0.062594026 -0.10273984 -0.069317155 1.108015e-38
-0.060693357 -0.10273984 -0.069317155 1.218578e-38
-0.058581892 -0.10183108 -0.065375619 1.2923334e-38
-0.056688119 -0.10183108 -0.065375619 1.3110951e-38
-0.054991301 -0.10273984 -0.069317155 9.7008389e-39
-0.053090621 -0.10273984 -0.069317155 6.5679826e-39
-0.051330883 -0.10343929 -0.072350793 6.3825011e-39
-0.04942489 -0.10343929 -0.072350793 6.5639931e-39
-0.047518883 -0.10343929 -0.072350793 8.3124478e-39
-0.045612883 -0.10343929 -0.072350793 1.5590477e-38
-0.044258539 -0.10666345 -0.086334638 2.17625e-38
-0.042328022 -0.10666345 -0.086334638 2.323402e-38
-0.040397502 -0.10666345 -0.086334638 2.3508092e-38
-0.038466979 -0.10666345 -0.086334638 2.3508809e-38
-0.036408439 -0.10575347 -0.082387857 2.3507374e-38
-0.034390032 -0.10504107 -0.079298072 2.3416615e-38
-0.032471851 -0.10504107 -0.079298072 2.3509527e-38
-0.030553665 -0.10504107 -0.079298072 2.341805e-38
-0.097852811 -0.12346537 -0.15034813 7.3792363e-39
-0.095810056 -0.12346537 -0.15034813 9.9617958e-39
-0.093446761 -0.12253194 -0.14633018 1.4296081e-38
-0.091099709 -0.12160493 -0.14233989 2.0382082e-38
-0.088458568 -0.11973949 -0.13431019 2.0199503e-38
-0.086152703 -0.11883153 -0.13040191 1.8725827e-38
-0.08362855 -0.1171829 -0.12330537 1.5592992e-38
-0.081351921 -0.11626263 -0.11934417 1.1630033e-38
-0.079082325 -0.11531936 -0.1152839 9.7872108e-39
-0.076634526 -0.11371385 -0.10837298 5.3621905e-39
-0.074135467 -0.11184154 -0.10031372 4.8101041e-39
-0.071991861 -0.11115701 -0.0973671 4.533883e-39
-0.069602743 -0.10951753 -0.09031003 5.1792566e-39
-0.067186043 -0.10767709 -0.082387857 5.3636478e-39
-0.064494714 -0.10464053 -0.069317155 5.3632919e-39
-0.062594026 -0.10464053 -0.069317155 1.0802484e-38
-0.060693357 -0.10464053 -0.069317155 1.2183986e-38
-0.058581892 -0.10372485 -0.065375619 1.3290676e-38
-0.056688119 -0.10372485 -0.065375619 1.4122576e-38
-0.054794345 -0.10372485 -0.065375619 1.2649262e-38
-0.052900571 -0.10372485 -0.065375619 1.1175948e-38
-0.051189933 -0.10464053 -0.069317155 1.1083026e-38
-0.04942489 -0.10534529 -0.072350793 1.034364e-38
-0.047518883 -0.10534529 -0.072350793 1.0616246e-38
-0.045612883 -0.10534529 -0.072350793 1.5036933e-38
-0.043706883 -0.10534529 -0.072350793 2.1485559e-38
-0.041800879 -0.10534529 -0.072350793 2.3417691e-38
-0.04025564 -0.10767709 -0.082387857 2.3508451e-38
-0.038332041 -0.10767709 -0.082387857 2.3508451e-38
-0.036408439 -0.10767709 -0.082387857 2.3414104e-38
-0.034266859 -0.10602666 -0.075283699 2.3507374e-38
-0.032355715 -0.10602666 -0.075283699 2.3508809e-38
-0.030553665 -0.10695927 -0.079298072 2.3048554e-38
-0.097852811 -0.12550814 -0.15034813 8.484858e-39
-0.095810056 -0.12550814 -0.15034813 1.1712784e-38
-0.093128428 -0.12363364 -0.14233989 1.6323294e-38
-0.090790495 -0.12270601 -0.13837689 2.148734e-38
-0.088458568 -0.12175412 -0.13431019 2.112001e-38
-0.08585383 -0.11990054 -0.12639123 2.1213998e-38
-0.08362855 -0.11917825 -0.12330537 1.9279713e-38
-0.081351921 -0.11825104 -0.11934417 1.4671039e-38
-0.079082325 -0.11730064 -0.1152839 1.1629313e-38
-0.076634526 -0.115683 -0.10837298 9.6020993e-39
-0.074135467 -0.11379658 -0.10031372 7.7585552e-39
-0.071991861 -0.11310686 -0.0973671 6.4681821e-39
-0.069355309 -0.11052449 -0.086334638 8.5890459e-39
-0.066999137 -0.10887744 -0.079298072 9.2344182e-39
-0.064494714 -0.1065412 -0.069317155 7.8514837e-39
-0.062369432 -0.10561861 -0.065375619 1.0524805e-38
-0.060310248 -0.1049176 -0.062380724 1.0984718e-38
-0.058421735 -0.1049176 -0.062380724 1.0800337e-38
-0.056326043 -0.10398008 -0.058375411 1.2186138e-38
-0.05444454 -0.10398008 -0.058375411 1.5322177e-38
-0.052563045 -0.10398008 -0.058375411 1.7259332e-38
-0.050867651 -0.1049176 -0.062380724 1.7074585e-38
-0.048979122 -0.1049176 -0.062380724 1.6243761e-38
-0.045670111 -0.097177386 -0.029312782 1.660895e-38
-0.043839578 -0.097177386 -0.029312782 1.8171935e-38
-0.037988871 -0.1072513 -0.072350793 2.3509168e-38
-0.036082871 -0.1072513 -0.072350793 2.3507374e-38
-0.034176867 -0.1072513 -0.072350793 2.3508451e-38
-0.032270867 -0.1072513 -0.072350793 2.3509168e-38
-0.097518176 -0.12660335 -0.14633018 7.5610982e-39
-0.095157146 -0.12566237 -0.14233989 1.1341479e-38
-0.093128428 -0.12566237 -0.14233989 1.7059054e-38
-0.090790495 -0.1247278 -0.13837689 2.2867034e-38
-0.088458568 -0.12376876 -0.13431019 2.2591531e-38
-0.08585383 -0.12190129 -0.12639123 2.2224189e-38
-0.08362855 -0.12117358 -0.12330537 2.1305475e-38
-0.081351921 -0.12023942 -0.11934417 1.6881202e-38
-0.079082325 -0.11928193 -0.1152839 1.291788e-38
-0.076634526 -0.11765216 -0.10837298 1.2457989e-38
-0.074135467 -0.11575161 -0.10031372 1.135201e-38
-0.071734205 -0.11410724 -0.093340807 1.0338222e-38
-0.069355309 -0.11245503 -0.086334638 1.0523339e-38
-0.066999137 -0.11079563 -0.079298072 1.0615535e-38
-0.064494714 -0.1084419 -0.069317155 1.0062721e-38
-0.062369432 -0.1075124 -0.065375619 1.0708095e-38
-0.060310248 -0.10680611 -0.062380724 1.1629344e-38
-0.058207545 -0.10586159 -0.058375411 1.0616637e-38
-0.056326043 -0.10586159 -0.058375411 1.1263804e-38
-0.054144282 -0.10444455 -0.052366547 1.4400594e-38
-0.052273322 -0.10444455 -0.052366547 1.6429584e-38
-0.049472008 -0.099722609 -0.032343321 1.6153001e-38
-0.047500659 -0.099007934 -0.029312782 1.6519985e-38
-0.045670111 -0.099007934 -0.029312782 1.7624163e-38
-0.043839578 -0.099007934 -0.029312782 2.0662268e-38
-0.041771982 -0.097590908 -0.023303919 2.2224189e-38
-0.038895462 -0.090981558 0.0047227815 2.2499336e-38
-0.037124593 -0.090981558 0.0047227815 2.341805e-38
-0.036082871 -0.10915731 -0.072350793 2.3508804e-38
-0.034176867 -0.10915731 -0.072350793 2.3509527e-38
-0.032270867 -0.10915731 -0.072350793 2.3232944e-38
-0.097518176 -0.12863909 -0.14633018 1.0140778e-38
-0.095482469 -0.12863909 -0.14633018 1.1892851e-38
-0.093128428 -0.12769108 -0.14233989 1.6688111e-38
-0.090790495 -0.12674956 -0.13837689 2.3234372e-38
-0.088458568 -0.1257834 -0.13431019 2.2591169e-38
-0.08585383 -0.12390204 -0.12639123 2.2683366e-38
-0.08362855 -0.12316893 -0.12330537 2.2316024e-38
-0.081351921 -0.12222783 -0.11934417 2.0750875e-38
-0.079082325 -0.12126322 -0.1152839 1.9369037e-38
-0.076634526 -0.11962132 -0.10837298 1.7986474e-38
-0.074135467 -0.11770664 -0.10031372 1.7249993e-38
-0.071734205 -0.11605005 -0.093340807 1.7527661e-38
-0.069355309 -0.11438553 -0.086334638 1.5867784e-38
-0.066999137 -0.1127138 -0.079298072 1.4208984e-38
-0.064263195 -0.10940616 -0.065375619 1.4762158e-38
-0.062198777 -0.10869466 -0.062380724 1.4025678e-38
-0.060089041 -0.10774307 -0.058375411 1.3380675e-38
-0.058043394 -0.10701384 -0.055305891 1.2460884e-38
-0.056015242 -0.10631551 -0.052366547 1.1079033e-38
-0.053942237 -0.10535492 -0.048323207 1.0712048e-38
-0.051449578 -0.10225673 -0.035282426 1.0436184e-38
-0.049472008 -0.10155846 -0.032343321 1.1081908e-38
-0.047500659 -0.10083848 -0.029312782 1.3938525e-38
-0.045411993 -0.099410906 -0.023303919 1.5965377e-38
-0.043591987 -0.099410906 -0.023303919 2.0479314e-38
-0.041771982 -0.099410906 -0.023303919 2.1489505e-38
-0.038895462 -0.092752427 0.0047227815 2.2132353e-38
-0.037124593 -0.092752427 0.0047227815 2.2775202e-38
-0.035353728 -0.092752427 0.0047227815 2.3142544e-38
-0.033582862 -0.092752427 0.0047227815 2.268192e-38
0.030287307 -0.080653399 0.055649586 1.4584982e-38
0.03196888 -0.080653399 0.055649586 1.4401311e-38
0.033650458 -0.080653399 0.055649586 1.4218358e-38
0.035445679 -0.081369653 0.052634783 1.4218716e-38
0.037132543 -0.081369653 0.052634783 1.4035763e-38
0.038898859 -0.081827804 0.050706334 1.4036121e-38
0.040589102 -0.081827804 0.050706334 1.3484032e-38
0.066755101 -0.090635687 0.013632484 7.5778325e-39
-0.097518176 -0.13067479 -0.14633018 1.0692513e-38
-0.095482469 -0.13067479 -0.14633018 1.2352034e-38
-0.093128428 -0.12971978 -0.14233989 1.7792299e-38
-0.090473205 -0.12779804 -0.13431019 2.3509876e-38
-0.088160485 -0.12686269 -0.13040191 2.3325492e-38
-0.08585383 -0.12590279 -0.12639123 2.3050349e-38
-0.08362855 -0.12516426 -0.12330537 2.2867037e-38
-0.081351921 -0.12421621 -0.11934417 2.2775202e-38
-0.079082325 -0.12324448 -0.1152839 2.2499695e-38
-0.076365724 -0.12063743 -0.10439079 2.2040518e-38
-0.074135467 -0.11966167 -0.10031372 2.0934904e-38
-0.071734205 -0.11799283 -0.093340807 1.918428e-38
-0.069355309 -0.11631607 -0.086334638 1.7801349e-38
-0.067186043 -0.11537148 -0.082387857 1.6971948e-38
-0.064263195 -0.11129995 -0.065375619 1.6142188e-38
-0.061970536 -0.10962458 -0.058375411 1.5130198e-38
-0.05991951 -0.10888995 -0.055305891 1.485578e-38
-0.057886202 -0.10818647 -0.052366547 1.3014394e-38
-0.055806104 -0.10721879 -0.048323207 1.1632547e-38
-0.053791706 -0.10649781 -0.045310788 1.0988265e-38
-0.051449578 -0.10409774 -0.035282426 1.0619851e-38
-0.049331199 -0.10266902 -0.029312782 1.0435105e-38
-0.047365937 -0.10194789 -0.026299648 1.1265222e-38
-0.045243073 -0.10028981 -0.019371681 1.2738909e-38
-0.043429967 -0.10028981 -0.019371681 1.5410054e-38
-0.041616853 -0.10028981 -0.019371681 1.7620217e-38
-0.039010026 -0.095250636 0.0016836599 2.0107309e-38
-0.037124593 -0.094523281 0.0047227815 2.1580623e-38
-0.035353728 -0.094523281 0.0047227815 2.2132353e-38
-0.033681441 -0.095250636 0.0016836599 2.2224189e-38
0.030287307 -0.08233498 0.055649586 1.255204e-38
0.03196888 -0.08233498 0.055649586 1.0524455e-38
0.033650458 -0.08233498 0.055649586 1.2185055e-38
0.035332032 -0.08233498 0.055649586 1.1079427e-38
0.037013605 -0.08233498 0.055649586 1.2739663e-38
0.038898859 -0.083518043 0.050706334 1.2371602e-38
0.040589102 -0.083518043 0.050706334 1.2280122e-38
0.057270642 -0.089505136 0.025690265 1.1357101e-38
0.059004746 -0.089505136 0.025690265 1.0159628e-38
0.066755101 -0.092390925 0.013632484 6.2867266e-39
0.068510346 -0.092390925 0.013632484 5.7317605e-39
0.070047833 -0.091656998 0.016699083 4.0700812e-39
0.071797699 -0.091656998 0.016699083 7.3865917e-39
0.073547564 -0.091656998 0.016699083 7.1992984e-39
0.076580748 -0.09022589 0.02267874 1.0789482e-38
0.078079887 -0.089505136 0.025690265 7.9296019e-39
0.079813987 -0.089505136 0.025690265 7.9267138e-39
-0.09483403 -0.13079311 -0.13837689 1.2166205e-38
-0.092487842 -0.12981267 -0.13431019 1.7606111e-38
-0.090473205 -0.12981267 -0.13431019 2.3509514e-38
-0.088160485 -0.12887047 -0.13040191 2.3508798e-38
-0.08585383 -0.12790357 -0.12639123 2.3416971e-38
-0.08362855 -0.12715961 -0.12330537 2.3325856e-38
-0.081351921 -0.12620462 -0.11934417 2.3142544e-38
-0.078603685 -0.12355967 -0.10837298 2.2958873e-38
-0.0760905 -0.12161671 -0.10031372 2.2775202e-38
-0.073941737 -0.12090631 -0.0973671 2.222383e-38
-0.071734205 -0.11993565 -0.093340807 2.1947965e-38
-0.069355309 -0.11824657 -0.086334638 2.2224189e-38
-0.066395402 -0.11414395 -0.069317155 2.2132353e-38
-0.064087287 -0.11247168 -0.062380724 2.093454e-38
-0.061970536 -0.11150609 -0.058375411 1.9369377e-38
-0.05991951 -0.11076607 -0.055305891 1.6975541e-38
-0.057669986 -0.10908265 -0.048323207 1.494869e-38
-0.055806104 -0.10908265 -0.048323207 1.3105868e-38
-0.053642023 -0.10763429 -0.042315416 1.2185005e-38
-0.051449578 -0.10593875 -0.035282426 1.1355977e-38
-0.049331199 -0.10449956 -0.029312782 1.0526588e-38
-0.047232006 -0.10305093 -0.023303919 1.0342561e-38
-0.045111571 -0.10136487 -0.016310267 1.0987211e-38
-0.043058071 -0.099926919 -0.01034575 9.8794232e-39
-0.041142106 -0.099201679 -0.0073375031 1.1998112e-38
-0.039010026 -0.09702684 0.0016836599 1.4762527e-38
-0.037124593 -0.09629415 0.0047227815 1.6974485e-38
-0.035353728 -0.09629415 0.0047227815 1.844816e-38
-0.033488128 -0.09559007 0.0076432899 1.9553415e-38
-0.031722385 -0.09559007 0.0076432899 2.0567195e-38
-0.030217502 -0.097763941 -0.00137382 2.1304395e-38
0.030287307 -0.084016547 0.055649586 1.6708158e-39
0.03196888 -0.084016547 0.055649586 1.117642e-39
0.033650458 -0.084016547 0.055649586 1.4871448e-39
0.035332032 -0.084016547 0.055649586 9.346871e-40
0.037013605 -0.084016547 0.055649586 1.3963827e-39
0.038898859 -0.085208282 0.050706334 1.3045402e-39
0.040589102 -0.085208282 0.050706334 1.6743975e-39
0.042682119 -0.087380111 0.041697748 1.3059681e-39
0.053968761 -0.091965273 0.02267874 9.0511059e-39
0.055708144 -0.091965273 0.02267874 9.5099485e-39
0.057270642 -0.091239244 0.025690265 9.1411687e-39
0.059004746 -0.091239244 0.025690265 9.4181046e-39
0.060926296 -0.091965273 0.02267874 7.8529298e-39
0.062665679 -0.091965273 0.02267874 8.4068239e-39
0.064604282 -0.092695728 0.019648857 7.6696274e-39
0.066548094 -0.093406871 0.016699083 7.9455108e-39
0.06829796 -0.093406871 0.016699083 7.2068766e-39
0.070047833 -0.093406871 0.016699083 8.2192321e-39
0.071797699 -0.093406871 0.016699083 9.1393821e-39
0.073327757 -0.092695728 0.019648857 7.9379424e-39
0.075072452 -0.092695728 0.019648857 8.3045459e-39
0.076580748 -0.091965273 0.02267874 9.1310514e-39
0.078079887 -0.091239244 0.025690265 6.7325118e-39
0.079813987 -0.091239244 0.025690265 6.5463143e-39
-0.09483403 -0.13281487 -0.13837689 1.1613035e-38
-0.092487842 -0.13182731 -0.13431019 1.7144773e-38
-0.090473205 -0.13182731 -0.13431019 2.3508435e-38
-0.088160485 -0.13087825 -0.13040191 2.3508441e-38
-0.08562389 -0.12915494 -0.12330537 2.3509161e-38
-0.08362855 -0.12915494 -0.12330537 2.3509167e-38
-0.081351921 -0.12819304 -0.11934417 2.3509886e-38
-0.078603685 -0.12552883 -0.10837298 2.341805e-38
-0.0760905 -0.12357174 -0.10031372 2.3050349e-38
-0.073677003 -0.12187846 -0.093340807 2.2866677e-38
-0.071540236 -0.12114246 -0.09031003 2.2775202e-38
-0.069355309 -0.12017711 -0.086334638 2.2958873e-38
-0.066395402 -0.11604463 -0.069317155 2.2867037e-38
-0.064087287 -0.1143602 -0.062380724 2.1946513e-38
-0.061970536 -0.11338757 -0.058375411 2.0565388e-38
-0.05991951 -0.11264218 -0.055305891 2.0108384e-38
-0.057669986 -0.11094652 -0.048323207 1.7804949e-38
-0.055650298 -0.11021499 -0.045310788 1.5408954e-38
-0.053642023 -0.10948761 -0.042315416 1.4026396e-38
-0.051449578 -0.10777976 -0.035282426 1.264528e-38
-0.049191196 -0.10559841 -0.026299648 1.1447113e-38
-0.047056187 -0.10391603 -0.019371681 1.0617727e-38
-0.045111571 -0.10317262 -0.016310267 1.0341506e-38
-0.043058071 -0.10172421 -0.01034575 9.6954187e-39
-0.041142106 -0.10099369 -0.0073375031 1.098543e-38
-0.039237358 -0.10026747 -0.0043468997 1.2828969e-38
-0.037233829 -0.098803028 0.0016836599 1.4671785e-38
-0.035457633 -0.098803028 0.0016836599 1.6330571e-38
-0.033488128 -0.097355813 0.0076432899 1.835813e-38
-0.031722385 -0.097355813 0.0076432899 2.0569715e-38
-0.030129049 -0.098803028 0.0016836599 2.158134e-38
0.028850868 -0.087638199 0.047660358 2.2232791e-39
0.030385097 -0.086430237 0.052634783 1.8544966e-39
0.03196888 -0.085698128 0.055649586 2.1310835e-39
0.033650458 -0.085698128 0.055649586 1.9466922e-39
0.035445679 -0.086430237 0.052634783 2.593498e-39
0.037132543 -0.086430237 0.052634783 3.3310602e-39
0.038898859 -0.086898521 0.050706334 4.1608181e-39
0.040589102 -0.086898521 0.050706334 4.9909347e-39
0.042682119 -0.089086145 0.041697748 4.1611698e-39
0.048750609 -0.093704656 0.02267874 9.8780037e-39
0.050489992 -0.093704656 0.02267874 7.7575014e-39
0.052229378 -0.093704656 0.02267874 8.4032268e-39
0.053968761 -0.093704656 0.02267874 8.4021478e-39
0.055708144 -0.093704656 0.02267874 8.5854698e-39
0.057270642 -0.092973351 0.025690265 8.5854726e-39
0.059004746 -0.092973351 0.025690265 9.230842e-39
0.060926296 -0.093704656 0.02267874 8.5869118e-39
0.062665679 -0.093704656 0.02267874 9.1415177e-39
0.064604282 -0.094440416 0.019648857 8.5894201e-39
0.066548094 -0.095156729 0.016699083 8.6826905e-39
0.06829796 -0.095156729 0.016699083 8.1287979e-39
0.070047833 -0.095156729 0.016699083 4.9927143e-39
0.071797699 -0.095156729 0.016699083 4.0693259e-39
0.073327757 -0.094440416 0.019648857 3.3285253e-39
0.075072452 -0.094440416 0.019648857 3.2334472e-39
0.076580748 -0.093704656 0.02267874 4.2461459e-39
0.078079887 -0.092973351 0.025690265 3.5071222e-39
0.079813987 -0.092973351 0.025690265 3.6900533e-39
0.081548095 -0.092973351 0.025690265 6.4721072e-40
0.083282202 -0.092973351 0.025690265 9.2376257e-40
-0.09483403 -0.13483663 -0.13837689 1.1336449e-38
-0.092487842 -0.13384195 -0.13431019 1.6591962e-38
-0.090473205 -0.13384195 -0.13431019 2.3508078e-38
-0.088160485 -0.13288604 -0.13040191 2.3509161e-38
-0.08562389 -0.13115029 -0.12330537 2.350916e-38
-0.083340317 -0.13018142 -0.11934417 2.3508804e-38
-0.081063598 -0.12918831 -0.1152839 2.3509883e-38
-0.078603685 -0.12749799 -0.10837298 2.3509523e-38
-0.0760905 -0.12552677 -0.10031372 2.3509883e-38
-0.073677003 -0.12382124 -0.093340807 2.3418047e-38
-0.071540236 -0.12307997 -0.09031003 2.3234376e-38
-0.069355309 -0.12210761 -0.086334638 2.3234374e-38
-0.066395402 -0.11794533 -0.069317155 2.3142537e-38
-0.064087287 -0.11624874 -0.062380724 2.3234372e-38
-0.061970536 -0.11526908 -0.058375411 2.2867037e-38
-0.05991951 -0.1145183 -0.055305891 2.2132353e-38
-0.057669986 -0.11281042 -0.048323207 2.0015832e-38
-0.055650298 -0.11207359 -0.045310788 1.7895351e-38
-0.053642023 -0.11134095 -0.042315416 1.595998e-38
-0.051449578 -0.10962076 -0.035282426 1.4301918e-38
-0.049191196 -0.10742365 -0.026299648 1.2827887e-38
-0.047056187 -0.10572915 -0.019371681 1.16308e-38
-0.045111571 -0.10498036 -0.016310267 1.0894325e-38
-0.043058071 -0.10352151 -0.01034575 9.6046706e-39
-0.041142106 -0.10278571 -0.0073375031 9.7890619e-39
-0.039237358 -0.10205424 -0.0043468997 1.0157114e-38
-0.037343726 -0.10132705 -0.00137382 1.0618078e-38
-0.035457633 -0.10057923 0.0016836599 1.1631493e-38
-0.033681441 -0.10057923 0.0016836599 1.3843095e-38
-0.031905245 -0.10057923 0.0016836599 1.7160681e-38
-0.030129049 -0.10057923 0.0016836599 1.9742119e-38
-0.028352853 -0.10057923 0.0016836599 2.0754821e-38
-0.025686327 -0.092013597 0.036704011 2.1305834e-38
-0.023971532 -0.092013597 0.036704011 2.1489505e-38
-0.022192586 -0.091297671 0.039631076 2.1305834e-38
-0.020482928 -0.091297671 0.039631076 2.1673176e-38
-0.018773269 -0.091297671 0.039631076 2.2224189e-38
-0.017063607 -0.091297671 0.039631076 2.2407854e-38
0.026001617 -0.094211012 0.027719922 1.3753082e-38
0.027560201 -0.092757151 0.033663996 1.3014093e-38
0.028850868 -0.089333788 0.047660358 1.2643881e-38
0.030546453 -0.089333788 0.047660358 1.1998521e-38
0.032242034 -0.089333788 0.047660358 1.1168056e-38
0.033758819 -0.088117093 0.052634783 1.0522686e-38
0.035445679 -0.088117093 0.052634783 9.9695127e-39
0.037208617 -0.088588774 0.050706334 1.0430491e-38
0.038898859 -0.088588774 0.050706334 1.1075139e-38
0.041064858 -0.091297671 0.039631076 1.0891105e-38
0.042774521 -0.091297671 0.039631076 1.0336849e-38
0.04476143 -0.092757151 0.033663996 8.9542706e-39
0.046481553 -0.092757151 0.033663996 9.5067227e-39
0.048498701 -0.094211012 0.027719922 7.2943849e-39
0.050489992 -0.095444039 0.02267874 5.2660782e-39
0.052229378 -0.095444039 0.02267874 2.131424e-39
0.053968761 -0.095444039 0.02267874 1.39278e-39
0.055708144 -0.095444039 0.02267874 1.3002242e-39
0.05744753 -0.095444039 0.02267874 1.0236373e-39
0.059004746 -0.094707444 0.025690265 7.4741056e-40
0.06073885 -0.094707444 0.025690265 1.0347468e-40
0.062665679 -0.095444039 0.02267874 1.2711178e-41
0.064405061 -0.095444039 0.02267874 1.3421637e-41
0.066348977 -0.096185118 0.019648857 1.4855165e-41
0.068093672 -0.096185118 0.019648857 1.4855165e-41
0.069838367 -0.096185118 0.019648857 1.0279365e-39
0.071583062 -0.096185118 0.019648857 1.1274847e-41
0.073547564 -0.096906602 0.016699083 8.3960619e-40
0.075072452 -0.096185118 0.019648857 9.2999975e-40
0.076817155 -0.096185118 0.019648857 2.5877092e-39
0.078079887 -0.094707444 0.025690265 2.9550372e-39
0.079813987 -0.094707444 0.025690265 2.9546518e-39
0.081548095 -0.094707444 0.025690265 1.8471944e-39
-0.09483403 -0.13685839 -0.13837689 1.0785433e-38
-0.092487842 -0.13585658 -0.13431019 1.6040586e-38
-0.090473205 -0.13585658 -0.13431019 2.3508437e-38
-0.088160485 -0.13489382 -0.13040191 2.350952e-38
-0.08562389 -0.13314565 -0.12330537 2.3509879e-38
-0.083340317 -0.13216983 -0.11934417 2.3508444e-38
-0.081063598 -0.1311696 -0.1152839 2.3509883e-38
-0.078603685 -0.12946714 -0.10837298 2.3509883e-38
-0.0760905 -0.1274818 -0.10031372 2.3417687e-38
-0.073677003 -0.12576406 -0.093340807 2.3417687e-38
-0.071734205 -0.12576406 -0.093340807 2.3234015e-38
-0.069355309 -0.12403814 -0.086334638 2.3049624e-38
-0.066395402 -0.119846 -0.069317155 2.2866308e-38
-0.064087287 -0.11813726 -0.062380724 2.3141816e-38
-0.061970536 -0.11715056 -0.058375411 2.3142544e-38
-0.05991951 -0.11639442 -0.055305891 2.2316024e-38
-0.057669986 -0.11467429 -0.048323207 2.1672099e-38
-0.055650298 -0.11393218 -0.045310788 2.0473575e-38
-0.053642023 -0.1131943 -0.042315416 1.8538922e-38
-0.051449578 -0.11146177 -0.035282426 1.6512079e-38
-0.049052004 -0.10851096 -0.023303919 1.4301562e-38
-0.047056187 -0.10754226 -0.019371681 1.2367988e-38
-0.044985335 -0.10606419 -0.013371639 1.0986509e-38
-0.043058071 -0.1053188 -0.01034575 9.9741664e-39
-0.041142106 -0.10457774 -0.0073375031 9.7901381e-39
-0.039237358 -0.10384102 -0.0043468997 9.790494e-39
-0.037343726 -0.1031086 -0.00137382 9.7901269e-39
-0.035457633 -0.10235542 0.0016836599 1.0065624e-38
-0.033293858 -0.099411905 0.013632484 1.1355272e-38
-0.031538617 -0.099411905 0.013632484 1.4211526e-38
-0.030129049 -0.10235542 0.0016836599 1.6516397e-38
-0.028352853 -0.10235542 0.0016836599 1.753161e-38
-0.025686327 -0.093728393 0.036704011 2.0020137e-38
-0.023971532 -0.093728393 0.036704011 2.1213998e-38
-0.022192586 -0.093007326 0.039631076 2.1489505e-38
-0.020482928 -0.093007326 0.039631076 2.1948682e-38
-0.018773269 -0.093007326 0.039631076 2.2316024e-38
-0.017063607 -0.093007326 0.039631076 2.2775202e-38
-0.015397567 -0.093728393 0.036704011 2.2958864e-38
0.022469968 -0.095207214 0.030700929 1.5963591e-38
0.024195286 -0.095207214 0.030700929 1.4029664e-38
0.025920603 -0.095207214 0.030700929 1.3109157e-38
0.027560201 -0.094477281 0.033663996 1.1080881e-38
0.029280324 -0.094477281 0.033663996 1.0436238e-38
0.030901838 -0.093728393 0.036704011 1.1910273e-38
0.03261663 -0.093728393 0.036704011 1.0987255e-38
0.034331426 -0.093728393 0.036704011 1.2092868e-38
0.036046218 -0.093728393 0.036704011 9.972391e-39
0.03776101 -0.093728393 0.036704011 1.0801073e-38
0.039475802 -0.093728393 0.036704011 1.0524128e-38
0.041190594 -0.093728393 0.036704011 6.5586373e-39
0.04290539 -0.093728393 0.036704011 6.0969403e-39
0.04476143 -0.094477281 0.033663996 3.8828061e-39
0.046481553 -0.094477281 0.033663996 3.4218251e-39
0.048498701 -0.095941558 0.027719922 1.3928024e-39
0.050334226 -0.096441552 0.025690265 1.7619408e-39
0.05206833 -0.096441552 0.025690265 1.013405e-40
0.053802434 -0.096441552 0.025690265 8.0644727e-42
0.055708144 -0.097183421 0.02267874 1.3913633e-39
0.057270642 -0.096441552 0.025690265 1.1151281e-39
0.059004746 -0.096441552 0.025690265 3.7862804e-40
0.06073885 -0.096441552 0.025690265 1.0382781e-40
0.062665679 -0.097183421 0.02267874 1.1979701e-41
0.064405061 -0.097183421 0.02267874 1.978115e-40
0.066144451 -0.097183421 0.02267874 5.6696115e-40
0.067883834 -0.097183421 0.02267874 1.2112614e-39
0.069623217 -0.097183421 0.02267874 1.8562791e-39
0.0713626 -0.097183421 0.02267874 7.4921123e-40
0.073327757 -0.09792982 0.019648857 2.7757144e-39
0.074841365 -0.097183421 0.02267874 2.4062018e-39
0.076580748 -0.097183421 0.02267874 3.5107361e-39
0.078079887 -0.096441552 0.025690265 3.2334163e-39
0.079813987 -0.096441552 0.025690265 2.7720668e-39
0.081548095 -0.096441552 0.025690265 2.3096215e-39
0.082096718 -0.093007326 0.039631076 2.6762026e-39
0.083806381 -0.093007326 0.039631076 3.0446026e-39
-0.09718585 -0.13986339 -0.14233989 1.0325894e-38
-0.09483403 -0.13888018 -0.13837689 1.0233698e-38
-0.092487842 -0.13787122 -0.13431019 1.5304461e-38
-0.090473205 -0.13787122 -0.13431019 2.3233288e-38
-0.088160485 -0.1369016 -0.13040191 2.3509879e-38
-0.08562389 -0.13514097 -0.12330537 2.350988e-38
-0.083340317 -0.13415821 -0.11934417 2.3232936e-38
-0.081063598 -0.13315089 -0.1152839 2.3509883e-38
-0.078603685 -0.1314363 -0.10837298 2.3509527e-38
-0.0760905 -0.12943684 -0.10031372 2.3233299e-38
-0.073677003 -0.12770687 -0.093340807 2.3141103e-38
-0.071540236 -0.12695493 -0.09031003 2.3326213e-38
-0.069355309 -0.12596865 -0.086334638 2.341805e-38
-0.066999137 -0.12422292 -0.079298072 2.341805e-38
-0.064263195 -0.1207688 -0.065375619 2.3326213e-38
-0.061970536 -0.11903207 -0.058375411 2.3050347e-38
-0.05991951 -0.11827053 -0.055305891 2.2682286e-38
-0.057669986 -0.11653815 -0.048323207 2.2867037e-38
-0.055650298 -0.11579077 -0.045310788 2.2775202e-38
-0.053642023 -0.11504765 -0.042315416 2.1395158e-38
-0.051449578 -0.11330278 -0.035282426 1.9369037e-38
-0.049052004 -0.11033095 -0.023303919 1.6881936e-38
-0.04691932 -0.10859586 -0.016310267 1.4118963e-38
-0.044855352 -0.10711606 -0.01034575 1.2000639e-38
-0.042934116 -0.10636975 -0.0073375031 9.6060845e-39
-0.041142106 -0.10636975 -0.0073375031 9.2383922e-39
-0.039125282 -0.10489015 -0.00137382 9.3313095e-39
-0.037233829 -0.10413162 0.0016836599 9.5149791e-39
-0.035253875 -0.10265306 0.0076432899 9.3295019e-39
-0.033098709 -0.099674508 0.019648857 9.1436645e-39
-0.031168643 -0.09817566 0.025690265 9.8801421e-39
-0.029375818 -0.097672105 0.027719922 1.0893925e-38
-0.027564261 -0.09693253 0.030700929 1.1263416e-38
-0.025686327 -0.095443189 0.036704011 1.3199154e-38
-0.023971532 -0.095443189 0.036704011 1.7068487e-38
-0.022192586 -0.094716981 0.039631076 2.0478238e-38
-0.020441256 -0.094204247 0.041697748 2.1948682e-38
-0.018735219 -0.094204247 0.041697748 2.2499695e-38
-0.017029181 -0.094204247 0.041697748 2.2867037e-38
-0.015353944 -0.094716981 0.039631076 2.341805e-38
-0.013682775 -0.095443189 0.036704011 2.3509883e-38
0.0068317438 -0.093462333 0.044688173 2.1489505e-38
0.0085325381 -0.093462333 0.044688173 2.0294559e-38
0.019079437 -0.097672105 0.027719922 1.5415089e-38
0.02074465 -0.09693253 0.030700929 1.5226754e-38
0.022469968 -0.09693253 0.030700929 1.2461286e-38
0.024195286 -0.09693253 0.030700929 9.4227975e-39
0.025920603 -0.09693253 0.030700929 7.119713e-39
0.027645921 -0.09693253 0.030700929 6.1062856e-39
0.029371241 -0.09693253 0.030700929 4.5389655e-39
0.031000447 -0.096197397 0.033663996 5.1832559e-39
0.03272057 -0.096197397 0.033663996 2.7854534e-39
0.034440693 -0.096197397 0.033663996 3.3379112e-39
0.036160816 -0.096197397 0.033663996 1.742935e-41
0.037880939 -0.096197397 0.033663996 3.8513287e-40
0.039601061 -0.096197397 0.033663996 1.3470682e-41
0.041321184 -0.096197397 0.033663996 1.311195e-41
0.043041307 -0.096197397 0.033663996 1.1670014e-41
0.04476143 -0.096197397 0.033663996 1.0591014e-41
0.046481553 -0.096197397 0.033663996 6.9868741e-42
0.048349742 -0.09693253 0.030700929 9.5064088e-42
0.050229248 -0.097672105 0.027719922 2.871737e-40
0.05206833 -0.09817566 0.025690265 1.1165714e-39
0.053802434 -0.09817566 0.025690265 8.3962861e-40
0.055536538 -0.09817566 0.025690265 4.7049577e-40
0.057270642 -0.09817566 0.025690265 5.6304453e-40
0.059004746 -0.09817566 0.025690265 1.0348589e-40
0.06073885 -0.09817566 0.025690265 8.4175578e-40
0.062665679 -0.098922804 0.02267874 2.9001133e-40
0.064405061 -0.098922804 0.02267874 1.119772e-39
0.066144451 -0.098922804 0.02267874 1.303457e-39
0.067883834 -0.098922804 0.02267874 2.0406731e-39
0.069623217 -0.098922804 0.02267874 2.2236337e-39
0.0713626 -0.098922804 0.02267874 1.3931541e-39
0.073101982 -0.098922804 0.02267874 2.9593896e-39
0.074841365 -0.098922804 0.02267874 2.2218106e-39
0.076580748 -0.098922804 0.02267874 2.6820516e-39
0.077917963 -0.097672105 0.027719922 2.2199805e-39
0.079163894 -0.096197397 0.033663996 1.9433824e-39
0.080387056 -0.094716981 0.039631076 1.2043516e-39
0.082096718 -0.094716981 0.039631076 1.6627695e-39
0.083806381 -0.094716981 0.039631076 2.1226463e-39
-0.09718585 -0.14189209 -0.14233989 9.9585489e-39
-0.09483403 -0.14090194 -0.13837689 9.3138998e-39
-0.092487842 -0.13988586 -0.13431019 1.4384662e-38
-0.090473205 -0.13988586 -0.13431019 2.2682272e-38
-0.088160485 -0.13890938 -0.13040191 2.3418043e-38
-0.08585383 -0.13790731 -0.12639123 2.3418045e-38
-0.08362855 -0.13713633 -0.12330537 2.3049624e-38
-0.081351921 -0.13614662 -0.11934417 2.341805e-38
-0.078603685 -0.13340546 -0.10837298 2.3509886e-38
-0.0760905 -0.13139187 -0.10031372 2.341805e-38
-0.073677003 -0.12964968 -0.093340807 2.341805e-38
-0.071540236 -0.12889244 -0.09031003 2.341805e-38
-0.069355309 -0.12789918 -0.086334638 2.3141467e-38
-0.066999137 -0.12614109 -0.079298072 2.2589017e-38
-0.064263195 -0.12266256 -0.065375619 2.3234379e-38
-0.061970536 -0.12091358 -0.058375411 2.341805e-38
-0.05991951 -0.12014665 -0.055305891 2.2957064e-38
-0.057669986 -0.11840202 -0.048323207 2.341804e-38
-0.05549537 -0.11690097 -0.042315416 2.3142538e-38
-0.053493191 -0.1161568 -0.039336972 2.2775202e-38
-0.051449578 -0.11514379 -0.035282426 2.1672817e-38
-0.049052004 -0.11215095 -0.023303919 2.0108026e-38
-0.04691932 -0.11040358 -0.016310267 1.7530168e-38
-0.044855352 -0.10891335 -0.01034575 1.5043783e-38
-0.042934116 -0.10816176 -0.0073375031 1.2372644e-38
-0.041024126 -0.10741456 -0.0043468997 1.0991163e-38
-0.039010026 -0.10590781 0.0016836599 1.0070653e-38
-0.037124593 -0.10514848 0.0047227815 1.0253612e-38
-0.035253875 -0.1044188 0.0076432899 1.0252173e-38
-0.033098709 -0.10141921 0.019648857 9.513526e-39
-0.031168643 -0.099909768 0.025690265 9.0511059e-39
-0.029289577 -0.098657846 0.030700929 9.1422225e-39
-0.027483735 -0.097917527 0.033663996 8.0366008e-39
-0.025686327 -0.09715797 0.036704011 9.3266166e-39
-0.023971532 -0.09715797 0.036704011 1.3657283e-38
-0.022192586 -0.096426651 0.039631076 1.82645e-38
-0.020441256 -0.095910296 0.041697748 2.0565769e-38
-0.018735219 -0.095910296 0.041697748 2.2222395e-38
-0.017029181 -0.095910296 0.041697748 2.3141826e-38
-0.015323143 -0.095910296 0.041697748 2.332478e-38
-0.013644286 -0.096426651 0.039631076 2.3508809e-38
-0.011934623 -0.096426651 0.039631076 2.3508809e-38
0.0017135348 -0.09365949 0.050706334 2.1673176e-38
0.0034037754 -0.09365949 0.050706334 1.9928301e-38
0.0051127104 -0.094420537 0.047660358 1.8642604e-38
0.006808294 -0.094420537 0.047660358 1.974463e-38
0.0085325381 -0.095163137 0.044688173 1.9009946e-38
0.010233331 -0.095163137 0.044688173 1.9560959e-38
0.011934126 -0.095163137 0.044688173 1.8918111e-38
0.013679487 -0.095910296 0.041697748 1.3666627e-38
0.017239463 -0.097917527 0.033663996 1.1175572e-38
0.018959586 -0.097917527 0.033663996 1.1173426e-38
