# .PCD v0.7 - Point Cloud Data file format
VERSION 0.7
FIELDS x y z rgb
SIZE 4 4 4 4
TYPE F F F F
COUNT 1 1 1 1
WIDTH 927
HEIGHT 1
VIEWPOINT 0 0 0 1 0 0 0
POINTS 927
DATA ascii
-0.072683036 -0.10666345 -0.080837376 4.4431335e-39
-0.070752516 -0.10666345 -0.080837376 4.9026697e-39
-0.068631694 -0.10575347 -0.076890595 5.5465958e-39
-0.066564538 -0.10504107 -0.07380081 7.9429605e-39
-0.064466871 -0.1041155 -0.069786437 1.1629344e-38
-0.062429734 -0.10343929 -0.066853531 1.3474335e-38
-0.060523733 -0.10343929 -0.066853531 1.5041648e-38
-0.058617733 -0.10343929 -0.066853531 1.5043801e-38
-0.056335889 -0.10114056 -0.056883462 1.3847428e-38
-0.054303404 -0.10021709 -0.052878149 1.1820939e-38
-0.052421905 -0.10021709 -0.052878149 8.5969759e-39
-0.050540406 -0.10021709 -0.052878149 7.0318138e-39
-0.049945716 -0.10988651 -0.094816454 6.2034937e-39
-0.047990683 -0.10988651 -0.094816454 1.2190781e-38
-0.046035655 -0.10988651 -0.094816454 2.1396234e-38
-0.044184275 -0.11082654 -0.098893531 2.3325846e-38
-0.042222098 -0.11082654 -0.098893531 2.350988e-38
-0.04025992 -0.11082654 -0.098893531 2.3509883e-38
-0.038297739 -0.11082654 -0.098893531 2.3508091e-38
-0.036335558 -0.11082654 -0.098893531 2.3508092e-38
-0.032806903 -0.089143202 -0.0048484877 2.3508451e-38
-0.031009618 -0.089143202 -0.0048484877 2.3508451e-38
-0.02921233 -0.089143202 -0.0048484877 2.3508809e-38
-0.027415045 -0.089143202 -0.0048484877 2.3509168e-38
-0.025588747 -0.088449612 -0.0018402413 2.3233662e-38
-0.023796733 -0.088449612 -0.0018402413 2.2957796e-38
-0.021986369 -0.087760091 0.0011503622 2.286632e-38
-0.020199601 -0.087760091 0.0011503622 2.2683366e-38
-0.018412832 -0.087760091 0.0011503622 2.2867037e-38
-0.016623458 -0.087074608 0.0041234419 2.295887e-38
-0.014841901 -0.087074608 0.0041234419 2.3326208e-38
-0.013060346 -0.087074608 0.0041234419 2.3418043e-38
-0.011278789 -0.087074608 0.0041234419 2.332621e-38
-0.0094972337 -0.087074608 0.0041234419 2.3234379e-38
-0.0077156778 -0.087074608 0.0041234419 2.3142544e-38
-0.0059054513 -0.087760091 0.0011503622 2.3142544e-38
-0.0040845992 -0.088449612 -0.0018402413 2.3234379e-38
-0.0022925874 -0.088449612 -0.0018402413 2.3234374e-38
-0.00050057471 -0.088449612 -0.0018402413 2.3418045e-38
0.0012914371 -0.088449612 -0.0018402413 2.3234374e-38
0.0030834489 -0.088449612 -0.0018402413 2.3142541e-38
0.0049361177 -0.089143202 -0.0048484877 1.2911707e-38
0.0067334045 -0.089143202 -0.0048484877 8.9494613e-39
0.010495184 -0.10827883 -0.087843545 3.3273342e-39
0.012360936 -0.10758002 -0.084812768 2.1305986e-39
0.014298428 -0.10758002 -0.084812768 3.7897542e-39
0.01600673 -0.10575347 -0.076890595 8.7654246e-39
0.017930329 -0.10575347 -0.076890595 1.143765e-38
0.019753709 -0.10504107 -0.07380081 1.5587901e-38
0.02153464 -0.1041155 -0.069786437 2.0015098e-38
0.023445785 -0.1041155 -0.069786437 1.9925071e-38
0.025246371 -0.10343929 -0.066853531 1.8544669e-38
0.027032696 -0.10273984 -0.063819893 1.6057199e-38
0.028933376 -0.10273984 -0.063819893 1.4491328e-38
0.03083406 -0.10273984 -0.063819893 1.3940686e-38
0.032424618 -0.10114056 -0.056883462 1.3388605e-38
0.033984419 -0.099509358 -0.049808629 1.283652e-38
0.03571881 -0.098831654 -0.046869285 1.2560655e-38
0.037589774 -0.098831654 -0.046869285 1.2560296e-38
0.039612766 -0.099509358 -0.049808629 1.246882e-38
0.041653033 -0.10021709 -0.052878149 1.2468461e-38
0.043534532 -0.10021709 -0.052878149 1.2194031e-38
0.045241117 -0.099509358 -0.049808629 1.1550465e-38
0.047117237 -0.099509358 -0.049808629 1.1736285e-38
0.049179029 -0.10021709 -0.052878149 1.219582e-38
0.051060524 -0.10021709 -0.052878149 1.2655356e-38
-0.088760175 -0.11789979 -0.12089396 2.1673176e-38
-0.08656735 -0.1171829 -0.11780811 2.1673176e-38
-0.084332384 -0.11626263 -0.11384691 1.8725472e-38
-0.082343988 -0.11626263 -0.11384691 1.4208616e-38
-0.080124222 -0.11531936 -0.10978664 9.2322237e-39
-0.077541314 -0.11278872 -0.098893531 7.1160627e-39
-0.075579144 -0.11278872 -0.098893531 5.8271329e-39
-0.072683036 -0.10859399 -0.080837376 6.0104438e-39
-0.070555292 -0.10767709 -0.076890595 6.5628945e-39
-0.068482719 -0.10695927 -0.07380081 6.9298791e-39
-0.066378012 -0.10602666 -0.069786437 8.3124506e-39
-0.064335741 -0.10534529 -0.066853531 1.0800291e-38
-0.062299423 -0.10464053 -0.063819893 1.1907359e-38
-0.060398735 -0.10464053 -0.063819893 1.3659078e-38
-0.058498055 -0.10464053 -0.063819893 1.5596607e-38
-0.056335889 -0.10302909 -0.056883462 1.559876e-38
-0.054447368 -0.10302909 -0.056883462 1.45857e-38
-0.052421905 -0.10209858 -0.052878149 1.1730177e-38
-0.050540406 -0.10209858 -0.052878149 1.0624911e-38
-0.048658907 -0.10209858 -0.052878149 9.2434173e-39
-0.04747209 -0.10767709 -0.076890595 1.2465556e-38
-0.045548491 -0.10767709 -0.076890595 2.019841e-38
-0.044080622 -0.11184154 -0.094816454 2.2497155e-38
-0.042222098 -0.11278872 -0.098893531 2.3326199e-38
-0.04025992 -0.11278872 -0.098893531 2.3509879e-38
-0.038297739 -0.11278872 -0.098893531 2.3509167e-38
-0.036335558 -0.11278872 -0.098893531 2.3508809e-38
-0.033022743 -0.093950883 -0.017806657 2.3508451e-38
-0.031098507 -0.092326149 -0.010813005 2.3508451e-38
-0.029290766 -0.092326149 -0.010813005 2.3508451e-38
-0.02744953 -0.091643453 -0.0078743771 2.3508451e-38
-0.025617756 -0.09094049 -0.0048484877 2.3325497e-38
-0.023820471 -0.09094049 -0.0048484877 2.2958514e-38
-0.022004724 -0.090241626 -0.0018402413 2.2683366e-38
-0.020199601 -0.089546859 0.0011503622 2.2499695e-38
-0.018412832 -0.089546859 0.0011503622 2.2224187e-38
-0.016626064 -0.089546859 0.0011503622 2.2499691e-38
-0.014841901 -0.088856161 0.0041234419 2.3050347e-38
-0.013060346 -0.088856161 0.0041234419 2.341769e-38
-0.011278789 -0.088856161 0.0041234419 2.3325856e-38
-0.0094972337 -0.088856161 0.0041234419 2.3142544e-38
-0.0076922197 -0.089546859 0.0011503622 2.3142544e-38
-0.0059054513 -0.089546859 0.0011503622 2.3142544e-38
-0.0040845992 -0.090241626 -0.0018402413 2.3234379e-38
-0.0022925874 -0.090241626 -0.0018402413 2.3234379e-38
-0.00050057471 -0.090241626 -0.0018402413 2.341805e-38
0.0012914371 -0.090241626 -0.0018402413 2.3234379e-38
0.0030834489 -0.090241626 -0.0018402413 2.3142544e-38
0.0049361177 -0.09094049 -0.0048484877 2.0932012e-38
0.0066674743 -0.090241626 -0.0018402413 1.4387573e-38
0.0084594861 -0.090241626 -0.0018402413 8.1211566e-39
0.012360936 -0.10951753 -0.084812768 1.4848803e-39
0.014298428 -0.10951753 -0.084812768 3.2347896e-39
0.01600673 -0.10767709 -0.076890595 8.5763544e-39
0.017930329 -0.10767709 -0.076890595 1.1892871e-38
0.019753709 -0.10695927 -0.07380081 1.4844936e-38
0.02153464 -0.10602666 -0.069786437 1.844273e-38
0.023340367 -0.10534529 -0.066853531 1.8629649e-38
0.025246371 -0.10534529 -0.066853531 2.0108385e-38
0.026877202 -0.10372485 -0.059878357 1.854323e-38
0.028770972 -0.10372485 -0.059878357 1.661001e-38
0.030536097 -0.10302909 -0.056883462 1.4952658e-38
0.032108299 -0.10138547 -0.049808629 1.4125426e-38
0.033520013 -0.099063456 -0.039813526 1.3481503e-38
0.035234176 -0.098367572 -0.036818154 1.3114165e-38
0.037087519 -0.098367572 -0.036818154 1.3022694e-38
0.039095789 -0.099063456 -0.039813526 1.2839029e-38
0.041331697 -0.10070263 -0.046869285 1.2562445e-38
0.042979348 -0.099763289 -0.042825945 1.2010714e-38
0.044843223 -0.099763289 -0.042825945 1.0998723e-38
0.047117237 -0.10138547 -0.049808629 1.1552257e-38
-0.08700905 -0.12083931 -0.12490464 2.2132353e-38
-0.084332384 -0.11825104 -0.11384691 2.0567921e-38
-0.08210551 -0.11730064 -0.10978664 1.7802791e-38
-0.079901673 -0.11638646 -0.10588098 1.4024579e-38
-0.077541314 -0.11475091 -0.098893531 1.1538191e-38
-0.07536111 -0.11379658 -0.094816454 1.0064868e-38
-0.072478898 -0.10960068 -0.076890595 9.9719552e-39
-0.070555292 -0.10960068 -0.076890595 1.0156349e-38
-0.068289153 -0.1079378 -0.069786437 9.695734e-39
-0.066378012 -0.1079378 -0.069786437 9.8801281e-39
-0.064335741 -0.1072513 -0.066853531 1.0801727e-38
-0.062130101 -0.10561861 -0.059878357 1.1263427e-38
-0.060112931 -0.1049176 -0.056883462 1.1079759e-38
-0.05822441 -0.1049176 -0.056883462 1.3108781e-38
-0.056184903 -0.10398008 -0.052878149 1.4769012e-38
-0.054303404 -0.10398008 -0.052878149 1.7167497e-38
-0.05231696 -0.1032616 -0.049808629 1.6522855e-38
-0.05044084 -0.1032616 -0.049808629 1.6062601e-38
-0.048564725 -0.1032616 -0.049808629 1.5786018e-38
-0.04747209 -0.10960068 -0.076890595 1.8916676e-38
-0.045548491 -0.10960068 -0.076890595 2.102925e-38
-0.043903351 -0.11216442 -0.087843545 2.2867023e-38
-0.042222098 -0.11475091 -0.098893531 2.3142537e-38
-0.04025992 -0.11475091 -0.098893531 2.3418045e-38
-0.031202737 -0.095770895 -0.017806657 2.3508451e-38
-0.029331021 -0.094850481 -0.013874419 2.3508809e-38
-0.02748302 -0.094133899 -0.010813005 2.3508809e-38
-0.025646936 -0.093446046 -0.0078743771 2.3417691e-38
-0.023820471 -0.092737779 -0.0048484877 2.3142544e-38
-0.022023182 -0.092737779 -0.0048484877 2.2775202e-38
-0.02021271 -0.09203364 -0.0018402413 2.2499695e-38
-0.018420698 -0.09203364 -0.0018402413 2.2224189e-38
-0.016626064 -0.091333628 0.0011503622 2.2499692e-38
-0.014839295 -0.091333628 0.0011503622 2.3142539e-38
-0.013052527 -0.091333628 0.0011503622 2.341769e-38
-0.011278789 -0.090637714 0.0041234419 2.3325856e-38
-0.0094972337 -0.090637714 0.0041234419 2.3234379e-38
-0.0076922197 -0.091333628 0.0011503622 2.3142544e-38
-0.0059054513 -0.091333628 0.0011503622 2.3142544e-38
-0.0040845992 -0.09203364 -0.0018402413 2.3234379e-38
-0.0022925874 -0.09203364 -0.0018402413 2.341805e-38
-0.00050057471 -0.09203364 -0.0018402413 2.249645e-38
0.0012914371 -0.09203364 -0.0018402413 2.3234015e-38
0.0030834489 -0.09203364 -0.0018402413 2.3234379e-38
0.0049361177 -0.092737779 -0.0048484877 2.2958873e-38
0.0066674743 -0.09203364 -0.0018402413 2.1855053e-38
0.0084594861 -0.09203364 -0.0018402413 1.2637665e-38
0.010251498 -0.09203364 -0.0018402413 1.0611529e-38
0.014298428 -0.11145501 -0.084812768 5.9988634e-39
0.016120911 -0.11052449 -0.080837376 6.8221249e-39
0.018051431 -0.11052449 -0.080837376 8.3876443e-39
0.019853931 -0.10960068 -0.076890595 6.0841983e-39
0.02153464 -0.1079378 -0.069786437 5.0722128e-39
0.023340367 -0.1072513 -0.066853531 5.9970544e-39
0.025246371 -0.1072513 -0.066853531 1.4298265e-38
0.026877202 -0.10561861 -0.059878357 1.8265924e-38
0.028770972 -0.10561861 -0.059878357 1.8637223e-38
0.030536097 -0.1049176 -0.056883462 1.7349733e-38
0.031527497 -0.10022092 -0.036818154 1.6246272e-38
0.033380836 -0.10022092 -0.036818154 1.523357e-38
0.035090566 -0.099523753 -0.03383971 1.449781e-38
0.036938686 -0.099523753 -0.03383971 1.4129749e-38
0.038940858 -0.10022092 -0.036818154 1.3485103e-38
0.040954381 -0.10092205 -0.039813526 1.256351e-38
0.042979348 -0.10162716 -0.042825945 1.1550804e-38
0.044843223 -0.10162716 -0.042825945 1.2103989e-38
-0.09102463 -0.1228471 -0.12490464 2.2038355e-38
-0.084332384 -0.12023942 -0.11384691 2.2316024e-38
-0.08210551 -0.11928193 -0.10978664 2.084271e-38
-0.079901673 -0.11836089 -0.10588098 1.7985011e-38
-0.077541314 -0.11671309 -0.098893531 1.651061e-38
-0.07536111 -0.11575161 -0.094816454 1.512804e-38
-0.072478898 -0.11152427 -0.076890595 1.4300087e-38
-0.070555292 -0.11152427 -0.076890595 1.3656884e-38
-0.068289153 -0.10984896 -0.069786437 1.2275759e-38
-0.066241734 -0.10915731 -0.066853531 1.117158e-38
-0.064200103 -0.1084419 -0.063819893 1.1357062e-38
-0.062130101 -0.1075124 -0.059878357 1.1174478e-38
-0.0599479 -0.10586159 -0.052878149 9.8848196e-39
-0.057945304 -0.10513772 -0.049808629 1.0622748e-38
-0.056069192 -0.10513772 -0.049808629 1.1636537e-38
-0.054087427 -0.10444455 -0.046869285 1.5047029e-38
-0.052078221 -0.10349102 -0.042825945 1.5323253e-38
-0.050214346 -0.10349102 -0.042825945 1.578279e-38
-0.048564725 -0.10513772 -0.049808629 1.6703297e-38
-0.046688609 -0.10513772 -0.049808629 1.9282942e-38
-0.045846153 -0.11410724 -0.087843545 2.158134e-38
-0.043903351 -0.11410724 -0.087843545 2.2224189e-38
-0.031144135 -0.096663594 -0.013874419 2.3508809e-38
-0.029331021 -0.096663594 -0.013874419 2.3508451e-38
-0.027517907 -0.096663594 -0.013874419 2.3416615e-38
-0.025675274 -0.095941633 -0.010813005 2.3232944e-38
-0.023844345 -0.09524864 -0.0078743771 2.2774125e-38
-0.022023182 -0.094535068 -0.0048484877 2.2499336e-38
-0.020225897 -0.094535068 -0.0048484877 2.2316024e-38
-0.018428609 -0.094535068 -0.0048484877 2.2132353e-38
-0.016628686 -0.093825653 -0.0018402413 2.2499691e-38
-0.014839295 -0.093120396 0.0011503622 2.3326206e-38
-0.013052527 -0.093120396 0.0011503622 2.3509874e-38
-0.011265758 -0.093120396 0.0011503622 2.3418042e-38
-0.0094789891 -0.093120396 0.0011503622 2.3418045e-38
-0.0076922197 -0.093120396 0.0011503622 2.3418047e-38
-0.0059054513 -0.093120396 0.0011503622 2.3418045e-38
-0.0040845992 -0.093825653 -0.0018402413 2.3418043e-38
-0.0022925874 -0.093825653 -0.0018402413 2.3509876e-38
-0.00050057471 -0.093825653 -0.0018402413 2.3509876e-38
0.0012914371 -0.093825653 -0.0018402413 2.2495722e-38
0.0030834489 -0.093825653 -0.0018402413 2.350988e-38
0.0048754625 -0.093825653 -0.0018402413 2.2958873e-38
0.0066674743 -0.093825653 -0.0018402413 2.2407501e-38
0.0084594861 -0.093825653 -0.0018402413 2.2040518e-38
0.010251498 -0.093825653 -0.0018402413 1.3468149e-38
0.012043511 -0.093825653 -0.0018402413 6.4598416e-39
0.013835523 -0.093825653 -0.0018402413 5.0715009e-39
0.017930329 -0.11152427 -0.076890595 6.5451891e-39
0.019853931 -0.11152427 -0.076890595 4.6101669e-39
0.021671891 -0.11079563 -0.07380081 4.7048848e-39
0.023590077 -0.11079563 -0.07380081 5.9063147e-39
0.025508258 -0.11079563 -0.07380081 1.4576308e-38
0.025574077 -0.099722609 -0.026846059 1.8267011e-38
0.027409934 -0.099722609 -0.026846059 1.8639017e-38
0.029546212 -0.10137187 -0.03383971 1.7719586e-38
0.031394329 -0.10137187 -0.03383971 1.6523931e-38
0.033054061 -0.10041572 -0.029785164 1.5603423e-38
0.03489507 -0.10041572 -0.029785164 1.5052052e-38
0.036736079 -0.10041572 -0.029785164 1.4960575e-38
0.038786802 -0.10137187 -0.03383971 1.4408127e-38
0.040634919 -0.10137187 -0.03383971 1.3394708e-38
0.042483039 -0.10137187 -0.03383971 1.2564601e-38
0.044331156 -0.10137187 -0.03383971 1.2839749e-38
-0.09102463 -0.12485488 -0.12490464 2.2498245e-38
-0.089016832 -0.12485488 -0.12490464 2.2406775e-38
-0.086759411 -0.12390204 -0.12089396 2.2499336e-38
-0.084758662 -0.12390204 -0.12089396 2.2591531e-38
-0.082576655 -0.12316893 -0.11780811 2.2591531e-38
-0.080124222 -0.12126322 -0.10978664 2.2223112e-38
-0.077541314 -0.11867525 -0.098893531 2.2958873e-38
-0.075203538 -0.11700659 -0.091869839 2.10235e-38
-0.072683036 -0.11438553 -0.080837376 1.9734569e-38
-0.070555292 -0.11344786 -0.076890595 1.9369037e-38
-0.068482719 -0.1127138 -0.07380081 1.8173741e-38
-0.066241734 -0.11106332 -0.066853531 1.6332726e-38
-0.064200103 -0.11034258 -0.063819893 1.4215481e-38
-0.062001459 -0.10869466 -0.056883462 1.2465573e-38
-0.059821427 -0.10701384 -0.049808629 1.2374462e-38
-0.05782935 -0.10631551 -0.046869285 1.182237e-38
-0.055805966 -0.10535492 -0.042825945 1.0253962e-38
-0.053942095 -0.10535492 -0.042825945 1.1359225e-38
-0.052078221 -0.10535492 -0.042825945 1.117267e-38
-0.050214346 -0.10535492 -0.042825945 1.2738911e-38
-0.048350472 -0.10535492 -0.042825945 1.4581739e-38
-0.047788959 -0.11605005 -0.087843545 1.679262e-38
-0.045846153 -0.11605005 -0.087843545 1.9834672e-38
-0.043903351 -0.11605005 -0.087843545 2.029385e-38
-0.031098507 -0.097749382 -0.010813005 2.3509527e-38
-0.029290766 -0.097749382 -0.010813005 2.2955999e-38
-0.027517907 -0.098476708 -0.013874419 2.2402822e-38
-0.025646936 -0.097051233 -0.0078743771 2.1481585e-38
-0.023844345 -0.097051233 -0.0078743771 2.0561067e-38
-0.022023182 -0.096332356 -0.0048484877 2.0285922e-38
-0.020225897 -0.096332356 -0.0048484877 2.0748338e-38
-0.018420698 -0.095617667 -0.0018402413 2.1394428e-38
-0.016628686 -0.095617667 -0.0018402413 2.2223103e-38
-0.014836673 -0.095617667 -0.0018402413 2.350988e-38
-0.013052527 -0.094907165 0.0011503622 2.3509879e-38
-0.011265758 -0.094907165 0.0011503622 2.350988e-38
-0.0094789891 -0.094907165 0.0011503622 2.3509883e-38
-0.0076922197 -0.094907165 0.0011503622 2.3509883e-38
-0.0058766119 -0.095617667 -0.0018402413 2.3509883e-38
-0.0040845992 -0.095617667 -0.0018402413 2.350988e-38
-0.0022925874 -0.095617667 -0.0018402413 2.3509879e-38
-0.00050057471 -0.095617667 -0.0018402413 2.3416603e-38
0.0012914371 -0.095617667 -0.0018402413 2.3509161e-38
0.0030834489 -0.095617667 -0.0018402413 2.3509527e-38
0.0048754625 -0.095617667 -0.0018402413 2.2865602e-38
0.0066674743 -0.095617667 -0.0018402413 2.2867037e-38
0.0084594861 -0.095617667 -0.0018402413 2.2499695e-38
0.010251498 -0.095617667 -0.0018402413 2.1211487e-38
0.012043511 -0.095617667 -0.0018402413 1.2360013e-38
0.013835523 -0.095617667 -0.0018402413 1.1618495e-38
0.015902851 -0.097749382 -0.010813005 1.2631931e-38
0.017937444 -0.099410906 -0.017806657 1.2356068e-38
0.019757453 -0.099410906 -0.017806657 1.4663483e-38
0.021685135 -0.10012263 -0.020802386 1.3744052e-38
0.02373822 -0.10155846 -0.026846059 1.6420972e-38
0.025574077 -0.10155846 -0.026846059 1.5225314e-38
0.027409934 -0.10155846 -0.026846059 1.4398075e-38
0.029245786 -0.10155846 -0.026846059 1.3017309e-38
0.031081643 -0.10155846 -0.026846059 1.2281906e-38
0.033054061 -0.10225673 -0.029785164 1.2006761e-38
0.03489507 -0.10225673 -0.029785164 1.2468818e-38
0.036736079 -0.10225673 -0.029785164 1.320745e-38
0.038577087 -0.10225673 -0.029785164 1.348475e-38
0.040634919 -0.10322 -0.03383971 1.3023779e-38
0.042483039 -0.10322 -0.03383971 1.2469896e-38
0.05820189 -0.094200835 0.0041234419 9.7869095e-39
0.059983451 -0.094200835 0.0041234419 7.0214063e-39
-0.09102463 -0.12686269 -0.12490464 2.2035823e-38
-0.089016832 -0.12686269 -0.12490464 2.3234374e-38
-0.086759411 -0.12590279 -0.12089396 2.2958867e-38
-0.084758662 -0.12590279 -0.12089396 2.2958873e-38
-0.082757913 -0.12590279 -0.12089396 2.2958873e-38
-0.080124222 -0.12324448 -0.10978664 2.3234379e-38
-0.077541314 -0.12063743 -0.098893531 2.3509524e-38
-0.075203538 -0.11895646 -0.091869839 2.3509527e-38
-0.072683036 -0.11631607 -0.080837376 2.2219158e-38
-0.070555292 -0.11537148 -0.076890595 2.0839475e-38
-0.068482719 -0.114632 -0.07380081 1.9830009e-38
-0.066241734 -0.11296929 -0.066853531 1.8081547e-38
-0.064200103 -0.11224325 -0.063819893 1.5779555e-38
-0.061829396 -0.10962458 -0.052878149 1.3385357e-38
-0.059700318 -0.10818647 -0.046869285 1.228046e-38
-0.057669841 -0.10721879 -0.042825945 1.1728731e-38
-0.055579495 -0.10578094 -0.036818154 1.1727652e-38
-0.053726155 -0.10578094 -0.036818154 1.1450702e-38
-0.051872812 -0.10578094 -0.036818154 1.1172673e-38
-0.050019473 -0.10578094 -0.036818154 1.1540014e-38
-0.048166133 -0.10578094 -0.036818154 1.2922584e-38
-0.0460243 -0.10339431 -0.026846059 1.4581739e-38
-0.04367286 -0.098853827 -0.0078743771 1.5872827e-38
-0.031098507 -0.099557132 -0.010813005 2.2682286e-38
-0.029290766 -0.099557132 -0.010813005 2.2219863e-38
-0.027517907 -0.10028981 -0.013874419 2.2496087e-38
-0.025646936 -0.098853827 -0.0078743771 2.2403891e-38
-0.023844345 -0.098853827 -0.0078743771 2.2312058e-38
-0.022004724 -0.09740968 -0.0018402413 2.2036197e-38
-0.02021271 -0.09740968 -0.0018402413 2.0745822e-38
-0.018420698 -0.09740968 -0.0018402413 1.9824946e-38
-0.016628686 -0.09740968 -0.0018402413 2.0652908e-38
-0.014836673 -0.09740968 -0.0018402413 2.1940768e-38
-0.013052527 -0.096693933 0.0011503622 2.3045317e-38
-0.011265758 -0.096693933 0.0011503622 2.3508809e-38
-0.0094789891 -0.096693933 0.0011503622 2.3509168e-38
-0.0076922197 -0.096693933 0.0011503622 2.3509168e-38
-0.0058766119 -0.09740968 -0.0018402413 2.3508809e-38
-0.0040845992 -0.09740968 -0.0018402413 2.3508809e-38
-0.0022925874 -0.09740968 -0.0018402413 2.3509168e-38
-0.00050057471 -0.09740968 -0.0018402413 2.3508809e-38
0.0012914371 -0.09740968 -0.0018402413 2.3230789e-38
0.0030834489 -0.09740968 -0.0018402413 2.3509168e-38
0.0048754625 -0.09740968 -0.0018402413 2.3232944e-38
0.0066674743 -0.09740968 -0.0018402413 2.2958155e-38
0.0084594861 -0.09740968 -0.0018402413 2.1577753e-38
0.010251498 -0.09740968 -0.0018402413 2.2132353e-38
0.012043511 -0.09740968 -0.0018402413 1.4018841e-38
0.014095105 -0.099557132 -0.010813005 1.4385842e-38
0.015902851 -0.099557132 -0.010813005 1.5214895e-38
0.017937444 -0.10123092 -0.017806657 1.5400368e-38
0.019757453 -0.10123092 -0.017806657 1.438766e-38
0.021685135 -0.10194789 -0.020802386 1.2270047e-38
0.023510393 -0.10194789 -0.020802386 1.0612329e-38
0.025454521 -0.10266902 -0.02381552 9.6936153e-39
0.027285066 -0.10266902 -0.02381552 9.4188318e-39
0.029245786 -0.10339431 -0.026846059 1.0065643e-38
0.031081643 -0.10339431 -0.026846059 1.0066725e-38
0.033054061 -0.10409774 -0.029785164 8.8692636e-39
0.03489507 -0.10409774 -0.029785164 9.6997403e-39
0.036736079 -0.10409774 -0.029785164 9.1472868e-39
0.038577087 -0.10409774 -0.029785164 1.089936e-38
0.040418096 -0.10409774 -0.029785164 1.0714966e-38
0.056843821 -0.09740968 -0.0018402413 1.2090699e-38
0.05820189 -0.095982388 0.0041234419 8.771659e-39
0.059311528 -0.093824327 0.013140552 8.2188481e-39
0.061077271 -0.093824327 0.013140552 8.495435e-39
0.062608674 -0.093105495 0.01614403 6.8366325e-39
0.064130962 -0.092390925 0.019129746 7.3898063e-39
0.065886214 -0.092390925 0.019129746 8.2202872e-39
0.067386054 -0.091656998 0.022196345 6.8355507e-39
0.068627439 -0.09022589 0.028176002 8.1216078e-39
0.070105456 -0.089505136 0.031187527 7.1964061e-39
0.071839549 -0.089505136 0.031187527 7.1027615e-39
0.073573656 -0.089505136 0.031187527 7.0101889e-39
-0.09102463 -0.12887047 -0.12490464 2.1390091e-38
-0.089016832 -0.12887047 -0.12490464 2.3234367e-38
-0.08700905 -0.12887047 -0.12490464 2.3234369e-38
-0.084758662 -0.12790357 -0.12089396 2.3234374e-38
-0.082757913 -0.12790357 -0.12089396 2.3234374e-38
-0.080355592 -0.12620462 -0.11384691 2.350988e-38
-0.077541314 -0.12259962 -0.098893531 2.3047103e-38
-0.07536111 -0.12161671 -0.094816454 2.3507726e-38
-0.072683036 -0.11824657 -0.080837376 2.3509527e-38
-0.070555292 -0.11729507 -0.076890595 2.3234379e-38
-0.068482719 -0.11655019 -0.07380081 2.2591531e-38
-0.066241734 -0.1148753 -0.066853531 2.1672458e-38
-0.064023875 -0.11319371 -0.059878357 1.9463025e-38
-0.061829396 -0.11150609 -0.052878149 1.84514e-38
-0.059700318 -0.11005743 -0.046869285 1.5318577e-38
-0.057551 -0.1083564 -0.039813526 1.4213676e-38
-0.055467218 -0.10691623 -0.03383971 1.2924023e-38
-0.053473365 -0.10593875 -0.029785164 1.1725844e-38
-0.051632356 -0.10593875 -0.029785164 1.0527304e-38
-0.049791347 -0.10593875 -0.029785164 9.7897415e-39
-0.047860157 -0.10523017 -0.026846059 1.0066328e-38
-0.029252119 -0.10065642 -0.0078743771 2.295887e-38
-0.025646936 -0.10065642 -0.0078743771 2.3418045e-38
-0.023844345 -0.10065642 -0.0078743771 2.3418047e-38
-0.022004724 -0.099201679 -0.0018402413 2.341805e-38
-0.020199601 -0.098480701 0.0011503622 2.2772686e-38
-0.018412832 -0.098480701 0.0011503622 2.2680492e-38
-0.016626064 -0.098480701 0.0011503622 2.3509527e-38
-0.014839295 -0.098480701 0.0011503622 2.3414822e-38
-0.013052527 -0.098480701 0.0011503622 2.3507733e-38
-0.011265758 -0.098480701 0.0011503622 2.3508809e-38
-0.0094972337 -0.097763941 0.0041234419 2.3509168e-38
-0.0077156778 -0.097763941 0.0041234419 2.3509168e-38
-0.0058766119 -0.099201679 -0.0018402413 2.3508809e-38
-0.0040845992 -0.099201679 -0.0018402413 2.3324421e-38
-0.0022925874 -0.099201679 -0.0018402413 2.3415539e-38
-0.00050057471 -0.099201679 -0.0018402413 2.3508451e-38
0.0012914371 -0.099201679 -0.0018402413 2.3508092e-38
0.0031388309 -0.099926919 -0.0048484877 2.2678703e-38
0.0049361177 -0.099926919 -0.0048484877 2.0099037e-38
0.0067334045 -0.099926919 -0.0048484877 1.9823903e-38
0.0085306913 -0.099926919 -0.0048484877 1.7245314e-38
0.010327978 -0.099926919 -0.0048484877 1.5495048e-38
0.012125265 -0.099926919 -0.0048484877 5.9067183e-39
0.014095105 -0.10136487 -0.010813005 7.1964005e-39
0.015902851 -0.10136487 -0.010813005 7.9332607e-39
0.017809898 -0.10210292 -0.013874419 7.4737273e-39
0.019859876 -0.10377313 -0.020802386 5.631258e-39
0.021577459 -0.10305093 -0.017806657 3.327812e-39
0.023397464 -0.10305093 -0.017806657 1.946681e-39
0.025335655 -0.10377313 -0.020802386 1.5793404e-39
0.024359193 -0.087380111 0.04719501 1.4882266e-39
0.02606523 -0.087380111 0.04719501 1.8584511e-39
0.027771268 -0.087380111 0.04719501 1.0297694e-39
0.029573329 -0.087878346 0.045128338 1.3985519e-39
0.031713571 -0.090031251 0.036198191 6.6098408e-40
0.033438891 -0.090031251 0.036198191 2.0442745e-39
0.035164207 -0.090031251 0.036198191 1.4910979e-39
0.036889527 -0.090031251 0.036198191 2.3201369e-39
0.040340163 -0.090031251 0.036198191 4.531725e-39
0.042065483 -0.090031251 0.036198191 6.0986849e-39
0.043790799 -0.090031251 0.036198191 8.4946979e-39
0.045516118 -0.090031251 0.036198191 9.2319084e-39
0.056843821 -0.099201679 -0.0018402413 1.199669e-38
0.057545777 -0.09559007 0.013140552 9.5074037e-39
0.059087712 -0.094865978 0.01614403 9.7850696e-39
0.060620476 -0.094146177 0.019129746 1.0246412e-38
0.062136453 -0.093406871 0.022196345 8.3106752e-39
0.063650995 -0.092695728 0.025146119 8.0337394e-39
0.065395698 -0.092695728 0.025146119 8.0337506e-39
0.067386054 -0.093406871 0.022196345 6.0962032e-39
0.068627439 -0.091965273 0.028176002 4.5263496e-39
0.070105456 -0.091239244 0.031187527 4.063561e-39
0.071839549 -0.091239244 0.031187527 3.6936924e-39
0.073573656 -0.091239244 0.031187527 4.1528545e-39
0.075307764 -0.091239244 0.031187527 4.7967666e-39
0.07685148 -0.090749919 0.033217184 1.8552071e-40
-0.09102463 -0.13087825 -0.12490464 2.0929113e-38
-0.089016832 -0.13087825 -0.12490464 2.3049256e-38
-0.08700905 -0.13087825 -0.12490464 2.3325843e-38
-0.084758662 -0.12990431 -0.12089396 2.3418043e-38
-0.082757913 -0.12990431 -0.12089396 2.3418043e-38
-0.080355592 -0.12819304 -0.11384691 2.3417687e-38
-0.077761255 -0.12552883 -0.10287572 2.3509527e-38
-0.075579144 -0.1245618 -0.098893531 2.3048194e-38
-0.072888657 -0.12114246 -0.084812768 2.3509527e-38
-0.070555292 -0.11921866 -0.076890595 2.3232944e-38
-0.068482719 -0.11846836 -0.07380081 2.2772688e-38
-0.066241734 -0.11678131 -0.066853531 2.3142544e-38
-0.064023875 -0.11508749 -0.059878357 2.2130201e-38
-0.061829396 -0.11338757 -0.052878149 2.2039441e-38
-0.059700318 -0.11192839 -0.046869285 1.9091009e-38
-0.057551 -0.11021499 -0.039813526 1.7341824e-38
-0.055467218 -0.10876434 -0.03383971 1.5131661e-38
-0.053473365 -0.10777976 -0.029785164 1.3289919e-38
-0.051531866 -0.10706602 -0.026846059 1.1725128e-38
-0.049696013 -0.10706602 -0.026846059 1.0712785e-38
-0.047860157 -0.10706602 -0.026846059 1.0253613e-38
-0.04367286 -0.10245901 -0.0078743771 1.0254336e-38
-0.023773139 -0.10026747 0.0011503622 2.2958151e-38
-0.021986369 -0.10026747 0.0011503622 2.3509886e-38
-0.02018657 -0.099545494 0.0041234419 2.3509527e-38
-0.018405013 -0.099545494 0.0041234419 2.3416615e-38
-0.016623458 -0.099545494 0.0041234419 2.3508809e-38
-0.014841901 -0.099545494 0.0041234419 2.3508809e-38
-0.013052527 -0.10026747 0.0011503622 2.3508809e-38
-0.011265758 -0.10026747 0.0011503622 2.3508809e-38
-0.0098655522 -0.084970593 0.064142816 2.3509168e-38
-0.0081892312 -0.084970593 0.064142816 2.3509527e-38
-0.0058476022 -0.10172421 -0.0048484877 2.3509527e-38
-0.0040503154 -0.10172421 -0.0048484877 2.3509527e-38
-0.0022925874 -0.10099369 -0.0018402413 2.3417333e-38
-0.00050057471 -0.10099369 -0.0018402413 2.2310272e-38
0.0012914371 -0.10099369 -0.0018402413 2.314075e-38
0.0030834489 -0.10099369 -0.0018402413 2.314075e-38
0.0049361177 -0.10172421 -0.0048484877 2.1299018e-38
0.0067997221 -0.10245901 -0.0078743771 2.0932393e-38
0.0086023137 -0.10245901 -0.0078743771 1.687761e-38
0.010327978 -0.10172421 -0.0048484877 1.309976e-38
0.012125265 -0.10172421 -0.0048484877 4.8947243e-39
0.014183672 -0.10391603 -0.013874419 4.8014749e-39
0.015996784 -0.10391603 -0.013874419 6.3680958e-39
0.017809898 -0.10391603 -0.013874419 7.1985823e-39
0.019859876 -0.10559841 -0.020802386 6.2780666e-39
0.021577459 -0.10487093 -0.017806657 5.2642804e-39
0.023397464 -0.10487093 -0.017806657 4.7125499e-39
0.025217474 -0.10487093 -0.017806657 4.3452093e-39
0.024359193 -0.089086145 0.04719501 3.8849529e-39
0.02606523 -0.089086145 0.04719501 5.3600829e-39
0.02786367 -0.089588001 0.045128338 4.2537354e-39
0.029573329 -0.089588001 0.045128338 4.3459282e-39
0.031713571 -0.091756567 0.036198191 3.8845871e-39
0.033438891 -0.091756567 0.036198191 6.280949e-39
0.035164207 -0.091756567 0.036198191 6.6497287e-39
0.036889527 -0.091756567 0.036198191 8.3088857e-39
0.038779486 -0.092480466 0.033217184 8.4007086e-39
0.040510032 -0.092480466 0.033217184 9.968735e-39
0.042065483 -0.091756567 0.036198191 1.0245319e-38
0.043790799 -0.091756567 0.036198191 1.1074018e-38
0.045516118 -0.091756567 0.036198191 1.0520136e-38
0.047241438 -0.091756567 0.036198191 8.6751557e-39
0.05184425 -0.095901415 0.019129746 9.7811319e-39
0.053599495 -0.095901415 0.019129746 1.0980377e-38
0.05535474 -0.095901415 0.019129746 1.2365091e-38
0.057327237 -0.096626461 0.01614403 1.0060552e-38
0.058865231 -0.095901415 0.019129746 9.5080973e-39
0.060386587 -0.095156729 0.022196345 8.6783493e-39
0.061906304 -0.094440416 0.025146119 5.8199541e-39
0.063409284 -0.093704656 0.028176002 4.8043924e-39
0.065148667 -0.093704656 0.028176002 4.2508865e-39
0.066888049 -0.093704656 0.028176002 2.3140594e-39
0.068371348 -0.092973351 0.031187527 6.5486321e-40
0.070105456 -0.092973351 0.031187527 1.115463e-39
0.071839549 -0.092973351 0.031187527 9.2998574e-40
0.073390387 -0.092480466 0.033217184 1.7579359e-39
0.075120933 -0.092480466 0.033217184 1.9401482e-39
0.07685148 -0.092480466 0.033217184 1.8539179e-42
0.077443831 -0.089588001 0.045128338 3.6917068e-40
-0.093032412 -0.13288604 -0.12490464 1.8254721e-38
-0.09102463 -0.13288604 -0.12490464 2.1390091e-38
-0.089016832 -0.13288604 -0.12490464 2.3418036e-38
-0.086759411 -0.13190506 -0.12089396 2.3418039e-38
-0.084571995 -0.13115029 -0.11780811 2.3509876e-38
-0.082343988 -0.13018142 -0.11384691 2.3418042e-38
-0.080124222 -0.12918831 -0.10978664 2.3234015e-38
-0.077761255 -0.12749799 -0.10287572 2.3234379e-38
-0.075579144 -0.12652399 -0.098893531 2.2404631e-38
-0.072888657 -0.12307997 -0.084812768 2.314075e-38
-0.070555292 -0.12114228 -0.076890595 2.3509527e-38
-0.068482719 -0.12038656 -0.07380081 2.3509161e-38
-0.066241734 -0.11868732 -0.066853531 2.350916e-38
-0.064200103 -0.11794533 -0.063819893 2.3509521e-38
-0.062001459 -0.11624874 -0.056883462 2.3324775e-38
-0.059700318 -0.11379938 -0.046869285 2.3234379e-38
-0.057551 -0.11207359 -0.039813526 2.1485917e-38
-0.055467218 -0.11061247 -0.03383971 1.8722951e-38
-0.053473365 -0.10962076 -0.029785164 1.5960698e-38
-0.051531866 -0.10890187 -0.026846059 1.338284e-38
-0.049696013 -0.10890187 -0.026846059 1.1634377e-38
-0.047860157 -0.10890187 -0.026846059 1.0622396e-38
-0.045560464 -0.10498036 -0.010813005 1.0162865e-38
-0.04367286 -0.10426159 -0.0078743771 9.3327487e-39
-0.041640826 -0.10205424 0.0011503622 1.0162144e-38
-0.039854057 -0.10205424 0.0011503622 1.0622034e-38
-0.03800213 -0.10132705 0.0041234419 1.0897528e-38
-0.036220573 -0.10132705 0.0041234419 1.2739985e-38
-0.023773139 -0.10205424 0.0011503622 2.2683007e-38
-0.021986369 -0.10205424 0.0011503622 2.341805e-38
-0.020173168 -0.10057923 0.0071809217 2.3509527e-38
-0.018396972 -0.10057923 0.0071809217 2.3416615e-38
-0.016620778 -0.10057923 0.0071809217 2.3508809e-38
-0.014841901 -0.10132705 0.0041234419 2.3509167e-38
-0.013052527 -0.10205424 0.0011503622 2.3417327e-38
-0.011265758 -0.10205424 0.0011503622 2.3141103e-38
-0.0098655522 -0.086646914 0.064142816 2.3141822e-38
-0.0081892312 -0.086646914 0.064142816 2.3142542e-38
-0.0058476022 -0.10352151 -0.0048484877 2.3142541e-38
-0.0040503154 -0.10352151 -0.0048484877 2.3050704e-38
-0.0022925874 -0.10278571 -0.0018402413 2.2958864e-38
-0.00050057471 -0.10278571 -0.0018402413 2.3234376e-38
0.0012914371 -0.10278571 -0.0018402413 2.3142544e-38
0.0030834489 -0.10278571 -0.0018402413 2.2867037e-38
0.0049361177 -0.10352151 -0.0048484877 2.1947606e-38
0.0067997221 -0.10426159 -0.0078743771 2.1856847e-38
0.0086718723 -0.10498036 -0.010813005 1.7803155e-38
0.010479616 -0.10498036 -0.010813005 1.6514225e-38
0.010548852 -0.089333788 0.05315762 1.4210072e-38
0.012244435 -0.089333788 0.05315762 1.6606439e-38
0.016209356 -0.10742365 -0.020802386 1.7804247e-38
0.018034618 -0.10742365 -0.020802386 1.7988994e-38
0.019859876 -0.10742365 -0.020802386 1.6791186e-38
0.021577459 -0.10669093 -0.017806657 1.5869603e-38
0.023397464 -0.10669093 -0.017806657 1.5409349e-38
0.022970088 -0.092757151 0.039161257 1.439593e-38
0.024564952 -0.092013597 0.042201273 1.3289599e-38
0.026154008 -0.091297671 0.045128338 1.2643881e-38
0.02786367 -0.091297671 0.045128338 1.2643522e-38
0.029709332 -0.092013597 0.042201273 1.1997445e-38
0.031713571 -0.093481898 0.036198191 1.3471835e-38
0.033438891 -0.093481898 0.036198191 1.2549176e-38
0.035164207 -0.093481898 0.036198191 1.2456261e-38
0.036889527 -0.093481898 0.036198191 9.9662575e-39
0.038779486 -0.094211012 0.033217184 8.9528104e-39
0.040510032 -0.094211012 0.033217184 7.2021472e-39
0.042065483 -0.093481898 0.036198191 5.1745594e-39
0.043611564 -0.092757151 0.039161257 3.6983644e-39
0.045331687 -0.092757151 0.039161257 2.4069207e-39
0.047051813 -0.092757151 0.039161257 7.4633156e-40
0.048966754 -0.093481898 0.036198191 1.0096215e-40
0.05069207 -0.093481898 0.036198191 1.1143868e-39
0.052417394 -0.093481898 0.036198191 1.7604639e-39
0.05449852 -0.094707444 0.031187527 8.3885369e-40
0.056672212 -0.096185118 0.025146119 8.3615479e-42
0.058416907 -0.096185118 0.025146119 1.052235e-41
0.060161602 -0.096185118 0.025146119 4.7187184e-40
0.061669897 -0.095444039 0.028176002 9.1154465e-42
0.063169032 -0.094707444 0.031187527 1.024153e-40
0.06490314 -0.094707444 0.031187527 1.0233178e-39
0.066888049 -0.095444039 0.028176002 1.0243352e-40
0.068371348 -0.094707444 0.031187527 9.4895932e-42
0.070105456 -0.094707444 0.031187527 1.0257841e-39
0.071839549 -0.094707444 0.031187527 1.0239862e-39
0.073390387 -0.094211012 0.033217184 2.3121957e-39
0.074846528 -0.093481898 0.036198191 1.4806148e-39
0.076293908 -0.092757151 0.039161257 1.2018418e-39
0.077443831 -0.091297671 0.045128338 8.3158936e-40
0.07866139 -0.090060756 0.050185435 2.3052579e-39
0.080067746 -0.089333788 0.05315762 7.371993e-40
0.08176332 -0.089333788 0.05315762 1.1045413e-39
-0.093032412 -0.13489382 -0.12490464 1.8162528e-38
-0.09102463 -0.13489382 -0.12490464 2.1758518e-38
-0.089016832 -0.13489382 -0.12490464 2.3509876e-38
-0.086759411 -0.13390581 -0.12089396 2.3325846e-38
-0.084571995 -0.13314565 -0.11780811 2.3509879e-38
-0.082343988 -0.13216983 -0.11384691 2.3233652e-38
-0.080124222 -0.1311696 -0.10978664 2.341805e-38
-0.077761255 -0.12946714 -0.10287572 2.2958873e-38
-0.075579144 -0.12848614 -0.098893531 2.2958873e-38
-0.072888657 -0.12501745 -0.084812768 2.341805e-38
-0.070555292 -0.12306587 -0.076890595 2.3509883e-38
-0.068482719 -0.12230472 -0.07380081 2.3509517e-38
-0.066241734 -0.12059332 -0.066853531 2.3322598e-38
-0.064023875 -0.11887501 -0.059878357 2.3509149e-38
-0.061829396 -0.11715056 -0.052878149 2.3509151e-38
-0.059700318 -0.11567034 -0.046869285 2.3509517e-38
-0.057551 -0.11393218 -0.039813526 2.3233662e-38
-0.055467218 -0.11246057 -0.03383971 2.1117138e-38
-0.053473365 -0.11146177 -0.029785164 1.8539278e-38
-0.051531866 -0.11073773 -0.026846059 1.5684835e-38
-0.049499977 -0.10924892 -0.020802386 1.3290645e-38
-0.047674716 -0.10924892 -0.020802386 1.1357787e-38
-0.045560464 -0.10678811 -0.010813005 1.0253249e-38
-0.043590624 -0.1053188 -0.0048484877 1.1175572e-38
-0.041565239 -0.1031086 0.0041234419 1.1267768e-38
-0.039783686 -0.1031086 0.0041234419 1.0806426e-38
-0.037935119 -0.10235542 0.0071809217 1.0252526e-38
-0.036158927 -0.10235542 0.0071809217 1.080497e-38
-0.034273013 -0.1008873 0.013140552 1.3384281e-38
-0.032507267 -0.1008873 0.013140552 1.6332726e-38
-0.026947249 -0.095207214 0.036198191 2.1673176e-38
-0.025221929 -0.095207214 0.036198191 2.2224189e-38
-0.023496611 -0.095207214 0.036198191 2.2591531e-38
-0.021949362 -0.10235542 0.0071809217 2.2867037e-38
-0.020173168 -0.10235542 0.0071809217 2.3049991e-38
-0.018396972 -0.10235542 0.0071809217 2.3325138e-38
-0.016620778 -0.10235542 0.0071809217 2.3509883e-38
-0.014844581 -0.10235542 0.0071809217 2.350987e-38
-0.013181489 -0.091761544 0.050185435 2.3418031e-38
-0.011528742 -0.089061275 0.061146848 2.3142527e-38
-0.0098471679 -0.089061275 0.061146848 2.2958856e-38
-0.0081655923 -0.089061275 0.061146848 2.2775185e-38
-0.006436348 -0.090279013 0.056203596 2.2775185e-38
-0.0047461055 -0.090279013 0.056203596 2.2775182e-38
-0.003081223 -0.089803949 0.058132045 2.2775179e-38
-0.0013943622 -0.089803949 0.058132045 2.2407834e-38
0.00024228171 -0.089061275 0.061146848 2.240784e-38
0.0019238573 -0.089061275 0.061146848 2.194867e-38
0.0036054328 -0.089061275 0.061146848 2.1673176e-38
0.0053953473 -0.090279013 0.056203596 2.1489505e-38
0.0070855897 -0.090279013 0.056203596 1.9743554e-38
0.0088532697 -0.091029361 0.05315762 1.9377288e-38
0.010548852 -0.091029361 0.05315762 1.974463e-38
0.012244435 -0.091029361 0.05315762 1.8916317e-38
0.014369473 -0.094477281 0.039161257 1.8731929e-38
0.016089596 -0.094477281 0.039161257 1.7625239e-38
0.017809719 -0.094477281 0.039161257 1.6058655e-38
0.019529842 -0.094477281 0.039161257 1.5506566e-38
0.021249965 -0.094477281 0.039161257 1.6059731e-38
0.022970088 -0.094477281 0.039161257 1.5874984e-38
0.024564952 -0.093728393 0.042201273 1.4953042e-38
0.026279744 -0.093728393 0.042201273 1.3477216e-38
0.02799454 -0.093728393 0.042201273 1.2738586e-38
0.029709332 -0.093728393 0.042201273 1.098582e-38
0.031570703 -0.094477281 0.039161257 1.1169491e-38
0.033290826 -0.094477281 0.039161257 8.9550048e-39
0.035010949 -0.094477281 0.039161257 7.387319e-39
0.036889527 -0.095207214 0.036198191 4.0671945e-39
0.038779486 -0.095941558 0.033217184 2.8686373e-39
0.040510032 -0.095941558 0.033217184 2.5931042e-39
0.042065483 -0.095207214 0.036198191 8.420949e-40
0.043611564 -0.094477281 0.039161257 2.8784492e-40
0.045331687 -0.094477281 0.039161257 5.6407868e-40
0.047051813 -0.094477281 0.039161257 2.864212e-40
0.048966754 -0.095207214 0.036198191 9.4811854e-42
0.05069207 -0.095207214 0.036198191 8.7693258e-42
0.052417394 -0.095207214 0.036198191 6.9742625e-42
0.054354388 -0.095941558 0.033217184 8.4175999e-42
0.05623262 -0.096441552 0.031187527 7.3400014e-42
0.05796672 -0.096441552 0.031187527 4.6975869e-40
0.059930515 -0.097183421 0.028176002 9.314529e-40
0.061669897 -0.097183421 0.028176002 2.8751702e-40
0.063169032 -0.096441552 0.031187527 5.6481717e-40
0.06490314 -0.096441552 0.031187527 8.4140126e-40
0.066637248 -0.096441552 0.031187527 1.2353847e-41
0.068627439 -0.097183421 0.028176002 1.988975e-40
0.070366822 -0.097183421 0.028176002 1.7655043e-39
0.071839549 -0.096441552 0.031187527 1.9477404e-39
0.073573656 -0.096441552 0.031187527 2.7753361e-39
0.074846528 -0.095207214 0.036198191 1.6660906e-39
0.076293908 -0.094477281 0.039161257 2.2174385e-39
0.077443831 -0.093007326 0.045128338 1.2929304e-39
0.07866139 -0.091761544 0.050185435 2.8591547e-39
0.080067746 -0.091029361 0.05315762 1.9361054e-39
0.08176332 -0.091029361 0.05315762 1.8424707e-39
0.083458908 -0.091029361 0.05315762 1.8421217e-39
-0.093032412 -0.1369016 -0.12490464 1.7517158e-38
-0.09102463 -0.1369016 -0.12490464 2.1481931e-38
-0.089016832 -0.1369016 -0.12490464 2.3509879e-38
-0.08700905 -0.1369016 -0.12490464 2.323365e-38
-0.084571995 -0.13514097 -0.11780811 2.350988e-38
-0.082343988 -0.13415821 -0.11384691 2.3325847e-38
-0.080124222 -0.13315089 -0.10978664 2.341805e-38
-0.077761255 -0.1314363 -0.10287572 2.2220956e-38
-0.075579144 -0.13044833 -0.098893531 2.3142544e-38
-0.072888657 -0.12695493 -0.084812768 2.2403904e-38
-0.070555292 -0.12498946 -0.076890595 2.2956346e-38
-0.068482719 -0.12422292 -0.07380081 2.3509511e-38
-0.066241734 -0.1224993 -0.066853531 2.3509507e-38
-0.064023875 -0.1207688 -0.059878357 2.3509502e-38
-0.061829396 -0.11903207 -0.052878149 2.3508781e-38
-0.059821427 -0.11827053 -0.049808629 2.341551e-38
-0.057551 -0.11579077 -0.039813526 2.3417679e-38
-0.055467218 -0.1143087 -0.03383971 2.2775202e-38
-0.053473365 -0.11330278 -0.029785164 2.1302964e-38
-0.051428255 -0.11182173 -0.02381552 1.9093172e-38
-0.049499977 -0.11107419 -0.020802386 1.6790459e-38
-0.047462143 -0.10935538 -0.013874419 1.4211514e-38
-0.045475449 -0.10786678 -0.0078743771 1.2369772e-38
-0.043590624 -0.10711606 -0.0048484877 1.0804978e-38
-0.041565239 -0.10489015 0.0041234419 1.0529836e-38
-0.039783686 -0.10489015 0.0041234419 1.0344366e-38
-0.037868515 -0.10337763 0.010220043 9.7911919e-39
-0.036038756 -0.10265306 0.013140552 9.4220464e-39
-0.034217719 -0.10190789 0.01614403 9.6971914e-39
-0.032356426 -0.10040633 0.022196345 1.0157082e-38
-0.03060656 -0.10040633 0.022196345 1.0432583e-38
-0.028738458 -0.09817566 0.031187527 1.3288478e-38
-0.026947249 -0.09693253 0.036198191 1.7159244e-38
-0.025221929 -0.09693253 0.036198191 2.0383891e-38
-0.023496611 -0.09693253 0.036198191 2.1856488e-38
-0.019949831 -0.091490805 0.058132045 2.2958873e-38
-0.018255042 -0.090742856 0.061146848 2.3142544e-38
-0.016573466 -0.090742856 0.061146848 2.3234376e-38
-0.014891893 -0.090742856 0.061146848 2.2682636e-38
-0.013181489 -0.093462333 0.050185435 2.2683356e-38
-0.011480695 -0.093462333 0.050185435 2.2683362e-38
-0.0098286662 -0.091490805 0.058132045 2.2407854e-38
-0.0081418054 -0.091490805 0.058132045 2.2040511e-38
-0.006436348 -0.091969252 0.056203596 2.1948675e-38
-0.0047461055 -0.091969252 0.056203596 2.2224183e-38
-0.003081223 -0.091490805 0.058132045 2.2224182e-38
-0.0013943622 -0.091490805 0.058132045 2.1948671e-38
0.00024228171 -0.090742856 0.061146848 2.213235e-38
0.0019238573 -0.090742856 0.061146848 2.1673176e-38
0.0037051048 -0.091969252 0.056203596 2.1305834e-38
0.0053953473 -0.091969252 0.056203596 2.0846656e-38
0.0070855897 -0.091969252 0.056203596 1.9652795e-38
0.0088532697 -0.092724949 0.05315762 1.7351168e-38
0.010548852 -0.092724949 0.05315762 1.5416165e-38
0.012561403 -0.095443189 0.042201273 1.4587129e-38
0.014276195 -0.095443189 0.042201273 1.3388954e-38
0.016089596 -0.096197397 0.039161257 1.1636886e-38
0.017809719 -0.096197397 0.039161257 9.7018675e-39
0.019529842 -0.096197397 0.039161257 8.5958899e-39
0.021249965 -0.096197397 0.039161257 7.5817506e-39
0.022970088 -0.096197397 0.039161257 6.2906628e-39
0.024690211 -0.096197397 0.039161257 4.9080997e-39
0.026410334 -0.096197397 0.039161257 6.1974078e-39
0.028130457 -0.096197397 0.039161257 3.9839966e-39
0.02985058 -0.096197397 0.039161257 2.6003475e-39
0.031570703 -0.096197397 0.039161257 6.6316029e-40
0.033290826 -0.096197397 0.039161257 1.3067318e-39
0.035010949 -0.096197397 0.039161257 1.4552485e-41
0.036731072 -0.096197397 0.039161257 1.9930528e-40
0.038614847 -0.09693253 0.036198191 1.9821507e-40
0.040340163 -0.09693253 0.036198191 1.2727994e-41
0.042065483 -0.09693253 0.036198191 1.0557383e-41
0.043790799 -0.09693253 0.036198191 1.1997917e-41
0.045516118 -0.09693253 0.036198191 5.6516889e-40
0.047241438 -0.09693253 0.036198191 2.8858481e-40
0.048966754 -0.09693253 0.036198191 3.7970704e-40
0.05069207 -0.09693253 0.036198191 5.6374938e-40
0.052417394 -0.09693253 0.036198191 3.7792739e-40
0.054354388 -0.097672105 0.033217184 5.6197113e-40
0.056084935 -0.097672105 0.033217184 1.9391308e-40
0.05796672 -0.09817566 0.031187527 4.7049717e-40
0.059700828 -0.09817566 0.031187527 6.5595902e-40
0.061434928 -0.09817566 0.031187527 5.6518851e-40
0.063169032 -0.09817566 0.031187527 1.3956526e-39
0.06490314 -0.09817566 0.031187527 1.9502473e-39
0.066637248 -0.09817566 0.031187527 1.4899824e-39
0.068627439 -0.098922804 0.028176002 5.6947088e-40
0.070366822 -0.098922804 0.028176002 1.3063199e-39
0.072106205 -0.098922804 0.028176002 1.580397e-39
0.073573656 -0.09817566 0.031187527 2.2228826e-39
0.074846528 -0.09693253 0.036198191 1.3905855e-39
0.076293908 -0.096197397 0.039161257 2.1256044e-39
0.077443831 -0.094716981 0.045128338 6.4936171e-40
0.07866139 -0.093462333 0.050185435 2.4910911e-39
0.080362178 -0.093462333 0.050185435 2.8587834e-39
0.082062967 -0.093462333 0.050185435 2.3041719e-39
0.083763771 -0.093462333 0.050185435 1.9339642e-39
-0.093570746 -0.14090194 -0.13287961 1.6872152e-38
-0.09102463 -0.13890938 -0.12490464 2.1020955e-38
-0.089016832 -0.13890938 -0.12490464 2.350988e-38
-0.08700905 -0.13890938 -0.12490464 2.3325847e-38
-0.084571995 -0.13713633 -0.11780811 2.3509883e-38
-0.082343988 -0.13614662 -0.11384691 2.3509883e-38
-0.080124222 -0.13513215 -0.10978664 2.3509886e-38
-0.077761255 -0.13340546 -0.10287572 2.304927e-38
-0.075579144 -0.13241051 -0.098893531 2.341805e-38
-0.072888657 -0.12889244 -0.084812768 2.3509883e-38
-0.070555292 -0.12691309 -0.076890595 2.2310975e-38
-0.068482719 -0.12614109 -0.07380081 2.3416597e-38
-0.066241734 -0.12440531 -0.066853531 2.3509869e-38
-0.064023875 -0.12266256 -0.059878357 2.2586828e-38
-0.061829396 -0.12091358 -0.052878149 2.3509866e-38
-0.059821427 -0.12014665 -0.049808629 2.3509869e-38
-0.057551 -0.11764936 -0.039813526 2.341804e-38
-0.055467218 -0.1161568 -0.03383971 2.3142544e-38
-0.053473365 -0.11514379 -0.029785164 2.2867037e-38
-0.051428255 -0.11365227 -0.02381552 2.2131994e-38
-0.049499977 -0.11289944 -0.020802386 2.0289186e-38
-0.047462143 -0.11116849 -0.013874419 1.7708799e-38
-0.045475449 -0.10966937 -0.0078743771 1.522277e-38
-0.043590624 -0.10891335 -0.0048484877 1.2277212e-38
-0.041487508 -0.10590781 0.0071809217 1.1173396e-38
-0.03957025 -0.1044188 0.013140552 1.0620587e-38
-0.037738677 -0.10366838 0.01614403 1.0897179e-38
-0.035917997 -0.10292239 0.019129746 1.1265607e-38
-0.034051992 -0.10141921 0.025146119 1.1172696e-38
-0.032206662 -0.099909768 0.031187527 1.0434052e-38
-0.030442312 -0.099402651 0.033217184 9.9716301e-39
-0.028672569 -0.098657846 0.036198191 9.1411393e-39
-0.026913479 -0.097917527 0.039161257 1.2273977e-38
-0.025193356 -0.097917527 0.039161257 1.5222419e-38
-0.023496611 -0.098657846 0.036198191 1.8077947e-38
-0.021771293 -0.098657846 0.036198191 2.1395876e-38
-0.019949831 -0.093177676 0.058132045 2.2591531e-38
-0.018255042 -0.092424423 0.061146848 2.295887e-38
-0.016573466 -0.092424423 0.061146848 2.2590813e-38
-0.014891893 -0.092424423 0.061146848 2.2775202e-38
-0.013210317 -0.092424423 0.061146848 2.2591172e-38
-0.011515528 -0.093177676 0.058132045 2.222383e-38
-0.0097981403 -0.094420537 0.05315762 2.1947965e-38
-0.0081025567 -0.094420537 0.05315762 2.1765011e-38
-0.006406975 -0.094420537 0.05315762 2.1765011e-38
-0.0047113923 -0.094420537 0.05315762 2.1856847e-38
-0.003055864 -0.09365949 0.056203596 2.1856847e-38
-0.0013656216 -0.09365949 0.056203596 2.1673176e-38
0.00029249862 -0.093177676 0.058132045 2.1397669e-38
0.0019793604 -0.093177676 0.058132045 1.9833237e-38
0.0037051048 -0.09365949 0.056203596 1.7068845e-38
0.0054621045 -0.094420537 0.05315762 1.4950888e-38
0.0071576871 -0.094420537 0.05315762 1.3939264e-38
0.0088532697 -0.094420537 0.05315762 1.218936e-38
0.010629626 -0.095163137 0.050185435 1.0531648e-38
0.012416933 -0.095910296 0.04719501 9.9795642e-39
0.014276195 -0.09715797 0.042201273 9.3352794e-39
0.015990987 -0.09715797 0.042201273 9.0590611e-39
0.01770578 -0.09715797 0.042201273 8.9672298e-39
0.019420575 -0.09715797 0.042201273 8.1381978e-39
0.021249965 -0.097917527 0.039161257 6.479761e-39
0.022970088 -0.097917527 0.039161257 5.0042792e-39
0.024690211 -0.097917527 0.039161257 4.1745214e-39
0.026279744 -0.09715797 0.042201273 2.6071985e-39
0.02799454 -0.09715797 0.042201273 1.4075735e-39
0.02985058 -0.097917527 0.039161257 1.499409e-39
0.031570703 -0.097917527 0.039161257 7.6111946e-40
0.033290826 -0.097917527 0.039161257 1.5897983e-39
0.035010949 -0.097917527 0.039161257 2.0667751e-41
0.036731072 -0.097917527 0.039161257 2.066635e-41
0.038614847 -0.098657846 0.036198191 1.8148216e-41
0.040340163 -0.098657846 0.036198191 1.0782852e-40
0.042065483 -0.098657846 0.036198191 2.9006178e-40
0.043790799 -0.098657846 0.036198191 4.7444883e-40
0.045516118 -0.098657846 0.036198191 1.9713607e-40
0.047241438 -0.098657846 0.036198191 1.0578402e-41
