# .PCD v0.7 - Point Cloud Data file format
VERSION 0.7
FIELDS x y z rgb
SIZE 4 4 4 4
TYPE F F F F
COUNT 1 1 1 1
WIDTH 947
HEIGHT 1
VIEWPOINT 0 0 0 1 0 0 0
POINTS 947
DATA ascii
-0.085920036 -0.1050681 0.023439258 1.034906e-38
-0.083705798 -0.10409774 0.027493805 1.0808598e-38
-0.081864789 -0.10409774 0.027493805 1.1084822e-38
-0.079768702 -0.10339431 0.03043291 1.10841e-38
-0.077932835 -0.10339431 0.03043291 1.0808235e-38
-0.076096982 -0.10339431 0.03043291 1.0256864e-38
-0.074261129 -0.10339431 0.03043291 9.3356311e-39
-0.072183505 -0.10266902 0.033463448 9.4278296e-39
-0.070352972 -0.10266902 0.033463448 9.4267534e-39
-0.068522424 -0.10266902 0.033463448 8.2274927e-39
-0.066467345 -0.10194789 0.036476582 7.5803282e-39
-0.064642087 -0.10194789 0.036476582 7.3952209e-39
-0.0626041 -0.10123092 0.039472312 7.3019463e-39
-0.060784105 -0.10123092 0.039472312 7.4859774e-39
-0.058698658 -0.10028981 0.043404549 8.2221005e-39
-0.056885544 -0.10028981 0.043404549 9.3277264e-39
-0.054688442 -0.098853827 0.049404591 1.0617744e-38
-0.052885864 -0.098853827 0.049404591 1.1078e-38
-0.050900225 -0.098129645 0.052430481 1.0709571e-38
-0.049102943 -0.098129645 0.052430481 1.0708849e-38
-0.047305655 -0.098129645 0.052430481 1.1260215e-38
-0.045508374 -0.098129645 0.052430481 1.3376745e-38
-0.043711085 -0.098129645 0.052430481 1.5311766e-38
-0.041913796 -0.098129645 0.052430481 1.669397e-38
-0.040116508 -0.098129645 0.052430481 1.6694329e-38
-0.037886623 -0.095982388 0.06140241 1.6233352e-38
-0.03610507 -0.095982388 0.06140241 1.5957118e-38
-0.033786077 -0.093105495 0.073422998 1.5404299e-38
-0.032025594 -0.093105495 0.073422998 1.4850399e-38
-0.030265115 -0.093105495 0.073422998 1.4850398e-38
-0.028623123 -0.093824327 0.07041952 1.8630407e-38
-0.02696747 -0.094523281 0.067499012 1.9829291e-38
-0.024983674 -0.093105495 0.073422998 2.0105874e-38
-0.023223195 -0.093105495 0.073422998 2.0474651e-38
-0.021560136 -0.093824327 0.07041952 2.0843428e-38
-0.019794393 -0.093824327 0.07041952 2.1488787e-38
-0.01828951 -0.095982388 0.06140241 2.0660115e-38
-0.016507953 -0.095982388 0.06140241 2.0107667e-38
-0.014726397 -0.095982388 0.06140241 1.9094966e-38
-0.013086002 -0.09740968 0.055438727 1.937119e-38
-0.011293989 -0.09740968 0.055438727 1.9279713e-38
-0.0095626339 -0.098129645 0.052430481 1.7804247e-38
-0.007765349 -0.098129645 0.052430481 1.6329498e-38
-0.0060184635 -0.098853827 0.049404591 1.0152775e-38
-0.0042158701 -0.098853827 0.049404591 7.2039591e-39
-0.0024132766 -0.098853827 0.049404591 6.9280925e-39
-0.00072387978 -0.10123092 0.039472312 8.4043044e-39
0.0010672361 -0.10194789 0.036476582 7.9444052e-39
0.0028924979 -0.10194789 0.036476582 9.2358601e-39
0.0047177561 -0.10194789 0.036476582 8.9603494e-39
0.006529808 -0.10266902 0.033463448 8.9610655e-39
0.0083523802 -0.10339431 0.03043291 9.9755747e-39
0.010185659 -0.10409774 0.027493805 5.9189782e-39
0.012026668 -0.10409774 0.027493805 4.2598436e-39
0.01387834 -0.1050681 0.023439258 3.1542248e-39
0.015752643 -0.10649781 0.017465442 3.2456917e-39
0.017611235 -0.10649781 0.017465442 4.074365e-39
0.019469827 -0.10649781 0.017465442 4.1658305e-39
0.021357469 -0.10721879 0.014453023 4.4413244e-39
0.023267424 -0.10818647 0.010409682 6.6522104e-39
0.025138387 -0.10818647 0.010409682 9.509182e-39
0.027053157 -0.10888995 0.0074703386 1.0429688e-38
0.028929273 -0.10888995 0.0074703386 1.291788e-38
0.030861899 -0.10962458 0.0044008186 1.5129129e-38
0.032824159 -0.11058317 0.00039550569 1.669501e-38
0.03471268 -0.11058317 0.00039550569 1.8169055e-38
0.036672093 -0.11129995 -0.0025993893 1.8813703e-38
0.038565863 -0.11129995 -0.0025993893 1.9458709e-38
0.040566754 -0.11224325 -0.0065409252 2.0656527e-38
0.042555202 -0.11296929 -0.0095745632 2.1394441e-38
0.044551194 -0.11367123 -0.012507469 2.222383e-38
0.046592552 -0.114632 -0.016521841 2.1302237e-38
0.048510734 -0.114632 -0.016521841 2.1577742e-38
0.050428919 -0.114632 -0.016521841 2.0655424e-38
0.052463576 -0.11537148 -0.019611627 2.2314942e-38
0.054542877 -0.11631607 -0.023558408 2.2037993e-38
0.056637198 -0.11726747 -0.027533799 2.23135e-38
0.058704879 -0.11799283 -0.030564576 2.3234379e-38
0.060647685 -0.11799283 -0.030564576 2.3234379e-38
0.062777564 -0.11895646 -0.03459087 2.2772684e-38
0.065066084 -0.12063743 -0.041614562 2.2957078e-38
0.067227259 -0.12159048 -0.045596749 2.2403549e-38
0.069196418 -0.12159048 -0.045596749 2.2956003e-38
0.071326286 -0.12230973 -0.048602015 2.2034053e-38
0.073300719 -0.12230973 -0.048602015 2.1942211e-38
0.075497709 -0.12324448 -0.052507669 2.1758522e-38
0.077717476 -0.12421621 -0.056567937 2.1020953e-38
0.080132149 -0.12590279 -0.063614994 2.1020953e-38
0.082382537 -0.12686269 -0.067625672 2.1020953e-38
0.084640436 -0.12779804 -0.071533948 2.0284109e-38
0.086922467 -0.12877132 -0.075600654 1.9914969e-38
0.088944234 -0.12877132 -0.075600654 1.954619e-38
0.090966001 -0.12877132 -0.075600654 1.8716429e-38
0.093269177 -0.12971978 -0.079563648 1.7609363e-38
0.095297903 -0.12971978 -0.079563648 1.7702274e-38
0.097623959 -0.13067479 -0.08355394 1.7701914e-38
0.099966124 -0.1316364 -0.087571889 1.5582132e-38
0.10232456 -0.13260473 -0.091617852 1.4751653e-38
0.10500482 -0.13449596 -0.099519998 1.4660173e-38
0.10706852 -0.13449596 -0.099519998 1.4014804e-38
0.10913223 -0.13449596 -0.099519998 1.4936763e-38
0.11153534 -0.13545118 -0.10351124 1.3552395e-38
0.11360604 -0.13545118 -0.10351124 8.290418e-40
0.11567675 -0.13545118 -0.10351124 9.1835496e-41
0.11774746 -0.13545118 -0.10351124 1.4744112e-39
-0.10881494 -0.11247168 0.00039550569 8.2108089e-39
-0.1064875 -0.11150609 0.0044008186 1.3836911e-38
-0.104606 -0.11150609 0.0044008186 1.4576291e-38
-0.10208711 -0.11005743 0.010409682 1.5960684e-38
-0.10021615 -0.11005743 0.010409682 1.4947637e-38
-0.097930461 -0.10908265 0.014453023 1.356688e-38
-0.096066579 -0.10908265 0.014453023 1.3292824e-38
-0.093904287 -0.1083564 0.017465442 1.3294263e-38
-0.091754213 -0.10763429 0.020460814 1.2004977e-38
-0.089616269 -0.10691623 0.023439258 1.1452885e-38
-0.087768152 -0.10691623 0.023439258 1.0992626e-38
-0.085920036 -0.10691623 0.023439258 1.090043e-38
-0.083705798 -0.10593875 0.027493805 1.1084819e-38
-0.081864789 -0.10593875 0.027493805 1.1268491e-38
-0.079768702 -0.10523017 0.03043291 1.1175219e-38
-0.077932835 -0.10523017 0.03043291 1.0715683e-38
-0.075844586 -0.10449956 0.033463448 1.062565e-38
-0.074014053 -0.10449956 0.033463448 9.4285484e-39
-0.072183505 -0.10449956 0.033463448 9.3356339e-39
-0.070352972 -0.10449956 0.033463448 9.3345577e-39
-0.068292618 -0.10377313 0.036476582 8.2274927e-39
-0.066467345 -0.10377313 0.036476582 7.3044602e-39
-0.064642087 -0.10377313 0.036476582 6.6576559e-39
-0.0626041 -0.10305093 0.039472312 6.0112075e-39
-0.060511772 -0.10210292 0.043404549 4.9956136e-39
-0.058698658 -0.10210292 0.043404549 4.7186666e-39
-0.056885544 -0.10210292 0.043404549 4.6261066e-39
-0.054688442 -0.10065642 0.049404591 4.7172204e-39
-0.052885864 -0.10065642 0.049404591 4.348075e-39
-0.05108327 -0.10065642 0.049404591 3.7019811e-39
-0.049102943 -0.099926919 0.052430481 3.2410002e-39
-0.047305655 -0.099926919 0.052430481 3.6079778e-39
-0.045508374 -0.099926919 0.052430481 4.0660749e-39
-0.043550212 -0.099201679 0.055438727 6.7386621e-39
-0.041758198 -0.099201679 0.055438727 9.5967239e-39
-0.039966185 -0.099201679 0.055438727 1.2085284e-38
-0.037886623 -0.097763941 0.06140241 1.3929194e-38
-0.03610507 -0.097763941 0.06140241 1.521957e-38
-0.034186814 -0.09702684 0.06445989 1.4942977e-38
-0.032025594 -0.094865978 0.073422998 1.4113574e-38
-0.030265115 -0.094865978 0.073422998 1.6234071e-38
-0.028623123 -0.09559007 0.07041952 1.9276484e-38
-0.02696747 -0.09629415 0.067499012 1.9184649e-38
-0.025091629 -0.09559007 0.07041952 1.6695401e-38
-0.023325883 -0.09559007 0.07041952 1.2546597e-38
-0.021560136 -0.09559007 0.07041952 8.5821824e-39
-0.019794393 -0.09559007 0.07041952 7.4758376e-39
-0.018201057 -0.09702684 0.06445989 6.8319087e-39
-0.016424861 -0.09702684 0.06445989 6.8340808e-39
-0.014726397 -0.097763941 0.06140241 5.6369823e-39
-0.013015214 -0.098480701 0.058429331 4.7157491e-39
-0.011293989 -0.099201679 0.055438727 3.7016014e-39
-0.0095626339 -0.099926919 0.052430481 2.226837e-39
-0.007765349 -0.099926919 0.052430481 3.886001e-39
-0.0060184635 -0.10065642 0.049404591 3.1488017e-39
-0.0042596646 -0.10136487 0.046465963 4.6250136e-39
-0.0025438853 -0.10305093 0.039472312 6.1930582e-39
-0.00072387978 -0.10305093 0.039472312 8.5908648e-39
0.0010672361 -0.10377313 0.036476582 8.8681706e-39
0.0028924979 -0.10377313 0.036476582 1.0528408e-38
0.0047177561 -0.10377313 0.036476582 1.0989383e-38
0.006529808 -0.10449956 0.033463448 1.0160699e-38
0.0083603505 -0.10449956 0.033463448 9.9766649e-39
0.010188235 -0.10523017 0.03043291 6.1040967e-39
0.012026668 -0.10593875 0.027493805 4.7201029e-39
0.01387834 -0.10691623 0.023439258 4.5346355e-39
0.015739514 -0.10763429 0.020460814 4.9956024e-39
0.017611235 -0.1083564 0.017465442 6.5618351e-39
0.019469827 -0.1083564 0.017465442 8.2198991e-39
0.021357469 -0.10908265 0.014453023 1.015527e-38
0.023267424 -0.11005743 0.010409682 1.3288464e-38
0.025138387 -0.11005743 0.010409682 1.6329467e-38
0.027053157 -0.11076607 0.0074703386 1.9738173e-38
0.028929273 -0.11076607 0.0074703386 2.0843428e-38
0.030861899 -0.11150609 0.0044008186 2.1210052e-38
0.032824159 -0.11247168 0.00039550569 2.1393e-38
0.03471268 -0.11247168 0.00039550569 2.2682649e-38
0.036672093 -0.11319371 -0.0025993893 2.3142544e-38
0.038565863 -0.11319371 -0.0025993893 2.323402e-38
0.040566754 -0.11414395 -0.0065409252 2.2865602e-38
0.042555202 -0.1148753 -0.0095745632 2.2775202e-38
0.044551194 -0.11558239 -0.012507469 2.2867037e-38
0.046592552 -0.11655019 -0.016521841 2.2867037e-38
0.048510734 -0.11655019 -0.016521841 2.295887e-38
0.050428919 -0.11655019 -0.016521841 2.259044e-38
0.052463576 -0.11729507 -0.019611627 2.3234372e-38
0.054542877 -0.11824657 -0.023558408 2.3049975e-38
0.056637198 -0.11920498 -0.027533799 2.341804e-38
0.058704879 -0.11993565 -0.030564576 2.3325843e-38
0.060647685 -0.11993565 -0.030564576 2.2772309e-38
0.062777564 -0.12090631 -0.03459087 2.34166e-38
0.065258093 -0.12355967 -0.045596749 2.3509879e-38
0.067227259 -0.12355967 -0.045596749 2.3509524e-38
0.069351859 -0.12428416 -0.048602015 2.3509527e-38
0.071326286 -0.12428416 -0.048602015 2.258649e-38
0.073300719 -0.12428416 -0.048602015 2.2494292e-38
0.075497709 -0.12522577 -0.052507669 2.2403171e-38
0.077717476 -0.12620462 -0.056567937 2.1481571e-38
0.079945482 -0.12715961 -0.060529143 2.1389375e-38
0.082132898 -0.12790357 -0.063614994 2.1389019e-38
0.084640436 -0.12981267 -0.071533948 2.0375586e-38
0.08665508 -0.12981267 -0.071533948 1.9730218e-38
0.088944234 -0.13079311 -0.075600654 1.9453275e-38
0.090966001 -0.13079311 -0.075600654 1.8992297e-38
0.093269177 -0.13174851 -0.079563648 1.8900104e-38
0.095297903 -0.13174851 -0.079563648 1.6779602e-38
0.097623959 -0.1327105 -0.08355394 1.6318624e-38
0.099966124 -0.13367917 -0.087571889 1.5858001e-38
0.10232456 -0.13465457 -0.091617852 1.5765806e-38
0.10468856 -0.13560389 -0.095555574 1.5765804e-38
0.1067453 -0.13560389 -0.095555574 1.5121154e-38
0.10913223 -0.13655965 -0.099519998 1.6042391e-38
0.11153534 -0.13752188 -0.10351124 1.3183612e-38
0.11360604 -0.13752188 -0.10351124 1.0134331e-39
0.11567675 -0.13752188 -0.10351124 9.1835496e-41
0.11774746 -0.13752188 -0.10351124 1.5666068e-39
-0.10881494 -0.1143602 0.00039550569 7.1030166e-39
-0.1064875 -0.11338757 0.0044008186 1.4296083e-38
-0.104606 -0.11338757 0.0044008186 1.6140369e-38
-0.10208711 -0.11192839 0.010409682 1.7432566e-38
-0.10021615 -0.11192839 0.010409682 1.6235122e-38
-0.098345175 -0.11192839 0.010409682 1.4854002e-38
-0.096066579 -0.11094652 0.014453023 1.4302281e-38
-0.093904287 -0.11021499 0.017465442 1.4120056e-38
-0.091754213 -0.10948761 0.020460814 1.393675e-38
-0.089616269 -0.10876434 0.023439258 1.3385017e-38
-0.087768152 -0.10876434 0.023439258 1.2741089e-38
-0.085920036 -0.10876434 0.023439258 1.2557417e-38
-0.083705798 -0.10777976 0.027493805 1.2557061e-38
-0.081864789 -0.10777976 0.027493805 1.2372672e-38
-0.079768702 -0.10706602 0.03043291 1.2003891e-38
-0.077932835 -0.10706602 0.03043291 1.1359608e-38
-0.075844586 -0.10633011 0.033463448 1.0623852e-38
-0.074014053 -0.10633011 0.033463448 9.5182301e-39
-0.072183505 -0.10633011 0.033463448 9.6097055e-39
-0.070117876 -0.10559841 0.036476582 9.7940968e-39
-0.068292618 -0.10559841 0.036476582 9.1476512e-39
-0.066244125 -0.10487093 0.039472312 8.5937613e-39
-0.064424112 -0.10487093 0.039472312 7.9473157e-39
-0.062324885 -0.10391603 0.043404549 6.9328036e-39
-0.060511772 -0.10391603 0.043404549 6.6551378e-39
-0.058698658 -0.10391603 0.043404549 5.7328185e-39
-0.056684259 -0.10317262 0.046465963 4.8101434e-39
-0.054688442 -0.10245901 0.049404591 4.1636921e-39
-0.052885864 -0.10245901 0.049404591 3.7023525e-39
-0.05108327 -0.10245901 0.049404591 3.1491759e-39
-0.049102943 -0.10172421 0.052430481 2.7807493e-39
-0.047305655 -0.10172421 0.052430481 2.9636986e-39
-0.045342226 -0.10099369 0.055438727 3.7912971e-39
-0.043550212 -0.10099369 0.055438727 3.5132682e-39
-0.041758198 -0.10099369 0.055438727 2.5913119e-39
-0.039816748 -0.10026747 0.058429331 2.6831446e-39
-0.037886623 -0.099545494 0.06140241 4.6192501e-39
-0.03596301 -0.098803028 0.06445989 8.1219623e-39
-0.034186814 -0.098803028 0.06445989 1.0611242e-38
-0.032280069 -0.098065019 0.067499012 1.1717586e-38
-0.0305092 -0.098065019 0.067499012 1.2823571e-38
-0.028738335 -0.098065019 0.067499012 1.5220656e-38
-0.02696747 -0.098065019 0.067499012 1.5497956e-38
-0.025091629 -0.097355813 0.07041952 1.4391967e-38
-0.023325883 -0.097355813 0.07041952 1.0611946e-38
-0.021560136 -0.097355813 0.07041952 5.8177708e-39
-0.019794393 -0.097355813 0.07041952 4.7114261e-39
-0.018201057 -0.098803028 0.06445989 5.0820135e-39
-0.016424861 -0.098803028 0.06445989 3.5172185e-39
-0.014726397 -0.099545494 0.06140241 3.6115805e-39
-0.013015214 -0.10026747 0.058429331 3.7959718e-39
-0.011293989 -0.10099369 0.055438727 3.4268334e-39
-0.0095626339 -0.10172421 0.052430481 1.767312e-39
-0.007765349 -0.10172421 0.052430481 3.1502465e-39
-0.0060184635 -0.10245901 0.049404591 3.520108e-39
-0.0042596646 -0.10317262 0.046465963 5.9171944e-39
-0.0024921782 -0.10391603 0.043404549 7.1157375e-39
-0.00072387978 -0.10487093 0.039472312 9.6979312e-39
0.0010961257 -0.10487093 0.039472312 9.4213444e-39
0.0028924979 -0.10559841 0.036476582 1.0159625e-38
0.0047177561 -0.10559841 0.036476582 1.0804992e-38
0.0065430142 -0.10559841 0.036476582 1.0067783e-38
0.0083603505 -0.10633011 0.033463448 9.6068034e-39
0.010188235 -0.10706602 0.03043291 7.3933936e-39
0.012026668 -0.10777976 0.027493805 6.6536804e-39
0.01387834 -0.10876434 0.023439258 7.021021e-39
0.015739514 -0.10948761 0.020460814 7.6656575e-39
0.017611235 -0.11021499 0.017465442 8.9563781e-39
0.019469827 -0.11021499 0.017465442 1.0798833e-38
0.021357469 -0.11094652 0.014453023 1.2918231e-38
0.023267424 -0.11192839 0.010409682 1.549825e-38
0.025138387 -0.11192839 0.010409682 1.7616935e-38
0.027053157 -0.11264218 0.0074703386 1.9550515e-38
0.028929273 -0.11264218 0.0074703386 2.1024557e-38
0.030861899 -0.11338757 0.0044008186 2.2497526e-38
0.032824159 -0.1143602 0.00039550569 2.3049261e-38
0.03471268 -0.1143602 0.00039550569 2.3048545e-38
0.036672093 -0.11508749 -0.0025993893 2.3415532e-38
0.038565863 -0.11508749 -0.0025993893 2.3508092e-38
0.040566754 -0.11604463 -0.0065409252 2.3509168e-38
0.042555202 -0.11678131 -0.0095745632 2.3234379e-38
0.044551194 -0.11749353 -0.012507469 2.2867037e-38
0.046592552 -0.11846836 -0.016521841 2.2497894e-38
0.048510734 -0.11846836 -0.016521841 2.3234379e-38
0.050428919 -0.11846836 -0.016521841 2.3418045e-38
0.052463576 -0.11921866 -0.019611627 2.3509879e-38
0.054542877 -0.12017711 -0.023558408 2.3509874e-38
0.056637198 -0.12114246 -0.027533799 2.3509873e-38
0.058704879 -0.12187846 -0.030564576 2.350987e-38
0.060647685 -0.12187846 -0.030564576 2.3509867e-38
0.062914476 -0.12357174 -0.037537485 2.3509866e-38
0.065258093 -0.12552883 -0.045596749 2.3509866e-38
0.067377433 -0.1262586 -0.048602015 2.3416589e-38
0.069351859 -0.1262586 -0.048602015 2.3324393e-38
0.071326286 -0.1262586 -0.048602015 2.2402437e-38
0.073300719 -0.1262586 -0.048602015 2.2402081e-38
0.075497709 -0.12720706 -0.052507669 2.2863423e-38
0.077717476 -0.12819304 -0.056567937 2.1389019e-38
0.079945482 -0.12915494 -0.060529143 2.1204628e-38
0.08194083 -0.12915494 -0.060529143 2.1296825e-38
0.08439032 -0.13087825 -0.067625672 2.0098284e-38
0.08665508 -0.13182731 -0.071533948 1.9083777e-38
0.088669717 -0.13182731 -0.071533948 1.9083777e-38
0.090966001 -0.13281487 -0.075600654 1.9175972e-38
0.093269177 -0.13377722 -0.079563648 1.9361085e-38
0.095297903 -0.13377722 -0.079563648 1.539667e-38
0.097623959 -0.13474621 -0.08355394 1.5304475e-38
0.099966124 -0.13572191 -0.087571889 1.6410819e-38
0.10232456 -0.13670443 -0.091617852 1.6318624e-38
0.10468856 -0.13766064 -0.095555574 1.5950197e-38
0.1067453 -0.13766064 -0.095555574 1.567361e-38
0.10913223 -0.13862337 -0.099519998 1.6503371e-38
0.11153534 -0.13959257 -0.10351124 1.3368003e-38
0.11360604 -0.13959257 -0.10351124 2.1190576e-39
0.11567675 -0.13959257 -0.10351124 1.2892997e-39
0.11774746 -0.13959257 -0.10351124 2.3034516e-39
-0.10881494 -0.11624874 0.00039550569 9.5908566e-39
-0.1064875 -0.11526908 0.0044008186 1.7337094e-38
-0.104606 -0.11526908 0.0044008186 1.9272854e-38
-0.10208711 -0.11379938 0.010409682 2.0749077e-38
-0.10021615 -0.11379938 0.010409682 2.0749798e-38
-0.098345175 -0.11379938 0.010409682 1.9828932e-38
-0.096066579 -0.11281042 0.014453023 1.8539289e-38
-0.093904287 -0.11207359 0.017465442 1.7619141e-38
-0.091754213 -0.11134095 0.020460814 1.6790828e-38
-0.089616269 -0.11061247 0.023439258 1.6423127e-38
-0.087768152 -0.11061247 0.023439258 1.5871396e-38
-0.085546806 -0.10962076 0.027493805 1.5411143e-38
-0.083705798 -0.10962076 0.027493805 1.5135278e-38
-0.081604555 -0.10890187 0.03043291 1.458247e-38
-0.079768702 -0.10890187 0.03043291 1.4121138e-38
-0.077932835 -0.10890187 0.03043291 1.3477215e-38
-0.075844586 -0.10816063 0.033463448 1.2371602e-38
-0.074014053 -0.10816063 0.033463448 1.1173426e-38
-0.072183505 -0.10816063 0.033463448 1.0620252e-38
-0.070117876 -0.10742365 0.036476582 1.0159274e-38
-0.068292618 -0.10742365 0.036476582 8.9603774e-39
-0.066244125 -0.10669093 0.039472312 8.315008e-39
-0.064424112 -0.10669093 0.039472312 7.7611182e-39
-0.062324885 -0.10572915 0.043404549 6.8391633e-39
-0.060511772 -0.10572915 0.043404549 7.0228357e-39
-0.058492009 -0.10498036 0.046465963 6.1008822e-39
-0.056684259 -0.10498036 0.046465963 4.9945346e-39
-0.054688442 -0.10426159 0.049404591 4.3491652e-39
-0.052697513 -0.10352151 0.052430481 4.2558906e-39
-0.050900225 -0.10352151 0.052430481 3.9793037e-39
-0.049102943 -0.10352151 0.052430481 3.7027168e-39
-0.047305655 -0.10352151 0.052430481 3.6101582e-39
-0.045342226 -0.10278571 0.055438727 2.4101745e-39
-0.043550212 -0.10278571 0.055438727 2.4094528e-39
-0.041758198 -0.10278571 0.055438727 2.2243385e-39
-0.039816748 -0.10205424 0.058429331 1.855556e-39
-0.037886623 -0.10132705 0.06140241 2.0395843e-39
-0.03596301 -0.10057923 0.06445989 2.3150908e-39
-0.034186814 -0.10057923 0.06445989 1.6697214e-39
-0.032280069 -0.099835888 0.067499012 8.3959778e-40
-0.0305092 -0.099835888 0.067499012 1.115463e-39
-0.028738335 -0.099835888 0.067499012 1.9455796e-39
-0.026857376 -0.099121556 0.07041952 2.4072738e-39
-0.025091629 -0.099121556 0.07041952 4.251185e-39
-0.023325883 -0.099121556 0.07041952 3.6980112e-39
-0.021560136 -0.099121556 0.07041952 3.7968462e-40
-0.019794393 -0.099121556 0.07041952 9.4615672e-42
-0.018201057 -0.10057923 0.06445989 2.8893513e-40
-0.016424861 -0.10057923 0.06445989 1.7669575e-39
-0.014726397 -0.10132705 0.06140241 1.8605979e-39
-0.013015214 -0.10205424 0.058429331 1.9531494e-39
-0.011293989 -0.10278571 0.055438727 3.0587781e-39
-0.0095626339 -0.10352151 0.052430481 2.874384e-39
-0.007765349 -0.10352151 0.052430481 5.0874337e-39
-0.0060184635 -0.10426159 0.049404591 6.6547566e-39
-0.0042596646 -0.10498036 0.046465963 9.2355084e-39
-0.0024921782 -0.10572915 0.043404549 9.6968424e-39
-0.00067906454 -0.10572915 0.043404549 1.2186123e-38
0.0010961257 -0.10669093 0.039472312 1.135636e-38
0.002916133 -0.10669093 0.039472312 1.1080129e-38
0.0047177561 -0.10742365 0.036476582 1.1264517e-38
0.0065430142 -0.10742365 0.036476582 1.0342561e-38
0.0083603505 -0.10816063 0.033463448 1.0158168e-38
0.010188235 -0.10890187 0.03043291 9.8801421e-39
0.012026668 -0.10962076 0.027493805 1.12602e-38
0.013867676 -0.10962076 0.027493805 1.2457654e-38
0.015726458 -0.11061247 0.023439258 1.4208281e-38
0.017592855 -0.11134095 0.020460814 1.5867787e-38
0.019469827 -0.11207359 0.017465442 1.8079026e-38
0.021357469 -0.11281042 0.014453023 2.0198785e-38
0.023267424 -0.11379938 0.010409682 2.1856847e-38
0.025138387 -0.11379938 0.010409682 2.2775202e-38
0.027053157 -0.1145183 0.0074703386 2.3142534e-38
0.028929273 -0.1145183 0.0074703386 2.2958133e-38
0.030861899 -0.11526908 0.0044008186 2.3509869e-38
0.032824159 -0.11624874 0.00039550569 2.3509873e-38
0.03471268 -0.11624874 0.00039550569 2.3509517e-38
0.036672093 -0.11698125 -0.0025993893 2.3509163e-38
0.038565863 -0.11698125 -0.0025993893 2.350773e-38
0.040566754 -0.11794533 -0.0065409252 2.3509168e-38
0.042555202 -0.11868732 -0.0095745632 2.3050349e-38
0.044551194 -0.11940466 -0.012507469 2.2867037e-38
0.046592552 -0.12038656 -0.016521841 2.3050349e-38
0.048510734 -0.12038656 -0.016521841 2.3234379e-38
0.050428919 -0.12038656 -0.016521841 2.2587929e-38
0.052463576 -0.12114228 -0.019611627 2.1296828e-38
0.054542877 -0.12210761 -0.023558408 1.9636582e-38
0.056637198 -0.12307997 -0.027533799 1.8622427e-38
0.058704879 -0.12382124 -0.030564576 1.7607909e-38
0.060647685 -0.12382124 -0.030564576 1.6133134e-38
0.062914476 -0.12552677 -0.037537485 1.6593386e-38
0.065403 -0.12823303 -0.048602015 1.5671428e-38
0.067377433 -0.12823303 -0.048602015 1.5855817e-38
0.069351859 -0.12823303 -0.048602015 1.991278e-38
0.071326286 -0.12823303 -0.048602015 2.1480103e-38
0.073516428 -0.12918831 -0.052507669 2.2126201e-38
0.075497709 -0.12918831 -0.052507669 2.2311328e-38
0.077717476 -0.13018142 -0.056567937 2.0836565e-38
0.079705872 -0.13018142 -0.056567937 2.0835849e-38
0.08194083 -0.13115029 -0.060529143 2.0928405e-38
0.084133655 -0.13190506 -0.063614994 1.9729146e-38
0.08665508 -0.13384195 -0.071533948 1.8531322e-38
0.088669717 -0.13384195 -0.071533948 1.8899388e-38
0.091240466 -0.13580595 -0.079563648 1.9268889e-38
0.093269177 -0.13580595 -0.079563648 1.862352e-38
0.095588252 -0.13678192 -0.08355394 1.4659108e-38
0.097623959 -0.13678192 -0.08355394 1.5304475e-38
0.099966124 -0.13776468 -0.087571889 1.6687406e-38
0.10232456 -0.13875429 -0.091617852 1.5857646e-38
0.10500482 -0.14068706 -0.099519998 1.5489219e-38
0.1067453 -0.13971741 -0.095555574 1.5397023e-38
0.10880207 -0.13971741 -0.095555574 1.567361e-38
0.11119594 -0.14068706 -0.099519998 1.3921177e-38
0.11360604 -0.1416633 -0.10351124 3.1332095e-39
0.11567675 -0.1416633 -0.10351124 2.1190604e-39
0.11774746 -0.1416633 -0.10351124 2.8566254e-39
-0.1064875 -0.11715056 0.0044008186 1.8443076e-38
-0.10427502 -0.11639442 0.0074703386 2.0286641e-38
-0.10208711 -0.11567034 0.010409682 2.1577028e-38
-0.10021615 -0.11567034 0.010409682 2.2222395e-38
-0.097930461 -0.11467429 0.014453023 2.194653e-38
-0.096066579 -0.11467429 0.014453023 2.0748364e-38
-0.09360756 -0.1131943 0.020460814 1.9919333e-38
-0.091754213 -0.1131943 0.020460814 1.8906263e-38
-0.089616269 -0.11246057 0.023439258 1.8538922e-38
-0.087768152 -0.11246057 0.023439258 1.8171222e-38
-0.085546806 -0.11146177 0.027493805 1.7619131e-38
-0.083705798 -0.11146177 0.027493805 1.6974848e-38
-0.081604555 -0.11073773 0.03043291 1.6238008e-38
-0.079768702 -0.11073773 0.03043291 1.5593003e-38
-0.077675134 -0.10999118 0.033463448 1.5132039e-38
-0.075844586 -0.10999118 0.033463448 1.4671437e-38
-0.074014053 -0.10999118 0.033463448 1.3657297e-38
-0.071943134 -0.10924892 0.036476582 1.2919732e-38
-0.070117876 -0.10924892 0.036476582 1.1813385e-38
-0.068292618 -0.10924892 0.036476582 1.0246783e-38
-0.066244125 -0.10851096 0.039472312 9.7865269e-39
-0.064424112 -0.10851096 0.039472312 9.7868899e-39
-0.062324885 -0.10754226 0.043404549 9.3259145e-39
-0.060511772 -0.10754226 0.043404549 8.1280958e-39
-0.058293629 -0.10606419 0.049404591 7.3908937e-39
-0.056491036 -0.10606419 0.049404591 6.2852706e-39
-0.054688442 -0.10606419 0.049404591 5.3636801e-39
-0.052697513 -0.1053188 0.052430481 4.9027047e-39
-0.050900225 -0.1053188 0.052430481 4.2576968e-39
-0.049102943 -0.1053188 0.052430481 3.427939e-39
-0.047305655 -0.1053188 0.052430481 2.7825668e-39
-0.045342226 -0.10457774 0.055438727 3.1502661e-39
-0.043550212 -0.10457774 0.055438727 3.0573474e-39
-0.041603517 -0.10384102 0.058429331 2.5034547e-39
-0.039816748 -0.10384102 0.058429331 1.6736941e-39
-0.037886623 -0.1031086 0.06140241 1.3041885e-39
-0.03596301 -0.10235542 0.06445989 1.1194357e-39
-0.034186814 -0.10235542 0.06445989 9.3324656e-40
-0.032280069 -0.10160676 0.067499012 5.6481997e-40
-0.0305092 -0.10160676 0.067499012 1.9470327e-39
-0.028738335 -0.10160676 0.067499012 1.3942149e-39
-0.026857376 -0.1008873 0.07041952 1.0254324e-39
-0.025091629 -0.1008873 0.07041952 3.514713e-39
-0.023325883 -0.1008873 0.07041952 4.2529941e-39
-0.021560136 -0.1008873 0.07041952 1.6715165e-39
-0.019794393 -0.1008873 0.07041952 9.3395141e-40
-0.018201057 -0.10235542 0.06445989 1.3041773e-39
-0.016424861 -0.10235542 0.06445989 3.2417358e-39
-0.014648665 -0.10235542 0.06445989 3.0584264e-39
-0.012944844 -0.1031086 0.06140241 2.1368246e-39
-0.011293989 -0.10457774 0.055438727 3.4264788e-39
-0.0095626339 -0.1053188 0.052430481 3.4264704e-39
-0.007765349 -0.1053188 0.052430481 5.4551246e-39
-0.0060184635 -0.10606419 0.049404591 7.6670924e-39
-0.0042596646 -0.10678811 0.046465963 9.8794204e-39
-0.0024921782 -0.10754226 0.043404549 1.1077598e-38
-0.00067906454 -0.10754226 0.043404549 1.3382845e-38
0.0010961257 -0.10851096 0.039472312 1.3565792e-38
0.002916133 -0.10851096 0.039472312 1.3012616e-38
0.0047177561 -0.10924892 0.036476582 1.3011896e-38
0.0065430142 -0.10924892 0.036476582 1.1997741e-38
0.0083603505 -0.10999118 0.033463448 1.1905545e-38
0.010188235 -0.11073773 0.03043291 1.2642027e-38
0.012026668 -0.11146177 0.027493805 1.310012e-38
0.013867676 -0.11146177 0.027493805 1.4574161e-38
0.015726458 -0.11246057 0.023439258 1.6325511e-38
0.017592855 -0.1131943 0.020460814 1.8076138e-38
0.019446194 -0.1131943 0.020460814 1.9827844e-38
0.021357469 -0.11467429 0.014453023 2.157847e-38
0.023267424 -0.11567034 0.010409682 2.2499336e-38
0.025138387 -0.11567034 0.010409682 2.2590085e-38
0.027009351 -0.11567034 0.010409682 2.3418043e-38
0.028929273 -0.11639442 0.0074703386 2.3141452e-38
0.030861899 -0.11715056 0.0044008186 2.3509876e-38
0.032824159 -0.11813726 0.00039550569 2.3509879e-38
0.03471268 -0.11813726 0.00039550569 2.332405e-38
0.036672093 -0.11887501 -0.0025993893 2.3508804e-38
0.03866607 -0.119846 -0.0065409252 2.3509168e-38
0.040649198 -0.12059332 -0.0095745632 2.3509527e-38
0.042555202 -0.12059332 -0.0095745632 2.3234379e-38
0.044551194 -0.12131582 -0.012507469 2.2958873e-38
0.046592552 -0.12230472 -0.016521841 2.3234379e-38
0.048510734 -0.12230472 -0.016521841 2.1759613e-38
0.050428919 -0.12230472 -0.016521841 1.9452925e-38
0.052463576 -0.12306587 -0.019611627 1.6410106e-38
0.054699704 -0.12501745 -0.027533799 1.4104136e-38
0.056762073 -0.12576406 -0.030564576 1.2444249e-38
0.058704879 -0.12576406 -0.030564576 1.3088894e-38
0.060827699 -0.12675591 -0.03459087 1.2075093e-38
0.062914476 -0.1274818 -0.037537485 1.161375e-38
0.065258093 -0.12946714 -0.045596749 9.4014067e-39
0.067377433 -0.13020746 -0.048602015 9.4946743e-39
0.069351859 -0.13020746 -0.048602015 1.8253254e-38
0.071326286 -0.13020746 -0.048602015 2.1389338e-38
0.073516428 -0.1311696 -0.052507669 2.2680089e-38
0.075497709 -0.1311696 -0.052507669 2.1851069e-38
0.07747899 -0.1311696 -0.052507669 2.0560342e-38
0.079705872 -0.13216983 -0.056567937 2.0651821e-38
0.081694268 -0.13216983 -0.056567937 2.0744736e-38
0.084133655 -0.13390581 -0.063614994 1.9729868e-38
0.08665508 -0.13585658 -0.071533948 1.8808271e-38
0.088669717 -0.13585658 -0.071533948 1.9268534e-38
0.091240466 -0.13783465 -0.079563648 1.9638035e-38
0.093269177 -0.13783465 -0.079563648 1.8531685e-38
0.095588252 -0.13881765 -0.08355394 1.4843859e-38
0.097623959 -0.13881765 -0.08355394 1.4936411e-38
0.099966124 -0.13980745 -0.087571889 1.5766169e-38
0.10232456 -0.14080413 -0.091617852 1.5305188e-38
0.10500482 -0.14275078 -0.099519998 1.5766523e-38
0.1067453 -0.14177416 -0.095555574 1.5489936e-38
0.10880207 -0.14177416 -0.095555574 1.4843848e-38
0.11119594 -0.14275078 -0.099519998 1.3921174e-38
0.11360604 -0.14373399 -0.10351124 3.3176007e-39
0.11567675 -0.14373399 -0.10351124 1.9346691e-39
0.11774746 -0.14373399 -0.10351124 2.4878429e-39
0.11981815 -0.14373399 -0.10351124 2.1187044e-39
0.12264533 -0.14572059 -0.11157563 1.5655306e-39
-0.1064875 -0.11903207 0.0044008186 2.0195151e-38
-0.10395807 -0.1175413 0.010409682 2.2591166e-38
-0.10165821 -0.11653815 0.014453023 2.2867037e-38
-0.099794328 -0.11653815 0.014453023 2.3142544e-38
-0.097930461 -0.11653815 0.014453023 2.3142544e-38
-0.095762879 -0.11579077 0.017465442 2.2773767e-38
-0.09360756 -0.11504765 0.020460814 2.3050349e-38
-0.091464385 -0.1143087 0.023439258 2.2958873e-38
-0.089228824 -0.11330278 0.027493805 2.2775202e-38
-0.087387815 -0.11330278 0.027493805 2.2591531e-38
-0.085546806 -0.11330278 0.027493805 2.2132353e-38
-0.083440408 -0.11257361 0.03043291 2.1580623e-38
-0.081604555 -0.11257361 0.03043291 2.0844145e-38
-0.079768702 -0.11257361 0.03043291 2.0199503e-38
-0.077675134 -0.11182173 0.033463448 1.9922203e-38
-0.075844586 -0.11182173 0.033463448 1.74326e-38
-0.074014053 -0.11182173 0.033463448 1.6694686e-38
-0.071943134 -0.11107419 0.036476582 1.5865285e-38
-0.070117876 -0.11107419 0.036476582 1.4483073e-38
-0.068292618 -0.11107419 0.036476582 1.2732079e-38
-0.066244125 -0.11033095 0.039472312 1.2272541e-38
-0.064137995 -0.10935538 0.043404549 1.2365821e-38
-0.062324885 -0.10935538 0.043404549 1.1721897e-38
-0.060511772 -0.10935538 0.043404549 1.0063463e-38
-0.058293629 -0.10786678 0.049404591 9.5113764e-39
-0.056491036 -0.10786678 0.049404591 8.5908676e-39
-0.054494802 -0.10711606 0.052430481 7.3930517e-39
-0.052697513 -0.10711606 0.052430481 6.2874286e-39
-0.050900225 -0.10711606 0.052430481 5.1814468e-39
-0.048926253 -0.10636975 0.055438727 3.8914325e-39
-0.047134239 -0.10636975 0.055438727 2.8772805e-39
-0.045342226 -0.10636975 0.055438727 2.0467996e-39
-0.043550212 -0.10636975 0.055438727 2.5070589e-39
-0.041603517 -0.10562779 0.058429331 2.8747624e-39
-0.039816748 -0.10562779 0.058429331 2.8744009e-39
-0.037886623 -0.10489015 0.06140241 2.5970951e-39
-0.03596301 -0.10413162 0.06445989 2.6878488e-39
-0.034186814 -0.10413162 0.06445989 2.8711611e-39
-0.032280069 -0.10337763 0.067499012 2.9629938e-39
-0.0305092 -0.10337763 0.067499012 2.8704352e-39
-0.028623123 -0.10265306 0.07041952 2.6860439e-39
-0.026857376 -0.10265306 0.07041952 2.1328687e-39
-0.025091629 -0.10265306 0.07041952 3.7923873e-39
-0.023325883 -0.10265306 0.07041952 4.1615257e-39
-0.021560136 -0.10265306 0.07041952 2.0413864e-39
-0.019794393 -0.10265306 0.07041952 1.9491907e-39
-0.018201057 -0.10413162 0.06445989 2.8718687e-39
-0.016424861 -0.10413162 0.06445989 2.0424766e-39
-0.014648665 -0.10413162 0.06445989 3.4261299e-39
-0.012944844 -0.10489015 0.06140241 3.8867409e-39
-0.011228446 -0.10562779 0.058429331 6.9288254e-39
-0.0095019788 -0.10636975 0.055438727 7.6663792e-39
-0.007765349 -0.10711606 0.052430481 9.7865087e-39
-0.0060184635 -0.10786678 0.049404591 1.2552005e-38
-0.0042596646 -0.10859586 0.046465963 1.4948001e-38
-0.0024921782 -0.10935538 0.043404549 1.5408612e-38
-0.00072387978 -0.11033095 0.039472312 1.6606791e-38
0.0010961257 -0.11033095 0.039472312 1.6974487e-38
0.002916133 -0.11033095 0.039472312 1.6604623e-38
0.0047177561 -0.11107419 0.036476582 1.6327317e-38
0.0065430142 -0.11107419 0.036476582 1.6419153e-38
0.0083603505 -0.11182173 0.033463448 1.7248914e-38
0.010188235 -0.11257361 0.03043291 1.8722597e-38
0.012026668 -0.11330278 0.027493805 2.1210411e-38
0.013867676 -0.11330278 0.027493805 2.1854694e-38
0.015726458 -0.1143087 0.023439258 2.2407142e-38
0.017592855 -0.11504765 0.020460814 2.2683366e-38
0.019446194 -0.11504765 0.020460814 2.2958873e-38
0.021328419 -0.11579077 0.017465442 2.3142544e-38
0.023221344 -0.11653815 0.014453023 2.3234379e-38
0.025138387 -0.1175413 0.010409682 2.341805e-38
0.027009351 -0.1175413 0.010409682 2.31411e-38
0.028929273 -0.11827053 0.0074703386 2.3509883e-38
0.030861899 -0.11903207 0.0044008186 2.3509886e-38
0.032824159 -0.12002577 0.00039550569 2.341805e-38
0.03471268 -0.12002577 0.00039550569 2.2957075e-38
0.036672093 -0.1207688 -0.0025993893 2.341805e-38
0.03866607 -0.12174667 -0.0065409252 2.2865602e-38
0.040649198 -0.1224993 -0.0095745632 1.9085583e-38
0.042555202 -0.1224993 -0.0095745632 1.042099e-38
0.044551194 -0.12322696 -0.012507469 7.1023033e-39
0.046592552 -0.12422292 -0.016521841 3.8740213e-39
0.048510734 -0.12422292 -0.016521841 1.2921836e-39
0.050428919 -0.12422292 -0.016521841 1.291106e-39
0.052463576 -0.12498946 -0.019611627 6.4429882e-40
0.054699704 -0.12695493 -0.027533799 5.5138292e-40
0.056762073 -0.12770687 -0.030564576 3.6734759e-40
0.058704879 -0.12770687 -0.030564576 1.1953062e-39
0.060827699 -0.12870578 -0.03459087 1.3800506e-39
0.062914476 -0.12943684 -0.037537485 1.5640747e-39
0.065258093 -0.1314363 -0.045596749 7.3540143e-40
0.067377433 -0.1321819 -0.048602015 1.3811198e-39
0.069351859 -0.1321819 -0.048602015 1.5210801e-38
0.071326286 -0.1321819 -0.048602015 1.9729463e-38
0.073300719 -0.1321819 -0.048602015 2.1942526e-38
0.075497709 -0.13315089 -0.052507669 2.1666322e-38
0.07747899 -0.13315089 -0.052507669 2.0836931e-38
0.079460263 -0.13315089 -0.052507669 2.0836575e-38
0.081694268 -0.13415821 -0.056567937 2.0836575e-38
0.08393617 -0.13514097 -0.060529143 1.9914619e-38
0.08639811 -0.1369016 -0.067625672 1.9545836e-38
0.088669717 -0.13787122 -0.071533948 1.9730231e-38
0.091240466 -0.13986339 -0.079563648 1.9638032e-38
0.093269177 -0.13986339 -0.079563648 1.9084858e-38
0.095588252 -0.14085336 -0.08355394 1.558178e-38
0.097623959 -0.14085336 -0.08355394 1.4659821e-38
0.099966124 -0.14185019 -0.087571889 1.4752014e-38
0.10263179 -0.14383091 -0.095555574 1.5305545e-38
0.10500482 -0.14481448 -0.099519998 1.6780672e-38
0.10706852 -0.14481448 -0.099519998 1.6043107e-38
0.10913223 -0.14481448 -0.099519998 1.5028237e-38
0.11153534 -0.14580469 -0.10351124 1.3460196e-38
0.11360604 -0.14580469 -0.10351124 3.1332095e-39
0.11603256 -0.14680167 -0.10752979 1.3814953e-39
0.11811031 -0.14680167 -0.10752979 1.8424735e-39
0.12056048 -0.14780544 -0.11157563 2.0265088e-39
0.12264533 -0.14780544 -0.11157563 1.5655306e-39
-0.10395807 -0.11941226 0.010409682 2.2867032e-38
-0.10165821 -0.11840202 0.014453023 2.3050707e-38
-0.099794328 -0.11840202 0.014453023 2.2958154e-38
-0.097930461 -0.11840202 0.014453023 2.3325497e-38
-0.095762879 -0.11764936 0.017465442 2.323258e-38
-0.09360756 -0.11690097 0.020460814 2.3509524e-38
-0.091464385 -0.1161568 0.023439258 2.3325129e-38
-0.089228824 -0.11514379 0.027493805 2.3325847e-38
-0.087387815 -0.11514379 0.027493805 2.3234012e-38
-0.085546806 -0.11514379 0.027493805 2.2866674e-38
-0.083440408 -0.11440946 0.03043291 2.2407142e-38
-0.081604555 -0.11440946 0.03043291 2.1855053e-38
-0.079768702 -0.11440946 0.03043291 2.1578829e-38
-0.077675134 -0.11365227 0.033463448 2.157847e-38
-0.075844586 -0.11365227 0.033463448 2.1391929e-38
-0.074014053 -0.11365227 0.033463448 2.0654376e-38
-0.072183505 -0.11365227 0.033463448 1.9733504e-38
-0.070352972 -0.11365227 0.033463448 1.8167617e-38
-0.068292618 -0.11289944 0.036476582 1.6416984e-38
-0.066244125 -0.11215095 0.039472312 1.5404997e-38
-0.064137995 -0.11116849 0.043404549 1.4852906e-38
-0.062107492 -0.11040358 0.046465963 1.3196271e-38
-0.060299743 -0.11040358 0.046465963 1.2183926e-38
-0.058293629 -0.10966937 0.049404591 1.1816952e-38
-0.056491036 -0.10966937 0.049404591 1.0712418e-38
-0.054494802 -0.10891335 0.052430481 9.2390971e-39
-0.052697513 -0.10891335 0.052430481 7.8572528e-39
-0.050718259 -0.10816176 0.055438727 6.7519913e-39
-0.048926253 -0.10816176 0.055438727 5.554174e-39
-0.047134239 -0.10816176 0.055438727 4.631866e-39
-0.045342226 -0.10816176 0.055438727 4.5382396e-39
-0.043390285 -0.10741456 0.058429331 4.3531323e-39
-0.041603517 -0.10741456 0.058429331 3.8914353e-39
-0.039816748 -0.10741456 0.058429331 3.4293781e-39
-0.037886623 -0.10667174 0.06140241 3.0591565e-39
-0.03596301 -0.10590781 0.06445989 2.965879e-39
-0.03405093 -0.10514848 0.067499012 3.2413869e-39
-0.032280069 -0.10514848 0.067499012 3.5176123e-39
-0.030388866 -0.1044188 0.07041952 2.6867698e-39
-0.028623123 -0.1044188 0.07041952 3.4239747e-39
-0.026857376 -0.1044188 0.07041952 2.7786025e-39
-0.025091629 -0.1044188 0.07041952 3.2402967e-39
-0.023325883 -0.1044188 0.07041952 3.1480997e-39
-0.021560136 -0.1044188 0.07041952 1.580774e-39
-0.019794393 -0.1044188 0.07041952 2.1343037e-39
-0.018201057 -0.10590781 0.06445989 3.055904e-39
-0.016424861 -0.10590781 0.06445989 3.3324923e-39
-0.014648665 -0.10590781 0.06445989 4.3469988e-39
-0.012872472 -0.10590781 0.06445989 3.9778491e-39
-0.011228446 -0.10741456 0.058429331 7.0202923e-39
-0.0094416775 -0.10741456 0.058429331 8.2177411e-39
-0.007765349 -0.10891335 0.052430481 1.0430062e-38
-0.0060184635 -0.10966937 0.049404591 1.3656535e-38
-0.0042596646 -0.11040358 0.046465963 1.5960333e-38
-0.0024921782 -0.11116849 0.043404549 1.8448527e-38
-0.00072387978 -0.11215095 0.039472312 1.7802791e-38
0.0010961257 -0.11215095 0.039472312 1.8170129e-38
0.002916133 -0.11215095 0.039472312 1.7984295e-38
0.0047177561 -0.11289944 0.036476582 1.770699e-38
0.0065430142 -0.11289944 0.036476582 1.8720421e-38
0.0083603505 -0.11365227 0.033463448 2.0010441e-38
0.010188235 -0.11440946 0.03043291 2.1115343e-38
0.012026668 -0.11514379 0.027493805 2.3142544e-38
0.013867676 -0.11514379 0.027493805 2.3234376e-38
0.015726458 -0.1161568 0.023439258 2.3418047e-38
0.017592855 -0.11690097 0.020460814 2.3418047e-38
0.019446194 -0.11690097 0.020460814 2.3417691e-38
0.021328419 -0.11764936 0.017465442 2.314075e-38
0.023221344 -0.11840202 0.014453023 2.3325138e-38
0.025138387 -0.11941226 0.010409682 2.3509527e-38
0.027009351 -0.11941226 0.010409682 2.3509527e-38
0.028929273 -0.12014665 0.0074703386 2.2495745e-38
0.030861899 -0.12091358 0.0044008186 2.2773767e-38
0.032824159 -0.12191428 0.00039550569 2.2958873e-38
0.03471268 -0.12191428 0.00039550569 2.2775202e-38
0.036672093 -0.12266256 -0.0025993893 2.2775202e-38
0.03866607 -0.12364738 -0.0065409252 2.0195536e-38
0.040649198 -0.12440531 -0.0095745632 1.5032934e-38
0.042555202 -0.12440531 -0.0095745632 7.8405844e-39
0.044551194 -0.12513812 -0.012507469 2.8616547e-39
0.046592552 -0.12614109 -0.016521841 1.7950633e-42
0.048616376 -0.12691309 -0.019611627 3.61535e-43
0.050539974 -0.12691309 -0.019611627 1.291106e-39
0.052612357 -0.12789918 -0.023558408 4.5991036e-40
0.054699704 -0.12889244 -0.027533799 9.1981231e-40
0.056762073 -0.12964968 -0.030564576 1.1034847e-39
0.058704879 -0.12964968 -0.030564576 5.5102279e-40
0.060827699 -0.13065563 -0.03459087 7.3469238e-40
0.062914476 -0.13139187 -0.037537485 5.5101298e-40
0.065258093 -0.13340546 -0.045596749 6.4284847e-40
0.067227259 -0.13340546 -0.045596749 5.5101298e-40
0.069351859 -0.13415633 -0.048602015 1.4934588e-38
0.071326286 -0.13415633 -0.048602015 1.8714606e-38
0.073300719 -0.13415633 -0.048602015 2.148084e-38
0.075497709 -0.13513215 -0.052507669 2.1113512e-38
0.07747899 -0.13513215 -0.052507669 2.0653263e-38
0.079460263 -0.13513215 -0.052507669 2.0653263e-38
0.081694268 -0.13614662 -0.056567937 2.0192285e-38
0.08393617 -0.13713633 -0.060529143 1.945472e-38
0.08639811 -0.13890938 -0.067625672 1.945472e-38
0.088669717 -0.13988586 -0.071533948 1.9270329e-38
0.091240466 -0.14189209 -0.079563648 1.8256177e-38
0.09355253 -0.14288907 -0.08355394 1.8255098e-38
0.095588252 -0.14288907 -0.08355394 1.6134954e-38
0.097923368 -0.14389296 -0.087571889 1.5489579e-38
0.10027471 -0.14490382 -0.091617852 1.5121154e-38
0.10263179 -0.14588766 -0.095555574 1.5674325e-38
0.10500482 -0.1468782 -0.099519998 1.61353e-38
0.1067453 -0.14588766 -0.095555574 1.5213344e-38
0.10880207 -0.14588766 -0.095555574 1.5489571e-38
0.11153534 -0.14787538 -0.10351124 1.355239e-38
0.11395481 -0.14887942 -0.10752979 3.6863805e-39
0.11639079 -0.14989029 -0.11157563 1.8424707e-39
0.11847565 -0.14989029 -0.11157563 2.1190604e-39
0.12056048 -0.14989029 -0.11157563 2.5796826e-39
-0.10395807 -0.12128322 0.010409682 2.2958866e-38
-0.10165821 -0.12026589 0.014453023 2.30507e-38
-0.099794328 -0.12026589 0.014453023 2.3418047e-38
-0.097930461 -0.12026589 0.014453023 2.350988e-38
-0.095762879 -0.11950795 0.017465442 2.3508798e-38
-0.09360756 -0.11875431 0.020460814 2.3509157e-38
-0.091464385 -0.11800493 0.023439258 2.3509513e-38
-0.089228824 -0.1169848 0.027493805 2.3509873e-38
-0.087387815 -0.1169848 0.027493805 2.3509876e-38
-0.085546806 -0.1169848 0.027493805 2.3509879e-38
-0.083440408 -0.11624531 0.03043291 2.341805e-38
-0.081604555 -0.11624531 0.03043291 2.3142544e-38
-0.079768702 -0.11624531 0.03043291 2.2958873e-38
-0.077675134 -0.11548282 0.033463448 2.2958873e-38
-0.075844586 -0.11548282 0.033463448 2.3234379e-38
-0.074014053 -0.11548282 0.033463448 2.3141109e-38
-0.072183505 -0.11548282 0.033463448 2.3050349e-38
-0.070117876 -0.11472471 0.036476582 2.2775202e-38
-0.068292618 -0.11472471 0.036476582 2.2407142e-38
-0.066244125 -0.11397095 0.039472312 2.2224189e-38
-0.064137995 -0.1129816 0.043404549 2.158134e-38
-0.062107492 -0.11221133 0.046465963 1.9923996e-38
-0.060299743 -0.11221133 0.046465963 1.9096042e-38
-0.058293629 -0.11147197 0.049404591 1.8821253e-38
-0.056491036 -0.11147197 0.049404591 1.7900387e-38
-0.054494802 -0.11071064 0.052430481 1.6241967e-38
-0.052697513 -0.11071064 0.052430481 1.4767936e-38
-0.050718259 -0.10995375 0.055438727 1.3754148e-38
-0.048926253 -0.10995375 0.055438727 1.2832918e-38
-0.047134239 -0.10995375 0.055438727 1.2003524e-38
-0.045342226 -0.10995375 0.055438727 9.975237e-39
-0.043390285 -0.10920133 0.058429331 9.5139071e-39
-0.041603517 -0.10920133 0.058429331 8.9600173e-39
-0.039668176 -0.10845329 0.06140241 8.1302566e-39
-0.037886623 -0.10845329 0.06140241 7.0231902e-39
-0.03596301 -0.107684 0.06445989 5.9157664e-39
-0.03405093 -0.10691936 0.067499012 4.9930913e-39
-0.032280069 -0.10691936 0.067499012 4.4399175e-39
-0.030388866 -0.10618456 0.07041952 3.6090778e-39
-0.028623123 -0.10618456 0.07041952 4.5310341e-39
-0.026857376 -0.10618456 0.07041952 3.9774974e-39
-0.025091629 -0.10618456 0.07041952 4.3462771e-39
-0.023325883 -0.10618456 0.07041952 4.7150596e-39
-0.021560136 -0.10618456 0.07041952 4.0696902e-39
-0.019794393 -0.10618456 0.07041952 4.8076112e-39
-0.018201057 -0.107684 0.06445989 5.3604206e-39
-0.016424861 -0.107684 0.06445989 6.5575163e-39
-0.014648665 -0.107684 0.06445989 7.8478866e-39
-0.012872472 -0.107684 0.06445989 8.0319107e-39
-0.011228446 -0.10920133 0.058429331 1.2918268e-38
-0.0094416775 -0.10920133 0.058429331 1.5683044e-38
-0.007765349 -0.11071064 0.052430481 1.8171947e-38
-0.0060184635 -0.11147197 0.049404591 2.0660474e-38
-0.0042596646 -0.11221133 0.046465963 2.1765011e-38
-0.0024921782 -0.1129816 0.043404549 2.2132353e-38
-0.00072387978 -0.11397095 0.039472312 2.1303323e-38
0.0010961257 -0.11397095 0.039472312 2.240786e-38
0.0028924979 -0.11472471 0.036476582 2.2775202e-38
0.0047177561 -0.11472471 0.036476582 2.249826e-38
0.006529808 -0.11548282 0.033463448 2.3142544e-38
0.0083603505 -0.11548282 0.033463448 2.323402e-38
0.010188235 -0.11624531 0.03043291 2.3049273e-38
0.012026668 -0.1169848 0.027493805 2.3417323e-38
0.013867676 -0.1169848 0.027493805 2.3233285e-38
0.015726458 -0.11800493 0.023439258 2.3417679e-38
0.017592855 -0.11875431 0.020460814 2.3509879e-38
0.019446194 -0.11875431 0.020460814 2.3509883e-38
0.021328419 -0.11950795 0.017465442 2.3140387e-38
0.023221344 -0.12026589 0.014453023 2.3325138e-38
0.025138387 -0.12128322 0.010409682 2.3509527e-38
0.027009351 -0.12128322 0.010409682 2.3509168e-38
0.028880313 -0.12128322 0.010409682 2.3233303e-38
0.03080539 -0.12202276 0.0074703386 2.3142544e-38
0.032743398 -0.12279506 0.0044008186 1.9179226e-38
0.034624897 -0.12279506 0.0044008186 9.3146551e-39
0.036672093 -0.12455635 -0.0025993893 2.2173895e-39
0.038565863 -0.12455635 -0.0025993893 1.2957933e-39
0.040649198 -0.12631132 -0.0095745632 1.9407984e-39
0.042555202 -0.12631132 -0.0095745632 6.5498456e-39
0.044551194 -0.12704925 -0.012507469 5.257662e-39
0.046592552 -0.12805928 -0.016521841 7.4696411e-39
0.048616376 -0.12883668 -0.019611627 9.5890644e-39
0.050539974 -0.12883668 -0.019611627 9.3110454e-39
0.052612357 -0.12982969 -0.023558408 3.2250562e-39
0.054699704 -0.13082992 -0.027533799 7.3469938e-40
0.056762073 -0.13159247 -0.030564576 9.1837038e-40
0.058704879 -0.13159247 -0.030564576 9.1837038e-40
0.060827699 -0.13260551 -0.03459087 1.0105632e-39
0.062914476 -0.13334687 -0.037537485 5.5101578e-40
0.065258093 -0.13537462 -0.045596749 1.3807736e-39
0.067227259 -0.13537462 -0.045596749 2.7550649e-40
0.069351859 -0.13613077 -0.048602015 1.5211189e-38
0.071326286 -0.13613077 -0.048602015 1.8162522e-38
0.073516428 -0.13711344 -0.052507669 2.1666678e-38
0.075497709 -0.13711344 -0.052507669 2.0652534e-38
0.07747899 -0.13711344 -0.052507669 2.0284478e-38
0.079705872 -0.138135 -0.056567937 2.0284478e-38
0.081694268 -0.138135 -0.056567937 1.9546913e-38
0.08393617 -0.13913165 -0.060529143 1.8809348e-38
0.08639811 -0.14091717 -0.067625672 1.8993742e-38
0.088669717 -0.14190049 -0.071533948 1.8532764e-38
0.090966001 -0.1429237 -0.075600654 1.6965438e-38
0.09355253 -0.14492477 -0.08355394 1.6412264e-38
0.095880613 -0.1459357 -0.087571889 1.6043479e-38
0.097923368 -0.1459357 -0.087571889 1.6780318e-38
0.10027471 -0.14695369 -0.091617852 1.6503367e-38
0.10263179 -0.14794444 -0.095555574 1.5950184e-38
0.10500482 -0.14894189 -0.099519998 1.4935307e-38
0.1067453 -0.14794444 -0.095555574 1.4105182e-38
0.10880207 -0.14794444 -0.095555574 1.5948737e-38
0.11153534 -0.14994611 -0.10351124 1.4381062e-38
0.11360604 -0.14994611 -0.10351124 4.700168e-39
-0.10582903 -0.12315418 0.010409682 2.2405685e-38
-0.10395807 -0.12315418 0.010409682 2.3418043e-38
-0.10165821 -0.12212978 0.014453023 2.3418043e-38
-0.099794328 -0.12212978 0.014453023 2.350988e-38
-0.097930461 -0.12212978 0.014453023 2.3233652e-38
-0.095762879 -0.12136655 0.017465442 2.350988e-38
-0.09360756 -0.12060766 0.020460814 2.3325129e-38
-0.091464385 -0.11985306 0.023439258 2.3509883e-38
-0.089228824 -0.11882581 0.027493805 2.2587566e-38
-0.087387815 -0.11882581 0.027493805 2.3509886e-38
-0.085546806 -0.11882581 0.027493805 2.3417691e-38
-0.083440408 -0.11808117 0.03043291 2.2956359e-38
-0.081604555 -0.11808117 0.03043291 2.341805e-38
-0.079768702 -0.11808117 0.03043291 2.3417691e-38
-0.077932835 -0.11808117 0.03043291 2.3325497e-38
-0.075844586 -0.11731337 0.033463448 2.341805e-38
-0.074014053 -0.11731337 0.033463448 2.221951e-38
-0.072183505 -0.11731337 0.033463448 2.3234379e-38
-0.070117876 -0.11654995 0.036476582 2.2405696e-38
-0.068064123 -0.11579098 0.039472312 2.2683365e-38
-0.066244125 -0.11579098 0.039472312 2.2867037e-38
-0.064137995 -0.11479472 0.043404549 2.1671019e-38
-0.062324885 -0.11479472 0.043404549 2.2499695e-38
-0.060299743 -0.11401908 0.046465963 2.1302964e-38
-0.058293629 -0.11327456 0.049404591 2.1948682e-38
-0.056292091 -0.11250792 0.052430481 2.1118575e-38
-0.054494802 -0.11250792 0.052430481 2.0657963e-38
-0.05251028 -0.11174576 0.055438727 2.0104798e-38
-0.050718259 -0.11174576 0.055438727 1.8353446e-38
-0.048926253 -0.11174576 0.055438727 1.743149e-38
-0.046963822 -0.1109881 0.058429331 1.6787208e-38
-0.045177054 -0.1109881 0.058429331 1.5037672e-38
-0.043231297 -0.11023484 0.06140241 1.3563632e-38
