# .PCD v0.7 - Point Cloud Data file format
VERSION 0.7
FIELDS x y z rgb
SIZE 4 4 4 4
TYPE F F F F
COUNT 1 1 1 1
WIDTH 921
HEIGHT 1
VIEWPOINT 0 0 0 1 0 0 0
POINTS 921
DATA ascii
0.025313834 -0.090364665 -0.037270762 2.2775199e-38
0.027237434 -0.090364665 -0.037270762 2.2775199e-38
0.029161036 -0.090364665 -0.037270762 2.2867037e-38
0.031022334 -0.089695618 -0.034180976 2.3142544e-38
0.032940518 -0.089695618 -0.034180976 2.3234379e-38
0.034858704 -0.089695618 -0.034180976 2.341805e-38
0.036776885 -0.089695618 -0.034180976 2.3325856e-38
0.038695067 -0.089695618 -0.034180976 2.3325856e-38
0.040613249 -0.089695618 -0.034180976 2.341805e-38
0.042531431 -0.089695618 -0.034180976 2.3141467e-38
0.04444962 -0.089695618 -0.034180976 2.3417691e-38
0.046367802 -0.089695618 -0.034180976 2.3234379e-38
0.047785565 -0.086680889 -0.020258524 2.2681214e-38
-0.090761334 -0.10362239 -0.089193083 1.3014093e-38
-0.088746697 -0.10362239 -0.089193083 1.2279768e-38
-0.08673206 -0.10362239 -0.089193083 1.2285507e-38
-0.084717423 -0.10362239 -0.089193083 1.1550106e-38
-0.083027214 -0.10451011 -0.093259789 1.145827e-38
-0.081625983 -0.10624625 -0.10121308 1.2195107e-38
-0.079590276 -0.10624625 -0.10121308 1.3116332e-38
-0.077554569 -0.10624625 -0.10121308 1.3483674e-38
-0.075518847 -0.10624625 -0.10121308 1.2929073e-38
-0.073483139 -0.10624625 -0.10121308 1.2465591e-38
-0.071171075 -0.10537519 -0.097222783 1.2278319e-38
-0.068874836 -0.10451011 -0.093259789 1.3565806e-38
-0.066328719 -0.10276926 -0.085284807 1.669684e-38
-0.064320922 -0.10276926 -0.085284807 2.0935263e-38
-0.062313139 -0.10276926 -0.085284807 2.2591531e-38
-0.060305357 -0.10276926 -0.085284807 2.2866671e-38
-0.058297575 -0.10276926 -0.085284807 2.3509863e-38
-0.056289792 -0.10276926 -0.085284807 2.3509859e-38
-0.054497853 -0.10362239 -0.089193083 2.350988e-38
-0.052483216 -0.10362239 -0.089193083 2.3509886e-38
-0.05026643 -0.10276926 -0.085284807 2.3509883e-38
-0.048258647 -0.10276926 -0.085284807 2.350988e-38
-0.046250865 -0.10276926 -0.085284807 2.3509876e-38
-0.044243075 -0.10276926 -0.085284807 2.3509876e-38
-0.042235292 -0.10276926 -0.085284807 2.3509879e-38
-0.040055223 -0.10189377 -0.081274129 2.350988e-38
-0.038054466 -0.10189377 -0.081274129 2.3509886e-38
-0.035931975 -0.10122015 -0.078188278 2.3509527e-38
-0.03378731 -0.10035546 -0.074227072 2.3417333e-38
-0.031798914 -0.10035546 -0.074227072 2.3417333e-38
-0.029538164 -0.098616585 -0.06626115 2.3416971e-38
-0.027466251 -0.097960562 -0.063255884 2.3233296e-38
-0.025497092 -0.097960562 -0.063255884 2.3232932e-38
-0.02352793 -0.097960562 -0.063255884 2.3049978e-38
-0.021450544 -0.097091287 -0.059273697 2.2958863e-38
-0.019488366 -0.097091287 -0.059273697 2.2958863e-38
-0.017429681 -0.096201301 -0.055196621 2.2958503e-38
-0.01532183 -0.094679192 -0.048223712 2.2774113e-38
-0.013317915 -0.094017595 -0.045192935 2.3234012e-38
-0.011380425 -0.094017595 -0.045192935 2.3418045e-38
-0.0094429348 -0.094017595 -0.045192935 2.350988e-38
-0.0074461941 -0.093149811 -0.041217543 2.2957065e-38
-0.0055156741 -0.093149811 -0.041217543 2.3232936e-38
-0.003540175 -0.092288271 -0.037270762 2.3325492e-38
-0.001616573 -0.092288271 -0.037270762 2.341769e-38
0.00033140369 -0.091613799 -0.034180976 2.3234018e-38
0.0022495892 -0.091613799 -0.034180976 2.3142542e-38
0.004167771 -0.091613799 -0.034180976 2.3142544e-38
0.0060859546 -0.091613799 -0.034180976 2.3142544e-38
0.0080041382 -0.091613799 -0.034180976 2.3142541e-38
0.00992232 -0.091613799 -0.034180976 2.3234362e-38
0.011829946 -0.090737507 -0.030166604 2.3418028e-38
0.013741091 -0.090737507 -0.030166604 2.3326191e-38
0.015676871 -0.091613799 -0.034180976 2.314252e-38
0.017595053 -0.091613799 -0.034180976 2.3050686e-38
0.019513236 -0.091613799 -0.034180976 2.323436e-38
0.02143142 -0.091613799 -0.034180976 2.3142527e-38
0.023349602 -0.091613799 -0.034180976 2.3142527e-38
0.025267785 -0.091613799 -0.034180976 2.2775181e-38
0.027237434 -0.092288271 -0.037270762 2.2867018e-38
0.029161036 -0.092288271 -0.037270762 2.3142527e-38
0.031022334 -0.091613799 -0.034180976 2.305069e-38
0.032940518 -0.091613799 -0.034180976 2.3142168e-38
0.034858704 -0.091613799 -0.034180976 2.3234364e-38
0.036776885 -0.091613799 -0.034180976 2.3418038e-38
0.038695067 -0.091613799 -0.034180976 2.3418043e-38
0.040613249 -0.091613799 -0.034180976 2.2957428e-38
0.04222519 -0.089435071 -0.024200059 2.2864879e-38
0.043998018 -0.088574663 -0.020258524 2.341805e-38
0.045891792 -0.088574663 -0.020258524 2.3142185e-38
0.047785565 -0.088574663 -0.020258524 2.3234379e-38
0.048810042 -0.083540857 0.0028016791 2.3234379e-38
0.050663382 -0.083540857 0.0028016791 2.3142544e-38
-0.090761334 -0.10563703 -0.089193083 7.4874306e-39
-0.088746697 -0.10563703 -0.089193083 6.3835969e-39
-0.08673206 -0.10563703 -0.089193083 5.7407373e-39
-0.084717423 -0.10563703 -0.089193083 6.2027888e-39
-0.083027214 -0.10653187 -0.093259789 7.4013292e-39
-0.081625983 -0.10828196 -0.10121308 8.5080341e-39
-0.079590276 -0.10828196 -0.10121308 9.5211042e-39
-0.077554569 -0.10828196 -0.10121308 9.9817222e-39
-0.075518847 -0.10828196 -0.10121308 1.0348347e-38
-0.073199779 -0.10740392 -0.097222783 1.0714968e-38
-0.071171075 -0.10740392 -0.097222783 1.1726235e-38
-0.068600327 -0.10563703 -0.089193083 1.1999571e-38
-0.066065013 -0.10389452 -0.081274129 1.227326e-38
-0.064064264 -0.10389452 -0.081274129 1.6696105e-38
-0.0620635 -0.10389452 -0.081274129 2.2224189e-38
-0.060062751 -0.10389452 -0.081274129 2.2683366e-38
-0.058062002 -0.10389452 -0.081274129 2.3142527e-38
-0.056289792 -0.10477705 -0.085284807 2.3418031e-38
-0.05428201 -0.10477705 -0.085284807 2.3509883e-38
-0.052274212 -0.10477705 -0.085284807 2.3509527e-38
-0.05026643 -0.10477705 -0.085284807 2.3509527e-38
-0.048258647 -0.10477705 -0.085284807 2.3509883e-38
-0.046250865 -0.10477705 -0.085284807 2.350988e-38
-0.044243075 -0.10477705 -0.085284807 2.3509879e-38
-0.042055979 -0.10389452 -0.081274129 2.350988e-38
-0.040055223 -0.10389452 -0.081274129 2.3509886e-38
-0.037927322 -0.1032155 -0.078188278 2.3417333e-38
-0.035931975 -0.1032155 -0.078188278 2.3417333e-38
-0.03378731 -0.10234386 -0.074227072 2.3509168e-38
-0.031798914 -0.10234386 -0.074227072 2.3509168e-38
-0.029671697 -0.10145043 -0.070166804 2.3509527e-38
-0.027563734 -0.100591 -0.06626115 2.3509527e-38
-0.025497092 -0.09992972 -0.063255884 2.3509883e-38
-0.02352793 -0.09992972 -0.063255884 2.350988e-38
-0.021450544 -0.099053472 -0.059273697 2.3142541e-38
-0.019384714 -0.098156333 -0.055196621 2.295887e-38
-0.017429681 -0.098156333 -0.055196621 2.3142541e-38
-0.01532183 -0.09662199 -0.048223712 2.3142539e-38
-0.013317915 -0.095955089 -0.045192935 2.3418047e-38
-0.011380425 -0.095955089 -0.045192935 2.350988e-38
-0.0094429348 -0.095955089 -0.045192935 2.3509883e-38
-0.0074461941 -0.095080331 -0.041217543 2.3232936e-38
-0.0055156741 -0.095080331 -0.041217543 2.3509883e-38
-0.003540175 -0.094211861 -0.037270762 2.3509883e-38
-0.0015867781 -0.093531981 -0.034180976 2.3509527e-38
0.00033140369 -0.093531981 -0.034180976 2.3509886e-38
0.0022495892 -0.093531981 -0.034180976 2.3326213e-38
0.004167771 -0.093531981 -0.034180976 2.3050347e-38
0.0060859546 -0.093531981 -0.034180976 2.3234379e-38
0.0080041382 -0.093531981 -0.034180976 2.3234376e-38
0.00992232 -0.093531981 -0.034180976 2.3234367e-38
0.011829946 -0.09264864 -0.030166604 2.3234362e-38
0.013741091 -0.09264864 -0.030166604 2.3234361e-38
0.015676871 -0.093531981 -0.034180976 2.3234361e-38
0.017595053 -0.093531981 -0.034180976 2.350987e-38
0.019513236 -0.093531981 -0.034180976 2.350987e-38
0.02143142 -0.093531981 -0.034180976 2.350987e-38
0.023349602 -0.093531981 -0.034180976 2.350987e-38
0.025267785 -0.093531981 -0.034180976 2.3509873e-38
0.027185969 -0.093531981 -0.034180976 2.3509873e-38
0.029104153 -0.093531981 -0.034180976 2.3509873e-38
0.030941391 -0.09264864 -0.030166604 2.3509873e-38
0.032852538 -0.09264864 -0.030166604 2.3234364e-38
0.034763679 -0.09264864 -0.030166604 2.3234364e-38
0.036674827 -0.09264864 -0.030166604 2.314253e-38
0.038585968 -0.09264864 -0.030166604 2.341804e-38
0.040497117 -0.09264864 -0.030166604 2.350988e-38
0.042104244 -0.090468436 -0.020258524 2.3509886e-38
0.043900877 -0.089809433 -0.017263629 2.3509527e-38
0.045547508 -0.088252664 -0.010188796 2.2772688e-38
0.047317974 -0.087605879 -0.0072494522 2.2588296e-38
0.048810042 -0.085394189 0.0028016791 2.3049991e-38
0.050663382 -0.085394189 0.0028016791 2.3142544e-38
0.052226938 -0.083846629 0.0098346695 2.3142544e-38
0.053811513 -0.082533047 0.015804313 2.3142541e-38
0.055642061 -0.082533047 0.015804313 2.3142538e-38
-0.10939755 -0.09236221 -0.020258524 9.039527e-39
-0.10750377 -0.09236221 -0.020258524 8.3019815e-39
-0.090761334 -0.10765167 -0.089193083 3.7117257e-39
-0.088746697 -0.10765167 -0.089193083 2.7908484e-39
-0.08673206 -0.10765167 -0.089193083 3.7120817e-39
-0.084717423 -0.10765167 -0.089193083 4.2652526e-39
-0.082702786 -0.10765167 -0.089193083 4.9106193e-39
-0.081625983 -0.11031766 -0.10121308 5.463793e-39
-0.079590276 -0.11031766 -0.10121308 5.9244096e-39
-0.077554569 -0.11031766 -0.10121308 6.476866e-39
-0.075518847 -0.11031766 -0.10121308 7.213352e-39
-0.073199779 -0.10943262 -0.097222783 8.0409547e-39
-0.071171075 -0.10943262 -0.097222783 9.5132023e-39
-0.068600327 -0.10765167 -0.089193083 8.7734652e-39
-0.066065013 -0.10589527 -0.081274129 9.1393513e-39
-0.064064264 -0.10589527 -0.081274129 1.1072555e-38
-0.0620635 -0.10589527 -0.081274129 1.9091379e-38
-0.060062751 -0.10589527 -0.081274129 2.2499695e-38
-0.058062002 -0.10589527 -0.081274129 2.2683363e-38
-0.056061253 -0.10589527 -0.081274129 2.3234374e-38
-0.05428201 -0.10678484 -0.085284807 2.3509527e-38
-0.052274212 -0.10678484 -0.085284807 2.3509168e-38
-0.05026643 -0.10678484 -0.085284807 2.3509168e-38
-0.048258647 -0.10678484 -0.085284807 2.3509527e-38
-0.046057478 -0.10589527 -0.081274129 2.3509883e-38
-0.044056728 -0.10589527 -0.081274129 2.3509883e-38
-0.042055979 -0.10589527 -0.081274129 2.3509527e-38
-0.040055223 -0.10589527 -0.081274129 2.3509527e-38
-0.037927322 -0.10521083 -0.078188278 2.3509168e-38
-0.035775706 -0.10433225 -0.074227072 2.3509168e-38
-0.03378731 -0.10433225 -0.074227072 2.3509168e-38
-0.031798914 -0.10433225 -0.074227072 2.3509168e-38
-0.02981052 -0.10433225 -0.074227072 2.3508451e-38
-0.02769042 -0.10343169 -0.070166804 2.3415895e-38
-0.025589304 -0.10256544 -0.06626115 2.3324055e-38
-0.02361487 -0.10256544 -0.06626115 2.3048905e-38
-0.021450544 -0.10101564 -0.059273697 2.2405696e-38
-0.019384714 -0.10011137 -0.055196621 2.2958873e-38
-0.017429681 -0.10011137 -0.055196621 2.3142544e-38
-0.01532183 -0.098564804 -0.048223712 2.2865955e-38
-0.013317915 -0.097892582 -0.045192935 2.2773039e-38
-0.011380425 -0.097892582 -0.045192935 2.3233296e-38
-0.009376714 -0.097010851 -0.041217543 2.3509527e-38
-0.0074461941 -0.097010851 -0.041217543 2.3416971e-38
-0.0054637734 -0.096135467 -0.037270762 2.3509167e-38
-0.0035049636 -0.095450163 -0.034180976 2.3509527e-38
-0.0015867781 -0.095450163 -0.034180976 2.3509527e-38
0.00033140369 -0.095450163 -0.034180976 2.3509886e-38
0.0022742227 -0.094559789 -0.030166604 2.3417691e-38
0.0041853674 -0.094559789 -0.030166604 2.3141466e-38
0.0060965121 -0.094559789 -0.030166604 2.3141467e-38
0.0080041382 -0.095450163 -0.034180976 2.3050349e-38
0.00992232 -0.095450163 -0.034180976 2.3049991e-38
0.011840504 -0.095450163 -0.034180976 2.3142185e-38
0.013758687 -0.095450163 -0.034180976 2.341805e-38
0.015676871 -0.095450163 -0.034180976 2.3509527e-38
0.017595053 -0.095450163 -0.034180976 2.3509168e-38
0.019513236 -0.095450163 -0.034180976 2.3509168e-38
0.02143142 -0.095450163 -0.034180976 2.3415898e-38
0.023349602 -0.095450163 -0.034180976 2.3230788e-38
0.025267785 -0.095450163 -0.034180976 2.3508451e-38
0.027119104 -0.094559789 -0.030166604 2.3508809e-38
0.029030249 -0.094559789 -0.030166604 2.3508451e-38
0.030882254 -0.093909279 -0.027233697 2.3509168e-38
0.032788258 -0.093909279 -0.027233697 2.3509886e-38
0.034694262 -0.093909279 -0.027233697 2.341805e-38
0.036674827 -0.094559789 -0.030166604 2.3234379e-38
0.038585968 -0.094559789 -0.030166604 2.341805e-38
0.04041227 -0.093909279 -0.027233697 2.3325492e-38
0.042012356 -0.091697961 -0.017263629 2.3325492e-38
0.043770954 -0.090809584 -0.013258316 2.3417691e-38
0.045547508 -0.090128779 -0.010188796 2.341805e-38
0.047172643 -0.088580042 -0.0032061115 2.341805e-38
0.048810042 -0.087247536 0.0028016791 2.2312787e-38
0.050663382 -0.087247536 0.0028016791 2.2682286e-38
0.052226938 -0.085687637 0.0098346695 2.3142544e-38
0.053811513 -0.084363595 0.015804313 2.3050701e-38
0.055642061 -0.084363595 0.015804313 2.2129461e-38
-0.10750377 -0.094255984 -0.020258524 5.5379357e-39
-0.09962675 -0.093586475 -0.017263629 4.5263804e-39
-0.0987259 -0.095815286 -0.027233697 4.1586853e-39
-0.095849708 -0.093586475 -0.017263629 3.7920664e-39
-0.094247371 -0.094255984 -0.020258524 2.964821e-39
-0.090822637 -0.095137119 -0.024200059 1.5869103e-39
-0.094790608 -0.1096663 -0.089193083 1.6808981e-39
-0.092775971 -0.1096663 -0.089193083 8.5293114e-40
-0.090761334 -0.1096663 -0.089193083 9.4619876e-40
-0.088746697 -0.1096663 -0.089193083 3.0047342e-40
-0.086406559 -0.10879262 -0.085284807 1.0373238e-39
-0.084398776 -0.10879262 -0.085284807 7.6073691e-40
-0.082702786 -0.1096663 -0.089193083 8.5185354e-40
-0.081314653 -0.11146136 -0.097222783 1.2209934e-39
-0.079285935 -0.11146136 -0.097222783 2.3273409e-39
-0.077257216 -0.11146136 -0.097222783 3.8939478e-39
-0.075228497 -0.11146136 -0.097222783 5.4594756e-39
-0.073199779 -0.11146136 -0.097222783 6.4721856e-39
-0.071171075 -0.11146136 -0.097222783 7.3916182e-39
-0.068874836 -0.11057542 -0.093259789 7.1125006e-39
-0.066065013 -0.10789602 -0.081274129 8.8613196e-39
-0.064064264 -0.10789602 -0.081274129 7.1988962e-39
-0.061871439 -0.10720618 -0.078188278 1.5033697e-38
-0.059876084 -0.10720618 -0.078188278 2.2591531e-38
-0.057880744 -0.10720618 -0.078188278 2.2867037e-38
-0.056061253 -0.10789602 -0.081274129 2.277376e-38
-0.054060489 -0.10789602 -0.081274129 2.3509527e-38
-0.052274212 -0.10879262 -0.085284807 2.3509168e-38
-0.05026643 -0.10879262 -0.085284807 2.3509527e-38
-0.048058234 -0.10789602 -0.081274129 2.3509527e-38
-0.046057478 -0.10789602 -0.081274129 2.3509883e-38
-0.044056728 -0.10789602 -0.081274129 2.3509883e-38
-0.042055979 -0.10789602 -0.081274129 2.3509527e-38
-0.039922662 -0.10720618 -0.078188278 2.3509527e-38
-0.037764102 -0.10632066 -0.074227072 2.2679412e-38
-0.035775706 -0.10632066 -0.074227072 2.2310272e-38
-0.03378731 -0.10632066 -0.074227072 2.1572707e-38
-0.031798914 -0.10632066 -0.074227072 2.0742946e-38
-0.02981052 -0.10632066 -0.074227072 1.9821347e-38
-0.02769042 -0.10541297 -0.070166804 1.8899388e-38
-0.025709143 -0.10541297 -0.070166804 1.8437687e-38
-0.023727862 -0.10541297 -0.070166804 1.7793757e-38
-0.021558771 -0.10386805 -0.063255884 1.7704801e-38
-0.019384714 -0.1020664 -0.055196621 1.8904426e-38
-0.017429681 -0.1020664 -0.055196621 1.9733468e-38
-0.01532183 -0.1005076 -0.048223712 1.9179931e-38
-0.013317915 -0.099830076 -0.045192935 1.8901546e-38
-0.011380425 -0.099830076 -0.045192935 1.9453641e-38
-0.009376714 -0.098941371 -0.041217543 2.0283039e-38
-0.0074461941 -0.098941371 -0.041217543 2.0559625e-38
-0.0054637734 -0.098059073 -0.037270762 2.1849645e-38
-0.0035049636 -0.097368345 -0.034180976 2.1942197e-38
-0.0015867781 -0.097368345 -0.034180976 2.2310624e-38
0.00033140369 -0.097368345 -0.034180976 2.3048545e-38
0.0022742227 -0.096470937 -0.030166604 2.3509883e-38
0.0041853674 -0.096470937 -0.030166604 2.3509883e-38
0.0060965121 -0.096470937 -0.030166604 2.341805e-38
0.0080041382 -0.097368345 -0.034180976 2.341805e-38
0.00992232 -0.097368345 -0.034180976 2.3417691e-38
0.011840504 -0.097368345 -0.034180976 2.3417691e-38
0.013758687 -0.097368345 -0.034180976 2.3417691e-38
0.015676871 -0.097368345 -0.034180976 2.3509168e-38
0.017619431 -0.098059073 -0.037270762 2.3508809e-38
0.019513236 -0.097368345 -0.034180976 2.3508092e-38
0.02143142 -0.097368345 -0.034180976 2.3508809e-38
0.023349602 -0.097368345 -0.034180976 2.3508809e-38
0.025207959 -0.096470937 -0.030166604 2.3508451e-38
0.027119104 -0.096470937 -0.030166604 2.3508809e-38
0.028976252 -0.095815286 -0.027233697 2.3508451e-38
0.030741611 -0.094255984 -0.020258524 2.3509168e-38
0.032635383 -0.094255984 -0.020258524 2.3509527e-38
0.034529157 -0.094255984 -0.020258524 2.3417691e-38
0.036422931 -0.094255984 -0.020258524 2.3417691e-38
0.038423821 -0.095137119 -0.024200059 2.3325138e-38
0.040123831 -0.093586475 -0.017263629 2.3509524e-38
0.041795276 -0.092004895 -0.010188796 2.3509521e-38
0.043671392 -0.092004895 -0.010188796 2.2955993e-38
0.045547508 -0.092004895 -0.010188796 2.3141106e-38
0.047172643 -0.090443924 -0.0032061115 2.341805e-38
0.048922956 -0.089770496 -0.00019369274 2.3234379e-38
0.050781548 -0.089770496 -0.00019369274 2.3234379e-38
0.052226938 -0.087528646 0.0098346695 2.268192e-38
0.054067954 -0.087528646 0.0098346695 2.3418043e-38
-0.11363085 -0.097037792 -0.024200059 1.189438e-38
-0.11173016 -0.097037792 -0.024200059 9.6852971e-39
-0.10939755 -0.096149758 -0.020258524 6.0921969e-39
-0.10750377 -0.096149758 -0.020258524 5.2638838e-39
-0.10529232 -0.095475003 -0.017263629 6.4631613e-39
-0.10340379 -0.095475003 -0.017263629 8.2166915e-39
-0.10151528 -0.095475003 -0.017263629 8.8631511e-39
-0.10063189 -0.097721294 -0.027233697 8.0351981e-39
-0.090761334 -0.11168094 -0.089193083 6.3799536e-39
-0.088746697 -0.11168094 -0.089193083 6.1044485e-39
-0.086406559 -0.1108004 -0.085284807 5.9207929e-39
-0.084398776 -0.1108004 -0.085284807 6.5672469e-39
-0.082702786 -0.11168094 -0.089193083 6.9353106e-39
-0.081314653 -0.11349006 -0.097222783 6.3821368e-39
-0.079285935 -0.11349006 -0.097222783 6.105187e-39
-0.077257216 -0.11349006 -0.097222783 7.2100926e-39
-0.075228497 -0.11349006 -0.097222783 8.8681734e-39
-0.073199779 -0.11349006 -0.097222783 1.0065272e-38
-0.071171075 -0.11349006 -0.097222783 1.1076896e-38
-0.068874836 -0.11259718 -0.093259789 1.3194503e-38
-0.066065013 -0.10989676 -0.081274129 1.4943684e-38
-0.064064264 -0.10989676 -0.081274129 1.4479808e-38
-0.061871439 -0.10920154 -0.078188278 1.7059105e-38
-0.059876084 -0.10920154 -0.078188278 2.2219884e-38
-0.057880744 -0.10920154 -0.078188278 2.3509527e-38
-0.055885404 -0.10920154 -0.078188278 2.3509883e-38
-0.053890064 -0.10920154 -0.078188278 2.3509886e-38
-0.05205974 -0.10989676 -0.081274129 2.341805e-38
-0.050058991 -0.10989676 -0.081274129 2.3326213e-38
-0.048058234 -0.10989676 -0.081274129 2.3418047e-38
-0.046057478 -0.10989676 -0.081274129 2.3418047e-38
-0.044056728 -0.10989676 -0.081274129 2.3418045e-38
-0.042055979 -0.10989676 -0.081274129 2.3509883e-38
-0.039922662 -0.10920154 -0.078188278 2.3509883e-38
-0.037764102 -0.10830905 -0.074227072 2.1850361e-38
-0.035775706 -0.10830905 -0.074227072 2.1297188e-38
-0.03378731 -0.10830905 -0.074227072 2.0375231e-38
-0.031798914 -0.10830905 -0.074227072 1.9545471e-38
-0.02981052 -0.10830905 -0.074227072 1.8623514e-38
-0.02769042 -0.10739426 -0.070166804 1.779411e-38
-0.025709143 -0.10739426 -0.070166804 1.7148021e-38
-0.02361487 -0.10651429 -0.06626115 1.6320422e-38
-0.021558771 -0.10583721 -0.063255884 1.4941453e-38
-0.019488366 -0.10494001 -0.059273697 1.549607e-38
-0.017526189 -0.10494001 -0.059273697 1.4849979e-38
-0.015410075 -0.10335754 -0.052250005 1.4757063e-38
-0.013317915 -0.10176755 -0.045192935 1.2726961e-38
-0.011380425 -0.10176755 -0.045192935 1.3740033e-38
-0.009376714 -0.10087189 -0.041217543 1.4845657e-38
-0.0073873755 -0.099982664 -0.037270762 1.6965435e-38
-0.0054637734 -0.099982664 -0.037270762 1.8163255e-38
-0.0035049636 -0.099286526 -0.034180976 1.8070697e-38
-0.0015867781 -0.099286526 -0.034180976 1.8439478e-38
0.00033140369 -0.099286526 -0.034180976 1.9545822e-38
0.0022742227 -0.098382086 -0.030166604 2.065217e-38
0.0041853674 -0.098382086 -0.030166604 2.1574126e-38
0.0060965121 -0.098382086 -0.030166604 2.2588634e-38
0.0080041382 -0.099286526 -0.034180976 2.3418039e-38
0.00992232 -0.099286526 -0.034180976 2.350988e-38
0.011840504 -0.099286526 -0.034180976 2.3417687e-38
0.013806956 -0.10176755 -0.045192935 2.31411e-38
0.015744448 -0.10176755 -0.045192935 2.3233296e-38
0.017595053 -0.099286526 -0.034180976 2.3509883e-38
0.019513236 -0.099286526 -0.034180976 2.3509886e-38
0.02138567 -0.098382086 -0.030166604 2.3509886e-38
0.023296814 -0.098382086 -0.030166604 2.304927e-38
0.025207959 -0.098382086 -0.030166604 2.3509886e-38
0.02707025 -0.097721294 -0.027233697 2.3509527e-38
0.02884784 -0.096149758 -0.020258524 2.3509527e-38
0.030681225 -0.095475003 -0.017263629 2.3417333e-38
0.032569747 -0.095475003 -0.017263629 2.3325138e-38
0.034458268 -0.095475003 -0.017263629 2.3416615e-38
0.036244959 -0.094572589 -0.013258316 2.3509168e-38
0.038126461 -0.094572589 -0.013258316 2.3509168e-38
0.039919157 -0.093881011 -0.010188796 2.3508444e-38
0.041705087 -0.093218774 -0.0072494522 2.3508441e-38
0.043576047 -0.093218774 -0.0072494522 2.3508449e-38
0.045447014 -0.093218774 -0.0072494522 2.3509168e-38
0.047172643 -0.092307791 -0.0032061115 2.3325497e-38
0.049036518 -0.092307791 -0.0032061115 2.3142185e-38
0.050900392 -0.092307791 -0.0032061115 2.341805e-38
-0.12003903 -0.10029322 -0.030166604 8.9455195e-39
-0.11812788 -0.10029322 -0.030166604 1.0881293e-38
-0.11621675 -0.10029322 -0.030166604 1.2816347e-38
-0.1143056 -0.10029322 -0.030166604 1.1988401e-38
-0.11173016 -0.09893848 -0.024200059 1.0148459e-38
-0.10939755 -0.098043531 -0.020258524 8.1226826e-39
-0.10750377 -0.098043531 -0.020258524 8.4925483e-39
-0.10529232 -0.097363517 -0.017263629 9.1400855e-39
-0.10340379 -0.097363517 -0.017263629 1.0156047e-38
-0.1025379 -0.099627286 -0.027233697 1.0526272e-38
-0.10063189 -0.099627286 -0.027233697 9.8827079e-39
-0.097738221 -0.097363517 -0.017263629 1.0805377e-38
-0.095849708 -0.097363517 -0.017263629 1.0990842e-38
-0.094247371 -0.098043531 -0.020258524 1.3664475e-38
-0.090822637 -0.09893848 -0.024200059 1.6429943e-38
-0.088921964 -0.09893848 -0.024200059 1.6706167e-38
-0.086672276 -0.098043531 -0.020258524 1.6982032e-38
-0.084518582 -0.097363517 -0.017263629 1.6335955e-38
-0.082630053 -0.097363517 -0.017263629 1.5783507e-38
-0.08673206 -0.11369558 -0.089193083 1.5047747e-38
-0.084717423 -0.11369558 -0.089193083 1.5416883e-38
-0.082702786 -0.11369558 -0.089193083 1.5416883e-38
-0.081314653 -0.11551876 -0.097222783 1.4771523e-38
-0.079285935 -0.11551876 -0.097222783 1.4402387e-38
-0.077257216 -0.11551876 -0.097222783 1.4954118e-38
-0.073843494 -0.11119686 -0.078188278 1.5506566e-38
-0.071566865 -0.11029746 -0.074227072 1.6241967e-38
-0.069578469 -0.11029746 -0.074227072 1.660895e-38
-0.068065763 -0.11189754 -0.081274129 1.8081906e-38
-0.066065013 -0.11189754 -0.081274129 2.020022e-38
-0.064064264 -0.11189754 -0.081274129 2.0566127e-38
-0.061871439 -0.11119686 -0.078188278 2.1855053e-38
-0.059876084 -0.11119686 -0.078188278 2.2958873e-38
-0.057880744 -0.11119686 -0.078188278 2.341805e-38
-0.055885404 -0.11119686 -0.078188278 2.2773034e-38
-0.053890064 -0.11119686 -0.078188278 2.3234376e-38
-0.05205974 -0.11189754 -0.081274129 2.3142544e-38
-0.050058991 -0.11189754 -0.081274129 2.3050707e-38
-0.047904029 -0.11119686 -0.078188278 2.3050707e-38
-0.045908689 -0.11119686 -0.078188278 2.3142539e-38
-0.043729298 -0.11029746 -0.074227072 2.3050703e-38
-0.041740902 -0.11029746 -0.074227072 2.3050703e-38
-0.040055223 -0.11189754 -0.081274129 2.2958507e-38
-0.037927322 -0.11119686 -0.078188278 2.2589724e-38
-0.035775706 -0.11029746 -0.074227072 2.2405333e-38
-0.03378731 -0.11029746 -0.074227072 2.2219863e-38
-0.031798914 -0.11029746 -0.074227072 2.1483374e-38
-0.02981052 -0.11029746 -0.074227072 2.1205711e-38
-0.02782212 -0.11029746 -0.074227072 2.09302e-38
-0.023868816 -0.095757127 -0.010188796 2.1390102e-38
-0.0219927 -0.095757127 -0.010188796 2.1208232e-38
-0.020116584 -0.095757127 -0.010188796 2.0197325e-38
-0.019589605 -0.10780637 -0.063255884 2.0751584e-38
-0.017620446 -0.10780637 -0.063255884 2.0751221e-38
-0.015474653 -0.10597645 -0.055196621 2.0105133e-38
-0.013317915 -0.10370506 -0.045192935 1.7983191e-38
-0.011380425 -0.10370506 -0.045192935 1.6598816e-38
-0.009376714 -0.10280241 -0.041217543 1.5491027e-38
-0.0073873755 -0.10190627 -0.037270762 1.5490661e-38
-0.0054637734 -0.10190627 -0.037270762 1.742569e-38
-0.0035049636 -0.10120471 -0.034180976 1.7148739e-38
-0.0015867781 -0.10120471 -0.034180976 1.6963985e-38
0.00036307797 -0.10029322 -0.030166604 1.7148373e-38
0.0022742227 -0.10029322 -0.030166604 1.714837e-38
0.0041853674 -0.10029322 -0.030166604 1.6963979e-38
0.0060965121 -0.10029322 -0.030166604 1.6964336e-38
0.0080041382 -0.10120471 -0.034180976 1.7240566e-38
0.00992232 -0.10120471 -0.034180976 1.8715702e-38
0.01184863 -0.10190627 -0.037270762 2.0374867e-38
0.013806956 -0.10370506 -0.045192935 2.175852e-38
0.015744448 -0.10370506 -0.045192935 2.1481933e-38
0.017595053 -0.10120471 -0.034180976 2.0007165e-38
0.019474525 -0.10029322 -0.030166604 1.9270679e-38
0.02138567 -0.10029322 -0.030166604 2.0377029e-38
0.023296814 -0.10029322 -0.030166604 2.1852159e-38
0.025207959 -0.10029322 -0.030166604 2.2404977e-38
0.027019721 -0.09893848 -0.024200059 2.2865955e-38
0.028718965 -0.096454084 -0.013258316 2.3234379e-38
0.030538574 -0.095757127 -0.010188796 2.341805e-38
0.03241469 -0.095757127 -0.010188796 2.3509886e-38
0.034290805 -0.095757127 -0.010188796 2.3509527e-38
0.036092196 -0.095089734 -0.0072494522 2.3509527e-38
0.037963159 -0.095089734 -0.0072494522 2.3508808e-38
0.039834119 -0.095089734 -0.0072494522 2.3508081e-38
0.041705087 -0.095089734 -0.0072494522 2.3508081e-38
0.043576047 -0.095089734 -0.0072494522 2.3508807e-38
0.045308769 -0.094171658 -0.0032061115 2.3509527e-38
0.047064364 -0.09348768 -0.00019369274 2.3234379e-38
0.048922956 -0.09348768 -0.00019369274 2.3142544e-38
0.050900392 -0.094171658 -0.0032061115 2.341805e-38
-0.12003903 -0.10220437 -0.030166604 5.2609495e-39
-0.11812788 -0.10220437 -0.030166604 5.4446499e-39
-0.11621675 -0.10220437 -0.030166604 6.7354139e-39
-0.1143056 -0.10220437 -0.030166604 7.0130994e-39
-0.11239445 -0.10220437 -0.030166604 7.2940107e-39
-0.11016192 -0.10153329 -0.027233697 7.2039815e-39
-0.10825591 -0.10153329 -0.027233697 8.8642287e-39
-0.10602811 -0.10083917 -0.024200059 9.0500661e-39
-0.10371622 -0.099937305 -0.020258524 8.8674783e-39
-0.10182245 -0.099937305 -0.020258524 8.9611159e-39
-0.09962675 -0.099252045 -0.017263629 8.5015797e-39
-0.097738221 -0.099252045 -0.017263629 9.148747e-39
-0.095849708 -0.099252045 -0.017263629 9.1487414e-39
-0.094247371 -0.099937305 -0.020258524 1.1546519e-38
-0.092723325 -0.10083917 -0.024200059 1.1822384e-38
-0.090822637 -0.10083917 -0.024200059 1.4219434e-38
-0.088921964 -0.10083917 -0.024200059 1.5324688e-38
-0.086672276 -0.099937305 -0.020258524 1.6891273e-38
-0.084518582 -0.099252045 -0.017263629 1.7536274e-38
-0.082630053 -0.099252045 -0.017263629 1.7997603e-38
-0.08074154 -0.099252045 -0.017263629 1.6707602e-38
-0.078853011 -0.099252045 -0.017263629 1.6800872e-38
-0.076964498 -0.099252045 -0.017263629 1.6893066e-38
-0.075075969 -0.099252045 -0.017263629 1.6708678e-38
-0.076924488 -0.11046316 -0.06626115 1.6616484e-38
-0.074950054 -0.11046316 -0.06626115 1.6892349e-38
-0.072975636 -0.11046316 -0.06626115 1.6984184e-38
-0.071001202 -0.11046316 -0.06626115 1.6799078e-38
-0.069026768 -0.11046316 -0.06626115 1.8456422e-38
-0.067315981 -0.11135681 -0.070166804 1.8363511e-38
-0.065334707 -0.11135681 -0.070166804 2.0203808e-38
-0.063353434 -0.11135681 -0.070166804 2.1030327e-38
-0.05701679 -0.095346272 -0.00019369274 2.1673176e-38
-0.055158198 -0.095346272 -0.00019369274 2.213235e-38
-0.053476542 -0.09603554 -0.0032061115 2.1856834e-38
-0.051612675 -0.09603554 -0.0032061115 2.2499688e-38
-0.054060489 -0.11389829 -0.081274129 2.2499691e-38
-0.05205974 -0.11389829 -0.081274129 2.2775202e-38
-0.050058991 -0.11389829 -0.081274129 2.2867037e-38
-0.047904029 -0.11319222 -0.078188278 2.2867037e-38
-0.045908689 -0.11319222 -0.078188278 2.2775202e-38
-0.043729298 -0.11228584 -0.074227072 2.2775202e-38
-0.041740902 -0.11228584 -0.074227072 2.2683366e-38
-0.039752498 -0.11228584 -0.074227072 2.2683366e-38
-0.034590259 -0.094660893 0.0028016791 2.2867037e-38
-0.032736927 -0.094660893 0.0028016791 2.2867037e-38
-0.0309965 -0.095346272 -0.00019369274 2.2867037e-38
-0.029137908 -0.095346272 -0.00019369274 2.1853964e-38
-0.027279316 -0.095346272 -0.00019369274 2.1023487e-38
-0.025420723 -0.095346272 -0.00019369274 2.0655421e-38
-0.023778627 -0.096960694 -0.0072494522 2.1115683e-38
-0.021907663 -0.096960694 -0.0072494522 2.1485903e-38
-0.020036699 -0.096960694 -0.0072494522 2.1948682e-38
-0.018165739 -0.096960694 -0.0072494522 2.1948682e-38
-0.017620446 -0.10977553 -0.063255884 2.2316024e-38
-0.015651288 -0.10977553 -0.063255884 2.1394432e-38
-0.013317915 -0.10564254 -0.045192935 2.0655425e-38
-0.011380425 -0.10564254 -0.045192935 1.8810792e-38
-0.0094429348 -0.10564254 -0.045192935 1.797959e-38
-0.0074461941 -0.10473295 -0.041217543 1.7332776e-38
-0.0054637734 -0.10382988 -0.037270762 1.8530959e-38
-0.0035049636 -0.1031229 -0.034180976 1.8346563e-38
-0.0015480649 -0.10220437 -0.030166604 1.834584e-38
0.00036307797 -0.10220437 -0.030166604 1.8438033e-38
0.0022742227 -0.10220437 -0.030166604 1.8161802e-38
0.0041853674 -0.10220437 -0.030166604 1.7608628e-38
0.0060965121 -0.10220437 -0.030166604 1.733204e-38
0.0080041382 -0.1031229 -0.034180976 1.714837e-38
0.00992232 -0.1031229 -0.034180976 1.8715347e-38
0.011859009 -0.10473295 -0.041217543 1.9729502e-38
0.01382024 -0.10633601 -0.048223712 2.0559623e-38
0.015763046 -0.10633601 -0.048223712 2.0467427e-38
0.017595053 -0.1031229 -0.034180976 1.954619e-38
0.019474525 -0.10220437 -0.030166604 1.8809704e-38
0.02138567 -0.10220437 -0.030166604 1.9085935e-38
0.023296814 -0.10220437 -0.030166604 1.9455436e-38
0.025207959 -0.10220437 -0.030166604 2.0561783e-38
0.026954068 -0.099937305 -0.020258524 2.1207153e-38
0.028718965 -0.098335579 -0.013258316 2.2036914e-38
0.030538574 -0.097633243 -0.010188796 2.2865955e-38
0.032350272 -0.096960694 -0.0072494522 2.3234379e-38
0.034125529 -0.09603554 -0.0032061115 2.341805e-38
0.0359894 -0.09603554 -0.0032061115 2.3509886e-38
0.037963159 -0.096960694 -0.0072494522 2.3509164e-38
0.039717149 -0.09603554 -0.0032061115 2.3509158e-38
0.04158102 -0.09603554 -0.0032061115 2.3509158e-38
0.043444894 -0.09603554 -0.0032061115 2.3509524e-38
0.045103364 -0.094660893 0.0028016791 2.341805e-38
0.046381041 -0.090996325 0.018817447 2.2590454e-38
0.0482063 -0.090996325 0.018817447 2.2129481e-38
0.049913384 -0.090310872 0.021813177 2.1944365e-38
0.051571369 -0.089411139 0.025745414 2.2035109e-38
0.053384475 -0.089411139 0.025745414 2.2494281e-38
0.083550625 -0.087345913 0.034771346 9.0547198e-39
0.085347913 -0.087345913 0.034771346 9.2387594e-39
0.098252177 -0.093051672 0.0098346695 9.601784e-39
0.10009319 -0.093051672 0.0098346695 1.0153514e-38
0.10229319 -0.093979403 0.0057801232 1.0337543e-38
-0.11812788 -0.1041155 -0.030166604 1.2072705e-39
-0.11621675 -0.1041155 -0.030166604 2.1288919e-39
-0.1143056 -0.1041155 -0.030166604 2.591326e-39
-0.11206791 -0.10343929 -0.027233697 2.6871257e-39
-0.11016192 -0.10343929 -0.027233697 3.7956397e-39
-0.1079288 -0.10273984 -0.024200059 6.1008934e-39
-0.10602811 -0.10273984 -0.024200059 5.64136e-39
-0.10371622 -0.10183108 -0.020258524 4.8130412e-39
-0.10182245 -0.10183108 -0.020258524 4.9063159e-39
-0.09962675 -0.10114056 -0.017263629 4.35494e-39
-0.097738221 -0.10114056 -0.017263629 4.8169943e-39
-0.095849708 -0.10114056 -0.017263629 6.2924775e-39
-0.094247371 -0.10183108 -0.020258524 9.2430866e-39
-0.092353597 -0.10183108 -0.020258524 1.0441254e-38
-0.090459824 -0.10183108 -0.020258524 1.357515e-38
-0.08856605 -0.10183108 -0.020258524 1.4588569e-38
-0.086672276 -0.10183108 -0.020258524 1.5417959e-38
-0.084518582 -0.10114056 -0.017263629 1.5324688e-38
-0.082630053 -0.10114056 -0.017263629 1.523213e-38
-0.080990955 -0.10183108 -0.020258524 1.6062242e-38
-0.078853011 -0.10114056 -0.017263629 1.6339182e-38
-0.076964498 -0.10114056 -0.017263629 1.6707602e-38
-0.075075969 -0.10114056 -0.017263629 1.6800513e-38
-0.072423667 -0.098831654 -0.0072494522 1.6984902e-38
-0.074950054 -0.11243759 -0.06626115 1.716929e-38
-0.072975636 -0.11243759 -0.06626115 1.7169649e-38
-0.071001202 -0.11243759 -0.06626115 1.7077455e-38
-0.064659789 -0.097899407 -0.0032061115 1.7906127e-38
-0.062592566 -0.097204864 -0.00019369274 1.716713e-38
-0.060733974 -0.097204864 -0.00019369274 1.8088e-38
-0.058875382 -0.097204864 -0.00019369274 1.8731926e-38
-0.05701679 -0.097204864 -0.00019369274 1.974427e-38
-0.055158198 -0.097204864 -0.00019369274 2.0387479e-38
-0.053476542 -0.097899407 -0.0032061115 2.0571148e-38
-0.051612675 -0.097899407 -0.0032061115 2.158134e-38
-0.049582422 -0.097204864 -0.00019369274 2.1213998e-38
-0.04772383 -0.097204864 -0.00019369274 2.1765011e-38
-0.045865238 -0.097204864 -0.00019369274 2.2132353e-38
-0.044006646 -0.097204864 -0.00019369274 2.1948682e-38
-0.042003624 -0.09651424 0.0028016791 2.1948682e-38
-0.040150285 -0.09651424 0.0028016791 2.1948682e-38
-0.038296945 -0.09651424 0.0028016791 2.1948682e-38
-0.036443606 -0.09651424 0.0028016791 2.1948682e-38
-0.034590259 -0.09651424 0.0028016791 2.1856847e-38
-0.032736927 -0.09651424 0.0028016791 2.1948682e-38
-0.030883586 -0.09651424 0.0028016791 2.1948682e-38
-0.029137908 -0.097204864 -0.00019369274 2.1765011e-38
-0.027176904 -0.09651424 0.0028016791 2.1489505e-38
-0.025323564 -0.09651424 0.0028016791 2.158134e-38
-0.023778627 -0.098831654 -0.0072494522 2.1948682e-38
-0.021790693 -0.097899407 -0.0032061115 2.1948682e-38
-0.019926818 -0.097899407 -0.0032061115 2.2132353e-38
-0.018165739 -0.098831654 -0.0072494522 2.2132353e-38
-0.016294772 -0.098831654 -0.0072494522 2.2224189e-38
-0.015255408 -0.10758002 -0.045192935 2.2040518e-38
-0.013317915 -0.10758002 -0.045192935 2.2591531e-38
-0.011380425 -0.10758002 -0.045192935 2.2591172e-38
-0.0094429348 -0.10758002 -0.045192935 2.2958873e-38
-0.0075054411 -0.10758002 -0.045192935 2.3050349e-38
-0.0055679511 -0.10758002 -0.045192935 2.3141467e-38
-0.0035049636 -0.10504107 -0.034180976 2.3234018e-38
-0.0015480649 -0.1041155 -0.030166604 2.3509886e-38
0.00036307797 -0.1041155 -0.030166604 2.3509883e-38
0.0022742227 -0.1041155 -0.030166604 2.350988e-38
0.0041853674 -0.1041155 -0.030166604 2.3509879e-38
0.0060674492 -0.10666345 -0.041217543 2.3509879e-38
0.0079979692 -0.10666345 -0.041217543 2.3509879e-38
0.0099284891 -0.10666345 -0.041217543 2.3509886e-38
0.011877436 -0.10827883 -0.048223712 2.3509886e-38
0.01382024 -0.10827883 -0.048223712 2.304927e-38
0.015763046 -0.10827883 -0.048223712 2.3142544e-38
0.017595053 -0.10504107 -0.034180976 2.3142544e-38
0.019474525 -0.1041155 -0.030166604 2.2958873e-38
0.02138567 -0.1041155 -0.030166604 2.2314582e-38
0.023296814 -0.1041155 -0.030166604 2.1208595e-38
0.025060294 -0.10183108 -0.020258524 2.0747617e-38
0.026954068 -0.10183108 -0.020258524 2.1024204e-38
0.028718965 -0.10021709 -0.013258316 2.1392986e-38
0.030479306 -0.098831654 -0.0072494522 2.1761769e-38
0.032261655 -0.097899407 -0.0032061115 2.2130191e-38
0.034054223 -0.097204864 -0.00019369274 2.2498973e-38
0.035912815 -0.097204864 -0.00019369274 2.3142544e-38
0.037853274 -0.097899407 -0.0032061115 2.3234379e-38
0.03963 -0.097204864 -0.00019369274 2.3232932e-38
0.041488588 -0.097204864 -0.00019369274 2.3417323e-38
0.043153413 -0.09582752 0.0057801232 2.3234379e-38
0.044862904 -0.094892681 0.0098346695 2.2867037e-38
0.046381041 -0.092821583 0.018817447 2.2591531e-38
0.048093371 -0.092130885 0.021813177 2.2499695e-38
0.049758255 -0.091224253 0.025745414 2.2775202e-38
0.051324144 -0.089840859 0.031745456 2.2958873e-38
0.053126737 -0.089840859 0.031745456 2.3049259e-38
0.083550625 -0.089143202 0.034771346 1.2650697e-38
0.085347913 -0.089143202 0.034771346 1.3110951e-38
0.087145202 -0.089143202 0.034771346 1.2372321e-38
0.096411154 -0.094892681 0.0098346695 1.4214053e-38
0.098252177 -0.094892681 0.0098346695 1.42119e-38
0.10009319 -0.094892681 0.0098346695 1.2734981e-38
0.10229319 -0.09582752 0.0057801232 1.1258769e-38
0.10414131 -0.09582752 0.0057801232 1.0060217e-38
0.10598943 -0.09582752 0.0057801232 8.5836397e-39
0.10783754 -0.09582752 0.0057801232 7.7527889e-39
-0.11969192 -0.10534529 -0.027233697 2.0398968e-39
-0.11812788 -0.10602666 -0.030166604 1.764061e-39
-0.11621675 -0.10602666 -0.030166604 2.5020128e-39
-0.11397392 -0.10534529 -0.027233697 2.68786e-39
-0.11206791 -0.10534529 -0.027233697 2.3212383e-39
-0.11016192 -0.10534529 -0.027233697 3.7978117e-39
-0.1079288 -0.10464053 -0.024200059 5.8268386e-39
-0.10602811 -0.10464053 -0.024200059 5.0907113e-39
-0.10412742 -0.10464053 -0.024200059 4.2623926e-39
-0.10182245 -0.10372485 -0.020258524 4.6322513e-39
-0.099928692 -0.10372485 -0.020258524 4.2641849e-39
-0.097738221 -0.10302909 -0.017263629 4.7258777e-39
-0.095849708 -0.10302909 -0.017263629 6.2935537e-39
-0.094247371 -0.10372485 -0.020258524 9.3359969e-39
-0.092353597 -0.10372485 -0.020258524 1.0533803e-38
-0.090459824 -0.10372485 -0.020258524 1.3391838e-38
-0.08856605 -0.10372485 -0.020258524 1.4405257e-38
-0.086407095 -0.10302909 -0.017263629 1.5141735e-38
-0.084518582 -0.10302909 -0.017263629 1.495626e-38
-0.082630053 -0.10302909 -0.017263629 1.4863702e-38
-0.08074154 -0.10302909 -0.017263629 1.5414723e-38
-0.078036562 -0.10070263 -0.0072494522 1.5783146e-38
-0.075843036 -0.099763289 -0.0032061115 1.5875701e-38
-0.073979154 -0.099763289 -0.0032061115 1.5876777e-38
-0.072423667 -0.10070263 -0.0072494522 1.5692748e-38
-0.070251405 -0.099763289 -0.0032061115 1.560163e-38
-0.068387538 -0.099763289 -0.0032061115 1.5786018e-38
-0.066523656 -0.099763289 -0.0032061115 1.587893e-38
-0.064659789 -0.099763289 -0.0032061115 1.560163e-38
-0.062592566 -0.099063456 -0.00019369274 1.5139933e-38
-0.060733974 -0.099063456 -0.00019369274 1.5784939e-38
-0.058875382 -0.099063456 -0.00019369274 1.5599469e-38
-0.05701679 -0.099063456 -0.00019369274 1.5966809e-38
-0.055158198 -0.099063456 -0.00019369274 1.6427069e-38
-0.053476542 -0.099763289 -0.0032061115 1.568986e-38
-0.051441014 -0.099063456 -0.00019369274 1.6150119e-38
-0.049582422 -0.099063456 -0.00019369274 1.5780613e-38
-0.04772383 -0.099063456 -0.00019369274 1.6241592e-38
-0.045865238 -0.099063456 -0.00019369274 1.6609655e-38
-0.044006646 -0.099063456 -0.00019369274 1.6241592e-38
-0.042003624 -0.098367572 0.0028016791 1.6241592e-38
-0.040150285 -0.098367572 0.0028016791 1.6333787e-38
-0.038296945 -0.098367572 0.0028016791 1.6150119e-38
-0.036443606 -0.098367572 0.0028016791 1.5781336e-38
-0.034590259 -0.098367572 0.0028016791 1.6795491e-38
-0.032736927 -0.098367572 0.0028016791 1.7072074e-38
-0.030883586 -0.098367572 0.0028016791 1.7441209e-38
-0.029030247 -0.098367572 0.0028016791 1.7994375e-38
-0.027176904 -0.098367572 0.0028016791 1.854754e-38
-0.025323564 -0.098367572 0.0028016791 1.8640452e-38
-0.023654563 -0.099763289 -0.0032061115 1.8731929e-38
-0.021703543 -0.099063456 -0.00019369274 1.8914882e-38
-0.019844951 -0.099063456 -0.00019369274 1.9557372e-38
-0.017986359 -0.099063456 -0.00019369274 2.0016549e-38
-0.016127767 -0.099063456 -0.00019369274 2.1397669e-38
-0.014269175 -0.099063456 -0.00019369274 2.1213281e-38
-0.012410579 -0.099063456 -0.00019369274 2.2132353e-38
-0.010496842 -0.098367572 0.0028016791 2.1856847e-38
-0.0085938927 -0.097675636 0.0057801232 2.2316024e-38
-0.0067457724 -0.097675636 0.0057801232 2.2499695e-38
-0.0048976559 -0.097675636 0.0057801232 2.240786e-38
-0.0030495394 -0.097675636 0.0057801232 2.2683366e-38
-0.0012014192 -0.097675636 0.0057801232 2.2775202e-38
0.00064669736 -0.097675636 0.0057801232 2.2591172e-38
0.0024948157 -0.097675636 0.0057801232 2.2406783e-38
0.0043429341 -0.097675636 0.0057801232 2.2499336e-38
0.0061910525 -0.097675636 0.0057801232 2.2683366e-38
0.0079918262 -0.11022164 -0.048223712 2.2775202e-38
0.0099346321 -0.11022164 -0.048223712 2.2958514e-38
0.011877436 -0.11022164 -0.048223712 2.3049991e-38
0.013526378 -0.094646841 0.018817447 2.3050708e-38
0.015351636 -0.094646841 0.018817447 2.2958873e-38
0.017619431 -0.10767709 -0.037270762 2.2867037e-38
0.019543033 -0.10767709 -0.037270762 2.2775202e-38
0.021466633 -0.10767709 -0.037270762 2.2591531e-38
0.02261328 -0.093950883 0.021813177 2.240786e-38
0.024374682 -0.093037367 0.025745414 2.2499695e-38
0.026136803 -0.092326149 0.028806828 2.2499695e-38
0.028608343 -0.10070263 -0.0072494522 2.2132353e-38
0.030479306 -0.10070263 -0.0072494522 2.1948682e-38
0.032261655 -0.099763289 -0.0032061115 2.2040518e-38
0.033912823 -0.097675636 0.0057801232 2.2224189e-38
0.035760939 -0.097675636 0.0057801232 2.2499695e-38
0.037771408 -0.099063456 -0.00019369274 2.2591531e-38
0.039543346 -0.098367572 0.0028016791 2.2958873e-38
0.041305296 -0.097675636 0.0057801232 2.2958873e-38
0.042828262 -0.095346853 0.015804313 2.2591531e-38
0.044658802 -0.095346853 0.015804313 2.2224189e-38
0.046273366 -0.093950883 0.021813177 2.1948682e-38
0.04782974 -0.092326149 0.028806828 2.1948682e-38
0.049521551 -0.091643453 0.031745456 2.2224189e-38
0.051324144 -0.091643453 0.031745456 2.2499695e-38
0.053126737 -0.091643453 0.031745456 2.2775202e-38
0.054929331 -0.091643453 0.031745456 2.2867037e-38
0.056731924 -0.091643453 0.031745456 2.2867037e-38
0.073990017 -0.088856161 0.043743275 1.3851e-38
0.075771578 -0.088856161 0.043743275 1.3666612e-38
0.077346742 -0.088145852 0.046800755 1.3481866e-38
0.079122938 -0.088145852 0.046800755 1.3389676e-38
0.080899134 -0.088145852 0.046800755 1.2651403e-38
0.083550625 -0.09094049 0.034771346 1.2374102e-38
0.085347913 -0.09094049 0.034771346 1.2464865e-38
0.087145202 -0.09094049 0.034771346 1.1726584e-38
0.090658814 -0.096050888 0.012773775 1.2740376e-38
0.092012525 -0.094646841 0.018817447 1.2371591e-38
0.093837783 -0.094646841 0.018817447 1.3753799e-38
0.095663041 -0.094646841 0.018817447 1.3568689e-38
0.097744524 -0.095346853 0.015804313 1.485726e-38
0.099575073 -0.095346853 0.015804313 1.3196305e-38
0.10229319 -0.097675636 0.0057801232 1.1536061e-38
0.10414131 -0.097675636 0.0057801232 1.0152042e-38
0.10598943 -0.097675636 0.0057801232 8.5836285e-39
0.11873169 -0.11022164 -0.048223712 7.4718467e-39
-0.11969192 -0.1072513 -0.027233697 2.7792709e-39
-0.11812788 -0.1079378 -0.030166604 2.3201229e-39
-0.11621675 -0.1079378 -0.030166604 2.5056183e-39
-0.11397392 -0.1072513 -0.027233697 2.598907e-39
-0.11206791 -0.1072513 -0.027233697 3.1524409e-39
-0.11016192 -0.1072513 -0.027233697 4.1683907e-39
-0.1079288 -0.1065412 -0.024200059 6.0126648e-39
-0.10561 -0.10561861 -0.020258524 5.2761788e-39
-0.10371622 -0.10561861 -0.020258524 4.999952e-39
-0.10182245 -0.10561861 -0.020258524 5.7389534e-39
-0.099928692 -0.10561861 -0.020258524 5.6474738e-39
-0.098034918 -0.10561861 -0.020258524 6.2009979e-39
-0.096141145 -0.10561861 -0.020258524 7.5835624e-39
-0.094247371 -0.10561861 -0.020258524 1.0164667e-38
-0.092353597 -0.10561861 -0.020258524 1.0532713e-38
-0.090184137 -0.1049176 -0.017263629 1.2929782e-38
-0.088295624 -0.1049176 -0.017263629 1.4219067e-38
-0.086407095 -0.1049176 -0.017263629 1.5693823e-38
-0.084518582 -0.1049176 -0.017263629 1.6430659e-38
-0.082630053 -0.1049176 -0.017263629 1.716642e-38
-0.08074154 -0.1049176 -0.017263629 1.624268e-38
-0.078036562 -0.10257359 -0.0072494522 1.6241966e-38
-0.075843036 -0.10162716 -0.0032061115 1.633452e-38
-0.073979154 -0.10162716 -0.0032061115 1.6427432e-38
-0.072423667 -0.10257359 -0.0072494522 1.6244119e-38
-0.070251405 -0.10162716 -0.0032061115 1.5968972e-38
-0.068387538 -0.10162716 -0.0032061115 1.6337749e-38
-0.066523656 -0.10162716 -0.0032061115 1.6707243e-38
-0.064659789 -0.10162716 -0.0032061115 1.6615049e-38
-0.062795907 -0.10162716 -0.0032061115 1.6338466e-38
-0.060733974 -0.10092205 -0.00019369274 1.661469e-38
-0.058875382 -0.10092205 -0.00019369274 1.5784225e-38
-0.05701679 -0.10092205 -0.00019369274 1.5875343e-38
-0.055158198 -0.10092205 -0.00019369274 1.6428508e-38
-0.053476542 -0.10162716 -0.0032061115 1.5690237e-38
-0.051441014 -0.10092205 -0.00019369274 1.5598401e-38
-0.049582422 -0.10092205 -0.00019369274 1.5138142e-38
-0.04772383 -0.10092205 -0.00019369274 1.5139218e-38
-0.045865238 -0.10092205 -0.00019369274 1.5046666e-38
-0.044006646 -0.10092205 -0.00019369274 1.4493493e-38
-0.042148054 -0.10092205 -0.00019369274 1.4217625e-38
-0.040289462 -0.10092205 -0.00019369274 1.4402016e-38
-0.038296945 -0.10022092 0.0028016791 1.3941759e-38
-0.036443606 -0.10022092 0.0028016791 1.329639e-38
-0.034590259 -0.10022092 0.0028016791 1.292725e-38
-0.032736927 -0.10022092 0.0028016791 1.2928332e-38
-0.030883586 -0.10022092 0.0028016791 1.3204919e-38
-0.029030247 -0.10022092 0.0028016791 1.3574064e-38
-0.027176904 -0.10022092 0.0028016791 1.3758456e-38
-0.025323564 -0.10022092 0.0028016791 1.3298556e-38
-0.023562131 -0.10092205 -0.00019369274 1.2836499e-38
-0.021616885 -0.10022092 0.0028016791 1.2742497e-38
-0.019763546 -0.10022092 0.0028016791 1.4306209e-38
-0.017986359 -0.10092205 -0.00019369274 1.5041605e-38
-0.016127767 -0.10092205 -0.00019369274 1.6055038e-38
-0.014269175 -0.10092205 -0.00019369274 1.6146515e-38
-0.012410579 -0.10092205 -0.00019369274 1.6791161e-38
-0.010496842 -0.10022092 0.0028016791 1.6790798e-38
-0.0085938927 -0.099523753 0.0057801232 1.7711676e-38
-0.0067457724 -0.099523753 0.0057801232 1.8080096e-38
-0.0048976559 -0.099523753 0.0057801232 1.9093527e-38
-0.0030495394 -0.099523753 0.0057801232 1.9645977e-38
-0.0012014192 -0.099523753 0.0057801232 1.973817e-38
0.00064669736 -0.099523753 0.0057801232 1.9461583e-38
0.0025377329 -0.097886756 0.012773775 1.9553416e-38
0.0043868739 -0.097177386 0.015804313 2.0014394e-38
0.0062174164 -0.097177386 0.015804313 2.0475368e-38
0.0080479588 -0.097177386 0.015804313 2.0935622e-38
0.0098784994 -0.097177386 0.015804313 2.2039441e-38
0.011709042 -0.097177386 0.015804313 2.2407142e-38
0.013526378 -0.096472099 0.018817447 2.2499336e-38
0.015351636 -0.096472099 0.018817447 2.2131994e-38
0.017153259 -0.095770895 0.021813177 2.1856488e-38
0.018973265 -0.095770895 0.021813177 2.1765011e-38
0.020793274 -0.095770895 0.021813177 2.1948682e-38
0.02261328 -0.095770895 0.021813177 2.1948682e-38
0.024374682 -0.094850481 0.025745414 2.1397669e-38
0.026136803 -0.094133899 0.028806828 2.1305834e-38
0.027944546 -0.094133899 0.028806828 2.1397669e-38
0.029893307 -0.095770895 0.021813177 2.1397669e-38
0.031713314 -0.095770895 0.021813177 2.1213998e-38
0.033604227 -0.096472099 0.018817447 2.1122163e-38
0.035506092 -0.097177386 0.015804313 2.1397669e-38
0.037336633 -0.097177386 0.015804313 2.1397669e-38
0.039254852 -0.097886756 0.012773775 2.2132353e-38
0.040997721 -0.097177386 0.015804313 2.2132353e-38
0.042730525 -0.096472099 0.018817447 2.1489505e-38
0.04445336 -0.095770895 0.021813177 2.1030327e-38
0.046273366 -0.095770895 0.021813177 2.057115e-38
0.04782974 -0.094133899 0.028806828 2.0479314e-38
0.049521551 -0.093446046 0.031745456 2.0662268e-38
0.051324144 -0.093446046 0.031745456 2.0754103e-38
0.053126737 -0.093446046 0.031745456 2.1856847e-38
0.054929331 -0.093446046 0.031745456 2.2132353e-38
0.056731924 -0.093446046 0.031745456 2.1948682e-38
0.05853451 -0.093446046 0.031745456 2.1305834e-38
0.073990017 -0.090637714 0.043743275 1.5235364e-38
0.075771578 -0.090637714 0.043743275 1.5511947e-38
0.077346742 -0.089922056 0.046800755 1.5419394e-38
0.079122938 -0.089922056 0.046800755 1.5326482e-38
0.081327364 -0.091333628 0.040770195 1.5787094e-38
0.083331734 -0.09203364 0.037779592 1.6154436e-38
0.085123748 -0.09203364 0.037779592 1.6521778e-38
0.086915761 -0.09203364 0.037779592 1.5967895e-38
0.089407861 -0.094133899 0.028806828 1.5783148e-38
0.091459833 -0.094850481 0.025745414 1.329282e-38
0.093593538 -0.095770895 0.021813177 1.3015867e-38
0.095663041 -0.096472099 0.018817447 1.1632209e-38
0.097488299 -0.096472099 0.018817447 1.0247837e-38
0.099313557 -0.096472099 0.018817447 1.0615178e-38
0.10193419 -0.098574698 0.0098346695 1.0429346e-38
0.10414131 -0.099523753 0.0057801232 9.967279e-39
0.10598943 -0.099523753 0.0057801232 9.3204663e-39
0.10783754 -0.099523753 0.0057801232 8.582174e-39
