# .PCD v0.7 - Point Cloud Data file format
VERSION 0.7
FIELDS x y z rgb
SIZE 4 4 4 4
TYPE F F F F
COUNT 1 1 1 1
WIDTH 913
HEIGHT 1
VIEWPOINT 0 0 0 1 0 0 0
POINTS 913
DATA ascii
-0.033568546 -0.092752427 -0.047742277 1.1626084e-38
-0.031672224 -0.092058569 -0.044821769 1.2638074e-38
-0.029906482 -0.092058569 -0.044821769 1.3557863e-38
-0.028140739 -0.092058569 -0.044821769 1.3741524e-38
-0.026374992 -0.092058569 -0.044821769 1.4846778e-38
-0.024393972 -0.090635687 -0.038832575 1.7242774e-38
-0.042585403 -0.095250636 -0.050781399 1.0535961e-38
-0.040809214 -0.095250636 -0.050781399 1.0166099e-38
-0.039033011 -0.095250636 -0.050781399 1.0532361e-38
-0.037110284 -0.094523281 -0.047742277 9.8848308e-39
-0.035339415 -0.094523281 -0.047742277 9.6060845e-39
-0.033568546 -0.094523281 -0.047742277 1.0525154e-38
-0.031672224 -0.093824327 -0.044821769 1.1168357e-38
-0.029782731 -0.093105495 -0.041818291 1.2088507e-38
-0.028022248 -0.093105495 -0.041818291 1.3008291e-38
-0.026261769 -0.093105495 -0.041818291 1.3744403e-38
-0.024393972 -0.092390925 -0.038832575 1.5034049e-38
-0.022638727 -0.092390925 -0.038832575 1.8075772e-38
0.043933898 -0.079217464 0.016210526 1.1643376e-38
0.045592636 -0.079217464 0.016210526 1.1919959e-38
-0.047212154 -0.094146177 -0.038832575 1.4762905e-38
-0.045456916 -0.094146177 -0.038832575 1.3569052e-38
-0.043866567 -0.094865978 -0.041818291 1.1088059e-38
-0.042266704 -0.09559007 -0.044821769 9.2477571e-39
-0.040500954 -0.09559007 -0.044821769 9.3385108e-39
-0.038735211 -0.09559007 -0.044821769 1.0350856e-38
-0.036680683 -0.094146177 -0.038832575 1.1638711e-38
-0.034925446 -0.094146177 -0.038832575 1.3941057e-38
-0.033170193 -0.094146177 -0.038832575 1.6704373e-38
-0.031414956 -0.094146177 -0.038832575 1.817697e-38
-0.029659707 -0.094146177 -0.038832575 1.9649566e-38
-0.027904462 -0.094146177 -0.038832575 2.0108744e-38
-0.026149217 -0.094146177 -0.038832575 2.0014756e-38
-0.024393972 -0.094146177 -0.038832575 1.9644903e-38
-0.022638727 -0.094146177 -0.038832575 1.9736012e-38
0.042338528 -0.081347167 0.014256984 1.0534529e-38
0.043933898 -0.080876201 0.016210526 1.1088417e-38
0.045592636 -0.080876201 0.016210526 1.1364641e-38
0.047325015 -0.081347167 0.014256984 1.1364283e-38
0.050896533 -0.082793534 0.0082575381 8.7777672e-39
0.052569214 -0.082793534 0.0082575381 7.9440339e-39
0.054241892 -0.082793534 0.0082575381 7.2950477e-39
-0.047212154 -0.095901415 -0.038832575 1.4396648e-38
-0.045456916 -0.095901415 -0.038832575 1.3293545e-38
-0.043866567 -0.096626461 -0.041818291 1.2008207e-38
-0.042106092 -0.096626461 -0.041818291 1.0627446e-38
-0.040345609 -0.096626461 -0.041818291 1.0441254e-38
-0.038585126 -0.096626461 -0.041818291 1.0992975e-38
-0.036244512 -0.093704656 -0.029786319 1.2742157e-38
-0.034505129 -0.093704656 -0.029786319 1.6059014e-38
-0.033033088 -0.095156729 -0.035765976 1.9099271e-38
-0.031283222 -0.095156729 -0.035765976 2.020309e-38
-0.029533353 -0.095156729 -0.035765976 2.0477162e-38
-0.027904462 -0.095901415 -0.038832575 2.130404e-38
-0.026149217 -0.095901415 -0.038832575 2.1579905e-38
-0.024393972 -0.095901415 -0.038832575 2.1670665e-38
-0.022638727 -0.095901415 -0.038832575 2.1207891e-38
0.042338528 -0.083009332 0.014256984 1.0899724e-38
0.044000693 -0.083009332 0.014256984 1.0163964e-38
0.045662854 -0.083009332 0.014256984 9.7955373e-39
0.047325015 -0.083009332 0.014256984 9.794817e-39
0.048987176 -0.083009332 0.014256984 9.0550912e-39
0.050896533 -0.084466219 0.0082575381 7.7614601e-39
0.052569214 -0.084466219 0.0082575381 6.0057648e-39
0.054241892 -0.084466219 0.0082575381 8.5839774e-39
-0.049506351 -0.099835888 -0.047742277 1.4399157e-38
-0.047387525 -0.098386943 -0.041818291 1.3016963e-38
-0.04562705 -0.098386943 -0.041818291 1.3755234e-38
-0.043866567 -0.098386943 -0.041818291 1.2836162e-38
-0.042106092 -0.098386943 -0.041818291 1.2559938e-38
-0.040345609 -0.098386943 -0.041818291 1.2835444e-38
-0.038585126 -0.098386943 -0.041818291 1.3479359e-38
-0.0360993 -0.094707444 -0.026774794 1.5413287e-38
-0.0343652 -0.094707444 -0.026774794 1.8822329e-38
-0.033033088 -0.096906602 -0.035765976 2.1213998e-38
-0.031283222 -0.096906602 -0.035765976 2.1397669e-38
-0.029533353 -0.096906602 -0.035765976 2.2132353e-38
-0.027783487 -0.096906602 -0.035765976 2.2499695e-38
-0.026033618 -0.096906602 -0.035765976 2.2775202e-38
-0.024068821 -0.095444039 -0.029786319 2.2958873e-38
-0.022329438 -0.095444039 -0.029786319 2.3142544e-38
0.042338528 -0.084671482 0.014256984 3.8914353e-39
0.044000693 -0.084671482 0.014256984 2.3248242e-39
0.045662854 -0.084671482 0.014256984 1.2188326e-39
0.047325015 -0.084671482 0.014256984 1.679445e-39
0.048987176 -0.084671482 0.014256984 2.4144905e-39
0.050982114 -0.086646914 0.006180495 2.1357288e-39
0.052658435 -0.086646914 0.006180495 4.3447988e-39
0.054468706 -0.087379694 0.0031845272 9.4126507e-39
0.056379963 -0.088588774 -0.0017587245 1.2544386e-38
-0.049506351 -0.10160676 -0.047742277 1.2557047e-38
-0.04756394 -0.1008873 -0.044821769 1.191277e-38
-0.045798197 -0.1008873 -0.044821769 1.3111309e-38
-0.044193752 -0.10160676 -0.047742277 1.2925478e-38
-0.042266704 -0.1008873 -0.044821769 1.3202056e-38
-0.040345609 -0.10014741 -0.041818291 1.4122919e-38
-0.037983894 -0.097183421 -0.029786319 1.5135617e-38
-0.0360993 -0.096441552 -0.026774794 1.7069909e-38
-0.0343652 -0.096441552 -0.026774794 2.0110896e-38
-0.032631099 -0.096441552 -0.026774794 2.1673176e-38
-0.030896991 -0.096441552 -0.026774794 2.1397664e-38
-0.029162887 -0.096441552 -0.026774794 2.2316021e-38
-0.027428783 -0.096441552 -0.026774794 2.2407851e-38
-0.025618169 -0.095941558 -0.024745136 2.2407851e-38
-0.024068821 -0.097183421 -0.029786319 2.2867037e-38
0.02078829 -0.087811574 0.0082575381 1.6508853e-38
0.022460969 -0.087811574 0.0082575381 1.6878717e-38
0.024133649 -0.087811574 0.0082575381 1.6879793e-38
0.02576215 -0.087081313 0.011221915 1.7065617e-38
0.027429633 -0.087081313 0.011221915 1.5223884e-38
0.041261245 -0.091029361 -0.0048047006 5.4544562e-39
0.042697683 -0.089061275 0.0031845272 5.3640472e-39
0.044000693 -0.086333647 0.014256984 4.351326e-39
0.045662854 -0.086333647 0.014256984 3.3371713e-39
0.047928754 -0.090279013 -0.0017587245 3.3364482e-39
0.049618993 -0.090279013 -0.0017587245 2.8743897e-39
0.051229779 -0.089803949 0.00016972423 1.9491795e-39
0.052916639 -0.089803949 0.00016972423 4.6192276e-39
0.054603498 -0.089803949 0.00016972423 1.1070727e-38
0.056379963 -0.090279013 -0.0017587245 1.3926233e-38
-0.049506351 -0.10337763 -0.047742277 1.2927627e-38
-0.047735482 -0.10337763 -0.047742277 1.3206015e-38
-0.045964614 -0.10337763 -0.047742277 1.3020909e-38
-0.044193752 -0.10337763 -0.047742277 1.421764e-38
-0.039963841 -0.091969252 -0.0017587245 1.4585693e-38
-0.038273595 -0.091969252 -0.0017587245 1.5506203e-38
-0.037731983 -0.097672105 -0.024745136 1.6334873e-38
-0.035857707 -0.09693253 -0.021764129 1.7532682e-38
-0.034132391 -0.09693253 -0.021764129 1.9927943e-38
-0.032274589 -0.096197397 -0.018801063 2.1305834e-38
-0.030554466 -0.096197397 -0.018801063 2.0846656e-38
-0.029079258 -0.097672105 -0.024745136 2.1030327e-38
-0.027348712 -0.097672105 -0.024745136 2.0753379e-38
-0.025618169 -0.097672105 -0.024745136 2.0937054e-38
-0.024068821 -0.098922804 -0.029786319 2.158134e-38
-0.022329438 -0.098922804 -0.029786319 2.1856847e-38
-0.020590052 -0.098922804 -0.029786319 2.158134e-38
-0.018175349 -0.093462333 -0.0077768862 2.1305834e-38
-0.016474552 -0.093462333 -0.0077768862 2.1397669e-38
-0.014773756 -0.093462333 -0.0077768862 2.1305834e-38
-0.013072968 -0.093462333 -0.0077768862 2.1122163e-38
-0.0026601888 -0.089999557 0.006180495 1.6697557e-38
-0.00098386779 -0.089999557 0.006180495 1.7341841e-38
0.00069245324 -0.089999557 0.006180495 1.6511375e-38
0.019155635 -0.090742856 0.0031845272 1.0978931e-38
0.02078829 -0.089484259 0.0082575381 1.0795266e-38
0.022460969 -0.089484259 0.0082575381 1.0611595e-38
0.024133649 -0.089484259 0.0082575381 1.0059863e-38
0.02576215 -0.088748798 0.011221915 7.9397263e-39
0.027429633 -0.088748798 0.011221915 7.3879944e-39
0.039651647 -0.093462333 -0.0077768862 7.2036536e-39
0.041261245 -0.092724949 -0.0048047006 7.0196155e-39
0.042795472 -0.091490805 0.00016972423 6.837371e-39
0.044482335 -0.091490805 0.00016972423 6.6544105e-39
0.046238512 -0.091969252 -0.0017587245 6.286344e-39
0.047928754 -0.091969252 -0.0017587245 6.1934267e-39
0.049618993 -0.091969252 -0.0017587245 4.7157785e-39
0.051229779 -0.091490805 0.00016972423 2.3165201e-39
0.052916639 -0.091490805 0.00016972423 5.9085245e-39
0.054603498 -0.091490805 0.00016972423 1.2267831e-38
0.056379963 -0.091969252 -0.0017587245 1.254222e-38
0.058070205 -0.091969252 -0.0017587245 5.9026671e-39
-0.053691387 -0.094420537 -0.0048047006 1.7065928e-38
-0.051995799 -0.094420537 -0.0048047006 1.8175535e-38
-0.050300226 -0.094420537 -0.0048047006 1.6427073e-38
-0.048604637 -0.094420537 -0.0048047006 1.5231418e-38
-0.046724804 -0.09365949 -0.0017587245 1.440454e-38
-0.045034558 -0.09365949 -0.0017587245 1.5236081e-38
-0.043344319 -0.09365949 -0.0017587245 1.3853885e-38
-0.04165408 -0.09365949 -0.0017587245 1.4591439e-38
-0.039963841 -0.09365949 -0.0017587245 1.4867304e-38
-0.038273595 -0.09365949 -0.0017587245 1.5788171e-38
-0.036735564 -0.094420537 -0.0048047006 1.6525007e-38
-0.035039976 -0.094420537 -0.0048047006 1.7261126e-38
-0.033482492 -0.095163137 -0.0077768862 1.8642604e-38
-0.032007799 -0.096426651 -0.012833983 1.9652795e-38
-0.03029814 -0.096426651 -0.012833983 1.9377288e-38
-0.028956432 -0.098657846 -0.021764129 1.9560959e-38
-0.026562065 -0.094420537 -0.0048047006 1.9377288e-38
-0.024751659 -0.09365949 -0.0017587245 1.9285453e-38
-0.023061417 -0.09365949 -0.0017587245 1.9101782e-38
-0.021371175 -0.09365949 -0.0017587245 1.9009946e-38
-0.019680932 -0.09365949 -0.0017587245 1.873444e-38
-0.01808415 -0.094420537 -0.0048047006 1.8367098e-38
-0.016388565 -0.094420537 -0.0048047006 1.8366022e-38
-0.014773756 -0.095163137 -0.0077768862 1.8454987e-38
-0.012919962 -0.09365949 -0.0017587245 1.8453194e-38
-0.011229724 -0.09365949 -0.0017587245 1.789967e-38
-0.0095394775 -0.09365949 -0.0017587245 1.7253951e-38
-0.0078492388 -0.09365949 -0.0017587245 1.6884816e-38
-0.0061589926 -0.09365949 -0.0017587245 1.6608233e-38
-0.0043864138 -0.092424423 0.0031845272 1.5961797e-38
-0.0026601888 -0.091675878 0.006180495 1.5039855e-38
-0.00098386779 -0.091675878 0.006180495 1.4946226e-38
0.00069245324 -0.091675878 0.006180495 1.4207954e-38
0.0023108125 -0.093177676 0.00016972423 1.3468957e-38
0.0039976723 -0.093177676 0.00016972423 1.2915064e-38
0.017492561 -0.093177676 0.00016972423 8.4003415e-39
0.019155635 -0.092424423 0.0031845272 7.7553378e-39
0.02083721 -0.092424423 0.0031845272 7.2028885e-39
0.022484642 -0.091675878 0.006180495 6.6500777e-39
0.024160963 -0.091675878 0.006180495 6.1891023e-39
0.02580633 -0.09115693 0.0082575381 5.8213988e-39
0.02747901 -0.09115693 0.0082575381 6.0057901e-39
0.029189928 -0.091675878 0.006180495 6.1905443e-39
0.03092666 -0.092424423 0.0031845272 6.2827413e-39
0.032608233 -0.092424423 0.0031845272 6.4667794e-39
0.034361169 -0.093177676 0.00016972423 6.4664249e-39
0.036048032 -0.093177676 0.00016972423 6.4664305e-39
0.03956566 -0.094420537 -0.0048047006 6.1891247e-39
0.041261245 -0.094420537 -0.0048047006 5.7284983e-39
0.042858027 -0.09365949 -0.0017587245 5.3607836e-39
0.044482335 -0.093177676 0.00016972423 4.8093993e-39
0.046169195 -0.093177676 0.00016972423 4.9023166e-39
0.047928754 -0.09365949 -0.0017587245 5.6391627e-39
0.049618993 -0.09365949 -0.0017587245 5.0834778e-39
0.051309235 -0.09365949 -0.0017587245 3.2370345e-39
0.052999478 -0.09365949 -0.0017587245 5.2624363e-39
0.05468972 -0.09365949 -0.0017587245 1.1437355e-38
0.056379963 -0.09365949 -0.0017587245 1.1619546e-38
0.058070205 -0.09365949 -0.0017587245 1.6602346e-39
-0.053691387 -0.096116111 -0.0048047006 1.5592601e-38
-0.051795527 -0.095349744 -0.0017587245 1.6885886e-38
-0.050105289 -0.095349744 -0.0017587245 1.532146e-38
-0.048604637 -0.096116111 -0.0048047006 1.449494e-38
-0.046724804 -0.095349744 -0.0017587245 1.3206015e-38
-0.045034558 -0.095349744 -0.0017587245 1.4129751e-38
-0.043344319 -0.095349744 -0.0017587245 1.2748272e-38
-0.04165408 -0.095349744 -0.0017587245 1.2472396e-38
-0.039963841 -0.095349744 -0.0017587245 1.247167e-38
-0.038431138 -0.096116111 -0.0048047006 1.2931929e-38
-0.036735564 -0.096116111 -0.0048047006 1.2931932e-38
-0.035039976 -0.096116111 -0.0048047006 1.2377682e-38
-0.033482492 -0.096863925 -0.0077768862 1.2192572e-38
-0.031648815 -0.096116111 -0.0048047006 1.2008182e-38
-0.02995323 -0.096116111 -0.0048047006 1.1269898e-38
-0.028257646 -0.096116111 -0.0048047006 1.1454292e-38
-0.026441898 -0.095349744 -0.0017587245 1.1454652e-38
-0.024751659 -0.095349744 -0.0017587245 1.1086589e-38
-0.023061417 -0.095349744 -0.0017587245 1.0350103e-38
-0.021371175 -0.095349744 -0.0017587245 1.0073876e-38
-0.019680932 -0.095349744 -0.0017587245 9.9827592e-39
-0.01808415 -0.096116111 -0.0048047006 1.0259343e-38
-0.016300447 -0.095349744 -0.0017587245 1.0626689e-38
-0.014610205 -0.095349744 -0.0017587245 1.0898972e-38
-0.012870938 -0.094864532 0.00016972423 1.0988656e-38
-0.011184074 -0.094864532 0.00016972423 1.0158898e-38
-0.0095394775 -0.095349744 -0.0017587245 9.2365874e-39
-0.0078492388 -0.095349744 -0.0017587245 8.4064736e-39
-0.0061234906 -0.094864532 0.00016972423 7.2079346e-39
-0.0043864138 -0.094106004 0.0031845272 5.7313724e-39
-0.0026601888 -0.093352199 0.006180495 4.4399175e-39
-0.00098386779 -0.093352199 0.006180495 5.3600801e-39
0.00065831095 -0.094106004 0.0031845272 4.9905787e-39
0.0023108125 -0.094864532 0.00016972423 4.6200012e-39
0.0039976723 -0.094864532 0.00016972423 4.2497795e-39
0.0056845341 -0.094864532 0.00016972423 3.602971e-39
0.0073629431 -0.095349744 -0.0017587245 2.7724886e-39
0.0090531837 -0.095349744 -0.0017587245 2.2185946e-39
0.010743426 -0.095349744 -0.0017587245 1.7586884e-39
0.01243634 -0.096116111 -0.0048047006 1.9470145e-39
0.017492561 -0.094864532 0.00016972423 1.3038129e-39
0.019179422 -0.094864532 0.00016972423 1.1190671e-39
0.02083721 -0.094106004 0.0031845272 1.1194301e-39
0.022518784 -0.094106004 0.0031845272 1.2116285e-39
0.024200359 -0.094106004 0.0031845272 1.1194329e-39
0.025837284 -0.093352199 0.006180495 1.1194301e-39
0.027513606 -0.093352199 0.006180495 8.4284319e-40
0.029189928 -0.093352199 0.006180495 6.5845193e-40
0.03092666 -0.094106004 0.0031845272 1.0265184e-39
0.032608233 -0.094106004 0.0031845272 1.6718906e-39
0.034289807 -0.094106004 0.0031845272 2.0395955e-39
0.035971384 -0.094106004 0.0031845272 1.393873e-39
0.037734888 -0.094864532 0.00016972423 6.5594501e-40
0.039421752 -0.094864532 0.00016972423 3.7971265e-40
0.041108612 -0.094864532 0.00016972423 6.5629393e-40
0.042795472 -0.094864532 0.00016972423 5.6624789e-40
0.044482335 -0.094864532 0.00016972423 1.3790178e-41
0.046169195 -0.094864532 0.00016972423 1.3432847e-41
0.047928754 -0.095349744 -0.0017587245 1.028305e-39
0.049618993 -0.095349744 -0.0017587245 1.8559077e-39
0.051229779 -0.094864532 0.00016972423 1.1161707e-39
0.052916639 -0.094864532 0.00016972423 6.7364817e-39
0.05468972 -0.095349744 -0.0017587245 1.1528106e-38
0.056379963 -0.095349744 -0.0017587245 1.1894694e-38
0.058217071 -0.096116111 -0.0048047006 1.1985432e-39
-0.051795527 -0.097039983 -0.0017587245 1.3292434e-38
-0.050105289 -0.097039983 -0.0017587245 1.2465221e-38
-0.048604637 -0.097811699 -0.0048047006 1.209789e-38
-0.046724804 -0.097039983 -0.0017587245 1.2099684e-38
-0.045034558 -0.097039983 -0.0017587245 1.1086265e-38
-0.043344319 -0.097039983 -0.0017587245 1.1639789e-38
-0.04165408 -0.097039983 -0.0017587245 1.1455745e-38
-0.040126726 -0.097811699 -0.0048047006 1.1915996e-38
-0.038431138 -0.097811699 -0.0048047006 1.1824882e-38
-0.036735564 -0.097811699 -0.0048047006 1.1732329e-38
-0.035039976 -0.097811699 -0.0048047006 1.1179877e-38
-0.033344395 -0.097811699 -0.0048047006 1.0535234e-38
-0.031648815 -0.097811699 -0.0048047006 1.0350485e-38
-0.029822383 -0.097039983 -0.0017587245 1.016646e-38
-0.028132141 -0.097039983 -0.0017587245 9.4288974e-39
-0.026441898 -0.097039983 -0.0017587245 9.6132886e-39
-0.02467896 -0.096551389 0.00016972423 9.7058472e-39
-0.022992101 -0.096551389 0.00016972423 9.7058472e-39
-0.021305241 -0.096551389 0.00016972423 9.5214559e-39
-0.019618377 -0.096551389 0.00016972423 9.3370647e-39
-0.01799069 -0.097039983 -0.0017587245 9.245225e-39
-0.016300447 -0.097039983 -0.0017587245 9.2441516e-39
-0.014557794 -0.096551389 0.00016972423 9.5196707e-39
-0.012870938 -0.096551389 0.00016972423 8.5044453e-39
-0.011184074 -0.096551389 0.00016972423 8.04347e-39
-0.0094972141 -0.096551389 0.00016972423 8.3200569e-39
-0.0078492388 -0.097039983 -0.0017587245 7.7658069e-39
-0.0061234906 -0.096551389 0.00016972423 6.0130137e-39
-0.0044366308 -0.096551389 0.00016972423 4.6297192e-39
-0.0027497709 -0.096551389 0.00016972423 4.6279213e-39
-0.0010629073 -0.096551389 0.00016972423 4.5342865e-39
0.00060197338 -0.097039983 -0.0017587245 3.7952838e-39
0.0022922158 -0.097039983 -0.0017587245 3.70057e-39
0.0039976723 -0.096551389 0.00016972423 3.7916866e-39
0.0056845341 -0.096551389 0.00016972423 3.5125816e-39
0.0073713958 -0.096551389 0.00016972423 2.4973479e-39
0.0090531837 -0.097039983 -0.0017587245 2.1274864e-39
0.010743426 -0.097039983 -0.0017587245 2.12928e-39
0.012431977 -0.096551389 0.00016972423 1.7640862e-39
0.014118839 -0.096551389 0.00016972423 1.1212279e-39
0.015805699 -0.096551389 0.00016972423 1.2130676e-39
0.017492561 -0.096551389 0.00016972423 1.8573609e-39
0.019179422 -0.096551389 0.00016972423 1.8573609e-39
0.020866282 -0.096551389 0.00016972423 1.3963841e-39
0.022518784 -0.09578757 0.0031845272 1.1197972e-39
0.024200359 -0.09578757 0.0031845272 1.3034696e-39
0.025881935 -0.09578757 0.0031845272 1.0268827e-39
0.027563509 -0.09578757 0.0031845272 1.3953051e-39
0.029245084 -0.09578757 0.0031845272 1.671892e-39
0.03092666 -0.09578757 0.0031845272 2.0395955e-39
0.032608233 -0.09578757 0.0031845272 2.1317911e-39
0.034289807 -0.09578757 0.0031845272 2.1310751e-39
0.035971384 -0.09578757 0.0031845272 1.7622926e-39
0.037734888 -0.096551389 0.00016972423 1.5768223e-39
0.039421752 -0.096551389 0.00016972423 1.3005899e-39
0.041108612 -0.096551389 0.00016972423 7.4849517e-40
0.042795472 -0.096551389 0.00016972423 1.3031095e-39
0.044482335 -0.096551389 0.00016972423 3.8223498e-40
0.046169195 -0.096551389 0.00016972423 2.9003935e-40
0.047856055 -0.096551389 0.00016972423 1.7648051e-39
0.049542919 -0.096551389 0.00016972423 2.1317757e-39
0.051229779 -0.096551389 0.00016972423 2.497659e-39
0.052916639 -0.096551389 0.00016972423 7.657345e-39
0.05468972 -0.097039983 -0.0017587245 1.1526296e-38
-0.051795527 -0.098730221 -0.0017587245 1.2463398e-38
-0.050105289 -0.098730221 -0.0017587245 1.1635109e-38
-0.048604637 -0.099507287 -0.0048047006 1.0899007e-38
-0.046724804 -0.098730221 -0.0017587245 1.0899724e-38
-0.045034558 -0.098730221 -0.0017587245 1.0162525e-38
-0.043344319 -0.098730221 -0.0017587245 1.0900439e-38
-0.04165408 -0.098730221 -0.0017587245 1.1453954e-38
-0.040126726 -0.099507287 -0.0048047006 1.1269559e-38
-0.038273595 -0.098730221 -0.0017587245 1.1085532e-38
-0.036583349 -0.098730221 -0.0017587245 1.0994418e-38
-0.03489311 -0.098730221 -0.0017587245 1.0994784e-38
-0.033202872 -0.098730221 -0.0017587245 1.0443052e-38
-0.031512626 -0.098730221 -0.0017587245 9.9817194e-39
-0.029822383 -0.098730221 -0.0017587245 9.521107e-39
-0.028052684 -0.09823826 0.00016972423 9.2452418e-39
-0.026365824 -0.09823826 0.00016972423 9.3374402e-39
-0.02467896 -0.09823826 0.00016972423 9.5218315e-39
-0.022992101 -0.09823826 0.00016972423 9.4296358e-39
-0.021305241 -0.09823826 0.00016972423 9.4285596e-39
-0.019618377 -0.09823826 0.00016972423 9.3363612e-39
-0.01799069 -0.098730221 -0.0017587245 9.3360011e-39
-0.016300447 -0.098730221 -0.0017587245 9.3363668e-39
-0.014557794 -0.09823826 0.00016972423 9.2452502e-39
-0.012870938 -0.09823826 0.00016972423 8.4151434e-39
-0.011184074 -0.09823826 0.00016972423 7.9541681e-39
-0.0094972141 -0.09823826 0.00016972423 7.8619724e-39
-0.0078492388 -0.098730221 -0.0017587245 7.0322118e-39
-0.0061234906 -0.09823826 0.00016972423 5.5563628e-39
-0.0044366308 -0.09823826 0.00016972423 4.725163e-39
-0.0027497709 -0.09823826 0.00016972423 4.8155608e-39
-0.0010629073 -0.09823826 0.00016972423 4.1698312e-39
0.00060197338 -0.098730221 -0.0017587245 3.522664e-39
0.0022922158 -0.098730221 -0.0017587245 3.1517234e-39
0.0039976723 -0.09823826 0.00016972423 3.2424799e-39
0.0056845341 -0.09823826 0.00016972423 2.963735e-39
0.0073713958 -0.09823826 0.00016972423 2.3165678e-39
0.0090531837 -0.098730221 -0.0017587245 2.1314576e-39
0.010743426 -0.098730221 -0.0017587245 2.4091179e-39
0.012431977 -0.09823826 0.00016972423 1.1208874e-39
0.014118839 -0.09823826 0.00016972423 5.6951012e-40
0.015805699 -0.09823826 0.00016972423 7.5318251e-40
0.017492561 -0.09823826 0.00016972423 1.121965e-39
0.019179422 -0.09823826 0.00016972423 1.3974729e-39
0.020866282 -0.09823826 0.00016972423 1.120886e-39
0.022518784 -0.097469151 0.0031845272 1.2127215e-39
0.024200359 -0.097469151 0.0031845272 1.3971128e-39
0.025881935 -0.097469151 0.0031845272 8.4286001e-40
0.027563509 -0.097469151 0.0031845272 1.2109237e-39
0.029245084 -0.097469151 0.0031845272 1.4871504e-39
0.03092666 -0.097469151 0.0031845272 1.579346e-39
0.032608233 -0.097469151 0.0031845272 1.7626583e-39
0.034289807 -0.097469151 0.0031845272 1.6704627e-39
0.035971384 -0.097469151 0.0031845272 1.7619394e-39
0.037652958 -0.097469151 0.0031845272 1.669741e-39
0.039334536 -0.097469151 0.0031845272 2.0377977e-39
0.041016109 -0.097469151 0.0031845272 1.3013144e-39
0.042697683 -0.097469151 0.0031845272 1.2102062e-39
0.044379257 -0.097469151 0.0031845272 2.893317e-40
0.046169195 -0.09823826 0.00016972423 1.9821507e-40
0.047856055 -0.09823826 0.00016972423 1.2119957e-39
0.049542919 -0.09823826 0.00016972423 1.9473845e-39
0.051229779 -0.09823826 0.00016972423 3.7887509e-39
0.052787133 -0.097469151 0.0031845272 7.7491763e-39
0.054468706 -0.097469151 0.0031845272 1.1987626e-38
-0.051795527 -0.10042046 -0.0017587245 1.2554869e-38
-0.050105289 -0.10042046 -0.0017587245 1.1634023e-38
-0.048604637 -0.10120286 -0.0048047006 1.0989389e-38
-0.046724804 -0.10042046 -0.0017587245 1.1082672e-38
-0.045034558 -0.10042046 -0.0017587245 1.0437657e-38
-0.043344319 -0.10042046 -0.0017587245 1.1175217e-38
-0.04165408 -0.10042046 -0.0017587245 1.2558503e-38
-0.039963841 -0.10042046 -0.0017587245 1.2005333e-38
-0.038273595 -0.10042046 -0.0017587245 1.1452882e-38
-0.036583349 -0.10042046 -0.0017587245 1.1637995e-38
-0.03489311 -0.10042046 -0.0017587245 1.2099325e-38
-0.033202872 -0.10042046 -0.0017587245 1.1823819e-38
-0.031512626 -0.10042046 -0.0017587245 1.1086265e-38
-0.029822383 -0.10042046 -0.0017587245 1.0257234e-38
-0.028052684 -0.099925116 0.00016972423 1.0073205e-38
-0.026365824 -0.099925116 0.00016972423 1.0165399e-38
-0.02467896 -0.099925116 0.00016972423 1.0165399e-38
-0.022992101 -0.099925116 0.00016972423 9.9810104e-39
-0.021202162 -0.099150717 0.0031845272 9.8880987e-39
-0.019520588 -0.099150717 0.0031845272 9.7962632e-39
-0.01799069 -0.10042046 -0.0017587245 9.8884574e-39
-0.016300447 -0.10042046 -0.0017587245 9.8888161e-39
-0.014557794 -0.099925116 0.00016972423 9.0608617e-39
-0.012870938 -0.099925116 0.00016972423 8.6935197e-39
-0.011184074 -0.099925116 0.00016972423 8.2325486e-39
-0.0095394775 -0.10042046 -0.0017587245 7.494629e-39
-0.0078103542 -0.099925116 0.00016972423 6.5726727e-39
-0.0061234906 -0.099925116 0.00016972423 5.6507192e-39
-0.0044366308 -0.099925116 0.00016972423 5.0968266e-39
-0.0027497709 -0.099925116 0.00016972423 4.9113591e-39
-0.0010882691 -0.10042046 -0.0017587245 4.7262518e-39
0.00060197338 -0.10042046 -0.0017587245 3.8035753e-39
0.0022922158 -0.10042046 -0.0017587245 2.7887059e-39
0.0039976723 -0.099925116 0.00016972423 2.5103211e-39
0.0056845341 -0.099925116 0.00016972423 1.77204e-39
0.0073629431 -0.10042046 -0.0017587245 1.1252315e-39
0.0090531837 -0.10042046 -0.0017587245 9.4012413e-40
0.010743426 -0.10042046 -0.0017587245 1.3081808e-39
0.012431977 -0.099925116 0.00016972423 1.1237769e-39
0.014118839 -0.099925116 0.00016972423 1.123051e-39
0.015805699 -0.099925116 0.00016972423 1.0308554e-39
0.017492561 -0.099925116 0.00016972423 1.123051e-39
0.019179422 -0.099925116 0.00016972423 1.2145278e-39
0.02083721 -0.099150717 0.0031845272 1.0301365e-39
0.022518784 -0.099150717 0.0031845272 1.1216133e-39
0.024200359 -0.099150717 0.0031845272 1.3060046e-39
0.025881935 -0.099150717 0.0031845272 1.7659037e-39
0.027563509 -0.099150717 0.0031845272 2.0421305e-39
0.029245084 -0.099150717 0.0031845272 2.409834e-39
0.03092666 -0.099150717 0.0031845272 2.409834e-39
0.032608233 -0.099150717 0.0031845272 2.3169195e-39
0.034289807 -0.099150717 0.0031845272 2.3169195e-39
0.035971384 -0.099150717 0.0031845272 2.5013108e-39
0.037652958 -0.099150717 0.0031845272 2.961926e-39
0.039334536 -0.099150717 0.0031845272 1.9466838e-39
0.041016109 -0.099150717 0.0031845272 1.3942289e-39
0.042697683 -0.099150717 0.0031845272 9.3433817e-40
0.044379257 -0.099150717 0.0031845272 4.7372296e-40
0.046169195 -0.099925116 0.00016972423 6.5919042e-40
0.047742408 -0.099150717 0.0031845272 5.6662344e-40
0.049423981 -0.099150717 0.0031845272 1.0257841e-39
0.051229779 -0.099925116 0.00016972423 4.6192276e-39
0.052787133 -0.099150717 0.0031845272 8.4885364e-39
0.054468706 -0.099150717 0.0031845272 1.208162e-38
-0.051795527 -0.1021107 -0.0017587245 1.4028192e-38
-0.050105289 -0.1021107 -0.0017587245 1.3383926e-38
-0.048604637 -0.10289843 -0.0048047006 1.3015881e-38
-0.046724804 -0.1021107 -0.0017587245 1.3477934e-38
-0.045034558 -0.1021107 -0.0017587245 1.274037e-38
-0.043344319 -0.1021107 -0.0017587245 1.32939e-38
-0.04165408 -0.1021107 -0.0017587245 1.320171e-38
-0.039963841 -0.1021107 -0.0017587245 1.2740737e-38
-0.038273595 -0.1021107 -0.0017587245 1.2280122e-38
-0.036583349 -0.1021107 -0.0017587245 1.2281203e-38
-0.03489311 -0.1021107 -0.0017587245 1.2650338e-38
-0.033202872 -0.1021107 -0.0017587245 1.2466667e-38
-0.031512626 -0.1021107 -0.0017587245 1.1729472e-38
-0.029822383 -0.1021107 -0.0017587245 1.0992636e-38
-0.028052684 -0.10161197 0.00016972423 1.0808247e-38
-0.026365824 -0.10161197 0.00016972423 1.0624576e-38
-0.02467896 -0.10161197 0.00016972423 1.0440188e-38
-0.022992101 -0.10161197 0.00016972423 1.01636e-38
-0.021202162 -0.1008323 0.0031845272 1.0070684e-38
-0.019520588 -0.1008323 0.0031845272 9.978488e-39
-0.01799069 -0.1021107 -0.0017587245 1.0070684e-38
-0.016300447 -0.1021107 -0.0017587245 1.0071404e-38
-0.014557794 -0.10161197 0.00016972423 9.9806488e-39
-0.012870938 -0.10161197 0.00016972423 1.044234e-38
-0.011184074 -0.10161197 0.00016972423 1.0350146e-38
-0.0095394775 -0.1021107 -0.0017587245 9.2441684e-39
-0.0078103542 -0.10161197 0.00016972423 8.1385439e-39
-0.0061234906 -0.10161197 0.00016972423 7.6775671e-39
-0.0044366308 -0.10161197 0.00016972423 7.2165918e-39
-0.0027497709 -0.10161197 0.00016972423 6.6630621e-39
-0.0010629073 -0.10161197 0.00016972423 5.648913e-39
0.00060197338 -0.1021107 -0.0017587245 4.5422109e-39
0.0023108125 -0.10161197 0.00016972423 3.6191784e-39
0.0039976723 -0.10161197 0.00016972423 2.9730929e-39
0.0056845341 -0.10161197 0.00016972423 2.2355307e-39
0.0073713958 -0.10161197 0.00016972423 1.3128569e-39
0.0090582557 -0.10161197 0.00016972423 9.4299539e-40
0.010745117 -0.10161197 0.00016972423 1.2181389e-39
0.012431977 -0.10161197 0.00016972423 1.7695065e-39
0.014118839 -0.10161197 0.00016972423 1.9538879e-39
0.015805699 -0.10161197 0.00016972423 2.0457276e-39
0.017492561 -0.10161197 0.00016972423 2.2304748e-39
0.019179422 -0.10161197 0.00016972423 2.4137899e-39
0.02083721 -0.1008323 0.0031845272 2.4137871e-39
0.022518784 -0.1008323 0.0031845272 2.6896579e-39
0.024200359 -0.1008323 0.0031845272 2.7818507e-39
0.025881935 -0.1008323 0.0031845272 2.1357652e-39
0.027563509 -0.1008323 0.0031845272 2.2279581e-39
0.029245084 -0.1008323 0.0031845272 2.5034688e-39
0.03092666 -0.1008323 0.0031845272 2.6874971e-39
0.032608233 -0.1008323 0.0031845272 2.5942252e-39
0.034289807 -0.1008323 0.0031845272 2.4098312e-39
0.035971384 -0.1008323 0.0031845272 2.6864209e-39
0.037652958 -0.1008323 0.0031845272 3.2392289e-39
0.039334536 -0.1008323 0.0031845272 3.6991169e-39
0.041016109 -0.1008323 0.0031845272 3.5147242e-39
0.042697683 -0.1008323 0.0031845272 3.2395834e-39
0.044379257 -0.1008323 0.0031845272 3.3321392e-39
0.046060834 -0.1008323 0.0031845272 3.7941964e-39
0.047742408 -0.1008323 0.0031845272 2.6874775e-39
0.049423981 -0.1008323 0.0031845272 2.5931042e-39
0.051229779 -0.10161197 0.00016972423 7.1085068e-39
0.052916639 -0.10161197 0.00016972423 1.0240969e-38
0.054825906 -0.10289843 -0.0048047006 1.2174532e-38
-0.053485766 -0.10380094 -0.0017587245 1.3379184e-38
-0.051795527 -0.10380094 -0.0017587245 1.4395168e-38
-0.050105289 -0.10380094 -0.0017587245 1.4119319e-38
-0.048604637 -0.10459404 -0.0048047006 1.412041e-38
-0.046724804 -0.10380094 -0.0017587245 1.4857619e-38
-0.045034558 -0.10380094 -0.0017587245 1.393637e-38
-0.043344319 -0.10380094 -0.0017587245 1.4028566e-38
-0.04165408 -0.10380094 -0.0017587245 1.4858336e-38
-0.039963841 -0.10380094 -0.0017587245 1.4582112e-38
-0.038273595 -0.10380094 -0.0017587245 1.4306606e-38
-0.036583349 -0.10380094 -0.0017587245 1.4122576e-38
-0.03489311 -0.10380094 -0.0017587245 1.3938905e-38
-0.033344395 -0.10459404 -0.0048047006 1.3662681e-38
-0.031512626 -0.10380094 -0.0017587245 1.3294622e-38
-0.029822383 -0.10380094 -0.0017587245 1.2834368e-38
-0.028132141 -0.10380094 -0.0017587245 1.2834368e-38
-0.026441898 -0.10380094 -0.0017587245 1.2742174e-38
-0.02467896 -0.10329883 0.00016972423 1.2465591e-38
-0.022992101 -0.10329883 0.00016972423 1.209681e-38
-0.021305241 -0.10329883 0.00016972423 1.2003535e-38
-0.019618377 -0.10329883 0.00016972423 1.1819144e-38
-0.01799069 -0.10380094 -0.0017587245 1.191134e-38
-0.016300447 -0.10380094 -0.0017587245 1.2096085e-38
-0.014557794 -0.10329883 0.00016972423 1.1357792e-38
-0.012870938 -0.10329883 0.00016972423 1.2279747e-38
-0.011184074 -0.10329883 0.00016972423 1.2464499e-38
-0.0095394775 -0.10380094 -0.0017587245 1.1451069e-38
-0.0078103542 -0.10329883 0.00016972423 1.043764e-38
-0.0061234906 -0.10329883 0.00016972423 1.0069222e-38
-0.0044366308 -0.10329883 0.00016972423 9.7004424e-39
-0.0027497709 -0.10329883 0.00016972423 8.9636032e-39
-0.0010629073 -0.10329883 0.00016972423 8.2264025e-39
0.00060197338 -0.10380094 -0.0017587245 7.3970076e-39
0.0023108125 -0.10329883 0.00016972423 6.5672497e-39
0.0039976723 -0.10329883 0.00016972423 6.0137214e-39
0.0056845341 -0.10329883 0.00016972423 5.3679961e-39
0.0073713958 -0.10329883 0.00016972423 4.5382382e-39
0.0090582557 -0.10329883 0.00016972423 3.7084789e-39
0.010745117 -0.10329883 0.00016972423 3.4311718e-39
0.012431977 -0.10329883 0.00016972423 1.6776527e-39
0.014118839 -0.10329883 0.00016972423 2.3222963e-39
0.015805699 -0.10329883 0.00016972423 2.7829185e-39
0.017492561 -0.10329883 0.00016972423 3.1520569e-39
0.019155635 -0.10251388 0.0031845272 3.5201234e-39
0.02083721 -0.10251388 0.0031845272 3.7967075e-39
0.022518784 -0.10251388 0.0031845272 4.1647739e-39
0.024200359 -0.10251388 0.0031845272 4.3491624e-39
0.025881935 -0.10251388 0.0031845272 4.0725783e-39
0.027563509 -0.10251388 0.0031845272 3.9803799e-39
0.029245084 -0.10251388 0.0031845272 4.2558906e-39
0.03092666 -0.10251388 0.0031845272 4.5324747e-39
0.032608233 -0.10251388 0.0031845272 4.3473673e-39
0.034289807 -0.10251388 0.0031845272 3.8867451e-39
0.035971384 -0.10251388 0.0031845272 3.9785848e-39
0.037652958 -0.10251388 0.0031845272 4.6228696e-39
0.039334536 -0.10251388 0.0031845272 4.5292264e-39
0.041016109 -0.10251388 0.0031845272 4.4366693e-39
0.042697683 -0.10251388 0.0031845272 4.2537214e-39
0.044379257 -0.10251388 0.0031845272 4.3462799e-39
0.046060834 -0.10251388 0.0031845272 5.083845e-39
0.047742408 -0.10251388 0.0031845272 3.7008993e-39
0.049423981 -0.10251388 0.0031845272 3.3313769e-39
0.051105559 -0.10251388 0.0031845272 7.6623911e-39
0.052916639 -0.10329883 0.00016972423 1.1624977e-38
0.054825906 -0.10459404 -0.0048047006 1.2268163e-38
-0.055386975 -0.10628961 -0.0048047006 7.7519859e-39
-0.053485766 -0.10549118 -0.0017587245 1.5590795e-38
-0.051795527 -0.10549118 -0.0017587245 1.7343619e-38
-0.050105289 -0.10549118 -0.0017587245 1.7252158e-38
-0.048604637 -0.10628961 -0.0048047006 1.7436187e-38
-0.046724804 -0.10549118 -0.0017587245 1.8081906e-38
-0.045034558 -0.10549118 -0.0017587245 1.6883731e-38
-0.043344319 -0.10549118 -0.0017587245 1.6883731e-38
-0.04165408 -0.10549118 -0.0017587245 1.6791545e-38
-0.039963841 -0.10549118 -0.0017587245 1.6884098e-38
-0.038273595 -0.10549118 -0.0017587245 1.679298e-38
-0.036583349 -0.10549118 -0.0017587245 1.6516397e-38
-0.03489311 -0.10549118 -0.0017587245 1.6055785e-38
-0.033344395 -0.10628961 -0.0048047006 1.5595531e-38
-0.031512626 -0.10549118 -0.0017587245 1.541186e-38
-0.029822383 -0.10549118 -0.0017587245 1.5412578e-38
-0.028132141 -0.10549118 -0.0017587245 1.5412219e-38
-0.026441898 -0.10549118 -0.0017587245 1.5320025e-38
-0.024751659 -0.10549118 -0.0017587245 1.5135636e-38
-0.022992101 -0.1049857 0.00016972423 1.4859054e-38
-0.021305241 -0.1049857 0.00016972423 1.4490628e-38
-0.019618377 -0.1049857 0.00016972423 1.4398433e-38
-0.01799069 -0.10549118 -0.0017587245 1.4490628e-38
-0.016300447 -0.10549118 -0.0017587245 1.4766131e-38
-0.014557794 -0.1049857 0.00016972423 1.5777395e-38
-0.012870938 -0.1049857 0.00016972423 1.6698987e-38
-0.011184074 -0.1049857 0.00016972423 1.6976292e-38
-0.0095394775 -0.10549118 -0.0017587245 1.6423483e-38
-0.0078103542 -0.1049857 0.00016972423 1.5594445e-38
-0.0061234906 -0.1049857 0.00016972423 1.5318223e-38
-0.0044366308 -0.1049857 0.00016972423 1.4858326e-38
-0.0027497709 -0.1049857 0.00016972423 1.4214042e-38
-0.0010629073 -0.1049857 0.00016972423 1.4766859e-38
0.0006239526 -0.1049857 0.00016972423 1.3938545e-38
0.0023108125 -0.1049857 0.00016972423 1.3200625e-38
0.0039976723 -0.1049857 0.00016972423 1.2463783e-38
0.0056845341 -0.1049857 0.00016972423 1.1910615e-38
0.0073713958 -0.1049857 0.00016972423 1.0896825e-38
0.0090582557 -0.1049857 0.00016972423 9.8826756e-39
0.010745117 -0.1049857 0.00016972423 9.1451106e-39
0.012431977 -0.1049857 0.00016972423 8.867802e-39
0.014118839 -0.1049857 0.00016972423 9.5124498e-39
0.015805699 -0.1049857 0.00016972423 9.8812337e-39
0.017492561 -0.1049857 0.00016972423 9.7890367e-39
0.019155635 -0.10419546 0.0031845272 9.7883192e-39
0.02083721 -0.10419546 0.0031845272 1.0064905e-38
0.022518784 -0.10419546 0.0031845272 1.0341493e-38
0.024200359 -0.10419546 0.0031845272 1.0341492e-38
0.025881935 -0.10419546 0.0031845272 1.0248218e-38
0.027563509 -0.10419546 0.0031845272 9.7872388e-39
0.029245084 -0.10419546 0.0031845272 9.7872402e-39
0.03092666 -0.10419546 0.0031845272 1.0156021e-38
0.032608233 -0.10419546 0.0031845272 1.0247499e-38
0.034289807 -0.10419546 0.0031845272 9.7868787e-39
0.035971384 -0.10419546 0.0031845272 9.6943257e-39
0.037652958 -0.10419546 0.0031845272 1.0062747e-38
0.039334536 -0.10419546 0.0031845272 1.0613755e-38
0.041016109 -0.10419546 0.0031845272 1.0152058e-38
0.042697683 -0.10419546 0.0031845272 9.7847207e-39
0.044379257 -0.10419546 0.0031845272 9.5999721e-39
0.046060834 -0.10419546 0.0031845272 9.9694735e-39
0.047742408 -0.10419546 0.0031845272 9.4159325e-39
0.049423981 -0.10419546 0.0031845272 9.0464129e-39
0.051105559 -0.10419546 0.0031845272 1.1995216e-38
0.052916639 -0.1049857 0.00016972423 1.3191576e-38
-0.057082549 -0.10798518 -0.0048047006 7.7490908e-39
-0.055386975 -0.10798518 -0.0048047006 7.1973702e-39
-0.053691387 -0.10798518 -0.0048047006 1.6141802e-38
-0.051995799 -0.10798518 -0.0048047006 1.8724744e-38
-0.050300226 -0.10798518 -0.0048047006 1.8816948e-38
-0.048604637 -0.10798518 -0.0048047006 1.8632201e-38
-0.046724804 -0.10718144 -0.0017587245 1.9185008e-38
-0.045034558 -0.10718144 -0.0017587245 1.8447434e-38
-0.043517888 -0.10798518 -0.0048047006 1.844851e-38
-0.041822307 -0.10798518 -0.0048047006 1.8725466e-38
-0.039963841 -0.10718144 -0.0017587245 1.8818023e-38
-0.038273595 -0.10718144 -0.0017587245 1.8910219e-38
-0.036583349 -0.10718144 -0.0017587245 1.872583e-38
-0.03489311 -0.10718144 -0.0017587245 1.8173377e-38
-0.033202872 -0.10718144 -0.0017587245 1.7805316e-38
-0.031512626 -0.10718144 -0.0017587245 1.7897512e-38
-0.029822383 -0.10718144 -0.0017587245 1.7898232e-38
-0.028132141 -0.10718144 -0.0017587245 1.7713841e-38
-0.026441898 -0.10718144 -0.0017587245 1.7713841e-38
-0.024751659 -0.10718144 -0.0017587245 1.7621645e-38
-0.022992101 -0.10667257 0.00016972423 1.7437254e-38
-0.021305241 -0.10667257 0.00016972423 1.7252862e-38
-0.019618377 -0.10667257 0.00016972423 1.7160667e-38
-0.01799069 -0.10718144 -0.0017587245 1.7252862e-38
-0.016300447 -0.10718144 -0.0017587245 1.7712755e-38
-0.014557794 -0.10667257 0.00016972423 1.8446718e-38
-0.012870938 -0.10667257 0.00016972423 1.9090643e-38
-0.011229724 -0.10718144 -0.0017587245 1.9367233e-38
-0.0095394775 -0.10718144 -0.0017587245 1.9183204e-38
-0.0078492388 -0.10718144 -0.0017587245 1.8722949e-38
-0.0061234906 -0.10667257 0.00016972423 1.8447083e-38
-0.0044366308 -0.10667257 0.00016972423 1.8171219e-38
-0.0027497709 -0.10667257 0.00016972423 1.7895716e-38
-0.0010629073 -0.10667257 0.00016972423 1.7895718e-38
0.0006239526 -0.10667257 0.00016972423 1.7159239e-38
0.0023108125 -0.10667257 0.00016972423 1.6606068e-38
0.0040214602 -0.10587703 0.0031845272 1.5961421e-38
0.0057030357 -0.10587703 0.0031845272 1.5593359e-38
0.0073846094 -0.10587703 0.0031845272 1.4947634e-38
0.009066185 -0.10587703 0.0031845272 1.3933485e-38
0.010745117 -0.10667257 0.00016972423 1.3012247e-38
0.012429334 -0.10587703 0.0031845272 1.2644185e-38
0.01411091 -0.10587703 0.0031845272 1.2921488e-38
0.015792485 -0.10587703 0.0031845272 1.2829295e-38
0.017492561 -0.10667257 0.00016972423 1.2183923e-38
0.019155635 -0.10587703 0.0031845272 1.1814424e-38
0.02083721 -0.10587703 0.0031845272 1.2091367e-38
0.022518784 -0.10587703 0.0031845272 1.2459794e-38
0.024200359 -0.10587703 0.0031845272 1.2552345e-38
0.025881935 -0.10587703 0.0031845272 1.3565421e-38
0.027563509 -0.10587703 0.0031845272 1.2735658e-38
0.029189928 -0.10508646 0.006180495 1.2366878e-38
0.03086625 -0.10508646 0.006180495 1.2920049e-38
0.032608233 -0.10587703 0.0031845272 1.3288115e-38
0.034289807 -0.10587703 0.0031845272 1.3011526e-38
0.035971384 -0.10587703 0.0031845272 1.3011528e-38
0.037652958 -0.10587703 0.0031845272 1.3380311e-38
0.039334536 -0.10587703 0.0031845272 1.3378516e-38
0.041016109 -0.10587703 0.0031845272 1.2640955e-38
0.042697683 -0.10587703 0.0031845272 1.282499e-38
0.044379257 -0.10587703 0.0031845272 1.1996312e-38
0.046060834 -0.10587703 0.0031845272 1.1996312e-38
0.047742408 -0.10587703 0.0031845272 1.2456564e-38
0.049423981 -0.10587703 0.0031845272 1.1809745e-38
0.051105559 -0.10587703 0.0031845272 1.2454741e-38
0.052916639 -0.10667257 0.00016972423 1.5219871e-38
0.05468972 -0.10718144 -0.0017587245 1.3927676e-38
-0.057082549 -0.10968079 -0.0048047006 8.2093487e-39
-0.055386975 -0.10968079 -0.0048047006 8.5799403e-39
-0.053691387 -0.10968079 -0.0048047006 1.8445608e-38
-0.051995799 -0.10968079 -0.0048047006 2.1948682e-38
-0.050300226 -0.10968079 -0.0048047006 2.2132353e-38
-0.048604637 -0.10968079 -0.0048047006 2.1764652e-38
-0.046724804 -0.10887168 -0.0017587245 2.2224189e-38
-0.045034558 -0.10887168 -0.0017587245 2.1764294e-38
-0.043344319 -0.10887168 -0.0017587245 2.2316024e-38
-0.04165408 -0.10887168 -0.0017587245 2.2040518e-38
-0.039963841 -0.10887168 -0.0017587245 2.2132353e-38
-0.038273595 -0.10887168 -0.0017587245 2.2132353e-38
-0.036583349 -0.10887168 -0.0017587245 2.2040518e-38
-0.03489311 -0.10887168 -0.0017587245 2.1765011e-38
-0.033202872 -0.10887168 -0.0017587245 2.1765011e-38
-0.031512626 -0.10887168 -0.0017587245 2.1765011e-38
-0.029822383 -0.10887168 -0.0017587245 2.158134e-38
-0.028132141 -0.10887168 -0.0017587245 2.158134e-38
-0.026441898 -0.10887168 -0.0017587245 2.1673176e-38
-0.024751659 -0.10887168 -0.0017587245 2.1673176e-38
-0.022992101 -0.10835941 0.00016972423 2.1489505e-38
-0.021202162 -0.10755859 0.0031845272 2.1489505e-38
-0.019520588 -0.10755859 0.0031845272 2.1489505e-38
-0.01799069 -0.10887168 -0.0017587245 2.1673176e-38
-0.016244657 -0.10835941 0.00016972423 2.2040518e-38
-0.014557794 -0.10835941 0.00016972423 2.2591531e-38
-0.012870938 -0.10835941 0.00016972423 2.2775202e-38
-0.011184074 -0.10835941 0.00016972423 2.2775202e-38
-0.0095394775 -0.10887168 -0.0017587245 2.2591531e-38
-0.0078103542 -0.10835941 0.00016972423 2.2591531e-38
-0.0061234906 -0.10835941 0.00016972423 2.2499695e-38
-0.0044366308 -0.10835941 0.00016972423 2.2499695e-38
-0.0027497709 -0.10835941 0.00016972423 2.2316024e-38
-0.0010629073 -0.10835941 0.00016972423 2.2224189e-38
0.0006239526 -0.10835941 0.00016972423 2.2132353e-38
0.0023398846 -0.10755859 0.0031845272 2.1856847e-38
0.0040214602 -0.10755859 0.0031845272 2.1765011e-38
0.0057030357 -0.10755859 0.0031845272 2.1948682e-38
0.0073846094 -0.10755859 0.0031845272 2.1856847e-38
0.009066185 -0.10755859 0.0031845272 2.1489505e-38
0.010747761 -0.10755859 0.0031845272 2.0660833e-38
0.012429334 -0.10755859 0.0031845272 2.0938133e-38
0.01411091 -0.10755859 0.0031845272 2.1122163e-38
0.015792485 -0.10755859 0.0031845272 2.0846656e-38
0.017474059 -0.10755859 0.0031845272 2.0201297e-38
0.019179422 -0.10835941 0.00016972423 2.0016191e-38
0.02083721 -0.10755859 0.0031845272 2.066155e-38
0.022518784 -0.10755859 0.0031845272 2.1397669e-38
0.024200359 -0.10755859 0.0031845272 2.158134e-38
0.025881935 -0.10755859 0.0031845272 2.1305834e-38
0.027563509 -0.10755859 0.0031845272 2.0200579e-38
0.029189928 -0.10676278 0.006180495 1.9647414e-38
0.03086625 -0.10676278 0.006180495 2.0200579e-38
0.032542571 -0.10676278 0.006180495 2.0753745e-38
0.034218892 -0.10676278 0.006180495 2.0753745e-38
0.035971384 -0.10755859 0.0031845272 2.0845939e-38
0.037652958 -0.10755859 0.0031845272 2.1305834e-38
0.039334536 -0.10755859 0.0031845272 2.0660474e-38
0.041016109 -0.10755859 0.0031845272 2.010695e-38
0.042697683 -0.10755859 0.0031845272 2.0844504e-38
0.044379257 -0.10755859 0.0031845272 2.0106591e-38
0.045953147 -0.10676278 0.006180495 1.9830009e-38
0.047629472 -0.10676278 0.006180495 2.0566845e-38
0.049423981 -0.10755859 0.0031845272 1.9183573e-38
0.051105559 -0.10755859 0.0031845272 1.8076859e-38
0.052916639 -0.10835941 0.00016972423 1.7522953e-38
0.05468972 -0.10887168 -0.0017587245 1.4664517e-38
-0.055386975 -0.11137636 -0.0048047006 9.8692344e-39
-0.053691387 -0.11137636 -0.0048047006 2.056502e-38
-0.051795527 -0.11056192 -0.0017587245 2.240786e-38
-0.050105289 -0.11056192 -0.0017587245 2.2499695e-38
-0.04841505 -0.11056192 -0.0017587245 2.2407501e-38
-0.046724804 -0.11056192 -0.0017587245 2.2775202e-38
-0.045034558 -0.11056192 -0.0017587245 2.2867037e-38
-0.043344319 -0.11056192 -0.0017587245 2.2683356e-38
-0.04165408 -0.11056192 -0.0017587245 2.27752e-38
-0.039963841 -0.11056192 -0.0017587245 2.27752e-38
-0.038273595 -0.11056192 -0.0017587245 2.2867037e-38
-0.036583349 -0.11056192 -0.0017587245 2.249969e-38
-0.03489311 -0.11056192 -0.0017587245 2.2958873e-38
-0.033202872 -0.11056192 -0.0017587245 2.2867037e-38
-0.031512626 -0.11056192 -0.0017587245 2.249969e-38
-0.029822383 -0.11056192 -0.0017587245 2.2867037e-38
-0.028132141 -0.11056192 -0.0017587245 2.2867037e-38
-0.026441898 -0.11056192 -0.0017587245 2.2867037e-38
-0.02467896 -0.11004628 0.00016972423 2.2867037e-38
-0.022992101 -0.11004628 0.00016972423 2.2775202e-38
-0.021202162 -0.10924016 0.0031845272 2.2775202e-38
-0.019520588 -0.10924016 0.0031845272 2.2775202e-38
-0.017931517 -0.11004628 0.00016972423 2.2775202e-38
-0.016244657 -0.11004628 0.00016972423 2.2775202e-38
-0.014557794 -0.11004628 0.00016972423 2.2591531e-38
-0.012870938 -0.11004628 0.00016972423 2.2591531e-38
-0.011184074 -0.11004628 0.00016972423 2.2591531e-38
-0.0095394775 -0.11056192 -0.0017587245 2.2499695e-38
-0.0078103542 -0.11004628 0.00016972423 2.2131636e-38
-0.0061234906 -0.11004628 0.00016972423 2.2775202e-38
-0.0044366308 -0.11004628 0.00016972423 2.2222754e-38
-0.0027497709 -0.11004628 0.00016972423 2.2499336e-38
-0.0010629073 -0.11004628 0.00016972423 2.2591531e-38
0.0006239526 -0.11004628 0.00016972423 2.2591531e-38
0.0023398846 -0.10924016 0.0031845272 2.240786e-38
0.0040214602 -0.10924016 0.0031845272 2.2591531e-38
0.0057030357 -0.10924016 0.0031845272 2.2591531e-38
0.0073846094 -0.10924016 0.0031845272 2.2499695e-38
0.009066185 -0.10924016 0.0031845272 2.2499695e-38
0.010747761 -0.10924016 0.0031845272 2.2499695e-38
0.012429334 -0.10924016 0.0031845272 2.2224189e-38
0.01411091 -0.10924016 0.0031845272 2.2591531e-38
0.015792485 -0.10924016 0.0031845272 2.2591531e-38
0.017474059 -0.10924016 0.0031845272 2.2591531e-38
0.019155635 -0.10924016 0.0031845272 2.2499695e-38
0.02083721 -0.10924016 0.0031845272 2.240786e-38
0.022518784 -0.10924016 0.0031845272 2.2499695e-38
0.024200359 -0.10924016 0.0031845272 2.2499695e-38
0.025837284 -0.1084391 0.006180495 2.2224189e-38
0.027513606 -0.1084391 0.006180495 2.2499695e-38
0.029189928 -0.1084391 0.006180495 2.1118561e-38
0.03086625 -0.1084391 0.006180495 2.1210757e-38
0.032542571 -0.1084391 0.006180495 2.2499695e-38
0.034218892 -0.1084391 0.006180495 2.2499695e-38
0.035971384 -0.10924016 0.0031845272 2.1487344e-38
0.037652958 -0.10924016 0.0031845272 2.2316024e-38
0.039334536 -0.10924016 0.0031845272 2.2132353e-38
0.041016109 -0.10924016 0.0031845272 2.2316024e-38
0.042697683 -0.10924016 0.0031845272 2.2316024e-38
0.044379257 -0.10924016 0.0031845272 2.2224189e-38
0.045953147 -0.1084391 0.006180495 2.240786e-38
0.047629472 -0.1084391 0.006180495 2.222383e-38
0.049423981 -0.10924016 0.0031845272 2.111714e-38
0.051105559 -0.10924016 0.0031845272 1.9642008e-38
0.052916639 -0.11004628 0.00016972423 1.8258349e-38
-0.055386975 -0.11307193 -0.0048047006 1.0053261e-38
-0.053691387 -0.11307193 -0.0048047006 2.1025271e-38
-0.051795527 -0.11225216 -0.0017587245 2.2775202e-38
-0.050105289 -0.11225216 -0.0017587245 2.2775202e-38
-0.04841505 -0.11225216 -0.0017587245 2.2683007e-38
-0.046724804 -0.11225216 -0.0017587245 2.3142544e-38
-0.045034558 -0.11225216 -0.0017587245 2.3234372e-38
-0.043344319 -0.11225216 -0.0017587245 2.3234364e-38
-0.04165408 -0.11225216 -0.0017587245 2.3418043e-38
-0.039963841 -0.11225216 -0.0017587245 2.3141816e-38
-0.038273595 -0.11225216 -0.0017587245 2.2404251e-38
-0.036583349 -0.11225216 -0.0017587245 2.3418045e-38
-0.03489311 -0.11225216 -0.0017587245 2.3509879e-38
-0.033202872 -0.11225216 -0.0017587245 2.3509879e-38
-0.031512626 -0.11225216 -0.0017587245 2.3418042e-38
-0.029822383 -0.11225216 -0.0017587245 2.2772672e-38
-0.028132141 -0.11225216 -0.0017587245 2.3509879e-38
-0.026365824 -0.11173315 0.00016972423 2.3509879e-38
-0.02467896 -0.11173315 0.00016972423 2.3325846e-38
-0.022883739 -0.11092176 0.0031845272 2.3234369e-38
-0.021202162 -0.11092176 0.0031845272 2.3418043e-38
-0.019520588 -0.11092176 0.0031845272 2.3234374e-38
-0.017931517 -0.11173315 0.00016972423 2.3234374e-38
-0.016244657 -0.11173315 0.00016972423 2.2866674e-38
-0.014557794 -0.11173315 0.00016972423 2.2590813e-38
-0.012870938 -0.11173315 0.00016972423 2.2775202e-38
-0.011184074 -0.11173315 0.00016972423 2.2591172e-38
-0.0094972141 -0.11173315 0.00016972423 2.2775202e-38
-0.0078103542 -0.11173315 0.00016972423 2.2958873e-38
-0.0061234906 -0.11173315 0.00016972423 2.3142544e-38
-0.0043864138 -0.11092176 0.0031845272 2.3234379e-38
-0.0027048402 -0.11092176 0.0031845272 2.3234379e-38
-0.0010629073 -0.11173315 0.00016972423 2.341805e-38
0.00065831095 -0.11092176 0.0031845272 2.3049624e-38
0.0023398846 -0.11092176 0.0031845272 2.2680838e-38
0.0040214602 -0.11092176 0.0031845272 2.3326208e-38
0.0057030357 -0.11092176 0.0031845272 2.3418043e-38
0.0073846094 -0.11092176 0.0031845272 2.3234369e-38
0.009066185 -0.11092176 0.0031845272 2.3325846e-38
0.010747761 -0.11092176 0.0031845272 2.3509879e-38
0.012429334 -0.11092176 0.0031845272 2.350988e-38
0.01411091 -0.11092176 0.0031845272 2.350988e-38
