# .PCD v0.7 - Point Cloud Data file format
VERSION 0.7
FIELDS x y z rgb
SIZE 4 4 4 4
TYPE F F F F
COUNT 1 1 1 1
WIDTH 938
HEIGHT 1
VIEWPOINT 0 0 0 1 0 0 0
POINTS 938
DATA ascii
0.041531079 -0.10444455 -0.00010522082 1.1172696e-38
0.043402039 -0.10444455 -0.00010522082 1.1357806e-38
0.045272999 -0.10444455 -0.00010522082 1.1633677e-38
0.047265075 -0.10513772 -0.0030445643 1.1634039e-38
0.049141191 -0.10513772 -0.0030445643 1.1080866e-38
0.051017307 -0.10513772 -0.0030445643 1.0988673e-38
0.053036049 -0.10586159 -0.0061140843 1.1080869e-38
0.054917544 -0.10586159 -0.0061140843 1.1265621e-38
0.056799047 -0.10586159 -0.0061140843 1.1541489e-38
0.058680542 -0.10586159 -0.0061140843 1.1265624e-38
0.060562044 -0.10586159 -0.0061140843 1.0803927e-38
0.06244354 -0.10586159 -0.0061140843 1.0435142e-38
0.064553276 -0.10680611 -0.010119397 1.1633321e-38
0.066441797 -0.10680611 -0.010119397 1.1172698e-38
0.068330318 -0.10680611 -0.010119397 1.0527329e-38
0.070218839 -0.10680611 -0.010119397 1.0066351e-38
0.07210736 -0.10680611 -0.010119397 9.6975655e-39
0.0741928 -0.1075124 -0.013114292 9.4216975e-39
0.076086573 -0.1075124 -0.013114292 9.4216947e-39
0.077980347 -0.1075124 -0.013114292 9.4216947e-39
0.079874113 -0.1075124 -0.013114292 1.0158898e-38
0.081767887 -0.1075124 -0.013114292 1.034221e-38
0.083661661 -0.1075124 -0.013114292 1.0434043e-38
0.085856058 -0.1084419 -0.017055828 1.0709551e-38
0.087756731 -0.1084419 -0.017055828 1.0893221e-38
0.089342974 -0.1075124 -0.013114292 1.1077252e-38
0.091236748 -0.1075124 -0.013114292 1.1077252e-38
0.093130521 -0.1075124 -0.013114292 1.1169445e-38
0.095024295 -0.1075124 -0.013114292 1.0247843e-38
0.096918069 -0.1075124 -0.013114292 1.024784e-38
0.098811843 -0.1075124 -0.013114292 1.0340389e-38
0.10070562 -0.1075124 -0.013114292 1.0340385e-38
0.1029622 -0.1084419 -0.017055828 1.0248545e-38
0.10486288 -0.1084419 -0.017055828 1.0339661e-38
0.10676356 -0.1084419 -0.017055828 1.0246747e-38
0.10895946 -0.10915731 -0.020089466 1.0337866e-38
0.11086545 -0.10915731 -0.020089466 1.0244592e-38
0.11277146 -0.10915731 -0.020089466 1.0704128e-38
0.11467747 -0.10915731 -0.020089466 1.1071464e-38
0.11626699 -0.1084419 -0.017055828 9.4112088e-39
0.11816766 -0.1084419 -0.017055828 4.8925271e-39
-0.11253584 -0.10774307 -0.0061140843 1.3281979e-38
-0.11032874 -0.10701384 -0.0030445643 9.9629406e-39
-0.10845263 -0.10701384 -0.0030445643 8.3030661e-39
-0.10689136 -0.10774307 -0.0061140843 7.6584212e-39
-0.10440405 -0.10631551 -0.00010522082 9.0417242e-39
-0.10124234 -0.10322 0.012924355 9.1350044e-39
-0.098418765 -0.10083848 0.022948544 8.6758354e-39
-0.096014045 -0.099410906 0.028957408 6.4653038e-39
-0.093825169 -0.098476708 0.032889646 6.6525776e-39
-0.09201207 -0.098476708 0.032889646 6.5632658e-39
-0.090198956 -0.098476708 0.032889646 6.3813997e-39
-0.088734008 -0.099410906 0.028957408 7.3977124e-39
-0.086572729 -0.098476708 0.032889646 6.8459806e-39
-0.084759615 -0.098476708 0.032889646 6.3832074e-39
-0.082946502 -0.098476708 0.032889646 7.7614685e-39
-0.081133388 -0.098476708 0.032889646 9.8798086e-39
-0.079320274 -0.098476708 0.032889646 8.4972301e-39
-0.078047715 -0.10012263 0.025961678 7.7603811e-39
-0.075993963 -0.099410906 0.028957408 8.8667286e-39
-0.074173965 -0.099410906 0.028957408 9.0521989e-39
-0.072353952 -0.099410906 0.028957408 9.5128211e-39
-0.070533939 -0.099410906 0.028957408 9.5128253e-39
-0.069339983 -0.10155846 0.019918006 9.5124694e-39
-0.067299552 -0.10083848 0.022948544 1.1263107e-38
-0.065270893 -0.10012263 0.025961678 1.135494e-38
-0.063445635 -0.10012263 0.025961678 1.1815191e-38
-0.061620377 -0.10012263 0.025961678 1.3935676e-38
-0.059795119 -0.10012263 0.025961678 1.485726e-38
-0.057969861 -0.10012263 0.025961678 1.4395917e-38
-0.056144603 -0.10012263 0.025961678 1.4395916e-38
-0.054319337 -0.10012263 0.025961678 1.3843818e-38
-0.052494079 -0.10012263 0.025961678 1.3936736e-38
-0.050668821 -0.10012263 0.025961678 1.3291366e-38
-0.049145564 -0.10155846 0.019918006 1.2092466e-38
-0.047451422 -0.10225673 0.016978901 1.1354904e-38
-0.045610413 -0.10225673 0.016978901 1.0525146e-38
-0.043769404 -0.10225673 0.016978901 8.3120947e-39
-0.041928396 -0.10225673 0.016978901 5.7306199e-39
-0.04008738 -0.10225673 0.016978901 5.0852519e-39
-0.038246371 -0.10225673 0.016978901 4.6242737e-39
-0.036294572 -0.10155846 0.019918006 3.8863528e-39
-0.034458712 -0.10155846 0.019918006 2.9651153e-39
-0.032622859 -0.10155846 0.019918006 2.319027e-39
-0.030787004 -0.10155846 0.019918006 1.6743765e-39
-0.029041329 -0.10225673 0.016978901 1.4892664e-39
-0.027115291 -0.10155846 0.019918006 1.1222845e-39
-0.025279438 -0.10155846 0.019918006 1.1233719e-39
-0.0235183 -0.10225673 0.016978901 2.0456912e-39
-0.021773262 -0.10322 0.012924355 2.9672873e-39
-0.019925145 -0.10322 0.012924355 3.5204611e-39
-0.018077029 -0.10322 0.012924355 4.9945094e-39
-0.016228909 -0.10322 0.012924355 6.7462264e-39
-0.014313256 -0.10225673 0.016978901 7.575987e-39
-0.012472248 -0.10225673 0.016978901 7.576343e-39
-0.010684555 -0.10322 0.012924355 9.0514716e-39
-0.0088364389 -0.10322 0.012924355 9.7890339e-39
-0.0070170406 -0.1039276 0.0099459104 9.9745013e-39
-0.0051637013 -0.1039276 0.0099459104 9.9748573e-39
-0.0033103619 -0.1039276 0.0099459104 1.0712782e-38
-0.0014570206 -0.1039276 0.0099459104 1.2004239e-38
0.00038844161 -0.10463922 0.0069505386 1.2741804e-38
0.0022443924 -0.10535492 0.0039381199 1.2741441e-38
0.0041082669 -0.10535492 0.0039381199 1.2740722e-38
0.0059721414 -0.10535492 0.0039381199 1.3016586e-38
0.0078228097 -0.10463922 0.0069505386 1.3017662e-38
0.0096814018 -0.10463922 0.0069505386 1.3294249e-38
0.011563762 -0.10535492 0.0039381199 1.3570833e-38
0.013427636 -0.10535492 0.0039381199 1.3755224e-38
0.015257179 -0.10463922 0.0069505386 1.3940334e-38
0.017115772 -0.10463922 0.0069505386 1.403253e-38
0.018974362 -0.10463922 0.0069505386 1.4032533e-38
0.020832954 -0.10463922 0.0069505386 1.3940337e-38
0.022691546 -0.10463922 0.0069505386 1.375559e-38
0.024610879 -0.10535492 0.0039381199 1.3295331e-38
0.026474753 -0.10535492 0.0039381199 1.2834355e-38
0.028338628 -0.10535492 0.0039381199 1.2557412e-38
0.030202501 -0.10535492 0.0039381199 1.2373023e-38
0.03217626 -0.10631551 -0.00010522082 1.218971e-38
0.034047224 -0.10631551 -0.00010522082 1.1820575e-38
0.035918184 -0.10631551 -0.00010522082 1.2004969e-38
0.037789151 -0.10631551 -0.00010522082 1.218936e-38
0.039660111 -0.10631551 -0.00010522082 1.2189003e-38
0.041531079 -0.10631551 -0.00010522082 1.1912416e-38
0.043402039 -0.10631551 -0.00010522082 1.1728027e-38
0.045272999 -0.10631551 -0.00010522082 1.1819144e-38
0.047143966 -0.10631551 -0.00010522082 1.1635832e-38
0.049141191 -0.10701384 -0.0030445643 1.0989386e-38
0.051017307 -0.10701384 -0.0030445643 1.1174856e-38
0.053036049 -0.10774307 -0.0061140843 1.1082305e-38
0.054917544 -0.10774307 -0.0061140843 1.0713522e-38
0.056799047 -0.10774307 -0.0061140843 1.0713525e-38
0.058680542 -0.10774307 -0.0061140843 1.1174503e-38
0.060562044 -0.10774307 -0.0061140843 1.1174503e-38
0.06244354 -0.10774307 -0.0061140843 1.1081585e-38
0.064553276 -0.10869466 -0.010119397 1.1447487e-38
0.066441797 -0.10869466 -0.010119397 1.1170177e-38
0.068330318 -0.10869466 -0.010119397 1.0801395e-38
0.070218839 -0.10869466 -0.010119397 1.0893591e-38
0.07210736 -0.10869466 -0.010119397 1.1170175e-38
0.073995881 -0.10869466 -0.010119397 1.1171252e-38
0.076086573 -0.10940616 -0.013114292 1.144676e-38
0.077980347 -0.10940616 -0.013114292 1.1447116e-38
0.079874113 -0.10940616 -0.013114292 1.1078331e-38
0.081767887 -0.10940616 -0.013114292 1.1262359e-38
0.083661661 -0.10940616 -0.013114292 1.1629701e-38
0.085555434 -0.10940616 -0.013114292 1.1905566e-38
0.0874492 -0.10940616 -0.013114292 1.2273629e-38
0.089342974 -0.10940616 -0.013114292 1.2549494e-38
0.091236748 -0.10940616 -0.013114292 1.2733885e-38
0.093130521 -0.10940616 -0.013114292 1.2917911e-38
0.095024295 -0.10940616 -0.013114292 1.2918262e-38
0.096918069 -0.10940616 -0.013114292 1.3103005e-38
0.098811843 -0.10940616 -0.013114292 1.3103361e-38
0.10070562 -0.10940616 -0.013114292 1.2826771e-38
0.1029622 -0.11034258 -0.017055828 1.2365792e-38
0.10486288 -0.11034258 -0.017055828 1.2181401e-38
0.10676356 -0.11034258 -0.017055828 1.2641301e-38
0.10895946 -0.11106332 -0.020089466 1.3101919e-38
0.11086545 -0.11106332 -0.020089466 1.291573e-38
0.11277146 -0.11106332 -0.020089466 1.3376347e-38
0.11467747 -0.11106332 -0.020089466 1.3467095e-38
0.11626699 -0.11034258 -0.017055828 1.1622092e-38
0.11816766 -0.11034258 -0.017055828 6.5513212e-39
-0.11707822 -0.11129995 -0.013114292 1.69687e-38
-0.11485627 -0.11058317 -0.010119397 1.512588e-38
-0.11253584 -0.10962458 -0.0061140843 1.3189055e-38
-0.11032874 -0.10888995 -0.0030445643 9.869659e-39
-0.10845263 -0.10888995 -0.0030445643 8.9477069e-39
-0.1058603 -0.10721879 0.0039381199 6.7350216e-39
-0.10238538 -0.10339431 0.019918006 7.5651494e-39
-0.10054953 -0.10339431 0.019918006 8.7651373e-39
-0.098418765 -0.10266902 0.022948544 8.2134139e-39
-0.096014045 -0.10123092 0.028957408 5.8195687e-39
-0.093825169 -0.10028981 0.032889646 5.1767272e-39
-0.09201207 -0.10028981 0.032889646 6.1015646e-39
-0.090554021 -0.10123092 0.028957408 6.0118955e-39
-0.088734008 -0.10123092 0.028957408 5.6452738e-39
-0.08691401 -0.10123092 0.028957408 6.0155011e-39
-0.084759615 -0.10028981 0.032889646 6.5676e-39
-0.082946502 -0.10028981 0.032889646 6.6562111e-39
-0.081133388 -0.10028981 0.032889646 7.5767311e-39
-0.079320274 -0.10028981 0.032889646 9.3284453e-39
-0.078047715 -0.10194789 0.025961678 9.0525759e-39
-0.075993963 -0.10123092 0.028957408 1.0251119e-38
-0.074173965 -0.10123092 0.028957408 9.3302417e-39
-0.072353952 -0.10123092 0.028957408 9.6986669e-39
-0.070746668 -0.10194789 0.025961678 9.144417e-39
-0.06892141 -0.10194789 0.025961678 8.1302678e-39
-0.067096151 -0.10194789 0.025961678 8.590883e-39
-0.065270893 -0.10194789 0.025961678 8.9589439e-39
-0.063253917 -0.10123092 0.028957408 9.0514941e-39
-0.061433919 -0.10123092 0.028957408 9.4206297e-39
-0.059795119 -0.10194789 0.025961678 1.0158546e-38
-0.057969861 -0.10194789 0.025961678 1.080391e-38
-0.056144603 -0.10194789 0.025961678 1.0989019e-38
-0.054319337 -0.10194789 0.025961678 1.0713152e-38
-0.052494079 -0.10194789 0.025961678 1.0806068e-38
-0.050668821 -0.10194789 0.025961678 1.2556709e-38
-0.048994131 -0.10266902 0.022948544 9.8830386e-39
-0.047309704 -0.10339431 0.019918006 9.975237e-39
-0.045473851 -0.10339431 0.019918006 6.6558384e-39
-0.043637998 -0.10339431 0.019918006 6.3792529e-39
-0.041802138 -0.10339431 0.019918006 4.7197344e-39
-0.04008738 -0.10409774 0.016978901 4.5346243e-39
-0.038246371 -0.10409774 0.016978901 2.8751057e-39
-0.036294572 -0.10339431 0.019918006 2.4141276e-39
-0.034458712 -0.10339431 0.019918006 3.336444e-39
-0.032622859 -0.10339431 0.019918006 3.1516898e-39
-0.030787004 -0.10339431 0.019918006 1.4928873e-39
-0.029041329 -0.10409774 0.016978901 1.3999728e-39
-0.027115291 -0.10339431 0.019918006 2.3233683e-39
-0.025279438 -0.10339431 0.019918006 1.1266314e-39
-0.0235183 -0.10409774 0.016978901 1.9571109e-39
-0.021677291 -0.10409774 0.016978901 3.1552925e-39
-0.019836282 -0.10409774 0.016978901 3.9843315e-39
-0.017995274 -0.10409774 0.016978901 4.7211735e-39
-0.016228909 -0.1050681 0.012924355 5.6427669e-39
-0.014313256 -0.10409774 0.016978901 7.0246209e-39
-0.012472248 -0.10409774 0.016978901 8.0384071e-39
-0.010684555 -0.1050681 0.012924355 9.6982816e-39
-0.0088364389 -0.1050681 0.012924355 1.0251094e-38
-0.0069883186 -0.1050681 0.012924355 1.0988653e-38
-0.0051637013 -0.10578094 0.0099459104 1.1726574e-38
-0.0033103619 -0.10578094 0.0099459104 1.2279747e-38
-0.0014570206 -0.10578094 0.0099459104 1.2649245e-38
0.00038844161 -0.10649781 0.0069505386 1.3110221e-38
0.0022443924 -0.10721879 0.0039381199 1.3386444e-38
0.0041056257 -0.10649781 0.0069505386 1.3845983e-38
0.0059642177 -0.10649781 0.0069505386 1.4121489e-38
0.0078228097 -0.10649781 0.0069505386 1.4030371e-38
0.0096814018 -0.10649781 0.0069505386 1.4122566e-38
0.011539994 -0.10649781 0.0069505386 1.4215118e-38
0.013398586 -0.10649781 0.0069505386 1.4307313e-38
0.015257179 -0.10649781 0.0069505386 1.4399506e-38
0.017115772 -0.10649781 0.0069505386 1.4399506e-38
0.018974362 -0.10649781 0.0069505386 1.45839e-38
0.020832954 -0.10649781 0.0069505386 1.458426e-38
0.022747006 -0.10721879 0.0039381199 1.4492068e-38
0.024610879 -0.10721879 0.0039381199 1.4031091e-38
0.026474753 -0.10721879 0.0039381199 1.3477561e-38
0.028338628 -0.10721879 0.0039381199 1.3200974e-38
0.030202501 -0.10721879 0.0039381199 1.3293173e-38
0.03217626 -0.10818647 -0.00010522082 1.3386444e-38
0.034047224 -0.10818647 -0.00010522082 1.2649234e-38
0.035918184 -0.10818647 -0.00010522082 1.283362e-38
0.037789151 -0.10818647 -0.00010522082 1.3018011e-38
0.039660111 -0.10818647 -0.00010522082 1.3110209e-38
0.041531079 -0.10818647 -0.00010522082 1.3110209e-38
0.043402039 -0.10818647 -0.00010522082 1.2833625e-38
0.045272999 -0.10818647 -0.00010522082 1.2740351e-38
0.047143966 -0.10818647 -0.00010522082 1.2372647e-38
0.049141191 -0.10888995 -0.0030445643 1.2279374e-38
0.051017307 -0.10888995 -0.0030445643 1.2095703e-38
0.053036049 -0.10962458 -0.0061140843 1.2187901e-38
0.054917544 -0.10962458 -0.0061140843 1.2095706e-38
0.056799047 -0.10962458 -0.0061140843 1.200351e-38
0.058680542 -0.10962458 -0.0061140843 1.1726923e-38
0.060562044 -0.10962458 -0.0061140843 1.1450339e-38
0.06244354 -0.10962458 -0.0061140843 1.1540737e-38
0.064325042 -0.10962458 -0.0061140843 1.2182875e-38
0.066206537 -0.10962458 -0.0061140843 1.2549861e-38
0.068330318 -0.11058317 -0.010119397 1.2549859e-38
0.070218839 -0.11058317 -0.010119397 1.2181077e-38
0.07210736 -0.11058317 -0.010119397 1.181265e-38
0.073995881 -0.11058317 -0.010119397 1.153714e-38
0.076086573 -0.11129995 -0.013114292 1.218143e-38
0.077980347 -0.11129995 -0.013114292 1.255021e-38
0.079874113 -0.11129995 -0.013114292 1.1996673e-38
0.081767887 -0.11129995 -0.013114292 1.2272898e-38
0.083661661 -0.11129995 -0.013114292 1.2364012e-38
0.085555434 -0.11129995 -0.013114292 1.2363649e-38
0.0874492 -0.11129995 -0.013114292 1.2915741e-38
0.089342974 -0.11129995 -0.013114292 1.3652945e-38
0.091236748 -0.11129995 -0.013114292 1.4021008e-38
0.093130521 -0.11129995 -0.013114292 1.3744775e-38
0.095024295 -0.11129995 -0.013114292 1.3837675e-38
0.096918069 -0.11129995 -0.013114292 1.365328e-38
0.098811843 -0.11129995 -0.013114292 1.4022418e-38
0.10070562 -0.11129995 -0.013114292 1.4759983e-38
0.10259937 -0.11129995 -0.013114292 1.4575589e-38
0.10486288 -0.11224325 -0.017055828 1.3744749e-38
0.10705345 -0.11296929 -0.020089466 1.337597e-38
0.10895946 -0.11296929 -0.020089466 1.3836229e-38
0.11086545 -0.11296929 -0.020089466 1.4112096e-38
0.11306714 -0.11367123 -0.023022372 1.420357e-38
0.11497829 -0.11367123 -0.023022372 1.4755659e-38
0.11658346 -0.11296929 -0.020089466 1.3464551e-38
0.11848947 -0.11296929 -0.020089466 9.3153768e-39
-0.11707822 -0.11319371 -0.013114292 1.7244198e-38
-0.11485627 -0.11247168 -0.010119397 1.8443832e-38
-0.11296774 -0.11247168 -0.010119397 1.6876509e-38
-0.11032874 -0.11076607 -0.0030445643 1.0606855e-38
-0.10845263 -0.11076607 -0.0030445643 9.6845474e-39
-0.1058603 -0.10908265 0.0039381199 8.2097859e-39
-0.10238538 -0.10523017 0.019918006 7.7491777e-39
-0.10024931 -0.10449956 0.022948544 5.5379329e-39
-0.098125555 -0.10377313 0.025961678 4.9865682e-39
-0.096014045 -0.10305093 0.028957408 2.3150628e-39
-0.093825169 -0.10210292 0.032889646 1.6722213e-39
-0.09201207 -0.10210292 0.032889646 2.2279216e-39
-0.090554021 -0.10305093 0.028957408 1.5847158e-39
-0.088734008 -0.10305093 0.028957408 1.2177368e-39
-0.08691401 -0.10305093 0.028957408 1.4964873e-39
-0.084759615 -0.10210292 0.032889646 1.4032182e-39
-0.082946502 -0.10210292 0.032889646 2.2304706e-39
-0.081453986 -0.10305093 0.028957408 2.5981755e-39
-0.079633974 -0.10305093 0.028957408 2.7836444e-39
-0.077813976 -0.10305093 0.028957408 2.1389938e-39
-0.075993963 -0.10305093 0.028957408 2.6921648e-39
-0.074173965 -0.10305093 0.028957408 2.8765561e-39
-0.072353952 -0.10305093 0.028957408 3.7063167e-39
-0.070746668 -0.10377313 0.025961678 3.7981522e-39
-0.06892141 -0.10377313 0.025961678 6.4700276e-39
-0.067096151 -0.10377313 0.025961678 7.2075927e-39
-0.065270893 -0.10377313 0.025961678 8.129186e-39
-0.063253917 -0.10305093 0.028957408 8.7745526e-39
-0.061433919 -0.10305093 0.028957408 9.5131911e-39
-0.059795119 -0.10377313 0.025961678 1.0435863e-38
-0.057969861 -0.10377313 0.025961678 1.0990113e-38
-0.056316294 -0.10449956 0.022948544 1.1083026e-38
-0.054485753 -0.10449956 0.022948544 1.0900076e-38
-0.052655213 -0.10449956 0.022948544 1.0623133e-38
-0.050824665 -0.10449956 0.022948544 1.1452172e-38
-0.048994131 -0.10449956 0.022948544 8.5941158e-39
-0.047309704 -0.10523017 0.019918006 8.409726e-39
-0.045473851 -0.10523017 0.019918006 5.3669143e-39
-0.043637998 -0.10523017 0.019918006 5.0903302e-39
-0.041802138 -0.10523017 0.019918006 3.5230073e-39
-0.04008738 -0.10593875 0.016978901 3.5219283e-39
-0.038246371 -0.10593875 0.016978901 2.4155807e-39
-0.036294572 -0.10523017 0.019918006 2.4148618e-39
-0.034458712 -0.10523017 0.019918006 3.3371741e-39
-0.032622859 -0.10523017 0.019918006 3.5215625e-39
-0.030787004 -0.10523017 0.019918006 2.9683888e-39
-0.028951148 -0.10523017 0.019918006 3.4293641e-39
-0.027115291 -0.10523017 0.019918006 4.5364305e-39
-0.025279438 -0.10523017 0.019918006 4.445674e-39
-0.0235183 -0.10593875 0.016978901 5.5523789e-39
-0.021677291 -0.10593875 0.016978901 7.2118975e-39
-0.019836282 -0.10593875 0.016978901 8.7788602e-39
-0.017995274 -0.10593875 0.016978901 1.0252547e-38
-0.016154265 -0.10593875 0.016978901 1.1726232e-38
-0.014313256 -0.10593875 0.016978901 1.292441e-38
-0.012472248 -0.10593875 0.016978901 1.4029664e-38
-0.010684555 -0.10691623 0.012924355 1.3752001e-38
-0.0088364389 -0.10691623 0.012924355 1.4305167e-38
-0.0069883186 -0.10691623 0.012924355 1.495053e-38
-0.0051402021 -0.10691623 0.012924355 1.5687725e-38
-0.0032920837 -0.10691623 0.012924355 1.6240891e-38
-0.0014570206 -0.10763429 0.0099459104 1.6702221e-38
0.00039631873 -0.10763429 0.0099459104 1.7070998e-38
0.0022470336 -0.1083564 0.0069505386 1.7531251e-38
0.0041029993 -0.10763429 0.0099459104 1.7437622e-38
0.0059563406 -0.10763429 0.0099459104 1.7621293e-38
0.00780968 -0.10763429 0.0099459104 1.7529816e-38
0.0096630203 -0.10763429 0.0099459104 1.7622011e-38
0.011539994 -0.1083564 0.0069505386 1.7714205e-38
0.013398586 -0.1083564 0.0069505386 1.7806758e-38
0.015257179 -0.1083564 0.0069505386 1.7806758e-38
0.017115772 -0.1083564 0.0069505386 1.7898952e-38
0.018974362 -0.1083564 0.0069505386 1.7714564e-38
0.020883132 -0.10908265 0.0039381199 1.7898593e-38
0.022747006 -0.10908265 0.0039381199 1.789967e-38
0.024610879 -0.10908265 0.0039381199 1.7715281e-38
0.026474753 -0.10908265 0.0039381199 1.7346145e-38
0.028338628 -0.10908265 0.0039381199 1.7253951e-38
0.030202501 -0.10908265 0.0039381199 1.743834e-38
0.032066375 -0.10908265 0.0039381199 1.7715281e-38
0.034047224 -0.11005743 -0.00010522082 1.6885889e-38
0.035918184 -0.11005743 -0.00010522082 1.6979157e-38
0.037789151 -0.11005743 -0.00010522082 1.7163548e-38
0.039660111 -0.11005743 -0.00010522082 1.7347939e-38
0.041531079 -0.11005743 -0.00010522082 1.7531251e-38
0.043402039 -0.11005743 -0.00010522082 1.7439057e-38
0.045272999 -0.11005743 -0.00010522082 1.7254669e-38
0.047143966 -0.11005743 -0.00010522082 1.7162473e-38
0.049014926 -0.11005743 -0.00010522082 1.707028e-38
0.051017307 -0.11076607 -0.0030445643 1.7162474e-38
0.05289343 -0.11076607 -0.0030445643 1.7162474e-38
0.054769546 -0.11076607 -0.0030445643 1.7162474e-38
0.056799047 -0.11150609 -0.0061140843 1.7253592e-38
0.058680542 -0.11150609 -0.0061140843 1.6885892e-38
0.060562044 -0.11150609 -0.0061140843 1.6792617e-38
0.06244354 -0.11150609 -0.0061140843 1.6791902e-38
0.064325042 -0.11150609 -0.0061140843 1.6974499e-38
0.066206537 -0.11150609 -0.0061140843 1.7064899e-38
0.068330318 -0.11247168 -0.010119397 1.6511728e-38
0.070218839 -0.11247168 -0.010119397 1.5590848e-38
0.07210736 -0.11247168 -0.010119397 1.5128791e-38
0.073995881 -0.11247168 -0.010119397 1.485328e-38
0.075884402 -0.11247168 -0.010119397 1.5497927e-38
0.07777293 -0.11247168 -0.010119397 1.6051099e-38
0.079874113 -0.11319371 -0.013114292 1.6787945e-38
0.081767887 -0.11319371 -0.013114292 1.7156365e-38
0.083661661 -0.11319371 -0.013114292 1.7340033e-38
0.085555434 -0.11319371 -0.013114292 1.7339311e-38
0.0874492 -0.11319371 -0.013114292 1.7799566e-38
0.089342974 -0.11319371 -0.013114292 1.8352379e-38
0.091236748 -0.11319371 -0.013114292 1.8628247e-38
0.093130521 -0.11319371 -0.013114292 1.8536404e-38
0.095024295 -0.11319371 -0.013114292 1.8167973e-38
0.096918069 -0.11319371 -0.013114292 1.8075772e-38
0.098811843 -0.11319371 -0.013114292 1.8444555e-38
0.10070562 -0.11319371 -0.013114292 1.8905533e-38
0.10259937 -0.11319371 -0.013114292 1.8721141e-38
0.10449315 -0.11319371 -0.013114292 1.8167968e-38
0.10705345 -0.1148753 -0.020089466 1.8167247e-38
0.10895946 -0.1148753 -0.020089466 1.8351639e-38
0.11086545 -0.1148753 -0.020089466 1.7797746e-38
0.11306714 -0.11558239 -0.023022372 1.7796664e-38
0.11497829 -0.11558239 -0.023022372 1.7519713e-38
0.11658346 -0.1148753 -0.020089466 1.5214457e-38
0.11848947 -0.1148753 -0.020089466 1.0144049e-38
-0.11707822 -0.11508749 -0.013114292 1.8534924e-38
-0.11485627 -0.1143602 -0.010119397 1.7705531e-38
-0.11296774 -0.1143602 -0.010119397 1.7152005e-38
-0.11032874 -0.11264218 -0.0030445643 1.3280157e-38
-0.10845263 -0.11264218 -0.0030445643 1.2634802e-38
-0.1058603 -0.11094652 0.0039381199 7.2878296e-39
-0.10238538 -0.10706602 0.019918006 6.6431959e-39
-0.10024931 -0.10633011 0.022948544 7.1971039e-39
-0.098125555 -0.10559841 0.025961678 6.0922109e-39
-0.096014045 -0.10487093 0.028957408 2.9597287e-39
-0.094194032 -0.10487093 0.028957408 2.5009226e-39
-0.092374019 -0.10487093 0.028957408 2.9637098e-39
-0.090554021 -0.10487093 0.028957408 1.7673316e-39
-0.088734008 -0.10487093 0.028957408 1.6772982e-39
-0.08691401 -0.10487093 0.028957408 2.5074246e-39
-0.084759615 -0.10391603 0.032889646 1.7698596e-39
-0.082946502 -0.10391603 0.032889646 2.5070617e-39
-0.081133388 -0.10391603 0.032889646 2.8747624e-39
-0.079320274 -0.10391603 0.032889646 2.138275e-39
-0.077507161 -0.10391603 0.032889646 1.9546026e-39
-0.075694047 -0.10391603 0.032889646 1.8624041e-39
-0.074173965 -0.10487093 0.028957408 3.5222814e-39
-0.072353952 -0.10487093 0.028957408 4.7201029e-39
-0.070746668 -0.10559841 0.025961678 5.917207e-39
-0.06892141 -0.10559841 0.025961678 7.2065053e-39
-0.067096151 -0.10559841 0.025961678 8.2199355e-39
-0.065270893 -0.10559841 0.025961678 9.4184787e-39
-0.063253917 -0.10487093 0.028957408 1.015676e-38
-0.061433919 -0.10487093 0.028957408 1.0803564e-38
-0.059795119 -0.10559841 0.025961678 1.1357817e-38
-0.057969861 -0.10559841 0.025961678 1.1451809e-38
-0.056144603 -0.10559841 0.025961678 1.1084467e-38
-0.054319337 -0.10559841 0.025961678 1.1729472e-38
-0.052494079 -0.10559841 0.025961678 1.108483e-38
-0.050668821 -0.10559841 0.025961678 1.1452889e-38
-0.048994131 -0.10633011 0.022948544 8.9632599e-39
-0.047163583 -0.10633011 0.022948544 8.9625438e-39
-0.045333043 -0.10633011 0.022948544 6.4732646e-39
-0.043502502 -0.10633011 0.022948544 6.2877972e-39
-0.041802138 -0.10706602 0.019918006 4.8126671e-39
-0.04008738 -0.10777976 0.016978901 4.9963395e-39
-0.038130425 -0.10706602 0.019918006 4.5353613e-39
-0.036294572 -0.10706602 0.019918006 4.5346383e-39
-0.034458712 -0.10706602 0.019918006 4.7190267e-39
-0.032622859 -0.10706602 0.019918006 4.8108594e-39
-0.030787004 -0.10706602 0.019918006 4.810858e-39
-0.028951148 -0.10706602 0.019918006 5.548779e-39
-0.027115291 -0.10706602 0.019918006 6.4707297e-39
-0.025279438 -0.10706602 0.019918006 7.5770688e-39
-0.0235183 -0.10777976 0.016978901 8.4068239e-39
-0.021677291 -0.10777976 0.016978901 9.8812295e-39
-0.019836282 -0.10777976 0.016978901 1.1263798e-38
-0.017995274 -0.10777976 0.016978901 1.2460898e-38
-0.016154265 -0.10777976 0.016978901 1.3289573e-38
-0.014313256 -0.10777976 0.016978901 1.38413e-38
-0.012472248 -0.10777976 0.016978901 1.4209357e-38
-0.010684555 -0.10876434 0.012924355 1.6144741e-38
-0.0088364389 -0.10876434 0.012924355 1.6605352e-38
-0.0069883186 -0.10876434 0.012924355 1.7249998e-38
-0.0051402021 -0.10876434 0.012924355 1.7710252e-38
-0.0032920837 -0.10876434 0.012924355 1.8079389e-38
-0.0014439654 -0.10876434 0.012924355 1.8356332e-38
0.00039631873 -0.10948761 0.0099459104 1.8724395e-38
0.00224966 -0.10948761 0.0099459104 1.89999e-38
0.0041029993 -0.10948761 0.0099459104 1.9460514e-38
0.0059563406 -0.10948761 0.0099459104 1.9643826e-38
0.00780968 -0.10948761 0.0099459104 1.9643826e-38
0.0096630203 -0.10948761 0.0099459104 1.9644185e-38
0.011516361 -0.10948761 0.0099459104 1.9736379e-38
0.013398586 -0.11021499 0.0069505386 1.9736378e-38
0.015257179 -0.11021499 0.0069505386 1.9736378e-38
0.017115772 -0.11021499 0.0069505386 1.9736375e-38
0.018974362 -0.11021499 0.0069505386 1.9459788e-38
0.020883132 -0.11094652 0.0039381199 1.9736378e-38
0.022747006 -0.11094652 0.0039381199 2.0012962e-38
0.024610879 -0.11094652 0.0039381199 2.0012962e-38
0.026474753 -0.11094652 0.0039381199 1.9828574e-38
0.028338628 -0.11094652 0.0039381199 1.9736021e-38
0.030202501 -0.11094652 0.0039381199 1.9920409e-38
0.032066375 -0.11094652 0.0039381199 1.9921485e-38
0.034047224 -0.11192839 -0.00010522082 1.9553416e-38
0.035918184 -0.11192839 -0.00010522082 1.9645608e-38
0.037789151 -0.11192839 -0.00010522082 1.9737803e-38
0.039660111 -0.11192839 -0.00010522082 1.9829999e-38
0.041531079 -0.11192839 -0.00010522082 1.9922197e-38
0.043402039 -0.11192839 -0.00010522082 1.9922197e-38
0.045272999 -0.11192839 -0.00010522082 2.0013314e-38
0.047143966 -0.11192839 -0.00010522082 2.0013314e-38
0.049014926 -0.11192839 -0.00010522082 1.9828924e-38
0.051017307 -0.11264218 -0.0030445643 1.9828924e-38
0.05289343 -0.11264218 -0.0030445643 1.992112e-38
0.054769546 -0.11264218 -0.0030445643 1.9921122e-38
0.056799047 -0.11338757 -0.0061140843 2.0012599e-38
0.058680542 -0.11338757 -0.0061140843 1.9736731e-38
0.060562044 -0.11338757 -0.0061140843 1.9736012e-38
0.06244354 -0.11338757 -0.0061140843 1.9551984e-38
0.064325042 -0.11338757 -0.0061140843 1.9644185e-38
0.066206537 -0.11338757 -0.0061140843 1.9459437e-38
0.06808804 -0.11338757 -0.0061140843 1.8906263e-38
0.069969535 -0.11338757 -0.0061140843 1.7985384e-38
0.071851037 -0.11338757 -0.0061140843 1.7523686e-38
0.073995881 -0.1143602 -0.010119397 1.7155979e-38
0.075884402 -0.1143602 -0.010119397 1.752368e-38
0.07777293 -0.1143602 -0.010119397 1.7800623e-38
0.079874113 -0.11508749 -0.013114292 1.8076491e-38
0.081767887 -0.11508749 -0.013114292 1.8537106e-38
0.083661661 -0.11508749 -0.013114292 1.8997004e-38
0.085555434 -0.11508749 -0.013114292 1.8996641e-38
0.0874492 -0.11508749 -0.013114292 1.9272505e-38
0.089342974 -0.11508749 -0.013114292 1.9640568e-38
0.091236748 -0.11508749 -0.013114292 1.9732764e-38
0.093130521 -0.11508749 -0.013114292 1.9824238e-38
0.095024295 -0.11508749 -0.013114292 1.9364336e-38
0.096918069 -0.11508749 -0.013114292 1.9456532e-38
0.098811843 -0.11508749 -0.013114292 1.9640923e-38
0.10070562 -0.11508749 -0.013114292 1.9732761e-38
0.10259937 -0.11508749 -0.013114292 1.9456174e-38
0.10449315 -0.11508749 -0.013114292 1.9087392e-38
0.10676356 -0.11604463 -0.017055828 1.8810805e-38
0.10866425 -0.11604463 -0.017055828 1.8994477e-38
0.11086545 -0.11678131 -0.020089466 1.8810443e-38
0.11306714 -0.11749353 -0.023022372 1.9178144e-38
0.11497829 -0.11749353 -0.023022372 1.8994109e-38
0.11658346 -0.11678131 -0.020089466 1.6320071e-38
0.11848947 -0.11678131 -0.020089466 1.1710284e-38
-0.10391039 -0.10816063 0.022948544 8.2105048e-39
-0.10207985 -0.10816063 0.022948544 7.2892884e-39
-0.099950813 -0.10742365 0.025961678 7.0134372e-39
-0.097834043 -0.10669093 0.028957408 5.1709805e-39
-0.095638283 -0.10572915 0.032889646 2.4991191e-39
-0.093825169 -0.10572915 0.032889646 2.4083766e-39
-0.09201207 -0.10572915 0.032889646 3.0548363e-39
-0.090198956 -0.10572915 0.032889646 1.8584553e-39
-0.088385843 -0.10572915 0.032889646 2.4127151e-39
-0.086572729 -0.10572915 0.032889646 3.6119799e-39
-0.084759615 -0.10572915 0.032889646 2.5978252e-39
-0.082946502 -0.10572915 0.032889646 3.0587893e-39
-0.081133388 -0.10572915 0.032889646 3.7967075e-39
-0.079320274 -0.10572915 0.032889646 3.1520569e-39
-0.077507161 -0.10572915 0.032889646 4.0740118e-39
-0.075694047 -0.10572915 0.032889646 3.6141099e-39
-0.074173965 -0.10669093 0.028957408 6.1948645e-39
-0.072353952 -0.10669093 0.028957408 7.3001288e-39
-0.070746668 -0.10742365 0.025961678 8.8660126e-39
-0.068713941 -0.10669093 0.028957408 1.0431175e-38
-0.066893928 -0.10669093 0.028957408 1.1628995e-38
-0.06507393 -0.10669093 0.028957408 1.2735342e-38
-0.063253917 -0.10669093 0.028957408 1.3289594e-38
-0.061433919 -0.10669093 0.028957408 1.3475064e-38
-0.059795119 -0.10742365 0.025961678 1.3201351e-38
-0.057969861 -0.10742365 0.025961678 1.283365e-38
-0.056144603 -0.10742365 0.025961678 1.2189724e-38
-0.054319337 -0.10742365 0.025961678 1.1451806e-38
-0.052494079 -0.10742365 0.025961678 1.080644e-38
-0.050668821 -0.10742365 0.025961678 1.0990831e-38
-0.048994131 -0.10816063 0.022948544 9.5149833e-39
-0.047163583 -0.10816063 0.022948544 9.606823e-39
-0.045333043 -0.10816063 0.022948544 7.8540299e-39
-0.043502502 -0.10816063 0.022948544 7.3926916e-39
-0.041802138 -0.10890187 0.019918006 6.2856252e-39
-0.039966285 -0.10890187 0.019918006 7.2997771e-39
-0.038130425 -0.10890187 0.019918006 8.0362603e-39
-0.036294572 -0.10890187 0.019918006 8.6812654e-39
-0.034458712 -0.10890187 0.019918006 9.2337161e-39
-0.032622859 -0.10890187 0.019918006 9.8787198e-39
-0.030787004 -0.10890187 0.019918006 1.0892869e-38
-0.028951148 -0.10890187 0.019918006 1.1999574e-38
-0.027115291 -0.10890187 0.019918006 1.2828966e-38
-0.025279438 -0.10890187 0.019918006 1.4303006e-38
-0.0235183 -0.10962076 0.016978901 1.5224235e-38
-0.021677291 -0.10962076 0.016978901 1.6514604e-38
-0.019836282 -0.10962076 0.016978901 1.8081547e-38
-0.017995274 -0.10962076 0.016978901 1.9555578e-38
-0.016228909 -0.11061247 0.012924355 2.056828e-38
-0.014380792 -0.11061247 0.012924355 2.112001e-38
-0.012532672 -0.11061247 0.012924355 2.1211846e-38
-0.010684555 -0.11061247 0.012924355 2.1948323e-38
-0.0088364389 -0.11061247 0.012924355 2.2132353e-38
-0.0069883186 -0.11061247 0.012924355 2.2499695e-38
-0.0051402021 -0.11061247 0.012924355 2.2499695e-38
-0.0032920837 -0.11061247 0.012924355 2.2591531e-38
-0.0014439654 -0.11061247 0.012924355 2.2591531e-38
0.00039631873 -0.11134095 0.0099459104 2.2591531e-38
0.00224966 -0.11134095 0.0099459104 2.2775202e-38
0.0041029993 -0.11134095 0.0099459104 2.2867037e-38
0.0059563406 -0.11134095 0.0099459104 2.2958873e-38
0.00780968 -0.11134095 0.0099459104 2.2958873e-38
0.0096630203 -0.11134095 0.0099459104 2.2958873e-38
0.011516361 -0.11134095 0.0099459104 2.2958873e-38
0.013398586 -0.11207359 0.0069505386 2.2958873e-38
0.015257179 -0.11207359 0.0069505386 2.2958873e-38
0.017115772 -0.11207359 0.0069505386 2.2958873e-38
0.019019257 -0.11281042 0.0039381199 2.2958873e-38
0.020883132 -0.11281042 0.0039381199 2.2958873e-38
0.022747006 -0.11281042 0.0039381199 2.2958873e-38
0.024610879 -0.11281042 0.0039381199 2.2958873e-38
0.026474753 -0.11281042 0.0039381199 2.2958873e-38
0.028338628 -0.11281042 0.0039381199 2.2958873e-38
0.030202501 -0.11281042 0.0039381199 2.2958873e-38
0.03217626 -0.11379938 -0.00010522082 2.2958873e-38
0.034047224 -0.11379938 -0.00010522082 2.2958873e-38
0.035918184 -0.11379938 -0.00010522082 2.2867037e-38
0.037789151 -0.11379938 -0.00010522082 2.2867037e-38
0.039660111 -0.11379938 -0.00010522082 2.2867037e-38
0.041531079 -0.11379938 -0.00010522082 2.2958873e-38
0.043402039 -0.11379938 -0.00010522082 2.2958873e-38
0.045272999 -0.11379938 -0.00010522082 2.2958873e-38
0.047143966 -0.11379938 -0.00010522082 2.2958873e-38
0.049014926 -0.11379938 -0.00010522082 2.3050349e-38
0.051017307 -0.1145183 -0.0030445643 2.3142544e-38
0.05289343 -0.1145183 -0.0030445643 2.3142544e-38
0.054769546 -0.1145183 -0.0030445643 2.3142544e-38
0.056799047 -0.11526908 -0.0061140843 2.323402e-38
0.058680542 -0.11526908 -0.0061140843 2.323402e-38
0.060562044 -0.11526908 -0.0061140843 2.323402e-38
0.06244354 -0.11526908 -0.0061140843 2.3050349e-38
0.064325042 -0.11526908 -0.0061140843 2.2867037e-38
0.066206537 -0.11526908 -0.0061140843 2.2591531e-38
0.06808804 -0.11526908 -0.0061140843 2.2591531e-38
0.069969535 -0.11526908 -0.0061140843 2.2591531e-38
0.071851037 -0.11526908 -0.0061140843 2.2316024e-38
0.073732533 -0.11526908 -0.0061140843 2.1947247e-38
0.075884402 -0.11624874 -0.010119397 2.1762859e-38
0.07777293 -0.11624874 -0.010119397 2.1671019e-38
0.079874113 -0.11698125 -0.013114292 2.203872e-38
0.081767887 -0.11698125 -0.013114292 2.2407142e-38
0.083661661 -0.11698125 -0.013114292 2.2867037e-38
0.085555434 -0.11698125 -0.013114292 2.3142544e-38
0.0874492 -0.11698125 -0.013114292 2.3142544e-38
0.089342974 -0.11698125 -0.013114292 2.3142542e-38
0.091236748 -0.11698125 -0.013114292 2.341805e-38
0.093130521 -0.11698125 -0.013114292 2.341805e-38
0.095024295 -0.11698125 -0.013114292 2.3234379e-38
0.096918069 -0.11698125 -0.013114292 2.3142544e-38
0.098811843 -0.11698125 -0.013114292 2.3234379e-38
0.10070562 -0.11698125 -0.013114292 2.3050708e-38
0.10259937 -0.11698125 -0.013114292 2.2681214e-38
0.10449315 -0.11698125 -0.013114292 2.1852173e-38
0.10676356 -0.11794533 -0.017055828 2.1390476e-38
0.10866425 -0.11794533 -0.017055828 2.1206082e-38
0.11086545 -0.11868732 -0.020089466 2.056107e-38
0.11306714 -0.11940466 -0.023022372 2.0837654e-38
0.11497829 -0.11940466 -0.023022372 2.0836931e-38
0.11658346 -0.11868732 -0.020089466 1.7149103e-38
0.11848947 -0.11868732 -0.020089466 1.2631515e-38
-0.10360134 -0.10924892 0.025961678 9.8707422e-39
-0.10177609 -0.10924892 0.025961678 7.6598659e-39
-0.099654056 -0.10851096 0.028957408 6.1851142e-39
-0.097834043 -0.10851096 0.028957408 4.8039959e-39
-0.095638283 -0.10754226 0.032889646 3.237403e-39
-0.093825169 -0.10754226 0.032889646 3.4228845e-39
-0.09201207 -0.10754226 0.032889646 3.7927544e-39
-0.090198956 -0.10754226 0.032889646 3.1477508e-39
-0.088385843 -0.10754226 0.032889646 3.8860375e-39
-0.086572729 -0.10754226 0.032889646 4.9009111e-39
-0.084759615 -0.10754226 0.032889646 4.1636977e-39
-0.082946502 -0.10754226 0.032889646 3.6094282e-39
-0.081133388 -0.10754226 0.032889646 4.7164834e-39
-0.079320274 -0.10754226 0.032889646 4.5328124e-39
-0.077507161 -0.10754226 0.032889646 5.7324304e-39
-0.075694047 -0.10754226 0.032889646 5.732429e-39
-0.074173965 -0.10851096 0.028957408 8.221348e-39
-0.072353952 -0.10851096 0.028957408 9.5099232e-39
-0.070533939 -0.10851096 0.028957408 1.1259474e-38
-0.068713941 -0.10851096 0.028957408 1.3101223e-38
-0.066893928 -0.10851096 0.028957408 1.4298325e-38
-0.06507393 -0.10851096 0.028957408 1.5220638e-38
-0.063253917 -0.10851096 0.028957408 1.5405749e-38
-0.061433919 -0.10851096 0.028957408 1.5039483e-38
-0.059795119 -0.10924892 0.025961678 1.4580307e-38
-0.057969861 -0.10924892 0.025961678 1.3477198e-38
-0.056144603 -0.10924892 0.025961678 1.2832192e-38
-0.054319337 -0.10924892 0.025961678 1.3016589e-38
-0.052494079 -0.10924892 0.025961678 1.2186472e-38
-0.050668821 -0.10924892 0.025961678 1.1909885e-38
-0.048994131 -0.10999118 0.022948544 1.1079407e-38
-0.047163583 -0.10999118 0.022948544 1.144711e-38
-0.045333043 -0.10999118 0.022948544 1.0524438e-38
-0.043502502 -0.10999118 0.022948544 1.0431882e-38
-0.041802138 -0.11073773 0.019918006 1.0062021e-38
-0.039966285 -0.11073773 0.019918006 9.1397002e-39
-0.038130425 -0.11073773 0.019918006 1.033752e-38
-0.036294572 -0.11073773 0.019918006 1.1534979e-38
-0.034458712 -0.11073773 0.019918006 1.2179624e-38
-0.032622859 -0.11073773 0.019918006 1.2916823e-38
-0.030787004 -0.11073773 0.019918006 1.4115721e-38
-0.028951148 -0.11073773 0.019918006 1.5220987e-38
-0.027115291 -0.11073773 0.019918006 1.5681598e-38
-0.025279438 -0.11073773 0.019918006 1.7616617e-38
-0.0235183 -0.11146177 0.016978901 1.8077231e-38
-0.021677291 -0.11146177 0.016978901 1.909066e-38
-0.019836282 -0.11146177 0.016978901 2.0288827e-38
-0.017995274 -0.11146177 0.016978901 2.1394799e-38
-0.016154265 -0.11146177 0.016978901 2.2407501e-38
-0.014313256 -0.11146177 0.016978901 2.2775202e-38
-0.012532672 -0.11246057 0.012924355 2.2958873e-38
-0.010684555 -0.11246057 0.012924355 2.2958873e-38
-0.0088364389 -0.11246057 0.012924355 2.3142544e-38
-0.0069883186 -0.11246057 0.012924355 2.3234379e-38
-0.0051402021 -0.11246057 0.012924355 2.3234379e-38
-0.0032920837 -0.11246057 0.012924355 2.3234379e-38
-0.0014439654 -0.11246057 0.012924355 2.3234379e-38
0.00040415302 -0.11246057 0.012924355 2.3234379e-38
0.00224966 -0.1131943 0.0099459104 2.3234379e-38
0.0041029993 -0.1131943 0.0099459104 2.341805e-38
0.0059563406 -0.1131943 0.0099459104 2.3509527e-38
0.00780968 -0.1131943 0.0099459104 2.3509527e-38
0.0096630203 -0.1131943 0.0099459104 2.3509886e-38
0.011539994 -0.11393218 0.0069505386 2.341769e-38
0.013398586 -0.11393218 0.0069505386 2.341769e-38
0.015257179 -0.11393218 0.0069505386 2.3509523e-38
0.017115772 -0.11393218 0.0069505386 2.3509523e-38
0.019019257 -0.11467429 0.0039381199 2.3417327e-38
0.020883132 -0.11467429 0.0039381199 2.3509523e-38
0.022747006 -0.11467429 0.0039381199 2.3509527e-38
0.024610879 -0.11467429 0.0039381199 2.3509527e-38
0.026474753 -0.11467429 0.0039381199 2.3509168e-38
0.028434332 -0.11567034 -0.00010522082 2.3324778e-38
0.030305296 -0.11567034 -0.00010522082 2.3232585e-38
0.03217626 -0.11567034 -0.00010522082 2.314075e-38
0.034047224 -0.11567034 -0.00010522082 2.3509527e-38
0.035918184 -0.11567034 -0.00010522082 2.3509527e-38
0.037789151 -0.11567034 -0.00010522082 2.3325138e-38
0.039660111 -0.11567034 -0.00010522082 2.3232944e-38
0.041531079 -0.11567034 -0.00010522082 2.3324421e-38
0.043402039 -0.11567034 -0.00010522082 2.3324421e-38
0.045272999 -0.11567034 -0.00010522082 2.3324421e-38
0.047265075 -0.11639442 -0.0030445643 2.3324421e-38
0.049141191 -0.11639442 -0.0030445643 2.3507733e-38
0.051017307 -0.11639442 -0.0030445643 2.3507733e-38
0.05289343 -0.11639442 -0.0030445643 2.3508092e-38
0.054769546 -0.11639442 -0.0030445643 2.3508092e-38
0.056799047 -0.11715056 -0.0061140843 2.3508092e-38
0.058680542 -0.11715056 -0.0061140843 2.3508092e-38
0.060562044 -0.11715056 -0.0061140843 2.3508092e-38
0.06244354 -0.11715056 -0.0061140843 2.3508451e-38
0.064325042 -0.11715056 -0.0061140843 2.3049273e-38
0.066206537 -0.11715056 -0.0061140843 2.3050708e-38
0.06808804 -0.11715056 -0.0061140843 2.3142544e-38
0.069969535 -0.11715056 -0.0061140843 2.2958873e-38
0.071851037 -0.11715056 -0.0061140843 2.2958873e-38
0.073732533 -0.11715056 -0.0061140843 2.2867036e-38
0.075884402 -0.11813726 -0.010119397 2.2591166e-38
0.07777293 -0.11813726 -0.010119397 2.2498968e-38
0.079661451 -0.11813726 -0.010119397 2.2406772e-38
0.081767887 -0.11887501 -0.013114292 2.2774832e-38
0.083661661 -0.11887501 -0.013114292 2.3142537e-38
0.085555434 -0.11887501 -0.013114292 2.3418045e-38
0.0874492 -0.11887501 -0.013114292 2.3509879e-38
0.089342974 -0.11887501 -0.013114292 2.3509879e-38
0.091236748 -0.11887501 -0.013114292 2.3509879e-38
0.093130521 -0.11887501 -0.013114292 2.3509879e-38
0.095024295 -0.11887501 -0.013114292 2.3418047e-38
0.096918069 -0.11887501 -0.013114292 2.3234379e-38
0.098811843 -0.11887501 -0.013114292 2.341805e-38
0.10070562 -0.11887501 -0.013114292 2.3234379e-38
0.10259937 -0.11887501 -0.013114292 2.2772686e-38
0.10486288 -0.119846 -0.017055828 2.1390474e-38
0.10676356 -0.119846 -0.017055828 2.0836578e-38
0.10866425 -0.119846 -0.017055828 2.074438e-38
0.11086545 -0.12059332 -0.020089466 2.1113518e-38
0.11347186 -0.12230472 -0.027036745 2.1758885e-38
0.11497829 -0.12131582 -0.023022372 2.1666686e-38
0.11658346 -0.12059332 -0.020089466 1.7333849e-38
0.11848947 -0.12059332 -0.020089466 1.3001375e-38
-0.10360134 -0.11107419 0.025961678 1.2637689e-38
-0.10177609 -0.11107419 0.025961678 8.9513208e-39
-0.099654056 -0.11033095 0.028957408 6.0025166e-39
-0.097834043 -0.11033095 0.028957408 5.8192184e-39
-0.095638283 -0.10935538 0.032889646 5.5437217e-39
-0.093825169 -0.10935538 0.032889646 5.6370047e-39
-0.09201207 -0.10935538 0.032889646 5.6373705e-39
-0.090198956 -0.10935538 0.032889646 5.5451748e-39
-0.088385843 -0.10935538 0.032889646 6.0068719e-39
-0.086572729 -0.10935538 0.032889646 6.5596883e-39
-0.084759615 -0.10935538 0.032889646 6.5596799e-39
-0.082946502 -0.10935538 0.032889646 7.8493257e-39
-0.081133388 -0.10935538 0.032889646 9.0475018e-39
-0.079320274 -0.10935538 0.032889646 9.7857829e-39
-0.077507161 -0.10935538 0.032889646 1.0801014e-38
-0.075694047 -0.10935538 0.032889646 1.1538576e-38
-0.073880948 -0.10935538 0.032889646 1.3842382e-38
-0.072067834 -0.10935538 0.032889646 1.5684487e-38
-0.070254721 -0.10935538 0.032889646 1.7249288e-38
-0.068441607 -0.10935538 0.032889646 1.8906631e-38
-0.066893928 -0.11033095 0.028957408 1.9734944e-38
-0.06507393 -0.11033095 0.028957408 2.0287392e-38
-0.063002266 -0.10935538 0.032889646 1.992005e-38
-0.061189152 -0.10935538 0.032889646 1.9092813e-38
-0.059613906 -0.11033095 0.028957408 1.8173382e-38
-0.057793893 -0.11033095 0.028957408 1.6977727e-38
-0.056144603 -0.11107419 0.025961678 1.6240887e-38
-0.054319337 -0.11107419 0.025961678 1.5595161e-38
-0.052494079 -0.11107419 0.025961678 1.4765403e-38
-0.050668821 -0.11107419 0.025961678 1.4303709e-38
-0.048994131 -0.11182173 0.022948544 1.4027122e-38
-0.047163583 -0.11182173 0.022948544 1.4762891e-38
-0.045333043 -0.11182173 0.022948544 1.5039118e-38
-0.043502502 -0.11182173 0.022948544 1.5867798e-38
-0.041671954 -0.11182173 0.022948544 1.641953e-38
-0.039966285 -0.11257361 0.019918006 1.8263065e-38
-0.038130425 -0.11257361 0.019918006 1.9184649e-38
-0.036180332 -0.11182173 0.022948544 2.0289545e-38
-0.034349784 -0.11182173 0.022948544 2.0657604e-38
-0.032519244 -0.11182173 0.022948544 2.1026022e-38
-0.030688701 -0.11182173 0.022948544 2.1671023e-38
-0.028951148 -0.11257361 0.019918006 2.1947965e-38
-0.02702762 -0.11182173 0.022948544 2.2039441e-38
-0.025197076 -0.11182173 0.022948544 2.2591531e-38
-0.0235183 -0.11330278 0.016978901 2.2775202e-38
-0.021677291 -0.11330278 0.016978901 2.2867037e-38
-0.019836282 -0.11330278 0.016978901 2.2958873e-38
-0.017995274 -0.11330278 0.016978901 2.3142544e-38
-0.016154265 -0.11330278 0.016978901 2.3234379e-38
-0.014313256 -0.11330278 0.016978901 2.341805e-38
-0.012532672 -0.1143087 0.012924355 2.3509886e-38
-0.010684555 -0.1143087 0.012924355 2.3325494e-38
-0.0088364389 -0.1143087 0.012924355 2.3417687e-38
-0.0069883186 -0.1143087 0.012924355 2.3417687e-38
-0.0051402021 -0.1143087 0.012924355 2.3418043e-38
-0.0032920837 -0.1143087 0.012924355 2.3325847e-38
-0.0014439654 -0.1143087 0.012924355 2.3325847e-38
0.00040415302 -0.1143087 0.012924355 2.3326208e-38
0.00224966 -0.11504765 0.0099459104 2.3418047e-38
0.0041029993 -0.11504765 0.0099459104 2.3509886e-38
0.0059563406 -0.11504765 0.0099459104 2.3509527e-38
0.00780968 -0.11504765 0.0099459104 2.3509527e-38
0.0096630203 -0.11504765 0.0099459104 2.3509883e-38
0.011539994 -0.11579077 0.0069505386 2.3509883e-38
0.013398586 -0.11579077 0.0069505386 2.350988e-38
0.015257179 -0.11579077 0.0069505386 2.3509879e-38
0.017155383 -0.11653815 0.0039381199 2.3509879e-38
0.019019257 -0.11653815 0.0039381199 2.3509879e-38
0.020883132 -0.11653815 0.0039381199 2.3509879e-38
0.022747006 -0.11653815 0.0039381199 2.3509521e-38
0.024610879 -0.11653815 0.0039381199 2.3509521e-38
0.026474753 -0.11653815 0.0039381199 2.3509524e-38
0.028434332 -0.1175413 -0.00010522082 2.3509524e-38
0.030305296 -0.1175413 -0.00010522082 2.3509527e-38
0.03217626 -0.1175413 -0.00010522082 2.3509527e-38
0.034047224 -0.1175413 -0.00010522082 2.3509527e-38
0.035918184 -0.1175413 -0.00010522082 2.3509527e-38
0.037789151 -0.1175413 -0.00010522082 2.3509527e-38
0.039660111 -0.1175413 -0.00010522082 2.3509168e-38
0.041531079 -0.1175413 -0.00010522082 2.3509168e-38
0.043402039 -0.1175413 -0.00010522082 2.3509168e-38
0.045388959 -0.11827053 -0.0030445643 2.3508809e-38
0.047265075 -0.11827053 -0.0030445643 2.3508809e-38
0.049141191 -0.11827053 -0.0030445643 2.3508809e-38
0.051017307 -0.11827053 -0.0030445643 2.3508809e-38
0.053036049 -0.11903207 -0.0061140843 2.3508451e-38
0.054917544 -0.11903207 -0.0061140843 2.3508451e-38
0.056799047 -0.11903207 -0.0061140843 2.3508451e-38
0.058680542 -0.11903207 -0.0061140843 2.3508451e-38
0.060562044 -0.11903207 -0.0061140843 2.3508092e-38
0.06244354 -0.11903207 -0.0061140843 2.3508809e-38
0.064325042 -0.11903207 -0.0061140843 2.3509527e-38
0.066206537 -0.11903207 -0.0061140843 2.3418047e-38
0.06808804 -0.11903207 -0.0061140843 2.3418047e-38
0.069969535 -0.11903207 -0.0061140843 2.332621e-38
0.071851037 -0.11903207 -0.0061140843 2.3326208e-38
0.073732533 -0.11903207 -0.0061140843 2.3142537e-38
0.075884402 -0.12002577 -0.010119397 2.3234374e-38
0.07777293 -0.12002577 -0.010119397 2.3234374e-38
0.079661451 -0.12002577 -0.010119397 2.2681917e-38
0.081767887 -0.1207688 -0.013114292 2.2680838e-38
0.083661661 -0.1207688 -0.013114292 2.2957065e-38
0.085555434 -0.1207688 -0.013114292 2.3417324e-38
0.0874492 -0.1207688 -0.013114292 2.3509879e-38
0.089342974 -0.1207688 -0.013114292 2.3509518e-38
0.091236748 -0.1207688 -0.013114292 2.35088e-38
0.093130521 -0.1207688 -0.013114292 2.3509158e-38
0.095024295 -0.1207688 -0.013114292 2.350988e-38
0.096918069 -0.1207688 -0.013114292 2.2865232e-38
0.098811843 -0.1207688 -0.013114292 2.2957431e-38
0.10070562 -0.1207688 -0.013114292 2.341805e-38
0.10259937 -0.1207688 -0.013114292 2.2957078e-38
0.10486288 -0.12174667 -0.017055828 2.1297556e-38
0.10705345 -0.1224993 -0.020089466 2.0652184e-38
0.10895946 -0.1224993 -0.020089466 2.1113518e-38
0.11086545 -0.1224993 -0.020089466 2.0099363e-38
0.11306714 -0.12322696 -0.023022372 2.0930199e-38
0.11497829 -0.12322696 -0.023022372 2.1114946e-38
0.11658346 -0.1224993 -0.020089466 1.6873947e-38
0.11848947 -0.1224993 -0.020089466 1.3923687e-38
-0.10422123 -0.11440946 0.019918006 1.7063792e-38
-0.10177609 -0.11289944 0.025961678 1.2087043e-38
-0.099654056 -0.11215095 0.028957408 5.9117489e-39
-0.097834043 -0.11215095 0.028957408 6.1890659e-39
-0.095638283 -0.11116849 0.032889646 7.5734437e-39
-0.093825169 -0.11116849 0.032889646 7.758558e-39
-0.09201207 -0.11116849 0.032889646 7.3904943e-39
-0.090198956 -0.11116849 0.032889646 7.9436653e-39
-0.088385843 -0.11116849 0.032889646 8.2198893e-39
-0.086572729 -0.11116849 0.032889646 8.3120835e-39
-0.084759615 -0.11116849 0.032889646 9.4169891e-39
-0.082946502 -0.11116849 0.032889646 9.8761624e-39
-0.081133388 -0.11116849 0.032889646 1.1258016e-38
-0.079320274 -0.11116849 0.032889646 1.2826421e-38
-0.077507161 -0.11116849 0.032889646 1.3288115e-38
-0.075694047 -0.11116849 0.032889646 1.4486656e-38
-0.073880948 -0.11116849 0.032889646 1.5591916e-38
-0.072067834 -0.11116849 0.032889646 1.7341106e-38
-0.070254721 -0.11116849 0.032889646 1.8352373e-38
-0.068441607 -0.11116849 0.032889646 2.1391929e-38
-0.066628493 -0.11116849 0.032889646 2.1944377e-38
-0.06481538 -0.11116849 0.032889646 2.212769e-38
-0.063002266 -0.11116849 0.032889646 2.1391929e-38
-0.061189152 -0.11116849 0.032889646 2.0381019e-38
-0.059613906 -0.11215095 0.028957408 1.9553782e-38
-0.057793893 -0.11215095 0.028957408 1.8634709e-38
-0.056144603 -0.11289944 0.025961678 1.8081897e-38
-0.054319337 -0.11289944 0.025961678 1.8173733e-38
-0.052494079 -0.11289944 0.025961678 1.7712755e-38
-0.050668821 -0.11289944 0.025961678 1.7619483e-38
-0.048994131 -0.11365227 0.022948544 1.789607e-38
-0.047163583 -0.11365227 0.022948544 1.8447808e-38
-0.045333043 -0.11365227 0.022948544 1.9092096e-38
-0.043502502 -0.11365227 0.022948544 1.9737097e-38
-0.041671954 -0.11365227 0.022948544 2.0657604e-38
-0.039966285 -0.11440946 0.019918006 2.0287392e-38
-0.038130425 -0.11440946 0.019918006 2.0932393e-38
-0.036180332 -0.11365227 0.022948544 2.1852901e-38
-0.034349784 -0.11365227 0.022948544 2.2497901e-38
