# .PCD v0.7 - Point Cloud Data file format
VERSION 0.7
FIELDS x y z rgb
SIZE 4 4 4 4
TYPE F F F F
COUNT 1 1 1 1
WIDTH 946
HEIGHT 1
VIEWPOINT 0 0 0 1 0 0 0
POINTS 946
DATA ascii
-0.093573526 -0.11073507 0.040595476 1.6055405e-38
-0.091591045 -0.1099584 0.043558542 1.4306218e-38
-0.066328526 -0.1049857 0.062529325 9.9712699e-39
-0.064758316 -0.10549118 0.060600881 1.2091767e-38
-0.063068062 -0.10549118 0.060600881 1.3105919e-38
-0.061377827 -0.10549118 0.060600881 1.4764348e-38
-0.059687588 -0.10549118 0.060600881 1.5867435e-38
-0.05799735 -0.10549118 0.060600881 1.7433668e-38
-0.056307103 -0.10549118 0.060600881 1.946159e-38
-0.054616857 -0.10549118 0.060600881 2.0106233e-38
-0.052926619 -0.10549118 0.060600881 2.1304399e-38
-0.051377904 -0.10628961 0.057554904 2.2224189e-38
-0.049682323 -0.10628961 0.057554904 2.1763935e-38
-0.048114412 -0.1070687 0.054582719 2.2499695e-38
-0.046536833 -0.10785256 0.051592294 2.213056e-38
-0.044912327 -0.10839428 0.049525622 2.2591172e-38
-0.043202665 -0.10839428 0.049525622 2.2958514e-38
-0.041493006 -0.10839428 0.049525622 2.277376e-38
-0.039783344 -0.10839428 0.049525622 2.2957428e-38
-0.038073685 -0.10839428 0.049525622 2.332621e-38
-0.036453836 -0.10916151 0.046598557 2.350988e-38
-0.03482699 -0.1099584 0.043558542 2.3417687e-38
-0.033187393 -0.11073507 0.040595476 2.3232585e-38
-0.031462077 -0.11073507 0.040595476 2.3324421e-38
-0.029736757 -0.11073507 0.040595476 2.332478e-38
-0.028011438 -0.11073507 0.040595476 2.3324778e-38
-0.026286121 -0.11073507 0.040595476 2.3324778e-38
-0.024560802 -0.11073507 0.040595476 2.3416971e-38
-0.022835482 -0.11073507 0.040595476 2.3417327e-38
-0.021110166 -0.11073507 0.040595476 2.3417327e-38
-0.019424047 -0.11151646 0.037614468 2.3509524e-38
-0.017716635 -0.11204849 0.035584811 2.3509524e-38
-0.016011572 -0.11283787 0.032573286 2.3509527e-38
-0.014272187 -0.11283787 0.032573286 2.3509527e-38
-0.012551397 -0.11363207 0.029543404 2.3509168e-38
-0.010806702 -0.11363207 0.029543404 2.3509168e-38
-0.0090620052 -0.11363207 0.029543404 2.3509168e-38
-0.0073173083 -0.11363207 0.029543404 2.3509168e-38
-0.0055700261 -0.11440529 0.026593629 2.3417691e-38
-0.0038120933 -0.11520912 0.02352703 2.3234379e-38
-0.0020568483 -0.11520912 0.02352703 2.3234379e-38
-0.00030160323 -0.11520912 0.02352703 2.3234376e-38
0.0014771987 -0.11599173 0.020541314 2.3234018e-38
0.0032666419 -0.11677901 0.017537836 2.2772688e-38
0.0050323876 -0.11677901 0.017537836 2.2679779e-38
0.0067981342 -0.11677901 0.017537836 2.2956003e-38
0.0085638799 -0.11677901 0.017537836 2.3508451e-38
0.010329627 -0.11677901 0.017537836 2.3509168e-38
0.012095371 -0.11677901 0.017537836 2.2311345e-38
0.013920005 -0.11754455 0.014617328 1.8531673e-38
0.015690872 -0.11754455 0.014617328 1.5212984e-38
0.017533675 -0.11834116 0.011578206 1.2907737e-38
0.019309869 -0.11834116 0.011578206 1.0418106e-38
0.021169156 -0.11914261 0.0085207261 8.2050593e-39
0.022950713 -0.11914261 0.0085207261 5.7154242e-39
0.024732269 -0.11914261 0.0085207261 4.4243365e-39
0.026513826 -0.11914261 0.0085207261 2.8570248e-39
0.028295379 -0.11914261 0.0085207261 1.6595606e-39
0.030076936 -0.11914261 0.0085207261 1.1985768e-39
0.031858493 -0.11914261 0.0085207261 1.2904011e-39
0.033757336 -0.11992194 0.0055476464 1.8428476e-39
0.035544105 -0.11992194 0.0055476464 2.578612e-39
0.03745934 -0.12070583 0.002557043 2.8537625e-39
0.039385851 -0.12149437 -0.00045120344 3.3132988e-39
0.041183136 -0.12149437 -0.00045120344 3.6817169e-39
0.042980425 -0.12149437 -0.00045120344 4.3274367e-39
0.044928916 -0.12228753 -0.0034770928 4.6976555e-39
0.046731506 -0.12228753 -0.0034770928 4.975327e-39
0.048534099 -0.12228753 -0.0034770928 5.0678996e-39
0.050498992 -0.1230578 -0.006415721 4.8849475e-39
0.052306738 -0.1230578 -0.006415721 8.0210226e-39
0.054294299 -0.12386028 -0.0094771348 2.0651818e-38
0.056107409 -0.12386028 -0.0094771348 2.3509883e-38
0.058165282 -0.124891 -0.013409372 2.31411e-38
0.059985287 -0.124891 -0.013409372 2.3233296e-38
0.061805293 -0.124891 -0.013409372 2.3509883e-38
0.063625298 -0.124891 -0.013409372 2.3509886e-38
0.065445304 -0.124891 -0.013409372 2.3048907e-38
0.067478038 -0.12567626 -0.016405102 2.3509886e-38
0.069303297 -0.12567626 -0.016405102 2.3509886e-38
0.071128555 -0.12567626 -0.016405102 2.3509886e-38
0.07295382 -0.12567626 -0.016405102 2.3509886e-38
0.074779078 -0.12567626 -0.016405102 2.3417691e-38
0.076844722 -0.12646608 -0.019418236 2.3417691e-38
0.078922331 -0.12726043 -0.022448774 2.3325497e-38
0.081002966 -0.12803085 -0.025387879 2.3325138e-38
0.082843989 -0.12803085 -0.025387879 2.3509527e-38
0.084684998 -0.12803085 -0.025387879 2.3509527e-38
0.086526006 -0.12803085 -0.025387879 2.3417333e-38
0.088733122 -0.12909363 -0.029442426 2.3509527e-38
0.090581238 -0.12909363 -0.029442426 2.2311705e-38
0.092429355 -0.12909363 -0.029442426 1.9361801e-38
0.094277471 -0.12909363 -0.029442426 1.8809348e-38
0.096125588 -0.12909363 -0.029442426 2.1114594e-38
0.098268762 -0.12987436 -0.03242087 2.1852519e-38
0.10012211 -0.12987436 -0.03242087 2.0930563e-38
0.10228269 -0.13065951 -0.035416242 2.0285194e-38
0.10414128 -0.13065951 -0.035416242 2.0377389e-38
0.10599987 -0.13065951 -0.035416242 2.0285194e-38
0.10818328 -0.13144915 -0.03842866 1.9732023e-38
0.11004716 -0.13144915 -0.03842866 1.9547632e-38
0.11191103 -0.13144915 -0.03842866 2.0007891e-38
0.11343424 -0.13065951 -0.035416242 2.0929121e-38
0.11494882 -0.12987436 -0.03242087 1.3830058e-38
0.11680217 -0.12987436 -0.03242087 7.9288242e-39
0.1186555 -0.12987436 -0.03242087 1.5669726e-39
0.12050885 -0.12987436 -0.03242087 1.9350404e-39
-0.12747541 -0.126711 -0.013409372 2.3417679e-38
-0.1256554 -0.126711 -0.013409372 2.3509879e-38
-0.12383538 -0.126711 -0.013409372 2.3049624e-38
-0.12157758 -0.1256734 -0.0094771348 2.2958873e-38
-0.118118 -0.12170871 0.0055476464 2.1300439e-38
-0.11601065 -0.12092416 0.0085207261 2.0376676e-38
-0.11390476 -0.12011738 0.011578206 2.2679759e-38
-0.11181152 -0.11931543 0.014617328 2.2400284e-38
-0.11004065 -0.11931543 0.014617328 2.3136043e-38
-0.10767254 -0.11775221 0.020541314 2.3504821e-38
-0.10591207 -0.11775221 0.020541314 2.3508421e-38
-0.10356264 -0.11615516 0.026593629 2.3507342e-38
-0.10181277 -0.11615516 0.026593629 2.3509149e-38
-0.099219501 -0.1137826 0.035584811 2.3508795e-38
-0.097298563 -0.11324702 0.037614468 2.259009e-38
-0.066328526 -0.10667257 0.062529325 1.291897e-38
-0.064758316 -0.10718144 0.060600881 1.4947271e-38
-0.063068062 -0.10718144 0.060600881 1.5408248e-38
-0.061377827 -0.10718144 0.060600881 1.6696819e-38
-0.059687588 -0.10718144 0.060600881 1.7155625e-38
-0.05799735 -0.10718144 0.060600881 1.8537472e-38
-0.056307103 -0.10718144 0.060600881 2.0288467e-38
-0.054616857 -0.10718144 0.060600881 2.0657604e-38
-0.052926619 -0.10718144 0.060600881 2.2224189e-38
-0.051377904 -0.10798518 0.057554904 2.2775202e-38
-0.049682323 -0.10798518 0.057554904 2.2683366e-38
-0.048114412 -0.10876949 0.054582719 2.2958873e-38
-0.046536833 -0.1095586 0.051592294 2.3142544e-38
-0.044830795 -0.1095586 0.051592294 2.3234379e-38
-0.043202665 -0.11010392 0.049525622 2.3509883e-38
-0.041493006 -0.11010392 0.049525622 2.350952e-38
-0.039783344 -0.11010392 0.049525622 2.3509518e-38
-0.038073685 -0.11010392 0.049525622 2.3509879e-38
-0.036453836 -0.11087631 0.046598557 2.350952e-38
-0.03482699 -0.1116785 0.043558542 2.3509521e-38
-0.033106867 -0.1116785 0.043558542 2.3509527e-38
-0.031462077 -0.11246039 0.040595476 2.3509527e-38
-0.029736757 -0.11246039 0.040595476 2.3509527e-38
-0.028076772 -0.11324702 0.037614468 2.3509527e-38
-0.026286121 -0.11246039 0.040595476 2.3509527e-38
-0.024560802 -0.11246039 0.040595476 2.3509883e-38
-0.022835482 -0.11246039 0.040595476 2.3509524e-38
-0.021110166 -0.11246039 0.040595476 2.3509521e-38
-0.019424047 -0.11324702 0.037614468 2.3509521e-38
-0.017693501 -0.11324702 0.037614468 2.3509521e-38
-0.016011572 -0.11457725 0.032573286 2.3509165e-38
-0.014272187 -0.11457725 0.032573286 2.3509165e-38
-0.012532804 -0.11457725 0.032573286 2.3509168e-38
-0.010806702 -0.11537679 0.029543404 2.3509168e-38
-0.0090620052 -0.11537679 0.029543404 2.3509168e-38
-0.0073173083 -0.11537679 0.029543404 2.3509168e-38
-0.0055700261 -0.11615516 0.026593629 2.3416974e-38
-0.0038201585 -0.11615516 0.026593629 2.295672e-38
-0.0020568483 -0.11696436 0.02352703 2.2957078e-38
-0.00030160323 -0.11696436 0.02352703 2.341805e-38
0.0014771987 -0.11775221 0.020541314 2.3509527e-38
0.0032666419 -0.11854477 0.017537836 2.3509168e-38
0.0050323876 -0.11854477 0.017537836 2.3508451e-38
0.0067981342 -0.11854477 0.017537836 2.3508092e-38
0.0085638799 -0.11854477 0.017537836 2.3415898e-38
0.010329627 -0.11854477 0.017537836 2.1664922e-38
0.012095371 -0.11854477 0.017537836 1.8438774e-38
0.013920005 -0.11931543 0.014617328 1.429032e-38
0.015690872 -0.11931543 0.014617328 9.4964988e-39
0.017533675 -0.12011738 0.011578206 4.8867201e-39
0.019387601 -0.12092416 0.0085207261 1.2907416e-39
0.021169156 -0.12092416 0.0085207261 9.8090893e-45
0.022950713 -0.12092416 0.0085207261 2.7624918e-40
0.024732269 -0.12092416 0.0085207261 2.9427268e-44
0.026513826 -0.12092416 0.0085207261 4.0637655e-44
0.028295379 -0.12092416 0.0085207261 4.6138032e-40
0.030076936 -0.12092416 0.0085207261 9.295093e-41
0.031858493 -0.12092416 0.0085207261 2.6624671e-44
0.033757336 -0.12170871 0.0055476464 1.9618179e-44
0.035544105 -0.12170871 0.0055476464 9.1981511e-40
0.03745934 -0.12249784 0.002557043 5.5102839e-40
0.039385851 -0.12329166 -0.00045120344 7.3469378e-40
0.041183136 -0.12329166 -0.00045120344 9.1836057e-40
0.042980425 -0.12329166 -0.00045120344 9.1835496e-40
0.044928916 -0.12409012 -0.0034770928 6.4284847e-40
0.046731506 -0.12409012 -0.0034770928 3.6734759e-40
0.048534099 -0.12409012 -0.0034770928 2.755219e-40
0.050498992 -0.12486555 -0.006415721 1.2611686e-44
0.052306738 -0.12486555 -0.006415721 2.8025969e-45
0.054294299 -0.1256734 -0.0094771348 1.7425327e-38
0.056107409 -0.1256734 -0.0094771348 2.350988e-38
0.058165282 -0.126711 -0.013409372 2.3141456e-38
0.059985287 -0.126711 -0.013409372 2.3509883e-38
0.061805293 -0.126711 -0.013409372 2.3509883e-38
0.063625298 -0.126711 -0.013409372 2.3509886e-38
0.065445304 -0.126711 -0.013409372 2.2956712e-38
0.067265309 -0.126711 -0.013409372 2.3509886e-38
0.069085322 -0.126711 -0.013409372 2.3509886e-38
0.071128555 -0.1275015 -0.016405102 2.3509886e-38
0.07295382 -0.1275015 -0.016405102 2.3509886e-38
0.074779078 -0.1275015 -0.016405102 2.3509527e-38
0.076844722 -0.1282966 -0.019418236 2.3509527e-38
0.078922331 -0.12909628 -0.022448774 2.3509527e-38
0.081002966 -0.12987186 -0.025387879 2.3509527e-38
0.082843989 -0.12987186 -0.025387879 2.3509168e-38
0.084684998 -0.12987186 -0.025387879 2.3509168e-38
0.086885005 -0.13094176 -0.029442426 2.3509527e-38
0.088733122 -0.13094176 -0.029442426 2.3509527e-38
0.090581238 -0.13094176 -0.029442426 2.2588292e-38
0.092429355 -0.13094176 -0.029442426 1.9730584e-38
0.094277471 -0.13094176 -0.029442426 1.8440918e-38
0.096125588 -0.13094176 -0.029442426 2.0284831e-38
0.098268762 -0.13172771 -0.03242087 2.028555e-38
0.10012211 -0.13172771 -0.03242087 2.0377745e-38
0.10228269 -0.1325181 -0.035416242 2.028555e-38
0.10414128 -0.1325181 -0.035416242 2.0008963e-38
0.10599987 -0.1325181 -0.035416242 2.0008244e-38
0.10818328 -0.13331302 -0.03842866 2.0100442e-38
0.11004716 -0.13331302 -0.03842866 2.0192638e-38
0.11191103 -0.13331302 -0.03842866 2.0283755e-38
0.11377491 -0.13331302 -0.03842866 2.074473e-38
0.11610313 -0.13437997 -0.042472001 1.447543e-38
0.1179741 -0.13437997 -0.042472001 9.1277303e-39
0.11984506 -0.13437997 -0.042472001 2.3974535e-39
0.1224377 -0.13596557 -0.048480865 2.027599e-39
-0.12747541 -0.12853102 -0.013409372 2.3233285e-38
-0.1256554 -0.12853102 -0.013409372 2.3509876e-38
-0.12383538 -0.12853102 -0.013409372 2.3418045e-38
-0.12090956 -0.12589271 -0.0034770928 2.2958873e-38
-0.118118 -0.12349547 0.0055476464 1.180428e-38
-0.11601065 -0.12270571 0.0085207261 1.2914549e-39
-0.11390476 -0.12189357 0.011578206 9.1835496e-41
-0.11181152 -0.12108628 0.014617328 1.2874906e-39
-0.11004065 -0.12108628 0.014617328 4.8813083e-39
-0.10797535 -0.1203105 0.017537836 7.6460926e-39
-0.10591207 -0.11951269 0.020541314 1.0964414e-38
-0.10356264 -0.11790501 0.026593629 1.5574195e-38
-0.10124138 -0.11631663 0.032573286 2.166019e-38
-0.099219501 -0.11551671 0.035584811 2.3509149e-38
-0.097298563 -0.11497755 0.037614468 2.3509873e-38
-0.068015382 -0.10835941 0.062529325 2.020022e-38
-0.066328526 -0.10835941 0.062529325 2.0751951e-38
-0.064758316 -0.10887168 0.060600881 2.1948682e-38
-0.063068062 -0.10887168 0.060600881 2.1765011e-38
-0.061377827 -0.10887168 0.060600881 2.1948682e-38
-0.059687588 -0.10887168 0.060600881 2.240786e-38
-0.05799735 -0.10887168 0.060600881 2.2591531e-38
-0.056307103 -0.10887168 0.060600881 2.2775202e-38
-0.054616857 -0.10887168 0.060600881 2.2407501e-38
-0.052926619 -0.10887168 0.060600881 2.2867037e-38
-0.051377904 -0.10968079 0.057554904 2.2958873e-38
-0.049682323 -0.10968079 0.057554904 2.2682286e-38
-0.048114412 -0.11047028 0.054582719 2.3050703e-38
-0.046536833 -0.11126463 0.051592294 2.3141816e-38
-0.044830795 -0.11126463 0.051592294 2.3418043e-38
-0.043124761 -0.11126463 0.051592294 2.3509518e-38
-0.041493006 -0.11181359 0.049525622 2.3509158e-38
-0.039783344 -0.11181359 0.049525622 2.35088e-38
-0.038073685 -0.11181359 0.049525622 2.350952e-38
-0.036364023 -0.11181359 0.049525622 2.3509161e-38
-0.03482699 -0.11339863 0.043558542 2.3509161e-38
-0.033106867 -0.11339863 0.043558542 2.3509167e-38
-0.031462077 -0.11418571 0.040595476 2.3509886e-38
-0.029736757 -0.11418571 0.040595476 2.3509886e-38
-0.028011438 -0.11418571 0.040595476 2.3509883e-38
-0.026286121 -0.11418571 0.040595476 2.3509883e-38
-0.024560802 -0.11418571 0.040595476 2.350952e-38
-0.022835482 -0.11418571 0.040595476 2.3417324e-38
-0.021110166 -0.11418571 0.040595476 2.3325129e-38
-0.019424047 -0.11497755 0.037614468 2.350988e-38
-0.017693501 -0.11497755 0.037614468 2.3509521e-38
-0.016011572 -0.11631663 0.032573286 2.3509524e-38
-0.014272187 -0.11631663 0.032573286 2.3509524e-38
-0.012532804 -0.11631663 0.032573286 2.3509527e-38
-0.010793421 -0.11631663 0.032573286 2.3509527e-38
-0.0090620052 -0.11712147 0.029543404 2.3509168e-38
-0.0073173083 -0.11712147 0.029543404 2.3509168e-38
-0.0055726133 -0.11712147 0.029543404 2.3509168e-38
-0.0038279165 -0.11712147 0.029543404 2.3417333e-38
-0.002070291 -0.11790501 0.026593629 2.3509527e-38
-0.00030160323 -0.11871959 0.02352703 2.3232944e-38
0.0014771987 -0.11951269 0.020541314 2.0006103e-38
0.0032666419 -0.1203105 0.017537836 1.3736092e-38
0.0050323876 -0.1203105 0.017537836 6.7285224e-39
0.0067981342 -0.1203105 0.017537836 2.210582e-39
0.0085638799 -0.1203105 0.017537836 1.19643e-39
0.010329627 -0.1203105 0.017537836 8.2835517e-40
0.012149138 -0.12108628 0.014617328 2.1197946e-39
0.013920005 -0.12108628 0.014617328 4.6097843e-39
0.015690872 -0.12108628 0.014617328 6.0852647e-39
0.017533675 -0.12189357 0.011578206 6.2693e-39
0.019309869 -0.12189357 0.011578206 7.0987118e-39
0.021169156 -0.12270571 0.0085207261 8.4820148e-39
0.022950713 -0.12270571 0.0085207261 8.5745817e-39
0.024732269 -0.12270571 0.0085207261 8.7593401e-39
0.026513826 -0.12270571 0.0085207261 9.6820195e-39
0.028295379 -0.12270571 0.0085207261 9.9593253e-39
0.030076936 -0.12270571 0.0085207261 7.4693216e-39
0.031858493 -0.12270571 0.0085207261 3.2286785e-39
0.033757336 -0.12349547 0.0055476464 9.2234446e-40
0.035544105 -0.12349547 0.0055476464 1.0134513e-39
0.037588563 -0.12508895 -0.00045120344 8.2689782e-40
0.039385851 -0.12508895 -0.00045120344 1.10204e-39
0.041183136 -0.12508895 -0.00045120344 1.1938741e-39
0.042980425 -0.12508895 -0.00045120344 1.1945901e-39
0.044928916 -0.12589271 -0.0034770928 1.2871487e-39
0.046731506 -0.12589271 -0.0034770928 1.1045567e-39
0.048534099 -0.12589271 -0.0034770928 7.3686019e-40
0.050498992 -0.1266733 -0.006415721 4.6098936e-40
0.052306738 -0.1266733 -0.006415721 1.8439126e-40
0.054294299 -0.12748651 -0.0094771348 1.7701914e-38
0.056107409 -0.12748651 -0.0094771348 2.3233652e-38
0.058165282 -0.12853102 -0.013409372 2.2680478e-38
0.059985287 -0.12853102 -0.013409372 2.3509883e-38
0.061805293 -0.12853102 -0.013409372 2.2956709e-38
0.063625298 -0.12853102 -0.013409372 2.3048907e-38
0.065445304 -0.12853102 -0.013409372 2.3509886e-38
0.067265309 -0.12853102 -0.013409372 2.3509886e-38
0.069085322 -0.12853102 -0.013409372 2.3509886e-38
0.071128555 -0.12932678 -0.016405102 2.3509886e-38
0.07295382 -0.12932678 -0.016405102 2.3509886e-38
0.074779078 -0.12932678 -0.016405102 2.3509527e-38
0.076844722 -0.13012715 -0.019418236 2.3509527e-38
0.078675255 -0.13012715 -0.019418236 2.3509527e-38
0.081002966 -0.13171287 -0.025387879 2.3509527e-38
0.082843989 -0.13171287 -0.025387879 2.3140033e-38
0.084684998 -0.13171287 -0.025387879 2.3509168e-38
0.086885005 -0.13278987 -0.029442426 2.3509527e-38
0.088733122 -0.13278987 -0.029442426 2.3509886e-38
0.090581238 -0.13278987 -0.029442426 2.3325856e-38
0.092429355 -0.13278987 -0.029442426 2.1205711e-38
0.094277471 -0.13278987 -0.029442426 1.945507e-38
0.096125588 -0.13278987 -0.029442426 2.0377025e-38
0.098268762 -0.13358103 -0.03242087 1.8718223e-38
0.10012211 -0.13358103 -0.03242087 2.0009317e-38
0.10228269 -0.13437669 -0.035416242 2.0377381e-38
0.10414128 -0.13437669 -0.035416242 1.9455425e-38
0.10599987 -0.13437669 -0.035416242 1.9362153e-38
0.10818328 -0.13517688 -0.03842866 2.0099718e-38
0.11049025 -0.13625093 -0.042472001 2.0467782e-38
0.11236121 -0.13625093 -0.042472001 2.0006803e-38
0.11423217 -0.13625093 -0.042472001 2.0006803e-38
0.11610313 -0.13625093 -0.042472001 1.4752017e-38
0.1179741 -0.13625093 -0.042472001 1.06025e-38
0.12055621 -0.13784705 -0.048480865 4.1484516e-39
0.1224377 -0.13784705 -0.048480865 3.3183378e-39
-0.12747541 -0.13035102 -0.013409372 2.3509872e-38
-0.1256554 -0.13035102 -0.013409372 2.3325483e-38
-0.12383538 -0.13035102 -0.013409372 2.3509879e-38
-0.12090956 -0.12769531 -0.0034770928 2.3142538e-38
-0.118118 -0.12528224 0.0055476464 1.1250378e-38
-0.11601065 -0.1244873 0.0085207261 3.6985311e-40
-0.11390476 -0.12366976 0.011578206 3.5873241e-43
-0.11181152 -0.12285714 0.014617328 8.2867186e-40
-0.11004065 -0.12285714 0.014617328 7.3468397e-40
-0.10797535 -0.12207626 0.017537836 9.1835496e-40
-0.10591207 -0.12127317 0.020541314 6.909615e-39
-0.10356264 -0.11965488 0.026593629 7.1851228e-39
-0.10124138 -0.11805601 0.032573286 1.4746243e-38
-0.099219501 -0.11725079 0.035584811 2.1292133e-38
-0.097298563 -0.11670811 0.037614468 2.3509149e-38
-0.068015382 -0.11004628 0.062529325 2.20398e-38
-0.066448554 -0.11056192 0.060600881 2.2775202e-38
-0.064758316 -0.11056192 0.060600881 2.2867037e-38
-0.063068062 -0.11056192 0.060600881 2.2958873e-38
-0.061377827 -0.11056192 0.060600881 2.2867037e-38
-0.059687588 -0.11056192 0.060600881 2.2867037e-38
-0.05799735 -0.11056192 0.060600881 2.2775202e-38
-0.056307103 -0.11056192 0.060600881 2.2867037e-38
-0.054616857 -0.11056192 0.060600881 2.2958873e-38
-0.052926619 -0.11056192 0.060600881 2.2958873e-38
-0.05123638 -0.11056192 0.060600881 2.3142544e-38
-0.049682323 -0.11137636 0.057554904 2.3142541e-38
-0.047986738 -0.11137636 0.057554904 2.3234374e-38
-0.046413619 -0.11217107 0.054582719 2.3418043e-38
-0.044830795 -0.11297067 0.051592294 2.3509879e-38
-0.043124761 -0.11297067 0.051592294 2.3509879e-38
-0.041418724 -0.11297067 0.051592294 2.3509879e-38
-0.039783344 -0.11352326 0.049525622 2.3509879e-38
-0.038073685 -0.11352326 0.049525622 2.3509521e-38
-0.036364023 -0.11352326 0.049525622 2.3509521e-38
-0.034739044 -0.1143059 0.046598557 2.3509524e-38
-0.033106867 -0.11511876 0.043558542 2.3509886e-38
-0.031386744 -0.11511876 0.043558542 2.341805e-38
-0.029736757 -0.11591102 0.040595476 2.341805e-38
-0.028011438 -0.11591102 0.040595476 2.3418047e-38
-0.026286121 -0.11591102 0.040595476 2.3418047e-38
-0.024560802 -0.11591102 0.040595476 2.350988e-38
-0.022835482 -0.11591102 0.040595476 2.350988e-38
-0.021110166 -0.11591102 0.040595476 2.3509879e-38
-0.019424047 -0.11670811 0.037614468 2.3509879e-38
-0.017693501 -0.11670811 0.037614468 2.350952e-38
-0.016011572 -0.11805601 0.032573286 2.2679762e-38
-0.014272187 -0.11805601 0.032573286 2.3509883e-38
-0.012532804 -0.11805601 0.032573286 2.3509527e-38
-0.010793421 -0.11805601 0.032573286 2.3324775e-38
-0.0090540368 -0.11805601 0.032573286 2.3509168e-38
-0.0073173083 -0.11886616 0.029543404 2.3509168e-38
-0.0055726133 -0.11886616 0.029543404 2.3508092e-38
-0.0038279165 -0.11886616 0.029543404 2.3508809e-38
-0.002070291 -0.11965488 0.026593629 2.3509168e-38
-0.00030160323 -0.12047486 0.02352703 2.1020255e-38
0.0014771987 -0.12127317 0.020541314 1.2998882e-38
0.0032666419 -0.12207626 0.017537836 6.0838578e-39
0.0050323876 -0.12207626 0.017537836 3.6738542e-40
0.0067981342 -0.12207626 0.017537836 2.7555553e-40
0.0085638799 -0.12207626 0.017537836 4.4841551e-44
0.010329627 -0.12207626 0.017537836 2.7554572e-40
0.012095371 -0.12207626 0.017537836 6.3607978e-39
0.013920005 -0.12285714 0.014617328 7.6518856e-39
0.015690872 -0.12285714 0.014617328 1.0141522e-38
0.017533675 -0.12366976 0.011578206 1.0325913e-38
0.019309869 -0.12366976 0.011578206 9.2188581e-39
0.021169156 -0.1244873 0.0085207261 1.0417768e-38
0.022950713 -0.1244873 0.0085207261 1.0511051e-38
0.024732269 -0.1244873 0.0085207261 9.2210386e-39
0.026513826 -0.1244873 0.0085207261 1.2448602e-38
0.028295379 -0.1244873 0.0085207261 1.1066386e-38
0.0301838 -0.12528224 0.0055476464 9.4061487e-39
0.031970568 -0.12528224 0.0055476464 2.1226911e-39
0.033757336 -0.12528224 0.0055476464 8.3086769e-40
0.035791278 -0.12688623 -0.00045120344 1.8435749e-39
0.037588563 -0.12688623 -0.00045120344 1.7495702e-39
0.039385851 -0.12688623 -0.00045120344 5.5102138e-40
0.041183136 -0.12688623 -0.00045120344 9.187221e-40
0.043126322 -0.12769531 -0.0034770928 1.3797003e-39
0.044928916 -0.12769531 -0.0034770928 1.4726204e-39
0.046731506 -0.12769531 -0.0034770928 1.289671e-39
0.048534099 -0.12769531 -0.0034770928 2.766009e-40
0.050498992 -0.12848105 -0.006415721 9.8090893e-45
0.052306738 -0.12848105 -0.006415721 3.5873241e-43
0.054294299 -0.1292996 -0.0094771348 1.5397023e-38
0.056107409 -0.1292996 -0.0094771348 2.0652174e-38
0.058165282 -0.13035102 -0.013409372 2.350988e-38
0.059985287 -0.13035102 -0.013409372 2.3509883e-38
0.061805293 -0.13035102 -0.013409372 2.2864513e-38
0.063625298 -0.13035102 -0.013409372 2.341769e-38
0.065445304 -0.13035102 -0.013409372 2.3509886e-38
0.067265309 -0.13035102 -0.013409372 2.3509886e-38
0.069085322 -0.13035102 -0.013409372 2.3509886e-38
0.071128555 -0.13115202 -0.016405102 2.3509886e-38
0.07295382 -0.13115202 -0.016405102 2.3509886e-38
0.074779078 -0.13115202 -0.016405102 2.3509527e-38
0.076844722 -0.13195769 -0.019418236 2.3509527e-38
0.078675255 -0.13195769 -0.019418236 2.3509527e-38
0.081002966 -0.13355388 -0.025387879 2.3509527e-38
0.082843989 -0.13355388 -0.025387879 2.3509168e-38
0.085036889 -0.134638 -0.029442426 2.3416615e-38
0.086885005 -0.134638 -0.029442426 2.3417333e-38
0.088733122 -0.134638 -0.029442426 2.3509886e-38
0.090581238 -0.134638 -0.029442426 2.3233662e-38
0.092429355 -0.134638 -0.029442426 2.1759964e-38
0.094277471 -0.134638 -0.029442426 2.0561418e-38
0.096125588 -0.134638 -0.029442426 2.0100438e-38
0.098268762 -0.13543437 -0.03242087 1.8349077e-38
0.10012211 -0.13543437 -0.03242087 1.8717857e-38
0.10228269 -0.13623528 -0.035416242 2.0468495e-38
0.10414128 -0.13623528 -0.035416242 1.9638374e-38
0.10599987 -0.13623528 -0.035416242 2.0928391e-38
0.10818328 -0.13704078 -0.03842866 2.0375217e-38
0.11049025 -0.13812189 -0.042472001 2.009791e-38
0.11236121 -0.13812189 -0.042472001 2.0558888e-38
0.11423217 -0.13812189 -0.042472001 2.0559614e-38
0.1164407 -0.13890781 -0.045411345 1.3921893e-38
0.11831681 -0.13890781 -0.045411345 1.2445691e-38
0.12019293 -0.13890781 -0.045411345 5.5313847e-39
0.12206905 -0.13890781 -0.045411345 4.1484544e-39
-0.12747541 -0.13217102 -0.013409372 2.3509873e-38
-0.1256554 -0.13217102 -0.013409372 2.3509876e-38
-0.12339069 -0.13111271 -0.0094771348 2.3509876e-38
-0.12157758 -0.13111271 -0.0094771348 2.2588994e-38
-0.11877538 -0.12868352 -0.00045120344 1.0143663e-38
-0.11601065 -0.12626885 0.0085207261 1.6605891e-39
-0.11390476 -0.12544595 0.011578206 6.464372e-40
-0.11181152 -0.12462802 0.014617328 2.0282926e-39
-0.11004065 -0.12462802 0.014617328 6.8213892e-39
-0.10797535 -0.12384202 0.017537836 7.9270179e-39
-0.10591207 -0.12303366 0.020541314 8.7549807e-39
-0.097298563 -0.11843865 0.037614468 1.3823564e-38
-0.068015382 -0.11173315 0.062529325 2.3234379e-38
-0.066328526 -0.11173315 0.062529325 2.3418047e-38
-0.064641654 -0.11173315 0.062529325 2.350988e-38
-0.062954798 -0.11173315 0.062529325 2.3509156e-38
-0.061377827 -0.11225216 0.060600881 2.3232932e-38
-0.059687588 -0.11225216 0.060600881 2.3142544e-38
-0.05799735 -0.11225216 0.060600881 2.2958873e-38
-0.056307103 -0.11225216 0.060600881 2.2958873e-38
-0.054616857 -0.11225216 0.060600881 2.2958873e-38
-0.052926619 -0.11225216 0.060600881 2.3142541e-38
-0.05123638 -0.11225216 0.060600881 2.3142541e-38
-0.049546134 -0.11225216 0.060600881 2.3234374e-38
-0.047986738 -0.11307193 0.057554904 2.3234372e-38
-0.046291154 -0.11307193 0.057554904 2.3418043e-38
-0.044712823 -0.11387186 0.054582719 2.350988e-38
-0.04301203 -0.11387186 0.054582719 2.350988e-38
-0.041418724 -0.1146767 0.051592294 2.350988e-38
-0.039712686 -0.1146767 0.051592294 2.3509883e-38
-0.038006648 -0.1146767 0.051592294 2.3509524e-38
-0.036364023 -0.11523293 0.049525622 2.3509527e-38
-0.034739044 -0.11602069 0.046598557 2.3509527e-38
-0.033106867 -0.11683889 0.043558542 2.341805e-38
-0.031386744 -0.11683889 0.043558542 2.3234379e-38
-0.029736757 -0.11763634 0.040595476 2.3234376e-38
-0.028011438 -0.11763634 0.040595476 2.3234376e-38
-0.026286121 -0.11763634 0.040595476 2.3234374e-38
-0.024560802 -0.11763634 0.040595476 2.3418045e-38
-0.022835482 -0.11763634 0.040595476 2.3418043e-38
-0.021154594 -0.11843865 0.037614468 2.3418043e-38
-0.019424047 -0.11843865 0.037614468 2.3418043e-38
-0.017716635 -0.11898489 0.035584811 2.350988e-38
-0.016011572 -0.1197954 0.032573286 2.3509883e-38
-0.014272187 -0.1197954 0.032573286 2.3233296e-38
-0.012532804 -0.1197954 0.032573286 2.2587929e-38
-0.010793421 -0.1197954 0.032573286 2.341769e-38
-0.0090540368 -0.1197954 0.032573286 2.1942563e-38
-0.0073146522 -0.1197954 0.032573286 1.4565842e-38
-0.0055726133 -0.12061088 0.029543404 5.4377695e-39
-0.0038279165 -0.12061088 0.029543404 3.8704466e-39
-0.002070291 -0.12140475 0.026593629 2.1190786e-39
-0.00030160323 -0.1222301 0.02352703 1.3818667e-39
0.0014771987 -0.12303366 0.020541314 2.755219e-40
0.0032376787 -0.12303366 0.020541314 2.2420775e-44
0.0050323876 -0.12384202 0.017537836 3.7835059e-44
0.0067981342 -0.12384202 0.017537836 9.1984875e-40
0.0085638799 -0.12384202 0.017537836 1.1042372e-39
0.010329627 -0.12384202 0.017537836 5.9909573e-39
0.012095371 -0.12384202 0.017537836 7.1902026e-39
0.013920005 -0.12462802 0.014617328 1.2353865e-38
0.015757479 -0.12544595 0.011578206 1.1800687e-38
0.017533675 -0.12544595 0.011578206 1.0141168e-38
0.019387601 -0.12626885 0.0085207261 1.1154971e-38
0.021169156 -0.12626885 0.0085207261 1.0509611e-38
0.022950713 -0.12626885 0.0085207261 6.4540837e-39
0.024732269 -0.12626885 0.0085207261 5.3491752e-39
0.026513826 -0.12626885 0.0085207261 6.0874577e-39
0.028295379 -0.12626885 0.0085207261 6.8250228e-39
0.0301838 -0.12706901 0.0055476464 6.364046e-39
0.031970568 -0.12706901 0.0055476464 2.0308514e-39
0.033757336 -0.12706901 0.0055476464 5.542808e-40
0.035667326 -0.12787388 0.002557043 5.5283326e-40
0.037588563 -0.12868352 -0.00045120344 2.7587363e-40
0.039385851 -0.12868352 -0.00045120344 2.0261431e-39
0.041183136 -0.12868352 -0.00045120344 2.7626319e-39
0.043126322 -0.1294979 -0.0034770928 3.68567e-39
0.044928916 -0.1294979 -0.0034770928 3.4090915e-39
0.046731506 -0.1294979 -0.0034770928 1.4744252e-39
0.048534099 -0.1294979 -0.0034770928 6.4646242e-40
0.050336692 -0.1294979 -0.0034770928 2.776743e-40
0.052306738 -0.13028879 -0.006415721 3.5873241e-43
0.05411448 -0.13028879 -0.006415721 1.484385e-38
0.055922225 -0.13028879 -0.006415721 2.0928761e-38
0.057920523 -0.13111271 -0.0094771348 2.3418043e-38
0.059985287 -0.13217102 -0.013409372 2.3509883e-38
0.061805293 -0.13217102 -0.013409372 2.3509883e-38
0.063625298 -0.13217102 -0.013409372 2.3509886e-38
0.065445304 -0.13217102 -0.013409372 2.3509886e-38
0.067265309 -0.13217102 -0.013409372 2.3509886e-38
0.069085322 -0.13217102 -0.013409372 2.341769e-38
0.071128555 -0.13297729 -0.016405102 2.3417691e-38
0.07295382 -0.13297729 -0.016405102 2.3325497e-38
0.074779078 -0.13297729 -0.016405102 2.3325138e-38
0.076844722 -0.13378824 -0.019418236 2.3417333e-38
0.078675255 -0.13378824 -0.019418236 2.3417333e-38
0.081002966 -0.13539489 -0.025387879 2.3417333e-38
0.082843989 -0.13539489 -0.025387879 2.332478e-38
0.085036889 -0.13648613 -0.029442426 2.2403185e-38
0.086885005 -0.13648613 -0.029442426 2.1850011e-38
0.088733122 -0.13648613 -0.029442426 2.1942923e-38
0.090581238 -0.13648613 -0.029442426 2.1944002e-38
0.092429355 -0.13648613 -0.029442426 2.1483021e-38
0.094277471 -0.13648613 -0.029442426 2.0745809e-38
0.09641543 -0.13728772 -0.03242087 2.0284829e-38
0.098268762 -0.13728772 -0.03242087 2.0008598e-38
0.10012211 -0.13728772 -0.03242087 2.0191908e-38
0.10197544 -0.13728772 -0.03242087 2.1390088e-38
0.10382879 -0.13728772 -0.03242087 2.0190102e-38
0.10631941 -0.13890465 -0.03842866 2.1019499e-38
0.10861929 -0.13999285 -0.042472001 2.0281211e-38
0.11081235 -0.14078392 -0.045411345 1.963584e-38
0.11236121 -0.13999285 -0.042472001 2.0004624e-38
0.11423217 -0.13999285 -0.042472001 2.0374497e-38
0.1164407 -0.14078392 -0.045411345 1.4382507e-38
0.11831681 -0.14078392 -0.045411345 1.2629359e-38
0.12019293 -0.14078392 -0.045411345 5.715413e-39
-0.12747541 -0.13399105 -0.013409372 2.3509873e-38
-0.1256554 -0.13399105 -0.013409372 2.3509876e-38
-0.12339069 -0.13292582 -0.0094771348 2.3509876e-38
-0.12157758 -0.13292582 -0.0094771348 2.3509869e-38
-0.11844572 -0.1296659 0.002557043 1.0511721e-38
-0.11601065 -0.1280504 0.0085207261 1.8449776e-39
-0.11390476 -0.12722217 0.011578206 1.9371788e-39
-0.11212857 -0.12722217 0.011578206 1.5680418e-39
-0.11004065 -0.12639888 0.014617328 4.9792829e-39
-0.10797535 -0.12560774 0.017537836 7.0990663e-39
-0.10591207 -0.12479414 0.020541314 7.9281081e-39
-0.097298563 -0.12016918 0.037614468 5.5256015e-39
-0.068015382 -0.11341999 0.062529325 2.3509168e-38
-0.066328526 -0.11341999 0.062529325 2.3509168e-38
-0.064641654 -0.11341999 0.062529325 2.3509163e-38
-0.062954798 -0.11341999 0.062529325 2.3508442e-38
-0.061377827 -0.1139424 0.060600881 2.3509161e-38
-0.059687588 -0.1139424 0.060600881 2.341805e-38
-0.05799735 -0.1139424 0.060600881 2.3142544e-38
-0.056307103 -0.1139424 0.060600881 2.3142544e-38
-0.054616857 -0.1139424 0.060600881 2.3142544e-38
-0.052926619 -0.1139424 0.060600881 2.3142541e-38
-0.05123638 -0.1139424 0.060600881 2.3142541e-38
-0.049546134 -0.1139424 0.060600881 2.3234374e-38
-0.047855891 -0.1139424 0.060600881 2.3234374e-38
-0.046291154 -0.11476754 0.057554904 2.3418045e-38
-0.044595573 -0.11476754 0.057554904 2.3418047e-38
-0.04301203 -0.11557265 0.054582719 2.3418047e-38
-0.041418724 -0.11638273 0.051592294 2.3509883e-38
-0.039712686 -0.11638273 0.051592294 2.3509886e-38
-0.038006648 -0.11638273 0.051592294 2.3509527e-38
-0.036364023 -0.11694257 0.049525622 2.3509527e-38
-0.034739044 -0.11773549 0.046598557 2.3509886e-38
-0.033106867 -0.11855899 0.043558542 2.3234379e-38
-0.031386744 -0.11855899 0.043558542 2.3142544e-38
-0.029736757 -0.11936165 0.040595476 2.3142541e-38
-0.028011438 -0.11936165 0.040595476 2.3142541e-38
-0.026286121 -0.11936165 0.040595476 2.3142538e-38
-0.024560802 -0.11936165 0.040595476 2.3234374e-38
-0.022835482 -0.11936165 0.040595476 2.3234374e-38
-0.021154594 -0.12016918 0.037614468 2.3234374e-38
-0.019424047 -0.12016918 0.037614468 2.2313135e-38
-0.017716635 -0.120719 0.035584811 2.3141816e-38
-0.015982531 -0.120719 0.035584811 2.3418047e-38
-0.014272187 -0.12153481 0.032573286 2.3234015e-38
-0.012532804 -0.12153481 0.032573286 2.341805e-38
-0.010793421 -0.12153481 0.032573286 2.1113162e-38
-0.0090540368 -0.12153481 0.032573286 1.6687775e-38
-0.0073146522 -0.12153481 0.032573286 8.481649e-39
-0.0055726133 -0.12235557 0.029543404 7.357924e-40
-0.0038279165 -0.12235557 0.029543404 2.7553171e-40
-0.002070291 -0.12315463 0.026593629 2.755191e-40
-0.00030160323 -0.12398534 0.02352703 9.1842503e-41
0.0014536409 -0.12398534 0.02352703 8.2869288e-40
0.0032376787 -0.12479414 0.020541314 1.0127324e-39
0.0049981587 -0.12479414 0.020541314 1.1042232e-39
0.0067586377 -0.12479414 0.020541314 5.5105782e-40
0.0085638799 -0.12560774 0.017537836 1.8371163e-40
0.010329627 -0.12560774 0.017537836 6.0835061e-39
0.012095371 -0.12560774 0.017537836 5.8076226e-39
0.013920005 -0.12639888 0.014617328 1.1616298e-38
0.015757479 -0.12722217 0.011578206 1.1524102e-38
0.017533675 -0.12722217 0.011578206 9.3110538e-39
0.019387601 -0.1280504 0.0085207261 1.0785835e-38
0.021169156 -0.1280504 0.0085207261 9.0337634e-39
0.022950713 -0.1280504 0.0085207261 4.3325038e-39
0.024732269 -0.1280504 0.0085207261 3.7807621e-39
0.026513826 -0.1280504 0.0085207261 1.1999991e-39
0.028295379 -0.1280504 0.0085207261 2.5840126e-39
0.0301838 -0.12885578 0.0055476464 2.1226827e-39
0.031970568 -0.12885578 0.0055476464 5.5500107e-40
0.033875316 -0.1296659 0.002557043 1.0145373e-39
0.035667326 -0.1296659 0.002557043 1.9354062e-39
0.03745934 -0.1296659 0.002557043 2.5800385e-39
0.039385851 -0.13048081 -0.00045120344 6.8206703e-39
0.041323733 -0.13130049 -0.0034770928 6.1742233e-39
0.043126322 -0.13130049 -0.0034770928 6.2671476e-39
0.044928916 -0.13130049 -0.0034770928 4.3321296e-39
0.046731506 -0.13130049 -0.0034770928 1.5414283e-44
0.048534099 -0.13130049 -0.0034770928 1.4489426e-42
0.050336692 -0.13130049 -0.0034770928 4.6278302e-40
0.052139282 -0.13130049 -0.0034770928 3.5873241e-43
0.05411448 -0.13209651 -0.006415721 1.3276168e-38
0.055922225 -0.13209651 -0.006415721 2.0651818e-38
0.057920523 -0.13292582 -0.0094771348 2.3048905e-38
0.059985287 -0.13399105 -0.013409372 2.3048905e-38
0.061805293 -0.13399105 -0.013409372 2.3509883e-38
0.063625298 -0.13399105 -0.013409372 2.3509886e-38
0.065445304 -0.13399105 -0.013409372 2.341769e-38
0.067265309 -0.13399105 -0.013409372 2.341769e-38
0.069085322 -0.13399105 -0.013409372 2.341769e-38
0.071128555 -0.13480256 -0.016405102 2.3417691e-38
0.07295382 -0.13480256 -0.016405102 2.3417691e-38
0.074779078 -0.13480256 -0.016405102 2.3325497e-38
0.076844722 -0.13561879 -0.019418236 2.3325497e-38
0.078675255 -0.13561879 -0.019418236 2.3325497e-38
0.080758199 -0.13643973 -0.022448774 2.3325497e-38
0.082843989 -0.13723589 -0.025387879 2.341769e-38
0.084684998 -0.13723589 -0.025387879 2.2034756e-38
0.086885005 -0.13833423 -0.029442426 2.0744017e-38
0.089002058 -0.13914107 -0.03242087 2.074438e-38
0.090855405 -0.13914107 -0.03242087 2.1298632e-38
0.092708752 -0.13914107 -0.03242087 2.1667412e-38
0.094562083 -0.13914107 -0.03242087 2.129863e-38
0.09641543 -0.13914107 -0.03242087 2.0838005e-38
0.098268762 -0.13914107 -0.03242087 2.04685e-38
0.1004241 -0.13995247 -0.035416242 2.0283743e-38
0.10197544 -0.13914107 -0.03242087 2.1112058e-38
0.10382879 -0.13914107 -0.03242087 1.9543646e-38
0.10631941 -0.14076851 -0.03842866 2.0280844e-38
0.10818328 -0.14076851 -0.03842866 2.0003892e-38
0.11049025 -0.14186381 -0.042472001 2.064782e-38
0.11236121 -0.14186381 -0.042472001 2.1846725e-38
0.11423217 -0.14186381 -0.042472001 2.0926225e-38
0.1164407 -0.14266007 -0.045411345 1.567252e-38
0.11831681 -0.14266007 -0.045411345 1.2813386e-38
0.12019293 -0.14266007 -0.045411345 5.1615161e-39
-0.12747541 -0.13581105 -0.013409372 2.3325843e-38
-0.1256554 -0.13581105 -0.013409372 2.3509879e-38
-0.12339069 -0.13473894 -0.0094771348 2.3509876e-38
-0.12023774 -0.13145791 0.002557043 2.3233999e-38
-0.118118 -0.13064255 0.0055476464 1.1064176e-38
-0.11601065 -0.12983195 0.0085207261 3.8732814e-39
-0.11390476 -0.12899835 0.011578206 6.9157428e-39
-0.11181152 -0.12816976 0.014617328 6.270742e-39
-0.11004065 -0.12816976 0.014617328 3.3204874e-39
-0.10797535 -0.1273735 0.017537836 2.1215869e-39
-0.10591207 -0.12655462 0.020541314 5.3477137e-39
-0.068015382 -0.11510687 0.062529325 2.3508092e-38
-0.066328526 -0.11510687 0.062529325 2.3508091e-38
-0.064641654 -0.11510687 0.062529325 2.3508807e-38
-0.062954798 -0.11510687 0.062529325 2.3508807e-38
-0.061377827 -0.11563264 0.060600881 2.3509165e-38
-0.059687588 -0.11563264 0.060600881 2.3509886e-38
-0.05799735 -0.11563264 0.060600881 2.3142544e-38
-0.056307103 -0.11563264 0.060600881 2.3234379e-38
-0.054616857 -0.11563264 0.060600881 2.3142544e-38
-0.052926619 -0.11563264 0.060600881 2.3234379e-38
-0.05123638 -0.11563264 0.060600881 2.3234376e-38
-0.049546134 -0.11563264 0.060600881 2.3234376e-38
-0.047855891 -0.11563264 0.060600881 2.3234374e-38
-0.046291154 -0.11646311 0.057554904 2.3418047e-38
-0.044595573 -0.11646311 0.057554904 2.3418047e-38
-0.042899989 -0.11646311 0.057554904 2.341805e-38
-0.041311238 -0.11727346 0.054582719 2.341805e-38
-0.039712686 -0.11808877 0.051592294 2.3509886e-38
-0.038006648 -0.11808877 0.051592294 2.3509527e-38
-0.036364023 -0.11865224 0.049525622 2.3509527e-38
-0.034739044 -0.11945029 0.046598557 2.341805e-38
-0.033106867 -0.12027912 0.043558542 2.3234379e-38
-0.031386744 -0.12027912 0.043558542 2.3142544e-38
-0.029736757 -0.12108697 0.040595476 2.3234379e-38
-0.028011438 -0.12108697 0.040595476 2.3142541e-38
-0.026286121 -0.12108697 0.040595476 2.3234376e-38
-0.024560802 -0.12108697 0.040595476 2.3234374e-38
-0.022835482 -0.12108697 0.040595476 2.3234374e-38
-0.021154594 -0.12189974 0.037614468 2.3234374e-38
-0.019424047 -0.12189974 0.037614468 2.3418045e-38
-0.017716635 -0.12245311 0.035584811 2.3418047e-38
-0.015982531 -0.12245311 0.035584811 2.3418047e-38
-0.014272187 -0.12327419 0.032573286 2.2404257e-38
-0.012532804 -0.12327419 0.032573286 2.3325497e-38
-0.010793421 -0.12327419 0.032573286 9.0355375e-39
-0.0090540368 -0.12327419 0.032573286 7.3721191e-40
-0.0073146522 -0.12327419 0.032573286 1.2611686e-44
-0.0055726133 -0.12410025 0.029543404 1.5644741e-39
-0.0038279165 -0.12410025 0.029543404 2.1176478e-39
-0.002070291 -0.1249045 0.026593629 2.5793308e-39
-0.00030160323 -0.12574057 0.02352703 8.2796561e-40
0.0014536409 -0.12574057 0.02352703 2.7587083e-40
0.0032376787 -0.12655462 0.020541314 9.1842503e-41
0.0049981587 -0.12655462 0.020541314 1.1971265e-39
0.0067586377 -0.12655462 0.020541314 9.1862121e-41
0.0085638799 -0.1273735 0.017537836 2.6624671e-44
0.010329627 -0.1273735 0.017537836 1.289685e-39
0.012095371 -0.1273735 0.017537836 3.503085e-39
0.013920005 -0.12816976 0.014617328 4.1488061e-39
0.015757479 -0.12899835 0.011578206 6.5455366e-39
0.017533675 -0.12899835 0.011578206 4.1480985e-39
0.019387601 -0.12983195 0.0085207261 1.9350573e-39
0.021169156 -0.12983195 0.0085207261 2.6624671e-44
0.022950713 -0.12983195 0.0085207261 4.5956144e-40
0.024732269 -0.12983195 0.0085207261 4.6087137e-39
0.026513826 -0.12983195 0.0085207261 5.9005231e-39
0.028295379 -0.12983195 0.0085207261 9.6809041e-39
0.0301838 -0.13064255 0.0055476464 7.9299172e-39
0.031970568 -0.13064255 0.0055476464 2.3967487e-39
0.033757336 -0.13064255 0.0055476464 5.521172e-40
0.035544105 -0.13064255 0.0055476464 9.1848108e-41
0.037330873 -0.13064255 0.0055476464 4.3303093e-39
0.039251354 -0.13145791 0.002557043 1.1244616e-38
0.041183136 -0.1322781 -0.00045120344 1.0046075e-38
0.043126322 -0.13310309 -0.0034770928 1.0414869e-38
0.044928916 -0.13310309 -0.0034770928 7.6500961e-39
0.046731506 -0.13310309 -0.0034770928 1.8369061e-40
0.048534099 -0.13310309 -0.0034770928 9.8090893e-45
0.050336692 -0.13310309 -0.0034770928 3.643376e-43
0.052139282 -0.13310309 -0.0034770928 2.7730576e-40
0.05411448 -0.13390426 -0.006415721 1.2077625e-38
0.055922225 -0.13390426 -0.006415721 2.0375234e-38
0.057920523 -0.13473894 -0.0094771348 2.3325492e-38
0.059985287 -0.13581105 -0.013409372 2.3141103e-38
0.061805293 -0.13581105 -0.013409372 2.3509886e-38
0.063625298 -0.13581105 -0.013409372 2.3325494e-38
0.06565278 -0.13662781 -0.016405102 2.3233299e-38
0.067478038 -0.13662781 -0.016405102 2.3509886e-38
0.069303297 -0.13662781 -0.016405102 2.3509886e-38
0.071128555 -0.13662781 -0.016405102 2.3509886e-38
0.07295382 -0.13662781 -0.016405102 2.3509886e-38
0.075014174 -0.13744931 -0.019418236 2.3509886e-38
0.076844722 -0.13744931 -0.019418236 2.3509886e-38
0.078675255 -0.13744931 -0.019418236 2.3509886e-38
0.080758199 -0.13827558 -0.022448774 2.341769e-38
0.082843989 -0.1390769 -0.025387879 2.3509883e-38
0.084684998 -0.1390769 -0.025387879 2.22195e-38
0.086885005 -0.14018236 -0.029442426 2.0836928e-38
0.088733122 -0.14018236 -0.029442426 2.0744736e-38
0.090855405 -0.14099441 -0.03242087 2.1206437e-38
0.092708752 -0.14099441 -0.03242087 2.1667415e-38
0.094562083 -0.14099441 -0.03242087 2.1390828e-38
0.09641543 -0.14099441 -0.03242087 2.1113515e-38
0.098268762 -0.14099441 -0.03242087 2.1113151e-38
0.10012211 -0.14099441 -0.03242087 2.0374497e-38
0.10228269 -0.14181106 -0.035416242 2.0004268e-38
0.10414128 -0.14181106 -0.035416242 1.6961083e-38
0.10631941 -0.14263238 -0.03842866 1.6683408e-38
0.10818328 -0.14263238 -0.03842866 1.6221701e-38
0.11049025 -0.14373477 -0.042472001 1.7603909e-38
0.11236121 -0.14373477 -0.042472001 1.981697e-38
0.11423217 -0.14373477 -0.042472001 2.0003541e-38
0.11610313 -0.14373477 -0.042472001 1.5947664e-38
0.1179741 -0.14373477 -0.042472001 1.2075098e-38
0.11984506 -0.14373477 -0.042472001 2.8562597e-39
-0.12747541 -0.13763104 -0.013409372 2.3326203e-38
-0.1256554 -0.13763104 -0.013409372 2.3418043e-38
-0.12339069 -0.13655205 -0.0094771348 2.3234367e-38
-0.12023774 -0.13324992 0.002557043 2.268119e-38
-0.118118 -0.13242932 0.0055476464 1.0695758e-38
-0.11601065 -0.13161351 0.0085207261 4.3342624e-39
-0.11390476 -0.13077454 0.011578206 9.4046675e-39
-0.11181152 -0.12994061 0.014617328 9.4046731e-39
-0.11004065 -0.12994061 0.014617328 5.3477123e-39
-0.10797535 -0.12913923 0.017537836 2.5818448e-39
-0.1056163 -0.12749584 0.02352703 3.4108866e-39
-0.10386105 -0.12749584 0.02352703 2.7651556e-39
-0.068015382 -0.11679374 0.062529325 2.3508451e-38
-0.066328526 -0.11679374 0.062529325 2.3509168e-38
-0.064641654 -0.11679374 0.062529325 2.3509168e-38
-0.062954798 -0.11679374 0.062529325 2.3508809e-38
-0.061377827 -0.11732288 0.060600881 2.3509168e-38
-0.059687588 -0.11732288 0.060600881 2.3509527e-38
-0.05799735 -0.11732288 0.060600881 2.3234379e-38
-0.056307103 -0.11732288 0.060600881 2.341805e-38
-0.054616857 -0.11732288 0.060600881 2.3234379e-38
-0.052926619 -0.11732288 0.060600881 2.341805e-38
-0.05123638 -0.11732288 0.060600881 2.3418047e-38
-0.049546134 -0.11732288 0.060600881 2.3418047e-38
-0.047986738 -0.11815868 0.057554904 2.3418047e-38
-0.046291154 -0.11815868 0.057554904 2.341805e-38
-0.044595573 -0.11815868 0.057554904 2.341805e-38
-0.042899989 -0.11815868 0.057554904 2.341805e-38
-0.041311238 -0.11897425 0.054582719 2.341805e-38
-0.039712686 -0.1197948 0.051592294 2.341805e-38
-0.038006648 -0.1197948 0.051592294 2.341805e-38
-0.036364023 -0.12036191 0.049525622 2.341805e-38
-0.034739044 -0.12116508 0.046598557 2.341805e-38
-0.033106867 -0.12199925 0.043558542 2.341805e-38
-0.031386744 -0.12199925 0.043558542 2.3234379e-38
-0.029666621 -0.12199925 0.043558542 2.341805e-38
-0.028011438 -0.12281232 0.040595476 2.3234376e-38
-0.026286121 -0.12281232 0.040595476 2.3418047e-38
-0.024560802 -0.12281232 0.040595476 2.3418047e-38
-0.022835482 -0.12281232 0.040595476 2.3418047e-38
-0.021154594 -0.12363027 0.037614468 2.3418047e-38
-0.019450739 -0.12418722 0.035584811 2.3509883e-38
-0.017716635 -0.12418722 0.035584811 2.2956709e-38
-0.016011572 -0.12501357 0.032573286 2.3325494e-38
-0.014272187 -0.12501357 0.032573286 2.3509886e-38
-0.012532804 -0.12501357 0.032573286 2.3509527e-38
-0.010793421 -0.12501357 0.032573286 6.3611467e-39
-0.0090540368 -0.12501357 0.032573286 9.1842503e-41
-0.0073146522 -0.12501357 0.032573286 1.750652e-39
-0.0055726133 -0.12584494 0.029543404 2.7552611e-40
-0.0038279165 -0.12584494 0.029543404 7.3470499e-40
-0.002070291 -0.12665437 0.026593629 2.0265088e-39
-0.00030160323 -0.12749584 0.02352703 1.8428252e-39
0.0014771987 -0.12831511 0.020541314 1.935018e-39
0.0032376787 -0.12831511 0.020541314 2.303446e-39
0.0049981587 -0.12831511 0.020541314 4.4243196e-39
0.0067586377 -0.12831511 0.020541314 7.3650005e-40
0.0085638799 -0.12913923 0.017537836 9.185091e-41
0.010329627 -0.12913923 0.017537836 1.6584535e-39
0.012095371 -0.12913923 0.017537836 5.4395422e-39
0.013920005 -0.12994061 0.014617328 5.1633084e-39
0.015757479 -0.13077454 0.011578206 8.2054111e-39
0.017533675 -0.13077454 0.011578206 7.0065189e-39
0.019309869 -0.13077454 0.011578206 2.2120043e-39
0.021169156 -0.13161351 0.0085207261 5.5140394e-40
0.022950713 -0.13161351 0.0085207261 2.5775358e-39
0.024732269 -0.13161351 0.0085207261 7.1873033e-39
0.026513826 -0.13161351 0.0085207261 9.0326424e-39
0.028295379 -0.13161351 0.0085207261 1.1246058e-38
0.0301838 -0.13242932 0.0055476464 9.402162e-39
0.031970568 -0.13242932 0.0055476464 1.9339642e-39
0.033757336 -0.13242932 0.0055476464 1.3800744e-39
0.035544105 -0.13242932 0.0055476464 2.4856933e-39
0.037330873 -0.13242932 0.0055476464 5.2504608e-39
0.039251354 -0.13324992 0.002557043 1.2349157e-38
0.041183136 -0.13407536 -0.00045120344 9.951719e-39
0.043126322 -0.13490568 -0.0034770928 1.0228317e-38
0.044928916 -0.13490568 -0.0034770928 7.8326895e-39
0.046731506 -0.13490568 -0.0034770928 2.7552611e-40
0.048534099 -0.13490568 -0.0034770928 9.8090893e-45
0.050498992 -0.13571201 -0.006415721 2.7695263e-40
0.052306738 -0.13571201 -0.006415721 5.5317658e-40
0.05411448 -0.13571201 -0.006415721 1.1340062e-38
0.055922225 -0.13571201 -0.006415721 1.9729868e-38
0.057920523 -0.13655205 -0.0094771348 2.3509886e-38
0.059733637 -0.13655205 -0.0094771348 2.3509886e-38
0.061805293 -0.13763104 -0.013409372 2.3509886e-38
0.063625298 -0.13763104 -0.013409372 2.2864516e-38
0.065445304 -0.13763104 -0.013409372 2.341769e-38
0.067478038 -0.13845308 -0.016405102 2.3325494e-38
0.069303297 -0.13845308 -0.016405102 2.341769e-38
0.071128555 -0.13845308 -0.016405102 2.3509886e-38
0.07295382 -0.13845308 -0.016405102 2.3509883e-38
0.075014174 -0.13927986 -0.019418236 2.3509886e-38
0.076844722 -0.13927986 -0.019418236 2.3509883e-38
0.078922331 -0.14011143 -0.022448774 2.3509886e-38
0.080758199 -0.14011143 -0.022448774 2.3417687e-38
0.082594052 -0.14011143 -0.022448774 2.323365e-38
0.084429905 -0.14011143 -0.022448774 2.2680477e-38
0.086885005 -0.14203046 -0.029442426 2.1851078e-38
0.088733122 -0.14203046 -0.029442426 2.1482298e-38
0.090581238 -0.14203046 -0.029442426 2.1298632e-38
0.092708752 -0.14284773 -0.03242087 2.120644e-38
0.094562083 -0.14284773 -0.03242087 2.0836578e-38
0.09641543 -0.14284773 -0.03242087 2.0283039e-38
0.098268762 -0.14284773 -0.03242087 2.1296825e-38
0.10012211 -0.14284773 -0.03242087 2.0373778e-38
0.10228269 -0.14366965 -0.035416242 1.9818795e-38
0.10414128 -0.14366965 -0.035416242 1.6037682e-38
0.10631941 -0.14449625 -0.03842866 1.4838405e-38
0.10818328 -0.14449625 -0.03842866 1.3915358e-38
0.11049025 -0.14560573 -0.042472001 1.5665628e-38
0.11236121 -0.14560573 -0.042472001 1.8248551e-38
0.11423217 -0.14560573 -0.042472001 1.8619159e-38
0.11610313 -0.14560573 -0.042472001 1.6223166e-38
0.1179741 -0.14560573 -0.042472001 1.2811939e-38
0.11984506 -0.14560573 -0.042472001 3.1321221e-39
0.12171602 -0.14560573 -0.042472001 3.4097964e-39
-0.12747541 -0.13945107 -0.013409372 2.3234367e-38
-0.1256554 -0.13945107 -0.013409372 2.3418043e-38
-0.12383538 -0.13945107 -0.013409372 2.3142174e-38
-0.12057267 -0.13587265 -0.00045120344 2.3234372e-38
-0.118118 -0.13421609 0.0055476464 8.1150063e-39
-0.11601065 -0.13339506 0.0085207261 1.2918094e-39
-0.11390476 -0.13255073 0.011578206 8.1139287e-39
-0.11181152 -0.1317115 0.014617328 8.4819979e-39
-0.11004065 -0.1317115 0.014617328 6.9139534e-39
