# .PCD v0.7 - Point Cloud Data file format
VERSION 0.7
FIELDS x y z rgb
SIZE 4 4 4 4
TYPE F F F F
COUNT 1 1 1 1
WIDTH 931
HEIGHT 1
VIEWPOINT 0 0 0 1 0 0 0
POINTS 931
DATA ascii
-0.081214249 -0.10433225 -0.076765791 1.2091062e-38
-0.079225853 -0.10433225 -0.076765791 1.1534982e-38
-0.077237442 -0.10433225 -0.076765791 1.807796e-38
-0.074896663 -0.10343169 -0.072705522 2.0840199e-38
-0.07291539 -0.10343169 -0.072705522 2.2958514e-38
-0.070358545 -0.10189888 -0.065794602 2.3509168e-38
-0.068389386 -0.10189888 -0.065794602 2.3509168e-38
-0.066420212 -0.10189888 -0.065794602 2.3509168e-38
-0.064451054 -0.10189888 -0.065794602 2.3509527e-38
-0.062481891 -0.10189888 -0.065794602 2.3509527e-38
-0.060512733 -0.10189888 -0.065794602 2.3509527e-38
-0.058543574 -0.10189888 -0.065794602 2.3509527e-38
-0.056574415 -0.10189888 -0.065794602 2.3509886e-38
-0.054605242 -0.10189888 -0.065794602 2.3325497e-38
-0.052838948 -0.10256544 -0.068799868 2.3326213e-38
-0.050666925 -0.10189888 -0.065794602 2.341805e-38
-0.048697766 -0.10189888 -0.065794602 2.3234379e-38
-0.046728607 -0.10189888 -0.065794602 2.3234379e-38
-0.044518556 -0.10101564 -0.061812416 2.3142542e-38
-0.04231691 -0.10011137 -0.057735339 2.2865958e-38
-0.040361878 -0.10011137 -0.057735339 2.2681564e-38
-0.038244102 -0.099457815 -0.054788724 2.3049621e-38
-0.036078926 -0.098564804 -0.05076243 2.3233652e-38
-0.03413612 -0.098564804 -0.05076243 2.3418043e-38
-0.032041874 -0.097892582 -0.047731653 2.350988e-38
-0.03010438 -0.097892582 -0.047731653 2.350988e-38
-0.028166886 -0.097892582 -0.047731653 2.350988e-38
-0.026051652 -0.097010851 -0.043756261 2.3417687e-38
-0.023951601 -0.096135467 -0.03980948 2.3325492e-38
-0.022027995 -0.096135467 -0.03980948 2.3509883e-38
-0.02010439 -0.096135467 -0.03980948 2.3509883e-38
-0.01806432 -0.095450163 -0.036719695 2.3509527e-38
-0.016146138 -0.095450163 -0.036719695 2.3509527e-38
-0.014227953 -0.095450163 -0.036719695 2.3509527e-38
-0.012309771 -0.095450163 -0.036719695 2.3509527e-38
-0.010391586 -0.095450163 -0.036719695 2.3509527e-38
-0.0084734038 -0.095450163 -0.036719695 2.3509886e-38
-0.0066391937 -0.096135467 -0.03980948 2.3509886e-38
-0.0048159324 -0.097010851 -0.043756261 2.341805e-38
-0.0028854124 -0.097010851 -0.043756261 2.3509527e-38
-0.00095488876 -0.097010851 -0.043756261 2.341805e-38
0.0010552108 -0.096135467 -0.03980948 2.3509527e-38
0.0029788129 -0.096135467 -0.03980948 2.341805e-38
0.0048366748 -0.097010851 -0.043756261 2.341805e-38
0.0067671947 -0.097010851 -0.043756261 2.341805e-38
0.0087496154 -0.096135467 -0.03980948 2.341805e-38
0.010673214 -0.096135467 -0.03980948 2.341805e-38
0.012596816 -0.096135467 -0.03980948 2.341805e-38
0.014489274 -0.097010851 -0.043756261 2.3234379e-38
0.016419796 -0.097010851 -0.043756261 2.341805e-38
0.018350316 -0.097010851 -0.043756261 2.3234379e-38
0.020291217 -0.096135467 -0.03980948 2.341805e-38
0.022214817 -0.096135467 -0.03980948 2.3509886e-38
0.024138419 -0.096135467 -0.03980948 2.3509524e-38
0.026062019 -0.096135467 -0.03980948 2.3509521e-38
0.027985619 -0.096135467 -0.03980948 2.3509165e-38
0.029890258 -0.095450163 -0.036719695 2.3508444e-38
0.031808443 -0.095450163 -0.036719695 2.2955993e-38
0.03365963 -0.093909279 -0.029772418 2.3233302e-38
0.035531059 -0.093236431 -0.02673878 2.3509886e-38
0.037431743 -0.093236431 -0.02673878 2.341805e-38
0.039377637 -0.093909279 -0.029772418 2.3048554e-38
0.041283637 -0.093909279 -0.029772418 2.3509527e-38
0.043447085 -0.097010851 -0.043756261 2.3232944e-38
0.045377605 -0.097010851 -0.043756261 2.2956715e-38
0.04693516 -0.093236431 -0.02673878 2.3509527e-38
0.048835844 -0.093236431 -0.02673878 2.3509527e-38
0.051270232 -0.097892582 -0.047731653 2.3509167e-38
0.053207725 -0.097892582 -0.047731653 2.3232936e-38
0.055232897 -0.098564804 -0.05076243 2.2127667e-38
0.0571757 -0.098564804 -0.05076243 2.2775202e-38
0.059249107 -0.099457815 -0.054788724 2.2591531e-38
0.06157526 -0.10189888 -0.065794602 1.8630754e-38
0.063254744 -0.10011137 -0.057735339 1.6420958e-38
0.065209776 -0.10011137 -0.057735339 1.3013335e-38
0.067325652 -0.10101564 -0.061812416 1.3477567e-38
0.069287822 -0.10101564 -0.061812416 1.3112027e-38
-0.089560241 -0.10720618 -0.080726996 1.0160735e-38
-0.087564901 -0.10720618 -0.080726996 9.6075699e-39
-0.085569561 -0.10720618 -0.080726996 8.501228e-39
-0.083202645 -0.10632066 -0.076765791 1.0067819e-38
-0.081214249 -0.10632066 -0.076765791 1.0066365e-38
-0.079225853 -0.10632066 -0.076765791 1.0708835e-38
-0.076532125 -0.10453986 -0.068799868 1.0244956e-38
-0.074296862 -0.10386805 -0.065794602 1.7618065e-38
-0.072327703 -0.10386805 -0.065794602 2.1579188e-38
-0.070026889 -0.10297783 -0.061812416 2.3417691e-38
-0.068064705 -0.10297783 -0.061812416 2.3509168e-38
-0.066102535 -0.10297783 -0.061812416 2.3509168e-38
-0.06414035 -0.10297783 -0.061812416 2.3509527e-38
-0.062178176 -0.10297783 -0.061812416 2.3509527e-38
-0.060215991 -0.10297783 -0.061812416 2.3509886e-38
-0.058253806 -0.10297783 -0.061812416 2.3509886e-38
-0.056574415 -0.10386805 -0.065794602 2.341805e-38
-0.054605242 -0.10386805 -0.065794602 2.3325856e-38
-0.052838948 -0.10453986 -0.068799868 2.3234379e-38
-0.050666925 -0.10386805 -0.065794602 2.3234379e-38
-0.048697766 -0.10386805 -0.065794602 2.3142544e-38
-0.046728607 -0.10386805 -0.065794602 2.3142544e-38
-0.044518556 -0.10297783 -0.061812416 2.2866677e-38
-0.04231691 -0.1020664 -0.057735339 2.2497539e-38
-0.040361878 -0.1020664 -0.057735339 2.2312782e-38
-0.038406845 -0.1020664 -0.057735339 2.0652534e-38
-0.036078926 -0.1005076 -0.05076243 2.1297542e-38
-0.03413612 -0.1005076 -0.05076243 2.2035109e-38
-0.032041874 -0.099830076 -0.047731653 2.2864869e-38
-0.03010438 -0.099830076 -0.047731653 2.3418043e-38
-0.028166886 -0.099830076 -0.047731653 2.350988e-38
-0.026051652 -0.098941371 -0.043756261 2.3509883e-38
-0.024121132 -0.098941371 -0.043756261 2.3509883e-38
-0.022190612 -0.098941371 -0.043756261 2.3509883e-38
-0.02010439 -0.098059073 -0.03980948 2.3509883e-38
-0.01806432 -0.097368345 -0.036719695 2.3509883e-38
-0.016146138 -0.097368345 -0.036719695 2.3509883e-38
-0.014333595 -0.098059073 -0.03980948 2.3509527e-38
-0.012409993 -0.098059073 -0.03980948 2.3509527e-38
-0.010391586 -0.097368345 -0.036719695 2.3509527e-38
-0.0084734038 -0.097368345 -0.036719695 2.3509886e-38
-0.0066391937 -0.098059073 -0.03980948 2.341805e-38
-0.0048159324 -0.098941371 -0.043756261 2.3234379e-38
-0.0028854124 -0.098941371 -0.043756261 2.3234379e-38
-0.00095488876 -0.098941371 -0.043756261 2.3234379e-38
0.0010552108 -0.098059073 -0.03980948 2.3234379e-38
0.0029788129 -0.098059073 -0.03980948 2.3234379e-38
0.0048366748 -0.098941371 -0.043756261 2.3234379e-38
0.0067671947 -0.098941371 -0.043756261 2.3234379e-38
0.0087496154 -0.098059073 -0.03980948 2.3234379e-38
0.010673214 -0.098059073 -0.03980948 2.3234379e-38
0.012596816 -0.098059073 -0.03980948 2.3234379e-38
0.014489274 -0.098941371 -0.043756261 2.3234379e-38
0.016419796 -0.098941371 -0.043756261 2.3234379e-38
0.018350316 -0.098941371 -0.043756261 2.3234379e-38
0.020291217 -0.098059073 -0.03980948 2.3234379e-38
0.022214817 -0.098059073 -0.03980948 2.341805e-38
0.024138419 -0.098059073 -0.03980948 2.3509883e-38
0.026062019 -0.098059073 -0.03980948 2.3509521e-38
0.027985619 -0.098059073 -0.03980948 2.3509164e-38
0.029890258 -0.097368345 -0.036719695 2.2864153e-38
0.031808443 -0.097368345 -0.036719695 2.2310624e-38
0.033726625 -0.097368345 -0.036719695 2.1850367e-38
0.035644807 -0.097368345 -0.036719695 2.1389033e-38
0.037603624 -0.098059073 -0.03980948 2.0836578e-38
0.039527223 -0.098059073 -0.03980948 2.1850011e-38
0.041450821 -0.098059073 -0.03980948 2.0467796e-38
0.043447085 -0.098941371 -0.043756261 1.9545476e-38
0.045377605 -0.098941371 -0.043756261 1.9729868e-38
0.047153905 -0.097368345 -0.036719695 1.9544755e-38
0.049072091 -0.097368345 -0.036719695 1.8622798e-38
0.051270232 -0.099830076 -0.047731653 2.0282676e-38
0.053207725 -0.099830076 -0.047731653 2.3418047e-38
0.055232897 -0.1005076 -0.05076243 2.2958873e-38
0.0571757 -0.1005076 -0.05076243 2.2039799e-38
0.059249107 -0.10140768 -0.054788724 1.9644171e-38
0.061198968 -0.10140768 -0.054788724 1.4576308e-38
0.063254744 -0.1020664 -0.057735339 1.347286e-38
0.065209776 -0.1020664 -0.057735339 1.3753061e-38
0.067164809 -0.1020664 -0.057735339 1.3755593e-38
0.069451906 -0.10386805 -0.065794602 1.2744323e-38
0.071421064 -0.10386805 -0.065794602 1.3023061e-38
-0.10166654 -0.097721294 -0.029772418 8.1273573e-39
-0.10009222 -0.098382086 -0.032705322 7.3923258e-39
-0.097854525 -0.097721294 -0.029772418 6.1970295e-39
-0.089560241 -0.10920154 -0.080726996 7.6732638e-39
-0.087564901 -0.10920154 -0.080726996 7.4888697e-39
-0.085569561 -0.10920154 -0.080726996 6.936049e-39
-0.083863676 -0.10989676 -0.083812848 6.5665393e-39
-0.076532125 -0.10651429 -0.068799868 5.1810502e-39
-0.073951244 -0.10494001 -0.061812416 5.9175251e-39
-0.071989074 -0.10494001 -0.061812416 1.199773e-38
-0.069687337 -0.10402142 -0.057735339 2.0931307e-38
-0.067732304 -0.10402142 -0.057735339 2.3509527e-38
-0.065777272 -0.10402142 -0.057735339 2.3509527e-38
-0.06382224 -0.10402142 -0.057735339 2.3416971e-38
-0.062178176 -0.10494001 -0.061812416 2.323258e-38
-0.060215991 -0.10494001 -0.061812416 2.3509886e-38
-0.058253806 -0.10494001 -0.061812416 2.3509886e-38
-0.056291636 -0.10494001 -0.061812416 2.341805e-38
-0.054605242 -0.10583721 -0.065794602 2.341805e-38
-0.052838948 -0.10651429 -0.068799868 2.3234379e-38
-0.050666925 -0.10583721 -0.065794602 2.3234379e-38
-0.048697766 -0.10583721 -0.065794602 2.3050708e-38
-0.046728607 -0.10583721 -0.065794602 2.2958514e-38
-0.044518556 -0.10494001 -0.061812416 2.2590813e-38
-0.04231691 -0.10402142 -0.057735339 2.1945445e-38
-0.040361878 -0.10402142 -0.057735339 2.1391547e-38
-0.038406845 -0.10402142 -0.057735339 2.0744733e-38
-0.036294241 -0.10335754 -0.054788724 1.7333132e-38
-0.034344371 -0.10335754 -0.054788724 1.714874e-38
-0.032041874 -0.10176755 -0.047731653 1.7425327e-38
-0.03010438 -0.10176755 -0.047731653 2.0375587e-38
-0.028166886 -0.10176755 -0.047731653 2.2496087e-38
-0.026051652 -0.10087189 -0.043756261 2.3233652e-38
-0.024121132 -0.10087189 -0.043756261 1.9361435e-38
-0.022190612 -0.10087189 -0.043756261 1.6042393e-38
-0.02010439 -0.099982664 -0.03980948 1.631898e-38
-0.018180795 -0.099982664 -0.03980948 1.862387e-38
-0.016257193 -0.099982664 -0.03980948 2.2127304e-38
-0.014333595 -0.099982664 -0.03980948 2.3509883e-38
-0.012409993 -0.099982664 -0.03980948 2.3509883e-38
-0.010391586 -0.099286526 -0.036719695 2.3417687e-38
-0.0084734038 -0.099286526 -0.036719695 2.341805e-38
-0.0066391937 -0.099982664 -0.03980948 2.2865602e-38
-0.0048159324 -0.10087189 -0.043756261 2.2958155e-38
-0.0028854124 -0.10087189 -0.043756261 2.3142544e-38
-0.00086839125 -0.099982664 -0.03980948 2.3142544e-38
0.0010552108 -0.099982664 -0.03980948 2.3142544e-38
0.0029788129 -0.099982664 -0.03980948 2.3142544e-38
0.0049024113 -0.099982664 -0.03980948 2.3142544e-38
0.0068260133 -0.099982664 -0.03980948 2.2958155e-38
0.0087902434 -0.099286526 -0.036719695 2.3234379e-38
0.010708425 -0.099286526 -0.036719695 2.3234379e-38
0.012596816 -0.099982664 -0.03980948 2.3141467e-38
0.014520414 -0.099982664 -0.03980948 2.3233662e-38
0.016444016 -0.099982664 -0.03980948 2.341805e-38
0.018367616 -0.099982664 -0.03980948 2.341805e-38
0.020291217 -0.099982664 -0.03980948 2.185073e-38
0.022214817 -0.099982664 -0.03980948 2.0099013e-38
0.024138419 -0.099982664 -0.03980948 1.926925e-38
0.026062019 -0.099982664 -0.03980948 1.8531685e-38
0.027985619 -0.099982664 -0.03980948 1.7701924e-38
0.02990922 -0.099982664 -0.03980948 1.7240946e-38
0.031808443 -0.099286526 -0.036719695 1.7148753e-38
0.033726625 -0.099286526 -0.036719695 1.7056557e-38
0.035644807 -0.099286526 -0.036719695 1.6687776e-38
0.037603624 -0.099982664 -0.03980948 1.6135323e-38
0.039527223 -0.099982664 -0.03980948 1.5858015e-38
0.041516565 -0.10087189 -0.043756261 1.613568e-38
0.043520272 -0.10176755 -0.047731653 1.4659468e-38
0.045457762 -0.10176755 -0.047731653 1.567362e-38
0.047395252 -0.10176755 -0.047731653 1.5212998e-38
0.049332745 -0.10176755 -0.047731653 1.5397389e-38
0.051449649 -0.10335754 -0.054788724 1.7149103e-38
0.053290091 -0.1024504 -0.05076243 2.2958867e-38
0.055232897 -0.1024504 -0.05076243 2.2499695e-38
0.0571757 -0.1024504 -0.05076243 2.0752308e-38
0.059118506 -0.1024504 -0.05076243 1.5683007e-38
0.061061312 -0.1024504 -0.05076243 1.2642735e-38
0.063004114 -0.1024504 -0.05076243 1.3566511e-38
0.06494692 -0.1024504 -0.05076243 1.3476851e-38
0.066889726 -0.1024504 -0.05076243 1.2372672e-38
0.068832532 -0.1024504 -0.05076243 1.3111668e-38
0.07077533 -0.1024504 -0.05076243 1.2467385e-38
-0.097854525 -0.099627286 -0.029772418 1.4928873e-39
-0.095948532 -0.099627286 -0.029772418 1.1248307e-39
-0.094042525 -0.099627286 -0.029772418 5.7129957e-40
-0.092136517 -0.099627286 -0.029772418 1.7767063e-41
-0.090230525 -0.099627286 -0.029772418 1.7409732e-41
-0.089037105 -0.10120471 -0.036719695 1.9213203e-41
-0.087828323 -0.10280241 -0.043756261 2.9652036e-40
-0.077875614 -0.1069022 -0.061812416 6.7494606e-39
-0.075913429 -0.1069022 -0.061812416 5.1824894e-39
-0.073951244 -0.1069022 -0.061812416 5.8271329e-39
-0.071989074 -0.1069022 -0.061812416 9.9712335e-39
-0.069687337 -0.10597645 -0.057735339 1.8351272e-38
-0.067732304 -0.10597645 -0.057735339 2.2126588e-38
-0.065777272 -0.10597645 -0.057735339 2.3509527e-38
-0.06382224 -0.10597645 -0.057735339 2.3509886e-38
-0.062178176 -0.1069022 -0.061812416 2.3509886e-38
-0.059912186 -0.10597645 -0.057735339 2.3326213e-38
-0.057957154 -0.10597645 -0.057735339 2.2311705e-38
-0.056291636 -0.1069022 -0.061812416 2.1575222e-38
-0.054605242 -0.10780637 -0.065794602 2.056107e-38
-0.047702234 -0.091210663 0.0072959494 2.0008258e-38
-0.045861226 -0.091210663 0.0072959494 1.890191e-38
-0.048442911 -0.1069022 -0.061812416 1.7520055e-38
-0.046728607 -0.10780637 -0.065794602 1.6689938e-38
-0.044518556 -0.1069022 -0.061812416 1.622896e-38
-0.04231691 -0.10597645 -0.057735339 1.5860178e-38
-0.040361878 -0.10597645 -0.057735339 1.5399555e-38
-0.038406845 -0.10597645 -0.057735339 1.5490308e-38
-0.036451813 -0.10597645 -0.057735339 1.3184694e-38
-0.03449678 -0.10597645 -0.057735339 1.3461281e-38
-0.032541748 -0.10597645 -0.057735339 1.3553476e-38
-0.030444648 -0.10530742 -0.054788724 1.5305193e-38
-0.028307702 -0.1043932 -0.05076243 1.6503737e-38
-0.026229393 -0.10370506 -0.047731653 1.6780324e-38
-0.024121132 -0.10280241 -0.043756261 1.3369085e-38
-0.022190612 -0.10280241 -0.043756261 1.3645672e-38
-0.02010439 -0.10190627 -0.03980948 1.2815911e-38
-0.018180795 -0.10190627 -0.03980948 1.2723716e-38
-0.016257193 -0.10190627 -0.03980948 1.3645672e-38
-0.014333595 -0.10190627 -0.03980948 1.4291041e-38
-0.012409993 -0.10190627 -0.03980948 1.4475433e-38
-0.010391586 -0.10120471 -0.036719695 1.5489585e-38
-0.0084734038 -0.10120471 -0.036719695 1.6596658e-38
-0.0066391937 -0.10190627 -0.03980948 1.6596669e-38
-0.0048159324 -0.10280241 -0.043756261 1.6044217e-38
-0.0028854124 -0.10280241 -0.043756261 1.5767633e-38
-0.00086839125 -0.10190627 -0.03980948 1.6320804e-38
0.0010552108 -0.10190627 -0.03980948 1.7703739e-38
0.0029788129 -0.10190627 -0.03980948 1.8809364e-38
0.0049024113 -0.10190627 -0.03980948 1.8256191e-38
0.0068260133 -0.10190627 -0.03980948 1.714948e-38
0.0087902434 -0.10120471 -0.036719695 1.5858739e-38
0.010708425 -0.10120471 -0.036719695 1.5582149e-38
0.012626611 -0.10120471 -0.036719695 1.5581429e-38
0.014520414 -0.10190627 -0.03980948 1.5858014e-38
0.016444016 -0.10190627 -0.03980948 1.6503383e-38
0.018367616 -0.10190627 -0.03980948 1.6595579e-38
0.020299343 -0.10120471 -0.036719695 1.5397036e-38
0.022217527 -0.10120471 -0.036719695 1.3921906e-38
0.024135709 -0.10120471 -0.036719695 1.3738955e-38
0.026062019 -0.10190627 -0.03980948 1.4015542e-38
0.027985619 -0.10190627 -0.03980948 1.4107738e-38
0.02990922 -0.10190627 -0.03980948 1.3923349e-38
0.031832822 -0.10190627 -0.03980948 1.3554567e-38
0.03375642 -0.10190627 -0.03980948 1.3554211e-38
0.035680022 -0.10190627 -0.03980948 1.4015192e-38
0.037655521 -0.10280241 -0.043756261 1.4292858e-38
0.039586045 -0.10280241 -0.043756261 1.3922993e-38
0.041516565 -0.10280241 -0.043756261 1.4108464e-38
0.043576069 -0.1043932 -0.05076243 1.32787e-38
0.045518875 -0.1043932 -0.05076243 1.5768338e-38
0.047461677 -0.1043932 -0.05076243 1.7612251e-38
0.049569532 -0.10597645 -0.057735339 1.8626401e-38
0.051449649 -0.10530742 -0.054788724 1.9087735e-38
0.053290091 -0.1043932 -0.05076243 2.2683366e-38
0.055232897 -0.1043932 -0.05076243 2.158134e-38
0.0571757 -0.1043932 -0.05076243 2.0385685e-38
0.059118506 -0.1043932 -0.05076243 1.6145795e-38
0.061061312 -0.1043932 -0.05076243 1.2367954e-38
0.063004114 -0.1043932 -0.05076243 1.2369777e-38
0.06494692 -0.1043932 -0.05076243 1.1910615e-38
0.066889726 -0.1043932 -0.05076243 1.0712799e-38
0.10097466 -0.089855224 0.013265593 1.1905231e-38
-0.10582565 -0.10220437 -0.032705322 1.3749094e-38
-0.10357253 -0.10153329 -0.029772418 7.5741667e-39
-0.10166654 -0.10153329 -0.029772418 5.2714522e-39
-0.10009222 -0.10220437 -0.032705322 4.073279e-39
-0.098181069 -0.10220437 -0.032705322 2.3204858e-39
-0.095948532 -0.10153329 -0.029772418 2.2282902e-39
-0.094042525 -0.10153329 -0.029772418 1.767312e-39
-0.092136517 -0.10153329 -0.029772418 1.123023e-39
-0.090955287 -0.1031229 -0.036719695 1.4918055e-39
-0.089037105 -0.1031229 -0.036719695 2.414122e-39
-0.087828323 -0.10473295 -0.043756261 3.3364356e-39
-0.085897803 -0.10473295 -0.043756261 3.7052153e-39
-0.083967283 -0.10473295 -0.043756261 3.7974081e-39
-0.082036763 -0.10473295 -0.043756261 5.0877812e-39
-0.074757397 -0.091685757 0.013265593 6.746934e-39
-0.075552434 -0.10793148 -0.057735339 9.0507289e-39
-0.073597401 -0.10793148 -0.057735339 1.0617693e-38
-0.071642369 -0.10793148 -0.057735339 1.2827126e-38
-0.069687337 -0.10793148 -0.057735339 2.0194461e-38
-0.067732304 -0.10793148 -0.057735339 2.3141103e-38
-0.065777272 -0.10793148 -0.057735339 2.3509886e-38
-0.06382224 -0.10793148 -0.057735339 2.341805e-38
-0.061867218 -0.10793148 -0.057735339 2.341805e-38
-0.059912186 -0.10793148 -0.057735339 2.341805e-38
-0.057957154 -0.10793148 -0.057735339 2.2772686e-38
-0.056002121 -0.10793148 -0.057735339 2.2220592e-38
-0.054047089 -0.10793148 -0.057735339 2.1114606e-38
-0.047702234 -0.093051672 0.0072959494 2.0562155e-38
-0.045861226 -0.093051672 0.0072959494 1.9548003e-38
-0.048442911 -0.10886435 -0.061812416 1.7981396e-38
-0.046728607 -0.10977553 -0.065794602 1.6967247e-38
-0.044518556 -0.10886435 -0.061812416 1.6598464e-38
-0.04231691 -0.10793148 -0.057735339 1.6506269e-38
-0.040361878 -0.10793148 -0.057735339 1.6414073e-38
-0.038632017 -0.10886435 -0.061812416 1.6965805e-38
-0.036669847 -0.10886435 -0.061812416 1.5950934e-38
-0.034707662 -0.10886435 -0.061812416 1.687289e-38
-0.032944474 -0.10977553 -0.065794602 1.6965086e-38
-0.030975308 -0.10977553 -0.065794602 1.751826e-38
-0.02900615 -0.10977553 -0.065794602 1.7794847e-38
-0.027036991 -0.10977553 -0.065794602 1.7887042e-38
-0.024121132 -0.10473295 -0.043756261 1.5305565e-38
-0.022190612 -0.10473295 -0.043756261 1.5028978e-38
-0.020260092 -0.10473295 -0.043756261 1.4475804e-38
-0.018180795 -0.10382988 -0.03980948 1.4014826e-38
-0.016257193 -0.10382988 -0.03980948 1.392263e-38
-0.014468532 -0.10473295 -0.043756261 1.392263e-38
-0.012538012 -0.10473295 -0.043756261 1.4199217e-38
-0.01048639 -0.10382988 -0.03980948 1.4844587e-38
-0.0085627921 -0.10382988 -0.03980948 1.5582515e-38
-0.0066391937 -0.10382988 -0.03980948 1.5305931e-38
-0.0035180114 -0.093051672 0.0072959494 1.5121539e-38
-0.0016770028 -0.093051672 0.0072959494 1.4937149e-38
-0.00086839125 -0.10382988 -0.03980948 1.5490322e-38
0.0010552108 -0.10382988 -0.03980948 1.7242039e-38
0.0029788129 -0.10382988 -0.03980948 1.8809002e-38
0.0048366748 -0.10473295 -0.043756261 1.8348023e-38
0.0068260133 -0.10382988 -0.03980948 1.6964007e-38
0.0087902434 -0.1031229 -0.036719695 1.6226442e-38
0.010708425 -0.1031229 -0.036719695 1.6042407e-38
0.012626611 -0.1031229 -0.036719695 1.5949492e-38
0.014520414 -0.10382988 -0.03980948 1.6226078e-38
0.016444016 -0.10382988 -0.03980948 1.6963643e-38
0.018367616 -0.10382988 -0.03980948 1.7240586e-38
0.020299343 -0.1031229 -0.036719695 1.6503021e-38
0.022217527 -0.1031229 -0.036719695 1.5305919e-38
0.024135709 -0.1031229 -0.036719695 1.4016265e-38
0.026062019 -0.10382988 -0.03980948 1.4293937e-38
0.02800292 -0.10473295 -0.043756261 1.4754915e-38
0.02993344 -0.10473295 -0.043756261 1.4939307e-38
0.031863961 -0.10473295 -0.043756261 1.493931e-38
0.033794481 -0.10473295 -0.043756261 1.5123701e-38
0.035725001 -0.10473295 -0.043756261 1.5768715e-38
0.037707798 -0.10564254 -0.047731653 1.6138576e-38
0.039645292 -0.10564254 -0.047731653 1.650628e-38
0.041633263 -0.10633601 -0.05076243 1.6599555e-38
0.043576069 -0.10633601 -0.05076243 1.6046381e-38
0.045659468 -0.10793148 -0.057735339 1.8259073e-38
0.0476145 -0.10793148 -0.057735339 2.0563964e-38
0.049569532 -0.10793148 -0.057735339 2.1301885e-38
0.051449649 -0.10725726 -0.054788724 2.0472484e-38
0.053290091 -0.10633601 -0.05076243 2.1580623e-38
0.055232897 -0.10633601 -0.05076243 2.102961e-38
0.0571757 -0.10633601 -0.05076243 2.0938492e-38
0.059118506 -0.10633601 -0.05076243 1.7806758e-38
0.061061312 -0.10633601 -0.05076243 1.4027838e-38
0.063004114 -0.10633601 -0.05076243 1.301587e-38
0.062533274 -0.091685757 0.013265593 1.2832932e-38
0.064363822 -0.091685757 0.013265593 1.172803e-38
0.066194363 -0.091685757 0.013265593 1.1451803e-38
0.067895472 -0.090996325 0.016278727 1.1451795e-38
0.06972073 -0.090996325 0.016278727 1.1820572e-38
0.071406797 -0.090310872 0.019274456 1.2465218e-38
0.073226802 -0.090310872 0.019274456 1.2466297e-38
0.10097466 -0.091685757 0.013265593 1.2274367e-38
-0.10547854 -0.10343929 -0.029772418 1.7069204e-38
-0.10241006 -0.10114056 -0.019802349 1.5871755e-38
-0.10052153 -0.10114056 -0.019802349 1.2831857e-38
-0.10009222 -0.1041155 -0.032705322 1.2555274e-38
-0.097854525 -0.10343929 -0.029772418 1.2645675e-38
-0.095948532 -0.10343929 -0.029772418 1.273715e-38
-0.094358787 -0.1041155 -0.032705322 1.2368368e-38
-0.092447639 -0.1041155 -0.032705322 1.1724074e-38
-0.09053649 -0.1041155 -0.032705322 1.1724072e-38
-0.089037105 -0.10504107 -0.036719695 1.2277601e-38
-0.087828323 -0.10666345 -0.043756261 1.2738578e-38
-0.085897803 -0.10666345 -0.043756261 1.2831127e-38
-0.066457108 -0.09582752 0.003241403 1.8910577e-38
-0.069687337 -0.10988651 -0.057735339 2.1210052e-38
-0.067732304 -0.10988651 -0.057735339 2.2958873e-38
-0.065777272 -0.10988651 -0.057735339 2.2958873e-38
-0.06382224 -0.10988651 -0.057735339 2.2314589e-38
-0.061867218 -0.10988651 -0.057735339 2.2314589e-38
-0.059912186 -0.10988651 -0.057735339 2.2498978e-38
-0.057957154 -0.10988651 -0.057735339 2.2406783e-38
-0.055792879 -0.10920714 -0.054788724 2.2499336e-38
-0.049339693 -0.094215035 0.010235054 2.222383e-38
-0.047503825 -0.094215035 0.010235054 2.2316024e-38
-0.045667972 -0.094215035 0.010235054 2.20398e-38
-0.048697766 -0.11174469 -0.065794602 2.1302246e-38
-0.046728607 -0.11174469 -0.065794602 2.056433e-38
-0.044518556 -0.11082654 -0.061812416 2.0196626e-38
-0.042556386 -0.11082654 -0.061812416 2.010443e-38
-0.040594202 -0.11082654 -0.061812416 1.9920039e-38
-0.038632017 -0.11082654 -0.061812416 2.0287744e-38
-0.03725237 -0.1133381 -0.072705522 2.019483e-38
-0.03527109 -0.1133381 -0.072705522 2.1116782e-38
-0.033289816 -0.1133381 -0.072705522 2.1393364e-38
-0.031308535 -0.1133381 -0.072705522 2.1393364e-38
-0.029327255 -0.1133381 -0.072705522 2.1669947e-38
-0.02235442 -0.10758002 -0.047731653 1.9365069e-38
-0.020416927 -0.10758002 -0.047731653 1.954946e-38
-0.018329576 -0.10666345 -0.043756261 1.9733851e-38
-0.016399056 -0.10666345 -0.043756261 1.9826047e-38
-0.014468532 -0.10666345 -0.043756261 2.0102634e-38
-0.012538012 -0.10666345 -0.043756261 2.0379221e-38
-0.01048639 -0.10575347 -0.03980948 2.019483e-38
-0.0085627921 -0.10575347 -0.03980948 1.9918243e-38
-0.0053590201 -0.094892681 0.0072959494 2.010191e-38
-0.0035180114 -0.094892681 0.0072959494 2.1116061e-38
-0.0016074367 -0.094215035 0.010235054 2.1577035e-38
0.0002284199 -0.094215035 0.010235054 2.1300809e-38
0.00097563118 -0.10666345 -0.043756261 2.1945454e-38
0.0029061511 -0.10666345 -0.043756261 2.2867037e-38
0.0048366748 -0.10666345 -0.043756261 2.2958873e-38
0.0067671947 -0.10666345 -0.043756261 2.2590454e-38
0.0087496154 -0.10575347 -0.03980948 2.2313872e-38
0.010708425 -0.10504107 -0.036719695 2.2037288e-38
0.012626611 -0.10504107 -0.036719695 2.2036209e-38
0.014544792 -0.10504107 -0.036719695 2.2312796e-38
0.016395401 -0.10758002 -0.047731653 2.2774125e-38
0.018332891 -0.10758002 -0.047731653 2.2958514e-38
0.020291217 -0.10575347 -0.03980948 2.2589736e-38
0.022214817 -0.10575347 -0.03980948 2.176142e-38
0.024138419 -0.10575347 -0.03980948 2.1117857e-38
0.026082855 -0.10758002 -0.047731653 2.0657604e-38
0.028020345 -0.10758002 -0.047731653 2.0565409e-38
0.029957835 -0.10758002 -0.047731653 2.0750157e-38
0.031895325 -0.10758002 -0.047731653 2.1486994e-38
0.033832818 -0.10758002 -0.047731653 2.1672099e-38
0.035770308 -0.10758002 -0.047731653 2.1487352e-38
0.037747651 -0.10827883 -0.05076243 2.1027099e-38
0.038736228 -0.093516305 0.013265593 2.1119293e-38
0.040566772 -0.093516305 0.013265593 2.1580264e-38
0.042453103 -0.094215035 0.010235054 2.0935622e-38
0.044288959 -0.094215035 0.010235054 2.1304399e-38
0.046124816 -0.094215035 0.010235054 2.1948682e-38
0.047960669 -0.094215035 0.010235054 2.1856847e-38
0.049719483 -0.093516305 0.013265593 2.139731e-38
0.051550023 -0.093516305 0.013265593 2.1673176e-38
0.053380564 -0.093516305 0.013265593 2.1213998e-38
0.055394277 -0.094892681 0.0072959494 2.1030327e-38
0.059118506 -0.10827883 -0.05076243 1.8637582e-38
0.059076294 -0.094892681 0.0072959494 1.5504772e-38
0.060811661 -0.094215035 0.010235054 1.4492429e-38
0.062533274 -0.093516305 0.013265593 1.4032893e-38
0.064363822 -0.093516305 0.013265593 1.3756669e-38
0.066194363 -0.093516305 0.013265593 1.3757745e-38
0.067895472 -0.092821583 0.016278727 1.4125805e-38
0.06972073 -0.092821583 0.016278727 1.4402029e-38
0.071406797 -0.092130885 0.019274456 1.4402029e-38
0.073226802 -0.092130885 0.019274456 1.4033252e-38
0.091821954 -0.093516305 0.013265593 1.2282637e-38
0.093652494 -0.093516305 0.013265593 1.2282279e-38
0.095692925 -0.094215035 0.010235054 1.246595e-38
0.097313583 -0.093516305 0.013265593 1.2648903e-38
0.099144123 -0.093516305 0.013265593 1.2554915e-38
0.10097466 -0.093516305 0.013265593 1.338071e-38
0.1025754 -0.092821583 0.016278727 6.8315556e-39
-0.10511951 -0.10464053 -0.02673878 1.4580677e-38
-0.10241006 -0.10302909 -0.019802349 1.5319666e-38
-0.10052153 -0.10302909 -0.019802349 1.3476858e-38
-0.098633021 -0.10302909 -0.019802349 1.3477216e-38
-0.097854525 -0.10534529 -0.029772418 1.3107005e-38
-0.095948532 -0.10534529 -0.029772418 1.3659811e-38
-0.094042525 -0.10534529 -0.029772418 1.4028588e-38
-0.092136517 -0.10534529 -0.029772418 1.4029664e-38
-0.09053649 -0.10602666 -0.032705322 1.43988e-38
-0.089037105 -0.10695927 -0.036719695 1.4767577e-38
-0.087828323 -0.10859399 -0.043756261 1.4951607e-38
-0.085897803 -0.10859399 -0.043756261 1.4767577e-38
-0.078713387 -0.096050888 0.010235054 1.5135636e-38
-0.076587945 -0.095346853 0.013265593 1.5043799e-38
-0.074757397 -0.095346853 0.013265593 1.587319e-38
-0.069534108 -0.096050888 0.010235054 1.6700786e-38
-0.066457108 -0.097675636 0.003241403 1.799007e-38
-0.064608991 -0.097675636 0.003241403 2.0476444e-38
-0.062760875 -0.097675636 0.003241403 2.2132353e-38
-0.060589295 -0.096733689 0.0072959494 2.2132353e-38
-0.058748286 -0.096733689 0.0072959494 2.1948682e-38
-0.056907278 -0.096733689 0.0072959494 2.1948682e-38
-0.055066269 -0.096733689 0.0072959494 2.1856847e-38
-0.05322526 -0.096733689 0.0072959494 2.1765011e-38
-0.051384252 -0.096733689 0.0072959494 2.1489505e-38
-0.049339693 -0.096050888 0.010235054 2.1489505e-38
-0.047503825 -0.096050888 0.010235054 2.158134e-38
-0.045667972 -0.096050888 0.010235054 2.158134e-38
-0.04383212 -0.096050888 0.010235054 2.1397669e-38
-0.041996267 -0.096050888 0.010235054 2.0753386e-38
-0.040160414 -0.096050888 0.010235054 2.0385326e-38
-0.038324554 -0.096050888 0.010235054 2.0200579e-38
-0.036488693 -0.096050888 0.010235054 1.9923996e-38
-0.034815166 -0.096733689 0.0072959494 2.0015115e-38
-0.032974157 -0.096733689 0.0072959494 2.0015115e-38
-0.030824374 -0.095346853 0.013265593 2.0107309e-38
-0.028993841 -0.095346853 0.013265593 2.0383891e-38
-0.027163293 -0.095346853 0.013265593 2.0107309e-38
-0.025192749 -0.094646841 0.016278727 2.0660474e-38
-0.023367491 -0.094646841 0.016278727 2.0660474e-38
-0.021542232 -0.094646841 0.016278727 2.0291697e-38
-0.019841131 -0.095346853 0.013265593 1.9554143e-38
-0.018010583 -0.095346853 0.013265593 1.9277561e-38
-0.016294282 -0.096050888 0.010235054 1.8632201e-38
-0.014458425 -0.096050888 0.010235054 1.817123e-38
-0.012622569 -0.096050888 0.010235054 1.8632201e-38
-0.010786716 -0.096050888 0.010235054 1.9461949e-38
-0.0089508593 -0.096050888 0.010235054 1.9738532e-38
-0.0072000287 -0.096733689 0.0072959494 1.9553785e-38
-0.0053590201 -0.096733689 0.0072959494 1.9921485e-38
-0.0035180114 -0.096733689 0.0072959494 2.1395876e-38
-0.0016074367 -0.096050888 0.010235054 2.1948682e-38
0.0002284199 -0.096050888 0.010235054 2.148807e-38
0.0020642765 -0.096050888 0.010235054 2.1303681e-38
0.0039001293 -0.096050888 0.010235054 2.1856847e-38
0.0057359897 -0.096050888 0.010235054 2.2132353e-38
0.0075280406 -0.096733689 0.0072959494 2.1948682e-38
0.0093690492 -0.096733689 0.0072959494 2.2224189e-38
0.011210058 -0.096733689 0.0072959494 2.2040518e-38
0.01301197 -0.097675636 0.003241403 2.1948682e-38
0.014892077 -0.096733689 0.0072959494 2.2132353e-38
0.016733086 -0.096733689 0.0072959494 2.2316024e-38
0.018574096 -0.096733689 0.0072959494 2.2316024e-38
0.020262411 -0.11022164 -0.05076243 2.2316024e-38
0.022207873 -0.10951753 -0.047731653 2.2224189e-38
0.024145363 -0.10951753 -0.047731653 2.1856847e-38
0.026090825 -0.11022164 -0.05076243 2.1673176e-38
0.028020345 -0.10951753 -0.047731653 2.158134e-38
0.029957835 -0.10951753 -0.047731653 2.1489505e-38
0.031895325 -0.10951753 -0.047731653 2.1673176e-38
0.033832818 -0.10951753 -0.047731653 2.158134e-38
0.03510968 -0.096050888 0.010235054 2.1030327e-38
0.036905684 -0.095346853 0.013265593 2.0476803e-38
0.038736228 -0.095346853 0.013265593 2.0570074e-38
0.040566772 -0.095346853 0.013265593 2.0754462e-38
0.042453103 -0.096050888 0.010235054 2.0478238e-38
0.044288959 -0.096050888 0.010235054 1.9925073e-38
0.046124816 -0.096050888 0.010235054 2.0202732e-38
0.047888938 -0.095346853 0.013265593 2.0202732e-38
0.049719483 -0.095346853 0.013265593 2.0294926e-38
0.051550023 -0.095346853 0.013265593 2.0295643e-38
0.053380564 -0.095346853 0.013265593 2.0203808e-38
0.055211108 -0.095346853 0.013265593 1.9191824e-38
0.057041649 -0.095346853 0.013265593 1.7441209e-38
0.059076294 -0.096733689 0.0072959494 1.5967895e-38
0.060811661 -0.096050888 0.010235054 1.5047388e-38
0.062533274 -0.095346853 0.013265593 1.4034328e-38
0.064363822 -0.095346853 0.013265593 1.366591e-38
0.066194363 -0.095346853 0.013265593 1.4035404e-38
0.067895472 -0.094646841 0.016278727 1.3113103e-38
0.06972073 -0.094646841 0.016278727 1.3204938e-38
0.071406797 -0.093950883 0.019274456 1.3296415e-38
0.073226802 -0.093950883 0.019274456 1.3204221e-38
0.075196505 -0.094646841 0.016278727 1.3019474e-38
0.082497545 -0.094646841 0.016278727 1.1730548e-38
0.084322803 -0.094646841 0.016278727 1.1730548e-38
0.086148061 -0.094646841 0.016278727 1.1822743e-38
0.088160872 -0.095346853 0.013265593 1.2007131e-38
0.089798577 -0.094646841 0.016278727 1.2283714e-38
0.091623843 -0.094646841 0.016278727 1.2375549e-38
0.093449101 -0.094646841 0.016278727 1.2190802e-38
0.095483035 -0.095346853 0.013265593 1.2005696e-38
0.097099617 -0.094646841 0.016278727 1.2465232e-38
0.098924875 -0.094646841 0.016278727 1.1818076e-38
0.10075013 -0.094646841 0.016278727 1.2552382e-38
0.1025754 -0.094646841 0.016278727 6.4631262e-39
0.10416692 -0.093950883 0.019274456 2.7709514e-39
-0.10465303 -0.10561861 -0.022797244 7.4819991e-39
-0.10194306 -0.10398008 -0.015797036 6.2845434e-39
-0.10006155 -0.10398008 -0.015797036 6.3781851e-39
-0.098180056 -0.10398008 -0.015797036 6.7473334e-39
-0.096298561 -0.10398008 -0.015797036 8.130265e-39
-0.095184162 -0.10561861 -0.022797244 9.4206409e-39
-0.092535555 -0.10398008 -0.015797036 1.0896486e-38
-0.09065406 -0.10398008 -0.015797036 1.2371962e-38
-0.088772565 -0.10398008 -0.015797036 1.3847428e-38
-0.084522411 -0.098574698 0.0072959494 1.5138147e-38
-0.082681403 -0.098574698 0.0072959494 1.5691672e-38
-0.08054924 -0.097886756 0.010235054 1.5783507e-38
-0.078713387 -0.097886756 0.010235054 1.5691672e-38
-0.076587945 -0.097177386 0.013265593 1.5783148e-38
-0.074757397 -0.097177386 0.013265593 1.5966819e-38
-0.072926849 -0.097177386 0.013265593 1.6611461e-38
-0.071096316 -0.097177386 0.013265593 1.6887327e-38
-0.069534108 -0.097886756 0.010235054 1.6518191e-38
-0.068305224 -0.099523753 0.003241403 1.6241608e-38
-0.066457108 -0.099523753 0.003241403 1.6885533e-38
-0.064608991 -0.099523753 0.003241403 1.6607857e-38
-0.062760875 -0.099523753 0.003241403 1.7714196e-38
-0.060912754 -0.099523753 0.003241403 1.7714196e-38
-0.058748286 -0.098574698 0.0072959494 1.7161383e-38
-0.056907278 -0.098574698 0.0072959494 1.7253584e-38
-0.055066269 -0.098574698 0.0072959494 1.6884802e-38
-0.05322526 -0.098574698 0.0072959494 1.6055402e-38
-0.051384252 -0.098574698 0.0072959494 1.5871011e-38
-0.049543243 -0.098574698 0.0072959494 1.559515e-38
-0.047503825 -0.097886756 0.010235054 1.5779541e-38
-0.045667972 -0.097886756 0.010235054 1.5594797e-38
-0.04383212 -0.097886756 0.010235054 1.5041623e-38
-0.041996267 -0.097886756 0.010235054 1.4581365e-38
-0.040160414 -0.097886756 0.010235054 1.4581365e-38
-0.038324554 -0.097886756 0.010235054 1.4581009e-38
-0.036656175 -0.098574698 0.0072959494 1.4396621e-38
-0.034815166 -0.098574698 0.0072959494 1.4396269e-38
-0.032974157 -0.098574698 0.0072959494 1.4212601e-38
-0.030824374 -0.097177386 0.013265593 1.3474316e-38
-0.028993841 -0.097177386 0.013265593 1.3475036e-38
-0.027163293 -0.097177386 0.013265593 1.3105533e-38
-0.025192749 -0.096472099 0.016278727 1.3567232e-38
-0.023367491 -0.096472099 0.016278727 1.3474316e-38
-0.021542232 -0.096472099 0.016278727 1.3567232e-38
-0.019841131 -0.097177386 0.013265593 1.5133837e-38
-0.018010583 -0.097177386 0.013265593 1.4304797e-38
-0.016180042 -0.097177386 0.013265593 1.3566511e-38
-0.014349498 -0.097177386 0.013265593 1.2829667e-38
-0.012622569 -0.097886756 0.010235054 1.338212e-38
-0.010786716 -0.097886756 0.010235054 1.4120405e-38
-0.0089508593 -0.097886756 0.010235054 1.485725e-38
-0.0071150027 -0.097886756 0.010235054 1.5133471e-38
-0.0053590201 -0.098574698 0.0072959494 1.5501162e-38
-0.0035180114 -0.098574698 0.0072959494 1.5869576e-38
-0.0016770028 -0.098574698 0.0072959494 1.6237638e-38
0.0002284199 -0.097886756 0.010235054 1.6146163e-38
0.0020642765 -0.097886756 0.010235054 1.6514225e-38
0.0039001293 -0.097886756 0.010235054 1.6699693e-38
0.0057359897 -0.097886756 0.010235054 1.6790809e-38
0.0075280406 -0.098574698 0.0072959494 1.6422025e-38
0.0093690492 -0.098574698 0.0072959494 1.7620569e-38
0.011210058 -0.098574698 0.0072959494 1.7528729e-38
0.01301197 -0.099523753 0.003241403 1.771312e-38
0.014892077 -0.098574698 0.0072959494 1.7989707e-38
0.016733086 -0.098574698 0.0072959494 1.817338e-38
0.018574096 -0.098574698 0.0072959494 1.8081181e-38
0.020415105 -0.098574698 0.0072959494 1.8173377e-38
0.02225256 -0.099523753 0.003241403 1.8357768e-38
0.024100676 -0.099523753 0.003241403 1.7989707e-38
0.025938131 -0.098574698 0.0072959494 1.8082623e-38
0.02777914 -0.098574698 0.0072959494 1.8082623e-38
0.029976435 -0.11216442 -0.05076243 1.7529816e-38
0.031895325 -0.11145501 -0.047731653 1.6791898e-38
0.033302166 -0.098574698 0.0072959494 1.6238729e-38
0.03510968 -0.097886756 0.010235054 1.60547e-38
0.036905684 -0.097177386 0.013265593 1.6055426e-38
0.038736228 -0.097177386 0.013265593 1.494944e-38
0.040566772 -0.097177386 0.013265593 1.4119682e-38
0.042453103 -0.097886756 0.010235054 1.3844174e-38
0.044288959 -0.097886756 0.010235054 1.3290645e-38
0.046124816 -0.097886756 0.010235054 1.3936733e-38
0.047817618 -0.096472099 0.016278727 1.3568669e-38
0.049642876 -0.096472099 0.016278727 1.3476474e-38
0.051468134 -0.096472099 0.016278727 1.2554871e-38
0.053293396 -0.096472099 0.016278727 1.3384983e-38
0.055211108 -0.097177386 0.013265593 1.2371551e-38
0.057041649 -0.097177386 0.013265593 1.1819833e-38
0.058975805 -0.097886756 0.010235054 1.1913123e-38
0.060811661 -0.097886756 0.010235054 1.1177014e-38
0.062647521 -0.097886756 0.010235054 9.9795586e-39
0.064483374 -0.097886756 0.010235054 9.6111418e-39
0.066194363 -0.097177386 0.013265593 9.9795614e-39
0.067895472 -0.096472099 0.016278727 1.0347621e-38
0.06972073 -0.096472099 0.016278727 1.0347257e-38
0.071545988 -0.096472099 0.016278727 1.0438728e-38
0.073371246 -0.096472099 0.016278727 1.0623475e-38
0.075196505 -0.096472099 0.016278727 1.0807513e-38
0.077021763 -0.096472099 0.016278727 1.0439452e-38
0.078847021 -0.096472099 0.016278727 9.7018955e-39
0.080672279 -0.096472099 0.016278727 9.1487217e-39
0.082497545 -0.096472099 0.016278727 9.2412733e-39
0.084322803 -0.096472099 0.016278727 9.2412719e-39
0.086148061 -0.096472099 0.016278727 8.964685e-39
0.087973319 -0.096472099 0.016278727 8.6891771e-39
0.089798577 -0.096472099 0.016278727 8.7810154e-39
0.091623843 -0.096472099 0.016278727 8.6891855e-39
0.093449101 -0.096472099 0.016278727 8.2278557e-39
0.095274359 -0.096472099 0.016278727 7.6743217e-39
0.097099617 -0.096472099 0.016278727 8.5022817e-39
0.098924875 -0.096472099 0.016278727 8.1309699e-39
0.10052691 -0.095770895 0.019274456 9.7868731e-39
0.10234691 -0.095770895 0.019274456 5.0801918e-39
-0.10263488 -0.10349102 -0.0057448316 6.285628e-39
-0.10158515 -0.10513772 -0.012727516 4.1654928e-39
-0.099371478 -0.10444455 -0.0097881723 4.5353613e-39
-0.097500518 -0.10444455 -0.0097881723 5.1821741e-39
-0.095179379 -0.10349102 -0.0057448316 5.2754515e-39
-0.093315497 -0.10349102 -0.0057448316 6.2906824e-39
-0.091887623 -0.10444455 -0.0097881723 7.9505555e-39
-0.089587763 -0.10349102 -0.0057448316 9.5182315e-39
-0.087409616 -0.10278064 -0.0027324129 1.1269577e-38
-0.085243791 -0.10207425 0.00026295893 1.2652849e-38
-0.082681403 -0.10041572 0.0072959494 1.3390044e-38
-0.08054924 -0.099722609 0.010235054 1.3574433e-38
-0.078713387 -0.099722609 0.010235054 1.4496734e-38
-0.076587945 -0.099007934 0.013265593 1.4956988e-38
-0.074757397 -0.099007934 0.013265593 1.3942128e-38
-0.072926849 -0.099007934 0.013265593 1.3572266e-38
-0.071096316 -0.099007934 0.013265593 1.4586058e-38
-0.069534108 -0.099722609 0.010235054 1.4585339e-38
-0.067953333 -0.10041572 0.0072959494 1.4124364e-38
-0.066112325 -0.10041572 0.0072959494 1.4953399e-38
-0.064608991 -0.10137187 0.003241403 1.5138139e-38
-0.062430304 -0.10041572 0.0072959494 1.5507276e-38
-0.060589295 -0.10041572 0.0072959494 1.4953745e-38
-0.058748286 -0.10041572 0.0072959494 1.421618e-38
-0.056907278 -0.10041572 0.0072959494 1.4216186e-38
-0.055066269 -0.10041572 0.0072959494 1.3755928e-38
-0.05322526 -0.10041572 0.0072959494 1.3202757e-38
-0.051384252 -0.10041572 0.0072959494 1.3294952e-38
-0.049339693 -0.099722609 0.010235054 1.3203121e-38
-0.047503825 -0.099722609 0.010235054 1.3295317e-38
-0.045667972 -0.099722609 0.010235054 1.3110572e-38
-0.04383212 -0.099722609 0.010235054 1.274179e-38
-0.041996267 -0.099722609 0.010235054 1.2650314e-38
-0.0403382 -0.10041572 0.0072959494 1.2926545e-38
-0.038497183 -0.10041572 0.0072959494 1.2834353e-38
-0.036656175 -0.10041572 0.0072959494 1.2557768e-38
-0.03465284 -0.099722609 0.010235054 1.228155e-38
-0.032816987 -0.099722609 0.010235054 1.2558859e-38
-0.030824374 -0.099007934 0.013265593 1.1543988e-38
-0.028993841 -0.099007934 0.013265593 1.1729098e-38
-0.027163293 -0.099007934 0.013265593 1.0990814e-38
-0.025332753 -0.099007934 0.013265593 1.1544707e-38
-0.023367491 -0.098297372 0.016278727 1.1175205e-38
-0.021542232 -0.098297372 0.016278727 1.2005685e-38
-0.019841131 -0.099007934 0.013265593 1.1820575e-38
-0.018010583 -0.099007934 0.013265593 1.1636902e-38
-0.016180042 -0.099007934 0.013265593 1.1728379e-38
-0.014349498 -0.099007934 0.013265593 1.1636902e-38
-0.012622569 -0.099722609 0.010235054 1.1636183e-38
-0.010786716 -0.099722609 0.010235054 1.1544707e-38
-0.0089508593 -0.099722609 0.010235054 1.2004966e-38
-0.0071150027 -0.099722609 0.010235054 1.2741804e-38
-0.0053590201 -0.10041572 0.0072959494 1.357119e-38
-0.0035180114 -0.10041572 0.0072959494 1.3478269e-38
-0.0016770028 -0.10041572 0.0072959494 1.3661941e-38
0.0002284199 -0.099722609 0.010235054 1.4215831e-38
0.0020642765 -0.099722609 0.010235054 1.467609e-38
0.0039001293 -0.099722609 0.010235054 1.4492418e-38
0.0057359897 -0.099722609 0.010235054 1.4399503e-38
0.0075280406 -0.10041572 0.0072959494 1.4399861e-38
0.0093690492 -0.10041572 0.0072959494 1.4860839e-38
0.011210058 -0.10041572 0.0072959494 1.4860836e-38
0.013051068 -0.10041572 0.0072959494 1.5229619e-38
0.014892077 -0.10041572 0.0072959494 1.5690595e-38
0.016733086 -0.10041572 0.0072959494 1.5598401e-38
0.018574096 -0.10041572 0.0072959494 1.5229616e-38
0.020415105 -0.10041572 0.0072959494 1.5321811e-38
0.022256114 -0.10041572 0.0072959494 1.5874262e-38
0.024097122 -0.10041572 0.0072959494 1.5780986e-38
0.025938131 -0.10041572 0.0072959494 1.605757e-38
0.02777914 -0.10041572 0.0072959494 1.6057574e-38
0.029602114 -0.099722609 0.010235054 1.5596959e-38
0.031437971 -0.099722609 0.010235054 1.4859041e-38
0.033273824 -0.099722609 0.010235054 1.4306232e-38
0.03510968 -0.099722609 0.010235054 1.4214762e-38
0.036945537 -0.099722609 0.010235054 1.4307322e-38
0.038736228 -0.099007934 0.013265593 1.49534e-38
0.040566772 -0.099007934 0.013265593 1.3570485e-38
0.042397313 -0.099007934 0.013265593 1.3478651e-38
0.044227853 -0.099007934 0.013265593 1.2648891e-38
0.046058394 -0.099007934 0.013265593 1.311059e-38
0.047817618 -0.098297372 0.016278727 1.1912768e-38
0.049642876 -0.098297372 0.016278727 1.2097159e-38
0.051468134 -0.098297372 0.016278727 1.1083361e-38
0.053293396 -0.098297372 0.016278727 1.1451771e-38
0.055211108 -0.099007934 0.013265593 1.1175184e-38
0.057041649 -0.099007934 0.013265593 1.1176998e-38
0.058872193 -0.099007934 0.013265593 1.1362122e-38
0.060702734 -0.099007934 0.013265593 1.062565e-38
0.062533274 -0.099007934 0.013265593 1.0165758e-38
0.064363822 -0.099007934 0.013265593 1.0257952e-38
0.066194363 -0.099007934 0.013265593 1.0257234e-38
0.067895472 -0.098297372 0.016278727 1.0440186e-38
0.06972073 -0.098297372 0.016278727 1.0347265e-38
0.071545988 -0.098297372 0.016278727 1.0346901e-38
0.073371246 -0.098297372 0.016278727 1.0346901e-38
0.075196505 -0.098297372 0.016278727 1.0439096e-38
0.077021763 -0.098297372 0.016278727 1.0255069e-38
0.078847021 -0.098297372 0.016278727 9.6107817e-39
0.080506831 -0.097590908 0.019274456 9.2419992e-39
0.082326837 -0.097590908 0.019274456 9.8862868e-39
0.084322803 -0.098297372 0.016278727 1.0071034e-38
0.086148061 -0.098297372 0.016278727 9.7951674e-39
0.087973319 -0.098297372 0.016278727 9.4263848e-39
0.089798577 -0.098297372 0.016278727 9.0579681e-39
0.091623843 -0.098297372 0.016278727 8.782463e-39
0.093449101 -0.098297372 0.016278727 8.4133287e-39
0.095274359 -0.098297372 0.016278727 8.04347e-39
0.097099617 -0.098297372 0.016278727 8.5959221e-39
0.098924875 -0.098297372 0.016278727 8.3168031e-39
0.10052691 -0.097590908 0.019274456 1.0340769e-38
0.10234691 -0.097590908 0.019274456 5.3582206e-39
-0.10157135 -0.10322 0.003241403 4.8112252e-39
-0.099723235 -0.10322 0.003241403 4.1669347e-39
-0.098217174 -0.1039276 0.00026295893 4.3509715e-39
-0.096363828 -0.1039276 0.00026295893 5.7360667e-39
-0.094843984 -0.10463922 -0.0027324129 4.6315268e-39
-0.092985392 -0.10463922 -0.0027324129 5.4630826e-39
-0.0911268 -0.10463922 -0.0027324129 6.938207e-39
-0.089268208 -0.10463922 -0.0027324129 8.5977172e-39
-0.087097123 -0.1039276 0.00026295893 1.0257587e-38
-0.085243791 -0.1039276 0.00026295893 1.2008925e-38
-0.082681403 -0.10225673 0.0072959494 1.3023061e-38
-0.080840394 -0.10225673 0.0072959494 1.3391121e-38
-0.078713387 -0.10155846 0.010235054 1.3022334e-38
-0.076877534 -0.10155846 0.010235054 1.4313063e-38
-0.075041667 -0.10155846 0.010235054 1.3298556e-38
-0.073205814 -0.10155846 0.010235054 1.2559912e-38
-0.071369961 -0.10155846 0.010235054 1.4403105e-38
-0.069794342 -0.10225673 0.0072959494 1.4955194e-38
-0.067953333 -0.10225673 0.0072959494 1.3941053e-38
-0.066112325 -0.10225673 0.0072959494 1.4217639e-38
-0.064271316 -0.10225673 0.0072959494 1.3849206e-38
-0.062430304 -0.10225673 0.0072959494 1.4587126e-38
-0.060589295 -0.10225673 0.0072959494 1.4494933e-38
-0.058748286 -0.10225673 0.0072959494 1.4310542e-38
-0.056907278 -0.10225673 0.0072959494 1.4680046e-38
-0.055066269 -0.10225673 0.0072959494 1.4403462e-38
-0.05322526 -0.10225673 0.0072959494 1.3665541e-38
-0.051175546 -0.10155846 0.010235054 1.3665541e-38
-0.049339693 -0.10155846 0.010235054 1.357371e-38
-0.047503825 -0.10155846 0.010235054 1.3665905e-38
-0.045667972 -0.10155846 0.010235054 1.3573713e-38
-0.04383212 -0.10155846 0.010235054 1.348152e-38
-0.041996267 -0.10155846 0.010235054 1.3573357e-38
-0.040160414 -0.10155846 0.010235054 1.3390044e-38
-0.038497183 -0.10225673 0.0072959494 1.2929072e-38
-0.036656175 -0.10225673 0.0072959494 1.2283348e-38
-0.03465284 -0.10155846 0.010235054 1.1914931e-38
-0.032816987 -0.10155846 0.010235054 1.2745044e-38
-0.030824374 -0.10083848 0.013265593 1.1823097e-38
-0.028993841 -0.10083848 0.013265593 1.2468461e-38
-0.027163293 -0.10083848 0.013265593 1.1638706e-38
-0.025332753 -0.10083848 0.013265593 1.2284072e-38
-0.023502212 -0.10083848 0.013265593 1.1730901e-38
-0.021671664 -0.10083848 0.013265593 1.311382e-38
-0.019841131 -0.10083848 0.013265593 1.2191878e-38
-0.018130139 -0.10155846 0.010235054 1.2376267e-38
-0.016180042 -0.10083848 0.013265593 1.2745044e-38
-0.014349498 -0.10083848 0.013265593 1.2837238e-38
-0.012622569 -0.10155846 0.010235054 1.2007488e-38
-0.010786716 -0.10155846 0.010235054 1.1362119e-38
-0.0089508593 -0.10155846 0.010235054 1.1823097e-38
-0.0071150027 -0.10155846 0.010235054 1.2929073e-38
-0.0053590201 -0.10225673 0.0072959494 1.3112381e-38
-0.0035180114 -0.10225673 0.0072959494 1.3112013e-38
-0.0016770028 -0.10225673 0.0072959494 1.3572994e-38
0.00016400591 -0.10225673 0.0072959494 1.4310552e-38
0.0020642765 -0.10155846 0.010235054 1.4126163e-38
0.0039001293 -0.10155846 0.010235054 1.3480795e-38
0.0057359897 -0.10155846 0.010235054 1.3665187e-38
0.0075280406 -0.10225673 0.0072959494 1.4495299e-38
0.0093690492 -0.10225673 0.0072959494 1.4218716e-38
0.011210058 -0.10225673 0.0072959494 1.4310911e-38
0.013051068 -0.10225673 0.0072959494 1.4771882e-38
0.014892077 -0.10225673 0.0072959494 1.5140659e-38
0.016751122 -0.10155846 0.010235054 1.495627e-38
0.018586978 -0.10155846 0.010235054 1.4310911e-38
0.020422835 -0.10155846 0.010235054 1.4310911e-38
0.022256114 -0.10225673 0.0072959494 1.4955553e-38
0.024094546 -0.10155846 0.010235054 1.5599119e-38
0.025930401 -0.10155846 0.010235054 1.5229616e-38
0.027766258 -0.10155846 0.010235054 1.4676808e-38
0.029602114 -0.10155846 0.010235054 1.4584616e-38
0.031437971 -0.10155846 0.010235054 1.4585341e-38
0.033273824 -0.10155846 0.010235054 1.4493505e-38
0.03510968 -0.10155846 0.010235054 1.4032175e-38
0.036905684 -0.10083848 0.013265593 1.3388251e-38
0.038736228 -0.10083848 0.013265593 1.3295698e-38
0.040566772 -0.10083848 0.013265593 1.2005329e-38
0.042397313 -0.10083848 0.013265593 1.237519e-38
0.044167101 -0.10012263 0.016278727 1.1361403e-38
0.04599236 -0.10012263 0.016278727 1.1269929e-38
0.047817618 -0.10012263 0.016278727 1.0163581e-38
0.049642876 -0.10012263 0.016278727 1.1270649e-38
0.051468134 -0.10012263 0.016278727 1.1362122e-38
0.053293396 -0.10012263 0.016278727 1.1637979e-38
0.055118654 -0.10012263 0.016278727 1.1914565e-38
