# .PCD v0.7 - Point Cloud Data file format
VERSION 0.7
FIELDS x y z rgb
SIZE 4 4 4 4
TYPE F F F F
COUNT 1 1 1 1
WIDTH 918
HEIGHT 1
VIEWPOINT 0 0 0 1 0 0 0
POINTS 918
DATA ascii
0.053483896 -0.078532472 0.0043545999 2.3509168e-38
0.059685141 -0.081364051 -0.0086170398 2.2867027e-38
0.061521001 -0.081364051 -0.0086170398 2.2222381e-38
-0.10286826 -0.099053472 -0.080664515 1.2833285e-38
-0.10090607 -0.099053472 -0.080664515 1.2743247e-38
-0.098943889 -0.099053472 -0.080664515 1.3021626e-38
-0.096981719 -0.099053472 -0.080664515 1.2929072e-38
-0.095351189 -0.09992972 -0.084646702 1.3755234e-38
-0.093382031 -0.09992972 -0.084646702 1.449207e-38
-0.091095179 -0.099053472 -0.080664515 1.4584623e-38
-0.089132994 -0.099053472 -0.080664515 1.4216564e-38
-0.08747454 -0.09992972 -0.084646702 1.4032893e-38
-0.085505381 -0.09992972 -0.084646702 1.4402387e-38
-0.083246455 -0.099053472 -0.080664515 1.4678611e-38
-0.081284285 -0.099053472 -0.080664515 1.4585341e-38
-0.0793221 -0.099053472 -0.080664515 1.651855e-38
-0.068858534 -0.089809433 -0.038654443 2.2866678e-38
-0.066970021 -0.089809433 -0.038654443 2.3509168e-38
-0.065081492 -0.089809433 -0.038654443 2.3508451e-38
-0.063192979 -0.089809433 -0.038654443 2.2860926e-38
-0.061687559 -0.091335744 -0.045590874 2.3509527e-38
-0.0599491 -0.092003286 -0.048624512 2.341805e-38
-0.058043092 -0.092003286 -0.048624512 2.3509886e-38
-0.0561371 -0.092003286 -0.048624512 2.3509886e-38
-0.054231092 -0.092003286 -0.048624512 2.3509886e-38
-0.052325085 -0.092003286 -0.048624512 2.3509886e-38
-0.050419092 -0.092003286 -0.048624512 2.3509886e-38
-0.048382774 -0.091335744 -0.045590874 2.3509886e-38
-0.046482086 -0.091335744 -0.045590874 2.3509527e-38
-0.044581406 -0.091335744 -0.045590874 2.3509527e-38
-0.042532139 -0.090468436 -0.041649338 2.3509527e-38
-0.040530719 -0.089809433 -0.038654443 2.3509527e-38
-0.038642198 -0.089809433 -0.038654443 2.3509527e-38
-0.036753677 -0.089809433 -0.038654443 2.3509527e-38
-0.034865156 -0.089809433 -0.038654443 2.3509527e-38
-0.033063278 -0.090468436 -0.041649338 2.3509524e-38
-0.031169502 -0.090468436 -0.041649338 2.3509524e-38
-0.029275728 -0.090468436 -0.041649338 2.3509883e-38
-0.027475251 -0.091335744 -0.045590874 2.314074e-38
-0.025488185 -0.090468436 -0.041649338 2.2863797e-38
-0.023594411 -0.090468436 -0.041649338 2.2955996e-38
-0.021700641 -0.090468436 -0.041649338 2.3232585e-38
-0.019806867 -0.090468436 -0.041649338 2.3508809e-38
-0.017913094 -0.090468436 -0.041649338 2.3509168e-38
-0.01601932 -0.090468436 -0.041649338 2.3509168e-38
-0.01412555 -0.090468436 -0.041649338 2.3509527e-38
-0.012231776 -0.090468436 -0.041649338 2.3509527e-38
-0.010338005 -0.090468436 -0.041649338 2.3509527e-38
-0.0084442329 -0.090468436 -0.041649338 2.3509527e-38
-0.0065504592 -0.090468436 -0.041649338 2.3509883e-38
-0.004667053 -0.091335744 -0.045590874 2.350988e-38
-0.0027663708 -0.091335744 -0.045590874 2.3509879e-38
-0.00086914189 -0.090468436 -0.041649338 2.3509514e-38
0.0010246299 -0.090468436 -0.041649338 2.3509156e-38
0.0029184017 -0.090468436 -0.041649338 2.3507712e-38
0.0048121754 -0.090468436 -0.041649338 2.3507351e-38
0.0067059472 -0.090468436 -0.041649338 2.3416234e-38
0.00859972 -0.090468436 -0.041649338 2.350879e-38
0.010493492 -0.090468436 -0.041649338 2.3509149e-38
0.012387265 -0.090468436 -0.041649338 2.3325478e-38
0.014236404 -0.089809433 -0.038654443 2.3509869e-38
0.016124925 -0.089809433 -0.038654443 2.3509869e-38
0.017939707 -0.088928089 -0.03464913 2.3509869e-38
0.019821206 -0.088928089 -0.03464913 2.3509867e-38
0.021635432 -0.088252664 -0.03157961 2.3509509e-38
0.023511549 -0.088252664 -0.03157961 2.3509509e-38
0.025387665 -0.088252664 -0.03157961 2.350915e-38
0.027183902 -0.087605879 -0.028640267 2.332548e-38
0.029054863 -0.087605879 -0.028640267 2.2496804e-38
0.030925827 -0.087605879 -0.028640267 2.3142538e-38
0.032567926 -0.086053312 -0.021584507 2.2866308e-38
0.034222275 -0.084738806 -0.015610691 2.3234376e-38
0.035924658 -0.083846629 -0.011556145 2.2774116e-38
0.037654869 -0.083199903 -0.0086170398 2.277376e-38
0.039252304 -0.081870034 -0.0025733672 2.3234379e-38
0.040954128 -0.081210837 0.00042236224 2.240498e-38
0.042774133 -0.081210837 0.00042236224 2.341805e-38
0.044418335 -0.080345586 0.0043545999 2.341805e-38
0.046231449 -0.080345586 0.0043545999 2.3509527e-38
0.048044555 -0.080345586 0.0043545999 2.3325138e-38
0.049857669 -0.080345586 0.0043545999 2.3509886e-38
0.051670782 -0.080345586 0.0043545999 2.3509886e-38
0.053483896 -0.080345586 0.0043545999 2.3509527e-38
0.05584605 -0.082533047 -0.0055865012 2.3417687e-38
0.057676598 -0.082533047 -0.0055865012 2.3509873e-38
0.059685141 -0.083199903 -0.0086170398 2.3418031e-38
0.061521001 -0.083199903 -0.0086170398 2.2682621e-38
0.063356854 -0.083199903 -0.0086170398 2.2958856e-38
-0.10250011 -0.10011137 -0.076587439 1.2191161e-38
-0.10054508 -0.10011137 -0.076587439 1.2008925e-38
-0.098943889 -0.10101564 -0.080664515 1.2011436e-38
-0.096981719 -0.10101564 -0.080664515 1.2011077e-38
-0.095019534 -0.10101564 -0.080664515 1.2561e-38
-0.093057349 -0.10101564 -0.080664515 1.3389676e-38
-0.090769917 -0.10011137 -0.076587439 1.3759898e-38
-0.088814884 -0.10011137 -0.076587439 1.385245e-38
-0.08747454 -0.10189888 -0.084646702 1.3485467e-38
-0.084904835 -0.10011137 -0.076587439 1.3301796e-38
-0.082949802 -0.10011137 -0.076587439 1.376205e-38
-0.08099477 -0.10011137 -0.076587439 1.4406333e-38
-0.079039738 -0.10011137 -0.076587439 1.4035383e-38
-0.076885805 -0.099457815 -0.073640823 1.6059357e-38
-0.074935943 -0.099457815 -0.073640823 1.9927943e-38
-0.070938721 -0.09236221 -0.041649338 2.1489505e-38
-0.068858534 -0.091697961 -0.038654443 2.2591531e-38
-0.066970021 -0.091697961 -0.038654443 2.2865584e-38
-0.065081492 -0.091697961 -0.038654443 2.3509869e-38
-0.063192979 -0.091697961 -0.038654443 2.3509869e-38
-0.061469868 -0.09236221 -0.041649338 2.3141092e-38
-0.059786871 -0.093236431 -0.045590874 2.3325847e-38
-0.057886183 -0.093236431 -0.045590874 2.350988e-38
-0.055985503 -0.093236431 -0.045590874 2.350988e-38
-0.054084823 -0.093236431 -0.045590874 2.350988e-38
-0.052184135 -0.093236431 -0.045590874 2.350988e-38
-0.050107226 -0.09236221 -0.041649338 2.3417324e-38
-0.048213452 -0.09236221 -0.041649338 2.3232933e-38
-0.046196282 -0.091697961 -0.038654443 2.3509518e-38
-0.044307761 -0.091697961 -0.038654443 2.3509518e-38
-0.04241924 -0.091697961 -0.038654443 2.3509518e-38
-0.040530719 -0.091697961 -0.038654443 2.3509518e-38
-0.038642198 -0.091697961 -0.038654443 2.350916e-38
-0.036753677 -0.091697961 -0.038654443 2.350916e-38
-0.034865156 -0.091697961 -0.038654443 2.350916e-38
-0.033063278 -0.09236221 -0.041649338 2.3509518e-38
-0.031088112 -0.091697961 -0.038654443 2.3509513e-38
-0.029199591 -0.091697961 -0.038654443 2.3509873e-38
-0.027381955 -0.09236221 -0.041649338 2.3509879e-38
-0.025488185 -0.09236221 -0.041649338 2.3509521e-38
-0.023594411 -0.09236221 -0.041649338 2.3509527e-38
-0.021700641 -0.09236221 -0.041649338 2.3509168e-38
-0.019806867 -0.09236221 -0.041649338 2.3508092e-38
-0.017913094 -0.09236221 -0.041649338 2.3415539e-38
-0.01601932 -0.09236221 -0.041649338 2.3508809e-38
-0.01412555 -0.09236221 -0.041649338 2.3508809e-38
-0.012231776 -0.09236221 -0.041649338 2.3509168e-38
-0.010338005 -0.09236221 -0.041649338 2.3509168e-38
-0.0084442329 -0.09236221 -0.041649338 2.3509527e-38
-0.0065504592 -0.09236221 -0.041649338 2.3509524e-38
-0.004667053 -0.093236431 -0.045590874 2.3509521e-38
-0.0027629156 -0.09236221 -0.041649338 2.3509521e-38
-0.00086914189 -0.09236221 -0.041649338 2.3509527e-38
0.0010246299 -0.09236221 -0.041649338 2.3509527e-38
0.0029052738 -0.091697961 -0.038654443 2.3509527e-38
0.0047937967 -0.091697961 -0.038654443 2.3509886e-38
0.0066507161 -0.090809584 -0.03464913 2.341805e-38
0.008532214 -0.090809584 -0.03464913 2.341805e-38
0.010459361 -0.091697961 -0.038654443 2.3234379e-38
0.012347882 -0.091697961 -0.038654443 2.3234379e-38
0.014176711 -0.090809584 -0.03464913 2.3142544e-38
0.01605821 -0.090809584 -0.03464913 2.3050707e-38
0.017883198 -0.090128779 -0.03157961 2.295887e-38
0.019700048 -0.089476839 -0.028640267 2.295887e-38
0.021571012 -0.089476839 -0.028640267 2.3050347e-38
0.023441974 -0.089476839 -0.028640267 2.3234379e-38
0.025312938 -0.089476839 -0.028640267 2.3234379e-38
0.027183902 -0.089476839 -0.028640267 2.3234376e-38
0.028937891 -0.088580042 -0.024596926 2.3234372e-38
0.030709332 -0.087911904 -0.021584507 2.2313489e-38
0.032470763 -0.087247536 -0.018589135 2.341804e-38
0.034222275 -0.086586922 -0.015610691 2.3049978e-38
0.035924658 -0.085687637 -0.011556145 2.3234015e-38
0.037654869 -0.085035756 -0.0086170398 2.341805e-38
0.039252304 -0.083695292 -0.0025733672 2.157414e-38
0.041077562 -0.083695292 -0.0025733672 2.341805e-38
0.04290282 -0.083695292 -0.0025733672 2.3048554e-38
0.044728085 -0.083695292 -0.0025733672 2.2587576e-38
0.046553344 -0.083695292 -0.0025733672 2.2587932e-38
0.048378602 -0.083695292 -0.0025733672 2.304891e-38
0.05020386 -0.083695292 -0.0025733672 2.3509886e-38
0.052029118 -0.083695292 -0.0025733672 2.3233299e-38
0.05401551 -0.084363595 -0.0055865012 2.2956709e-38
0.05584605 -0.084363595 -0.0055865012 2.3509527e-38
0.057676598 -0.084363595 -0.0055865012 2.2492871e-38
0.059685141 -0.085035756 -0.0086170398 2.3046045e-38
0.061521001 -0.085035756 -0.0086170398 2.3509883e-38
0.063356854 -0.085035756 -0.0086170398 2.3142538e-38
-0.10250011 -0.1020664 -0.076587439 1.2931584e-38
-0.10054508 -0.1020664 -0.076587439 1.3301438e-38
-0.098590046 -0.1020664 -0.076587439 1.302629e-38
-0.096635014 -0.1020664 -0.076587439 1.2657872e-38
-0.094679981 -0.1020664 -0.076587439 1.3670573e-38
-0.092724949 -0.1020664 -0.076587439 1.4038991e-38
-0.090534851 -0.10140768 -0.073640823 1.4407768e-38
-0.088584989 -0.10140768 -0.073640823 1.4500321e-38
-0.086635128 -0.10140768 -0.073640823 1.3948228e-38
-0.084685251 -0.10140768 -0.073640823 1.3763834e-38
-0.082442433 -0.1005076 -0.06961453 1.4501756e-38
-0.080499619 -0.1005076 -0.06961453 1.5698846e-38
-0.078556821 -0.1005076 -0.06961453 1.5697411e-38
-0.076885805 -0.10140768 -0.073640823 1.6247338e-38
-0.074935943 -0.10140768 -0.073640823 1.8364228e-38
-0.070938721 -0.094255984 -0.041649338 2.1213998e-38
-0.069044948 -0.094255984 -0.041649338 2.2224189e-38
-0.066970021 -0.093586475 -0.038654443 2.2775186e-38
-0.065081492 -0.093586475 -0.038654443 2.3509497e-38
-0.063192979 -0.093586475 -0.038654443 2.350986e-38
-0.061469868 -0.094255984 -0.041649338 2.3509873e-38
-0.059576094 -0.094255984 -0.041649338 2.3418045e-38
-0.05768232 -0.094255984 -0.041649338 2.350988e-38
-0.055788547 -0.094255984 -0.041649338 2.350988e-38
-0.053894773 -0.094255984 -0.041649338 2.3418043e-38
-0.052000999 -0.094255984 -0.041649338 2.3418043e-38
-0.049973324 -0.093586475 -0.038654443 2.350988e-38
-0.04808481 -0.093586475 -0.038654443 2.350988e-38
-0.046031252 -0.092691094 -0.03464913 2.350988e-38
-0.044149756 -0.092691094 -0.03464913 2.350988e-38
-0.04241924 -0.093586475 -0.038654443 2.350988e-38
-0.040386751 -0.092691094 -0.03464913 2.350988e-38
-0.038505256 -0.092691094 -0.03464913 2.350988e-38
-0.036623754 -0.092691094 -0.03464913 2.3509879e-38
-0.034742258 -0.092691094 -0.03464913 2.350988e-38
-0.032976635 -0.093586475 -0.038654443 2.3509879e-38
-0.031088112 -0.093586475 -0.038654443 2.3509872e-38
-0.029199591 -0.093586475 -0.038654443 2.332548e-38
-0.02731107 -0.093586475 -0.038654443 2.3509876e-38
-0.025422549 -0.093586475 -0.038654443 2.3232932e-38
-0.023534024 -0.093586475 -0.038654443 2.314074e-38
-0.021645503 -0.093586475 -0.038654443 2.3509168e-38
-0.019756982 -0.093586475 -0.038654443 2.3509168e-38
-0.017868461 -0.093586475 -0.038654443 2.3509168e-38
-0.01601932 -0.094255984 -0.041649338 2.3508809e-38
-0.01412555 -0.094255984 -0.041649338 2.3509168e-38
-0.012231776 -0.094255984 -0.041649338 2.3509168e-38
-0.010338005 -0.094255984 -0.041649338 2.3509527e-38
-0.0084442329 -0.094255984 -0.041649338 2.3509527e-38
-0.0065504592 -0.094255984 -0.041649338 2.3509527e-38
-0.0046566874 -0.094255984 -0.041649338 2.3509883e-38
-0.0027629156 -0.094255984 -0.041649338 2.3509527e-38
-0.00087176822 -0.093586475 -0.038654443 2.3509527e-38
0.0010167528 -0.093586475 -0.038654443 2.3509527e-38
0.0028877184 -0.092691094 -0.03464913 2.341805e-38
0.0047692172 -0.092691094 -0.03464913 2.341805e-38
0.006626497 -0.092004895 -0.03157961 2.3234379e-38
0.0085026138 -0.092004895 -0.03157961 2.3142544e-38
0.010345232 -0.091347814 -0.028640267 2.3142544e-38
0.012216195 -0.091347814 -0.028640267 2.2958873e-38
0.014087159 -0.091347814 -0.028640267 2.2683007e-38
0.015890773 -0.090443924 -0.024596926 2.2683366e-38
0.017754648 -0.090443924 -0.024596926 2.2958873e-38
0.019618521 -0.090443924 -0.024596926 2.2958873e-38
0.021416374 -0.089770496 -0.021584507 2.2958873e-38
0.023274966 -0.089770496 -0.021584507 2.2867037e-38
0.025210142 -0.090443924 -0.024596926 2.2867037e-38
0.027074017 -0.090443924 -0.024596926 2.3142544e-38
0.028937891 -0.090443924 -0.024596926 2.3234372e-38
0.030709332 -0.089770496 -0.021584507 2.3050696e-38
0.032470763 -0.089100882 -0.018589135 2.2865587e-38
0.034222275 -0.088435039 -0.015610691 2.3234372e-38
0.035924658 -0.087528646 -0.011556145 2.3418047e-38
0.037765667 -0.087528646 -0.011556145 2.2958507e-38
0.03937117 -0.086194143 -0.0055865012 2.341805e-38
0.041077562 -0.085520551 -0.0025733672 2.2864879e-38
0.04290282 -0.085520551 -0.0025733672 2.341805e-38
0.044728085 -0.085520551 -0.0025733672 2.341805e-38
0.046553344 -0.085520551 -0.0025733672 2.341805e-38
0.048378602 -0.085520551 -0.0025733672 2.3326213e-38
0.05020386 -0.085520551 -0.0025733672 2.3418047e-38
0.052029118 -0.085520551 -0.0025733672 2.3418047e-38
0.05401551 -0.086194143 -0.0055865012 2.3049621e-38
0.05584605 -0.086194143 -0.0055865012 2.3416974e-38
0.058016762 -0.087528646 -0.011556145 2.3507733e-38
0.060095929 -0.088435039 -0.015610691 2.350594e-38
0.061698787 -0.087528646 -0.011556145 2.3509527e-38
0.063539796 -0.087528646 -0.011556145 2.2407501e-38
0.065380804 -0.087528646 -0.011556145 2.1213281e-38
-0.10250011 -0.10402142 -0.076587439 1.2656437e-38
-0.10054508 -0.10402142 -0.076587439 1.2748631e-38
-0.098590046 -0.10402142 -0.076587439 1.3393273e-38
-0.096635014 -0.10402142 -0.076587439 1.3854244e-38
-0.094679981 -0.10402142 -0.076587439 1.3303949e-38
-0.092484713 -0.10335754 -0.073640823 1.3488696e-38
-0.090534851 -0.10335754 -0.073640823 1.4224097e-38
-0.088270843 -0.1024504 -0.06961453 1.4499604e-38
-0.086096883 -0.10176755 -0.066583753 1.4406674e-38
-0.084159389 -0.10176755 -0.066583753 1.4314114e-38
-0.082221895 -0.10176755 -0.066583753 1.486693e-38
-0.080284402 -0.10176755 -0.066583753 1.5605217e-38
-0.078346923 -0.10176755 -0.066583753 1.5328276e-38
-0.076141074 -0.10087189 -0.062608361 1.4221213e-38
-0.074210554 -0.10087189 -0.062608361 1.7168573e-38
-0.072027445 -0.099982664 -0.058661576 2.0387479e-38
-0.069044948 -0.096149758 -0.041649338 2.158134e-38
-0.066970021 -0.095475003 -0.038654443 2.2316024e-38
-0.064846233 -0.094572589 -0.03464913 2.2957061e-38
-0.062964737 -0.094572589 -0.03464913 2.350987e-38
-0.06130445 -0.095475003 -0.038654443 2.3418043e-38
-0.059415936 -0.095475003 -0.038654443 2.3234376e-38
-0.057320245 -0.094572589 -0.03464913 2.3234376e-38
-0.055438742 -0.094572589 -0.03464913 2.3234379e-38
-0.053557247 -0.094572589 -0.03464913 2.3234379e-38
-0.051675752 -0.094572589 -0.03464913 2.3234379e-38
-0.049794249 -0.094572589 -0.03464913 2.3142544e-38
-0.047780894 -0.093881011 -0.03157961 2.3142544e-38
-0.045904778 -0.093881011 -0.03157961 2.2958514e-38
-0.043912701 -0.093218774 -0.028640267 2.2958514e-38
-0.042041741 -0.093218774 -0.028640267 2.2958873e-38
-0.040276423 -0.093881011 -0.03157961 2.2958873e-38
-0.038400307 -0.093881011 -0.03157961 2.2958873e-38
-0.036524191 -0.093881011 -0.03157961 2.295887e-38
-0.034742258 -0.094572589 -0.03464913 2.2775202e-38
-0.03277196 -0.093881011 -0.03157961 2.295887e-38
-0.030895842 -0.093881011 -0.03157961 2.3234374e-38
-0.02909776 -0.094572589 -0.03464913 2.3234374e-38
-0.027216261 -0.094572589 -0.03464913 2.3418045e-38
-0.025334762 -0.094572589 -0.03464913 2.3326208e-38
-0.023453264 -0.094572589 -0.03464913 2.3509883e-38
-0.021571765 -0.094572589 -0.03464913 2.3509886e-38
-0.019690266 -0.094572589 -0.03464913 2.3509886e-38
-0.017868461 -0.095475003 -0.038654443 2.3509886e-38
-0.01597994 -0.095475003 -0.038654443 2.3509527e-38
-0.014091419 -0.095475003 -0.038654443 2.3509527e-38
-0.012202896 -0.095475003 -0.038654443 2.3509527e-38
-0.010314375 -0.095475003 -0.038654443 2.3509886e-38
-0.0084442329 -0.096149758 -0.041649338 2.341805e-38
-0.0065504592 -0.096149758 -0.041649338 2.341805e-38
-0.0046566874 -0.096149758 -0.041649338 2.3234379e-38
-0.0027629156 -0.096149758 -0.041649338 2.341805e-38
-0.00087176822 -0.095475003 -0.038654443 2.341805e-38
0.0010167528 -0.095475003 -0.038654443 2.3418047e-38
0.0028877184 -0.094572589 -0.03464913 2.3418047e-38
0.0047692172 -0.094572589 -0.03464913 2.3418047e-38
0.006626497 -0.093881011 -0.03157961 2.3234376e-38
0.008474269 -0.093218774 -0.028640267 2.3234376e-38
0.010299152 -0.092307791 -0.024596926 2.3234376e-38
0.012163025 -0.092307791 -0.024596926 2.3142541e-38
0.014026899 -0.092307791 -0.024596926 2.3050707e-38
0.015890773 -0.092307791 -0.024596926 2.2958873e-38
0.017699188 -0.091629088 -0.021584507 2.3142544e-38
0.01955778 -0.091629088 -0.021584507 2.3142544e-38
0.021350725 -0.090954214 -0.018589135 2.3142544e-38
0.023204064 -0.090954214 -0.018589135 2.3142544e-38
0.025057405 -0.090954214 -0.018589135 2.2867036e-38
0.026829801 -0.090283155 -0.015610691 2.2867036e-38
0.028677918 -0.090283155 -0.015610691 2.3142541e-38
0.03040163 -0.089369655 -0.011556145 2.3142541e-38
0.032242641 -0.089369655 -0.011556145 2.3234376e-38
0.03408365 -0.089369655 -0.011556145 2.3142541e-38
0.035924658 -0.089369655 -0.011556145 2.3142539e-38
0.037765667 -0.089369655 -0.011556145 2.3050704e-38
0.03949073 -0.088707477 -0.0086170398 2.3142539e-38
0.041326582 -0.088707477 -0.0086170398 2.3050347e-38
0.043162435 -0.088707477 -0.0086170398 2.3142542e-38
0.044862799 -0.088024676 -0.0055865012 2.3142542e-38
0.046553344 -0.087345809 -0.0025733672 2.3234379e-38
0.048378602 -0.087345809 -0.0025733672 2.3234376e-38
0.050505862 -0.088707477 -0.0086170398 2.3234376e-38
0.052341715 -0.088707477 -0.0086170398 2.3234374e-38
0.054177575 -0.088707477 -0.0086170398 2.3234374e-38
0.056013428 -0.088707477 -0.0086170398 2.3418043e-38
0.058016762 -0.089369655 -0.011556145 2.3508442e-38
0.060095929 -0.090283155 -0.015610691 2.3509168e-38
0.061698787 -0.089369655 -0.011556145 2.2958873e-38
0.063539796 -0.089369655 -0.011556145 1.9368319e-38
0.065380804 -0.089369655 -0.011556145 1.5409328e-38
-0.10509889 -0.10280241 -0.062608361 8.6906275e-39
-0.10280506 -0.10190627 -0.058661576 8.7856902e-39
-0.10060246 -0.10120471 -0.055571791 9.7069262e-39
-0.098328829 -0.10029322 -0.051557418 1.0627803e-38
-0.096417695 -0.10029322 -0.051557418 1.1547236e-38
-0.094506547 -0.10029322 -0.051557418 1.1917089e-38
-0.092595398 -0.10029322 -0.051557418 1.1737005e-38
-0.091585234 -0.10280241 -0.062608361 1.1921753e-38
-0.089654714 -0.10280241 -0.062608361 1.2933019e-38
-0.087724194 -0.10280241 -0.062608361 1.3853161e-38
-0.085793674 -0.10280241 -0.062608361 1.4772942e-38
-0.083863154 -0.10280241 -0.062608361 1.5049161e-38
-0.081932634 -0.10280241 -0.062608361 1.4864412e-38
-0.080002114 -0.10280241 -0.062608361 1.4312686e-38
-0.077798247 -0.10190627 -0.058661576 1.431342e-38
-0.075666085 -0.10120471 -0.055571791 1.2653903e-38
-0.073747903 -0.10120471 -0.055571791 1.3112723e-38
-0.070747063 -0.097363517 -0.038654443 1.449133e-38
-0.068858534 -0.097363517 -0.038654443 1.7897512e-38
-0.066727743 -0.096454084 -0.03464913 2.2224189e-38
-0.064846233 -0.096454084 -0.03464913 2.3234379e-38
-0.062964737 -0.096454084 -0.03464913 2.3417324e-38
-0.061083242 -0.096454084 -0.03464913 2.3234012e-38
-0.059201747 -0.096454084 -0.03464913 2.3050703e-38
-0.05716148 -0.095757127 -0.03157961 2.3234015e-38
-0.055285364 -0.095757127 -0.03157961 2.3142542e-38
-0.053409249 -0.095757127 -0.03157961 2.3142544e-38
-0.051533133 -0.095757127 -0.03157961 2.3142544e-38
-0.049525589 -0.095089734 -0.028640267 2.3142544e-38
-0.047654629 -0.095089734 -0.028640267 2.3050708e-38
-0.045617066 -0.094171658 -0.024596926 2.3142544e-38
-0.043753192 -0.094171658 -0.024596926 2.3142544e-38
-0.041889317 -0.094171658 -0.024596926 2.3142544e-38
-0.040170774 -0.095089734 -0.028640267 2.2958873e-38
-0.038299814 -0.095089734 -0.028640267 2.3142544e-38
-0.036428846 -0.095089734 -0.028640267 2.2958873e-38
-0.034557886 -0.095089734 -0.028640267 2.2958873e-38
-0.03277196 -0.095757127 -0.03157961 2.2958873e-38
-0.030895842 -0.095757127 -0.03157961 2.3234379e-38
-0.029019723 -0.095757127 -0.03157961 2.3234379e-38
-0.027143607 -0.095757127 -0.03157961 2.341805e-38
-0.025267487 -0.095757127 -0.03157961 2.3509886e-38
-0.023391372 -0.095757127 -0.03157961 2.3509886e-38
-0.021515256 -0.095757127 -0.03157961 2.3509527e-38
-0.01963914 -0.095757127 -0.03157961 2.3509527e-38
-0.017763024 -0.095757127 -0.03157961 2.3509527e-38
-0.015886905 -0.095757127 -0.03157961 2.3416974e-38
-0.014045769 -0.096454084 -0.03464913 2.3416974e-38
-0.012164271 -0.096454084 -0.03464913 2.3416974e-38
-0.010314375 -0.097363517 -0.038654443 2.3325138e-38
-0.0084258541 -0.097363517 -0.038654443 2.3233662e-38
-0.0065373313 -0.097363517 -0.038654443 2.3233662e-38
-0.0046566874 -0.098043531 -0.041649338 2.3050349e-38
-0.0027629156 -0.098043531 -0.041649338 2.3233662e-38
-0.00087176822 -0.097363517 -0.038654443 2.3509883e-38
0.0010062195 -0.096454084 -0.03464913 2.350988e-38
0.0028742645 -0.095757127 -0.03157961 2.3509883e-38
0.0047503803 -0.095757127 -0.03157961 2.3509883e-38
0.0066033062 -0.095089734 -0.028640267 2.3509883e-38
0.0084352773 -0.094171658 -0.024596926 2.3418047e-38
0.010299152 -0.094171658 -0.024596926 2.3418047e-38
0.012163025 -0.094171658 -0.024596926 2.3418047e-38
0.014026899 -0.094171658 -0.024596926 2.3418047e-38
0.015890773 -0.094171658 -0.024596926 2.3234379e-38
0.017699188 -0.09348768 -0.021584507 2.3234379e-38
0.019497383 -0.092807561 -0.018589135 2.3234379e-38
0.021285446 -0.092131287 -0.015610691 2.3234379e-38
0.023133565 -0.092131287 -0.015610691 2.3142542e-38
0.024981683 -0.092131287 -0.015610691 2.3142542e-38
0.026829801 -0.092131287 -0.015610691 2.3050707e-38
0.028677918 -0.092131287 -0.015610691 2.3234379e-38
0.03040163 -0.091210663 -0.011556145 2.3234379e-38
0.032242641 -0.091210663 -0.011556145 2.3234379e-38
0.03408365 -0.091210663 -0.011556145 2.3234379e-38
0.035924658 -0.091210663 -0.011556145 2.3234376e-38
0.037654869 -0.09054333 -0.0086170398 2.3234376e-38
0.03949073 -0.09054333 -0.0086170398 2.3234376e-38
0.041326582 -0.09054333 -0.0086170398 2.3234376e-38
0.043162435 -0.09054333 -0.0086170398 2.3142539e-38
0.044862799 -0.089855224 -0.0055865012 2.3142539e-38
0.04669334 -0.089855224 -0.0055865012 2.3234376e-38
0.048523881 -0.089855224 -0.0055865012 2.3234376e-38
0.050505862 -0.09054333 -0.0086170398 2.3234374e-38
0.052493736 -0.091210663 -0.011556145 2.3234374e-38
0.054334745 -0.091210663 -0.011556145 2.3234374e-38
0.056175753 -0.091210663 -0.011556145 2.3509879e-38
0.058247805 -0.092131287 -0.015610691 2.3509153e-38
0.060095929 -0.092131287 -0.015610691 2.3417327e-38
0.061698787 -0.091210663 -0.011556145 2.2315665e-38
0.063539796 -0.091210663 -0.011556145 5.8180903e-39
0.066022582 -0.09348768 -0.021584507 2.0427821e-39
0.092927873 -0.095757127 -0.03157961 5.7299669e-39
0.094803989 -0.095757127 -0.03157961 6.2838637e-39
-0.10509889 -0.10473295 -0.062608361 7.2147967e-39
-0.10280506 -0.10382988 -0.058661576 6.6634138e-39
-0.10060246 -0.1031229 -0.055571791 7.8623129e-39
-0.098328829 -0.10220437 -0.051557418 8.8753859e-39
-0.096417695 -0.10220437 -0.051557418 9.4271261e-39
-0.094506547 -0.10220437 -0.051557418 1.0441264e-38
-0.092595398 -0.10220437 -0.051557418 9.7984156e-39
-0.091011554 -0.1031229 -0.055571791 1.1089852e-38
-0.088773116 -0.10220437 -0.051557418 1.2839031e-38
-0.086861968 -0.10220437 -0.051557418 1.3943569e-38
-0.085256994 -0.1031229 -0.055571791 1.4863713e-38
-0.083338812 -0.1031229 -0.055571791 1.5139934e-38
-0.08142063 -0.1031229 -0.055571791 1.4587479e-38
-0.079502448 -0.1031229 -0.055571791 1.3573697e-38
-0.077306241 -0.10220437 -0.051557418 1.4865511e-38
-0.075197116 -0.10153329 -0.048624512 1.2376248e-38
-0.073091656 -0.10083917 -0.045590874 1.1175907e-38
-0.070747063 -0.099252045 -0.038654443 1.1355971e-38
-0.068858534 -0.099252045 -0.038654443 1.5315329e-38
-0.066727743 -0.098335579 -0.03464913 2.1395876e-38
-0.064846233 -0.098335579 -0.03464913 2.2958873e-38
-0.062964737 -0.098335579 -0.03464913 2.3325497e-38
-0.061083242 -0.098335579 -0.03464913 2.3509883e-38
-0.059201747 -0.098335579 -0.03464913 2.350988e-38
-0.05716148 -0.097633243 -0.03157961 2.3509521e-38
-0.055285364 -0.097633243 -0.03157961 2.3509883e-38
-0.053409249 -0.097633243 -0.03157961 2.3509883e-38
-0.051396556 -0.096960694 -0.028640267 2.3509527e-38
-0.049344815 -0.09603554 -0.024596926 2.3509527e-38
-0.047480941 -0.09603554 -0.024596926 2.3509886e-38
-0.045617066 -0.09603554 -0.024596926 2.3325494e-38
-0.043753192 -0.09603554 -0.024596926 2.3325492e-38
-0.041889317 -0.09603554 -0.024596926 2.3325847e-38
-0.040025443 -0.09603554 -0.024596926 2.3234369e-38
-0.038161568 -0.09603554 -0.024596926 2.3325843e-38
-0.036428846 -0.096960694 -0.028640267 2.3234367e-38
-0.034557886 -0.096960694 -0.028640267 2.3234364e-38
-0.03277196 -0.097633243 -0.03157961 2.3325843e-38
-0.030895842 -0.097633243 -0.03157961 2.3509886e-38
-0.028944997 -0.096960694 -0.028640267 2.3509168e-38
-0.02707403 -0.096960694 -0.028640267 2.3508451e-38
-0.025267487 -0.097633243 -0.03157961 2.3508092e-38
-0.023332106 -0.096960694 -0.028640267 2.3507733e-38
-0.021461142 -0.096960694 -0.028640267 2.3507374e-38
-0.019590179 -0.096960694 -0.028640267 2.3507374e-38
-0.017719215 -0.096960694 -0.028640267 2.3507374e-38
-0.015848255 -0.096960694 -0.028640267 2.3508092e-38
-0.013977287 -0.096960694 -0.028640267 2.3508809e-38
-0.012134671 -0.097633243 -0.03157961 2.3508809e-38
-0.010282774 -0.098335579 -0.03464913 2.3509168e-38
-0.0084258541 -0.099252045 -0.038654443 2.3509168e-38
-0.0065373313 -0.099252045 -0.038654443 2.3509168e-38
-0.0046488103 -0.099252045 -0.038654443 2.3509527e-38
-0.0027602892 -0.099252045 -0.038654443 2.3509168e-38
-0.00087176822 -0.099252045 -0.038654443 2.3509527e-38
0.00099814683 -0.097633243 -0.03157961 2.3509165e-38
0.0028742645 -0.097633243 -0.03157961 2.3509168e-38
0.0047323424 -0.096960694 -0.028640267 2.3509527e-38
0.0066033062 -0.096960694 -0.028640267 2.3509527e-38
0.0084352773 -0.09603554 -0.024596926 2.3509527e-38
0.010299152 -0.09603554 -0.024596926 2.3509527e-38
0.012163025 -0.09603554 -0.024596926 2.3509527e-38
0.014026899 -0.09603554 -0.024596926 2.3509527e-38
0.015890773 -0.09603554 -0.024596926 2.3509527e-38
0.017754648 -0.09603554 -0.024596926 2.3509527e-38
0.019497383 -0.094660893 -0.018589135 2.3509527e-38
0.021285446 -0.093979403 -0.015610691 2.3509527e-38
0.023133565 -0.093979403 -0.015610691 2.3509886e-38
0.024981683 -0.093979403 -0.015610691 2.3509886e-38
0.026829801 -0.093979403 -0.015610691 2.3509886e-38
0.02856062 -0.093051672 -0.011556145 2.341769e-38
0.03040163 -0.093051672 -0.011556145 2.3417687e-38
0.032242641 -0.093051672 -0.011556145 2.3417687e-38
0.03408365 -0.093051672 -0.011556145 2.3417687e-38
0.035924658 -0.093051672 -0.011556145 2.3417687e-38
0.037654869 -0.092379183 -0.0086170398 2.3509883e-38
0.03949073 -0.092379183 -0.0086170398 2.3509883e-38
0.041326582 -0.092379183 -0.0086170398 2.3509883e-38
0.043162435 -0.092379183 -0.0086170398 2.3417687e-38
0.044862799 -0.091685757 -0.0055865012 2.3417687e-38
0.04669334 -0.091685757 -0.0055865012 2.3417687e-38
0.048670009 -0.092379183 -0.0086170398 2.3417687e-38
0.050652727 -0.093051672 -0.011556145 2.3417687e-38
0.052493736 -0.093051672 -0.011556145 2.3417687e-38
0.054334745 -0.093051672 -0.011556145 2.3325847e-38
0.056399688 -0.093979403 -0.015610691 2.3417324e-38
0.058247805 -0.093979403 -0.015610691 2.350952e-38
0.060270868 -0.094660893 -0.018589135 2.3048554e-38
0.061698787 -0.093051672 -0.011556145 2.2499695e-38
0.063539796 -0.093051672 -0.011556145 3.881629e-39
0.066022582 -0.095346272 -0.021584507 1.6736436e-39
0.085183755 -0.096960694 -0.028640267 2.8776519e-39
0.087054715 -0.096960694 -0.028640267 3.5230213e-39
0.090445727 -0.09603554 -0.024596926 5.6399124e-39
0.092042878 -0.095346272 -0.021584507 6.652998e-39
0.09390147 -0.095346272 -0.021584507 7.4834789e-39
0.097901225 -0.09603554 -0.024596926 8.4994245e-39
0.099477246 -0.095346272 -0.021584507 8.3168255e-39
0.10133584 -0.095346272 -0.021584507 8.0409575e-39
0.10260263 -0.093979403 -0.015610691 7.9484115e-39
0.10445076 -0.093979403 -0.015610691 8.5919845e-39
0.10660437 -0.094660893 -0.018589135 9.5117828e-39
0.10845771 -0.094660893 -0.018589135 7.8490104e-39
-0.10740928 -0.10758002 -0.066583753 3.0613355e-39
-0.10547179 -0.10758002 -0.066583753 1.5897955e-39
-0.10316837 -0.10666345 -0.062608361 3.9340754e-40
-0.10060246 -0.10504107 -0.055571791 1.3157184e-39
-0.098328829 -0.1041155 -0.051557418 1.406835e-39
-0.089473933 -0.085668951 0.028449062 1.6819884e-39
-0.087703064 -0.085668951 0.028449062 3.8028452e-39
-0.092595398 -0.1041155 -0.051557418 4.6340324e-39
-0.091011554 -0.10504107 -0.055571791 8.0452581e-39
-0.088773116 -0.1041155 -0.051557418 1.1915295e-38
-0.086861968 -0.1041155 -0.051557418 1.3849939e-38
-0.085256994 -0.10504107 -0.055571791 1.5138865e-38
-0.083338812 -0.10504107 -0.055571791 1.6429584e-38
-0.081128538 -0.1041155 -0.051557418 1.6983108e-38
-0.079217389 -0.1041155 -0.051557418 1.670796e-38
-0.076893017 -0.10273984 -0.045590874 1.6432454e-38
-0.074253738 -0.10021709 -0.03464913 1.3482239e-38
-0.072372228 -0.10021709 -0.03464913 1.2926551e-38
-0.070294291 -0.099509358 -0.03157961 1.3108416e-38
-0.068418175 -0.099509358 -0.03157961 1.4855794e-38
-0.066727743 -0.10021709 -0.03464913 1.8354534e-38
-0.064665943 -0.099509358 -0.03157961 2.1300453e-38
-0.062789828 -0.099509358 -0.03157961 2.3234379e-38
-0.060913712 -0.099509358 -0.03157961 2.3509527e-38
-0.059037596 -0.099509358 -0.03157961 2.3509168e-38
-0.05716148 -0.099509358 -0.03157961 2.3509168e-38
-0.055138484 -0.098831654 -0.028640267 2.3509168e-38
-0.053267524 -0.098831654 -0.028640267 2.3509168e-38
-0.051396556 -0.098831654 -0.028640267 2.3509168e-38
-0.049344815 -0.097899407 -0.024596926 2.3508809e-38
-0.047351539 -0.097204864 -0.021584507 2.3508809e-38
-0.045492947 -0.097204864 -0.021584507 2.3509527e-38
-0.043634348 -0.097204864 -0.021584507 2.3509524e-38
-0.041775756 -0.097204864 -0.021584507 2.3509521e-38
-0.040025443 -0.097899407 -0.024596926 2.3509879e-38
-0.038161568 -0.097899407 -0.024596926 2.3509876e-38
-0.036297694 -0.097899407 -0.024596926 2.3509873e-38
-0.034557886 -0.098831654 -0.028640267 2.350987e-38
-0.03277196 -0.099509358 -0.03157961 2.3509873e-38
-0.030815957 -0.098831654 -0.028640267 2.3509524e-38
-0.028944997 -0.098831654 -0.028640267 2.3509168e-38
-0.02707403 -0.098831654 -0.028640267 2.3509168e-38
-0.02520307 -0.098831654 -0.028640267 2.3508809e-38
-0.023332106 -0.098831654 -0.028640267 2.3508451e-38
-0.021386703 -0.097899407 -0.024596926 2.3508451e-38
-0.019522829 -0.097899407 -0.024596926 2.3508451e-38
-0.017658954 -0.097899407 -0.024596926 2.3508451e-38
-0.015848255 -0.098831654 -0.028640267 2.3508451e-38
-0.013977287 -0.098831654 -0.028640267 2.3508809e-38
-0.012134671 -0.099509358 -0.03157961 2.3508809e-38
-0.010258554 -0.099509358 -0.03157961 2.3509168e-38
-0.0084012747 -0.10021709 -0.03464913 2.3509527e-38
-0.0065197758 -0.10021709 -0.03464913 2.3509527e-38
-0.0046488103 -0.10114056 -0.038654443 2.3509527e-38
-0.0027602892 -0.10114056 -0.038654443 2.3509527e-38
-0.00087527931 -0.10021709 -0.03464913 2.3509168e-38
0.00099814683 -0.099509358 -0.03157961 2.3508809e-38
0.0028613787 -0.098831654 -0.028640267 2.3508809e-38
0.0047323424 -0.098831654 -0.028640267 2.3508809e-38
0.0065714037 -0.097899407 -0.024596926 2.3509168e-38
0.0084352773 -0.097899407 -0.024596926 2.3509168e-38
0.01026482 -0.097204864 -0.021584507 2.3509168e-38
0.012123412 -0.097204864 -0.021584507 2.3509168e-38
0.013982004 -0.097204864 -0.021584507 2.3508451e-38
0.015840596 -0.097204864 -0.021584507 2.3508809e-38
0.017699188 -0.097204864 -0.021584507 2.3509168e-38
0.019437328 -0.09582752 -0.015610691 2.3509168e-38
0.021196585 -0.094892681 -0.011556145 2.3509168e-38
0.023037594 -0.094892681 -0.011556145 2.3509168e-38
0.024981683 -0.09582752 -0.015610691 2.3509527e-38
0.026719611 -0.094892681 -0.011556145 2.3509527e-38
0.02856062 -0.094892681 -0.011556145 2.3509527e-38
0.030311448 -0.094215035 -0.0086170398 2.3509527e-38
0.032147303 -0.094215035 -0.0086170398 2.3509527e-38
0.03408365 -0.094892681 -0.011556145 2.3509527e-38
0.035819016 -0.094215035 -0.0086170398 2.3509527e-38
0.037654869 -0.094215035 -0.0086170398 2.3417333e-38
0.03949073 -0.094215035 -0.0086170398 2.3509168e-38
0.041447684 -0.094892681 -0.011556145 2.3417333e-38
0.043288693 -0.094892681 -0.011556145 2.3509527e-38
0.045310982 -0.09582752 -0.015610691 2.3509527e-38
0.047159098 -0.09582752 -0.015610691 2.3509527e-38
0.049007215 -0.09582752 -0.015610691 2.3509527e-38
0.050855339 -0.09582752 -0.015610691 2.3509527e-38
0.052703455 -0.09582752 -0.015610691 2.3509527e-38
0.054551572 -0.09582752 -0.015610691 2.3509527e-38
0.056399688 -0.09582752 -0.015610691 2.3509527e-38
0.058417529 -0.09651424 -0.018589135 2.3509168e-38
0.060270868 -0.09651424 -0.018589135 1.8440227e-38
0.061698787 -0.094892681 -0.011556145 1.5863447e-38
0.063539796 -0.094892681 -0.011556145 5.1727391e-39
0.065830894 -0.09651424 -0.018589135 4.6235535e-39
0.082990229 -0.097899407 -0.024596926 7.7611308e-39
0.083551258 -0.094215035 -0.0086170398 7.7632986e-39
0.08513473 -0.093516305 -0.0055865012 8.2246327e-39
0.086965263 -0.093516305 -0.0055865012 8.2231865e-39
0.090184286 -0.097204864 -0.021584507 8.3146591e-39
0.092042878 -0.097204864 -0.021584507 8.4979798e-39
0.093630984 -0.09651424 -0.018589135 8.6827368e-39
0.095484331 -0.09651424 -0.018589135 9.0525983e-39
0.097337678 -0.09651424 -0.018589135 9.3299012e-39
0.09919101 -0.09651424 -0.018589135 8.962911e-39
0.10104436 -0.09651424 -0.018589135 8.6870415e-39
0.10260263 -0.09582752 -0.015610691 8.5022986e-39
0.10445076 -0.09582752 -0.015610691 7.9484087e-39
0.10629888 -0.09582752 -0.015610691 9.0526011e-39
0.108147 -0.09582752 -0.015610691 1.0616318e-38
0.10925324 -0.094215035 -0.0086170398 9.3223146e-39
-0.10547179 -0.10951753 -0.066583753 1.1284657e-39
-0.10316837 -0.10859399 -0.062608361 8.5331509e-40
-0.10088146 -0.10767709 -0.058661576 1.6830702e-39
-0.091244787 -0.08743982 0.028449062 1.0373406e-39
-0.089473933 -0.08743982 0.028449062 1.5897983e-39
-0.087703064 -0.08743982 0.028449062 4.9088382e-39
-0.085932195 -0.08743982 0.028449062 4.5404074e-39
-0.091011554 -0.10695927 -0.055571791 8.0434672e-39
-0.089093357 -0.10695927 -0.055571791 1.1914219e-38
-0.087175176 -0.10695927 -0.055571791 1.3941057e-38
-0.085256994 -0.10695927 -0.055571791 1.5322895e-38
-0.083338812 -0.10695927 -0.055571791 1.6613614e-38
-0.081128538 -0.10602666 -0.051557418 1.7351526e-38
-0.079217389 -0.10602666 -0.051557418 1.7167855e-38
-0.076893017 -0.10464053 -0.045590874 1.670796e-38
-0.074253738 -0.10209858 -0.03464913 1.4402746e-38
-0.072372228 -0.10209858 -0.03464913 1.4586776e-38
-0.070294291 -0.10138547 -0.03157961 1.4860847e-38
-0.068418175 -0.10138547 -0.03157961 1.4672489e-38
-0.066727743 -0.10209858 -0.03464913 1.595961e-38
-0.064665943 -0.10138547 -0.03157961 1.8906252e-38
-0.062789828 -0.10138547 -0.03157961 2.2867037e-38
-0.060913712 -0.10138547 -0.03157961 2.3416974e-38
-0.059037596 -0.10138547 -0.03157961 2.3508451e-38
-0.057009444 -0.10070263 -0.028640267 2.3508451e-38
-0.055138484 -0.10070263 -0.028640267 2.3508451e-38
-0.053267524 -0.10070263 -0.028640267 2.3508451e-38
-0.05120869 -0.099763289 -0.024596926 2.3508809e-38
-0.049210131 -0.099063456 -0.021584507 2.3508451e-38
-0.047351539 -0.099063456 -0.021584507 2.3508451e-38
-0.045369521 -0.098367572 -0.018589135 2.3508092e-38
-0.043516181 -0.098367572 -0.018589135 2.3508451e-38
-0.041662842 -0.098367572 -0.018589135 2.3508451e-38
-0.039917164 -0.099063456 -0.021584507 2.3508809e-38
-0.038058572 -0.099063456 -0.021584507 2.3508808e-38
-0.036199979 -0.099063456 -0.021584507 2.3509164e-38
-0.034557886 -0.10070263 -0.028640267 2.3509161e-38
-0.032686919 -0.10070263 -0.028640267 2.350916e-38
-0.030815957 -0.10070263 -0.028640267 2.350952e-38
-0.028944997 -0.10070263 -0.028640267 2.3509521e-38
-0.02707403 -0.10070263 -0.028640267 2.3509163e-38
-0.02520307 -0.10070263 -0.028640267 2.3508802e-38
-0.023250578 -0.099763289 -0.024596926 2.3508442e-38
-0.021386703 -0.099763289 -0.024596926 2.3508442e-38
-0.019522829 -0.099763289 -0.024596926 2.3509158e-38
-0.017658954 -0.099763289 -0.024596926 2.3509158e-38
-0.015795084 -0.099763289 -0.024596926 2.3509157e-38
-0.013931209 -0.099763289 -0.024596926 2.3509157e-38
-0.012067335 -0.099763289 -0.024596926 2.3509517e-38
-0.010235364 -0.10070263 -0.028640267 2.3509873e-38
-0.0084012747 -0.10209858 -0.03464913 2.3509873e-38
-0.0065197758 -0.10209858 -0.03464913 2.3509873e-38
-0.0046488103 -0.10302909 -0.038654443 2.3418036e-38
-0.0027567782 -0.10209858 -0.03464913 2.3418039e-38
-0.00087527931 -0.10209858 -0.03464913 2.3509521e-38
0.00099041685 -0.10070263 -0.028640267 2.3509165e-38
0.0028436556 -0.099763289 -0.024596926 2.3509165e-38
0.0047075301 -0.099763289 -0.024596926 2.3509165e-38
0.0065714037 -0.099763289 -0.024596926 2.3509168e-38
0.0084062275 -0.099063456 -0.021584507 2.3509168e-38
0.01026482 -0.099063456 -0.021584507 2.3509527e-38
0.012084023 -0.098367572 -0.018589135 2.3509527e-38
0.013937363 -0.098367572 -0.018589135 2.3508091e-38
0.015741093 -0.097675636 -0.015610691 2.3508809e-38
0.01758921 -0.097675636 -0.015610691 2.3509527e-38
0.019296313 -0.096050888 -0.0086170398 2.3509527e-38
0.021132169 -0.096050888 -0.0086170398 2.3509527e-38
0.022968024 -0.096050888 -0.0086170398 2.3509168e-38
0.024803881 -0.096050888 -0.0086170398 2.3232585e-38
0.026639737 -0.096050888 -0.0086170398 2.3047838e-38
0.028475592 -0.096050888 -0.0086170398 2.3509168e-38
0.030311448 -0.096050888 -0.0086170398 2.3417333e-38
0.032147303 -0.096050888 -0.0086170398 2.3508809e-38
0.033983156 -0.096050888 -0.0086170398 2.3417333e-38
0.035710089 -0.095346853 -0.0055865012 2.3508809e-38
0.037427045 -0.094646841 -0.0025733672 2.3417333e-38
0.039252304 -0.094646841 -0.0025733672 2.3508809e-38
0.041201718 -0.095346853 -0.0055865012 2.3417333e-38
0.043032259 -0.095346853 -0.0055865012 2.286345e-38
0.045310982 -0.097675636 -0.015610691 2.2771973e-38
0.047436662 -0.099063456 -0.021584507 2.286345e-38
0.049295254 -0.099063456 -0.021584507 2.2864167e-38
0.051153846 -0.099063456 -0.021584507 2.2955644e-38
0.053012438 -0.099063456 -0.021584507 2.3048556e-38
0.05471085 -0.098367572 -0.018589135 2.3232227e-38
0.056564189 -0.098367572 -0.018589135 2.3232944e-38
0.058417529 -0.098367572 -0.018589135 2.2127331e-38
0.060270868 -0.098367572 -0.018589135 1.7150949e-38
0.061521001 -0.096050888 -0.0086170398 1.2176725e-38
0.063356854 -0.096050888 -0.0086170398 8.1240951e-39
0.065830894 -0.098367572 -0.018589135 7.9429661e-39
0.075534262 -0.093950883 0.00042236224 9.601798e-39
0.077354267 -0.093950883 0.00042236224 9.601798e-39
0.079408012 -0.094646841 -0.0025733672 9.1419058e-39
0.081473649 -0.095346853 -0.0055865012 8.5901754e-39
0.083304182 -0.095346853 -0.0055865012 8.3150332e-39
0.08513473 -0.095346853 -0.0055865012 8.4079449e-39
0.086454302 -0.093950883 0.00042236224 8.6845178e-39
0.0882743 -0.093950883 0.00042236224 8.3157325e-39
0.091154933 -0.096733689 -0.011556145 8.4068575e-39
0.092995942 -0.096733689 -0.011556145 8.6841689e-39
0.09483695 -0.096733689 -0.011556145 9.3299012e-39
0.097058281 -0.097675636 -0.015610691 9.5153659e-39
0.098906398 -0.097675636 -0.015610691 9.2402125e-39
0.10075451 -0.097675636 -0.015610691 8.7810322e-39
0.10220098 -0.096733689 -0.011556145 8.5040908e-39
0.10404199 -0.096733689 -0.011556145 8.134595e-39
0.10558154 -0.096050888 -0.0086170398 8.8696461e-39
0.10741739 -0.096050888 -0.0086170398 1.0803225e-38
0.10925324 -0.096050888 -0.0086170398 1.0707411e-38
0.1110891 -0.096050888 -0.0086170398 4.3437226e-39
-0.099186391 -0.095770895 0.00042236224 8.5079976e-40
-0.097366378 -0.095770895 0.00042236224 1.9589438e-39
-0.093015656 -0.089210689 0.028449062 3.434427e-39
-0.091244787 -0.089210689 0.028449062 3.2500357e-39
-0.089473933 -0.089210689 0.028449062 4.9088382e-39
-0.087703064 -0.089210689 0.028449062 8.6877772e-39
-0.085932195 -0.089210689 0.028449062 9.7022753e-39
-0.084409103 -0.089922056 0.025409941 1.1269577e-38
-0.088773116 -0.1079378 -0.051557418 1.3204221e-38
-0.086861968 -0.1079378 -0.051557418 1.440167e-38
-0.08495082 -0.1079378 -0.051557418 1.5415089e-38
-0.083039671 -0.1079378 -0.051557418 1.5875701e-38
-0.080915123 -0.1072513 -0.048624512 1.5415448e-38
-0.078793705 -0.1065412 -0.045590874 1.4310552e-38
-0.076620042 -0.10561861 -0.041649338 1.5048464e-38
-0.074726269 -0.10561861 -0.041649338 1.3758463e-38
-0.072832495 -0.10561861 -0.041649338 1.4587493e-38
-0.070747063 -0.1049176 -0.038654443 1.4216921e-38
-0.068858534 -0.1049176 -0.038654443 1.4305504e-38
-0.066727743 -0.10398008 -0.03464913 1.6331273e-38
-0.064846233 -0.10398008 -0.03464913 1.8909135e-38
-0.062964737 -0.10398008 -0.03464913 2.1579547e-38
-0.060913712 -0.1032616 -0.03157961 2.268229e-38
-0.058880404 -0.10257359 -0.028640267 2.3141109e-38
-0.057009444 -0.10257359 -0.028640267 2.3233303e-38
-0.054936439 -0.10162716 -0.024596926 2.3417691e-38
-0.053072564 -0.10162716 -0.024596926 2.3417691e-38
-0.05120869 -0.10162716 -0.024596926 2.3417333e-38
-0.049210131 -0.10092205 -0.021584507 2.3509168e-38
-0.047222868 -0.10022092 -0.018589135 2.3509168e-38
-0.045369521 -0.10022092 -0.018589135 2.3509168e-38
-0.043516181 -0.10022092 -0.018589135 2.3509168e-38
-0.041662842 -0.10022092 -0.018589135 2.3509527e-38
-0.039809503 -0.10022092 -0.018589135 2.3509527e-38
-0.037956163 -0.10022092 -0.018589135 2.3509886e-38
-0.036102824 -0.10022092 -0.018589135 2.3509886e-38
-0.034557886 -0.10257359 -0.028640267 2.3509886e-38
-0.032686919 -0.10257359 -0.028640267 2.3509883e-38
-0.030815957 -0.10257359 -0.028640267 2.3509886e-38
-0.028944997 -0.10257359 -0.028640267 2.3509886e-38
-0.026978327 -0.10162716 -0.024596926 2.3509527e-38
-0.025114452 -0.10162716 -0.024596926 2.3509883e-38
-0.023189837 -0.10092205 -0.021584507 2.3509524e-38
-0.021146623 -0.098574698 -0.011556145 2.3509521e-38
-0.019305615 -0.098574698 -0.011556145 2.3509521e-38
-0.017464606 -0.098574698 -0.011556145 2.3509521e-38
-0.015755469 -0.10092205 -0.021584507 2.3509879e-38
-0.013896877 -0.10092205 -0.021584507 2.3509879e-38
-0.012067335 -0.10162716 -0.024596926 2.3509876e-38
-0.01020346 -0.10162716 -0.024596926 2.3234369e-38
-0.0083395876 -0.10162716 -0.024596926 2.3234367e-38
-0.0065197758 -0.10398008 -0.03464913 2.3142531e-38
-0.004638277 -0.10398008 -0.03464913 2.295886e-38
-0.0027540866 -0.1032616 -0.03157961 2.3142534e-38
-0.00087797083 -0.1032616 -0.03157961 2.3418047e-38
0.00099041685 -0.10257359 -0.028640267 2.3509886e-38
0.0028436556 -0.10162716 -0.024596926 2.3509886e-38
0.0047075301 -0.10162716 -0.024596926 2.3509886e-38
0.0065476354 -0.10092205 -0.021584507 2.3509886e-38
0.0084062275 -0.10092205 -0.021584507 2.3509886e-38
0.010230683 -0.10022092 -0.018589135 2.341805e-38
0.012044856 -0.099523753 -0.015610691 2.341805e-38
0.013892975 -0.099523753 -0.015610691 2.341805e-38
0.015741093 -0.099523753 -0.015610691 2.341805e-38
0.017404664 -0.097177386 -0.0055865012 2.3234379e-38
0.019114049 -0.095770895 0.00042236224 2.3234379e-38
0.020934055 -0.095770895 0.00042236224 2.3049991e-38
0.022754062 -0.095770895 0.00042236224 2.2589017e-38
0.024574069 -0.095770895 0.00042236224 2.2128039e-38
0.026394075 -0.095770895 0.00042236224 2.1759622e-38
0.028300749 -0.096472099 -0.0025733672 2.0100831e-38
0.030126007 -0.096472099 -0.0025733672 2.019267e-38
0.031951271 -0.096472099 -0.0025733672 2.0284867e-38
0.033879548 -0.097177386 -0.0055865012 2.0377061e-38
0.035601787 -0.096472099 -0.0025733672 2.0561454e-38
0.037427045 -0.096472099 -0.0025733672 2.0653648e-38
0.039134122 -0.095770895 0.00042236224 2.0745845e-38
0.040954128 -0.095770895 0.00042236224 2.0838041e-38
0.04290282 -0.096472099 -0.0025733672 2.2128766e-38
0.045893535 -0.10257359 -0.028640267 2.2128766e-38
0.047764495 -0.10257359 -0.028640267 2.222096e-38
0.049440503 -0.10162716 -0.024596926 2.2313154e-38
0.051153846 -0.10092205 -0.021584507 2.2497543e-38
0.052703455 -0.099523753 -0.015610691 2.2681931e-38
0.054334745 -0.098574698 -0.011556145 2.2958514e-38
0.056175753 -0.098574698 -0.011556145 2.2866678e-38
0.058247805 -0.099523753 -0.015610691 2.2499695e-38
0.059857771 -0.098574698 -0.011556145 2.2132353e-38
0.061155416 -0.096472099 -0.0025733672 1.9554502e-38
0.062794216 -0.095770895 0.00042236224 1.494873e-38
0.064362571 -0.094850481 0.0043545999 1.458283e-38
0.065781176 -0.093446046 0.010354642 1.3570846e-38
0.06758377 -0.093446046 0.010354642 1.3387533e-38
0.069386363 -0.093446046 0.010354642 1.1819514e-38
0.07299155 -0.093446046 0.010354642 1.301481e-38
0.074794136 -0.093446046 0.010354642 1.3197764e-38
0.077054352 -0.094850481 0.0043545999 1.3197764e-38
0.079174273 -0.095770895 0.00042236224 1.2646033e-38
0.081233263 -0.096472099 -0.0025733672 1.181772e-38
0.083058521 -0.096472099 -0.0025733672 1.126599e-38
0.084883779 -0.096472099 -0.0025733672 1.1174513e-38
0.086119905 -0.094850481 0.0043545999 1.1266344e-38
0.087933019 -0.094850481 0.0043545999 1.098976e-38
0.089746132 -0.094850481 0.0043545999 1.1081601e-38
0.091914311 -0.095770895 0.00042236224 1.172732e-38
0.094010085 -0.096472099 -0.0025733672 1.2281203e-38
0.095835343 -0.096472099 -0.0025733672 1.228192e-38
0.097948521 -0.097177386 -0.0055865012 1.1638713e-38
0.099779069 -0.097177386 -0.0055865012 1.1270653e-38
0.1016096 -0.097177386 -0.0055865012 1.0626011e-38
0.10374568 -0.097886756 -0.0086170398 1.1454324e-38
0.10465436 -0.095770895 0.00042236224 1.1636919e-38
0.10647437 -0.095770895 0.00042236224 1.2003185e-38
0.10829438 -0.095770895 0.00042236224 1.2276896e-38
0.10969037 -0.094850481 0.0043545999 9.2318958e-39
0.11193439 -0.095770895 0.00042236224 6.3719984e-39
-0.1010064 -0.097590908 0.00042236224 7.5643492e-40
-0.099186391 -0.097590908 0.00042236224 1.3117667e-39
-0.097366378 -0.097590908 0.00042236224 2.6039447e-39
-0.093015656 -0.090981558 0.028449062 3.5262555e-39
-0.091244787 -0.090981558 0.028449062 4.0794265e-39
-0.089473933 -0.090981558 0.028449062 6.10701e-39
-0.087961495 -0.091698244 0.025409941 8.4119008e-39
-0.086185306 -0.091698244 0.025409941 9.7948282e-39
-0.084409103 -0.091698244 0.025409941 1.0530947e-38
-0.083592579 -0.094535068 0.013380531 1.1360336e-38
-0.08179529 -0.094535068 0.013380531 1.246559e-38
-0.08495082 -0.10984896 -0.051557418 1.3387173e-38
-0.083039671 -0.10984896 -0.051557418 1.3571915e-38
-0.080915123 -0.10915731 -0.048624512 1.3387523e-38
-0.078793705 -0.1084419 -0.045590874 1.283615e-38
-0.076620042 -0.1075124 -0.041649338 1.2560289e-38
-0.074726269 -0.1075124 -0.041649338 1.2007476e-38
-0.072635576 -0.10680611 -0.038654443 1.329785e-38
-0.070747063 -0.10680611 -0.038654443 1.3480795e-38
-0.068858534 -0.10680611 -0.038654443 1.4492772e-38
-0.066727743 -0.10586159 -0.03464913 1.7256462e-38
-0.064665943 -0.10513772 -0.03157961 1.9282224e-38
-0.062789828 -0.10513772 -0.03157961 2.0846297e-38
-0.060528055 -0.10349102 -0.024596926 2.2132353e-38
-0.058503091 -0.10278064 -0.021584507 2.240786e-38
-0.056644499 -0.10278064 -0.021584507 2.2316024e-38
-0.054785907 -0.10278064 -0.021584507 2.2316024e-38
-0.052927315 -0.10278064 -0.021584507 2.2316024e-38
-0.051068723 -0.10278064 -0.021584507 2.2224189e-38
-0.049076207 -0.10207425 -0.018589135 2.2131994e-38
-0.046794496 -0.099722609 -0.0086170398 2.2131994e-38
-0.044958644 -0.099722609 -0.0086170398 2.2775202e-38
-0.043122783 -0.099722609 -0.0086170398 2.2775202e-38
