# .PCD v0.7 - Point Cloud Data file format
VERSION 0.7
FIELDS x y z rgb
SIZE 4 4 4 4
TYPE F F F F
COUNT 1 1 1 1
WIDTH 931
HEIGHT 1
VIEWPOINT 0 0 0 1 0 0 0
POINTS 931
DATA ascii
0.043784533 -0.099830076 -0.051140353 1.2077274e-38
0.04495937 -0.097368345 -0.040128395 1.1433346e-38
0.046877552 -0.097368345 -0.040128395 1.281737e-38
0.048503641 -0.096470937 -0.036114022 1.3280157e-38
0.050414782 -0.096470937 -0.036114022 1.411209e-38
0.052102234 -0.095815286 -0.033181116 1.3746561e-38
0.05346401 -0.094255984 -0.026205942 1.1812634e-38
0.054799333 -0.092691094 -0.019205734 1.0431155e-38
0.056190923 -0.091347814 -0.013196871 8.7730869e-39
0.058061883 -0.091347814 -0.013196871 7.7600139e-39
0.059932858 -0.091347814 -0.013196871 6.4703429e-39
0.099223077 -0.091347814 -0.013196871 7.205799e-39
0.10109404 -0.091347814 -0.013196871 7.7571777e-39
0.10422042 -0.093586475 -0.023211047 8.1252358e-39
0.10610893 -0.093586475 -0.023211047 7.8461223e-39
0.10799746 -0.093586475 -0.023211047 5.8174401e-39
0.10988598 -0.093586475 -0.023211047 4.1560943e-39
-0.082806602 -0.10494001 -0.065221116 1.218578e-38
-0.080530398 -0.10335754 -0.058197424 1.236837e-38
-0.078407578 -0.1024504 -0.05417113 1.1905931e-38
-0.076464772 -0.1024504 -0.05417113 1.4578138e-38
-0.074521974 -0.1024504 -0.05417113 2.1030327e-38
-0.07257916 -0.1024504 -0.05417113 2.2132353e-38
-0.070636362 -0.1024504 -0.05417113 2.2499695e-38
-0.068693556 -0.1024504 -0.05417113 2.2775193e-38
-0.06675075 -0.1024504 -0.05417113 2.3234367e-38
-0.064714953 -0.10176755 -0.051140353 2.3418033e-38
-0.06277746 -0.10176755 -0.051140353 2.3509876e-38
-0.061031759 -0.10335754 -0.058197424 2.3417333e-38
-0.059081893 -0.10335754 -0.058197424 2.3232585e-38
-0.057201773 -0.10402142 -0.061144039 2.3417691e-38
-0.055246744 -0.10402142 -0.061144039 2.3234379e-38
-0.053232301 -0.10335754 -0.058197424 2.3142544e-38
-0.05120831 -0.1024504 -0.05417113 2.2590454e-38
-0.049215026 -0.10176755 -0.051140353 2.2774843e-38
-0.047277533 -0.10176755 -0.051140353 2.2867037e-38
-0.045287766 -0.10087189 -0.047164962 2.2222751e-38
-0.043357246 -0.10087189 -0.047164962 2.1853964e-38
-0.041426726 -0.10087189 -0.047164962 2.0839449e-38
-0.039465066 -0.099982664 -0.043218181 2.0008607e-38
-0.037522502 -0.099286526 -0.040128395 2.046994e-38
-0.03560432 -0.099286526 -0.040128395 2.2221294e-38
-0.033694264 -0.099982664 -0.043218181 2.3234367e-38
-0.031770661 -0.099982664 -0.043218181 2.350987e-38
-0.029847061 -0.099982664 -0.043218181 2.2771582e-38
-0.027913082 -0.10087189 -0.047164962 1.9451821e-38
-0.025982561 -0.10087189 -0.047164962 1.7977409e-38
-0.024052041 -0.10087189 -0.047164962 1.7977411e-38
-0.022152659 -0.099982664 -0.043218181 1.8070329e-38
-0.02022906 -0.099982664 -0.043218181 1.7517519e-38
-0.018305458 -0.099982664 -0.043218181 1.6964348e-38
-0.016422488 -0.099286526 -0.040128395 1.8439839e-38
-0.014504306 -0.099286526 -0.040128395 2.2312056e-38
-0.012586122 -0.099286526 -0.040128395 2.2957425e-38
-0.010667939 -0.099286526 -0.040128395 2.3326206e-38
-0.008749757 -0.099286526 -0.040128395 2.3326206e-38
-0.0068315733 -0.099286526 -0.040128395 2.3509879e-38
-0.0050084107 -0.098382086 -0.036114022 2.3509879e-38
-0.003097266 -0.098382086 -0.036114022 2.350988e-38
-0.0010770243 -0.099286526 -0.040128395 2.3233652e-38
0.00084115937 -0.099286526 -0.040128395 2.3509886e-38
0.0027593412 -0.099286526 -0.040128395 2.3509886e-38
0.0047777481 -0.099982664 -0.043218181 2.3233662e-38
0.0065957084 -0.099286526 -0.040128395 2.2958154e-38
0.0085138939 -0.099286526 -0.040128395 2.2867037e-38
0.010432076 -0.099286526 -0.040128395 2.2407141e-38
0.012350257 -0.099286526 -0.040128395 2.0379556e-38
0.014268443 -0.099286526 -0.040128395 1.7890994e-38
0.016186625 -0.099286526 -0.040128395 1.5679019e-38
0.018104807 -0.099286526 -0.040128395 1.4848903e-38
0.020166554 -0.099982664 -0.043218181 1.3557804e-38
0.018762421 -0.084433094 0.025798038 1.2266709e-38
0.020413809 -0.083751351 0.028823927 1.1620619e-38
0.022211097 -0.083751351 0.028823927 1.1435509e-38
0.024008382 -0.083751351 0.028823927 1.1619184e-38
0.030389488 -0.1024504 -0.05417113 1.1895771e-38
0.03233229 -0.1024504 -0.05417113 1.1894694e-38
0.034275096 -0.1024504 -0.05417113 1.1802498e-38
0.036217902 -0.1024504 -0.05417113 1.2078365e-38
0.037972059 -0.10176755 -0.051140353 1.2815209e-38
0.039909553 -0.10176755 -0.051140353 1.3460576e-38
0.042046312 -0.1024504 -0.05417113 1.3644964e-38
0.043784533 -0.10176755 -0.051140353 1.3460573e-38
0.045173358 -0.099982664 -0.043218181 1.3000677e-38
0.046877552 -0.099286526 -0.040128395 1.2448593e-38
0.048503641 -0.098382086 -0.036114022 1.3371277e-38
0.050196234 -0.097721294 -0.033181116 1.4018818e-38
0.05157024 -0.096149758 -0.026205942 1.5679796e-38
0.053230345 -0.095475003 -0.023211047 1.4667098e-38
0.054554448 -0.093881011 -0.016136214 1.1625377e-38
0.055861279 -0.092307791 -0.00915353 1.0427203e-38
0.05747427 -0.091629088 -0.0061411113 9.4152095e-39
0.059332862 -0.091629088 -0.0061411113 7.8507536e-39
0.0664915 -0.090954214 -0.0031457394 7.8543578e-39
0.089070335 -0.091629088 -0.0061411113 6.5643672e-39
0.090928927 -0.091629088 -0.0061411113 6.3806977e-39
0.092787519 -0.091629088 -0.0061411113 6.2884964e-39
0.094646096 -0.091629088 -0.0061411113 6.1963008e-39
0.097352117 -0.093218774 -0.013196871 6.1963008e-39
0.099223077 -0.093218774 -0.013196871 6.4728905e-39
0.10109404 -0.093218774 -0.013196871 6.6569286e-39
0.10333349 -0.093881011 -0.016136214 6.932798e-39
0.10559979 -0.094572589 -0.019205734 7.4848956e-39
0.10748129 -0.094572589 -0.019205734 7.6674806e-39
0.1093628 -0.094572589 -0.019205734 6.9277407e-39
0.11124429 -0.094572589 -0.019205734 8.0315478e-39
0.11793271 -0.093218774 -0.013196871 1.858332e-40
-0.079722531 -0.10120471 -0.040128395 7.7618258e-39
-0.077804349 -0.10120471 -0.040128395 7.2997519e-39
-0.0763399 -0.10370506 -0.051140353 7.5745185e-39
-0.074402407 -0.10370506 -0.051140353 9.0474681e-39
-0.072464913 -0.10370506 -0.051140353 1.3746902e-38
-0.070527419 -0.10370506 -0.051140353 2.1673176e-38
-0.068589933 -0.10370506 -0.051140353 2.2775202e-38
-0.066652447 -0.10370506 -0.051140353 2.3234372e-38
-0.064714953 -0.10370506 -0.051140353 2.350987e-38
-0.06277746 -0.10370506 -0.051140353 2.2956701e-38
-0.061031759 -0.10530742 -0.058197424 2.3509527e-38
-0.059081893 -0.10530742 -0.058197424 2.3509168e-38
-0.057201773 -0.10597645 -0.061144039 2.3233303e-38
-0.055182166 -0.10530742 -0.058197424 2.2035849e-38
-0.053232301 -0.10530742 -0.058197424 2.01001e-38
-0.05120831 -0.1043932 -0.05417113 1.7796289e-38
-0.049215026 -0.10370506 -0.051140353 1.6321159e-38
-0.047277533 -0.10370506 -0.051140353 1.5676505e-38
-0.045287766 -0.10280241 -0.047164962 1.5215883e-38
-0.043357246 -0.10280241 -0.047164962 1.4478314e-38
-0.041426726 -0.10280241 -0.047164962 1.2910625e-38
-0.039465066 -0.10190627 -0.043218181 1.1343653e-38
-0.037522502 -0.10120471 -0.040128395 1.1619515e-38
-0.03560432 -0.10120471 -0.040128395 1.3002447e-38
-0.033694264 -0.10190627 -0.043218181 1.4292464e-38
-0.031770661 -0.10190627 -0.043218181 1.4660526e-38
-0.029847061 -0.10190627 -0.043218181 1.5580323e-38
-0.027913082 -0.10280241 -0.047164962 1.3827887e-38
-0.025982561 -0.10280241 -0.047164962 1.3551302e-38
-0.024052041 -0.10280241 -0.047164962 1.28141e-38
-0.022152659 -0.10190627 -0.043218181 1.1985421e-38
-0.02022906 -0.10190627 -0.043218181 1.1801392e-38
-0.018305458 -0.10190627 -0.043218181 1.2447126e-38
-0.016422488 -0.10120471 -0.040128395 1.4753096e-38
-0.014504306 -0.10120471 -0.040128395 1.4199566e-38
-0.012652988 -0.10029322 -0.036114022 1.475274e-38
-0.010741843 -0.10029322 -0.036114022 1.4937131e-38
-0.008749757 -0.10120471 -0.040128395 1.4844936e-38
-0.0068315733 -0.10120471 -0.040128395 1.5212998e-38
-0.0050084107 -0.10029322 -0.036114022 1.6227147e-38
-0.003097266 -0.10029322 -0.036114022 1.7241299e-38
-0.0010770243 -0.10120471 -0.040128395 1.7885949e-38
0.00084115937 -0.10120471 -0.040128395 1.8162536e-38
0.0027593412 -0.10120471 -0.040128395 1.7517167e-38
0.0047777481 -0.10190627 -0.043218181 1.5950563e-38
0.0065957084 -0.10120471 -0.040128395 1.4384676e-38
0.0085138939 -0.10120471 -0.040128395 1.4385758e-38
0.010432076 -0.10120471 -0.040128395 1.5308793e-38
0.012350257 -0.10120471 -0.040128395 1.5494627e-38
0.014268443 -0.10120471 -0.040128395 1.4850696e-38
0.016186625 -0.10120471 -0.040128395 1.5311676e-38
0.018104807 -0.10120471 -0.040128395 1.5035092e-38
0.020166554 -0.10190627 -0.043218181 1.4665593e-38
0.018471476 -0.084865585 0.031832173 1.4481202e-38
0.020263489 -0.084865585 0.031832173 1.4756713e-38
0.022055499 -0.084865585 0.031832173 1.5216972e-38
0.023847513 -0.084865585 0.031832173 1.5861262e-38
0.025639527 -0.084865585 0.031832173 1.622933e-38
0.03233229 -0.1043932 -0.05417113 1.7519717e-38
0.034275096 -0.1043932 -0.05417113 1.7427166e-38
0.036217902 -0.1043932 -0.05417113 1.7703388e-38
0.038160708 -0.1043932 -0.05417113 1.8164722e-38
0.040103514 -0.1043932 -0.05417113 1.8717893e-38
0.042046312 -0.1043932 -0.05417113 1.8994477e-38
0.043784533 -0.10370506 -0.051140353 1.8718967e-38
0.045173358 -0.10190627 -0.043218181 1.8534221e-38
0.046877552 -0.10120471 -0.040128395 1.954946e-38
0.048503641 -0.10029322 -0.036114022 1.9642024e-38
0.050196234 -0.099627286 -0.033181116 1.9366526e-38
0.05157024 -0.098043531 -0.026205942 2.0289545e-38
0.052449003 -0.095089734 -0.013196871 1.9183932e-38
0.054319963 -0.095089734 -0.013196871 1.6603211e-38
0.055861279 -0.094171658 -0.00915353 1.6049686e-38
0.05747427 -0.09348768 -0.0061411113 1.5130255e-38
0.059332862 -0.09348768 -0.0061411113 1.5595173e-38
0.061191455 -0.09348768 -0.0061411113 1.5227472e-38
0.072051525 -0.092807561 -0.0031457394 1.3202069e-38
0.073904857 -0.092807561 -0.0031457394 1.154256e-38
0.089070335 -0.09348768 -0.0061411113 8.7770652e-39
0.090928927 -0.09348768 -0.0061411113 8.5011971e-39
0.092787519 -0.09348768 -0.0061411113 8.1327663e-39
0.094646096 -0.09348768 -0.0061411113 7.8561738e-39
0.096866488 -0.094171658 -0.00915353 7.4884675e-39
0.099223077 -0.095089734 -0.013196871 7.3969936e-39
0.10109404 -0.095089734 -0.013196871 7.3973607e-39
0.102965 -0.095089734 -0.013196871 7.4892032e-39
0.10483597 -0.095089734 -0.013196871 7.3037414e-39
0.10708572 -0.095757127 -0.016136214 7.4866893e-39
0.10896184 -0.095757127 -0.016136214 7.11466e-39
0.11083795 -0.095757127 -0.016136214 8.1259126e-39
0.11271407 -0.095757127 -0.016136214 4.986557e-39
0.1145902 -0.095757127 -0.016136214 4.0091149e-42
0.11606175 -0.095089734 -0.013196871 7.4268819e-43
-0.079722531 -0.1031229 -0.040128395 8.7745218e-39
-0.077804349 -0.1031229 -0.040128395 8.8652685e-39
-0.0763399 -0.10564254 -0.051140353 6.8355115e-39
-0.074402407 -0.10564254 -0.051140353 5.9110202e-39
-0.072464913 -0.10564254 -0.051140353 9.8725386e-39
-0.070527419 -0.10564254 -0.051140353 1.9643101e-38
-0.068589933 -0.10564254 -0.051140353 2.2867037e-38
-0.066652447 -0.10564254 -0.051140353 2.3417691e-38
-0.064714953 -0.10564254 -0.051140353 2.3508809e-38
-0.06277746 -0.10564254 -0.051140353 2.3508809e-38
-0.061031759 -0.10725726 -0.058197424 2.3508804e-38
-0.059081893 -0.10725726 -0.058197424 2.3509524e-38
-0.057132028 -0.10725726 -0.058197424 2.314074e-38
-0.0550275 -0.10564254 -0.051140353 2.1573777e-38
-0.053090006 -0.10564254 -0.051140353 1.9546192e-38
-0.05120831 -0.10633601 -0.05417113 1.7426416e-38
-0.049215026 -0.10564254 -0.051140353 1.5766895e-38
-0.047277533 -0.10564254 -0.051140353 1.4660547e-38
-0.045340043 -0.10564254 -0.051140353 1.585909e-38
-0.043357246 -0.10473295 -0.047164962 1.5305914e-38
-0.041426726 -0.10473295 -0.047164962 1.4107726e-38
-0.039465066 -0.10382988 -0.043218181 1.3001376e-38
-0.037541464 -0.10382988 -0.043218181 1.3553828e-38
-0.035652589 -0.10564254 -0.051140353 1.5120432e-38
-0.033715099 -0.10564254 -0.051140353 1.6318615e-38
-0.031774122 -0.10473295 -0.047164962 1.6595202e-38
-0.029843602 -0.10473295 -0.047164962 1.6962908e-38
-0.027902626 -0.10564254 -0.051140353 1.5765087e-38
-0.025965136 -0.10564254 -0.051140353 1.5488503e-38
-0.024027646 -0.10564254 -0.051140353 1.3737146e-38
-0.022152659 -0.10382988 -0.043218181 1.2262738e-38
-0.02022906 -0.10382988 -0.043218181 1.2079069e-38
-0.018305458 -0.10382988 -0.043218181 1.2908476e-38
-0.016422488 -0.1031229 -0.040128395 1.5121892e-38
-0.014504306 -0.1031229 -0.040128395 1.632008e-38
-0.012652988 -0.10220437 -0.036114022 1.6688862e-38
-0.010741843 -0.10220437 -0.036114022 1.6596667e-38
-0.0088307001 -0.10220437 -0.036114022 1.5951653e-38
-0.0069195554 -0.10220437 -0.036114022 1.5766543e-38
-0.0050084107 -0.10220437 -0.036114022 1.6411912e-38
-0.003097266 -0.10220437 -0.036114022 1.751826e-38
-0.0010770243 -0.1031229 -0.040128395 1.8531333e-38
0.00084115937 -0.1031229 -0.040128395 1.8807557e-38
0.0027593412 -0.1031229 -0.040128395 1.8623166e-38
0.0046775267 -0.1031229 -0.040128395 1.7333869e-38
0.0052294396 -0.093979403 -0.00016729534 1.5860178e-38
0.0069318227 -0.093051672 0.003887251 1.5676505e-38
0.0087728314 -0.093051672 0.003887251 1.6415868e-38
0.01061384 -0.093051672 0.003887251 1.706268e-38
0.012621913 -0.093979403 -0.00016729534 1.7339629e-38
0.014295861 -0.093051672 0.003887251 1.7431825e-38
0.01613687 -0.093051672 0.003887251 1.7524382e-38
0.017977878 -0.093051672 0.003887251 1.7892805e-38
0.018471476 -0.086657599 0.031832173 1.8445262e-38
0.020263489 -0.086657599 0.031832173 1.9089555e-38
0.022055499 -0.086657599 0.031832173 1.9734206e-38
0.023847513 -0.086657599 0.031832173 2.0378496e-38
0.025474355 -0.085973322 0.034822777 2.0471774e-38
0.027261123 -0.085973322 0.034822777 1.8352359e-38
0.034275096 -0.10633601 -0.05417113 1.8445273e-38
0.036217902 -0.10633601 -0.05417113 1.8906249e-38
0.038160708 -0.10633601 -0.05417113 1.9828562e-38
0.040103514 -0.10633601 -0.05417113 2.0934904e-38
0.042311046 -0.10725726 -0.058197424 2.1764652e-38
0.043989118 -0.10633601 -0.05417113 2.2132353e-38
0.045722026 -0.10564254 -0.051140353 2.2132353e-38
0.047659513 -0.10564254 -0.051140353 2.1948682e-38
0.049597006 -0.10564254 -0.051140353 2.1856847e-38
0.047958095 -0.094660893 -0.0031457394 2.0292056e-38
0.049811434 -0.094660893 -0.0031457394 2.0293132e-38
0.051898483 -0.095346272 -0.0061411113 1.937119e-38
0.053757071 -0.095346272 -0.0061411113 1.7252158e-38
0.055371463 -0.094660893 -0.0031457394 1.706741e-38
0.057224795 -0.094660893 -0.0031457394 1.6516039e-38
0.059332862 -0.095346272 -0.0061411113 1.5042725e-38
0.061191455 -0.095346272 -0.0061411113 1.4583188e-38
0.0664915 -0.094660893 -0.0031457394 1.3662681e-38
0.08100228 -0.093979403 -0.00016729534 1.062025e-38
0.082850397 -0.093979403 -0.00016729534 1.0067077e-38
0.084698513 -0.093979403 -0.00016729534 9.4213472e-39
0.087211743 -0.095346272 -0.0061411113 8.591948e-39
0.089070335 -0.095346272 -0.0061411113 8.1316929e-39
0.090928927 -0.095346272 -0.0061411113 7.8551061e-39
0.093138754 -0.09603554 -0.00915353 7.4866753e-39
0.095002621 -0.09603554 -0.00915353 7.0264132e-39
0.096866488 -0.09603554 -0.00915353 6.7501822e-39
0.09873037 -0.09603554 -0.00915353 6.3821228e-39
0.10059424 -0.09603554 -0.00915353 6.1980973e-39
0.102965 -0.096960694 -0.013196871 6.1977427e-39
0.10483597 -0.096960694 -0.013196871 6.197391e-39
0.10670693 -0.096960694 -0.013196871 6.6565657e-39
0.10857789 -0.096960694 -0.013196871 6.745876e-39
0.11044885 -0.096960694 -0.013196871 8.1259126e-39
0.11231983 -0.096960694 -0.013196871 5.7241221e-39
0.11419079 -0.096960694 -0.013196871 4.3692486e-42
0.11606175 -0.096960694 -0.013196871 2.5223372e-44
0.11793271 -0.096960694 -0.013196871 1.2611686e-44
0.11980367 -0.096960694 -0.013196871 7.2447131e-43
-0.0763399 -0.10758002 -0.051140353 1.5500459e-38
-0.074402407 -0.10758002 -0.051140353 1.7342917e-38
-0.072464913 -0.10758002 -0.051140353 1.706344e-38
-0.070527419 -0.10758002 -0.051140353 2.0749081e-38
-0.068589933 -0.10758002 -0.051140353 2.2866678e-38
-0.066652447 -0.10758002 -0.051140353 2.3232585e-38
-0.064714953 -0.10758002 -0.051140353 2.2309926e-38
-0.06277746 -0.10758002 -0.051140353 2.3508809e-38
-0.061031759 -0.10920714 -0.058197424 2.3417327e-38
-0.059081893 -0.10920714 -0.058197424 2.3509876e-38
-0.057036728 -0.10827883 -0.05417113 2.350988e-38
-0.0550275 -0.10758002 -0.051140353 2.2312056e-38
-0.053090006 -0.10758002 -0.051140353 2.120679e-38
-0.05120831 -0.10827883 -0.05417113 2.083837e-38
-0.049215026 -0.10758002 -0.051140353 2.0377395e-38
-0.047277533 -0.10758002 -0.051140353 1.9548357e-38
-0.045340043 -0.10758002 -0.051140353 1.8164344e-38
-0.043402553 -0.10758002 -0.051140353 1.8348735e-38
-0.041426726 -0.10666345 -0.047164962 1.8440931e-38
-0.039496206 -0.10666345 -0.047164962 1.8809713e-38
-0.037565686 -0.10666345 -0.047164962 1.9915698e-38
-0.035652589 -0.10758002 -0.051140353 2.157414e-38
-0.033715099 -0.10758002 -0.051140353 2.2403901e-38
-0.031780265 -0.10827883 -0.05417113 2.2496099e-38
-0.029837459 -0.10827883 -0.05417113 2.1759259e-38
-0.027894655 -0.10827883 -0.05417113 2.0745473e-38
-0.025951851 -0.10827883 -0.05417113 2.0193021e-38
-0.024009045 -0.10827883 -0.05417113 1.8718609e-38
-0.022121519 -0.10666345 -0.047164962 1.8442025e-38
-0.020190999 -0.10666345 -0.047164962 1.9272149e-38
-0.018260479 -0.10666345 -0.047164962 1.9365069e-38
-0.017119419 -0.092821583 0.012870029 2.0287028e-38
-0.014564132 -0.1041155 -0.036114022 1.9826769e-38
-0.012652988 -0.1041155 -0.036114022 2.0287747e-38
-0.010741843 -0.1041155 -0.036114022 2.0840558e-38
-0.0088307001 -0.1041155 -0.036114022 2.1025305e-38
-0.0069195554 -0.1041155 -0.036114022 2.1208976e-38
-0.0060965419 -0.093516305 0.0098568946 2.1577753e-38
-0.0043426026 -0.092821583 0.012870029 2.2406425e-38
-0.0025173444 -0.092821583 0.012870029 2.2867037e-38
-0.00043221377 -0.094892681 0.003887251 2.286632e-38
0.001225628 -0.093516305 0.0098568946 2.2958514e-38
0.0030561686 -0.093516305 0.0098568946 2.2775202e-38
0.0050908141 -0.094892681 0.003887251 2.2315307e-38
0.0069318227 -0.094892681 0.003887251 2.1763935e-38
0.0086620376 -0.094215035 0.0068263561 2.1672817e-38
0.010497894 -0.094215035 0.0068263561 2.1489146e-38
0.012454849 -0.094892681 0.003887251 2.1029968e-38
0.014169604 -0.094215035 0.0068263561 2.1029968e-38
0.01600546 -0.094215035 0.0068263561 2.1122163e-38
0.017841317 -0.094215035 0.0068263561 2.1489505e-38
0.019677173 -0.094215035 0.0068263561 2.158134e-38
0.020413809 -0.089143202 0.028823927 2.1765011e-38
0.022055499 -0.088449612 0.031832173 2.2040518e-38
0.023847513 -0.088449612 0.031832173 2.2132353e-38
0.025474355 -0.087760091 0.034822777 2.2040518e-38
0.027261123 -0.087760091 0.034822777 2.158134e-38
0.034275096 -0.10827883 -0.05417113 2.1397669e-38
0.036217902 -0.10827883 -0.05417113 2.1305834e-38
0.038160708 -0.10827883 -0.05417113 2.1305834e-38
0.040103514 -0.10827883 -0.05417113 2.1397669e-38
0.042311046 -0.10920714 -0.058197424 2.1397669e-38
0.044260908 -0.10920714 -0.058197424 2.1213998e-38
0.041910995 -0.094892681 0.003887251 2.0938492e-38
0.043752003 -0.094892681 0.003887251 1.8635071e-38
0.045593012 -0.094892681 0.003887251 1.7529098e-38
0.047434021 -0.094892681 0.003887251 1.5685553e-38
0.049584273 -0.09582752 -0.00016729534 1.5685921e-38
0.05143239 -0.09582752 -0.00016729534 1.4765052e-38
0.053280503 -0.09582752 -0.00016729534 1.3014061e-38
0.055128619 -0.09582752 -0.00016729534 1.2922229e-38
0.05697675 -0.09582752 -0.00016729534 1.2369067e-38
0.059078142 -0.09651424 -0.0031457394 1.0618799e-38
0.060931474 -0.09651424 -0.0031457394 9.9741552e-39
0.063050047 -0.097204864 -0.0061411113 9.5128211e-39
0.064638153 -0.09651424 -0.0031457394 9.1447575e-39
0.0664915 -0.09651424 -0.0031457394 9.0529248e-39
0.068344846 -0.09651424 -0.0031457394 8.8696139e-39
0.070484415 -0.097204864 -0.0061411113 8.7770624e-39
0.072051525 -0.09651424 -0.0031457394 8.5926711e-39
0.073904857 -0.09651424 -0.0031457394 7.4863263e-39
0.075758204 -0.09651424 -0.0031457394 7.6707176e-39
0.077611536 -0.09651424 -0.0031457394 7.7629132e-39
0.079464883 -0.09651424 -0.0031457394 7.5785192e-39
0.08100228 -0.09582752 -0.00016729534 7.5777989e-39
0.082850397 -0.09582752 -0.00016729534 7.3934048e-39
0.085353151 -0.097204864 -0.0061411113 6.9317078e-39
0.087211743 -0.097204864 -0.0061411113 6.1941428e-39
0.089070335 -0.097204864 -0.0061411113 6.4714485e-39
0.091274872 -0.097899407 -0.00915353 6.2870559e-39
0.093138754 -0.097899407 -0.00915353 6.1030177e-39
0.095002621 -0.097899407 -0.00915353 5.826784e-39
0.096866488 -0.097899407 -0.00915353 5.4587217e-39
0.09873037 -0.097899407 -0.00915353 5.2750493e-39
0.10059424 -0.097899407 -0.00915353 5.1825034e-39
0.102965 -0.098831654 -0.013196871 4.9988366e-39
0.10483597 -0.098831654 -0.013196871 5.550937e-39
0.10670693 -0.098831654 -0.013196871 6.0104732e-39
0.10857789 -0.098831654 -0.013196871 6.3767278e-39
0.11044885 -0.098831654 -0.013196871 7.941157e-39
0.11231983 -0.098831654 -0.013196871 6.3694901e-39
0.11419079 -0.098831654 -0.013196871 5.0881147e-42
0.11606175 -0.098831654 -0.013196871 2.8025969e-44
0.11793271 -0.098831654 -0.013196871 3.7274539e-43
0.11980367 -0.098831654 -0.013196871 7.2447131e-43
-0.072921149 -0.090241626 0.031832173 1.4946566e-38
-0.072464913 -0.10951753 -0.051140353 1.9737456e-38
-0.070527419 -0.10951753 -0.051140353 2.121077e-38
-0.068589933 -0.10951753 -0.051140353 2.2590813e-38
-0.066652447 -0.10951753 -0.051140353 2.3142185e-38
-0.064714953 -0.10951753 -0.051140353 2.3417333e-38
-0.06277746 -0.10951753 -0.051140353 2.3417691e-38
-0.060922336 -0.11022164 -0.05417113 2.2867036e-38
-0.058979534 -0.11022164 -0.05417113 2.2775196e-38
-0.057036728 -0.11022164 -0.05417113 2.2499691e-38
-0.055093922 -0.11022164 -0.05417113 2.1302588e-38
-0.053151116 -0.11022164 -0.05417113 2.0841254e-38
-0.049736083 -0.091643453 0.025798038 2.093417e-38
-0.047933489 -0.091643453 0.025798038 2.0841621e-38
-0.046130896 -0.091643453 0.025798038 2.0196975e-38
-0.045340043 -0.10951753 -0.051140353 1.9366137e-38
-0.043402553 -0.10951753 -0.051140353 1.9642726e-38
-0.04078098 -0.093037367 0.019797996 2.0011509e-38
-0.039551482 -0.11022164 -0.05417113 2.0656162e-38
-0.037608679 -0.11022164 -0.05417113 2.1578112e-38
-0.035665873 -0.11022164 -0.05417113 2.2498978e-38
-0.033723071 -0.11022164 -0.05417113 2.2683366e-38
-0.031780265 -0.11022164 -0.05417113 2.2223112e-38
-0.029837459 -0.11022164 -0.05417113 2.1948323e-38
-0.027894655 -0.11022164 -0.05417113 2.1118934e-38
-0.025951851 -0.11022164 -0.05417113 2.0566486e-38
-0.024009045 -0.11022164 -0.05417113 1.9092096e-38
-0.022066241 -0.11022164 -0.05417113 1.8907349e-38
-0.020123437 -0.11022164 -0.05417113 1.9553785e-38
-0.018180631 -0.11022164 -0.05417113 1.8908784e-38
-0.017119419 -0.094646841 0.012870029 1.8908784e-38
-0.015294159 -0.094646841 0.012870029 1.909389e-38
-0.013468899 -0.094646841 0.012870029 1.9278278e-38
-0.011532376 -0.096050888 0.0068263561 1.9830367e-38
-0.0096965209 -0.096050888 0.0068263561 2.0476086e-38
-0.0078606643 -0.096050888 0.0068263561 2.0844145e-38
-0.0060965419 -0.095346853 0.0098568946 2.0751951e-38
-0.0043426026 -0.094646841 0.012870029 2.0659039e-38
-0.0025173444 -0.094646841 0.012870029 2.0382456e-38
-0.0006049145 -0.095346853 0.0098568946 2.1580264e-38
0.001225628 -0.095346853 0.0098568946 2.1395876e-38
0.0030561686 -0.095346853 0.0098568946 2.0843428e-38
0.0050908141 -0.096733689 0.003887251 2.0198785e-38
0.0069318227 -0.096733689 0.003887251 2.0015832e-38
0.0086620376 -0.096050888 0.0068263561 2.0017267e-38
0.010497894 -0.096050888 0.0068263561 2.0018343e-38
0.012454849 -0.096733689 0.003887251 1.9834672e-38
0.014169604 -0.096050888 0.0068263561 2.0387479e-38
0.01600546 -0.096050888 0.0068263561 2.0203808e-38
0.017841317 -0.096050888 0.0068263561 2.0111255e-38
0.019677173 -0.096050888 0.0068263561 2.0018343e-38
0.021061331 -0.093950883 0.015865758 2.0017267e-38
0.022881337 -0.093950883 0.015865758 1.9924355e-38
0.024170198 -0.091643453 0.025798038 1.9832161e-38
0.025972791 -0.091643453 0.025798038 1.9740684e-38
0.029254973 -0.097675636 -0.00016729534 1.7992222e-38
0.031103093 -0.097675636 -0.00016729534 1.7624163e-38
0.03295121 -0.097675636 -0.00016729534 1.7070998e-38
0.034799326 -0.097675636 -0.00016729534 1.642563e-38
0.036387969 -0.096733689 0.003887251 1.5688067e-38
0.038228977 -0.096733689 0.003887251 1.5042698e-38
0.040069986 -0.096733689 0.003887251 1.4489168e-38
0.041910995 -0.096733689 0.003887251 1.4120387e-38
0.043752003 -0.096733689 0.003887251 1.3660135e-38
0.045593012 -0.096733689 0.003887251 1.301513e-38
0.047434021 -0.096733689 0.003887251 1.1632561e-38
0.049584273 -0.097675636 -0.00016729534 1.1817677e-38
0.05143239 -0.097675636 -0.00016729534 1.144926e-38
0.053280503 -0.097675636 -0.00016729534 9.8826574e-39
0.055128619 -0.097675636 -0.00016729534 9.6982704e-39
0.05697675 -0.097675636 -0.00016729534 8.9607151e-39
0.059078142 -0.098367572 -0.0031457394 9.6057384e-39
0.060931474 -0.098367572 -0.0031457394 9.1447687e-39
0.063050047 -0.099063456 -0.0061411113 8.7759862e-39
0.064638153 -0.098367572 -0.0031457394 8.316087e-39
0.0664915 -0.098367572 -0.0031457394 8.3160898e-39
0.068344846 -0.098367572 -0.0031457394 8.1320587e-39
0.070198178 -0.098367572 -0.0031457394 7.9476688e-39
0.072051525 -0.098367572 -0.0031457394 7.6710819e-39
0.073904857 -0.098367572 -0.0031457394 8.0398631e-39
0.075758204 -0.098367572 -0.0031457394 7.7632762e-39
0.077611536 -0.098367572 -0.0031457394 7.1175466e-39
0.079464883 -0.098367572 -0.0031457394 6.3799788e-39
0.081635967 -0.099063456 -0.0061411113 6.4714513e-39
0.083494559 -0.099063456 -0.0061411113 7.0239063e-39
0.085353151 -0.099063456 -0.0061411113 7.4845215e-39
0.087211743 -0.099063456 -0.0061411113 7.4845201e-39
0.089411005 -0.099763289 -0.00915353 6.8398695e-39
0.091274872 -0.099763289 -0.00915353 6.7476683e-39
0.093138754 -0.099763289 -0.00915353 6.6551069e-39
0.095002621 -0.099763289 -0.00915353 6.5632658e-39
0.096866488 -0.099763289 -0.00915353 6.3795934e-39
0.09873037 -0.099763289 -0.00915353 6.2877579e-39
0.10059424 -0.099763289 -0.00915353 6.2877621e-39
0.102965 -0.10070263 -0.013196871 6.1040967e-39
0.10483597 -0.10070263 -0.013196871 6.2870559e-39
0.10670693 -0.10070263 -0.013196871 6.562561e-39
0.10857789 -0.10070263 -0.013196871 6.83698e-39
0.11083795 -0.10138547 -0.016136214 8.1248252e-39
0.11231983 -0.10070263 -0.013196871 7.1992479e-39
0.11419079 -0.10070263 -0.013196871 5.0881147e-42
0.11606175 -0.10070263 -0.013196871 2.9427268e-44
0.11793271 -0.10070263 -0.013196871 1.6815582e-44
0.11980367 -0.10070263 -0.013196871 7.2166871e-43
-0.08922068 -0.092737779 0.028823927 1.2088169e-38
-0.087423399 -0.092737779 0.028823927 1.3288149e-38
-0.071129143 -0.09203364 0.031832173 1.8727265e-38
-0.06933713 -0.09203364 0.031832173 2.0477162e-38
-0.067545116 -0.09203364 0.031832173 2.1856847e-38
-0.068831213 -0.11310686 -0.058197424 2.102674e-38
-0.066881351 -0.11310686 -0.058197424 2.2315665e-38
-0.064714953 -0.11145501 -0.051140353 2.2867037e-38
-0.06277746 -0.11145501 -0.051140353 2.1301885e-38
-0.060922336 -0.11216442 -0.05417113 2.2132353e-38
-0.058979534 -0.11216442 -0.05417113 2.1673176e-38
-0.057036728 -0.11216442 -0.05417113 2.1673176e-38
-0.055093922 -0.11216442 -0.05417113 2.1213998e-38
-0.053232301 -0.11310686 -0.058197424 2.0662268e-38
-0.049736083 -0.093446046 0.025798038 2.0477521e-38
-0.047933489 -0.093446046 0.025798038 2.0017267e-38
-0.046130896 -0.093446046 0.025798038 1.9555937e-38
-0.044407204 -0.094850481 0.019797996 2.1030327e-38
-0.04259409 -0.094850481 0.019797996 2.0661909e-38
-0.04078098 -0.094850481 0.019797996 2.0292415e-38
-0.038967866 -0.094850481 0.019797996 1.9923638e-38
-0.037154756 -0.094850481 0.019797996 1.9830726e-38
-0.035341643 -0.094850481 0.019797996 1.9646338e-38
-0.033538871 -0.095770895 0.015865758 1.9460873e-38
-0.031718865 -0.095770895 0.015865758 1.8724395e-38
-0.029896233 -0.096472099 0.012870029 1.7896441e-38
-0.028070973 -0.096472099 0.012870029 1.734471e-38
-0.026245713 -0.096472099 0.012870029 1.7436546e-38
-0.024420455 -0.096472099 0.012870029 1.559337e-38
-0.022595197 -0.096472099 0.012870029 1.4211159e-38
-0.020769935 -0.096472099 0.012870029 1.4027489e-38
-0.018910337 -0.097177386 0.0098568946 1.3105177e-38
-0.017079795 -0.097177386 0.0098568946 1.3106258e-38
-0.015294159 -0.096472099 0.012870029 1.3014062e-38
-0.013468899 -0.096472099 0.012870029 1.264528e-38
-0.011532376 -0.097886756 0.0068263561 1.2552728e-38
-0.0096965209 -0.097886756 0.0068263561 1.3012983e-38
-0.0078606643 -0.097886756 0.0068263561 1.3105179e-38
-0.0060248096 -0.097886756 0.0068263561 1.2736035e-38
-0.0042659994 -0.097177386 0.0098568946 1.2273977e-38
-0.002435457 -0.097177386 0.0098568946 1.1905192e-38
-0.0006049145 -0.097177386 0.0098568946 1.3472158e-38
0.0013186149 -0.097886756 0.0068263561 1.2918984e-38
0.0031544715 -0.097886756 0.0068263561 1.2273975e-38
0.0050908141 -0.098574698 0.003887251 1.1906271e-38
0.0069318227 -0.098574698 0.003887251 1.2275773e-38
0.0087728314 -0.098574698 0.003887251 1.273819e-38
0.01061384 -0.098574698 0.003887251 1.3015496e-38
0.012454849 -0.098574698 0.003887251 1.2924379e-38
0.014295861 -0.098574698 0.003887251 1.2832183e-38
0.01600546 -0.097886756 0.0068263561 1.2739988e-38
0.017841317 -0.097886756 0.0068263561 1.2647792e-38
0.019677173 -0.097886756 0.0068263561 1.2738906e-38
0.02151303 -0.097886756 0.0068263561 1.2922581e-38
0.023348883 -0.097886756 0.0068263561 1.3107328e-38
0.025184739 -0.097886756 0.0068263561 1.338284e-38
0.027182922 -0.098574698 0.003887251 1.3383915e-38
0.029254973 -0.099523753 -0.00016729534 1.3477547e-38
0.031103093 -0.099523753 -0.00016729534 1.3293875e-38
0.03295121 -0.099523753 -0.00016729534 1.3201682e-38
0.034799326 -0.099523753 -0.00016729534 1.3108767e-38
0.036387969 -0.098574698 0.003887251 1.2832183e-38
0.038228977 -0.098574698 0.003887251 1.2647436e-38
0.040544737 -0.10022092 -0.0031457394 1.2370851e-38
0.041910995 -0.098574698 0.003887251 1.2186822e-38
0.043752003 -0.098574698 0.003887251 1.1633654e-38
0.045888033 -0.099523753 -0.00016729534 1.135779e-38
0.047736157 -0.099523753 -0.00016729534 1.0435835e-38
0.049584273 -0.099523753 -0.00016729534 1.0989372e-38
0.05143239 -0.099523753 -0.00016729534 1.0805344e-38
0.053280503 -0.099523753 -0.00016729534 9.5156868e-39
0.055371463 -0.10022092 -0.0031457394 9.3312955e-39
0.057224795 -0.10022092 -0.0031457394 8.5933788e-39
0.059078142 -0.10022092 -0.0031457394 8.6837905e-39
0.060931474 -0.10022092 -0.0031457394 8.7759904e-39
0.062784821 -0.10022092 -0.0031457394 8.7767106e-39
0.064638153 -0.10022092 -0.0031457394 9.0532975e-39
0.0664915 -0.10022092 -0.0031457394 9.0540164e-39
0.068344846 -0.10022092 -0.0031457394 8.6852339e-39
0.070198178 -0.10022092 -0.0031457394 8.0398645e-39
0.072051525 -0.10022092 -0.0031457394 7.3033784e-39
0.073904857 -0.10022092 -0.0031457394 7.3944936e-39
0.076060191 -0.10092205 -0.0061411113 7.3019379e-39
0.077918783 -0.10092205 -0.0061411113 6.7487613e-39
0.079777375 -0.10092205 -0.0061411113 6.2870601e-39
0.081635967 -0.10092205 -0.0061411113 6.378534e-39
0.083494559 -0.10092205 -0.0061411113 6.9313463e-39
0.085683256 -0.10162716 -0.00915353 7.2079304e-39
0.087547123 -0.10162716 -0.00915353 7.2994029e-39
0.089411005 -0.10162716 -0.00915353 7.2994001e-39
0.091274872 -0.10162716 -0.00915353 7.2997547e-39
0.093138754 -0.10162716 -0.00915353 7.2993889e-39
0.095002621 -0.10162716 -0.00915353 7.2071905e-39
0.096866488 -0.10162716 -0.00915353 7.1153522e-39
0.09873037 -0.10162716 -0.00915353 6.9313211e-39
0.10059424 -0.10162716 -0.00915353 6.7476543e-39
0.10245812 -0.10162716 -0.00915353 6.7476599e-39
0.10432199 -0.10162716 -0.00915353 6.5629113e-39
0.10618587 -0.10162716 -0.00915353 6.8380576e-39
0.10857789 -0.10257359 -0.013196871 7.1128369e-39
0.11044885 -0.10257359 -0.013196871 8.3088479e-39
0.11231983 -0.10257359 -0.013196871 8.0286457e-39
0.11419079 -0.10257359 -0.013196871 4.7293823e-42
0.11646631 -0.1032616 -0.016136214 3.2229865e-44
0.11793271 -0.10257359 -0.013196871 7.3708299e-43
0.11980367 -0.10257359 -0.013196871 3.5873241e-43
0.12167464 -0.10257359 -0.013196871 6.4572113e-40
-0.10815963 -0.10349102 -0.00915353 1.1255144e-38
-0.10629575 -0.10349102 -0.00915353 8.9498999e-39
-0.09281525 -0.094535068 0.028823927 1.1718679e-38
-0.091017969 -0.094535068 0.028823927 1.1811594e-38
-0.08922068 -0.094535068 0.028823927 1.1628644e-38
-0.087423399 -0.094535068 0.028823927 1.2183262e-38
-0.08562611 -0.094535068 0.028823927 1.1999233e-38
-0.083828822 -0.094535068 0.028823927 1.2183627e-38
-0.082031533 -0.094535068 0.028823927 1.2460927e-38
-0.080380142 -0.09524864 0.025798038 1.2921899e-38
-0.075399026 -0.097590908 0.015865758 1.5780996e-38
-0.073417 -0.096663594 0.019797996 1.6702221e-38
-0.071129143 -0.093825653 0.031832173 1.734758e-38
-0.06933713 -0.093825653 0.031832173 1.87287e-38
-0.067545116 -0.093825653 0.031832173 2.1030327e-38
-0.065753102 -0.093825653 0.031832173 2.0293132e-38
-0.064252138 -0.095941633 0.022859409 2.158134e-38
-0.062444393 -0.095941633 0.022859409 2.1948682e-38
-0.060551632 -0.09524864 0.025798038 2.1122163e-38
-0.058749042 -0.09524864 0.025798038 1.9743913e-38
-0.056946449 -0.09524864 0.025798038 1.9009229e-38
-0.055143856 -0.09524864 0.025798038 1.9009229e-38
-0.053472765 -0.096663594 0.019797996 1.9193617e-38
-0.051659651 -0.096663594 0.019797996 1.9193259e-38
-0.049846541 -0.096663594 0.019797996 1.8824482e-38
-0.047982436 -0.095941633 0.022859409 1.8640093e-38
-0.04617469 -0.095941633 0.022859409 1.8639734e-38
-0.044407204 -0.096663594 0.019797996 1.7809986e-38
-0.04259409 -0.096663594 0.019797996 1.7256462e-38
-0.04078098 -0.096663594 0.019797996 1.6518908e-38
-0.038967866 -0.096663594 0.019797996 1.5965743e-38
-0.037154756 -0.096663594 0.019797996 1.5596246e-38
-0.035341643 -0.096663594 0.019797996 1.5135268e-38
-0.033538871 -0.097590908 0.015865758 1.4582094e-38
-0.031718865 -0.097590908 0.015865758 1.4213676e-38
-0.029896233 -0.098297372 0.012870029 1.3108781e-38
-0.028070973 -0.098297372 0.012870029 1.2741444e-38
-0.026245713 -0.098297372 0.012870029 1.3386456e-38
-0.024420455 -0.098297372 0.012870029 1.2373025e-38
-0.022595197 -0.098297372 0.012870029 1.1819496e-38
-0.020769935 -0.098297372 0.012870029 1.1728382e-38
-0.018910337 -0.099007934 0.0098568946 1.1267046e-38
-0.017079795 -0.099007934 0.0098568946 1.1636548e-38
-0.015249253 -0.099007934 0.0098568946 1.0345809e-38
-0.013368232 -0.099722609 0.0068263561 1.0069222e-38
-0.011532376 -0.099722609 0.0068263561 1.0161421e-38
-0.0096965209 -0.099722609 0.0068263561 1.0898264e-38
-0.0078606643 -0.099722609 0.0068263561 1.1358522e-38
-0.0060248096 -0.099722609 0.0068263561 1.135852e-38
-0.004188953 -0.099722609 0.0068263561 1.1449997e-38
-0.002435457 -0.099007934 0.0098568946 1.1726221e-38
-0.0006049145 -0.099007934 0.0098568946 1.1909533e-38
0.001225628 -0.099007934 0.0098568946 1.1725142e-38
0.0030561686 -0.099007934 0.0098568946 1.1449634e-38
0.0050908141 -0.10041572 0.003887251 1.172694e-38
0.0069318227 -0.10041572 0.003887251 1.2003887e-38
0.0087728314 -0.10041572 0.003887251 1.2097162e-38
0.01061384 -0.10041572 0.003887251 1.2097878e-38
0.012454849 -0.10041572 0.003887251 1.1914565e-38
0.014295861 -0.10041572 0.003887251 1.2006758e-38
0.01600546 -0.099722609 0.0068263561 1.1914563e-38
0.017841317 -0.099722609 0.0068263561 1.1914563e-38
0.019818887 -0.10041572 0.003887251 1.2190428e-38
0.021659896 -0.10041572 0.003887251 1.2374462e-38
0.023500904 -0.10041572 0.003887251 1.2650687e-38
0.025341913 -0.10041572 0.003887251 1.3110588e-38
0.027182922 -0.10041572 0.003887251 1.3294978e-38
0.029254973 -0.10137187 -0.00016729534 1.3387173e-38
0.031103093 -0.10137187 -0.00016729534 1.3387173e-38
0.03295121 -0.10137187 -0.00016729534 1.3294979e-38
0.034799326 -0.10137187 -0.00016729534 1.3017676e-38
0.036387969 -0.10041572 0.003887251 1.2556701e-38
0.038228977 -0.10041572 0.003887251 1.2095367e-38
0.040544737 -0.10207425 -0.0031457394 1.1726588e-38
0.0421918 -0.10137187 -0.00016729534 1.1541841e-38
0.044039916 -0.10137187 -0.00016729534 1.1173059e-38
0.045888033 -0.10137187 -0.00016729534 1.1081585e-38
0.047736157 -0.10137187 -0.00016729534 1.0159628e-38
0.049584273 -0.10137187 -0.00016729534 1.0436935e-38
0.05143239 -0.10137187 -0.00016729534 1.0252547e-38
0.053280503 -0.10137187 -0.00016729534 9.3313067e-39
0.055128619 -0.10137187 -0.00016729534 9.6078936e-39
0.05697675 -0.10137187 -0.00016729534 9.1461994e-39
0.058824867 -0.10137187 -0.00016729534 8.2228124e-39
0.060931474 -0.10207425 -0.0031457394 8.4072064e-39
0.062784821 -0.10207425 -0.0031457394 8.5926767e-39
0.064638153 -0.10207425 -0.0031457394 9.1458505e-39
0.0664915 -0.10207425 -0.0031457394 9.3302417e-39
0.068344846 -0.10207425 -0.0031457394 8.9618194e-39
0.070198178 -0.10207425 -0.0031457394 8.2242543e-39
0.072051525 -0.10207425 -0.0031457394 7.6714365e-39
0.073904857 -0.10207425 -0.0031457394 6.8409541e-39
0.076060191 -0.10278064 -0.0061411113 7.117897e-39
0.077918783 -0.10278064 -0.0061411113 7.3934034e-39
0.08009164 -0.10349102 -0.00915353 7.3930405e-39
0.081955507 -0.10349102 -0.00915353 7.6692617e-39
0.083819374 -0.10349102 -0.00915353 7.9451255e-39
0.085683256 -0.10349102 -0.00915353 7.7607328e-39
0.087547123 -0.10349102 -0.00915353 7.3915874e-39
0.089411005 -0.10349102 -0.00915353 7.5748968e-39
0.091274872 -0.10349102 -0.00915353 7.5752513e-39
0.093138754 -0.10349102 -0.00915353 7.6667253e-39
0.095002621 -0.10349102 -0.00915353 7.7585552e-39
0.096866488 -0.10349102 -0.00915353 7.7585552e-39
0.09873037 -0.10349102 -0.00915353 7.6670784e-39
0.10059424 -0.10349102 -0.00915353 7.6674442e-39
0.10245812 -0.10349102 -0.00915353 7.667447e-39
0.10432199 -0.10349102 -0.00915353 7.8514809e-39
0.10618587 -0.10349102 -0.00915353 7.943315e-39
0.10857789 -0.10444455 -0.013196871 8.3102898e-39
0.11044885 -0.10444455 -0.013196871 9.3219124e-39
0.11231983 -0.10444455 -0.013196871 9.5030513e-39
0.11419079 -0.10444455 -0.013196871 6.4937572e-40
0.11646631 -0.10513772 -0.016136214 3.2229865e-44
0.11793271 -0.10444455 -0.013196871 3.6879934e-40
0.11980367 -0.10444455 -0.013196871 4.6097815e-40
0.12167464 -0.10444455 -0.013196871 7.3647763e-40
-0.11142915 -0.1039276 -0.0031457394 5.4475198e-39
-0.10957582 -0.1039276 -0.0031457394 8.3052326e-39
-0.10721074 -0.10225673 0.003887251 7.2907289e-39
-0.10536973 -0.10225673 0.003887251 2.4969247e-39
-0.10352872 -0.10225673 0.003887251 3.4181733e-39
-0.096409827 -0.096332356 0.028823927 3.6061855e-39
-0.094612539 -0.096332356 0.028823927 3.9760527e-39
-0.09281525 -0.096332356 0.028823927 4.8987348e-39
-0.091017969 -0.096332356 0.028823927 5.8217729e-39
-0.08922068 -0.096332356 0.028823927 6.0994402e-39
-0.087423399 -0.096332356 0.028823927 5.3633171e-39
-0.08562611 -0.096332356 0.028823927 4.9027019e-39
-0.083828822 -0.096332356 0.028823927 4.8105091e-39
-0.082031533 -0.096332356 0.028823927 5.2718488e-39
-0.080380142 -0.097051233 0.025798038 5.9172182e-39
-0.078577556 -0.097051233 0.025798038 6.7484124e-39
-0.076774962 -0.097051233 0.025798038 8.4072064e-39
-0.075399026 -0.099410906 0.015865758 9.7908457e-39
-0.073417 -0.098476708 0.019797996 1.0712788e-38
-0.071247816 -0.096332356 0.028823927 1.3939618e-38
-0.06933713 -0.095617667 0.031832173 1.3293513e-38
-0.067545116 -0.095617667 0.031832173 1.4398771e-38
-0.06605988 -0.097749382 0.022859409 1.5041974e-38
-0.064252138 -0.097749382 0.022859409 1.5041249e-38
-0.062444393 -0.097749382 0.022859409 1.4210407e-38
-0.060636647 -0.097749382 0.022859409 1.4212569e-38
-0.058749042 -0.097051233 0.025798038 1.4493121e-38
-0.056946449 -0.097051233 0.025798038 1.3297461e-38
-0.055143856 -0.097051233 0.025798038 1.3296384e-38
-0.053472765 -0.098476708 0.019797996 1.3665167e-38
-0.051659651 -0.098476708 0.019797996 1.3849561e-38
-0.049846541 -0.098476708 0.019797996 1.3480778e-38
-0.048033427 -0.098476708 0.019797996 1.3480781e-38
-0.046220317 -0.098476708 0.019797996 1.3941402e-38
-0.044407204 -0.098476708 0.019797996 1.3388231e-38
-0.04259409 -0.098476708 0.019797996 1.3111288e-38
-0.04078098 -0.098476708 0.019797996 1.3019093e-38
-0.038967866 -0.098476708 0.019797996 1.3111291e-38
-0.037154756 -0.098476708 0.019797996 1.3387159e-38
-0.035341643 -0.098476708 0.019797996 1.3294965e-38
-0.033538871 -0.099410906 0.015865758 1.2926182e-38
-0.031718865 -0.099410906 0.015865758 1.2649961e-38
-0.029896233 -0.10012263 0.012870029 1.3111667e-38
-0.028070973 -0.10012263 0.012870029 1.2190076e-38
-0.026245713 -0.10012263 0.012870029 1.2190799e-38
-0.024420455 -0.10012263 0.012870029 1.1729822e-38
-0.022595197 -0.10012263 0.012870029 1.1730185e-38
-0.02074088 -0.10083848 0.0098568946 1.1914577e-38
-0.018910337 -0.10083848 0.0098568946 1.0901146e-38
-0.017079795 -0.10083848 0.0098568946 1.1085182e-38
-0.015249253 -0.10083848 0.0098568946 1.1914937e-38
-0.013368232 -0.10155846 0.0068263561 1.1822743e-38
-0.011532376 -0.10155846 0.0068263561 1.2007131e-38
-0.0096965209 -0.10155846 0.0068263561 1.2467743e-38
-0.0078606643 -0.10155846 0.0068263561 1.2374832e-38
-0.0060965419 -0.10083848 0.0098568946 1.1913858e-38
-0.0042659994 -0.10083848 0.0098568946 1.2097529e-38
-0.002435457 -0.10083848 0.0098568946 1.2557785e-38
-0.0006049145 -0.10083848 0.0098568946 1.2557065e-38
0.001225628 -0.10083848 0.0098568946 1.2464869e-38
0.0030561686 -0.10083848 0.0098568946 1.2281198e-38
0.0050908141 -0.10225673 0.003887251 1.2281917e-38
0.0069318227 -0.10225673 0.003887251 1.2190801e-38
0.0087728314 -0.10225673 0.003887251 1.2099322e-38
0.01061384 -0.10225673 0.003887251 1.2191518e-38
0.012454849 -0.10225673 0.003887251 1.228443e-38
0.014295861 -0.10225673 0.003887251 1.2561014e-38
0.01613687 -0.10225673 0.003887251 1.2468818e-38
0.017977878 -0.10225673 0.003887251 1.2376623e-38
0.019818887 -0.10225673 0.003887251 1.2376262e-38
0.021659896 -0.10225673 0.003887251 1.2284067e-38
0.023500904 -0.10225673 0.003887251 1.2375541e-38
0.025341913 -0.10225673 0.003887251 1.2375544e-38
0.027182922 -0.10225673 0.003887251 1.2558853e-38
0.02902393 -0.10225673 0.003887251 1.2834004e-38
0.030864939 -0.10225673 0.003887251 1.2926199e-38
0.03295121 -0.10322 -0.00016729534 1.3017679e-38
0.034799326 -0.10322 -0.00016729534 1.2740736e-38
0.036387969 -0.10225673 0.003887251 1.2187566e-38
0.038228977 -0.10225673 0.003887251 1.1726232e-38
0.040343683 -0.10322 -0.00016729534 1.126526e-38
0.0421918 -0.10322 -0.00016729534 1.1080511e-38
0.044039916 -0.10322 -0.00016729534 1.1357098e-38
0.045888033 -0.10322 -0.00016729534 1.108123e-38
0.047736157 -0.10322 -0.00016729534 9.9741636e-39
0.049584273 -0.10322 -0.00016729534 9.9748825e-39
0.05143239 -0.10322 -0.00016729534 9.6982942e-39
0.053280503 -0.10322 -0.00016729534 9.0532807e-39
0.055128619 -0.10322 -0.00016729534 9.6986501e-39
0.05697675 -0.10322 -0.00016729534 9.4220632e-39
0.058824867 -0.10322 -0.00016729534 9.1447603e-39
0.060672984 -0.10322 -0.00016729534 9.0522073e-39
0.0625211 -0.10322 -0.00016729534 9.0522073e-39
0.064369217 -0.10322 -0.00016729534 9.0529262e-39
0.066217333 -0.10322 -0.00016729534 9.0529262e-39
0.06806545 -0.10322 -0.00016729534 8.7763379e-39
0.070198178 -0.1039276 -0.0031457394 8.3153597e-39
0.072051525 -0.1039276 -0.0031457394 7.8547375e-39
0.073904857 -0.1039276 -0.0031457394 8.4079085e-39
0.076060191 -0.10463922 -0.0061411113 8.4075456e-39
0.077918783 -0.10463922 -0.0061411113 8.1305943e-39
0.08009164 -0.10535492 -0.00915353 7.8529256e-39
0.081955507 -0.10535492 -0.00915353 8.0369512e-39
0.083819374 -0.10535492 -0.00915353 8.5894033e-39
0.085683256 -0.10535492 -0.00915353 8.7737917e-39
0.087547123 -0.10535492 -0.00915353 8.6812332e-39
0.089411005 -0.10535492 -0.00915353 8.8649028e-39
0.091274872 -0.10535492 -0.00915353 9.1407666e-39
0.093138754 -0.10535492 -0.00915353 9.3247935e-39
0.095002621 -0.10535492 -0.00915353 9.6003014e-39
0.096866488 -0.10535492 -0.00915353 9.7850486e-39
0.09873037 -0.10535492 -0.00915353 9.693576e-39
0.10059424 -0.10535492 -0.00915353 9.693939e-39
0.10245812 -0.10535492 -0.00915353 9.786136e-39
0.10432199 -0.10535492 -0.00915353 1.033931e-38
0.10618587 -0.10535492 -0.00915353 1.0338948e-38
0.10857789 -0.10631551 -0.013196871 1.0429699e-38
0.11044885 -0.10631551 -0.013196871 1.107218e-38
0.11231983 -0.10631551 -0.013196871 1.0885617e-38
0.11419079 -0.10631551 -0.013196871 1.2025467e-39
0.11606175 -0.10631551 -0.013196871 2.9427268e-44
0.11793271 -0.10631551 -0.013196871 1.8440808e-40
0.11980367 -0.10631551 -0.013196871 9.1835496e-41
0.12167464 -0.10631551 -0.013196871 3.6734198e-40
0.1235456 -0.10631551 -0.013196871 3.1313976e-39
-0.111202 -0.1050681 -0.00016729534 2.3128683e-39
-0.1086069 -0.10266902 0.0098568946 6.5542345e-39
-0.10633914 -0.10123092 0.015865758 6.7386369e-39
-0.10402252 -0.099557132 0.022859409 1.7604443e-39
-0.10201125 -0.098853827 0.025798038 1.3927519e-39
-0.10020865 -0.098853827 0.025798038 1.6704276e-39
-0.098406062 -0.098853827 0.025798038 1.2112628e-39
-0.096409827 -0.098129645 0.028823927 2.1350267e-39
-0.094612539 -0.098129645 0.028823927 1.7673316e-39
-0.09281525 -0.098129645 0.028823927 2.966958e-39
-0.091017969 -0.098129645 0.028823927 2.5996202e-39
-0.08922068 -0.098129645 0.028823927 2.969479e-39
-0.087423399 -0.098129645 0.028823927 4.0761811e-39
-0.08562611 -0.098129645 0.028823927 3.8925059e-39
-0.083828822 -0.098129645 0.028823927 3.1545863e-39
-0.082031533 -0.098129645 0.028823927 3.9847099e-39
-0.080234244 -0.098129645 0.028823927 3.8003186e-39
-0.078577556 -0.098853827 0.025798038 5.4609162e-39
-0.076774962 -0.098853827 0.025798038 7.119713e-39
-0.075230107 -0.10028981 0.019797996 9.3331158e-39
-0.073417 -0.10028981 0.019797996 1.0624559e-38
-0.071247816 -0.098129645 0.028823927 1.2375544e-38
-0.069450527 -0.098129645 0.028823927 1.3480801e-38
-0.067653239 -0.098129645 0.028823927 1.3387159e-38
-0.06605988 -0.099557132 0.022859409 1.3386796e-38
-0.064252138 -0.099557132 0.022859409 1.4215115e-38
-0.062444393 -0.099557132 0.022859409 1.4674651e-38
-0.060551632 -0.098853827 0.025798038 1.3846332e-38
-0.058749042 -0.098853827 0.025798038 1.3296759e-38
-0.056946449 -0.098853827 0.025798038 1.3206721e-38
-0.055143856 -0.098853827 0.025798038 1.3298556e-38
-0.053405669 -0.099557132 0.022859409 1.2929774e-38
-0.051597923 -0.099557132 0.022859409 1.2929774e-38
-0.049846541 -0.10028981 0.019797996 1.3206361e-38
-0.048033427 -0.10028981 0.019797996 1.366626e-38
-0.046220317 -0.10028981 0.019797996 1.366626e-38
-0.044407204 -0.10028981 0.019797996 1.3757737e-38
-0.04259409 -0.10028981 0.019797996 1.3757737e-38
-0.04078098 -0.10028981 0.019797996 1.3757737e-38
-0.038967866 -0.10028981 0.019797996 1.3757737e-38
-0.037154756 -0.10028981 0.019797996 1.3665541e-38
-0.03535888 -0.10123092 0.015865758 1.3481153e-38
-0.033538871 -0.10123092 0.015865758 1.3388957e-38
-0.031721491 -0.10194789 0.012870029 1.3296404e-38
-0.029896233 -0.10194789 0.012870029 1.3295331e-38
-0.028070973 -0.10194789 0.012870029 1.3479725e-38
-0.026232507 -0.10266902 0.0098568946 1.3203861e-38
-0.024401965 -0.10266902 0.0098568946 1.2927275e-38
-0.022571422 -0.10266902 0.0098568946 1.2743247e-38
-0.02074088 -0.10266902 0.0098568946 1.2835443e-38
-0.018910337 -0.10266902 0.0098568946 1.2652132e-38
-0.017079795 -0.10266902 0.0098568946 1.2375546e-38
-0.015249253 -0.10266902 0.0098568946 1.2190799e-38
-0.013368232 -0.10339431 0.0068263561 1.2190799e-38
-0.011588169 -0.10266902 0.0098568946 1.2466663e-38
-0.0097576268 -0.10266902 0.0098568946 1.2558859e-38
-0.0079270843 -0.10266902 0.0098568946 1.2834727e-38
-0.0060965419 -0.10266902 0.0098568946 1.3202786e-38
-0.0042659994 -0.10266902 0.0098568946 1.3478651e-38
-0.002435457 -0.10266902 0.0098568946 1.3570846e-38
-0.0006049145 -0.10266902 0.0098568946 1.3570487e-38
0.001225628 -0.10266902 0.0098568946 1.3017313e-38
0.0030561686 -0.10266902 0.0098568946 1.2741444e-38
0.0049903244 -0.10339431 0.0068263561 1.3294617e-38
0.006826181 -0.10339431 0.0068263561 1.3571563e-38
0.0086620376 -0.10339431 0.0068263561 1.3203861e-38
0.01061384 -0.10409774 0.003887251 1.301947e-38
0.012454849 -0.10409774 0.003887251 1.3020186e-38
0.014169604 -0.10339431 0.0068263561 1.3112381e-38
0.01600546 -0.10339431 0.0068263561 1.3020542e-38
0.017977878 -0.10409774 0.003887251 1.3020542e-38
0.019818887 -0.10409774 0.003887251 1.301982e-38
0.021659896 -0.10409774 0.003887251 1.2927624e-38
0.023500904 -0.10409774 0.003887251 1.3111293e-38
0.025341913 -0.10409774 0.003887251 1.3018741e-38
