# .PCD v0.7 - Point Cloud Data file format
VERSION 0.7
FIELDS x y z rgb
SIZE 4 4 4 4
TYPE F F F F
COUNT 1 1 1 1
WIDTH 949
HEIGHT 1
VIEWPOINT 0 0 0 1 0 0 0
POINTS 949
DATA ascii
0.082462005 -0.12398534 0.046682309 2.341804e-38
0.08421725 -0.12398534 0.046682309 2.2865587e-38
0.085972495 -0.12398534 0.046682309 2.1850716e-38
0.08772774 -0.12398534 0.046682309 2.0652174e-38
0.089721173 -0.12479414 0.043696593 6.8224738e-39
0.091481656 -0.12479414 0.043696593 1.1063448e-39
0.093492277 -0.12560774 0.040693115 6.6377196e-39
0.09525802 -0.12560774 0.040693115 6.729188e-39
0.09884765 -0.13130049 0.019678187 3.1331955e-39
0.10152968 -0.13399105 0.009745907 1.5662355e-39
0.10334968 -0.13399105 0.009745907 1.1970984e-39
0.10627232 -0.13723589 -0.0022326 9.1835496e-41
0.10849365 -0.13833423 -0.0062871464 1.7509981e-39
0.11034176 -0.13833423 -0.0062871464 4.240999e-39
0.11247972 -0.13914107 -0.0092655905 1.3829698e-38
0.11532875 -0.14186381 -0.019316722 1.5028958e-38
0.11780552 -0.14349155 -0.025325585 1.5582126e-38
0.12040503 -0.14538784 -0.032325793 1.4844198e-38
0.1222988 -0.14538784 -0.032325793 7.5607437e-39
0.12419257 -0.14538784 -0.032325793 5.5324426e-39
-0.11821031 -0.1472816 -0.032325793 2.332621e-38
-0.11596734 -0.14646508 -0.029330898 2.3418047e-38
-0.11407881 -0.14646508 -0.029330898 2.3417687e-38
-0.11173733 -0.14537306 -0.025325585 2.3509883e-38
-0.10985584 -0.14537306 -0.025325585 2.3509886e-38
-0.10797433 -0.14537306 -0.025325585 2.3509886e-38
-0.10576185 -0.14453618 -0.022256065 2.3509886e-38
-0.10388573 -0.14453618 -0.022256065 2.3509886e-38
-0.10200962 -0.14453618 -0.022256065 2.3509886e-38
-0.1001335 -0.14453618 -0.022256065 2.3509886e-38
-0.098257385 -0.14453618 -0.022256065 2.3509886e-38
-0.096090086 -0.14373477 -0.019316722 2.3509886e-38
-0.094219126 -0.14373477 -0.019316722 2.3509886e-38
-0.092348166 -0.14373477 -0.019316722 2.3509886e-38
-0.090097912 -0.14263238 -0.015273381 2.3509886e-38
-0.088234045 -0.14263238 -0.015273381 2.3509886e-38
-0.086370163 -0.14263238 -0.015273381 2.3509886e-38
-0.084506296 -0.14263238 -0.015273381 2.3509886e-38
-0.082642414 -0.14263238 -0.015273381 2.3509886e-38
-0.080778547 -0.14263238 -0.015273381 2.341805e-38
-0.078663789 -0.14181106 -0.012260962 2.3234379e-38
-0.076805197 -0.14181106 -0.012260962 2.3234379e-38
-0.074946605 -0.14181106 -0.012260962 2.3418047e-38
-0.073088013 -0.14181106 -0.012260962 2.3418047e-38
-0.071000956 -0.14099441 -0.0092655905 2.350988e-38
-0.069147624 -0.14099441 -0.0092655905 2.350988e-38
-0.067294277 -0.14099441 -0.0092655905 2.3509521e-38
-0.065229438 -0.14018236 -0.0062871464 2.3509521e-38
-0.063381322 -0.14018236 -0.0062871464 2.3509883e-38
-0.061259516 -0.1390769 -0.0022326 2.3141106e-38
-0.059418507 -0.1390769 -0.0022326 2.341805e-38
-0.057577498 -0.1390769 -0.0022326 1.2448219e-38
-0.05573649 -0.1390769 -0.0022326 3.6903601e-39
-0.053895481 -0.1390769 -0.0022326 1.4573504e-42
-0.052054465 -0.1390769 -0.0022326 2.1248407e-39
-0.050213456 -0.1390769 -0.0022326 7.0064923e-45
-0.048210122 -0.13827558 0.00070650503 5.0628213e-39
-0.046374269 -0.13827558 0.00070650503 1.4741186e-38
-0.044538409 -0.13827558 0.00070650503 1.72319e-38
-0.042702556 -0.13827558 0.00070650503 1.8064185e-38
-0.040720575 -0.13744931 0.0037370436 1.6589785e-38
-0.038890034 -0.13744931 0.0037370436 4.6972842e-39
-0.036924772 -0.13662781 0.0067501776 1.5630097e-39
-0.035099514 -0.13662781 0.0067501776 3.7749972e-39
-0.033274256 -0.13662781 0.0067501776 7.2777108e-39
-0.031330816 -0.13581105 0.009745907 1.5206887e-38
-0.029510805 -0.13581105 0.009745907 1.1058069e-38
-0.0276908 -0.13581105 0.009745907 8.7538919e-39
-0.025870794 -0.13581105 0.009745907 8.0170499e-39
-0.024050785 -0.13581105 0.009745907 1.3796946e-39
-0.022110125 -0.13473894 0.013678145 1.4729889e-39
-0.020297011 -0.13473894 0.013678145 7.9266774e-39
-0.018590765 -0.13581105 0.009745907 8.2017929e-39
-0.01677076 -0.13581105 0.009745907 9.5861511e-39
-0.014857678 -0.13473894 0.013678145 1.078758e-38
-0.013044564 -0.13473894 0.013678145 7.4710634e-39
-0.011169722 -0.13390426 0.016739558 1.4797978e-39
-0.0093619805 -0.13390426 0.016739558 5.3907952e-42
-0.0075542349 -0.13390426 0.016739558 7.4439917e-40
-0.0057464894 -0.13390426 0.016739558 9.686655e-39
-0.0039387476 -0.13390426 0.016739558 1.0329866e-38
-0.002131002 -0.13390426 0.016739558 1.0696851e-38
-0.00029491819 -0.13310309 0.019678187 1.0325911e-38
0.0015076734 -0.13310309 0.019678187 2.4885687e-39
0.003310265 -0.13310309 0.019678187 1.9339614e-39
0.0051261205 -0.1322781 0.022704076 4.591971e-40
0.0069234092 -0.1322781 0.022704076 1.1956915e-39
0.0087233316 -0.13145791 0.025712322 3.685684e-39
0.010512723 -0.13064255 0.028702926 1.2353124e-38
0.012299491 -0.13064255 0.028702926 2.3509144e-38
0.01408626 -0.13064255 0.028702926 2.3509869e-38
0.01587303 -0.13064255 0.028702926 2.3509873e-38
0.017659798 -0.13064255 0.028702926 2.3509879e-38
0.019446567 -0.13064255 0.028702926 2.3417327e-38
0.021199452 -0.12983195 0.031676006 2.3509527e-38
0.022981009 -0.12983195 0.031676006 2.3509527e-38
0.024762563 -0.12983195 0.031676006 2.3509527e-38
0.02654412 -0.12983195 0.031676006 2.3509527e-38
0.028325677 -0.12983195 0.031676006 2.3509527e-38
0.030045584 -0.12899835 0.034733485 2.3509886e-38
0.03182178 -0.12899835 0.034733485 2.3509886e-38
0.033526037 -0.12816976 0.037772607 2.3509886e-38
0.035296902 -0.12816976 0.037772607 2.3418047e-38
0.037067771 -0.12816976 0.037772607 2.3234379e-38
0.03883864 -0.12816976 0.037772607 2.3142544e-38
0.040519893 -0.1273735 0.040693115 2.2958873e-38
0.04218822 -0.12655462 0.043696593 2.2958873e-38
0.043948695 -0.12655462 0.043696593 2.2958873e-38
0.045709178 -0.12655462 0.043696593 2.3142544e-38
0.047469653 -0.12655462 0.043696593 2.3142544e-38
0.049230136 -0.12655462 0.043696593 2.3142544e-38
0.050990619 -0.12655462 0.043696593 2.3142544e-38
0.052751094 -0.12655462 0.043696593 2.3234379e-38
0.054378085 -0.12574057 0.046682309 2.3234379e-38
0.05613333 -0.12574057 0.046682309 2.3234379e-38
0.057888575 -0.12574057 0.046682309 2.3234379e-38
0.05964382 -0.12574057 0.046682309 2.341805e-38
0.061399065 -0.12574057 0.046682309 2.341805e-38
0.062990315 -0.1249045 0.049748909 2.341805e-38
0.064577267 -0.12410025 0.052698683 2.341805e-38
0.066321962 -0.12410025 0.052698683 2.341805e-38
0.068066664 -0.12410025 0.052698683 2.341805e-38
0.069811359 -0.12410025 0.052698683 2.341805e-38
0.071556054 -0.12410025 0.052698683 2.341805e-38
0.073300749 -0.12410025 0.052698683 2.341805e-38
0.075045452 -0.12410025 0.052698683 2.3418047e-38
0.076989263 -0.1249045 0.049748909 2.3234376e-38
0.078739129 -0.1249045 0.049748909 2.3234374e-38
0.080489002 -0.1249045 0.049748909 2.2404251e-38
0.082238868 -0.1249045 0.049748909 2.3326206e-38
0.083988734 -0.1249045 0.049748909 2.3049978e-38
0.085972495 -0.12574057 0.046682309 2.1206065e-38
0.08772774 -0.12574057 0.046682309 2.0007522e-38
0.089721173 -0.12655462 0.043696593 6.9157428e-39
0.091481656 -0.12655462 0.043696593 3.6985311e-40
0.093492277 -0.1273735 0.040693115 3.964761e-39
0.095506363 -0.12816976 0.037772607 3.5948911e-39
0.097277232 -0.12816976 0.037772607 1.6587801e-39
0.10152968 -0.13581105 0.009745907 2.7586522e-40
0.10334968 -0.13581105 0.009745907 3.6877691e-40
0.10572281 -0.13744931 0.0037370436 1.9357425e-39
0.10849365 -0.14018236 -0.0062871464 1.0602495e-38
0.11034176 -0.14018236 -0.0062871464 1.2630798e-38
0.11218988 -0.14018236 -0.0062871464 1.5120436e-38
0.114038 -0.14018236 -0.0062871464 1.5121151e-38
0.11588613 -0.14018236 -0.0062871464 1.4660526e-38
0.11773425 -0.14018236 -0.0062871464 1.3922241e-38
0.11958236 -0.14018236 -0.0062871464 7.0997641e-39
-0.11821031 -0.14917539 -0.032325793 2.3326213e-38
-0.11596734 -0.14835359 -0.029330898 2.3326213e-38
-0.11407881 -0.14835359 -0.029330898 2.3326213e-38
-0.11173733 -0.14725454 -0.025325585 2.341805e-38
-0.10985584 -0.14725454 -0.025325585 2.3509886e-38
-0.10797433 -0.14725454 -0.025325585 2.3509886e-38
-0.10576185 -0.1464123 -0.022256065 2.3509886e-38
-0.10388573 -0.1464123 -0.022256065 2.3509886e-38
-0.10200962 -0.1464123 -0.022256065 2.3509886e-38
-0.099832006 -0.14560573 -0.019316722 2.3509886e-38
-0.097961046 -0.14560573 -0.019316722 2.3509886e-38
-0.096090086 -0.14560573 -0.019316722 2.3509886e-38
-0.094219126 -0.14560573 -0.019316722 2.3509886e-38
-0.092348166 -0.14560573 -0.019316722 2.3509886e-38
-0.090477191 -0.14560573 -0.019316722 2.3509886e-38
-0.088234045 -0.14449625 -0.015273381 2.3509886e-38
-0.086370163 -0.14449625 -0.015273381 2.3509886e-38
-0.084506296 -0.14449625 -0.015273381 2.3509886e-38
-0.082642414 -0.14449625 -0.015273381 2.3509886e-38
-0.080778547 -0.14449625 -0.015273381 2.341805e-38
-0.078663789 -0.14366965 -0.012260962 2.3234379e-38
-0.076805197 -0.14366965 -0.012260962 2.3234379e-38
-0.074946605 -0.14366965 -0.012260962 2.3418047e-38
-0.073088013 -0.14366965 -0.012260962 2.3418047e-38
-0.071000956 -0.14284773 -0.0092655905 2.350988e-38
-0.069147624 -0.14284773 -0.0092655905 2.3509879e-38
-0.067294277 -0.14284773 -0.0092655905 2.3509879e-38
-0.065229438 -0.14203046 -0.0062871464 2.3509521e-38
-0.063100524 -0.14091791 -0.0022326 2.3509883e-38
-0.061259516 -0.14091791 -0.0022326 2.3509886e-38
-0.059418507 -0.14091791 -0.0022326 2.341805e-38
-0.057577498 -0.14091791 -0.0022326 1.4383971e-38
-0.05573649 -0.14091791 -0.0022326 2.6765697e-39
-0.053895481 -0.14091791 -0.0022326 7.3708299e-43
-0.052054465 -0.14091791 -0.0022326 5.575178e-40
-0.050213456 -0.14091791 -0.0022326 4.624341e-40
-0.048210122 -0.14011143 0.00070650503 4.6043753e-39
-0.046374269 -0.14011143 0.00070650503 1.2622863e-38
-0.044538409 -0.14011143 0.00070650503 1.5574559e-38
-0.042551123 -0.13927986 0.0037370436 1.5761111e-38
-0.040720575 -0.13927986 0.0037370436 1.3549507e-38
-0.03875003 -0.13845308 0.0067501776 3.4080013e-39
-0.036924772 -0.13845308 0.0067501776 7.3470499e-40
-0.035099514 -0.13845308 0.0067501776 3.4069475e-39
-0.033274256 -0.13845308 0.0067501776 9.0305152e-39
-0.031330816 -0.13763104 0.009745907 1.3363343e-38
-0.029510805 -0.13763104 0.009745907 1.2072586e-38
-0.0276908 -0.13763104 0.009745907 8.2922005e-39
-0.025870794 -0.13763104 0.009745907 5.5266945e-39
-0.024050785 -0.13763104 0.009745907 6.4285128e-40
-0.022110125 -0.13655205 0.013678145 9.1838018e-40
-0.020297011 -0.13655205 0.013678145 7.5571788e-39
-0.018590765 -0.13763104 0.009745907 8.0199184e-39
-0.01677076 -0.13763104 0.009745907 9.1273309e-39
-0.014857678 -0.13655205 0.013678145 1.0603548e-38
-0.013044564 -0.13655205 0.013678145 7.9302437e-39
-0.011169722 -0.13571201 0.016739558 1.9382522e-39
-0.0093619805 -0.13571201 0.016739558 3.7057338e-40
-0.0075542349 -0.13571201 0.016739558 2.2130482e-39
-0.0057464894 -0.13571201 0.016739558 1.2076183e-38
-0.0039387476 -0.13571201 0.016739558 1.2811588e-38
-0.0020975117 -0.13490568 0.019678187 1.2165859e-38
-0.00029491819 -0.13490568 0.019678187 1.0598176e-38
0.0015076734 -0.13490568 0.019678187 2.8541115e-39
0.003310265 -0.13490568 0.019678187 2.8569995e-39
0.0051261205 -0.13407536 0.022704076 1.8446539e-39
0.0069234092 -0.13407536 0.022704076 8.3267117e-40
0.0087233316 -0.13324992 0.025712322 1.6624206e-39
0.010515345 -0.13324992 0.025712322 1.1709194e-38
0.012299491 -0.13242932 0.028702926 2.3417305e-38
0.01408626 -0.13242932 0.028702926 2.3509869e-38
0.01587303 -0.13242932 0.028702926 2.350987e-38
0.017659798 -0.13242932 0.028702926 2.3509876e-38
0.019446567 -0.13242932 0.028702926 2.3509161e-38
0.021233335 -0.13242932 0.028702926 2.3509527e-38
0.023020104 -0.13242932 0.028702926 2.3509527e-38
0.024762563 -0.13161351 0.031676006 2.3509527e-38
0.02654412 -0.13161351 0.031676006 2.3509527e-38
0.028325677 -0.13161351 0.031676006 2.3509527e-38
0.030045584 -0.13077454 0.034733485 2.3509886e-38
0.03182178 -0.13077454 0.034733485 2.3509886e-38
0.033456907 -0.12913923 0.040693115 2.3509886e-38
0.035222657 -0.12913923 0.040693115 2.3509883e-38
0.0369884 -0.12913923 0.040693115 2.341805e-38
0.038754147 -0.12913923 0.040693115 2.3234379e-38
0.040519893 -0.12913923 0.040693115 2.3142544e-38
0.04218822 -0.12831511 0.043696593 2.3142544e-38
0.043948695 -0.12831511 0.043696593 2.3142544e-38
0.045709178 -0.12831511 0.043696593 2.3234379e-38
0.047469653 -0.12831511 0.043696593 2.3234379e-38
0.049230136 -0.12831511 0.043696593 2.3234379e-38
0.050990619 -0.12831511 0.043696593 2.3234379e-38
0.052751094 -0.12831511 0.043696593 2.341805e-38
0.054378085 -0.12749584 0.046682309 2.341805e-38
0.05613333 -0.12749584 0.046682309 2.341805e-38
0.057888575 -0.12749584 0.046682309 2.341805e-38
0.05964382 -0.12749584 0.046682309 2.3509886e-38
0.061399065 -0.12749584 0.046682309 2.3509886e-38
0.062990315 -0.12665437 0.049748909 2.3509886e-38
0.064577267 -0.12584494 0.052698683 2.3509886e-38
0.066321962 -0.12584494 0.052698683 2.341805e-38
0.068066664 -0.12584494 0.052698683 2.341805e-38
0.069811359 -0.12584494 0.052698683 2.341805e-38
0.071556054 -0.12584494 0.052698683 2.341805e-38
0.073300749 -0.12584494 0.052698683 2.341805e-38
0.075045452 -0.12584494 0.052698683 2.341805e-38
0.076790147 -0.12584494 0.052698683 2.341805e-38
0.078534842 -0.12584494 0.052698683 2.341805e-38
0.080279537 -0.12584494 0.052698683 2.3141819e-38
0.082024232 -0.12584494 0.052698683 2.2680838e-38
0.083768927 -0.12584494 0.052698683 2.2589e-38
0.085738607 -0.12665437 0.049748909 2.1574848e-38
0.08772774 -0.12749584 0.046682309 2.0008598e-38
0.089482985 -0.12749584 0.046682309 7.0090119e-39
0.091726527 -0.12913923 0.040693115 2.7873508e-40
0.093492277 -0.12913923 0.040693115 2.6750928e-39
0.095506363 -0.12994061 0.037772607 2.6743641e-39
0.098323949 -0.13324992 0.025712322 1.0137778e-39
0.10152968 -0.13763104 0.009745907 2.7586522e-40
0.10334968 -0.13763104 0.009745907 1.1063335e-39
0.10572281 -0.13927986 0.0037370436 3.3186755e-39
0.10849365 -0.14203046 -0.0062871464 1.3276524e-38
0.11034176 -0.14203046 -0.0062871464 1.6134588e-38
0.11218988 -0.14203046 -0.0062871464 1.6596284e-38
0.114038 -0.14203046 -0.0062871464 1.4844561e-38
0.11588613 -0.14203046 -0.0062871464 1.3646374e-38
0.11773425 -0.14203046 -0.0062871464 1.3369423e-38
-0.10985584 -0.14913605 -0.025325585 2.3509886e-38
-0.10797433 -0.14913605 -0.025325585 2.3509886e-38
-0.10576185 -0.14828841 -0.022256065 2.3509886e-38
-0.10388573 -0.14828841 -0.022256065 2.3509886e-38
-0.10200962 -0.14828841 -0.022256065 2.3509886e-38
-0.099832006 -0.14747669 -0.019316722 2.3509886e-38
-0.097961046 -0.14747669 -0.019316722 2.3509886e-38
-0.096090086 -0.14747669 -0.019316722 2.3509886e-38
-0.094219126 -0.14747669 -0.019316722 2.3509886e-38
-0.092348166 -0.14747669 -0.019316722 2.3509886e-38
-0.090477191 -0.14747669 -0.019316722 2.3509886e-38
-0.088606231 -0.14747669 -0.019316722 2.3509886e-38
-0.086370163 -0.14636014 -0.015273381 2.3509886e-38
-0.084506296 -0.14636014 -0.015273381 2.3509886e-38
-0.082642414 -0.14636014 -0.015273381 2.3509886e-38
-0.080778547 -0.14636014 -0.015273381 2.341805e-38
-0.078663789 -0.14552824 -0.012260962 2.3234379e-38
-0.076805197 -0.14552824 -0.012260962 2.3142544e-38
-0.074946605 -0.14552824 -0.012260962 2.3418047e-38
-0.073088013 -0.14552824 -0.012260962 2.3418045e-38
-0.071229421 -0.14552824 -0.012260962 2.3509879e-38
-0.069147624 -0.14470108 -0.0092655905 2.3509879e-38
-0.067077555 -0.14387859 -0.0062871464 2.3509879e-38
-0.065229438 -0.14387859 -0.0062871464 2.3509879e-38
-0.063100524 -0.14275892 -0.0022326 2.3325131e-38
-0.061259516 -0.14275892 -0.0022326 2.3509886e-38
-0.059418507 -0.14275892 -0.0022326 2.2680492e-38
-0.057577498 -0.14275892 -0.0022326 2.1851817e-38
-0.05573649 -0.14275892 -0.0022326 9.1302638e-39
-0.053717695 -0.14194728 0.00070650503 3.3233839e-39
-0.051881835 -0.14194728 0.00070650503 3.9852928e-42
-0.050045975 -0.14194728 0.00070650503 1.1000193e-42
-0.048210122 -0.14194728 0.00070650503 5.5101858e-40
-0.046374269 -0.14194728 0.00070650503 3.4980361e-39
-0.044538409 -0.14194728 0.00070650503 5.1600714e-39
-0.042551123 -0.14111041 0.0037370436 5.7146871e-39
-0.040575288 -0.14027832 0.0067501776 6.4526235e-39
-0.03875003 -0.14027832 0.0067501776 3.1335948e-39
-0.036924772 -0.14027832 0.0067501776 1.4737274e-39
-0.035099514 -0.14027832 0.0067501776 3.7775433e-39
-0.033274256 -0.14027832 0.0067501776 8.0163773e-39
-0.031330816 -0.13945107 0.009745907 8.1085589e-39
-0.029510805 -0.13945107 0.009745907 9.4907577e-39
-0.0276908 -0.13945107 0.009745907 8.0152591e-39
-0.025870794 -0.13945107 0.009745907 5.986958e-39
-0.024050785 -0.13945107 0.009745907 1.8381659e-39
-0.022110125 -0.13836516 0.013678145 2.3913607e-39
-0.020297011 -0.13836516 0.013678145 8.2007573e-39
-0.018590765 -0.13945107 0.009745907 8.4787497e-39
-0.01677076 -0.13945107 0.009745907 8.9407957e-39
-0.014857678 -0.13836516 0.013678145 9.5876084e-39
-0.013044564 -0.13836516 0.013678145 7.1912479e-39
-0.011169722 -0.13751976 0.016739558 3.0420928e-39
-0.0093619805 -0.13751976 0.016739558 1.1049056e-39
-0.0075052883 -0.13670824 0.019678187 3.6842253e-39
-0.0057026949 -0.13670824 0.019678187 1.2256258e-38
-0.0039001014 -0.13670824 0.019678187 1.4375314e-38
-0.0020975117 -0.13670824 0.019678187 1.3913976e-38
-0.00029491819 -0.13670824 0.019678187 1.1425057e-38
0.0015315469 -0.13587265 0.022704076 3.1292564e-39
0.0033288356 -0.13587265 0.022704076 1.7495702e-39
0.0051128585 -0.13670824 0.019678187 9.2305772e-40
0.0069234092 -0.13587265 0.022704076 4.3482291e-42
0.0087206941 -0.13587265 0.022704076 1.4794685e-39
0.010515345 -0.13504194 0.025712322 1.1617717e-38
0.012307357 -0.13504194 0.025712322 2.3417305e-38
0.01408626 -0.13421609 0.028702926 2.3509866e-38
0.01587303 -0.13421609 0.028702926 2.3509869e-38
0.017659798 -0.13421609 0.028702926 2.3509876e-38
0.019446567 -0.13421609 0.028702926 2.3509521e-38
0.021233335 -0.13421609 0.028702926 2.3509527e-38
0.023020104 -0.13421609 0.028702926 2.3509527e-38
0.024762563 -0.13339506 0.031676006 2.3509527e-38
0.02654412 -0.13339506 0.031676006 2.3509527e-38
0.028325677 -0.13339506 0.031676006 2.3509527e-38
0.030045584 -0.13255073 0.034733485 2.3509886e-38
0.031755172 -0.1317115 0.037772607 2.3509886e-38
0.033456907 -0.13090499 0.040693115 2.3509886e-38
0.035222657 -0.13090499 0.040693115 2.3509883e-38
0.0369884 -0.13090499 0.040693115 2.341805e-38
0.038754147 -0.13090499 0.040693115 2.3234379e-38
0.040519893 -0.13090499 0.040693115 2.3234379e-38
0.04218822 -0.13007559 0.043696593 2.3234379e-38
0.043948695 -0.13007559 0.043696593 2.341805e-38
0.045709178 -0.13007559 0.043696593 2.341805e-38
0.047469653 -0.13007559 0.043696593 2.341805e-38
0.049230136 -0.13007559 0.043696593 2.341805e-38
0.050990619 -0.13007559 0.043696593 2.3509886e-38
0.052751094 -0.13007559 0.043696593 2.3509886e-38
0.054378085 -0.12925108 0.046682309 2.3509886e-38
0.05613333 -0.12925108 0.046682309 2.3509527e-38
0.057888575 -0.12925108 0.046682309 2.3509883e-38
0.05964382 -0.12925108 0.046682309 2.3509883e-38
0.061399065 -0.12925108 0.046682309 2.3509883e-38
0.062832572 -0.12758966 0.052698683 2.3509524e-38
0.064577267 -0.12758966 0.052698683 2.350988e-38
0.066321962 -0.12758966 0.052698683 2.3509883e-38
0.068066664 -0.12758966 0.052698683 2.3418047e-38
0.069811359 -0.12758966 0.052698683 2.341805e-38
0.071367465 -0.12675296 0.055728566 2.341805e-38
0.073106848 -0.12675296 0.055728566 2.341805e-38
0.07484623 -0.12675296 0.055728566 2.341805e-38
0.076585621 -0.12675296 0.055728566 2.3509886e-38
0.078325003 -0.12675296 0.055728566 2.341805e-38
0.080064386 -0.12675296 0.055728566 2.3509886e-38
0.082024232 -0.12758966 0.052698683 2.185108e-38
0.083768927 -0.12758966 0.052698683 2.2128022e-38
0.085738607 -0.12840421 0.049748909 2.231241e-38
0.087488472 -0.12840421 0.049748909 1.9915321e-38
0.089482985 -0.12925108 0.046682309 5.8108232e-39
0.091726527 -0.13090499 0.040693115 1.4349296e-42
0.093492277 -0.13090499 0.040693115 1.793662e-42
0.096024804 -0.13339506 0.031676006 5.5388284e-40
0.098323949 -0.13504194 0.025712322 1.7524078e-39
0.10179494 -0.14027832 0.0067501776 7.6525722e-39
0.10362019 -0.14027832 0.0067501776 1.4291025e-38
0.10627232 -0.14275892 -0.0022326 1.4567258e-38
0.10849365 -0.14387859 -0.0062871464 1.6411174e-38
0.11034176 -0.14387859 -0.0062871464 1.5121154e-38
0.11218988 -0.14387859 -0.0062871464 1.4844564e-38
0.11433306 -0.14470108 -0.0092655905 1.5028953e-38
0.1161864 -0.14470108 -0.0092655905 1.2815893e-38
0.11803973 -0.14470108 -0.0092655905 1.281553e-38
0.12051984 -0.14636014 -0.015273381 8.2972213e-39
-0.097961046 -0.14934768 -0.019316722 2.3509886e-38
-0.096090086 -0.14934768 -0.019316722 2.3509886e-38
-0.094219126 -0.14934768 -0.019316722 2.3509886e-38
-0.092348166 -0.14934768 -0.019316722 2.3509886e-38
-0.090477191 -0.14934768 -0.019316722 2.3509886e-38
-0.088606231 -0.14934768 -0.019316722 2.3509886e-38
-0.086370163 -0.14822401 -0.015273381 2.3509886e-38
-0.084506296 -0.14822401 -0.015273381 2.3509886e-38
-0.082642414 -0.14822401 -0.015273381 2.3509886e-38
-0.080778547 -0.14822401 -0.015273381 2.341805e-38
-0.07891468 -0.14822401 -0.015273381 2.3234379e-38
-0.076805197 -0.14738683 -0.012260962 2.3142544e-38
-0.074946605 -0.14738683 -0.012260962 2.3418047e-38
-0.073088013 -0.14738683 -0.012260962 2.3418045e-38
-0.071229421 -0.14738683 -0.012260962 2.3509879e-38
-0.069147624 -0.14655443 -0.0092655905 2.3509879e-38
-0.067077555 -0.1457267 -0.0062871464 2.3509879e-38
-0.065229438 -0.1457267 -0.0062871464 2.3509879e-38
-0.063100524 -0.14459993 -0.0022326 2.3509883e-38
-0.061259516 -0.14459993 -0.0022326 2.2680125e-38
-0.059418507 -0.14459993 -0.0022326 2.341805e-38
-0.057577498 -0.14459993 -0.0022326 2.3142544e-38
-0.055553548 -0.14378314 0.00070650503 2.0746916e-38
-0.053717695 -0.14378314 0.00070650503 1.3003925e-38
-0.051881835 -0.14378314 0.00070650503 1.0422812e-38
-0.050045975 -0.14378314 0.00070650503 6.7331887e-39
-0.048210122 -0.14378314 0.00070650503 1.8435777e-39
-0.046212204 -0.14294095 0.0037370436 7.3614833e-40
-0.044381656 -0.14294095 0.0037370436 1.0138114e-39
-0.042400554 -0.1421036 0.0067501776 7.4128689e-43
-0.040575288 -0.1421036 0.0067501776 9.4027127e-41
-0.03875003 -0.1421036 0.0067501776 1.6606452e-39
-0.03679084 -0.14127107 0.009745907 5.0446745e-44
-0.034970827 -0.14127107 0.009745907 1.3808353e-39
-0.033150822 -0.14127107 0.009745907 3.868667e-39
-0.031330816 -0.14127107 0.009745907 3.2218416e-39
-0.029510805 -0.14127107 0.009745907 4.3274507e-39
-0.0276908 -0.14127107 0.009745907 5.5256239e-39
-0.025870794 -0.14127107 0.009745907 6.9074822e-39
-0.024050785 -0.14127107 0.009745907 4.0490687e-39
-0.022110125 -0.14017828 0.013678145 4.6944578e-39
-0.020297011 -0.14017828 0.013678145 7.1837398e-39
-0.018590765 -0.14127107 0.009745907 7.1830013e-39
-0.01677076 -0.14127107 0.009745907 7.3677443e-39
-0.01495075 -0.14127107 0.009745907 7.5535789e-39
-0.013044564 -0.14017828 0.013678145 6.7252601e-39
-0.011169722 -0.13932751 0.016739558 5.71219e-39
-0.0093619805 -0.13932751 0.016739558 3.4072965e-39
-0.0075052883 -0.13851084 0.019678187 6.0802438e-39
-0.0057026949 -0.13851084 0.019678187 1.1979321e-38
-0.0039001014 -0.13851084 0.019678187 1.243849e-38
-0.0020975117 -0.13851084 0.019678187 1.3451919e-38
-0.00029491819 -0.13851084 0.019678187 1.1700202e-38
0.0015315469 -0.13766994 0.022704076 4.234162e-39
0.0033288356 -0.13766994 0.022704076 1.2871501e-39
0.0051128585 -0.13851084 0.019678187 5.5283326e-40
0.0069234092 -0.13766994 0.022704076 1.8272932e-42
0.0087206941 -0.13766994 0.022704076 2.4921813e-39
0.010515345 -0.13683395 0.025712322 1.180139e-38
0.012307357 -0.13683395 0.025712322 2.35095e-38
0.014099369 -0.13683395 0.025712322 2.3509866e-38
0.01587303 -0.13600285 0.028702926 2.3509149e-38
0.017659798 -0.13600285 0.028702926 2.3509876e-38
0.019446567 -0.13600285 0.028702926 2.3509521e-38
0.021233335 -0.13600285 0.028702926 2.3509527e-38
0.023020104 -0.13600285 0.028702926 2.3509527e-38
0.024762563 -0.13517661 0.031676006 2.3509527e-38
0.02654412 -0.13517661 0.031676006 2.3509168e-38
0.028325677 -0.13517661 0.031676006 2.3509527e-38
0.030045584 -0.13432692 0.034733485 2.3509527e-38
0.031755172 -0.13348235 0.037772607 2.3509886e-38
0.033456907 -0.13267075 0.040693115 2.3509886e-38
0.035222657 -0.13267075 0.040693115 2.3509883e-38
0.0369884 -0.13267075 0.040693115 2.3509883e-38
0.038754147 -0.13267075 0.040693115 2.341805e-38
0.040519893 -0.13267075 0.040693115 2.341805e-38
0.04218822 -0.13183604 0.043696593 2.341805e-38
0.043948695 -0.13183604 0.043696593 2.3509886e-38
0.045709178 -0.13183604 0.043696593 2.3509886e-38
0.047469653 -0.13183604 0.043696593 2.3509886e-38
0.049230136 -0.13183604 0.043696593 2.3509886e-38
0.050990619 -0.13183604 0.043696593 2.3509883e-38
0.052751094 -0.13183604 0.043696593 2.3509883e-38
0.054511577 -0.13183604 0.043696593 2.350988e-38
0.056272052 -0.13183604 0.043696593 2.3509521e-38
0.057888575 -0.13100632 0.046682309 2.3509521e-38
0.05964382 -0.13100632 0.046682309 2.3509521e-38
0.061399065 -0.13100632 0.046682309 2.3509879e-38
0.062832572 -0.12933435 0.052698683 2.350952e-38
0.064577267 -0.12933435 0.052698683 2.3509879e-38
0.066321962 -0.12933435 0.052698683 2.350988e-38
0.068066664 -0.12933435 0.052698683 2.350988e-38
0.069811359 -0.12933435 0.052698683 2.3509883e-38
0.071367465 -0.12849234 0.055728566 2.3509886e-38
0.073106848 -0.12849234 0.055728566 2.3509886e-38
0.07484623 -0.12849234 0.055728566 2.3509886e-38
0.076585621 -0.12849234 0.055728566 2.3509527e-38
0.078325003 -0.12849234 0.055728566 2.3509886e-38
0.080064386 -0.12849234 0.055728566 2.3509527e-38
0.081803769 -0.12849234 0.055728566 2.0744014e-38
0.083543152 -0.12849234 0.055728566 2.1574129e-38
0.085738607 -0.13015409 0.049748909 2.120606e-38
0.087488472 -0.13015409 0.049748909 1.9178111e-38
0.089482985 -0.13100632 0.046682309 8.9447487e-39
0.092212416 -0.13432692 0.034733485 4.6115513e-39
0.094243251 -0.13517661 0.031676006 4.334963e-39
0.096531935 -0.13683395 0.025712322 6.2703454e-39
0.098323949 -0.13683395 0.025712322 6.9153589e-39
0.10011596 -0.13683395 0.025712322 1.1801731e-38
0.10245284 -0.13851084 0.019678187 1.6503718e-38
0.1069197 -0.14655443 -0.0092655905 1.613494e-38
0.10849365 -0.1457267 -0.0062871464 1.576652e-38
0.11034176 -0.1457267 -0.0062871464 1.5674325e-38
0.11218988 -0.1457267 -0.0062871464 1.61353e-38
0.11433306 -0.14655443 -0.0092655905 1.5121504e-38
0.1161864 -0.14655443 -0.0092655905 1.1248923e-38
0.11803973 -0.14655443 -0.0092655905 1.1156006e-38
0.12051984 -0.14822401 -0.015273381 8.2972213e-39
0.12238371 -0.14822401 -0.015273381 6.7291768e-39
-0.078663789 -0.14924543 -0.012260962 2.3234379e-38
-0.076805197 -0.14924543 -0.012260962 2.3142544e-38
-0.074946605 -0.14924543 -0.012260962 2.3234376e-38
-0.073088013 -0.14924543 -0.012260962 2.3418047e-38
-0.071229421 -0.14924543 -0.012260962 2.350988e-38
-0.069147624 -0.14840777 -0.0092655905 2.350988e-38
-0.067077555 -0.14757483 -0.0062871464 2.350988e-38
-0.065229438 -0.14757483 -0.0062871464 2.350988e-38
-0.063100524 -0.14644094 -0.0022326 2.3509883e-38
-0.061259516 -0.14644094 -0.0022326 2.341805e-38
-0.059418507 -0.14644094 -0.0022326 2.2773765e-38
-0.057577498 -0.14644094 -0.0022326 2.3142544e-38
-0.055553548 -0.14561899 0.00070650503 2.2958873e-38
-0.053717695 -0.14561899 0.00070650503 2.2683366e-38
-0.051881835 -0.14561899 0.00070650503 2.2591531e-38
-0.050045975 -0.14561899 0.00070650503 2.1577035e-38
-0.048210122 -0.14561899 0.00070650503 2.2773408e-38
-0.046212204 -0.1447715 0.0037370436 2.0836601e-38
-0.044381656 -0.1447715 0.0037370436 2.0284143e-38
-0.042400554 -0.14392884 0.0067501776 1.3924086e-38
-0.040430851 -0.14309107 0.009745907 6.6409958e-39
-0.038610838 -0.14309107 0.009745907 5.3491878e-39
-0.03679084 -0.14309107 0.009745907 1.8552071e-40
-0.034970827 -0.14309107 0.009745907 1.0142024e-39
-0.033150822 -0.14309107 0.009745907 3.7835059e-44
-0.031330816 -0.14309107 0.009745907 1.28789e-39
-0.029510805 -0.14309107 0.009745907 7.3469658e-40
-0.0276908 -0.14309107 0.009745907 1.471177e-39
-0.025870794 -0.14309107 0.009745907 3.5909604e-39
-0.024050785 -0.14309107 0.009745907 8.2653348e-40
-0.022110125 -0.14199139 0.013678145 1.9303825e-39
-0.020297011 -0.14199139 0.013678145 1.4694058e-39
-0.018590765 -0.14309107 0.009745907 3.1267607e-39
-0.01677076 -0.14309107 0.009745907 3.0345623e-39
-0.01495075 -0.14309107 0.009745907 2.7594173e-39
-0.013044564 -0.14199139 0.013678145 2.8526948e-39
-0.011169722 -0.14113526 0.016739558 3.4991432e-39
-0.0093619805 -0.14113526 0.016739558 5.5102979e-40
-0.0075542349 -0.14113526 0.016739558 2.0240019e-39
-0.0057464894 -0.14113526 0.016739558 5.0660905e-39
-0.0039001014 -0.14031343 0.019678187 5.8014849e-39
-0.0020975117 -0.14031343 0.019678187 7.8294245e-39
-0.000265738 -0.13946722 0.022704076 7.5535564e-39
0.0015315469 -0.13946722 0.022704076 3.2210849e-39
0.0033288356 -0.13946722 0.022704076 1.6562843e-39
0.0051261205 -0.13946722 0.022704076 1.5662551e-39
0.0069234092 -0.13946722 0.022704076 1.5414283e-44
0.0087206941 -0.13946722 0.022704076 8.3156975e-40
0.010515345 -0.13862596 0.025712322 1.1985781e-38
0.012307357 -0.13862596 0.025712322 2.3325835e-38
0.014099369 -0.13862596 0.025712322 2.350987e-38
0.01587303 -0.13778962 0.028702926 2.3141089e-38
0.017659798 -0.13778962 0.028702926 2.3509879e-38
0.019446567 -0.13778962 0.028702926 2.350988e-38
0.021233335 -0.13778962 0.028702926 2.3509527e-38
0.023020104 -0.13778962 0.028702926 2.3509168e-38
0.024762563 -0.13695817 0.031676006 2.3509527e-38
0.02654412 -0.13695817 0.031676006 2.3509527e-38
0.028269388 -0.13610314 0.034733485 2.3509527e-38
0.030045584 -0.13610314 0.034733485 2.3509527e-38
0.031755172 -0.13525321 0.037772607 2.3509886e-38
0.033456907 -0.13443647 0.040693115 2.3509886e-38
0.035222657 -0.13443647 0.040693115 2.3509883e-38
0.0369884 -0.13443647 0.040693115 2.3509883e-38
0.038754147 -0.13443647 0.040693115 2.3509886e-38
0.040519893 -0.13443647 0.040693115 2.3509886e-38
0.04218822 -0.13359652 0.043696593 2.3509886e-38
0.043948695 -0.13359652 0.043696593 2.3509883e-38
0.045709178 -0.13359652 0.043696593 2.3509883e-38
0.047469653 -0.13359652 0.043696593 2.350988e-38
0.049230136 -0.13359652 0.043696593 2.350988e-38
0.050990619 -0.13359652 0.043696593 2.350988e-38
0.052751094 -0.13359652 0.043696593 2.350988e-38
0.054511577 -0.13359652 0.043696593 2.3509879e-38
0.056272052 -0.13359652 0.043696593 2.350988e-38
0.057888575 -0.13276155 0.046682309 2.3509521e-38
0.05964382 -0.13276155 0.046682309 2.3509521e-38
0.061399065 -0.13276155 0.046682309 2.3509521e-38
0.062990315 -0.13190396 0.049748909 2.3509521e-38
0.064577267 -0.13107903 0.052698683 2.3509521e-38
0.066321962 -0.13107903 0.052698683 2.350988e-38
0.068066664 -0.13107903 0.052698683 2.3418047e-38
0.069811359 -0.13107903 0.052698683 2.341805e-38
0.071367465 -0.13023172 0.055728566 2.341805e-38
0.073106848 -0.13023172 0.055728566 2.3509527e-38
0.07484623 -0.13023172 0.055728566 2.3509527e-38
0.076585621 -0.13023172 0.055728566 2.3509527e-38
0.078325003 -0.13023172 0.055728566 2.3509527e-38
0.080064386 -0.13023172 0.055728566 2.3325497e-38
0.081803769 -0.13023172 0.055728566 2.1481579e-38
0.083543152 -0.13023172 0.055728566 2.240389e-38
0.085513622 -0.13107903 0.052698683 2.0929113e-38
0.087488472 -0.13190396 0.049748909 2.0837632e-38
0.089482985 -0.13276155 0.046682309 1.7703334e-38
0.09246169 -0.13695817 0.031676006 1.8440896e-38
0.094490848 -0.13778962 0.028702926 1.7979918e-38
0.096531935 -0.13862596 0.025712322 1.8347981e-38
0.098323949 -0.13862596 0.025712322 1.7979202e-38
0.10011596 -0.13862596 0.025712322 1.8624574e-38
0.10245284 -0.14031343 0.019678187 1.7517872e-38
0.10664553 -0.14757483 -0.0062871464 1.6595918e-38
0.10849365 -0.14757483 -0.0062871464 1.7240932e-38
0.11034176 -0.14757483 -0.0062871464 1.6780309e-38
0.11218988 -0.14757483 -0.0062871464 1.4382501e-38
0.11433306 -0.14840777 -0.0092655905 1.4936033e-38
0.1161864 -0.14840777 -0.0092655905 9.7730745e-39
0.11803973 -0.14840777 -0.0092655905 9.5879601e-39
-0.065229438 -0.14942293 -0.0062871464 2.3234376e-38
-0.063100524 -0.14828195 -0.0022326 2.3234379e-38
-0.061259516 -0.14828195 -0.0022326 2.3234379e-38
-0.059418507 -0.14828195 -0.0022326 2.3142544e-38
-0.057577498 -0.14828195 -0.0022326 2.3142544e-38
-0.055553548 -0.14745484 0.00070650503 2.3142544e-38
-0.053717695 -0.14745484 0.00070650503 2.2958873e-38
-0.051881835 -0.14745484 0.00070650503 2.2867037e-38
-0.050045975 -0.14745484 0.00070650503 2.2958873e-38
-0.048042744 -0.14660202 0.0037370436 2.3142544e-38
-0.046212204 -0.14660202 0.0037370436 2.2035846e-38
-0.044225812 -0.14575411 0.0067501776 2.3234379e-38
-0.042400554 -0.14575411 0.0067501776 2.2958514e-38
-0.040430851 -0.14491107 0.009745907 1.7611897e-38
-0.038610838 -0.14491107 0.009745907 1.4292858e-38
-0.03679084 -0.14491107 0.009745907 1.1802498e-38
-0.034970827 -0.14491107 0.009745907 7.1927165e-39
-0.033150822 -0.14491107 0.009745907 1.4758672e-39
-0.031330816 -0.14491107 0.009745907 1.4762203e-39
-0.029510805 -0.14491107 0.009745907 7.3900698e-40
-0.0276908 -0.14491107 0.009745907 3.5873241e-43
-0.025870794 -0.14491107 0.009745907 2.8025969e-45
-0.024050785 -0.14491107 0.009745907 1.084605e-42
-0.022110125 -0.14380451 0.013678145 1.8547867e-40
-0.020297011 -0.14380451 0.013678145 1.4012985e-44
-0.018590765 -0.14491107 0.009745907 1.4726316e-39
-0.01677076 -0.14491107 0.009745907 9.1946059e-40
-0.014857678 -0.14380451 0.013678145 7.3506933e-40
-0.013044564 -0.14380451 0.013678145 1.0127352e-39
-0.011169722 -0.14294298 0.016739558 9.2053678e-40
-0.0093619805 -0.14294298 0.016739558 3.6771753e-40
-0.0075052883 -0.14211603 0.019678187 3.6771193e-40
-0.0057026949 -0.14211603 0.019678187 1.1967481e-39
-0.0039001014 -0.14211603 0.019678187 7.3540424e-40
-0.0020975117 -0.14211603 0.019678187 3.9626058e-39
-0.000265738 -0.14126451 0.022704076 4.0540784e-39
0.0015315469 -0.14126451 0.022704076 1.4736769e-39
0.0033288356 -0.14126451 0.022704076 3.6770072e-40
0.0051261205 -0.14126451 0.022704076 9.2194229e-41
0.0069234092 -0.14126451 0.022704076 3.5873241e-43
0.0087233316 -0.14041798 0.025712322 2.2130468e-39
0.010512723 -0.13957639 0.028702926 1.4198479e-38
0.012299491 -0.13957639 0.028702926 2.2035109e-38
0.01408626 -0.13957639 0.028702926 2.350988e-38
0.01587303 -0.13957639 0.028702926 2.3049261e-38
0.017659798 -0.13957639 0.028702926 2.3509883e-38
0.019446567 -0.13957639 0.028702926 2.3509883e-38
0.021199452 -0.13873972 0.031676006 2.2772321e-38
0.022981009 -0.13873972 0.031676006 2.3509886e-38
0.024762563 -0.13873972 0.031676006 2.3509886e-38
0.02654412 -0.13873972 0.031676006 2.3509886e-38
0.028269388 -0.13787933 0.034733485 2.3509886e-38
0.030045584 -0.13787933 0.034733485 2.3509886e-38
0.031755172 -0.13702409 0.037772607 2.3509886e-38
0.033456907 -0.13620223 0.040693115 2.3509886e-38
0.035222657 -0.13620223 0.040693115 2.3509886e-38
0.0369884 -0.13620223 0.040693115 2.3509886e-38
0.038754147 -0.13620223 0.040693115 2.3509527e-38
0.040519893 -0.13620223 0.040693115 2.3509527e-38
0.04218822 -0.13535701 0.043696593 2.3509527e-38
0.043948695 -0.13535701 0.043696593 2.3509883e-38
0.045709178 -0.13535701 0.043696593 2.350988e-38
0.047469653 -0.13535701 0.043696593 2.3418043e-38
0.049230136 -0.13535701 0.043696593 2.341804e-38
0.050990619 -0.13535701 0.043696593 2.341804e-38
0.052751094 -0.13535701 0.043696593 2.3234369e-38
0.054511577 -0.13535701 0.043696593 2.3142535e-38
0.056272052 -0.13535701 0.043696593 2.30507e-38
0.057888575 -0.13451682 0.046682309 2.3418047e-38
0.05964382 -0.13451682 0.046682309 2.341805e-38
0.061399065 -0.13451682 0.046682309 2.341805e-38
0.062990315 -0.13365383 0.049748909 2.3509527e-38
0.064740188 -0.13365383 0.049748909 2.341805e-38
0.066321962 -0.13282375 0.052698683 2.3234379e-38
0.068066664 -0.13282375 0.052698683 2.3142544e-38
0.069811359 -0.13282375 0.052698683 2.3050708e-38
0.071367465 -0.13197111 0.055728566 2.2958514e-38
0.073106848 -0.13197111 0.055728566 2.3141826e-38
0.07484623 -0.13197111 0.055728566 2.323402e-38
0.076585621 -0.13197111 0.055728566 2.3417691e-38
0.078325003 -0.13197111 0.055728566 2.3417691e-38
0.080064386 -0.13197111 0.055728566 2.341805e-38
0.081803769 -0.13197111 0.055728566 2.1113515e-38
0.083543152 -0.13197111 0.055728566 2.0560693e-38
0.085282534 -0.13197111 0.055728566 2.1021669e-38
0.087488472 -0.13365383 0.049748909 2.0007873e-38
0.089482985 -0.13451682 0.046682309 1.9362502e-38
0.09246169 -0.13873972 0.031676006 1.9270306e-38
0.094490848 -0.13957639 0.028702926 1.8624938e-38
0.096531935 -0.14041798 0.025712322 1.816433e-38
0.098585032 -0.14126451 0.022704076 1.8164331e-38
0.10038232 -0.14126451 0.022704076 1.8071414e-38
0.10245284 -0.14211603 0.019678187 1.7148739e-38
0.10516969 -0.14491107 0.009745907 1.6595202e-38
0.10811333 -0.14828195 -0.0022326 1.7423881e-38
0.10995433 -0.14828195 -0.0022326 1.7146931e-38
0.11179534 -0.14828195 -0.0022326 1.5486685e-38
-0.055553548 -0.14929073 0.00070650503 2.341805e-38
-0.053717695 -0.14929073 0.00070650503 2.3234379e-38
-0.051881835 -0.14929073 0.00070650503 2.3234379e-38
-0.049873285 -0.14843257 0.0037370436 2.3234379e-38
-0.048042744 -0.14843257 0.0037370436 2.3234379e-38
-0.04605107 -0.14757936 0.0067501776 2.2681212e-38
-0.044070862 -0.14673109 0.009745907 2.3234379e-38
-0.042250857 -0.14673109 0.009745907 2.3234379e-38
-0.040430851 -0.14673109 0.009745907 2.2865961e-38
-0.038610838 -0.14673109 0.009745907 2.3050708e-38
-0.03679084 -0.14673109 0.009745907 2.3142544e-38
-0.034970827 -0.14673109 0.009745907 2.2220952e-38
-0.033150822 -0.14673109 0.009745907 2.3142544e-38
-0.031330816 -0.14673109 0.009745907 2.2958873e-38
-0.029510805 -0.14673109 0.009745907 2.1116039e-38
-0.0276908 -0.14673109 0.009745907 1.8258335e-38
-0.025870794 -0.14673109 0.009745907 1.5768693e-38
-0.023923239 -0.14561762 0.013678145 1.3279771e-38
-0.022110125 -0.14561762 0.013678145 1.0513902e-38
-0.020297011 -0.14561762 0.013678145 8.3926876e-39
-0.018590765 -0.14673109 0.009745907 8.0217583e-39
-0.016670791 -0.14561762 0.013678145 7.283117e-39
-0.014857678 -0.14561762 0.013678145 6.6377476e-39
-0.013044564 -0.14561762 0.013678145 6.6377448e-39
-0.011169722 -0.14475073 0.016739558 6.6380994e-39
-0.0093619805 -0.14475073 0.016739558 6.4537053e-39
-0.0075052883 -0.14391862 0.019678187 7.0987104e-39
-0.0057026949 -0.14391862 0.019678187 8.0210226e-39
-0.0039001014 -0.14391862 0.019678187 8.3897995e-39
-0.0020975117 -0.14391862 0.019678187 1.0971633e-38
-0.00029491819 -0.14391862 0.019678187 1.115566e-38
0.0015315469 -0.1430618 0.022704076 1.0602483e-38
0.0033288356 -0.1430618 0.022704076 1.2354555e-38
0.0051261205 -0.1430618 0.022704076 1.4567247e-38
0.0069234092 -0.1430618 0.022704076 1.7333116e-38
0.0087233316 -0.14220999 0.025712322 2.0651804e-38
0.010512723 -0.14136316 0.028702926 2.1205348e-38
0.012299491 -0.14136316 0.028702926 2.3509886e-38
0.01408626 -0.14136316 0.028702926 2.3509886e-38
0.01587303 -0.14136316 0.028702926 2.2495734e-38
0.01763634 -0.14052127 0.031676006 2.3509886e-38
0.019417897 -0.14052127 0.031676006 2.3509886e-38
0.021199452 -0.14052127 0.031676006 2.3141103e-38
0.022981009 -0.14052127 0.031676006 2.3509886e-38
0.024762563 -0.14052127 0.031676006 2.3509886e-38
0.02654412 -0.14052127 0.031676006 2.3509886e-38
0.028269388 -0.13965552 0.034733485 2.3509886e-38
0.030045584 -0.13965552 0.034733485 2.3509886e-38
0.031755172 -0.13879494 0.037772607 2.3509886e-38
0.033456907 -0.13796796 0.040693115 2.3509886e-38
0.035222657 -0.13796796 0.040693115 2.3509886e-38
0.036906779 -0.13711749 0.043696593 2.3509886e-38
0.038667254 -0.13711749 0.043696593 2.3509168e-38
0.040427737 -0.13711749 0.043696593 2.3509168e-38
0.04218822 -0.13711749 0.043696593 2.3509527e-38
0.043948695 -0.13711749 0.043696593 2.3509883e-38
0.045709178 -0.13711749 0.043696593 2.350988e-38
0.047469653 -0.13711749 0.043696593 2.3418045e-38
0.049230136 -0.13711749 0.043696593 2.3234372e-38
0.050990619 -0.13711749 0.043696593 2.3234369e-38
0.052751094 -0.13711749 0.043696593 2.3142537e-38
0.054511577 -0.13711749 0.043696593 2.3142538e-38
0.056272052 -0.13711749 0.043696593 2.3050704e-38
0.057888575 -0.13627206 0.046682309 2.3142542e-38
0.05964382 -0.13627206 0.046682309 2.3142544e-38
0.061399065 -0.13627206 0.046682309 2.3325856e-38
0.06315431 -0.13627206 0.046682309 2.3417333e-38
0.064740188 -0.13540371 0.049748909 2.3325856e-38
0.066490054 -0.13540371 0.049748909 2.3142542e-38
0.06823992 -0.13540371 0.049748909 2.3142544e-38
0.069811359 -0.13456844 0.052698683 2.3142544e-38
0.071367465 -0.13371049 0.055728566 2.3142544e-38
0.073106848 -0.13371049 0.055728566 2.3234379e-38
0.07484623 -0.13371049 0.055728566 2.323402e-38
0.076585621 -0.13371049 0.055728566 2.3049991e-38
0.078325003 -0.13371049 0.055728566 2.3141467e-38
0.080064386 -0.13371049 0.055728566 2.341805e-38
0.081803769 -0.13371049 0.055728566 2.1113515e-38
0.083543152 -0.13371049 0.055728566 2.0837283e-38
0.085282534 -0.13371049 0.055728566 2.1298255e-38
0.087488472 -0.13540371 0.049748909 2.0099712e-38
0.089721173 -0.13711749 0.043696593 1.9177756e-38
0.09246169 -0.14052127 0.031676006 1.8808973e-38
0.094490848 -0.14136316 0.028702926 1.7795547e-38
0.096531935 -0.14220999 0.025712322 1.8256174e-38
0.098585032 -0.1430618 0.022704076 1.7703e-38
0.10038232 -0.1430618 0.022704076 1.7610081e-38
0.10245284 -0.14391862 0.019678187 1.7240936e-38
0.10516969 -0.14673109 0.009745907 1.6871789e-38
0.10783762 -0.14929073 0.00070650503 1.7055454e-38
-0.04605107 -0.14940463 0.0067501776 2.2403549e-38
-0.044070862 -0.14855109 0.009745907 2.2680136e-38
-0.042250857 -0.14855109 0.009745907 2.295672e-38
-0.040430851 -0.14855109 0.009745907 2.2587941e-38
-0.038610838 -0.14855109 0.009745907 2.3049991e-38
-0.03679084 -0.14855109 0.009745907 2.3234379e-38
-0.034970827 -0.14855109 0.009745907 2.3234379e-38
-0.033150822 -0.14855109 0.009745907 2.2865602e-38
-0.031330816 -0.14855109 0.009745907 2.3050708e-38
-0.029510805 -0.14855109 0.009745907 2.3142544e-38
-0.0276908 -0.14855109 0.009745907 2.2867037e-38
-0.025870794 -0.14855109 0.009745907 2.2958514e-38
-0.023923239 -0.14743073 0.013678145 2.2129481e-38
-0.022110125 -0.14743073 0.013678145 2.0377764e-38
-0.020297011 -0.14743073 0.013678145 1.8533851e-38
-0.018590765 -0.14855109 0.009745907 1.6319364e-38
-0.016670791 -0.14743073 0.013678145 1.5581078e-38
-0.014857678 -0.14743073 0.013678145 1.4935709e-38
-0.013044564 -0.14743073 0.013678145 1.484351e-38
-0.011169722 -0.14655848 0.016739558 1.4751312e-38
-0.0093619805 -0.14655848 0.016739558 1.4751668e-38
-0.0075542349 -0.14655848 0.016739558 1.5488513e-38
-0.0057026949 -0.14572121 0.019678187 1.6318629e-38
-0.0039001014 -0.14572121 0.019678187 1.6318624e-38
-0.0020975117 -0.14572121 0.019678187 1.7886305e-38
-0.00029491819 -0.14572121 0.019678187 1.7793389e-38
0.0015315469 -0.14485909 0.022704076 1.7517158e-38
0.0033288356 -0.14485909 0.022704076 1.9361068e-38
0.0051261205 -0.14485909 0.022704076 2.1020587e-38
0.0069313198 -0.14400201 0.025712322 2.2311326e-38
0.0087233316 -0.14400201 0.025712322 2.3509873e-38
0.010512723 -0.14314993 0.028702926 2.350988e-38
0.012299491 -0.14314993 0.028702926 2.3509886e-38
0.014073228 -0.14230286 0.031676006 2.3233299e-38
0.015854783 -0.14230286 0.031676006 2.3141103e-38
0.01763634 -0.14230286 0.031676006 2.3509886e-38
0.019417897 -0.14230286 0.031676006 2.3509886e-38
0.021199452 -0.14230286 0.031676006 2.3233299e-38
0.022981009 -0.14230286 0.031676006 2.3325494e-38
0.024762563 -0.14230286 0.031676006 2.3509886e-38
0.02654412 -0.14230286 0.031676006 2.3509886e-38
0.028325677 -0.14230286 0.031676006 2.3509886e-38
0.030045584 -0.1414317 0.034733485 2.3509886e-38
0.031755172 -0.14056583 0.037772607 2.3509886e-38
0.033456907 -0.13973372 0.040693115 2.3509886e-38
0.035146296 -0.13887797 0.043696593 2.3509886e-38
0.036906779 -0.13887797 0.043696593 2.3509886e-38
0.038667254 -0.13887797 0.043696593 2.3509168e-38
0.040427737 -0.13887797 0.043696593 2.3509168e-38
0.04218822 -0.13887797 0.043696593 2.3509527e-38
0.043948695 -0.13887797 0.043696593 2.3509886e-38
0.045709178 -0.13887797 0.043696593 2.3509886e-38
0.047469653 -0.13887797 0.043696593 2.341805e-38
0.049230136 -0.13887797 0.043696593 2.3234376e-38
0.050990619 -0.13887797 0.043696593 2.3234376e-38
0.052751094 -0.13887797 0.043696593 2.3234376e-38
0.054511577 -0.13887797 0.043696593 2.3234376e-38
0.056272052 -0.13887797 0.043696593 2.3234379e-38
0.057888575 -0.1380273 0.046682309 2.3326213e-38
0.05964382 -0.1380273 0.046682309 2.3417691e-38
0.061399065 -0.1380273 0.046682309 2.3509886e-38
0.062990315 -0.13715358 0.049748909 2.3509527e-38
0.064740188 -0.13715358 0.049748909 2.3509883e-38
0.066321962 -0.13631313 0.052698683 2.3233648e-38
0.068066664 -0.13631313 0.052698683 2.3234364e-38
0.069811359 -0.13631313 0.052698683 2.3418043e-38
0.071367465 -0.13544987 0.055728566 2.3418047e-38
0.073106848 -0.13544987 0.055728566 2.341805e-38
0.07484623 -0.13544987 0.055728566 2.3325856e-38
0.076585621 -0.13544987 0.055728566 2.341805e-38
0.078325003 -0.13544987 0.055728566 2.3509886e-38
0.080064386 -0.13544987 0.055728566 2.3141103e-38
0.081803769 -0.13544987 0.055728566 2.0744014e-38
0.083543152 -0.13544987 0.055728566 2.0191914e-38
0.085282534 -0.13544987 0.055728566 2.0560693e-38
0.087258324 -0.13631313 0.052698683 1.9546541e-38
0.089482985 -0.1380273 0.046682309 1.8901172e-38
0.09246169 -0.14230286 0.031676006 1.871786e-38
0.094490848 -0.14314993 0.028702926 1.7887743e-38
0.096787743 -0.14485909 0.022704076 1.8440918e-38
0.098585032 -0.14485909 0.022704076 1.761116e-38
0.10065024 -0.14572121 0.019678187 1.7610079e-38
0.10271818 -0.14655848 0.016739558 1.7425326e-38
-0.029362572 -0.14924385 0.013678145 2.3234379e-38
-0.027549462 -0.14924385 0.013678145 2.3234379e-38
-0.025736349 -0.14924385 0.013678145 2.3234379e-38
-0.023923239 -0.14924385 0.013678145 2.3142544e-38
-0.022110125 -0.14924385 0.013678145 2.2774125e-38
-0.020297011 -0.14924385 0.013678145 2.1852173e-38
-0.014857678 -0.14924385 0.013678145 2.3233303e-38
-0.013044564 -0.14924385 0.013678145 2.3417691e-38
-0.011169722 -0.14836623 0.016739558 2.3325856e-38
-0.0093619805 -0.14836623 0.016739558 2.3141467e-38
-0.0075052883 -0.14752381 0.019678187 2.3325497e-38
-0.0057026949 -0.14752381 0.019678187 2.3509886e-38
-0.0039001014 -0.14752381 0.019678187 2.2772321e-38
-0.0020975117 -0.14752381 0.019678187 2.3509883e-38
-0.00029491819 -0.14752381 0.019678187 2.350952e-38
0.0015076734 -0.14752381 0.019678187 2.3232932e-38
0.0033288356 -0.14665638 0.022704076 2.3509876e-38
0.0051261205 -0.14665638 0.022704076 2.3509876e-38
0.0069313198 -0.14579402 0.025712322 2.3509872e-38
0.0087233316 -0.14579402 0.025712322 2.3509876e-38
0.010512723 -0.1449367 0.028702926 2.3048905e-38
0.012291672 -0.14408441 0.031676006 2.2864516e-38
0.014073228 -0.14408441 0.031676006 2.341769e-38
0.015854783 -0.14408441 0.031676006 2.3509886e-38
0.01763634 -0.14408441 0.031676006 2.3509886e-38
0.019417897 -0.14408441 0.031676006 2.3509886e-38
0.021199452 -0.14408441 0.031676006 2.341769e-38
0.022981009 -0.14408441 0.031676006 2.3325494e-38
0.024762563 -0.14408441 0.031676006 2.3509886e-38
0.02654412 -0.14408441 0.031676006 2.3509886e-38
0.028269388 -0.14320792 0.034733485 2.3509886e-38
0.030045584 -0.14320792 0.034733485 2.3509886e-38
0.031755172 -0.14233668 0.037772607 2.3509886e-38
0.033456907 -0.14149947 0.040693115 2.3509886e-38
0.035146296 -0.14063846 0.043696593 2.3509886e-38
0.036906779 -0.14063846 0.043696593 2.3509886e-38
0.038667254 -0.14063846 0.043696593 2.3509527e-38
0.040427737 -0.14063846 0.043696593 2.3509527e-38
0.04218822 -0.14063846 0.043696593 2.3509527e-38
0.043948695 -0.14063846 0.043696593 2.3509527e-38
0.045709178 -0.14063846 0.043696593 2.3509527e-38
0.047469653 -0.14063846 0.043696593 2.341805e-38
0.049230136 -0.14063846 0.043696593 2.341805e-38
0.050990619 -0.14063846 0.043696593 2.341805e-38
0.052751094 -0.14063846 0.043696593 2.3325856e-38
0.054511577 -0.14063846 0.043696593 2.341805e-38
0.056272052 -0.14063846 0.043696593 2.3509886e-38
0.057888575 -0.13978253 0.046682309 2.3509883e-38
0.05964382 -0.13978253 0.046682309 2.3509883e-38
0.061399065 -0.13978253 0.046682309 2.3509521e-38
0.062990315 -0.13890342 0.049748909 2.3509521e-38
0.064740188 -0.13890342 0.049748909 2.3509873e-38
0.066321962 -0.13805781 0.052698683 2.3509863e-38
0.068066664 -0.13805781 0.052698683 2.3509859e-38
