# .PCD v0.7 - Point Cloud Data file format
VERSION 0.7
FIELDS x y z rgb
SIZE 4 4 4 4
TYPE F F F F
COUNT 1 1 1 1
WIDTH 944
HEIGHT 1
VIEWPOINT 0 0 0 1 0 0 0
POINTS 944
DATA ascii
-0.073456958 -0.1127138 -0.039447423 2.2132353e-38
-0.071295932 -0.11176009 -0.03543305 2.2499695e-38
-0.069034338 -0.11034258 -0.029466506 2.240786e-38
-0.066909052 -0.10940616 -0.02552497 2.1673176e-38
-0.065015286 -0.10940616 -0.02552497 2.0478956e-38
-0.062961355 -0.10869466 -0.022530075 1.9374418e-38
-0.061072826 -0.10869466 -0.022530075 1.8267729e-38
-0.05898416 -0.10774307 -0.018524762 1.6608576e-38
-0.057102665 -0.10774307 -0.018524762 1.5778468e-38
-0.05522117 -0.10774307 -0.018524762 1.6424203e-38
-0.053202428 -0.10701384 -0.015455242 1.6792621e-38
-0.051200047 -0.10631551 -0.012515899 1.5686649e-38
-0.049162485 -0.10535492 -0.0084725581 1.485726e-38
-0.04729861 -0.10535492 -0.0084725581 1.4489201e-38
-0.045321174 -0.10463922 -0.0054601394 1.4120065e-38
-0.043462582 -0.10463922 -0.0054601394 1.38442e-38
-0.04160399 -0.10463922 -0.0054601394 1.3936394e-38
-0.039648242 -0.1039276 -0.0024647675 1.3845276e-38
-0.037794903 -0.1039276 -0.0024647675 1.4029664e-38
-0.035855398 -0.10322 0.00051367655 1.4029664e-38
-0.034007281 -0.10322 0.00051367655 1.4122217e-38
-0.032159157 -0.10322 0.00051367655 1.3753435e-38
-0.030311039 -0.10322 0.00051367655 1.4029299e-38
-0.028374059 -0.10225673 0.0045682229 1.4766858e-38
-0.02653305 -0.10225673 0.0045682229 1.5319666e-38
-0.024692042 -0.10225673 0.0045682229 1.5043436e-38
-0.022751598 -0.10083848 0.010537867 1.494944e-38
-0.020921057 -0.10083848 0.010537867 1.4857599e-38
-0.019050891 -0.10012263 0.013551001 1.4212227e-38
-0.017225632 -0.10012263 0.013551001 1.4489168e-38
-0.015371485 -0.099410906 0.01654673 1.4304777e-38
-0.013551477 -0.099410906 0.01654673 1.3660484e-38
-0.01173147 -0.099410906 0.01654673 1.3568288e-38
-0.0099114645 -0.099410906 0.01654673 1.3569007e-38
-0.0080811158 -0.098476708 0.020478968 1.3384616e-38
-0.0062653199 -0.097749382 0.023540381 1.2923638e-38
-0.0044601504 -0.097051233 0.02647901 1.3845591e-38
-0.0026575588 -0.097051233 0.02647901 1.3845591e-38
-0.0008682292 -0.096332356 0.029504899 1.550475e-38
0.00089224335 -0.094907165 0.035503749 1.60572e-38
0.0026790127 -0.094907165 0.035503749 1.7992581e-38
0.0044371104 -0.094200835 0.038476828 1.8084058e-38
0.0062186662 -0.094200835 0.038476828 2.0019778e-38
0.0079600168 -0.093474448 0.041534308 2.1122163e-38
0.009736212 -0.093474448 0.041534308 2.1305834e-38
0.011461785 -0.092752427 0.04457343 2.1397669e-38
0.013232652 -0.092752427 0.04457343 2.1673176e-38
0.015003519 -0.092752427 0.04457343 2.1673176e-38
0.016840992 -0.093474448 0.041534308 2.1948682e-38
0.018689558 -0.094200835 0.038476828 2.1765011e-38
0.022631101 -0.11438553 -0.04648399 2.2040518e-38
0.024561621 -0.11438553 -0.04648399 2.2224189e-38
0.026377963 -0.11344786 -0.042537209 2.2224189e-38
0.028301561 -0.11344786 -0.042537209 2.2591531e-38
0.027207432 -0.091345012 0.050497416 2.2591531e-38
0.028865827 -0.090635687 0.053483132 2.2775202e-38
0.030510848 -0.089907125 0.056549732 2.2775202e-38
0.032260716 -0.089907125 0.056549732 2.3050708e-38
0.034131564 -0.090635687 0.053483132 2.350988e-38
0.035760455 -0.089907125 0.056549732 2.3509876e-38
0.037383609 -0.089206338 0.059499506 2.3416953e-38
0.039128304 -0.089206338 0.059499506 2.3509873e-38
0.044219077 -0.10631551 -0.012515899 2.2958867e-38
0.046090044 -0.10631551 -0.012515899 2.2499695e-38
0.047961004 -0.10631551 -0.012515899 2.0477521e-38
0.049984001 -0.10701384 -0.015455242 1.7070988e-38
0.051860116 -0.10701384 -0.015455242 1.5045579e-38
0.054126978 -0.10869466 -0.022530075 1.3756658e-38
0.056015499 -0.10869466 -0.022530075 1.348188e-38
0.05790402 -0.10869466 -0.022530075 1.3390403e-38
0.059792541 -0.10869466 -0.022530075 1.3206015e-38
0.057693481 -0.093474448 0.041534308 1.2836879e-38
0.060239524 -0.096332356 0.029504899 1.2744326e-38
0.062036805 -0.096332356 0.029504899 1.283652e-38
0.063631028 -0.095617667 0.032513145 1.274325e-38
0.065423042 -0.095617667 0.032513145 1.2374473e-38
0.067215055 -0.095617667 0.032513145 1.0529871e-38
0.069007061 -0.095617667 0.032513145 9.9756224e-39
0.071023241 -0.096332356 0.029504899 8.4997734e-39
0.073051311 -0.097051233 0.02647901 7.0232014e-39
0.074853905 -0.097051233 0.02647901 5.7317437e-39
0.076890931 -0.097749382 0.023540381 4.9934556e-39
0.079268858 -0.099410906 0.01654673 4.0711364e-39
0.081338361 -0.10012263 0.013551001 3.4250397e-39
0.083163619 -0.10012263 0.013551001 4.1625879e-39
0.084988877 -0.10012263 0.013551001 3.3331818e-39
0.08681415 -0.10012263 0.013551001 2.7792891e-39
0.088911474 -0.10083848 0.010537867 1.4885503e-39
0.090742022 -0.10083848 0.010537867 1.9484523e-39
0.092856839 -0.10155846 0.0075073279 2.4087129e-39
0.094973549 -0.10225673 0.0045682229 1.7622673e-39
0.096814558 -0.10225673 0.0045682229 2.8675359e-39
0.098655567 -0.10225673 0.0045682229 2.3125643e-39
0.10090534 -0.10322 0.00051367655 3.2327143e-39
0.10275346 -0.10322 0.00051367655 2.4018634e-39
0.10460158 -0.10322 0.00051367655 1.47917e-39
0.1060196 -0.10225673 0.0045682229 1.2940375e-39
0.10786061 -0.10225673 0.0045682229 9.5834802e-41
0.10970162 -0.10225673 0.0045682229 1.821688e-42
-0.12440626 -0.12590279 -0.08654058 2.2958151e-38
-0.122089 -0.12516426 -0.083454728 2.3234376e-38
-0.12009364 -0.12516426 -0.083454728 2.3234376e-38
-0.1177059 -0.12421621 -0.079493523 2.3050703e-38
-0.1157175 -0.12421621 -0.079493523 2.3234376e-38
-0.11334112 -0.12324448 -0.075433254 2.3418047e-38
-0.11099347 -0.12230973 -0.0715276 2.3509883e-38
-0.10874242 -0.12159048 -0.068522334 2.3509883e-38
-0.10677324 -0.12159048 -0.068522334 2.3509524e-38
-0.10445149 -0.12063743 -0.064540148 2.3509524e-38
-0.10248931 -0.12063743 -0.064540148 2.3509165e-38
-0.10052714 -0.12063743 -0.064540148 2.3509521e-38
-0.0982254 -0.11966167 -0.060463067 2.350987e-38
-0.096270368 -0.11966167 -0.060463067 2.3418033e-38
-0.094315335 -0.11966167 -0.060463067 2.3509869e-38
-0.092130408 -0.11895646 -0.057516452 2.3418033e-38
-0.089642301 -0.11726747 -0.050459381 2.3418035e-38
-0.087704808 -0.11726747 -0.050459381 2.3418038e-38
-0.085478052 -0.11631607 -0.04648399 2.341804e-38
-0.083547533 -0.11631607 -0.04648399 2.3234372e-38
-0.081617013 -0.11631607 -0.04648399 2.3234374e-38
-0.079420075 -0.11537148 -0.042537209 2.2958864e-38
-0.077293321 -0.114632 -0.039447423 2.3050704e-38
-0.07537514 -0.114632 -0.039447423 2.2958873e-38
-0.07320708 -0.11367123 -0.03543305 2.2958873e-38
-0.071295932 -0.11367123 -0.03543305 2.2775202e-38
-0.069034338 -0.11224325 -0.029466506 2.2591529e-38
-0.066909052 -0.11129995 -0.02552497 2.2591531e-38
-0.065015286 -0.11129995 -0.02552497 2.1580977e-38
-0.062961355 -0.11058317 -0.022530075 2.1029247e-38
-0.061072826 -0.11058317 -0.022530075 2.0476439e-38
-0.05898416 -0.10962458 -0.018524762 1.9922913e-38
-0.057102665 -0.10962458 -0.018524762 1.9093883e-38
-0.05522117 -0.10962458 -0.018524762 1.8632916e-38
-0.053202428 -0.10888995 -0.015455242 1.8171947e-38
-0.051200047 -0.10818647 -0.012515899 1.7896082e-38
-0.049329087 -0.10818647 -0.012515899 1.7250723e-38
-0.04729861 -0.10721879 -0.0084725581 1.6882663e-38
-0.045321174 -0.10649781 -0.0054601394 1.6330215e-38
-0.043462582 -0.10649781 -0.0054601394 1.5777409e-38
-0.04160399 -0.10649781 -0.0054601394 1.5317512e-38
-0.039648242 -0.10578094 -0.0024647675 1.5317512e-38
-0.037794903 -0.10578094 -0.0024647675 1.5317872e-38
-0.035855398 -0.1050681 0.00051367655 1.5318949e-38
-0.034007281 -0.1050681 0.00051367655 1.4674665e-38
-0.032056078 -0.10409774 0.0045682229 1.4214411e-38
-0.030215068 -0.10409774 0.0045682229 1.3937823e-38
-0.028374059 -0.10409774 0.0045682229 1.412257e-38
-0.02653305 -0.10409774 0.0045682229 1.449135e-38
-0.024637936 -0.10339431 0.0075073279 1.4583546e-38
-0.022751598 -0.10266902 0.010537867 1.4122566e-38
-0.020876152 -0.10194789 0.013551001 1.3661588e-38
-0.019050891 -0.10194789 0.013551001 1.4031087e-38
-0.01719149 -0.10123092 0.01654673 1.3478992e-38
-0.015371485 -0.10123092 0.01654673 1.3018733e-38
-0.013551477 -0.10123092 0.01654673 1.2559194e-38
-0.011707339 -0.10028981 0.020478968 1.246772e-38
-0.0098942276 -0.10028981 0.020478968 1.2191853e-38
-0.0080730636 -0.099557132 0.023540381 1.1730876e-38
-0.0062653199 -0.099557132 0.023540381 1.1362094e-38
-0.0044601504 -0.098853827 0.02647901 1.0807479e-38
-0.0026575588 -0.098853827 0.02647901 1.1268458e-38
-0.0008682292 -0.098129645 0.029504899 1.1728354e-38
0.00089224335 -0.096693933 0.035503749 1.2004941e-38
0.0026790127 -0.096693933 0.035503749 1.2926534e-38
0.0044371104 -0.095982388 0.038476828 1.4309106e-38
0.0062186662 -0.095982388 0.038476828 1.5414371e-38
0.0079600168 -0.095250636 0.041534308 1.6150849e-38
0.009736212 -0.095250636 0.041534308 1.6703297e-38
0.011461785 -0.094523281 0.04457343 1.7717075e-38
0.013178885 -0.093824327 0.047493938 1.8637582e-38
0.014944632 -0.093824327 0.047493938 1.8729776e-38
0.016710378 -0.093824327 0.047493938 1.9281507e-38
0.018545251 -0.094523281 0.04457343 2.0019061e-38
0.020316118 -0.094523281 0.04457343 2.0662985e-38
0.022086985 -0.094523281 0.04457343 2.1122163e-38
0.026377963 -0.11537148 -0.042537209 2.1305834e-38
0.025446951 -0.093105495 0.050497416 2.1580981e-38
0.027110582 -0.092390925 0.053483132 2.2040518e-38
0.028865827 -0.092390925 0.053483132 2.2224189e-38
0.030510848 -0.091656998 0.056549732 2.2499695e-38
0.032149523 -0.090951025 0.059499506 2.2499336e-38
0.033894219 -0.090951025 0.059499506 2.2682649e-38
0.035638914 -0.090951025 0.059499506 2.3050708e-38
0.037253454 -0.09022589 0.062529385 2.2589734e-38
0.038992837 -0.09022589 0.062529385 2.2775202e-38
0.044219077 -0.10818647 -0.012515899 2.2591531e-38
0.046090044 -0.10818647 -0.012515899 2.1948682e-38
0.047961004 -0.10818647 -0.012515899 2.0386044e-38
0.049984001 -0.10888995 -0.015455242 1.7531969e-38
0.051860116 -0.10888995 -0.015455242 1.541401e-38
0.054126978 -0.11058317 -0.022530075 1.4494223e-38
0.052025296 -0.093824327 0.047493938 1.4311987e-38
0.053791046 -0.093824327 0.047493938 1.4127957e-38
0.055556789 -0.093824327 0.047493938 1.394321e-38
0.057693481 -0.095250636 0.041534308 1.3851016e-38
0.059469678 -0.095250636 0.041534308 1.3666268e-38
0.062235758 -0.098853827 0.02647901 1.3205297e-38
0.063834094 -0.098129645 0.029504899 1.2558861e-38
0.065631382 -0.098129645 0.029504899 1.2189008e-38
0.067428671 -0.098129645 0.029504899 1.0068157e-38
0.069225952 -0.098129645 0.029504899 8.591948e-39
0.071248718 -0.098853827 0.02647901 7.9458598e-39
0.073051311 -0.098853827 0.02647901 7.2068542e-39
0.074853905 -0.098853827 0.02647901 5.3622227e-39
0.076890931 -0.099557132 0.023540381 4.9927171e-39
0.079268858 -0.10123092 0.01654673 4.9005187e-39
0.081088871 -0.10123092 0.01654673 3.886001e-39
0.082908884 -0.10123092 0.01654673 3.9778323e-39
0.084728882 -0.10123092 0.01654673 3.056232e-39
0.08681415 -0.10194789 0.013551001 3.3317398e-39
0.088639408 -0.10194789 0.013551001 2.8707645e-39
0.090742022 -0.10266902 0.010537867 1.6718654e-39
0.09257257 -0.10266902 0.010537867 2.4090703e-39
0.094973549 -0.10409774 0.0045682229 3.4221446e-39
0.096814558 -0.10409774 0.0045682229 2.6831404e-39
0.098655567 -0.10409774 0.0045682229 2.4973072e-39
0.10090534 -0.1050681 0.00051367655 2.8649996e-39
0.10275346 -0.1050681 0.00051367655 2.9564609e-39
0.10460158 -0.1050681 0.00051367655 2.5865826e-39
0.1060196 -0.10409774 0.0045682229 2.6783998e-39
0.10786061 -0.10409774 0.0045682229 4.6496484e-40
0.10970162 -0.10409774 0.0045682229 1.8800521e-40
-0.12440626 -0.12790357 -0.08654058 2.3234376e-38
-0.122089 -0.12715961 -0.083454728 2.3234376e-38
-0.12009364 -0.12715961 -0.083454728 2.3234374e-38
-0.1180983 -0.12715961 -0.083454728 2.3234372e-38
-0.1157175 -0.12620462 -0.079493523 2.3418043e-38
-0.11334112 -0.12522577 -0.075433254 2.3418043e-38
-0.11099347 -0.12428416 -0.0715276 2.3509879e-38
-0.10874242 -0.12355967 -0.068522334 2.3509879e-38
-0.10677324 -0.12355967 -0.068522334 2.3509879e-38
-0.10445149 -0.12259962 -0.064540148 2.350952e-38
-0.10248931 -0.12259962 -0.064540148 2.3509521e-38
-0.10018043 -0.12161671 -0.060463067 2.350952e-38
-0.0982254 -0.12161671 -0.060463067 2.3509873e-38
-0.096270368 -0.12161671 -0.060463067 2.3509869e-38
-0.094315335 -0.12161671 -0.060463067 2.3509869e-38
-0.092130408 -0.12090631 -0.057516452 2.350987e-38
-0.089642301 -0.11920498 -0.050459381 2.3509873e-38
-0.087704808 -0.11920498 -0.050459381 2.3509876e-38
-0.085478052 -0.11824657 -0.04648399 2.3509879e-38
-0.083547533 -0.11824657 -0.04648399 2.3509879e-38
-0.081617013 -0.11824657 -0.04648399 2.350988e-38
-0.079420075 -0.11729507 -0.042537209 2.3418045e-38
-0.077293321 -0.11655019 -0.039447423 2.3326208e-38
-0.075118229 -0.11558239 -0.03543305 2.3418047e-38
-0.07320708 -0.11558239 -0.03543305 2.3418047e-38
-0.071118534 -0.1148753 -0.032500144 2.3418047e-38
-0.069034338 -0.11414395 -0.029466506 2.3234376e-38
-0.066909052 -0.11319371 -0.02552497 2.3142541e-38
-0.064849868 -0.11247168 -0.022530075 2.2958867e-38
-0.062961355 -0.11247168 -0.022530075 2.2867032e-38
-0.061072826 -0.11247168 -0.022530075 2.2775202e-38
-0.05898416 -0.11150609 -0.018524762 2.2499695e-38
-0.057102665 -0.11150609 -0.018524762 2.2499695e-38
-0.05522117 -0.11150609 -0.018524762 2.2224189e-38
-0.053202428 -0.11076607 -0.015455242 2.2224189e-38
-0.051200047 -0.11005743 -0.012515899 2.2040518e-38
-0.049329087 -0.11005743 -0.012515899 2.1211846e-38
-0.04729861 -0.10908265 -0.0084725581 2.0843428e-38
-0.045321174 -0.1083564 -0.0054601394 2.0199144e-38
-0.043462582 -0.1083564 -0.0054601394 1.9646338e-38
-0.041501582 -0.10763429 -0.0024647675 1.909389e-38
-0.039648242 -0.10763429 -0.0024647675 1.8541801e-38
-0.037703514 -0.10691623 0.00051367655 1.8173024e-38
-0.035738096 -0.10593875 0.0045682229 1.7529458e-38
-0.033897087 -0.10593875 0.0045682229 1.5963949e-38
-0.032056078 -0.10593875 0.0045682229 1.5135632e-38
-0.030215068 -0.10593875 0.0045682229 1.4582458e-38
-0.028374059 -0.10593875 0.0045682229 1.4398067e-38
-0.02653305 -0.10593875 0.0045682229 1.4490623e-38
-0.024637936 -0.10523017 0.0075073279 1.4491705e-38
-0.022751598 -0.10449956 0.010537867 1.4123285e-38
-0.020876152 -0.10377313 0.013551001 1.3663029e-38
-0.019050891 -0.10377313 0.013551001 1.3294968e-38
-0.01719149 -0.10305093 0.01654673 1.2835432e-38
-0.015371485 -0.10305093 0.01654673 1.2375895e-38
-0.013520451 -0.10210292 0.020478968 1.2192587e-38
-0.011707339 -0.10210292 0.020478968 1.1824891e-38
-0.0098808091 -0.10136487 0.023540381 1.1272799e-38
-0.0080730636 -0.10136487 0.023540381 1.0351204e-38
-0.0062653199 -0.10136487 0.023540381 9.7973113e-39
-0.0044601504 -0.10065642 0.02647901 1.0994414e-38
-0.0026575588 -0.10065642 0.02647901 1.1362476e-38
-0.0008682292 -0.099926919 0.029504899 1.1178082e-38
0.00091059599 -0.099201679 0.032513145 1.062419e-38
0.0026790127 -0.098480701 0.035503749 1.0163211e-38
0.0044371104 -0.097763941 0.038476828 1.034724e-38
0.0062186662 -0.097763941 0.038476828 1.0714943e-38
0.0079600168 -0.09702684 0.041534308 1.0806776e-38
0.009690919 -0.09629415 0.04457343 1.0344717e-38
0.011461785 -0.09629415 0.04457343 1.0897528e-38
0.013178885 -0.09559007 0.047493938 1.1265948e-38
0.014944632 -0.09559007 0.047493938 1.1264866e-38
0.016710378 -0.09559007 0.047493938 1.154109e-38
0.018476123 -0.09559007 0.047493938 1.2462325e-38
0.02024187 -0.09559007 0.047493938 1.3383562e-38
0.021925991 -0.094865978 0.050497416 1.3844174e-38
0.02368647 -0.094865978 0.050497416 1.6146543e-38
0.025355339 -0.094146177 0.053483132 1.6883381e-38
0.027110582 -0.094146177 0.053483132 1.8265218e-38
0.028760983 -0.093406871 0.056549732 1.9832161e-38
0.030404827 -0.092695728 0.059499506 2.102961e-38
0.031921782 -0.091239244 0.06554091 2.1673176e-38
0.033655882 -0.091239244 0.06554091 2.2132353e-38
0.035514072 -0.091965273 0.062529385 2.2224189e-38
0.03712409 -0.091239244 0.06554091 2.2224189e-38
0.038634166 -0.090031251 0.070551574 2.1673176e-38
0.04035949 -0.090031251 0.070551574 1.992292e-38
0.042907789 -0.094146177 0.053483132 1.8819101e-38
0.044663034 -0.094146177 0.053483132 1.7623087e-38
0.046418279 -0.094146177 0.053483132 1.5781713e-38
0.04833319 -0.094865978 0.050497416 1.3663029e-38
0.050093666 -0.094865978 0.050497416 1.2190062e-38
0.052025296 -0.09559007 0.047493938 1.2374819e-38
0.053791046 -0.09559007 0.047493938 1.1914563e-38
0.055556789 -0.09559007 0.047493938 1.1637979e-38
0.057504319 -0.09629415 0.04457343 1.1361394e-38
0.059469678 -0.09702684 0.041534308 1.1452155e-38
0.061245874 -0.09702684 0.041534308 1.1083374e-38
0.063228458 -0.097763941 0.038476828 1.062168e-38
0.065631382 -0.099926919 0.029504899 1.0344014e-38
0.067428671 -0.099926919 0.029504899 9.8823197e-39
0.069225952 -0.099926919 0.029504899 8.7756092e-39
0.071248718 -0.10065642 0.02647901 7.9447695e-39
0.073051311 -0.10065642 0.02647901 7.0224503e-39
0.074853905 -0.10065642 0.02647901 6.0986961e-39
0.076890931 -0.10136487 0.023540381 5.4536841e-39
0.078948274 -0.10210292 0.020478968 4.9919842e-39
0.081088871 -0.10305093 0.01654673 4.3458918e-39
0.082908884 -0.10305093 0.01654673 3.7001594e-39
0.084728882 -0.10305093 0.01654673 3.2391799e-39
0.08681415 -0.10377313 0.013551001 3.8834703e-39
0.088639408 -0.10377313 0.013551001 3.6990804e-39
0.090464666 -0.10377313 0.013551001 2.6849313e-39
0.09257257 -0.10449956 0.010537867 2.9615182e-39
0.094692692 -0.10523017 0.0075073279 3.329579e-39
0.096814558 -0.10593875 0.0045682229 2.4072612e-39
0.098655567 -0.10593875 0.0045682229 4.526316e-39
0.10090534 -0.10691623 0.00051367655 4.8940083e-39
0.10275346 -0.10691623 0.00051367655 5.0773065e-39
0.10460158 -0.10691623 0.00051367655 4.6155913e-39
0.1060196 -0.10593875 0.0045682229 4.2464304e-39
0.10786061 -0.10593875 0.0045682229 9.2629472e-40
0.10970162 -0.10593875 0.0045682229 5.5677792e-40
-0.12440626 -0.12990431 -0.08654058 2.3234376e-38
-0.122089 -0.12915494 -0.083454728 2.3234376e-38
-0.12009364 -0.12915494 -0.083454728 2.3234374e-38
-0.1180983 -0.12915494 -0.083454728 2.3234374e-38
-0.1157175 -0.12819304 -0.079493523 2.3418045e-38
-0.11334112 -0.12720706 -0.075433254 2.3418045e-38
-0.11099347 -0.1262586 -0.0715276 2.350988e-38
-0.10874242 -0.12552883 -0.068522334 2.350988e-38
-0.10677324 -0.12552883 -0.068522334 2.350988e-38
-0.10445149 -0.1245618 -0.064540148 2.3509521e-38
-0.10213546 -0.12357174 -0.060463067 2.3509524e-38
-0.10018043 -0.12357174 -0.060463067 2.3509521e-38
-0.0982254 -0.12357174 -0.060463067 2.3509521e-38
-0.096270368 -0.12357174 -0.060463067 2.3509521e-38
-0.094080269 -0.12285618 -0.057516452 2.3509521e-38
-0.092130408 -0.12285618 -0.057516452 2.3509524e-38
-0.089642301 -0.12114246 -0.050459381 2.3509165e-38
-0.087704808 -0.12114246 -0.050459381 2.3509527e-38
-0.085478052 -0.12017711 -0.04648399 2.3509168e-38
-0.083267272 -0.11921866 -0.042537209 2.3509527e-38
-0.081343666 -0.11921866 -0.042537209 2.3509527e-38
-0.079420075 -0.11921866 -0.042537209 2.3509527e-38
-0.077029377 -0.11749353 -0.03543305 2.3509527e-38
-0.075118229 -0.11749353 -0.03543305 2.3232944e-38
-0.073024526 -0.11678131 -0.032500144 2.3048554e-38
-0.071118534 -0.11678131 -0.032500144 2.3048554e-38
-0.068802819 -0.11508749 -0.02552497 2.2956715e-38
-0.066909052 -0.11508749 -0.02552497 2.2772321e-38
-0.064849868 -0.1143602 -0.022530075 2.3509523e-38
-0.062961355 -0.1143602 -0.022530075 2.3509883e-38
-0.061072826 -0.1143602 -0.022530075 2.3509886e-38
-0.05898416 -0.11338757 -0.018524762 2.341805e-38
-0.057102665 -0.11338757 -0.018524762 2.341805e-38
-0.05522117 -0.11338757 -0.018524762 2.3142544e-38
-0.053202428 -0.11264218 -0.015455242 2.3142544e-38
-0.051200047 -0.11192839 -0.012515899 2.2867037e-38
-0.049329087 -0.11192839 -0.012515899 2.2775202e-38
-0.04729861 -0.11094652 -0.0084725581 2.2591531e-38
-0.045321174 -0.11021499 -0.0054601394 2.2224189e-38
-0.043462582 -0.11021499 -0.0054601394 2.1764294e-38
-0.041501582 -0.10948761 -0.0024647675 2.148807e-38
-0.039551631 -0.10876434 0.00051367655 2.1027816e-38
-0.037579104 -0.10777976 0.0045682229 2.0382449e-38
-0.035738096 -0.10777976 0.0045682229 1.9463017e-38
-0.033897087 -0.10777976 0.0045682229 1.8081897e-38
-0.032056078 -0.10777976 0.0045682229 1.7345777e-38
-0.030215068 -0.10777976 0.0045682229 1.6608575e-38
-0.028374059 -0.10777976 0.0045682229 1.6147598e-38
-0.02653305 -0.10777976 0.0045682229 1.5779541e-38
-0.024637936 -0.10706602 0.0075073279 1.5135617e-38
-0.022751598 -0.10633011 0.010537867 1.4398419e-38
-0.020876152 -0.10559841 0.013551001 1.3569746e-38
-0.019050891 -0.10559841 0.013551001 1.3386442e-38
-0.01719149 -0.10487093 0.01654673 1.3110942e-38
-0.015371485 -0.10487093 0.01654673 1.2559935e-38
-0.013520451 -0.10391603 0.020478968 1.2376267e-38
-0.011707339 -0.10391603 0.020478968 1.210076e-38
-0.0098808091 -0.10317262 0.023540381 1.1456835e-38
-0.0080653355 -0.10245901 0.02647901 1.0811835e-38
-0.0062627438 -0.10245901 0.02647901 1.0350863e-38
-0.0044601504 -0.10245901 0.02647901 1.0809682e-38
-0.0026575588 -0.10245901 0.02647901 1.1270295e-38
-0.0008682292 -0.10172421 0.029504899 1.1362489e-38
0.00091059599 -0.10099369 0.032513145 1.0717129e-38
0.0026790127 -0.10026747 0.035503749 1.007176e-38
0.0044657812 -0.10026747 0.035503749 9.795173e-39
0.0062186662 -0.099545494 0.038476828 9.795173e-39
0.0079600168 -0.098803028 0.041534308 9.7029773e-39
0.009690919 -0.098065019 0.04457343 9.6096999e-39
0.011461785 -0.098065019 0.04457343 9.9777635e-39
0.013178885 -0.097355813 0.047493938 1.0070315e-38
0.014944632 -0.097355813 0.047493938 9.8852036e-39
0.016710378 -0.097355813 0.047493938 9.9766789e-39
0.018476123 -0.097355813 0.047493938 1.0529131e-38
0.02024187 -0.097355813 0.047493938 1.117378e-38
0.021925991 -0.096626461 0.050497416 1.1358166e-38
0.023600094 -0.095901415 0.053483132 1.2371953e-38
0.025355339 -0.095901415 0.053483132 1.2832566e-38
0.027011113 -0.095156729 0.056549732 1.4030023e-38
0.028760983 -0.095156729 0.056549732 1.5504413e-38
0.030295921 -0.093704656 0.062529385 1.6517474e-38
0.031921782 -0.092973351 0.06554091 1.725431e-38
0.033655882 -0.092973351 0.06554091 1.8174817e-38
0.03538999 -0.092973351 0.06554091 1.8728341e-38
0.037036903 -0.092480466 0.067570567 1.9558089e-38
0.038634166 -0.091756567 0.070551574 1.7714922e-38
0.04035949 -0.091756567 0.070551574 1.559589e-38
0.042084806 -0.091756567 0.070551574 1.4583546e-38
0.044663034 -0.095901415 0.053483132 1.4215846e-38
0.046418279 -0.095901415 0.053483132 1.3480086e-38
0.04833319 -0.096626461 0.050497416 1.2466307e-38
0.050093666 -0.096626461 0.050497416 1.1545431e-38
0.052025296 -0.097355813 0.047493938 1.1452155e-38
0.053791046 -0.097355813 0.047493938 1.1175568e-38
0.055556789 -0.097355813 0.047493938 1.0806786e-38
0.057504319 -0.098065019 0.04457343 1.0806068e-38
0.059469678 -0.098803028 0.041534308 1.0897188e-38
0.061245874 -0.098803028 0.041534308 1.0804992e-38
0.063228458 -0.099545494 0.038476828 1.0527689e-38
0.065423042 -0.10099369 0.032513145 1.0342938e-38
0.067215055 -0.10099369 0.032513145 9.6042909e-39
0.069007061 -0.10099369 0.032513145 9.0503982e-39
0.071023241 -0.10172421 0.029504899 7.7589363e-39
0.073051311 -0.10245901 0.02647901 6.7444229e-39
0.074853905 -0.10245901 0.02647901 6.6507853e-39
0.076890931 -0.10317262 0.023540381 5.8210218e-39
0.078948274 -0.10391603 0.020478968 4.806507e-39
0.081088871 -0.10487093 0.01654673 4.6210353e-39
0.082908884 -0.10487093 0.01654673 4.3437226e-39
0.084728882 -0.10487093 0.01654673 4.2515241e-39
0.08681415 -0.10559841 0.013551001 4.9880102e-39
0.088639408 -0.10559841 0.013551001 4.8047007e-39
0.090464666 -0.10559841 0.013551001 4.2515269e-39
0.09257257 -0.10633011 0.010537867 4.6203066e-39
0.094692692 -0.10706602 0.0075073279 4.9890864e-39
0.096814558 -0.10777976 0.0045682229 4.5273837e-39
0.099057212 -0.10876434 0.00051367655 4.8950789e-39
0.10090534 -0.10876434 0.00051367655 5.3553269e-39
0.10275346 -0.10876434 0.00051367655 6.091799e-39
0.10460158 -0.10876434 0.00051367655 6.3672928e-39
0.10570782 -0.10706602 0.0075073279 6.0899717e-39
0.10754368 -0.10706602 0.0075073279 1.3879805e-39
0.10871725 -0.10559841 0.013551001 1.2943388e-39
0.11054251 -0.10559841 0.013551001 1.5705627e-39
0.11202899 -0.10487093 0.01654673 1.2921808e-39
0.113849 -0.10487093 0.01654673 1.6609661e-39
0.11966881 -0.10559841 0.013551001 1.5687704e-39
0.12149407 -0.10559841 0.013551001 1.1999879e-39
0.12331933 -0.10559841 0.013551001 1.0155939e-39
-0.12408434 -0.13115029 -0.083454728 2.3418045e-38
-0.122089 -0.13115029 -0.083454728 2.2958504e-38
-0.12009364 -0.13115029 -0.083454728 2.3234012e-38
-0.1177059 -0.13018142 -0.079493523 2.3418045e-38
-0.1153224 -0.12918831 -0.075433254 2.3418047e-38
-0.11334112 -0.12918831 -0.075433254 2.3418047e-38
-0.11099347 -0.12823303 -0.0715276 2.3509883e-38
-0.10874242 -0.12749799 -0.068522334 2.3509883e-38
-0.10677324 -0.12749799 -0.068522334 2.3509883e-38
-0.10445149 -0.12652399 -0.064540148 2.3509883e-38
-0.10213546 -0.12552677 -0.060463067 2.3509883e-38
-0.10018043 -0.12552677 -0.060463067 2.3509527e-38
-0.097979993 -0.12480606 -0.057516452 2.3509527e-38
-0.096030131 -0.12480606 -0.057516452 2.3509168e-38
-0.094080269 -0.12480606 -0.057516452 2.3508809e-38
-0.091816261 -0.12382124 -0.053490158 2.3508809e-38
-0.089642301 -0.12307997 -0.050459381 2.3508809e-38
-0.087408572 -0.12210761 -0.04648399 2.3509168e-38
-0.085190877 -0.12114228 -0.042537209 2.3509168e-38
-0.083267272 -0.12114228 -0.042537209 2.3508809e-38
-0.081129685 -0.12038656 -0.039447423 2.3231151e-38
-0.079211503 -0.12038656 -0.039447423 2.3508451e-38
-0.077029377 -0.11940466 -0.03543305 2.3509168e-38
-0.075118229 -0.11940466 -0.03543305 2.3509168e-38
-0.073024526 -0.11868732 -0.032500144 2.3509168e-38
-0.070935026 -0.11794533 -0.029466506 2.3509527e-38
-0.068802819 -0.11698125 -0.02552497 2.3509527e-38
-0.066909052 -0.11698125 -0.02552497 2.3509168e-38
-0.064849868 -0.11624874 -0.022530075 2.3508449e-38
-0.062961355 -0.11624874 -0.022530075 2.3508449e-38
-0.061072826 -0.11624874 -0.022530075 2.3508449e-38
-0.059184313 -0.11624874 -0.022530075 2.3508448e-38
-0.057102665 -0.11526908 -0.018524762 2.3508446e-38
-0.05522117 -0.11526908 -0.018524762 2.3325131e-38
-0.053202428 -0.1145183 -0.015455242 2.31411e-38
-0.051200047 -0.11379938 -0.012515899 2.3048905e-38
-0.049329087 -0.11379938 -0.012515899 2.3418047e-38
-0.04729861 -0.11281042 -0.0084725581 2.3142539e-38
-0.045321174 -0.11207359 -0.0054601394 2.2866671e-38
-0.043354921 -0.11134095 -0.0024647675 2.2775196e-38
-0.041501582 -0.11134095 -0.0024647675 2.2867034e-38
-0.039551631 -0.11061247 0.00051367655 2.2867034e-38
-0.037579104 -0.10962076 0.0045682229 2.2775199e-38
-0.035738096 -0.10962076 0.0045682229 2.2224189e-38
-0.033897087 -0.10962076 0.0045682229 2.1856847e-38
-0.032056078 -0.10962076 0.0045682229 2.1489505e-38
-0.030215068 -0.10962076 0.0045682229 2.1213998e-38
-0.028374059 -0.10962076 0.0045682229 2.0754821e-38
-0.02653305 -0.10962076 0.0045682229 2.0017626e-38
-0.024637936 -0.10890187 0.0075073279 1.8819459e-38
-0.022751598 -0.10816063 0.010537867 1.7345422e-38
-0.020876152 -0.10742365 0.013551001 1.6147971e-38
-0.019011496 -0.10669093 0.01654673 1.384489e-38
-0.01719149 -0.10669093 0.01654673 1.3200611e-38
-0.015371485 -0.10669093 0.01654673 1.2372661e-38
-0.013520451 -0.10572915 0.020478968 1.1820578e-38
-0.011707339 -0.10572915 0.020478968 1.1361408e-38
-0.0098808091 -0.10498036 0.023540381 1.1085906e-38
-0.0080653355 -0.10426159 0.02647901 1.0901876e-38
-0.0062627438 -0.10426159 0.02647901 1.0809682e-38
-0.0044601504 -0.10426159 0.02647901 1.0162879e-38
-0.0026575588 -0.10426159 0.02647901 1.0900442e-38
-0.0008682292 -0.10352151 0.029504899 1.1361054e-38
0.00092905667 -0.10352151 0.029504899 1.1176665e-38
0.0027026078 -0.10278571 0.032513145 1.0716771e-38
0.0044657812 -0.10205424 0.035503749 1.0624935e-38
0.0062186662 -0.10132705 0.038476828 1.0809323e-38
0.008000223 -0.10132705 0.038476828 1.0809323e-38
0.009736212 -0.10057923 0.041534308 1.0256158e-38
0.011461785 -0.099835888 0.04457343 1.0532741e-38
0.013178885 -0.099121556 0.047493938 1.09008e-38
0.014884071 -0.098386943 0.050497416 1.09008e-38
0.01664455 -0.098386943 0.050497416 1.080753e-38
0.018405031 -0.098386943 0.050497416 1.06235e-38
0.02016551 -0.098386943 0.050497416 1.0530588e-38
0.021844849 -0.097656667 0.053483132 1.0346194e-38
0.023600094 -0.097656667 0.053483132 9.5167882e-39
0.025261246 -0.096906602 0.056549732 9.1483588e-39
0.026915433 -0.096185118 0.059499506 8.8714076e-39
0.028453572 -0.094707444 0.06554091 9.055073e-39
0.030187676 -0.094707444 0.06554091 9.2380209e-39
0.031845272 -0.094211012 0.067570567 9.3298508e-39
0.03357581 -0.094211012 0.067570567 9.9748573e-39
0.035306357 -0.094211012 0.067570567 1.0528031e-38
0.037036903 -0.094211012 0.067570567 1.0620587e-38
0.038634166 -0.093481898 0.070551574 1.0344722e-38
0.04035949 -0.093481898 0.070551574 9.9766621e-39
0.042084806 -0.093481898 0.070551574 9.7004396e-39
0.044663034 -0.097656667 0.053483132 9.3323829e-39
0.046418279 -0.097656667 0.053483132 9.240909e-39
0.04833319 -0.098386943 0.050497416 9.5171399e-39
0.050259553 -0.099121556 0.047493938 9.8852036e-39
0.052025296 -0.099121556 0.047493938 1.0806074e-38
0.053791046 -0.099121556 0.047493938 1.0804992e-38
0.055556789 -0.099121556 0.047493938 1.0712799e-38
0.057504319 -0.099835888 0.04457343 1.0712799e-38
0.059469678 -0.10057923 0.041534308 1.1080503e-38
0.061245874 -0.10057923 0.041534308 1.1171619e-38
0.06302207 -0.10057923 0.041534308 1.0986509e-38
0.065010019 -0.10132705 0.038476828 1.0893235e-38
0.067002691 -0.10205424 0.035503749 1.0616285e-38
0.06878946 -0.10205424 0.035503749 1.0431531e-38
0.071023241 -0.10352151 0.029504899 8.6787332e-39
0.073051311 -0.10426159 0.02647901 7.5720228e-39
0.074853905 -0.10426159 0.02647901 8.2166691e-39
0.076656498 -0.10426159 0.02647901 7.4783824e-39
0.078698665 -0.10498036 0.023540381 6.3716733e-39
0.081088871 -0.10669093 0.01654673 6.6475315e-39
0.082908884 -0.10669093 0.01654673 7.476202e-39
0.084728882 -0.10669093 0.01654673 7.6602303e-39
0.08681415 -0.10742365 0.013551001 7.8446215e-39
0.088639408 -0.10742365 0.013551001 7.6605904e-39
0.090464666 -0.10742365 0.013551001 7.7527889e-39
0.09257257 -0.10816063 0.010537867 8.4914301e-39
0.094973549 -0.10962076 0.0045682229 9.4137409e-39
0.096814558 -0.10962076 0.0045682229 9.7817976e-39
0.098655567 -0.10962076 0.0045682229 1.0242406e-38
0.10090534 -0.11061247 0.00051367655 1.0517902e-38
0.10275346 -0.11061247 0.00051367655 1.0977793e-38
0.10460158 -0.11061247 0.00051367655 1.0516801e-38
0.10570782 -0.10890187 0.0075073279 9.1320603e-39
0.10689199 -0.10742365 0.013551001 1.7556812e-39
0.10871725 -0.10742365 0.013551001 1.1095874e-39
0.11054251 -0.10742365 0.013551001 1.2928968e-39
0.11202899 -0.10669093 0.01654673 1.8453545e-39
0.113849 -0.10669093 0.01654673 2.0297486e-39
0.115669 -0.10669093 0.01654673 2.2141399e-39
0.11748901 -0.10669093 0.01654673 2.1219442e-39
0.11930901 -0.10669093 0.01654673 1.6609661e-39
0.12112902 -0.10669093 0.01654673 1.1999879e-39
0.12294902 -0.10669093 0.01654673 9.2339823e-40
0.12476903 -0.10669093 0.01654673 8.312026e-40
-0.12367108 -0.13216983 -0.079493523 2.3509879e-38
-0.12168269 -0.13216983 -0.079493523 2.3049621e-38
-0.11969429 -0.13216983 -0.079493523 2.3233652e-38
-0.1177059 -0.13216983 -0.079493523 2.3509883e-38
-0.1153224 -0.1311696 -0.075433254 2.3509886e-38
-0.11334112 -0.1311696 -0.075433254 2.3509886e-38
-0.11099347 -0.13020746 -0.0715276 2.3509886e-38
-0.10874242 -0.12946714 -0.068522334 2.3509886e-38
-0.10641368 -0.12848614 -0.064540148 2.3509886e-38
-0.1040905 -0.1274818 -0.060463067 2.3509886e-38
-0.10213546 -0.1274818 -0.060463067 2.3509886e-38
-0.099929854 -0.12675591 -0.057516452 2.3509886e-38
-0.097979993 -0.12675591 -0.057516452 2.3509168e-38
-0.096030131 -0.12675591 -0.057516452 2.3509168e-38
-0.09375906 -0.12576406 -0.053490158 2.3509168e-38
-0.091579795 -0.12501745 -0.050459381 2.3509168e-38
-0.089642301 -0.12501745 -0.050459381 2.3508809e-38
-0.087408572 -0.12403814 -0.04648399 2.3508809e-38
-0.085190877 -0.12306587 -0.042537209 2.3508809e-38
-0.083047867 -0.12230472 -0.039447423 2.3509168e-38
-0.080851659 -0.12131582 -0.03543305 2.3509168e-38
-0.078940511 -0.12131582 -0.03543305 2.3509168e-38
-0.077029377 -0.12131582 -0.03543305 2.3509168e-38
-0.075118229 -0.12131582 -0.03543305 2.3416615e-38
-0.073024526 -0.12059332 -0.032500144 2.332478e-38
-0.070935026 -0.119846 -0.029466506 2.3509168e-38
-0.068802819 -0.11887501 -0.02552497 2.341769e-38
-0.066909052 -0.11887501 -0.02552497 2.3508446e-38
-0.064849868 -0.11813726 -0.022530075 2.3508809e-38
-0.062961355 -0.11813726 -0.022530075 2.3508451e-38
-0.061072826 -0.11813726 -0.022530075 2.3508451e-38
-0.059184313 -0.11813726 -0.022530075 2.3508807e-38
-0.057102665 -0.11715056 -0.018524762 2.3509161e-38
-0.05522117 -0.11715056 -0.018524762 2.3509517e-38
-0.053339668 -0.11715056 -0.018524762 2.3509873e-38
-0.051326312 -0.11639442 -0.015455242 2.350987e-38
-0.049450196 -0.11639442 -0.015455242 2.3509869e-38
-0.04729861 -0.11467429 -0.0084725581 2.3326195e-38
-0.045321174 -0.11393218 -0.0054601394 2.304961e-38
-0.043354921 -0.1131943 -0.0024647675 2.2958133e-38
-0.041501582 -0.1131943 -0.0024647675 2.3234364e-38
-0.039551631 -0.11246057 0.00051367655 2.3234369e-38
-0.037579104 -0.11146177 0.0045682229 2.3234369e-38
-0.035738096 -0.11146177 0.0045682229 2.2958867e-38
-0.033897087 -0.11146177 0.0045682229 2.2407857e-38
-0.032056078 -0.11146177 0.0045682229 2.2132353e-38
-0.030215068 -0.11146177 0.0045682229 2.2040518e-38
-0.028374059 -0.11146177 0.0045682229 2.1765011e-38
-0.02653305 -0.11146177 0.0045682229 2.1396234e-38
-0.024637936 -0.11073773 0.0075073279 2.0474648e-38
-0.022701411 -0.10924892 0.013551001 1.9184997e-38
-0.020876152 -0.10924892 0.013551001 1.8171935e-38
-0.019011496 -0.10851096 0.01654673 1.7343267e-38
-0.01719149 -0.10851096 0.01654673 1.6606792e-38
-0.015371485 -0.10851096 0.01654673 1.5502254e-38
-0.013520451 -0.10754226 0.020478968 1.4489192e-38
-0.011707339 -0.10754226 0.020478968 1.3476848e-38
-0.0098808091 -0.10678811 0.023540381 1.2648175e-38
-0.0080653355 -0.10606419 0.02647901 1.2187562e-38
-0.0062627438 -0.10606419 0.02647901 1.2003175e-38
-0.0044601504 -0.10606419 0.02647901 1.2279406e-38
-0.0026575588 -0.10606419 0.02647901 1.2741097e-38
-0.0008682292 -0.1053188 0.029504899 1.2649621e-38
0.00091059599 -0.10457774 0.032513145 1.2096814e-38
0.0026790127 -0.10384102 0.035503749 1.1360336e-38
0.0044657812 -0.10384102 0.035503749 1.1084113e-38
0.0062186662 -0.1031086 0.038476828 1.0900083e-38
0.008000223 -0.1031086 0.038476828 1.0624576e-38
0.009736212 -0.10235542 0.041534308 1.0256158e-38
0.011461785 -0.10160676 0.04457343 1.0348352e-38
0.013178885 -0.1008873 0.047493938 1.0624935e-38
0.014884071 -0.10014741 0.050497416 1.0717129e-38
0.01664455 -0.10014741 0.050497416 1.0624218e-38
0.018405031 -0.10014741 0.050497416 1.0347635e-38
0.02016551 -0.10014741 0.050497416 1.0254364e-38
0.021844849 -0.099411905 0.053483132 1.0071052e-38
0.023511378 -0.098656476 0.056549732 1.0809323e-38
0.025170736 -0.09792982 0.059499506 9.9806488e-39
0.026817152 -0.097183421 0.062529385 9.6111446e-39
0.028384181 -0.095941558 0.067570567 9.2419992e-39
0.030114723 -0.095941558 0.067570567 9.056882e-39
0.031845272 -0.095941558 0.067570567 8.8717705e-39
0.03357581 -0.095941558 0.067570567 9.240909e-39
0.035306357 -0.095941558 0.067570567 9.7940827e-39
0.037036903 -0.095941558 0.067570567 9.2412719e-39
0.038634166 -0.095207214 0.070551574 9.7033291e-39
0.04035949 -0.095207214 0.070551574 1.016395e-38
0.042084806 -0.095207214 0.070551574 1.0255069e-38
0.044362396 -0.09792982 0.059499506 9.9784824e-39
0.046259664 -0.098656476 0.056549732 1.0162155e-38
0.04833319 -0.10014741 0.050497416 1.0714968e-38
0.050093666 -0.10014741 0.050497416 1.1359256e-38
0.051854149 -0.10014741 0.050497416 1.0989033e-38
0.053614631 -0.10014741 0.050497416 1.0988673e-38
0.055375107 -0.10014741 0.050497416 1.1172342e-38
0.057504319 -0.10160676 0.04457343 1.1356734e-38
0.059275188 -0.10160676 0.04457343 1.1724077e-38
0.061245874 -0.10235542 0.041534308 1.1722998e-38
0.06302207 -0.10235542 0.041534308 1.1446048e-38
0.065010019 -0.1031086 0.038476828 1.1076547e-38
0.066791572 -0.1031086 0.038476828 1.0061672e-38
0.068573125 -0.1031086 0.038476828 9.9687546e-39
0.070799075 -0.10457774 0.032513145 8.4929e-39
0.072591089 -0.10457774 0.032513145 7.5705808e-39
0.074617818 -0.1053188 0.029504899 8.3999771e-39
0.076656498 -0.10606419 0.02647901 8.3988953e-39
0.078698665 -0.10678811 0.023540381 7.753163e-39
0.081088871 -0.10851096 0.01654673 8.3981611e-39
0.082908884 -0.10851096 0.01654673 8.4881819e-39
0.084728882 -0.10851096 0.01654673 9.132824e-39
0.08681415 -0.10924892 0.013551001 8.9495118e-39
0.088639408 -0.10924892 0.013551001 8.8573161e-39
0.090464666 -0.10924892 0.013551001 9.0431493e-39
0.09257257 -0.10999118 0.010537867 1.0057298e-38
0.094973549 -0.11146177 0.0045682229 1.0888131e-38
0.096814558 -0.11146177 0.0045682229 1.180972e-38
0.098655567 -0.11146177 0.0045682229 1.1624602e-38
0.10090534 -0.11246057 0.00051367655 1.1624592e-38
0.10275346 -0.11246057 0.00051367655 1.2452906e-38
0.10460158 -0.11246057 0.00051367655 1.2452898e-38
0.10570782 -0.11073773 0.0075073279 1.1067443e-38
0.10689199 -0.10924892 0.013551001 1.8475153e-39
0.10871725 -0.10924892 0.013551001 1.8467965e-39
0.11054251 -0.10924892 0.013551001 2.3992472e-39
0.11236778 -0.10924892 0.013551001 2.4907267e-39
0.113849 -0.10851096 0.01654673 2.5829224e-39
0.115669 -0.10851096 0.01654673 2.675118e-39
0.11748901 -0.10851096 0.01654673 2.5829224e-39
0.11930901 -0.10851096 0.01654673 2.3063355e-39
0.12112902 -0.10851096 0.01654673 1.937553e-39
0.12294902 -0.10851096 0.01654673 1.6609633e-39
0.12476903 -0.10851096 0.01654673 1.476572e-39
0.12658903 -0.10851096 0.01654673 1.6609633e-39
-0.12522879 -0.13315089 -0.075433254 2.0836198e-38
-0.1232475 -0.13315089 -0.075433254 2.3509876e-38
-0.12126623 -0.13315089 -0.075433254 2.3417323e-38
-0.11969429 -0.13415821 -0.079493523 2.3509883e-38
-0.1177059 -0.13415821 -0.079493523 2.3509527e-38
-0.1153224 -0.13315089 -0.075433254 2.3509886e-38
-0.11296791 -0.1321819 -0.0715276 2.3509527e-38
-0.11099347 -0.1321819 -0.0715276 2.3509527e-38
-0.10874242 -0.1314363 -0.068522334 2.3509527e-38
-0.10641368 -0.13044833 -0.064540148 2.341805e-38
-0.1040905 -0.12943684 -0.060463067 2.341805e-38
-0.10213546 -0.12943684 -0.060463067 2.341805e-38
-0.099929854 -0.12870578 -0.057516452 2.341805e-38
-0.097979993 -0.12870578 -0.057516452 2.3509527e-38
-0.096030131 -0.12870578 -0.057516452 2.3509527e-38
-0.09375906 -0.12770687 -0.053490158 2.3509168e-38
-0.091579795 -0.12695493 -0.050459381 2.3509527e-38
-0.089642301 -0.12695493 -0.050459381 2.3509168e-38
-0.087408572 -0.12596865 -0.04648399 2.3509168e-38
-0.085190877 -0.12498946 -0.042537209 2.3509168e-38
-0.083047867 -0.12422292 -0.039447423 2.3509168e-38
-0.080851659 -0.12322696 -0.03543305 2.3509168e-38
-0.078940511 -0.12322696 -0.03543305 2.3509527e-38
-0.077029377 -0.12322696 -0.03543305 2.3324778e-38
-0.075118229 -0.12322696 -0.03543305 2.3324775e-38
-0.073024526 -0.1224993 -0.032500144 2.3232936e-38
-0.071118534 -0.1224993 -0.032500144 2.3141456e-38
-0.069034338 -0.12174667 -0.029466506 2.3418042e-38
-0.06713365 -0.12174667 -0.029466506 2.3509879e-38
-0.065015286 -0.1207688 -0.02552497 2.3508089e-38
-0.062961355 -0.12002577 -0.022530075 2.350737e-38
-0.061072826 -0.12002577 -0.022530075 2.3507363e-38
-0.059184313 -0.12002577 -0.022530075 2.3507716e-38
-0.057295784 -0.12002577 -0.022530075 2.3507714e-38
-0.05522117 -0.11903207 -0.018524762 2.3508428e-38
-0.053339668 -0.11903207 -0.018524762 2.3509144e-38
-0.051458165 -0.11903207 -0.018524762 2.3509502e-38
-0.049450196 -0.11827053 -0.015455242 2.350986e-38
-0.04729861 -0.11653815 -0.0084725581 2.3509863e-38
-0.045434736 -0.11653815 -0.0084725581 2.3509866e-38
-0.043462582 -0.11579077 -0.0054601394 2.3417673e-38
-0.041501582 -0.11504765 -0.0024647675 2.3325483e-38
-0.039551631 -0.1143087 0.00051367655 2.3141455e-38
-0.037579104 -0.11330278 0.0045682229 2.3325129e-38
-0.035738096 -0.11330278 0.0045682229 2.3325492e-38
-0.033897087 -0.11330278 0.0045682229 2.3234374e-38
-0.032056078 -0.11330278 0.0045682229 2.3142538e-38
-0.030215068 -0.11330278 0.0045682229 2.3142541e-38
-0.028374059 -0.11330278 0.0045682229 2.2958873e-38
-0.026473789 -0.11257361 0.0075073279 2.2958873e-38
-0.024637936 -0.11257361 0.0075073279 2.2867037e-38
-0.022701411 -0.11107419 0.013551001 2.2775202e-38
-0.020876152 -0.11107419 0.013551001 2.2499695e-38
-0.019011496 -0.11033095 0.01654673 2.1948682e-38
-0.01719149 -0.11033095 0.01654673 2.1396593e-38
-0.015333565 -0.10935538 0.020478968 2.0567921e-38
-0.013520451 -0.10935538 0.020478968 1.9462667e-38
-0.011688553 -0.10859586 0.023540381 1.7988635e-38
-0.0098808091 -0.10859586 0.023540381 1.6422767e-38
-0.0080653355 -0.10786678 0.02647901 1.5224588e-38
-0.0062627438 -0.10786678 0.02647901 1.430372e-38
-0.0044601504 -0.10786678 0.02647901 1.4212252e-38
-0.0026655179 -0.10711606 0.029504899 1.4121141e-38
-0.0008682292 -0.10711606 0.029504899 1.3568689e-38
0.00091059599 -0.10636975 0.032513145 1.2648175e-38
0.0026790127 -0.10562779 0.035503749 1.2003171e-38
0.0044657812 -0.10562779 0.035503749 1.1543636e-38
0.0062186662 -0.10489015 0.038476828 1.1359611e-38
0.0079600168 -0.10413162 0.041534308 1.080788e-38
0.009736212 -0.10413162 0.041534308 1.1361413e-38
0.011461785 -0.10337763 0.04457343 1.0809323e-38
0.013123592 -0.10190789 0.050497416 1.0716771e-38
0.014884071 -0.10190789 0.050497416 1.0808965e-38
0.01664455 -0.10190789 0.050497416 1.0808965e-38
0.018405031 -0.10190789 0.050497416 1.0901159e-38
0.02016551 -0.10190789 0.050497416 1.1085547e-38
0.021761509 -0.10040633 0.056549732 1.1454324e-38
0.023426041 -0.099674508 0.059499506 9.888456e-39
0.02507777 -0.098922804 0.062529385 9.6118691e-39
0.026719471 -0.09817566 0.06554091 9.5196707e-39
0.028384181 -0.097672105 0.067570567 9.7955359e-39
0.030114723 -0.097672105 0.067570567 9.6107817e-39
0.031845272 -0.097672105 0.067570567 9.334192e-39
0.03357581 -0.097672105 0.067570567 9.334192e-39
0.035306357 -0.097672105 0.067570567 9.6111418e-39
0.037036903 -0.097672105 0.067570567 9.6122208e-39
0.038634166 -0.09693253 0.070551574 9.6122236e-39
0.04035949 -0.09693253 0.070551574 9.7033403e-39
0.042228542 -0.097672105 0.067570567 9.7029773e-39
0.044210993 -0.098922804 0.062529385 1.0254353e-38
0.046107091 -0.099674508 0.059499506 1.0990474e-38
0.048173524 -0.10116716 0.053483132 1.1542207e-38
0.050093666 -0.10190789 0.050497416 1.1633321e-38
0.051854149 -0.10190789 0.050497416 1.1818068e-38
0.053614631 -0.10190789 0.050497416 1.2001377e-38
0.055375107 -0.10190789 0.050497416 1.2001377e-38
0.057322539 -0.10265306 0.047493938 1.2185406e-38
0.059275188 -0.10337763 0.04457343 1.2460913e-38
0.061245874 -0.10413162 0.041534308 1.2276161e-38
0.06302207 -0.10413162 0.041534308 1.1905936e-38
0.064798266 -0.10413162 0.041534308 1.1536432e-38
0.066791572 -0.10489015 0.038476828 1.0982535e-38
0.068573125 -0.10489015 0.038476828 1.0889975e-38
0.070576228 -0.10562779 0.035503749 1.0244243e-38
0.072362997 -0.10562779 0.035503749 1.0058767e-38
0.074617818 -0.10711606 0.029504899 1.0795971e-38
0.076656498 -0.10786678 0.02647901 1.1348418e-38
0.078948274 -0.10935538 0.020478968 1.1624286e-38
0.081088871 -0.11033095 0.01654673 1.2453313e-38
0.082908884 -0.11033095 0.01654673 1.4019184e-38
0.084988877 -0.11107419 0.013551001 1.5493224e-38
0.08681415 -0.11107419 0.013551001 1.5586141e-38
0.088639408 -0.11107419 0.013551001 1.5310273e-38
0.090742022 -0.11182173 0.010537867 1.5863807e-38
0.09257257 -0.11182173 0.010537867 1.595708e-38
0.094403103 -0.11182173 0.010537867 1.6142544e-38
0.096528545 -0.11257361 0.0075073279 1.6787907e-38
0.098655567 -0.11330278 0.0045682229 1.7525464e-38
0.10049658 -0.11330278 0.0045682229 1.7155957e-38
0.10233758 -0.11330278 0.0045682229 1.7062677e-38
0.10417859 -0.11330278 0.0045682229 1.6416584e-38
0.10570782 -0.11257361 0.0075073279 1.3557079e-38
0.10689199 -0.11107419 0.013551001 1.9389935e-39
0.10871725 -0.11107419 0.013551001 1.8457189e-39
0.11087799 -0.11182173 0.010537867 2.3059782e-39
0.11236778 -0.11107419 0.013551001 2.5829224e-39
0.11419304 -0.11107419 0.013551001 2.675118e-39
0.115669 -0.11033095 0.01654673 2.7673136e-39
0.11748901 -0.11033095 0.01654673 2.8595093e-39
0.11930901 -0.11033095 0.01654673 2.8595093e-39
0.12112902 -0.11033095 0.01654673 2.675118e-39
0.12294902 -0.11033095 0.01654673 2.5829196e-39
0.12476903 -0.11033095 0.01654673 2.3985283e-39
0.12658903 -0.11033095 0.01654673 2.0297458e-39
-0.12522879 -0.13513215 -0.075433254 2.0926951e-38
-0.1232475 -0.13513215 -0.075433254 2.3509513e-38
-0.12126623 -0.13513215 -0.075433254 2.350952e-38
-0.11969429 -0.13614662 -0.079493523 2.3509524e-38
-0.1177059 -0.13614662 -0.079493523 2.3509527e-38
-0.1153224 -0.13513215 -0.075433254 2.3509527e-38
-0.11296791 -0.13415633 -0.0715276 2.3509168e-38
-0.11099347 -0.13415633 -0.0715276 2.3509527e-38
-0.10874242 -0.13340546 -0.068522334 2.3509527e-38
-0.10641368 -0.13241051 -0.064540148 2.341805e-38
-0.1040905 -0.13139187 -0.060463067 2.3234379e-38
-0.10213546 -0.13139187 -0.060463067 2.3234379e-38
-0.099929854 -0.13065563 -0.057516452 2.341805e-38
-0.097979993 -0.13065563 -0.057516452 2.3509883e-38
-0.095701873 -0.12964968 -0.053490158 2.350988e-38
-0.093517274 -0.12889244 -0.050459381 2.3509883e-38
-0.091579795 -0.12889244 -0.050459381 2.3509883e-38
-0.089339092 -0.12789918 -0.04648399 2.3509527e-38
-0.087408572 -0.12789918 -0.04648399 2.3509886e-38
-0.085190877 -0.12691309 -0.042537209 2.3509886e-38
-0.083047867 -0.12614109 -0.039447423 2.3509883e-38
-0.081129685 -0.12614109 -0.039447423 2.31411e-38
-0.078940511 -0.12513812 -0.03543305 2.2680478e-38
-0.077029377 -0.12513812 -0.03543305 2.3141455e-38
-0.075118229 -0.12513812 -0.03543305 2.3509876e-38
-0.073024526 -0.12440531 -0.032500144 2.350987e-38
-0.071118534 -0.12440531 -0.032500144 2.3509869e-38
-0.069034338 -0.12364738 -0.029466506 2.3326192e-38
-0.06713365 -0.12364738 -0.029466506 2.3509869e-38
-0.065015286 -0.12266256 -0.02552497 2.3509517e-38
-0.062961355 -0.12191428 -0.022530075 2.3509161e-38
-0.061072826 -0.12191428 -0.022530075 2.3509514e-38
-0.059184313 -0.12191428 -0.022530075 2.3509869e-38
-0.057295784 -0.12191428 -0.022530075 2.3509865e-38
-0.05522117 -0.12091358 -0.018524762 2.350986e-38
-0.053339668 -0.12091358 -0.018524762 2.3509859e-38
-0.051458165 -0.12091358 -0.018524762 2.3509859e-38
-0.04957667 -0.12091358 -0.018524762 2.2956324e-38
-0.04729861 -0.11840202 -0.0084725581 2.35095e-38
-0.045434736 -0.11840202 -0.0084725581 2.350987e-38
-0.043462582 -0.11764936 -0.0054601394 2.3509879e-38
-0.041501582 -0.11690097 -0.0024647675 2.3509168e-38
-0.039551631 -0.1161568 0.00051367655 2.3509168e-38
-0.037579104 -0.11514379 0.0045682229 2.3508809e-38
-0.035738096 -0.11514379 0.0045682229 2.3508809e-38
-0.033897087 -0.11514379 0.0045682229 2.3508092e-38
-0.032056078 -0.11514379 0.0045682229 2.3324055e-38
-0.030215068 -0.11514379 0.0045682229 2.323186e-38
-0.028374059 -0.11514379 0.0045682229 2.323186e-38
-0.026473789 -0.11440946 0.0075073279 2.3416251e-38
-0.024637936 -0.11440946 0.0075073279 2.3509168e-38
-0.022701411 -0.11289944 0.013551001 2.3509886e-38
-0.020876152 -0.11289944 0.013551001 2.341805e-38
-0.019011496 -0.11215095 0.01654673 2.3142544e-38
-0.01719149 -0.11215095 0.01654673 2.2958873e-38
-0.015333565 -0.11116849 0.020478968 2.2775202e-38
-0.013520451 -0.11116849 0.020478968 2.20398e-38
-0.011688553 -0.11040358 0.023540381 2.0842351e-38
-0.0098679271 -0.10966937 0.02647901 1.9828927e-38
-0.0080653355 -0.10966937 0.02647901 1.8723302e-38
-0.0062627438 -0.10966937 0.02647901 1.7895351e-38
-0.0044628028 -0.10891335 0.029504899 1.6606065e-38
-0.0026655179 -0.10891335 0.029504899 1.5962502e-38
-0.00088141672 -0.10816176 0.032513145 1.4857599e-38
0.00089224335 -0.10741456 0.035503749 1.3936367e-38
0.0026555546 -0.10667174 0.038476828 1.3476474e-38
0.0044371104 -0.10667174 0.038476828 1.3385721e-38
0.0062186662 -0.10667174 0.038476828 1.3110223e-38
0.0079600168 -0.10590781 0.041534308 1.2558493e-38
0.009690919 -0.10514848 0.04457343 1.2190073e-38
0.011461785 -0.10514848 0.04457343 1.1361757e-38
