# .PCD v0.7 - Point Cloud Data file format
VERSION 0.7
FIELDS x y z rgb
SIZE 4 4 4 4
TYPE F F F F
COUNT 1 1 1 1
WIDTH 939
HEIGHT 1
VIEWPOINT 0 0 0 1 0 0 0
POINTS 939
DATA ascii
0.076028779 -0.1079378 -0.075059012 8.5854236e-39
0.078239061 -0.10887744 -0.079073384 9.7825234e-39
0.080693923 -0.11052449 -0.086109951 1.0703754e-38
0.082934611 -0.11145501 -0.090085343 1.070339e-38
0.085435085 -0.11310686 -0.097142413 1.1163646e-38
0.087625198 -0.11379658 -0.10008903 1.1624624e-38
0.08958023 -0.11379658 -0.10008903 1.1348393e-38
0.091881953 -0.11475091 -0.10416611 1.1163998e-38
0.094189756 -0.115683 -0.10814829 1.0887767e-38
0.096158914 -0.115683 -0.10814829 1.2177059e-38
0.098128073 -0.115683 -0.10814829 9.2249944e-39
0.10009723 -0.115683 -0.10814829 6.3658397e-39
0.10206639 -0.115683 -0.10814829 3.7414669e-43
0.10403555 -0.115683 -0.10814829 5.5354092e-40
-0.035656288 -0.088157266 0.01692377 1.5128002e-38
-0.033906423 -0.088157266 0.01692377 2.1673163e-38
-0.032245271 -0.088880435 0.013857171 2.2591524e-38
-0.030571165 -0.089584544 0.010871455 2.295887e-38
-0.028734779 -0.088880435 0.013857171 2.3142544e-38
-0.026979534 -0.088880435 0.013857171 2.3234379e-38
-0.025289724 -0.089584544 0.010871455 2.3234379e-38
-0.023529245 -0.089584544 0.010871455 2.3234379e-38
-0.022044798 -0.093120396 -0.0041222125 2.3234379e-38
-0.02025803 -0.093120396 -0.0041222125 2.3234379e-38
-0.018471261 -0.093120396 -0.0041222125 2.341805e-38
-0.016763376 -0.094535068 -0.010121062 2.3417691e-38
-0.014966091 -0.094535068 -0.010121062 2.3509527e-38
-0.013168802 -0.094535068 -0.010121062 2.3509527e-38
-0.011395391 -0.09524864 -0.013146952 2.3509168e-38
-0.0095927995 -0.09524864 -0.013146952 2.3509168e-38
-0.0078030881 -0.095941633 -0.01608558 2.3508809e-38
-0.0060033947 -0.096663594 -0.019146994 2.3508809e-38
-0.0041902829 -0.096663594 -0.019146994 2.3509168e-38
-0.0023737233 -0.097590908 -0.023079231 2.341805e-38
-0.00055371597 -0.097590908 -0.023079231 2.341805e-38
0.0012662914 -0.097590908 -0.023079231 2.3509886e-38
0.0030862968 -0.097590908 -0.023079231 2.3509527e-38
0.0049299402 -0.098297372 -0.026074961 2.3509524e-38
0.0070065716 -0.10444455 -0.05214186 2.3509521e-38
0.0088314544 -0.10349102 -0.048098519 2.350952e-38
0.010695328 -0.10349102 -0.048098519 2.3509521e-38
0.012559202 -0.10349102 -0.048098519 2.3508804e-38
0.014423076 -0.10349102 -0.048098519 2.3509886e-38
0.016286951 -0.10349102 -0.048098519 2.341805e-38
0.018150823 -0.10349102 -0.048098519 2.2867037e-38
0.020014698 -0.10349102 -0.048098519 2.2038365e-38
0.021569896 -0.10041572 -0.035057738 2.0657604e-38
0.023410905 -0.10041572 -0.035057738 1.9643817e-38
0.025251914 -0.10041572 -0.035057738 1.8998816e-38
0.026459044 -0.09524864 -0.013146952 1.9736738e-38
0.02865831 -0.098297372 -0.026074961 2.0290262e-38
0.030483572 -0.098297372 -0.026074961 2.0844863e-38
0.032206409 -0.097590908 -0.023079231 2.0846656e-38
0.034026414 -0.097590908 -0.023079231 2.0295285e-38
0.03584642 -0.097590908 -0.023079231 1.9466613e-38
0.037511297 -0.096663594 -0.019146994 1.8822688e-38
0.039979987 -0.10041572 -0.035057738 1.8639017e-38
0.041820996 -0.10041572 -0.035057738 1.5688443e-38
0.043662004 -0.10041572 -0.035057738 1.3845259e-38
0.045691401 -0.10137187 -0.039112285 1.1633286e-38
0.047539517 -0.10137187 -0.039112285 1.0435108e-38
0.049387641 -0.10137187 -0.039112285 9.698269e-39
0.051235758 -0.10137187 -0.039112285 9.514242e-39
0.053403333 -0.10278064 -0.045086101 9.5146078e-39
0.055813953 -0.10513772 -0.055081204 9.9748671e-39
0.057690069 -0.10513772 -0.055081204 9.4198912e-39
0.059746481 -0.10586159 -0.058150724 9.6024846e-39
0.061870262 -0.10680611 -0.062156036 9.4177304e-39
0.063945197 -0.1075124 -0.065150931 8.9567481e-39
0.06583897 -0.1075124 -0.065150931 8.5872425e-39
0.067991897 -0.1084419 -0.069092467 8.3102898e-39
0.069892585 -0.1084419 -0.069092467 8.677985e-39
0.072003365 -0.10915731 -0.072126105 9.0464017e-39
0.074117631 -0.10984896 -0.075059012 9.0449584e-39
0.076028779 -0.10984896 -0.075059012 9.5052093e-39
0.078239061 -0.11079563 -0.079073384 1.0887778e-38
0.080693923 -0.11245503 -0.086109951 1.199376e-38
0.082934611 -0.11339252 -0.090085343 1.2269622e-38
0.08511389 -0.11410724 -0.09311612 1.2822433e-38
0.087384962 -0.11505674 -0.097142413 1.3558916e-38
0.08958023 -0.11575161 -0.10008903 1.3374882e-38
0.091881953 -0.11671309 -0.10416611 1.3283407e-38
0.094189756 -0.11765216 -0.10814829 1.2821703e-38
0.096158914 -0.11765216 -0.10814829 1.3558186e-38
0.098128073 -0.11765216 -0.10814829 9.5004911e-39
0.10009723 -0.11765216 -0.10814829 6.7331775e-39
0.10206639 -0.11765216 -0.10814829 9.8090893e-45
0.10403555 -0.11765216 -0.10814829 3.6842939e-40
-0.035656288 -0.089907125 0.01692377 1.7986067e-38
-0.033906423 -0.089907125 0.01692377 2.2316021e-38
-0.032245271 -0.090635687 0.013857171 2.1763917e-38
-0.030571165 -0.091345012 0.010871455 2.2958873e-38
-0.028734779 -0.090635687 0.013857171 2.3234379e-38
-0.026979534 -0.090635687 0.013857171 2.3234379e-38
-0.025289724 -0.091345012 0.010871455 2.341805e-38
-0.023529245 -0.091345012 0.010871455 2.341805e-38
-0.02182406 -0.092058569 0.007867977 2.341805e-38
-0.020157581 -0.093474448 0.001908347 2.3509527e-38
-0.018381385 -0.093474448 0.001908347 2.3509527e-38
-0.016684493 -0.094907165 -0.0041222125 2.3509527e-38
-0.014931807 -0.095617667 -0.007112816 2.3509168e-38
-0.013139794 -0.095617667 -0.007112816 2.3509168e-38
-0.011371518 -0.096332356 -0.010121062 2.3509168e-38
-0.0095927995 -0.097051233 -0.013146952 2.3509168e-38
-0.0078030881 -0.097749382 -0.01608558 2.3509168e-38
-0.0059953425 -0.097749382 -0.01608558 2.3508809e-38
-0.0041902829 -0.098476708 -0.019146994 2.3509168e-38
-0.0023771692 -0.098476708 -0.019146994 2.3509527e-38
-0.00056405738 -0.098476708 -0.019146994 2.3509883e-38
0.0012490544 -0.098476708 -0.019146994 2.350988e-38
0.0030862968 -0.099410906 -0.023079231 2.3509521e-38
0.0049063042 -0.099410906 -0.023079231 2.3509879e-38
0.0067263106 -0.099410906 -0.023079231 2.350952e-38
0.0088314544 -0.10535492 -0.048098519 2.3509521e-38
0.010695328 -0.10535492 -0.048098519 2.3509527e-38
0.012559202 -0.10535492 -0.048098519 2.3509527e-38
0.014423076 -0.10535492 -0.048098519 2.323402e-38
0.016286951 -0.10535492 -0.048098519 2.2867037e-38
0.018150823 -0.10535492 -0.048098519 2.2499695e-38
0.020014698 -0.10535492 -0.048098519 2.2132353e-38
0.021569896 -0.10225673 -0.035057738 2.0936698e-38
0.023410905 -0.10225673 -0.035057738 1.9647055e-38
0.025251914 -0.10225673 -0.035057738 1.8633636e-38
0.026459044 -0.097051233 -0.013146952 1.6145092e-38
0.028261637 -0.097051233 -0.013146952 1.5684836e-38
0.030159546 -0.097749382 -0.01608558 1.4763243e-38
0.03196729 -0.097749382 -0.01608558 1.3289555e-38
0.033775039 -0.097749382 -0.01608558 1.1539284e-38
0.035698183 -0.098476708 -0.019146994 1.0434018e-38
0.037511297 -0.098476708 -0.019146994 9.973767e-39
0.039609864 -0.10012263 -0.026074961 9.8819343e-39
0.041435122 -0.10012263 -0.026074961 1.1080124e-38
0.043530598 -0.10155846 -0.032118633 1.0895735e-38
0.045691401 -0.10322 -0.039112285 1.0987933e-38
0.047539517 -0.10322 -0.039112285 1.1171968e-38
0.049387641 -0.10322 -0.039112285 1.0895381e-38
0.051235758 -0.10322 -0.039112285 1.0434406e-38
0.053403333 -0.10463922 -0.045086101 1.061808e-38
0.055651613 -0.10631551 -0.05214186 1.1262725e-38
0.057690069 -0.10701384 -0.055081204 1.0892856e-38
0.059566192 -0.10701384 -0.055081204 1.0246398e-38
0.061627984 -0.10774307 -0.058150724 9.9698084e-39
0.063945197 -0.10940616 -0.065150931 1.0614456e-38
0.066091217 -0.11034258 -0.069092467 1.061409e-38
0.067991897 -0.11034258 -0.069092467 1.0152748e-38
0.070097364 -0.11106332 -0.072126105 1.0888868e-38
0.072003365 -0.11106332 -0.072126105 1.2178883e-38
0.074117631 -0.11176009 -0.075059012 1.2270349e-38
0.076320879 -0.1127138 -0.079073384 1.2822799e-38
0.078469299 -0.11344786 -0.08216317 1.429756e-38
0.080693923 -0.11438553 -0.086109951 1.5495379e-38
0.082934611 -0.11533 -0.090085343 1.5587212e-38
0.08511389 -0.11605005 -0.09311612 1.6047468e-38
0.087384962 -0.11700659 -0.097142413 1.6692115e-38
0.08958023 -0.11770664 -0.10008903 1.6415526e-38
0.091881953 -0.11867525 -0.10416611 1.6232214e-38
0.094189756 -0.11962132 -0.10814829 1.5125866e-38
0.096158914 -0.11962132 -0.10814829 1.5216617e-38
0.098128073 -0.11962132 -0.10814829 1.0328807e-38
0.10009723 -0.11962132 -0.10814829 7.5618507e-39
0.10206639 -0.11962132 -0.10814829 5.6051939e-45
0.10403555 -0.11962132 -0.10814829 4.6026209e-40
-0.10421031 -0.092390925 0.013857171 9.8757897e-39
-0.10245507 -0.092390925 0.013857171 1.0152749e-38
-0.09718933 -0.092390925 0.013857171 1.3011917e-38
-0.048980042 -0.09740968 -0.007112816 1.7617706e-38
-0.047188029 -0.09740968 -0.007112816 1.734112e-38
-0.037613086 -0.093105495 0.010871455 1.2358553e-38
-0.035656288 -0.091656998 0.01692377 1.9457245e-38
-0.033906423 -0.091656998 0.01692377 2.2867037e-38
-0.032245271 -0.092390925 0.013857171 2.2958873e-38
-0.030571165 -0.093105495 0.010871455 2.3234379e-38
-0.028734779 -0.092390925 0.013857171 2.341805e-38
-0.026979534 -0.092390925 0.013857171 2.341805e-38
-0.025289724 -0.093105495 0.010871455 2.3509527e-38
-0.023529245 -0.093105495 0.010871455 2.3509527e-38
-0.02182406 -0.093824327 0.007867977 2.314075e-38
-0.020157581 -0.095250636 0.001908347 2.3324778e-38
-0.018381385 -0.095250636 0.001908347 2.3509527e-38
-0.016605189 -0.095250636 0.001908347 2.28638e-38
-0.014863839 -0.095982388 -0.0011491328 2.3509527e-38
-0.013082283 -0.095982388 -0.0011491328 2.3509527e-38
-0.011324186 -0.096693933 -0.0041222125 2.3509527e-38
-0.0095557701 -0.09740968 -0.007112816 2.3509524e-38
-0.007776944 -0.098129645 -0.010121062 2.3509524e-38
-0.0059876144 -0.098853827 -0.013146952 2.3508444e-38
-0.0041875988 -0.099557132 -0.01608558 2.3509521e-38
-0.0023771692 -0.10028981 -0.019146994 2.3509876e-38
-0.00056405738 -0.10028981 -0.019146994 2.3509873e-38
0.0012490544 -0.10028981 -0.019146994 2.3509873e-38
0.0030621663 -0.10028981 -0.019146994 2.2955622e-38
0.004875279 -0.10028981 -0.019146994 2.3509518e-38
0.0066883909 -0.10028981 -0.019146994 2.350988e-38
0.0085015036 -0.10028981 -0.019146994 2.3509527e-38
0.010695328 -0.10721879 -0.048098519 2.3417691e-38
0.012559202 -0.10721879 -0.048098519 2.2958873e-38
0.014423076 -0.10721879 -0.048098519 2.2591531e-38
0.016286951 -0.10721879 -0.048098519 2.1947965e-38
0.018150823 -0.10721879 -0.048098519 2.1673176e-38
0.020014698 -0.10721879 -0.048098519 2.0938133e-38
0.021878572 -0.10721879 -0.048098519 1.992579e-38
0.022928569 -0.099557132 -0.01608558 1.7807117e-38
0.024736315 -0.099557132 -0.01608558 1.5502978e-38
0.026459044 -0.098853827 -0.013146952 1.3936018e-38
0.028261637 -0.098853827 -0.013146952 1.1815519e-38
0.030064227 -0.098853827 -0.013146952 1.0156358e-38
0.03196729 -0.099557132 -0.01608558 9.5117099e-39
0.033775039 -0.099557132 -0.01608558 9.1436504e-39
0.035582781 -0.099557132 -0.01608558 9.696827e-39
0.037511297 -0.10028981 -0.019146994 1.0619146e-38
0.039609864 -0.10194789 -0.026074961 1.0804618e-38
0.041435122 -0.10194789 -0.026074961 1.1541827e-38
0.043530598 -0.10339431 -0.032118633 1.1448555e-38
0.045503013 -0.10409774 -0.035057738 1.1263804e-38
0.047539517 -0.1050681 -0.039112285 1.1170526e-38
0.049387641 -0.1050681 -0.039112285 1.089286e-38
0.051389813 -0.10578094 -0.042090729 1.0707387e-38
0.053403333 -0.10649781 -0.045086101 1.1351318e-38
0.055651613 -0.10818647 -0.05214186 1.2180711e-38
0.05752258 -0.10818647 -0.05214186 1.2458003e-38
0.059566192 -0.10888995 -0.055081204 1.1812266e-38
0.061627984 -0.10962458 -0.058150724 1.1536035e-38
0.063945197 -0.11129995 -0.065150931 1.2180323e-38
0.066091217 -0.11224325 -0.069092467 1.2272154e-38
0.068191357 -0.11296929 -0.072126105 1.2271428e-38
0.070097364 -0.11296929 -0.072126105 1.2915715e-38
0.072003365 -0.11296929 -0.072126105 1.3929141e-38
0.07440269 -0.114632 -0.079073384 1.4020972e-38
0.076320879 -0.114632 -0.079073384 1.3928051e-38
0.078469299 -0.11537148 -0.08216317 1.5033672e-38
0.080693923 -0.11631607 -0.086109951 1.6323687e-38
0.082934611 -0.11726747 -0.090085343 1.6691747e-38
0.08511389 -0.11799283 -0.09311612 1.7336392e-38
0.087384962 -0.11895646 -0.097142413 1.7982118e-38
0.08958023 -0.11966167 -0.10008903 1.7797726e-38
0.091881953 -0.12063743 -0.10416611 1.6231125e-38
0.094189756 -0.12159048 -0.10814829 1.5954538e-38
0.096158914 -0.12159048 -0.10814829 1.5307728e-38
0.098128073 -0.12159048 -0.10814829 1.0973809e-38
0.10009723 -0.12159048 -0.10814829 7.4689334e-39
0.10206639 -0.12159048 -0.10814829 1.8439406e-40
0.10403555 -0.12159048 -0.10814829 2.7550649e-40
-0.10421031 -0.094146177 0.013857171 1.7254669e-38
-0.10245507 -0.094146177 0.013857171 1.5872831e-38
-0.10069982 -0.094146177 0.013857171 1.5411502e-38
-0.098944582 -0.094146177 0.013857171 1.513456e-38
-0.09718933 -0.094146177 0.013857171 1.4489559e-38
-0.095434092 -0.094146177 0.013857171 1.33843e-38
-0.09367884 -0.094146177 0.013857171 1.2371588e-38
-0.091923602 -0.094146177 0.013857171 1.1728379e-38
-0.048980042 -0.099201679 -0.007112816 2.0565051e-38
-0.047188029 -0.099201679 -0.007112816 1.8997378e-38
-0.045024313 -0.09702684 0.001908347 1.8905182e-38
-0.043128222 -0.09629415 0.0049474686 1.9458712e-38
-0.041357361 -0.09629415 0.0049474686 1.9826769e-38
-0.039586492 -0.09629415 0.0049474686 2.0932752e-38
-0.037613086 -0.094865978 0.010871455 1.7889568e-38
-0.035656288 -0.093406871 0.01692377 2.1484833e-38
-0.033906423 -0.093406871 0.01692377 2.2775202e-38
-0.032245271 -0.094146177 0.013857171 2.2313147e-38
-0.030571165 -0.094865978 0.010871455 2.2864879e-38
-0.028734779 -0.094146177 0.013857171 2.2956715e-38
-0.026979534 -0.094146177 0.013857171 2.3233302e-38
-0.025289724 -0.094865978 0.010871455 2.3509886e-38
-0.023529245 -0.094865978 0.010871455 2.3509527e-38
-0.02182406 -0.09559007 0.007867977 2.3509883e-38
-0.020106958 -0.09629415 0.0049474686 2.3509521e-38
-0.018336093 -0.09629415 0.0049474686 2.3509521e-38
-0.016605189 -0.09702684 0.001908347 2.3509879e-38
-0.014828993 -0.09702684 0.001908347 2.3509879e-38
-0.013052801 -0.09702684 0.001908347 2.3232932e-38
-0.011300728 -0.097763941 -0.0011491328 2.2864505e-38
-0.0095374156 -0.098480701 -0.0041222125 2.3509874e-38
-0.0077637564 -0.099201679 -0.007112816 2.3418039e-38
-0.0059876144 -0.10065642 -0.013146952 2.3233648e-38
-0.0041850228 -0.10065642 -0.013146952 2.3509876e-38
-0.0023798533 -0.10136487 -0.01608558 2.3326199e-38
-0.00057210959 -0.10136487 -0.01608558 2.2865221e-38
0.001235636 -0.10136487 -0.01608558 2.3509876e-38
0.0030621663 -0.10210292 -0.019146994 2.3509879e-38
0.004875279 -0.10210292 -0.019146994 2.3418047e-38
0.0066883909 -0.10210292 -0.019146994 2.2865961e-38
0.010695328 -0.10908265 -0.048098519 2.2683366e-38
0.012559202 -0.10908265 -0.048098519 2.2499695e-38
0.014423076 -0.10908265 -0.048098519 2.0013321e-38
0.016286951 -0.10908265 -0.048098519 1.6234776e-38
0.018232351 -0.11005743 -0.05214186 1.2365091e-38
0.020103315 -0.11005743 -0.05214186 7.2035892e-39
0.020979645 -0.099926919 -0.010121062 5.2692872e-39
0.022776932 -0.099926919 -0.010121062 3.3346251e-39
0.024574218 -0.099926919 -0.010121062 2.6896186e-39
0.026371505 -0.099926919 -0.010121062 5.6402347e-39
0.028168792 -0.099926919 -0.010121062 6.1934071e-39
0.030064227 -0.10065642 -0.013146952 7.3919475e-39
0.03196729 -0.10136487 -0.01608558 9.0511059e-39
0.033775039 -0.10136487 -0.01608558 1.0249649e-38
0.035582781 -0.10136487 -0.01608558 1.0710624e-38
0.037511297 -0.10210292 -0.019146994 1.0987211e-38
0.039486431 -0.10305093 -0.023079231 1.1540385e-38
0.041306436 -0.10305093 -0.023079231 1.2646733e-38
0.043395102 -0.10449956 -0.029088095 1.2738207e-38
0.045503013 -0.10593875 -0.035057738 1.2921876e-38
0.047344021 -0.10593875 -0.035057738 1.3197377e-38
0.049387641 -0.10691623 -0.039112285 1.3195215e-38
0.051389813 -0.10763429 -0.042090729 1.319341e-38
0.053403333 -0.1083564 -0.045086101 1.3745142e-38
0.055651613 -0.11005743 -0.05214186 1.4390144e-38
0.05752258 -0.11005743 -0.05214186 1.6050736e-38
0.059566192 -0.11076607 -0.055081204 1.531424e-38
0.061627984 -0.11150609 -0.058150724 1.531352e-38
0.063945197 -0.11319371 -0.065150931 1.586705e-38
0.066091217 -0.11414395 -0.069092467 1.6327306e-38
0.068191357 -0.1148753 -0.072126105 1.6510973e-38
0.070097364 -0.1148753 -0.072126105 1.7154898e-38
0.07220649 -0.11558239 -0.075059012 1.7984295e-38
0.074117631 -0.11558239 -0.075059012 1.7430757e-38
0.076320879 -0.11655019 -0.079073384 1.7522227e-38
0.078469299 -0.11729507 -0.08216317 1.8167232e-38
0.080693923 -0.11824657 -0.086109951 1.8811878e-38
0.082934611 -0.11920498 -0.090085343 1.9180295e-38
0.085435085 -0.12090631 -0.097142413 1.991714e-38
0.087625198 -0.12161671 -0.10008903 2.0008612e-38
0.08958023 -0.12161671 -0.10008903 1.8534205e-38
0.091881953 -0.12259962 -0.10416611 1.6967244e-38
0.094189756 -0.12355967 -0.10814829 1.6414073e-38
0.096158914 -0.12355967 -0.10814829 1.5030417e-38
0.098128073 -0.12355967 -0.10814829 1.069578e-38
0.10009723 -0.12355967 -0.10814829 7.1916221e-39
0.10206639 -0.12355967 -0.10814829 2.7586802e-40
0.10403555 -0.12355967 -0.10814829 6.4393028e-40
-0.10421031 -0.095901415 0.013857171 1.5690954e-38
-0.10245507 -0.095901415 0.013857171 1.5507283e-38
-0.10069982 -0.095901415 0.013857171 1.52307e-38
-0.098944582 -0.095901415 0.013857171 1.5230342e-38
-0.097469397 -0.096626461 0.010871455 1.4953759e-38
-0.095434092 -0.095901415 0.013857171 1.4401311e-38
-0.09367884 -0.095901415 0.013857171 1.3481506e-38
-0.091923602 -0.095901415 0.013857171 1.2746099e-38
-0.045024313 -0.098803028 0.001908347 2.1764294e-38
-0.043128222 -0.098065019 0.0049474686 2.1303323e-38
-0.041357361 -0.098065019 0.0049474686 1.9090632e-38
-0.039586492 -0.098065019 0.0049474686 1.8536379e-38
-0.03771577 -0.097355813 0.007867977 1.5862343e-38
-0.035656288 -0.095156729 0.01692377 1.8904794e-38
-0.033906423 -0.095156729 0.01692377 2.1025294e-38
-0.032331645 -0.096626461 0.010871455 2.2867037e-38
-0.030571165 -0.096626461 0.010871455 2.3418047e-38
-0.028734779 -0.095901415 0.013857171 2.350988e-38
-0.026979534 -0.095901415 0.013857171 2.3509879e-38
-0.025289724 -0.096626461 0.010871455 2.3509879e-38
-0.023529245 -0.096626461 0.010871455 2.3509874e-38
-0.02182406 -0.097355813 0.007867977 2.3417676e-38
-0.020106958 -0.098065019 0.0049474686 2.3048891e-38
-0.018336093 -0.098065019 0.0049474686 2.2772304e-38
-0.016565224 -0.098065019 0.0049474686 2.221913e-38
-0.014828993 -0.098803028 0.001908347 2.2773023e-38
-0.013023492 -0.098065019 0.0049474686 2.2773741e-38
-0.011252625 -0.098065019 0.0049474686 2.3050328e-38
-0.0095004085 -0.098803028 0.001908347 2.3234364e-38
-0.0077376161 -0.099545494 -0.0011491328 2.3142528e-38
-0.0059796553 -0.10172421 -0.010121062 2.3142528e-38
-0.0041823704 -0.10172421 -0.010121062 2.3142531e-38
-0.0023798533 -0.10317262 -0.01608558 2.3142537e-38
-0.00057983771 -0.10245901 -0.013146952 2.2682636e-38
0.0012227539 -0.10245901 -0.013146952 2.3050707e-38
0.0030253464 -0.10245901 -0.013146952 2.2958873e-38
0.004827939 -0.10245901 -0.013146952 2.2775202e-38
0.0063701207 -0.095901415 0.013857171 2.2591531e-38
0.010695328 -0.11094652 -0.048098519 2.1856847e-38
0.012559202 -0.11094652 -0.048098519 2.0844145e-38
0.014423076 -0.11094652 -0.048098519 1.6881587e-38
0.015310373 -0.098065019 0.0049474686 1.2918629e-38
0.01708124 -0.098065019 0.0049474686 8.4024967e-39
0.018852107 -0.098065019 0.0049474686 3.8867199e-39
0.020622972 -0.098065019 0.0049474686 4.1647543e-39
0.022471104 -0.098803028 0.001908347 3.1513269e-39
0.024492465 -0.10099369 -0.007112816 4.4424314e-39
0.026371505 -0.10172421 -0.010121062 5.9172056e-39
0.028168792 -0.10172421 -0.010121062 7.6685596e-39
0.030064227 -0.10245901 -0.013146952 8.7741813e-39
0.031866819 -0.10245901 -0.013146952 1.0063474e-38
0.033775039 -0.10317262 -0.01608558 1.1814461e-38
0.035582781 -0.10317262 -0.01608558 1.2274713e-38
0.037390523 -0.10317262 -0.01608558 1.2736046e-38
0.039486431 -0.10487093 -0.023079231 1.439592e-38
0.041306436 -0.10487093 -0.023079231 1.3012982e-38
0.043260388 -0.10559841 -0.026074961 1.3289203e-38
0.045503013 -0.10777976 -0.035057738 1.3933848e-38
0.047344021 -0.10777976 -0.035057738 1.4669605e-38
0.04918503 -0.10777976 -0.035057738 1.5036579e-38
0.051389813 -0.10948761 -0.042090729 1.5311359e-38
0.053403333 -0.11021499 -0.045086101 1.5862727e-38
0.055651613 -0.11192839 -0.05214186 1.6415177e-38
0.05752258 -0.11192839 -0.05214186 1.7247096e-38
0.059566192 -0.11264218 -0.055081204 1.651061e-38
0.061627984 -0.11338757 -0.058150724 1.6510607e-38
0.063945197 -0.11508749 -0.065150931 1.743184e-38
0.06583897 -0.11508749 -0.065150931 1.8168684e-38
0.068191357 -0.11678131 -0.072126105 1.8444909e-38
0.070097364 -0.11678131 -0.072126105 1.8721849e-38
0.072003365 -0.11678131 -0.072126105 1.9458332e-38
0.074117631 -0.11749353 -0.075059012 2.0011142e-38
0.076320879 -0.11846836 -0.079073384 2.0010419e-38
0.078469299 -0.11921866 -0.08216317 1.9733468e-38
0.080693923 -0.12017711 -0.086109951 1.9179931e-38
0.082934611 -0.12114246 -0.090085343 1.9639827e-38
0.08511389 -0.12187846 -0.09311612 2.0930563e-38
0.087625198 -0.12357174 -0.10008903 2.0284834e-38
0.08958023 -0.12357174 -0.10008903 1.7795552e-38
0.091881953 -0.1245618 -0.10416611 1.7057996e-38
0.094189756 -0.12552883 -0.10814829 1.6504824e-38
0.096158914 -0.12552883 -0.10814829 1.5121528e-38
0.098128073 -0.12552883 -0.10814829 1.0695056e-38
0.099730678 -0.1245618 -0.10416611 7.0990663e-39
0.10169285 -0.1245618 -0.10416611 2.7586802e-40
0.10365503 -0.1245618 -0.10416611 7.3612591e-40
-0.10421031 -0.097656667 0.013857171 1.0714206e-38
-0.10245507 -0.097656667 0.013857171 1.2190775e-38
-0.10069982 -0.097656667 0.013857171 1.274323e-38
-0.098944582 -0.097656667 0.013857171 1.3848858e-38
-0.09718933 -0.097656667 0.013857171 1.5138506e-38
-0.094880275 -0.096185118 0.019873545 1.6061525e-38
-0.093135588 -0.096185118 0.019873545 1.6156947e-38
-0.091122605 -0.095444039 0.022903427 1.597507e-38
-0.089383222 -0.095444039 0.022903427 1.5792117e-38
-0.087643839 -0.095444039 0.022903427 1.5884311e-38
-0.086402468 -0.096906602 0.01692377 1.7172519e-38
-0.084652595 -0.096906602 0.01692377 1.7263996e-38
-0.04527279 -0.10205424 -0.0041222125 2.2040518e-38
-0.043248117 -0.10057923 0.001908347 2.2224189e-38
-0.041471921 -0.10057923 0.001908347 2.1948682e-38
-0.039586492 -0.099835888 0.0049474686 2.2224189e-38
-0.03771577 -0.099121556 0.007867977 2.1948682e-38
-0.035755754 -0.097656667 0.013857171 2.2316024e-38
-0.034000516 -0.097656667 0.013857171 2.148807e-38
-0.032331645 -0.098386943 0.010871455 2.2131994e-38
-0.030571165 -0.098386943 0.010871455 2.3142539e-38
-0.028734779 -0.097656667 0.013857171 2.3509879e-38
-0.026979534 -0.097656667 0.013857171 2.3418039e-38
-0.025289724 -0.098386943 0.010871455 2.3049256e-38
-0.023529245 -0.098386943 0.010871455 2.3049256e-38
-0.02182406 -0.099121556 0.007867977 2.3418036e-38
-0.020106958 -0.099835888 0.0049474686 2.3509873e-38
-0.018336093 -0.099835888 0.0049474686 2.3234364e-38
-0.016565224 -0.099835888 0.0049474686 2.2312407e-38
-0.014794359 -0.099835888 0.0049474686 2.3234369e-38
-0.013023492 -0.099835888 0.0049474686 2.2958863e-38
-0.011252625 -0.099835888 0.0049474686 2.286703e-38
-0.0095004085 -0.10057923 0.001908347 2.2775196e-38
-0.0077376161 -0.10132705 -0.0011491328 2.2591528e-38
-0.0059796553 -0.10352151 -0.010121062 2.2499692e-38
-0.0041823704 -0.10352151 -0.010121062 2.2499695e-38
-0.0023824293 -0.10426159 -0.013146952 2.2499695e-38
-0.00057983771 -0.10426159 -0.013146952 2.2499695e-38
0.0012227539 -0.10426159 -0.013146952 2.2499695e-38
0.0030253464 -0.10426159 -0.013146952 2.2224189e-38
0.0081253657 -0.097656667 0.013857171 1.651243e-38
0.0099198725 -0.098386943 0.010871455 1.0244218e-38
0.011680353 -0.098386943 0.010871455 7.6638302e-39
0.013440832 -0.098386943 0.010871455 4.0692909e-39
0.015256606 -0.099121556 0.007867977 3.1484248e-39
0.017022353 -0.099121556 0.007867977 2.0428059e-39
0.018788099 -0.099121556 0.007867977 1.6747506e-39
0.020553844 -0.099121556 0.007867977 5.1796293e-39
0.022319591 -0.099121556 0.007867977 4.8104923e-39
0.02441119 -0.10205424 -0.0041222125 6.7473222e-39
0.026284477 -0.10278571 -0.007112816 6.93064e-39
0.02807649 -0.10278571 -0.007112816 9.8801785e-39
0.029966081 -0.10352151 -0.010121062 1.1630805e-38
0.031866819 -0.10426159 -0.013146952 1.3196319e-38
0.033775039 -0.10498036 -0.01608558 1.5315361e-38
0.035582781 -0.10498036 -0.01608558 1.522208e-38
0.037390523 -0.10498036 -0.01608558 1.4484868e-38
0.039486431 -0.10669093 -0.023079231 1.596035e-38
0.041306436 -0.10669093 -0.023079231 1.6697909e-38
0.043260388 -0.10742365 -0.026074961 1.7067043e-38
0.045503013 -0.10962076 -0.035057738 1.7712047e-38
0.047344021 -0.10962076 -0.035057738 1.8632197e-38
0.04918503 -0.10962076 -0.035057738 1.9459788e-38
0.051235758 -0.11061247 -0.039112285 2.0103707e-38
0.053403333 -0.11207359 -0.045086101 2.0930943e-38
0.055651613 -0.11379938 -0.05214186 2.1207527e-38
0.05752258 -0.11379938 -0.05214186 2.0287377e-38
0.05939354 -0.11379938 -0.05214186 1.9551254e-38
0.061442308 -0.1145183 -0.055081204 1.9734922e-38
0.063758783 -0.11624874 -0.062156036 2.0380291e-38
0.06583897 -0.11698125 -0.065150931 2.1025298e-38
0.068191357 -0.11868732 -0.072126105 2.1209688e-38
0.070097364 -0.11868732 -0.072126105 2.1485549e-38
0.072003365 -0.11868732 -0.072126105 2.1853968e-38
0.074117631 -0.11940466 -0.075059012 2.0931292e-38
0.076320879 -0.12038656 -0.079073384 2.0378474e-38
0.078239061 -0.12038656 -0.079073384 1.9178849e-38
0.08039289 -0.12114228 -0.08216317 1.7703356e-38
0.082934611 -0.12307997 -0.090085343 1.797994e-38
0.08511389 -0.12382124 -0.09311612 2.0099361e-38
0.087384962 -0.12480606 -0.097142413 1.9454348e-38
0.08958023 -0.12552677 -0.10008903 1.6411535e-38
0.091881953 -0.12652399 -0.10416611 1.6043479e-38
0.093844138 -0.12652399 -0.10416611 1.585909e-38
0.095806308 -0.12652399 -0.10416611 1.5212642e-38
0.098128073 -0.12749799 -0.10814829 1.124787e-38
0.099730678 -0.12652399 -0.10416611 7.8359097e-39
0.10169285 -0.12652399 -0.10416611 6.4465054e-40
0.10365503 -0.12652399 -0.10416611 6.4393028e-40
-0.10421031 -0.099411905 0.013857171 1.0438711e-38
-0.10245507 -0.099411905 0.013857171 1.1085159e-38
-0.10040141 -0.098656476 0.01692377 1.1176629e-38
-0.098651536 -0.098656476 0.01692377 1.2096787e-38
-0.096624978 -0.09792982 0.019873545 1.3018031e-38
-0.094601385 -0.097183421 0.022903427 1.3848502e-38
-0.092861988 -0.097183421 0.022903427 1.4220859e-38
-0.090855964 -0.096441552 0.025914952 1.4684351e-38
-0.089121856 -0.096441552 0.025914952 1.5146757e-38
-0.087643839 -0.097183421 0.022903427 1.5699922e-38
-0.085904457 -0.097183421 0.022903427 1.6618995e-38
-0.083919547 -0.096441552 0.025914952 1.6710472e-38
-0.08218544 -0.096441552 0.025914952 1.6893066e-38
-0.080451332 -0.096441552 0.025914952 1.7260767e-38
-0.078717239 -0.096441552 0.025914952 1.7719945e-38
-0.076388963 -0.094477281 0.033888683 1.8087287e-38
-0.074668832 -0.094477281 0.033888683 1.8453552e-38
-0.072948717 -0.094477281 0.033888683 1.8636865e-38
-0.071228586 -0.094477281 0.033888683 1.6885533e-38
-0.069508471 -0.094477281 0.033888683 1.3474313e-38
-0.047059558 -0.10384102 -0.0041222125 2.1489505e-38
-0.04527279 -0.10384102 -0.0041222125 2.1856847e-38
-0.043368734 -0.1031086 -0.0011491328 2.1948682e-38
-0.041471921 -0.10235542 0.001908347 2.1213639e-38
-0.039481521 -0.1008873 0.007867977 2.1673176e-38
-0.03771577 -0.1008873 0.007867977 2.1856847e-38
-0.035755754 -0.099411905 0.013857171 2.1948682e-38
-0.034000516 -0.099411905 0.013857171 2.2040518e-38
-0.032331645 -0.10014741 0.010871455 2.2316024e-38
-0.030571165 -0.10014741 0.010871455 2.2958873e-38
-0.028810686 -0.10014741 0.010871455 2.3418045e-38
-0.027050203 -0.10014741 0.010871455 2.3418045e-38
-0.025289724 -0.10014741 0.010871455 2.3418045e-38
-0.023529245 -0.10014741 0.010871455 2.3418045e-38
-0.021877823 -0.10160676 0.0049474686 2.3234376e-38
-0.020058313 -0.1008873 0.007867977 2.3234376e-38
-0.018292567 -0.1008873 0.007867977 2.3142544e-38
-0.01652682 -0.1008873 0.007867977 2.2867037e-38
-0.014794359 -0.10160676 0.0049474686 2.2775202e-38
-0.013023492 -0.10160676 0.0049474686 2.2499695e-38
-0.011276605 -0.10235542 0.001908347 2.1580623e-38
-0.0095004085 -0.10235542 0.001908347 2.1673176e-38
-0.0077242143 -0.10235542 0.001908347 2.158134e-38
-0.0059480183 -0.10235542 0.001908347 2.1305834e-38
-0.0041850228 -0.10606419 -0.013146952 2.158134e-38
-0.0023824293 -0.10606419 -0.013146952 2.158134e-38
-0.00057983771 -0.10606419 -0.013146952 2.1673176e-38
0.0012227539 -0.10606419 -0.013146952 2.1305834e-38
0.0030253464 -0.10606419 -0.013146952 2.0662268e-38
0.0045674071 -0.09792982 0.019873545 1.8081906e-38
0.006312103 -0.09792982 0.019873545 1.5962152e-38
0.0081253657 -0.099411905 0.013857171 1.2552003e-38
0.0098806107 -0.099411905 0.013857171 5.5465817e-39
0.011635856 -0.099411905 0.013857171 5.8235344e-39
0.0133911 -0.099411905 0.013857171 2.9661971e-39
0.015201313 -0.10014741 0.010871455 3.2424281e-39
0.017022353 -0.1008873 0.007867977 3.0587571e-39
0.018788099 -0.1008873 0.007867977 2.9654867e-39
0.020553844 -0.1008873 0.007867977 6.1001381e-39
0.022319591 -0.1008873 0.007867977 5.0859862e-39
0.024330391 -0.1031086 -0.0011491328 6.8377059e-39
0.026197959 -0.10384102 -0.0041222125 8.4961511e-39
0.02807649 -0.10457774 -0.007112816 1.1261654e-38
0.029966081 -0.1053188 -0.010121062 1.2918643e-38
0.031866819 -0.10606419 -0.013146952 1.4299766e-38
0.033669412 -0.10606419 -0.013146952 1.6787233e-38
0.035582781 -0.10678811 -0.01608558 1.6693945e-38
0.037390523 -0.10678811 -0.01608558 1.5955654e-38
0.039486431 -0.10851096 -0.023079231 1.6970157e-38
0.041306436 -0.10851096 -0.023079231 1.8538559e-38
0.043260388 -0.10924892 -0.026074961 1.8723665e-38
0.045503013 -0.11146177 -0.035057738 1.9092082e-38
0.047344021 -0.11146177 -0.035057738 1.946014e-38
0.04918503 -0.11146177 -0.035057738 2.028845e-38
0.051235758 -0.11246057 -0.039112285 2.1116403e-38
0.053564429 -0.11467429 -0.048098519 2.1943999e-38
0.055428304 -0.11467429 -0.048098519 2.2220586e-38
0.05752258 -0.11567034 -0.05214186 2.120788e-38
0.05939354 -0.11567034 -0.05214186 2.0655788e-38
0.061264507 -0.11567034 -0.05214186 2.0655069e-38
0.063509479 -0.11715056 -0.058150724 2.0931656e-38
0.065647304 -0.11813726 -0.062156036 2.1116403e-38
0.067991897 -0.119846 -0.069092467 2.1207879e-38
0.070097364 -0.12059332 -0.072126105 2.1298995e-38
0.072003365 -0.12059332 -0.072126105 2.1391547e-38
0.074117631 -0.12131582 -0.075059012 2.1390828e-38
0.076028779 -0.12131582 -0.075059012 2.0745456e-38
0.078239061 -0.12230472 -0.079073384 1.9638388e-38
0.08039289 -0.12306587 -0.08216317 1.807106e-38
0.082624443 -0.12403814 -0.086109951 1.8255448e-38
0.08511389 -0.12576406 -0.09311612 1.9914609e-38
0.087384962 -0.12675591 -0.097142413 1.926924e-38
0.08958023 -0.1274818 -0.10008903 1.631898e-38
0.091881953 -0.12848614 -0.10416611 1.5397389e-38
0.093844138 -0.12848614 -0.10416611 1.558178e-38
0.095806308 -0.12848614 -0.10416611 1.5212998e-38
0.098128073 -0.12946714 -0.10814829 1.1616649e-38
0.099730678 -0.12848614 -0.10416611 8.4812819e-39
0.10169285 -0.12848614 -0.10416611 1.3822184e-39
0.10365503 -0.12848614 -0.10416611 1.3811394e-39
-0.10421031 -0.10116716 0.013857171 1.0347607e-38
-0.10215128 -0.10040633 0.01692377 1.0071019e-38
-0.10040141 -0.10040633 0.01692377 9.6085985e-39
-0.098080151 -0.098922804 0.022903427 1.0159977e-38
-0.096340768 -0.098922804 0.022903427 1.0803913e-38
-0.094324164 -0.09817566 0.025914952 1.0989375e-38
-0.092590056 -0.09817566 0.025914952 1.0900391e-38
-0.090855964 -0.09817566 0.025914952 1.0902546e-38
-0.089121856 -0.09817566 0.025914952 1.0996561e-38
-0.087387748 -0.09817566 0.025914952 1.1273509e-38
-0.085484616 -0.097672105 0.02794461 1.1364254e-38
-0.08375407 -0.097672105 0.02794461 1.1730875e-38
-0.082023524 -0.097672105 0.02794461 1.2374805e-38
-0.079829209 -0.096197397 0.033888683 1.3755582e-38
-0.078109078 -0.096197397 0.033888683 1.5596607e-38
-0.076388963 -0.096197397 0.033888683 1.743834e-38
-0.074668832 -0.096197397 0.033888683 1.9372266e-38
-0.072948717 -0.096197397 0.033888683 2.0570432e-38
-0.071228586 -0.096197397 0.033888683 2.1213998e-38
-0.069508471 -0.096197397 0.033888683 2.1030327e-38
-0.06778834 -0.096197397 0.033888683 2.0938492e-38
-0.065686345 -0.094716981 0.039855763 1.983539e-38
-0.063976683 -0.094716981 0.039855763 2.0020137e-38
-0.060260326 -0.093462333 0.04491286 1.9101782e-38
-0.058559529 -0.093462333 0.04491286 2.0203808e-38
-0.056694582 -0.092724949 0.047885045 2.1304399e-38
-0.054836117 -0.091969252 0.050931022 2.2038365e-38
-0.053145871 -0.091969252 0.050931022 2.1393723e-38
-0.049765386 -0.091969252 0.050931022 1.909028e-38
-0.048075147 -0.091969252 0.050931022 1.9090279e-38
-0.046384901 -0.091969252 0.050931022 1.9459777e-38
-0.047059558 -0.10562779 -0.0041222125 1.9736361e-38
-0.04527279 -0.10562779 -0.0041222125 1.8722565e-38
-0.043368734 -0.10489015 -0.0011491328 2.0013303e-38
-0.041357361 -0.10337763 0.0049474686 2.0474281e-38
-0.039481521 -0.10265306 0.007867977 2.0843063e-38
-0.037613086 -0.10190789 0.010871455 2.1211127e-38
-0.035852604 -0.10190789 0.010871455 2.1579905e-38
-0.034092128 -0.10190789 0.010871455 2.1947965e-38
-0.032418534 -0.10265306 0.007867977 2.2591531e-38
-0.030652789 -0.10265306 0.007867977 2.2683007e-38
-0.028887043 -0.10265306 0.007867977 2.2774125e-38
-0.027121296 -0.10265306 0.007867977 2.2958514e-38
-0.025289724 -0.10190789 0.010871455 2.3142544e-38
-0.023529245 -0.10190789 0.010871455 2.3142544e-38
-0.021877823 -0.10337763 0.0049474686 2.2774843e-38
-0.020058313 -0.10265306 0.007867977 2.2498978e-38
-0.018292567 -0.10265306 0.007867977 2.2407142e-38
-0.01652682 -0.10265306 0.007867977 2.2039441e-38
-0.014761074 -0.10265306 0.007867977 2.2224189e-38
-0.012995329 -0.10265306 0.007867977 2.1673176e-38
-0.010889815 -0.091969252 0.050931022 2.1121445e-38
-0.0091995727 -0.091969252 0.050931022 2.1122163e-38
-0.0075093303 -0.091969252 0.050931022 1.9187519e-38
-0.0041411221 -0.095443189 0.036928698 1.3195917e-38
-0.002416674 -0.09817566 0.025914952 1.2089575e-38
-0.00068257004 -0.09817566 0.025914952 1.1721154e-38
0.0010515321 -0.09817566 0.025914952 1.0615532e-38
0.0045674071 -0.099674508 0.019873545 9.2347699e-39
0.006312103 -0.099674508 0.019873545 6.7469312e-39
0.0080567989 -0.099674508 0.019873545 6.5639847e-39
0.0098014958 -0.099674508 0.019873545 3.9828714e-39
0.011590153 -0.10040633 0.01692377 3.6137329e-39
0.013340021 -0.10040633 0.01692377 2.7836121e-39
0.015146345 -0.10116716 0.013857171 4.0736321e-39
0.016961792 -0.10190789 0.010871455 5.1792566e-39
0.018722272 -0.10190789 0.010871455 5.1778132e-39
0.020482752 -0.10190789 0.010871455 8.3113829e-39
0.022319591 -0.10265306 0.007867977 9.5088442e-39
0.0242473 -0.10413162 0.001908347 1.227507e-38
0.026197959 -0.10562779 -0.0041222125 1.3750198e-38
0.027984729 -0.10562779 -0.0041222125 1.5777409e-38
0.0298685 -0.10636975 -0.007112816 1.6881587e-38
0.031763367 -0.10711606 -0.010121062 1.826127e-38
0.033669412 -0.10786678 -0.013146952 2.0563616e-38
0.035582781 -0.10859586 -0.01608558 2.1392288e-38
0.037390523 -0.10859586 -0.01608558 2.1391929e-38
0.03932441 -0.10935538 -0.019146994 2.2129842e-38
0.041306436 -0.11033095 -0.023079231 2.1670306e-38
0.043260388 -0.11107419 -0.026074961 2.1487711e-38
0.045503013 -0.11330278 -0.035057738 2.1395517e-38
0.047344021 -0.11330278 -0.035057738 2.1394798e-38
0.04918503 -0.11330278 -0.035057738 2.1854331e-38
0.051235758 -0.1143087 -0.039112285 2.2682286e-38
0.053564429 -0.11653815 -0.048098519 2.3325847e-38
0.055428304 -0.11653815 -0.048098519 2.3325847e-38
0.057292178 -0.11653815 -0.048098519 2.3050347e-38
0.05939354 -0.1175413 -0.05214186 2.2774481e-38
0.061264507 -0.1175413 -0.05214186 2.259009e-38
0.063318424 -0.11827053 -0.055081204 2.2313503e-38
0.065647304 -0.12002577 -0.062156036 2.2220589e-38
0.067732744 -0.1207688 -0.065150931 2.1944002e-38
0.070097364 -0.1224993 -0.072126105 2.1851803e-38
0.072003365 -0.1224993 -0.072126105 2.2035474e-38
0.074117631 -0.12322696 -0.075059012 2.1574496e-38
0.076028779 -0.12322696 -0.075059012 2.129719e-38
0.078239061 -0.12422292 -0.079073384 2.0928408e-38
0.08039289 -0.12498946 -0.08216317 2.0283036e-38
0.082624443 -0.12596865 -0.086109951 1.9914253e-38
0.08511389 -0.12770687 -0.09311612 2.0283036e-38
0.087384962 -0.12870578 -0.097142413 1.9452915e-38
0.08958023 -0.12943684 -0.10008903 1.724022e-38
0.091881953 -0.13044833 -0.10416611 1.5673257e-38
0.094189756 -0.1314363 -0.10814829 1.558178e-38
0.096158914 -0.1314363 -0.10814829 1.5304475e-38
0.098128073 -0.1314363 -0.10814829 1.1708845e-38
0.099730678 -0.13044833 -0.10416611 8.8500644e-39
0.10169285 -0.13044833 -0.10416611 2.2119791e-39
0.10365503 -0.13044833 -0.10416611 2.5796826e-39
-0.10215128 -0.10215621 0.01692377 1.0531293e-38
-0.098080151 -0.10066219 0.022903427 1.0896126e-38
-0.096058272 -0.099909768 0.025914952 1.1631538e-38
-0.094324164 -0.099909768 0.025914952 1.1632973e-38
-0.092590056 -0.099909768 0.025914952 1.1266325e-38
-0.090855964 -0.099909768 0.025914952 1.0624192e-38
-0.088945709 -0.099402651 0.02794461 1.0256511e-38
-0.087215163 -0.099402651 0.02794461 1.0073202e-38
-0.085484616 -0.099402651 0.02794461 1.1638354e-38
-0.083511032 -0.098657846 0.030925617 1.1637627e-38
-0.081549324 -0.097917527 0.033888683 1.2096083e-38
-0.079829209 -0.097917527 0.033888683 1.2831843e-38
-0.078109078 -0.097917527 0.033888683 1.3565804e-38
-0.076388963 -0.097917527 0.033888683 1.4209367e-38
-0.074447624 -0.09715797 0.036928698 1.5313907e-38
-0.072732843 -0.09715797 0.036928698 1.6418811e-38
-0.071018048 -0.09715797 0.036928698 1.8446736e-38
-0.069303252 -0.09715797 0.036928698 2.0383533e-38
-0.067588456 -0.09715797 0.036928698 2.1305834e-38
-0.065686345 -0.096426651 0.039855763 2.1030327e-38
-0.063976683 -0.096426651 0.039855763 2.0662985e-38
-0.061961122 -0.095163137 0.04491286 1.9928301e-38
-0.060260326 -0.095163137 0.04491286 1.7994016e-38
-0.058390163 -0.094420537 0.047885045 1.7714922e-38
-0.056694582 -0.094420537 0.047885045 1.8997391e-38
-0.054836117 -0.09365949 0.050931022 2.1759271e-38
-0.053145871 -0.09365949 0.050931022 2.286632e-38
-0.051455624 -0.09365949 0.050931022 2.286632e-38
-0.049672402 -0.093177676 0.05285947 2.1483765e-38
-0.047985546 -0.093177676 0.05285947 1.9916804e-38
-0.046298675 -0.093177676 0.05285947 1.8994843e-38
-0.044611819 -0.093177676 0.05285947 1.8626417e-38
-0.042591713 -0.09115693 0.060947284 1.9178869e-38
-0.043128222 -0.10514848 0.0049474686 1.9824595e-38
-0.041357361 -0.10514848 0.0049474686 2.037669e-38
-0.039481521 -0.1044188 0.007867977 2.0192299e-38
-0.037613086 -0.10366838 0.010871455 2.0560363e-38
-0.035852604 -0.10366838 0.010871455 2.1297929e-38
-0.034092128 -0.10366838 0.010871455 2.2218806e-38
-0.032503024 -0.10514848 0.0049474686 2.2035494e-38
-0.03073216 -0.10514848 0.0049474686 2.3142185e-38
-0.028961292 -0.10514848 0.0049474686 2.2774484e-38
-0.027262362 -0.10590781 0.001908347 2.2590096e-38
-0.025486166 -0.10590781 0.001908347 2.2958514e-38
-0.021031266 -0.09365949 0.050931022 2.2406425e-38
-0.019341027 -0.09365949 0.050931022 2.2314589e-38
-0.017650785 -0.09365949 0.050931022 2.2316024e-38
-0.015960542 -0.09365949 0.050931022 2.2132353e-38
-0.0142703 -0.09365949 0.050931022 2.1856847e-38
-0.012580058 -0.09365949 0.050931022 2.1305475e-38
-0.010889815 -0.09365949 0.050931022 1.9462667e-38
-0.0091995727 -0.09365949 0.050931022 1.7989711e-38
-0.0075093303 -0.09365949 0.050931022 1.5224602e-38
-0.0058559161 -0.09715797 0.036928698 1.09847e-38
-0.0041411221 -0.09715797 0.036928698 8.219553e-39
-0.002416674 -0.099909768 0.025914952 8.3124647e-39
-0.00068257004 -0.099909768 0.025914952 9.3280557e-39
0.0010515321 -0.099909768 0.025914952 9.0521933e-39
0.0027856361 -0.099909768 0.025914952 1.0989386e-38
0.0045197401 -0.099909768 0.025914952 9.7000892e-39
0.0062538441 -0.099909768 0.025914952 6.0129885e-39
0.0080222683 -0.10066219 0.022903427 5.4601777e-39
0.0098014958 -0.10141921 0.019873545 3.6162651e-39
0.011546192 -0.10141921 0.019873545 2.879056e-39
0.013340021 -0.10215621 0.01692377 3.1541995e-39
0.015146345 -0.10292239 0.013857171 4.074351e-39
0.016961792 -0.10366838 0.010871455 5.9168174e-39
0.018722272 -0.10366838 0.010871455 5.729901e-39
0.020482752 -0.10366838 0.010871455 8.033703e-39
0.022319591 -0.1044188 0.007867977 1.0428986e-38
0.0242473 -0.10590781 0.001908347 1.3009735e-38
0.026111947 -0.10667174 -0.0011491328 1.4116789e-38
0.027984729 -0.10741456 -0.0041222125 1.6143997e-38
0.0298685 -0.10816176 -0.007112816 1.8631109e-38
0.031763367 -0.10891335 -0.010121062 2.065616e-38
0.033669412 -0.10966937 -0.013146952 2.2313149e-38
0.035582781 -0.11040358 -0.01608558 2.3048907e-38
0.037390523 -0.11040358 -0.01608558 2.2956709e-38
0.03932441 -0.11116849 -0.019146994 2.2588645e-38
0.041306436 -0.11215095 -0.023079231 2.3142544e-38
0.043260388 -0.11289944 -0.026074961 2.2775202e-38
0.045366451 -0.11440946 -0.032118633 2.2591531e-38
0.047344021 -0.11514379 -0.035057738 2.222383e-38
0.04918503 -0.11514379 -0.035057738 2.2498978e-38
0.051235758 -0.1161568 -0.039112285 2.3142544e-38
0.053403333 -0.11764936 -0.045086101 2.3509886e-38
0.055428304 -0.11840202 -0.048098519 2.341769e-38
0.057292178 -0.11840202 -0.048098519 2.3509886e-38
0.05939354 -0.11941226 -0.05214186 2.341805e-38
0.061264507 -0.11941226 -0.05214186 2.3326213e-38
0.063318424 -0.12014665 -0.055081204 2.2773039e-38
0.065390982 -0.12091358 -0.058150724 2.212767e-38
0.067535825 -0.12191428 -0.062156036 2.1758888e-38
0.069892585 -0.12364738 -0.069092467 2.1851083e-38
0.07220649 -0.12513812 -0.075059012 2.2034756e-38
0.07440269 -0.12614109 -0.079073384 2.1389386e-38
0.076320879 -0.12614109 -0.079073384 2.0927689e-38
0.078239061 -0.12614109 -0.079073384 2.1296472e-38
0.080693923 -0.12789918 -0.086109951 2.1480863e-38
0.082934611 -0.12889244 -0.090085343 2.0466711e-38
0.08511389 -0.12964968 -0.09311612 1.9452559e-38
0.087384962 -0.13065563 -0.097142413 1.8714994e-38
0.089919783 -0.13241051 -0.10416611 1.7885233e-38
0.091881953 -0.13241051 -0.10416611 1.6226431e-38
0.094189756 -0.13340546 -0.10814829 1.6226431e-38
0.096158914 -0.13340546 -0.10814829 1.5856929e-38
0.097768493 -0.13241051 -0.10416611 1.2169104e-38
0.099730678 -0.13241051 -0.10416611 9.1266513e-39
0.10169285 -0.13241051 -0.10416611 2.4885659e-39
0.10365503 -0.13241051 -0.10416611 2.67296e-39
-0.096058272 -0.10164386 0.025914952 1.2276539e-38
-0.094324164 -0.10164386 0.025914952 1.1909197e-38
-0.092406787 -0.1011332 0.02794461 1.1542207e-38
-0.090676241 -0.1011332 0.02794461 1.1359613e-38
-0.088945709 -0.1011332 0.02794461 1.1361054e-38
-0.087215163 -0.1011332 0.02794461 1.154616e-38
-0.085236348 -0.10038316 0.030925617 1.1545084e-38
-0.083511032 -0.10038316 0.030925617 1.1729113e-38
-0.081549324 -0.099637643 0.033888683 1.2464515e-38
-0.079829209 -0.099637643 0.033888683 1.2647823e-38
-0.077877216 -0.098872766 0.036928698 1.2368351e-38
-0.07616242 -0.098872766 0.036928698 1.1536784e-38
-0.074447624 -0.098872766 0.036928698 1.1443502e-38
-0.072732843 -0.098872766 0.036928698 1.1903037e-38
-0.070815332 -0.098136306 0.039855763 1.1073273e-38
-0.069105662 -0.098136306 0.039855763 1.0889964e-38
-0.067396007 -0.098136306 0.039855763 9.6003056e-39
-0.065554082 -0.09761633 0.041922435 9.2326091e-39
-0.063848048 -0.09761633 0.041922435 7.6667281e-39
-0.061961122 -0.096863925 0.04491286 4.9944982e-39
-0.060260326 -0.096863925 0.04491286 5.2721725e-39
-0.058390163 -0.096116111 0.047885045 7.5741779e-39
-0.056694582 -0.096116111 0.047885045 9.8725751e-39
-0.054999001 -0.096116111 0.047885045 1.4754976e-38
-0.053145871 -0.095349744 0.050931022 1.9824269e-38
-0.051455624 -0.095349744 0.050931022 2.2404272e-38
-0.049672402 -0.094864532 0.05285947 2.2403914e-38
-0.047985546 -0.094864532 0.05285947 2.1942225e-38
-0.046298675 -0.094864532 0.05285947 2.185039e-38
-0.044611819 -0.094864532 0.05285947 2.2127331e-38
-0.042591713 -0.092829615 0.060947284 2.2958155e-38
-0.040919028 -0.092829615 0.060947284 2.2866678e-38
-0.039246351 -0.092829615 0.060947284 2.2867037e-38
-0.037467122 -0.092083767 0.063911662 2.2681931e-38
-0.035799637 -0.092083767 0.063911662 2.3233662e-38
-0.03413216 -0.092083767 0.063911662 2.3508451e-38
-0.03081475 -0.107684 0.001908347 2.1942942e-38
-0.029038554 -0.107684 0.001908347 1.9455825e-38
-0.020995764 -0.094864532 0.05285947 1.3004678e-38
-0.019308904 -0.094864532 0.05285947 1.254479e-38
-0.017622044 -0.094864532 0.05285947 1.337564e-38
-0.015935181 -0.094864532 0.05285947 1.2177826e-38
-0.014305012 -0.096116111 0.047885045 1.1349155e-38
-0.012580058 -0.095349744 0.050931022 8.2163132e-39
-0.010889815 -0.095349744 0.050931022 4.6221297e-39
-0.0091995727 -0.095349744 0.050931022 3.3321168e-39
-0.0075093303 -0.095349744 0.050931022 3.7934593e-39
-0.0058559161 -0.098872766 0.036928698 4.7157813e-39
-0.0041411221 -0.098872766 0.036928698 5.4547827e-39
-0.0024236646 -0.099637643 0.033888683 7.208652e-39
-0.00068257004 -0.10164386 0.025914952 9.6064545e-39
0.0010515321 -0.10164386 0.025914952 8.5930256e-39
0.0027856361 -0.10164386 0.025914952 9.884126e-39
0.0045197401 -0.10164386 0.025914952 9.7015326e-39
0.0062538441 -0.10164386 0.025914952 7.2118947e-39
0.0080222683 -0.10240157 0.022903427 6.105903e-39
0.0097616529 -0.10240157 0.022903427 3.3393139e-39
0.011546192 -0.10316391 0.019873545 4.4452915e-39
0.013340021 -0.10390608 0.01692377 5.2736088e-39
0.01508989 -0.10390608 0.01692377 6.3777872e-39
0.01690159 -0.10467763 0.013857171 1.0340033e-38
0.018722272 -0.10542886 0.010871455 1.1721157e-38
0.020482752 -0.10542886 0.010871455 1.4577415e-38
0.022319591 -0.10618456 0.007867977 1.7525512e-38
0.0242473 -0.107684 0.001908347 1.936832e-38
0.026111947 -0.10845329 -0.0011491328 2.1856847e-38
0.027984729 -0.10920133 -0.0041222125 2.2224189e-38
0.0298685 -0.10995375 -0.007112816 2.2775202e-38
0.031763367 -0.11071064 -0.010121062 2.2958873e-38
0.033669412 -0.11147197 -0.013146952 2.2496087e-38
0.035582781 -0.11221133 -0.01608558 2.3232209e-38
0.037511297 -0.1129816 -0.019146994 2.3509876e-38
0.039486431 -0.11397095 -0.023079231 2.350988e-38
0.041306436 -0.11397095 -0.023079231 2.3326213e-38
0.043260388 -0.11472471 -0.026074961 2.3142544e-38
0.045366451 -0.11624531 -0.032118633 2.2958873e-38
0.047202311 -0.11624531 -0.032118633 2.2590454e-38
0.04918503 -0.1169848 -0.035057738 2.2957796e-38
0.051026039 -0.1169848 -0.035057738 2.3509527e-38
0.053403333 -0.11950795 -0.045086101 2.3509168e-38
0.055261925 -0.11950795 -0.045086101 2.3508444e-38
0.057292178 -0.12026589 -0.048098519 2.3509518e-38
0.059156053 -0.12026589 -0.048098519 2.3509879e-38
0.061264507 -0.12128322 -0.05214186 2.3509879e-38
0.063318424 -0.12202276 -0.055081204 2.2956345e-38
0.065390982 -0.12279506 -0.058150724 2.2126585e-38
0.067535825 -0.12380283 -0.062156036 2.166597e-38
0.069892585 -0.12554805 -0.069092467 2.1850361e-38
0.07220649 -0.12704925 -0.075059012 2.2126948e-38
0.07440269 -0.12805928 -0.079073384 2.1204995e-38
0.0765457 -0.12883668 -0.08216317 2.0283039e-38
0.078469299 -0.12883668 -0.08216317 2.074402e-38
0.080693923 -0.12982969 -0.086109951 2.1204998e-38
0.082934611 -0.13082992 -0.090085343 1.9729868e-38
0.08511389 -0.13159247 -0.09311612 1.7978151e-38
0.087384962 -0.13260551 -0.097142413 1.7701564e-38
0.089334823 -0.13260551 -0.097142413 1.7978148e-38
0.091881953 -0.1343727 -0.10416611 1.6595213e-38
0.093844138 -0.1343727 -0.10416611 1.6687409e-38
0.095806308 -0.1343727 -0.10416611 1.6226431e-38
0.097768493 -0.1343727 -0.10416611 1.2630082e-38
0.099730678 -0.1343727 -0.10416611 9.4032382e-39
0.10169285 -0.1343727 -0.10416611 2.3041775e-39
0.10365503 -0.1343727 -0.10416611 2.2119819e-39
-0.096058272 -0.10337795 0.025914952 1.2647468e-38
-0.094324164 -0.10337795 0.025914952 1.2371603e-38
-0.092406787 -0.10286374 0.02794461 1.2280125e-38
-0.090676241 -0.10286374 0.02794461 1.2280844e-38
-0.088945709 -0.10286374 0.02794461 1.2189008e-38
-0.087215163 -0.10286374 0.02794461 1.1820949e-38
-0.085236348 -0.10210848 0.030925617 1.2927638e-38
-0.083511032 -0.10210848 0.030925617 1.2190085e-38
-0.081306808 -0.10058756 0.036928698 1.182059e-38
-0.079592012 -0.10058756 0.036928698 1.1912065e-38
-0.077877216 -0.10058756 0.036928698 1.181915e-38
