# .PCD v0.7 - Point Cloud Data file format
VERSION 0.7
FIELDS x y z rgb
SIZE 4 4 4 4
TYPE F F F F
COUNT 1 1 1 1
WIDTH 941
HEIGHT 1
VIEWPOINT 0 0 0 1 0 0 0
POINTS 941
DATA ascii
-0.017570395 -0.096626461 0.0096795931 2.2132353e-38
0.026680091 -0.088359952 0.043720998 3.9749961e-39
0.028380884 -0.088359952 0.043720998 1.5771937e-39
0.029938368 -0.087638199 0.046693183 7.4778891e-40
0.031633954 -0.087638199 0.046693183 1.7626555e-39
0.033171989 -0.086898521 0.04973916 2.9626406e-39
0.034862231 -0.086898521 0.04973916 2.8715352e-39
0.064191192 -0.093704656 0.021711566 6.0068578e-39
0.065930575 -0.093704656 0.021711566 4.4402482e-39
0.067669965 -0.093704656 0.021711566 4.1651032e-39
0.069409348 -0.093704656 0.021711566 4.4416901e-39
0.071148731 -0.093704656 0.021711566 4.9026683e-39
0.072888114 -0.093704656 0.021711566 5.0866966e-39
0.074627496 -0.093704656 0.021711566 4.6246395e-39
0.076651089 -0.094440416 0.018681683 3.7016014e-39
0.078395791 -0.094440416 0.018681683 3.4232166e-39
0.080140479 -0.094440416 0.018681683 3.6987189e-39
0.081885181 -0.094440416 0.018681683 2.1292324e-39
0.083629884 -0.094440416 0.018681683 2.2196161e-39
0.085374571 -0.094440416 0.018681683 2.4943897e-39
0.087119274 -0.094440416 0.018681683 1.1099979e-39
0.088863961 -0.094440416 0.018681683 1.1088951e-39
0.090608664 -0.094440416 0.018681683 2.3981766e-39
0.092353366 -0.094440416 0.018681683 2.028657e-39
-0.10204551 -0.13971741 -0.15929899 1.1064178e-38
-0.099421836 -0.13776468 -0.1513153 1.2262721e-38
-0.09682446 -0.13580595 -0.14330706 1.6780307e-38
-0.094528221 -0.13483663 -0.13934407 2.3509873e-38
-0.091982104 -0.13288604 -0.13136908 2.3509876e-38
-0.089520164 -0.13115029 -0.12427255 2.3418039e-38
-0.087278254 -0.13018142 -0.12031134 2.350988e-38
-0.085044257 -0.12918831 -0.11625107 2.350988e-38
-0.082833566 -0.12823303 -0.11234542 2.3417687e-38
-0.080687888 -0.12749799 -0.10934015 2.3509883e-38
-0.078273617 -0.12552677 -0.10128089 2.3418043e-38
-0.075783618 -0.12307997 -0.091277204 2.3418043e-38
-0.073436372 -0.12114228 -0.083355032 2.3417687e-38
-0.071157776 -0.11940466 -0.076250874 2.3417687e-38
-0.069105215 -0.11868732 -0.073317967 2.3325856e-38
-0.067058258 -0.11794533 -0.070284329 2.3050708e-38
-0.064847447 -0.11624874 -0.063347898 2.2774843e-38
-0.06278687 -0.11526908 -0.059342586 2.2316024e-38
-0.060657792 -0.11379938 -0.053333722 2.1763935e-38
-0.058627315 -0.11281042 -0.049290381 2.0751592e-38
-0.056649882 -0.11207359 -0.046277963 1.9278996e-38
-0.054430839 -0.10962076 -0.0362496 1.7437975e-38
-0.05258983 -0.10962076 -0.0362496 1.5595516e-38
-0.050653487 -0.10890187 -0.033310495 1.375341e-38
-0.04863219 -0.10742365 -0.027266823 1.2094613e-38
-0.046606503 -0.10572915 -0.020338856 1.0806049e-38
-0.044630334 -0.10426159 -0.014338814 9.7940799e-39
-0.042750813 -0.10352151 -0.011312924 9.334192e-39
-0.040882319 -0.10278571 -0.0083046779 9.240553e-39
-0.039090306 -0.10278571 -0.0083046779 9.1469127e-39
-0.037237994 -0.10205424 -0.0053140745 9.2380223e-39
-0.035396494 -0.10132705 -0.0023409948 9.5138791e-39
-0.033564009 -0.10057923 0.00071648508 1.0433666e-38
-0.031787813 -0.10057923 0.00071648508 1.098611e-38
-0.029893754 -0.098386943 0.0096795931 1.3474297e-38
-0.028133275 -0.098386943 0.0096795931 1.6884802e-38
-0.026344003 -0.097656667 0.012665309 2.0202732e-38
-0.024588758 -0.097656667 0.012665309 2.1122163e-38
-0.022833513 -0.097656667 0.012665309 2.1213998e-38
-0.021078268 -0.097656667 0.012665309 2.1397669e-38
-0.019330876 -0.098386943 0.0096795931 2.1305825e-38
-0.017570395 -0.098386943 0.0096795931 2.1030317e-38
0.023732735 -0.092757151 0.032696821 7.3937818e-39
0.025322268 -0.092013597 0.035736836 7.4845355e-39
0.026813792 -0.090792179 0.040730573 7.851167e-39
0.02851983 -0.090792179 0.040730573 8.2181587e-39
0.030081676 -0.090060756 0.043720998 9.2319477e-39
0.031782474 -0.090060756 0.043720998 1.0800338e-38
0.033329535 -0.089333788 0.046693183 1.1354235e-38
0.03502512 -0.089333788 0.046693183 1.0893984e-38
0.049734596 -0.093481898 0.029733755 6.7422985e-39
0.051254708 -0.092757151 0.032696821 6.373516e-39
0.052974831 -0.092757151 0.032696821 4.4377609e-39
0.054694954 -0.092757151 0.032696821 4.2533654e-39
0.056635875 -0.093481898 0.029733755 4.0693259e-39
0.058361191 -0.093481898 0.029733755 3.6079778e-39
0.060086507 -0.093481898 0.029733755 2.9622413e-39
0.061811823 -0.093481898 0.029733755 2.962593e-39
0.063780181 -0.094211012 0.026752748 2.4094164e-39
0.065930575 -0.095444039 0.021711566 5.6621987e-40
0.067669965 -0.095444039 0.021711566 1.0289959e-39
0.069409348 -0.095444039 0.021711566 1.0297147e-39
0.071148731 -0.095444039 0.021711566 1.1219104e-39
0.072888114 -0.095444039 0.021711566 1.2133871e-39
0.074627496 -0.095444039 0.021711566 6.5985743e-40
0.076366879 -0.095444039 0.021711566 1.3767757e-41
0.078106262 -0.095444039 0.021711566 1.196849e-41
0.080140479 -0.096185118 0.018681683 1.9600102e-40
0.081885181 -0.096185118 0.018681683 7.4701119e-40
0.083629884 -0.096185118 0.018681683 3.7714126e-40
0.085374571 -0.096185118 0.018681683 8.359446e-40
0.087119274 -0.096185118 0.018681683 3.735091e-40
0.088863961 -0.096185118 0.018681683 9.2521852e-40
0.090608664 -0.096185118 0.018681683 1.9389921e-39
-0.10233397 -0.14275078 -0.16326341 1.0603199e-38
-0.099988751 -0.14177416 -0.15929899 1.1801743e-38
-0.097379081 -0.13980745 -0.1513153 1.6319331e-38
-0.093989886 -0.13489382 -0.13136908 2.3509873e-38
-0.091718398 -0.13390581 -0.12735841 2.3509876e-38
-0.089520164 -0.13314565 -0.12427255 2.3509876e-38
-0.087278254 -0.13216983 -0.12031134 2.350952e-38
-0.085044257 -0.1311696 -0.11625107 2.350988e-38
-0.082833566 -0.13020746 -0.11234542 2.3509883e-38
-0.080687888 -0.12946714 -0.10934015 2.3509883e-38
-0.078273617 -0.1274818 -0.10128089 2.350988e-38
-0.075783618 -0.12501745 -0.091277204 2.3509879e-38
-0.073436372 -0.12306587 -0.083355032 2.350988e-38
-0.071157776 -0.12131582 -0.076250874 2.3509883e-38
-0.069105215 -0.12059332 -0.073317967 2.3509883e-38
-0.067058258 -0.119846 -0.070284329 2.3509886e-38
-0.064847447 -0.11813726 -0.063347898 2.341805e-38
-0.06278687 -0.11715056 -0.059342586 2.3142544e-38
-0.060778901 -0.11639442 -0.056273066 2.2867037e-38
-0.058627315 -0.11467429 -0.049290381 2.2591531e-38
-0.056649882 -0.11393218 -0.046277963 2.2040518e-38
-0.054430839 -0.11146177 -0.0362496 2.075231e-38
-0.05258983 -0.11146177 -0.0362496 1.9002413e-38
-0.050653487 -0.11073773 -0.033310495 1.6699693e-38
-0.048540272 -0.10851096 -0.024271093 1.4671399e-38
-0.046517938 -0.10678811 -0.017277442 1.2738543e-38
-0.044630334 -0.10606419 -0.014338814 1.1911691e-38
-0.042674333 -0.10457774 -0.0083046779 1.0623125e-38
-0.040882319 -0.10457774 -0.0083046779 9.9766761e-39
-0.039024763 -0.10384102 -0.0053140745 9.6075307e-39
-0.037178047 -0.1031086 -0.0023409948 9.7919191e-39
-0.035396494 -0.1031086 -0.0023409948 1.0252174e-38
-0.033564009 -0.10235542 0.00071648508 1.0344006e-38
-0.031698994 -0.1008873 0.0066761151 1.0526951e-38
-0.029893754 -0.10014741 0.0096795931 1.0803525e-38
-0.028099248 -0.099411905 0.012665309 1.3199521e-38
-0.026344003 -0.099411905 0.012665309 1.5872103e-38
-0.024588758 -0.099411905 0.012665309 1.7715999e-38
-0.022833513 -0.099411905 0.012665309 1.983539e-38
-0.021078268 -0.099411905 0.012665309 2.1030327e-38
-0.019330876 -0.10014741 0.0096795931 2.1213998e-38
0.023607476 -0.093728393 0.035736836 8.597329e-39
0.025196532 -0.093007326 0.038663901 1.1176647e-38
0.026906194 -0.093007326 0.038663901 1.2741097e-38
0.02851983 -0.092498213 0.040730573 1.3292828e-38
0.030081676 -0.091761544 0.043720998 1.347614e-38
0.031782474 -0.091761544 0.043720998 1.3385381e-38
0.033329535 -0.091029361 0.046693183 1.1634402e-38
0.03502512 -0.091029361 0.046693183 9.331332e-39
0.036720701 -0.091029361 0.046693183 9.3295355e-39
0.044184994 -0.093728393 0.035736836 9.5077905e-39
0.045899782 -0.093728393 0.035736836 7.4794894e-39
0.047814462 -0.094477281 0.032696821 6.6508049e-39
0.049534585 -0.094477281 0.032696821 5.4522617e-39
0.051254708 -0.094477281 0.032696821 5.3600647e-39
0.052974831 -0.094477281 0.032696821 3.332114e-39
0.054694954 -0.094477281 0.032696821 3.0548012e-39
0.056635875 -0.095207214 0.029733755 2.9622413e-39
0.058361191 -0.095207214 0.029733755 2.6849285e-39
0.060086507 -0.095207214 0.029733755 2.4079773e-39
0.061811823 -0.095207214 0.029733755 2.9615042e-39
0.063780181 -0.095941558 0.026752748 3.1451738e-39
0.065930575 -0.097183421 0.021711566 1.8551524e-39
0.067669965 -0.097183421 0.021711566 1.672559e-39
0.069409348 -0.097183421 0.021711566 1.3041366e-39
0.071148731 -0.097183421 0.021711566 1.304138e-39
0.072888114 -0.097183421 0.021711566 1.4885321e-39
0.074627496 -0.097183421 0.021711566 1.3959805e-39
0.076366879 -0.097183421 0.021711566 1.0272008e-39
0.078106262 -0.097183421 0.021711566 9.3428913e-40
0.079845645 -0.097183421 0.021711566 1.209797e-39
0.081585027 -0.097183421 0.021711566 9.3248425e-40
0.083629884 -0.09792982 0.018681683 5.6117659e-40
0.085063793 -0.097183421 0.021711566 7.4519091e-40
0.08680319 -0.097183421 0.021711566 2.8239527e-40
0.088863961 -0.09792982 0.018681683 6.5007357e-40
0.090608664 -0.09792982 0.018681683 1.4790944e-39
-0.10233397 -0.14481448 -0.16326341 1.0142221e-38
-0.099709146 -0.14285399 -0.15536126 1.1156373e-38
-0.097100802 -0.14085336 -0.14729735 1.5673962e-38
-0.093989886 -0.1369016 -0.13136908 2.3418036e-38
-0.091718398 -0.13590656 -0.12735841 2.3509876e-38
-0.089520164 -0.13514097 -0.12427255 2.3509879e-38
-0.087278254 -0.13415821 -0.12031134 2.350952e-38
-0.085044257 -0.13315089 -0.11625107 2.350988e-38
-0.082833566 -0.1321819 -0.11234542 2.3509883e-38
-0.080859147 -0.1321819 -0.11234542 2.3509883e-38
-0.078273617 -0.12943684 -0.10128089 2.31411e-38
-0.075783618 -0.12695493 -0.091277204 2.3325847e-38
-0.073436372 -0.12498946 -0.083355032 2.3509883e-38
-0.071157776 -0.12322696 -0.076250874 2.3509883e-38
-0.069105215 -0.1224993 -0.073317967 2.3509527e-38
-0.067058258 -0.12174667 -0.070284329 2.3509167e-38
-0.064847447 -0.12002577 -0.063347898 2.3416971e-38
-0.06278687 -0.11903207 -0.059342586 2.341769e-38
-0.060778901 -0.11827053 -0.056273066 2.341805e-38
-0.058627315 -0.11653815 -0.049290381 2.2774125e-38
-0.056649882 -0.11579077 -0.046277963 2.2222395e-38
-0.054576572 -0.1143087 -0.040304147 2.2224189e-38
-0.05258983 -0.11330278 -0.0362496 2.2132353e-38
-0.050555184 -0.11182173 -0.030279957 2.0935981e-38
-0.048540272 -0.11033095 -0.024271093 1.8816588e-38
-0.046517938 -0.10859586 -0.017277442 1.6790459e-38
-0.044630334 -0.10786678 -0.014338814 1.3660868e-38
-0.042674333 -0.10636975 -0.0083046779 1.1819487e-38
-0.040882319 -0.10636975 -0.0083046779 1.0251807e-38
-0.039024763 -0.10562779 -0.0053140745 9.4224093e-39
-0.037178047 -0.10489015 -0.0023409948 9.698999e-39
-0.035340205 -0.10413162 0.00071648508 1.0068503e-38
-0.033513386 -0.10337763 0.0037556067 1.0437289e-38
-0.031698994 -0.10265306 0.0066761151 1.0713152e-38
-0.029893754 -0.10190789 0.0096795931 9.8833903e-39
-0.028099248 -0.10116716 0.012665309 1.0528031e-38
-0.02631443 -0.10040633 0.015731908 1.0803172e-38
-0.024564562 -0.10040633 0.015731908 1.08028e-38
-0.022814693 -0.10040633 0.015731908 1.2276121e-38
-0.021064825 -0.10040633 0.015731908 1.5134175e-38
-0.019314958 -0.10040633 0.015731908 1.8268088e-38
-0.0074124201 -0.091490805 0.051667608 2.2680128e-38
-0.0057255593 -0.091490805 0.051667608 2.314074e-38
-0.0040133395 -0.091969252 0.04973916 2.3509521e-38
-0.0023967684 -0.090742856 0.054682411 2.3509521e-38
-0.0007151938 -0.090742856 0.054682411 2.3509883e-38
0.0010218848 -0.091490805 0.051667608 2.3234379e-38
0.0027087447 -0.091490805 0.051667608 2.2958873e-38
0.019989645 -0.094204247 0.040730573 1.3395425e-38
0.021695679 -0.094204247 0.040730573 1.4040785e-38
0.023401717 -0.094204247 0.040730573 1.4131186e-38
0.025107754 -0.094204247 0.040730573 1.486587e-38
0.026813792 -0.094204247 0.040730573 1.5232135e-38
0.02851983 -0.094204247 0.040730573 1.3755234e-38
0.030081676 -0.093462333 0.043720998 1.2187932e-38
0.031782474 -0.093462333 0.043720998 1.1174865e-38
0.033329535 -0.092724949 0.046693183 8.410805e-39
0.03502512 -0.092724949 0.046693183 5.4623637e-39
0.036720701 -0.092724949 0.046693183 5.6449599e-39
0.038585648 -0.093462333 0.043720998 5.6395481e-39
0.04058348 -0.094716981 0.038663901 4.8994537e-39
0.042293143 -0.094716981 0.038663901 5.1753217e-39
0.044184994 -0.095443189 0.035736836 4.5306684e-39
0.045899782 -0.095443189 0.035736836 3.3324811e-39
0.047614578 -0.095443189 0.035736836 1.8573496e-39
0.049534585 -0.096197397 0.032696821 5.6696396e-40
0.051254708 -0.096197397 0.032696821 1.6725898e-39
0.052974831 -0.096197397 0.032696821 2.502705e-39
0.054694954 -0.096197397 0.032696821 1.8566126e-39
0.056635875 -0.09693253 0.029733755 1.7636953e-39
0.058361191 -0.09693253 0.029733755 2.1317547e-39
0.0603191 -0.097672105 0.026752748 2.1313932e-39
0.062049638 -0.097672105 0.026752748 2.8682394e-39
0.063780181 -0.097672105 0.026752748 3.5121668e-39
0.065679766 -0.09817566 0.02472309 2.9597091e-39
0.067669965 -0.098922804 0.021711566 2.4998044e-39
0.069409348 -0.098922804 0.021711566 2.1317407e-39
0.071148731 -0.098922804 0.021711566 2.039908e-39
0.072888114 -0.098922804 0.021711566 2.2243049e-39
0.074627496 -0.098922804 0.021711566 1.8562454e-39
0.076366879 -0.098922804 0.021711566 1.3027171e-39
0.078106262 -0.098922804 0.021711566 9.339374e-40
0.079845645 -0.098922804 0.021711566 1.025054e-39
0.081585027 -0.098922804 0.021711566 9.317766e-40
0.08332441 -0.098922804 0.021711566 9.3068639e-40
0.085063793 -0.098922804 0.021711566 1.3909275e-39
0.086489014 -0.09817566 0.02472309 5.5970944e-40
0.088223107 -0.09817566 0.02472309 4.6712845e-40
0.089957215 -0.09817566 0.02472309 1.3883435e-39
0.092021339 -0.098922804 0.021711566 1.3868847e-39
0.093760721 -0.098922804 0.021711566 1.8474985e-39
-0.10146459 -0.14389296 -0.1513153 9.1287883e-39
-0.099421836 -0.14389296 -0.1513153 9.9585489e-39
-0.09682446 -0.14189209 -0.14330706 1.5028593e-38
-0.093989886 -0.13890938 -0.13136908 2.3049256e-38
-0.091718398 -0.13790731 -0.12735841 2.3509879e-38
-0.089520164 -0.13713633 -0.12427255 2.3509879e-38
-0.087278254 -0.13614662 -0.12031134 2.3417324e-38
-0.085044257 -0.13513215 -0.11625107 2.3509883e-38
-0.082833566 -0.13415633 -0.11234542 2.3509527e-38
-0.080859147 -0.13415633 -0.11234542 2.3509886e-38
-0.078273617 -0.13139187 -0.10128089 2.3325856e-38
-0.075783618 -0.12889244 -0.091277204 2.3234379e-38
-0.073436372 -0.12691309 -0.083355032 2.341805e-38
-0.071157776 -0.12513812 -0.076250874 2.3509527e-38
-0.069105215 -0.12440531 -0.073317967 2.3509527e-38
-0.067058258 -0.12364738 -0.070284329 2.3509168e-38
-0.064981349 -0.12266256 -0.066342793 2.3509168e-38
-0.062958933 -0.12191428 -0.063347898 2.3508805e-38
-0.060905375 -0.12091358 -0.059342586 2.3509521e-38
-0.058627315 -0.11840202 -0.049290381 2.350988e-38
-0.056649882 -0.11764936 -0.046277963 2.3234018e-38
-0.054576572 -0.1161568 -0.040304147 2.3234379e-38
-0.05258983 -0.11514379 -0.0362496 2.2958873e-38
-0.050555184 -0.11365227 -0.030279957 2.2683366e-38
-0.048540272 -0.11215095 -0.024271093 2.130117e-38
-0.046517938 -0.11040358 -0.017277442 1.9644903e-38
-0.044630334 -0.10966937 -0.014338814 1.7068838e-38
-0.042750813 -0.10891335 -0.011312924 1.5320369e-38
-0.040882319 -0.10816176 -0.0083046779 1.3293513e-38
-0.039024763 -0.10741456 -0.0053140745 1.1726199e-38
-0.037178047 -0.10667174 -0.0023409948 1.043655e-38
-0.035340205 -0.10590781 0.00071648508 9.9755831e-39
-0.033513386 -0.10514848 0.0037556067 9.5156952e-39
-0.031654231 -0.10366838 0.0096795931 9.4235052e-39
-0.029854493 -0.10292239 0.012665309 9.4231478e-39
-0.028099248 -0.10292239 0.012665309 9.8837658e-39
-0.02631443 -0.10215621 0.015731908 1.0066717e-38
-0.024541289 -0.10141921 0.018681683 9.1443945e-39
-0.022777999 -0.10066219 0.021711566 9.1418694e-39
-0.021016518 -0.099402651 0.026752748 1.0801025e-38
-0.019285973 -0.099402651 0.026752748 1.4487766e-38
-0.0090992805 -0.093177676 0.051667608 2.2591531e-38
-0.0074414932 -0.092424423 0.054682411 2.2867037e-38
-0.0057940618 -0.091675878 0.057678379 2.3142544e-38
-0.0041177399 -0.091675878 0.057678379 2.3142544e-38
-0.0024723732 -0.09115693 0.059755422 2.286632e-38
-0.0007996927 -0.09115693 0.059755422 2.2591172e-38
0.0010218848 -0.093177676 0.051667608 2.2316024e-38
0.0027087447 -0.093177676 0.051667608 2.2132353e-38
0.0043956065 -0.093177676 0.051667608 2.1673176e-38
0.014774533 -0.095163137 0.043720998 1.5141017e-38
0.016373707 -0.094420537 0.046693183 1.3668779e-38
0.018069291 -0.094420537 0.046693183 1.4686503e-38
0.019876914 -0.095163137 0.043720998 1.2844054e-38
0.021577707 -0.095163137 0.043720998 1.3672726e-38
0.023278503 -0.095163137 0.043720998 1.3393273e-38
0.024979295 -0.095163137 0.043720998 1.283652e-38
0.026680091 -0.095163137 0.043720998 1.3018756e-38
0.028380884 -0.095163137 0.043720998 1.108123e-38
0.030081676 -0.095163137 0.043720998 9.3298844e-39
0.031782474 -0.095163137 0.043720998 8.9629278e-39
0.033483267 -0.095163137 0.043720998 6.7524103e-39
0.03502512 -0.094420537 0.046693183 4.3585735e-39
0.036720701 -0.094420537 0.046693183 5.4631162e-39
0.038585648 -0.095163137 0.043720998 6.194182e-39
0.04058348 -0.096426651 0.038663901 4.3477373e-39
0.042293143 -0.096426651 0.038663901 3.7938418e-39
0.044184994 -0.09715797 0.035736836 3.6098051e-39
0.045899782 -0.09715797 0.035736836 3.5179626e-39
0.047614578 -0.09715797 0.035736836 2.9651405e-39
0.049534585 -0.097917527 0.032696821 1.9502641e-39
0.051254708 -0.097917527 0.032696821 2.6878236e-39
0.052974831 -0.097917527 0.032696821 3.2406344e-39
0.054694954 -0.097917527 0.032696821 2.0417283e-39
0.056415077 -0.097917527 0.032696821 2.2243245e-39
0.0581352 -0.097917527 0.032696821 2.9608105e-39
0.060086507 -0.098657846 0.029733755 2.8678988e-39
0.061811823 -0.098657846 0.029733755 2.8671828e-39
0.063780181 -0.099402651 0.026752748 3.3263659e-39
0.065679766 -0.099909768 0.02472309 3.1423277e-39
0.067413874 -0.099909768 0.02472309 3.8802417e-39
0.069409348 -0.10066219 0.021711566 3.6047268e-39
0.071148731 -0.10066219 0.021711566 3.3288658e-39
0.072616182 -0.099909768 0.02472309 3.1441186e-39
0.07435029 -0.099909768 0.02472309 2.3147223e-39
0.076084383 -0.099909768 0.02472309 1.4856861e-39
0.078106262 -0.10066219 0.021711566 1.2087432e-39
0.079845645 -0.10066219 0.021711566 1.3931345e-39
0.081585027 -0.10066219 0.021711566 1.2998571e-39
0.08332441 -0.10066219 0.021711566 1.9448551e-39
0.085063793 -0.10066219 0.021711566 2.77352e-39
0.086489014 -0.099909768 0.02472309 1.3894841e-39
0.088223107 -0.099909768 0.02472309 7.4372935e-40
0.090281956 -0.10066219 0.021711566 1.4809132e-39
0.092021339 -0.10066219 0.021711566 1.6634856e-39
0.093760721 -0.10066219 0.021711566 2.1237337e-39
0.095500104 -0.10066219 0.021711566 2.767664e-39
-0.10380884 -0.14695369 -0.15536126 8.2990276e-39
-0.10175899 -0.14695369 -0.15536126 7.7458538e-39
-0.099421836 -0.1459357 -0.1513153 8.206476e-39
-0.09682446 -0.14392079 -0.14330706 1.4567977e-38
-0.093719147 -0.13990806 -0.12735841 2.2864868e-38
-0.091718398 -0.13990806 -0.12735841 2.3509879e-38
-0.089520164 -0.13913165 -0.12427255 2.350988e-38
-0.087278254 -0.138135 -0.12031134 2.3417327e-38
-0.085044257 -0.13711344 -0.11625107 2.3509883e-38
-0.083062984 -0.13711344 -0.11625107 2.3509527e-38
-0.080687888 -0.13537462 -0.10934015 2.3509527e-38
-0.078273617 -0.13334687 -0.10128089 2.341805e-38
-0.075783618 -0.13082992 -0.091277204 2.341805e-38
-0.073436372 -0.12883668 -0.083355032 2.3325856e-38
-0.071157776 -0.12704925 -0.076250874 2.3325856e-38
-0.069105215 -0.12631132 -0.073317967 2.3325856e-38
-0.067058258 -0.12554805 -0.070284329 2.3509883e-38
-0.064981349 -0.12455635 -0.066342793 2.3509876e-38
-0.062958933 -0.12380283 -0.063347898 2.3509873e-38
-0.060905375 -0.12279506 -0.059342586 2.3508071e-38
-0.058627315 -0.12026589 -0.049290381 2.3509151e-38
-0.056649882 -0.11950795 -0.046277963 2.3509517e-38
-0.054683629 -0.11875431 -0.043282591 2.3509165e-38
-0.05258983 -0.1169848 -0.0362496 2.3508451e-38
-0.050555184 -0.11548282 -0.030279957 2.332478e-38
-0.048540272 -0.11397095 -0.024271093 2.3417333e-38
-0.046517938 -0.11221133 -0.017277442 2.2867037e-38
-0.044630334 -0.11147197 -0.014338814 2.1397669e-38
-0.042750813 -0.11071064 -0.011312924 1.9833955e-38
-0.040882319 -0.10995375 -0.0083046779 1.7714562e-38
-0.039024763 -0.10920133 -0.0053140745 1.5134894e-38
-0.037178047 -0.10845329 -0.0023409948 1.2922934e-38
-0.035284251 -0.10691936 0.0037556067 1.1264866e-38
-0.033513386 -0.10691936 0.0037556067 1.0620592e-38
-0.031654231 -0.10542886 0.0096795931 1.0345096e-38
-0.029854493 -0.10467763 0.012665309 1.0068517e-38
-0.028064298 -0.10390608 0.015731908 1.0160718e-38
-0.026227726 -0.10164386 0.02472309 1.0344391e-38
-0.024477607 -0.1011332 0.026752748 1.0435507e-38
-0.022728769 -0.10038316 0.029733755 9.7897752e-39
-0.020990463 -0.099637643 0.032696821 9.2351594e-39
-0.019262346 -0.098872766 0.035736836 9.1422435e-39
-0.017543174 -0.09761633 0.040730573 9.7868759e-39
-0.015837137 -0.09761633 0.040730573 1.0339659e-38
-0.014138965 -0.096863925 0.043720998 1.1629662e-38
-0.012473004 -0.094864532 0.051667608 1.4025664e-38
-0.010786142 -0.094864532 0.051667608 1.7159591e-38
-0.0091230683 -0.094106004 0.054682411 2.0108744e-38
-0.0074703838 -0.093352199 0.057678379 2.1489505e-38
-0.0057940618 -0.093352199 0.057678379 2.1305834e-38
-0.0041177399 -0.093352199 0.057678379 2.0568997e-38
-0.0024723732 -0.092829615 0.059755422 2.0661192e-38
-0.0007996927 -0.092829615 0.059755422 1.9923996e-38
0.00087298686 -0.092829615 0.059755422 1.8450682e-38
0.002587548 -0.093352199 0.057678379 1.6885163e-38
0.0042638709 -0.093352199 0.057678379 1.5411481e-38
0.011143049 -0.094864532 0.051667608 1.1174464e-38
0.012829909 -0.094864532 0.051667608 1.1452144e-38
0.014774533 -0.096863925 0.043720998 8.3196687e-39
0.016373707 -0.096116111 0.046693183 8.874653e-39
0.018069291 -0.096116111 0.046693183 8.9693625e-39
0.019876914 -0.096863925 0.043720998 7.5867938e-39
0.021577707 -0.096863925 0.043720998 8.0467042e-39
0.023278503 -0.096863925 0.043720998 7.1229528e-39
0.024979295 -0.096863925 0.043720998 8.5948431e-39
0.026680091 -0.096863925 0.043720998 9.6079132e-39
0.028380884 -0.096863925 0.043720998 8.6852325e-39
0.030081676 -0.096863925 0.043720998 7.7640062e-39
0.031782474 -0.096863925 0.043720998 7.9498661e-39
0.033483267 -0.096863925 0.043720998 6.1074094e-39
0.035184063 -0.096863925 0.043720998 4.2663793e-39
0.036884855 -0.096863925 0.043720998 6.0170089e-39
0.038585648 -0.096863925 0.043720998 4.536467e-39
0.040462092 -0.09761633 0.040730573 5.1793056e-39
0.042168129 -0.09761633 0.040730573 5.640281e-39
0.044002801 -0.098136306 0.038663901 4.3491764e-39
0.045899782 -0.098872766 0.035736836 3.1509878e-39
0.047614578 -0.098872766 0.035736836 3.1506192e-39
0.049329374 -0.098872766 0.035736836 2.3201341e-39
0.051254708 -0.099637643 0.032696821 2.5041596e-39
0.052974831 -0.099637643 0.032696821 2.7800248e-39
0.054694954 -0.099637643 0.032696821 1.4885643e-39
0.056415077 -0.099637643 0.032696821 1.8566308e-39
0.0581352 -0.099637643 0.032696821 3.514713e-39
0.060086507 -0.10038316 0.029733755 3.8824179e-39
0.061811823 -0.10038316 0.029733755 3.6973078e-39
0.063780181 -0.1011332 0.026752748 3.9731786e-39
0.065679766 -0.10164386 0.02472309 4.3412367e-39
0.067413874 -0.10164386 0.02472309 4.1575502e-39
0.069147982 -0.10164386 0.02472309 4.1575446e-39
0.070882075 -0.10164386 0.02472309 3.7898439e-39
0.072616182 -0.10164386 0.02472309 3.2370331e-39
0.07435029 -0.10164386 0.02472309 2.2236014e-39
0.076084383 -0.10164386 0.02472309 1.6700717e-39
0.078106262 -0.10240157 0.021711566 2.1310527e-39
0.079845645 -0.10240157 0.021711566 3.053009e-39
0.081585027 -0.10240157 0.021711566 2.7760563e-39
0.08332441 -0.10240157 0.021711566 3.7898383e-39
0.085063793 -0.10240157 0.021711566 4.6188647e-39
0.086489014 -0.10164386 0.02472309 2.4050752e-39
0.088223107 -0.10164386 0.02472309 9.2956255e-40
0.089957215 -0.10164386 0.02472309 1.2050536e-39
0.092021339 -0.10240157 0.021711566 8.3589415e-40
0.093760721 -0.10240157 0.021711566 1.2947031e-39
0.095500104 -0.10240157 0.021711566 2.3070515e-39
-0.10380884 -0.14900355 -0.15536126 8.5752586e-39
-0.10175899 -0.14900355 -0.15536126 7.930971e-39
-0.099421836 -0.14797847 -0.1513153 7.7462238e-39
-0.096268348 -0.14391513 -0.13527736 1.226381e-38
-0.093719147 -0.14190884 -0.12735841 2.3326208e-38
-0.091515504 -0.14112701 -0.12427255 2.3418045e-38
-0.089520164 -0.14112701 -0.12427255 2.3417687e-38
-0.087278254 -0.14012341 -0.12031134 2.3509883e-38
-0.085044257 -0.13909473 -0.11625107 2.3416971e-38
-0.082833566 -0.1381052 -0.11234542 2.3508809e-38
-0.080687888 -0.13734378 -0.10934015 2.3509527e-38
-0.078273617 -0.1353019 -0.10128089 2.3508807e-38
-0.075783618 -0.13276742 -0.091277204 2.3509527e-38
-0.073436372 -0.13076027 -0.083355032 2.341805e-38
-0.071157776 -0.12896039 -0.076250874 2.3142544e-38
-0.069105215 -0.12821732 -0.073317967 2.286703e-38
-0.067058258 -0.12744872 -0.070284329 1.936574e-38
-0.064981349 -0.12645011 -0.066342793 1.8350498e-38
-0.062958933 -0.12569134 -0.063347898 2.185177e-38
-0.060905375 -0.12467657 -0.059342586 2.2678649e-38
-0.058902778 -0.12389888 -0.056273066 2.3509139e-38
-0.05676344 -0.12212978 -0.049290381 2.3508072e-38
-0.054683629 -0.12060766 -0.043282591 2.3508085e-38
-0.05258983 -0.11882581 -0.0362496 2.331938e-38
-0.050555184 -0.11731337 -0.030279957 2.3508092e-38
-0.048540272 -0.11579098 -0.024271093 2.3508451e-38
-0.046517938 -0.11401908 -0.017277442 2.3047837e-38
-0.044630334 -0.11327456 -0.014338814 2.2498978e-38
-0.042750813 -0.11250792 -0.011312924 2.2316024e-38
-0.040882319 -0.11174576 -0.0083046779 2.1211846e-38
-0.039024763 -0.1109881 -0.0053140745 1.8079378e-38
-0.037178047 -0.11023484 -0.0023409948 1.6698614e-38
-0.035284251 -0.10869022 0.0037556067 1.4579567e-38
-0.033513386 -0.10869022 0.0037556067 1.1631842e-38
-0.031654231 -0.10718934 0.0096795931 1.0803891e-38
-0.029854493 -0.1064329 0.012665309 1.1819136e-38
-0.027996151 -0.10414095 0.021711566 1.0713875e-38
-0.026227726 -0.10337795 0.02472309 1.0253263e-38
-0.024454087 -0.10210848 0.029733755 1.0714244e-38
-0.022710586 -0.10135777 0.032696821 1.0713887e-38
-0.020977138 -0.10058756 0.035736836 9.6997375e-39
-0.019254647 -0.099845976 0.038663901 8.9614536e-39
-0.017540552 -0.098564714 0.043720998 8.9610823e-39
-0.015842363 -0.097811699 0.046693183 8.4075301e-39
-0.014167793 -0.09578757 0.054682411 8.3149618e-39
-0.012486218 -0.09578757 0.054682411 9.6978948e-39
-0.010804644 -0.09578757 0.054682411 1.310913e-38
-0.0091467071 -0.09502852 0.057678379 1.6428508e-38
-0.0074703838 -0.09502852 0.057678379 1.7812498e-38
-0.0058177332 -0.0945023 0.059755422 1.7812498e-38
-0.0041450527 -0.0945023 0.059755422 1.7536632e-38
-0.0024723732 -0.0945023 0.059755422 1.661469e-38
-0.0007996927 -0.0945023 0.059755422 1.5600912e-38
0.00087298686 -0.0945023 0.059755422 1.4034324e-38
0.002587548 -0.09502852 0.057678379 1.2468441e-38
0.0042638709 -0.09502852 0.057678379 1.1546132e-38
0.0061281142 -0.097039983 0.04973916 1.099368e-38
0.0078183543 -0.097039983 0.04973916 1.090113e-38
0.0095085967 -0.097039983 0.04973916 1.0808937e-38
0.011143049 -0.096551389 0.051667608 1.1175568e-38
0.012829909 -0.096551389 0.051667608 1.0714238e-38
0.014774533 -0.098564714 0.043720998 1.0253987e-38
0.016373707 -0.097811699 0.046693183 1.0162158e-38
0.018069291 -0.097811699 0.046693183 9.6107817e-39
0.019876914 -0.098564714 0.043720998 9.0572534e-39
0.021577707 -0.098564714 0.043720998 8.6881177e-39
0.023278503 -0.098564714 0.043720998 8.6881205e-39
0.024851622 -0.097811699 0.046693183 1.0254364e-38
0.026547203 -0.097811699 0.046693183 9.5168036e-39
0.028242787 -0.097811699 0.046693183 8.7785183e-39
0.029938368 -0.097811699 0.046693183 8.2260648e-39
0.031633954 -0.097811699 0.046693183 7.857655e-39
0.033329535 -0.097811699 0.046693183 7.213729e-39
0.035184063 -0.098564714 0.043720998 6.4765268e-39
0.036884855 -0.098564714 0.043720998 6.0151858e-39
0.038585648 -0.098564714 0.043720998 5.4594896e-39
0.040462092 -0.099322364 0.040730573 5.4584078e-39
0.042168129 -0.099322364 0.040730573 5.0899813e-39
0.044002801 -0.099845976 0.038663901 4.5357285e-39
0.045899782 -0.10058756 0.035736836 3.6134092e-39
0.047614578 -0.10058756 0.035736836 2.7825668e-39
0.049329374 -0.10058756 0.035736836 2.3212243e-39
0.051044162 -0.10058756 0.035736836 2.2286657e-39
0.052974831 -0.10135777 0.032696821 2.6889194e-39
0.054694954 -0.10135777 0.032696821 3.2413715e-39
0.056415077 -0.10135777 0.032696821 3.7016266e-39
0.0581352 -0.10135777 0.032696821 3.6083492e-39
0.060086507 -0.10210848 0.029733755 3.5154319e-39
0.062049638 -0.10286374 0.026752748 3.8834927e-39
0.063780181 -0.10286374 0.026752748 4.3448268e-39
0.065510727 -0.10286374 0.026752748 4.8050777e-39
0.067413874 -0.10337795 0.02472309 3.6990804e-39
0.069147982 -0.10337795 0.02472309 3.7916278e-39
0.070882075 -0.10337795 0.02472309 3.699435e-39
0.072616182 -0.10337795 0.02472309 3.239533e-39
0.07435029 -0.10337795 0.02472309 2.8711106e-39
0.076084383 -0.10337795 0.02472309 2.9633062e-39
0.078106262 -0.10414095 0.021711566 3.516836e-39
0.079845645 -0.10414095 0.021711566 4.1614837e-39
0.081585027 -0.10414095 0.021711566 3.8852513e-39
0.08332441 -0.10414095 0.021711566 3.8841639e-39
0.085063793 -0.10414095 0.021711566 5.8199036e-39
0.086489014 -0.10337795 0.02472309 3.2373358e-39
0.088223107 -0.10337795 0.02472309 9.3985088e-42
0.089738362 -0.10286374 0.026752748 1.5763571e-39
0.091468908 -0.10286374 0.026752748 1.3912371e-39
0.093760721 -0.10414095 0.021711566 9.2808978e-40
0.095500104 -0.10414095 0.021711566 1.7546022e-39
-0.096268348 -0.14592977 -0.13527736 1.207942e-38
-0.093719147 -0.14390959 -0.12735841 2.30507e-38
-0.091515504 -0.14312236 -0.12427255 2.3418047e-38
-0.089520164 -0.14312236 -0.12427255 2.332621e-38
-0.087278254 -0.14211179 -0.12031134 2.3509527e-38
-0.085044257 -0.14107598 -0.11625107 2.3416971e-38
-0.082833566 -0.14007963 -0.11234542 2.3508809e-38
-0.080687888 -0.13931294 -0.10934015 2.3509168e-38
-0.078273617 -0.13725694 -0.10128089 2.3509168e-38
-0.075783618 -0.1347049 -0.091277204 2.3508091e-38
-0.073436372 -0.13268389 -0.083355032 2.3141822e-38
-0.071157776 -0.13087155 -0.076250874 2.2958867e-38
-0.069105215 -0.13012333 -0.073317967 1.7429998e-38
-0.066875122 -0.1283439 -0.066342793 9.7216482e-41
-0.064847447 -0.12757985 -0.063347898 2.1523944e-42
-0.062958933 -0.12757985 -0.063347898 3.1364213e-39
-0.060905375 -0.12655805 -0.059342586 6.7284537e-39
-0.058902778 -0.12577499 -0.056273066 7.4631419e-39
-0.05676344 -0.12399365 -0.049290381 1.1609431e-38
-0.054683629 -0.12246101 -0.043282591 2.0368019e-38
-0.05258983 -0.12066682 -0.0362496 2.3506274e-38
-0.050555184 -0.11914389 -0.030279957 2.3508435e-38
-0.048540272 -0.11761098 -0.024271093 2.3505556e-38
-0.046517938 -0.11582683 -0.017277442 2.3509517e-38
-0.044630334 -0.11507715 -0.014338814 2.3509883e-38
-0.042750813 -0.11430521 -0.011312924 2.2958514e-38
-0.040882319 -0.11353777 -0.0083046779 2.2867037e-38
-0.039024763 -0.11277486 -0.0053140745 2.2499695e-38
-0.037178047 -0.11201639 -0.0023409948 2.0198427e-38
-0.035284251 -0.11046107 0.0037556067 1.7526931e-38
-0.033464741 -0.10971604 0.0066761151 1.5408967e-38
-0.031654231 -0.10894983 0.0096795931 1.4120037e-38
-0.029854493 -0.10818814 0.012665309 1.2093185e-38
-0.027996151 -0.10588033 0.021711566 1.135779e-38
-0.026208153 -0.10459428 0.026752748 1.1266322e-38
-0.024454087 -0.10383381 0.029733755 1.1359242e-38
-0.022710586 -0.1030779 0.032696821 1.089827e-38
-0.020977138 -0.10230236 0.035736836 1.0161067e-38
-0.019254647 -0.10155563 0.038663901 1.0436938e-38
-0.017540552 -0.10026552 0.043720998 1.1174856e-38
-0.015842363 -0.099507287 0.046693183 9.6990004e-39
-0.014167793 -0.097469151 0.054682411 8.6848443e-39
-0.012486218 -0.097469151 0.054682411 8.0405539e-39
-0.010823028 -0.096704841 0.057678379 8.8710306e-39
-0.0091467071 -0.096704841 0.057678379 1.0162848e-38
-0.0074904137 -0.09617497 0.059755422 1.0716738e-38
-0.0058177332 -0.09617497 0.059755422 1.0165004e-38
-0.0041450527 -0.09617497 0.059755422 9.6125487e-39
-0.0024723732 -0.09617497 0.059755422 1.0165725e-38
-0.0007996927 -0.09617497 0.059755422 9.8898587e-39
0.0009112251 -0.096704841 0.057678379 9.8898643e-39
0.002587548 -0.096704841 0.057678379 1.0073898e-38
0.0042638709 -0.096704841 0.057678379 1.0258292e-38
0.0060111065 -0.097469151 0.054682411 1.0258295e-38
0.0077693281 -0.09823826 0.051667608 1.0349415e-38
0.0095085967 -0.098730221 0.04973916 1.0256863e-38
0.011286959 -0.099507287 0.046693183 1.0808599e-38
0.012982542 -0.099507287 0.046693183 1.0530937e-38
0.014774533 -0.10026552 0.043720998 1.0346549e-38
0.016373707 -0.099507287 0.046693183 1.0438747e-38
0.018069291 -0.099507287 0.046693183 1.0162522e-38
0.019876914 -0.10026552 0.043720998 9.7937422e-39
0.021460457 -0.099507287 0.046693183 9.608995e-39
0.023156038 -0.099507287 0.046693183 9.7011935e-39
0.024851622 -0.099507287 0.046693183 1.0346559e-38
0.026547203 -0.099507287 0.046693183 9.9777804e-39
0.028242787 -0.099507287 0.046693183 9.4256856e-39
0.029938368 -0.099507287 0.046693183 9.33349e-39
0.031633954 -0.099507287 0.046693183 9.4246066e-39
0.033329535 -0.099507287 0.046693183 9.0558213e-39
0.035184063 -0.10026552 0.043720998 8.134944e-39
0.036884855 -0.10026552 0.043720998 7.6728868e-39
0.038585648 -0.10026552 0.043720998 7.0264356e-39
0.040286444 -0.10026552 0.043720998 7.3944979e-39
0.041987237 -0.10026552 0.043720998 7.393779e-39
0.043874167 -0.1010284 0.040730573 6.7484096e-39
0.045712464 -0.10155563 0.038663901 5.8253743e-39
0.047422122 -0.10155563 0.038663901 4.8108622e-39
0.049329374 -0.10230236 0.035736836 4.2569668e-39
0.051044162 -0.10230236 0.035736836 4.3484407e-39
0.052758958 -0.10230236 0.035736836 5.084561e-39
0.054694954 -0.1030779 0.032696821 5.5451762e-39
0.056415077 -0.1030779 0.032696821 5.9135944e-39
0.0581352 -0.1030779 0.032696821 6.1894554e-39
0.060086507 -0.10383381 0.029733755 6.5578736e-39
0.062049638 -0.10459428 0.026752748 7.2032374e-39
0.063780181 -0.10459428 0.026752748 7.8478838e-39
0.065510727 -0.10459428 0.026752748 7.8482383e-39
0.067413874 -0.10511206 0.02472309 8.4010435e-39
0.069147982 -0.10511206 0.02472309 8.677985e-39
0.070882075 -0.10511206 0.02472309 8.8623734e-39
0.072616182 -0.10511206 0.02472309 8.7708966e-39
0.07435029 -0.10511206 0.02472309 8.6786982e-39
0.076084383 -0.10511206 0.02472309 8.7719714e-39
0.077818491 -0.10511206 0.02472309 9.5088106e-39
0.079845645 -0.10588033 0.021711566 9.969786e-39
0.081585027 -0.10588033 0.021711566 1.0891378e-38
0.08332441 -0.10588033 0.021711566 1.0706621e-38
0.084754907 -0.10511206 0.02472309 1.1720404e-38
0.086277269 -0.10459428 0.026752748 6.372692e-39
0.087691598 -0.10383381 0.029733755 1.0239022e-39
0.089097418 -0.1030779 0.032696821 1.6689086e-39
0.090817533 -0.1030779 0.032696821 1.667824e-39
0.092537664 -0.1030779 0.032696821 1.2050396e-39
0.094257779 -0.1030779 0.032696821 2.2155804e-39
-0.096268348 -0.14794444 -0.13527736 1.1802833e-38
-0.093719147 -0.14591034 -0.12735841 2.2958504e-38
-0.091515504 -0.14511769 -0.12427255 2.3418047e-38
-0.089520164 -0.14511769 -0.12427255 2.3234015e-38
-0.087278254 -0.1441002 -0.12031134 2.3509527e-38
-0.085044257 -0.14305727 -0.11625107 2.3416971e-38
-0.082833566 -0.14205404 -0.11234542 2.3508809e-38
-0.080460973 -0.14025922 -0.10535797 2.3509168e-38
-0.078273617 -0.13921197 -0.10128089 2.3508809e-38
-0.075783618 -0.13664238 -0.091277204 2.3509168e-38
-0.07364051 -0.13562126 -0.087301813 2.3234379e-38
-0.071157776 -0.13278268 -0.076250874 2.2958867e-38
-0.069105215 -0.13202934 -0.073317967 1.9734172e-38
-0.066875122 -0.13023765 -0.066342793 1.4349296e-42
-0.064847447 -0.1294684 -0.063347898 3.643376e-43
-0.062958933 -0.1294684 -0.063347898 6.4429882e-40
-0.060778901 -0.12765111 -0.056273066 1.1945901e-39
-0.058627315 -0.12585752 -0.049290381 3.3125575e-39
-0.05676344 -0.12585752 -0.049290381 4.6029193e-39
-0.054683629 -0.12431435 -0.043282591 9.7662207e-39
-0.05258983 -0.12250783 -0.0362496 1.7327336e-38
-0.050555184 -0.12097444 -0.030279957 2.3413684e-38
-0.048540272 -0.11943097 -0.024271093 2.3508766e-38
-0.046517938 -0.11763458 -0.017277442 2.3508057e-38
-0.044630334 -0.11687975 -0.014338814 2.350987e-38
-0.042750813 -0.1161025 -0.011312924 2.2588281e-38
-0.040882319 -0.11532979 -0.0083046779 2.2865955e-38
-0.039090306 -0.11532979 -0.0083046779 2.2867037e-38
-0.037178047 -0.11379795 -0.0023409948 2.2131994e-38
-0.035284251 -0.11223195 0.0037556067 2.1673176e-38
-0.033464741 -0.11148177 0.0066761151 1.9739249e-38
-0.031654231 -0.11071031 0.0096795931 1.5224212e-38
-0.029814167 -0.10915567 0.015731908 1.301297e-38
-0.02796183 -0.10684617 0.02472309 1.2460884e-38
-0.026208153 -0.10632484 0.026752748 1.2369774e-38
-0.024454087 -0.10555913 0.029733755 1.2462696e-38
-0.022710586 -0.104798 0.032696821 1.2093916e-38
-0.020977138 -0.10401715 0.035736836 1.1080126e-38
-0.019254647 -0.1032653 0.038663901 1.0710627e-38
-0.017540552 -0.10196631 0.043720998 1.0803189e-38
-0.015845034 -0.10042046 0.04973916 1.0343301e-38
-0.014167793 -0.099150717 0.054682411 9.6060986e-39
-0.012499351 -0.098381177 0.057678379 8.6852213e-39
-0.010823028 -0.098381177 0.057678379 8.6859373e-39
-0.0091467071 -0.098381177 0.057678379 9.6089726e-39
-0.0074904137 -0.097847655 0.059755422 1.0808232e-38
-0.0058177332 -0.097847655 0.059755422 1.1085538e-38
-0.0041450527 -0.097847655 0.059755422 1.0625636e-38
-0.0024723732 -0.097847655 0.059755422 9.4267366e-39
-0.0007996927 -0.097847655 0.059755422 9.6118495e-39
0.0009112251 -0.098381177 0.057678379 1.0072828e-38
0.002587548 -0.098381177 0.057678379 1.053345e-38
0.004329531 -0.099150717 0.054682411 1.0902234e-38
0.0060111065 -0.099150717 0.054682411 1.0902235e-38
0.0077693281 -0.099925116 0.051667608 1.0717129e-38
0.0094561875 -0.099925116 0.051667608 1.0348707e-38
0.011198839 -0.10042046 0.04973916 1.0903311e-38
0.012889082 -0.10042046 0.04973916 1.0534534e-38
0.014678126 -0.10120286 0.046693183 1.0350146e-38
0.016373707 -0.10120286 0.046693183 1.0350146e-38
0.018069291 -0.10120286 0.046693183 1.0349429e-38
0.019764872 -0.10120286 0.046693183 1.0072846e-38
0.021460457 -0.10120286 0.046693183 1.0163964e-38
0.023156038 -0.10120286 0.046693183 1.0440547e-38
0.024851622 -0.10120286 0.046693183 9.3338431e-39
0.026547203 -0.10120286 0.046693183 9.0572534e-39
0.028242787 -0.10120286 0.046693183 9.0565317e-39
0.029938368 -0.10120286 0.046693183 9.1487273e-39
0.031633954 -0.10120286 0.046693183 9.3323969e-39
0.033329535 -0.10120286 0.046693183 9.2401985e-39
0.035184063 -0.10196631 0.043720998 8.6873807e-39
0.036884855 -0.10196631 0.043720998 8.4093532e-39
0.038585648 -0.10196631 0.043720998 8.4993853e-39
0.040286444 -0.10196631 0.043720998 9.2355084e-39
0.041987237 -0.10196631 0.043720998 9.603572e-39
0.043874167 -0.10273445 0.040730573 9.4184605e-39
0.045712464 -0.1032653 0.038663901 8.4965042e-39
0.047422122 -0.1032653 0.038663901 7.7582175e-39
0.049131785 -0.1032653 0.038663901 7.2968792e-39
0.051044162 -0.10401715 0.035736836 7.2036032e-39
0.052758958 -0.10401715 0.035736836 6.9266533e-39
0.054694954 -0.104798 0.032696821 7.29471e-39
0.056415077 -0.104798 0.032696821 7.5709325e-39
0.0581352 -0.104798 0.032696821 7.9393493e-39
0.060086507 -0.10555913 0.029733755 8.7680282e-39
0.062049638 -0.10632484 0.026752748 9.5981434e-39
0.063780181 -0.10632484 0.026752748 9.966563e-39
0.065510727 -0.10632484 0.026752748 9.8743645e-39
0.067413874 -0.10684617 0.02472309 9.7814416e-39
0.069147982 -0.10684617 0.02472309 1.015058e-38
0.070882075 -0.10684617 0.02472309 1.0703752e-38
0.072616182 -0.10684617 0.02472309 1.0889223e-38
0.07435029 -0.10684617 0.02472309 1.1073614e-38
0.076084383 -0.10684617 0.02472309 1.1442394e-38
0.077818491 -0.10684617 0.02472309 1.1903728e-38
0.079552598 -0.10684617 0.02472309 1.2272505e-38
0.081286706 -0.10684617 0.02472309 1.2271783e-38
0.083020799 -0.10684617 0.02472309 1.2732395e-38
0.084754907 -0.10684617 0.02472309 1.3561792e-38
0.086277269 -0.10632484 0.026752748 6.6463936e-39
0.087691598 -0.10555913 0.029733755 3.7672508e-40
0.089097418 -0.104798 0.032696821 1.3897966e-39
0.090817533 -0.104798 0.032696821 2.8645609e-39
0.092537664 -0.104798 0.032696821 3.23154e-39
-0.093989886 -0.14894833 -0.13136908 2.2866308e-38
-0.091515504 -0.14711304 -0.12427255 2.3418047e-38
-0.089520164 -0.14711304 -0.12427255 2.3234015e-38
-0.087278254 -0.14608859 -0.12031134 2.3509527e-38
-0.085044257 -0.14503856 -0.11625107 2.3509167e-38
-0.082833566 -0.14402847 -0.11234542 2.3509168e-38
-0.080460973 -0.14222141 -0.10535797 2.3509168e-38
-0.078110874 -0.14040495 -0.098334275 2.2955644e-38
-0.075783618 -0.13857989 -0.091277204 2.3509527e-38
-0.07364051 -0.1375518 -0.087301813 2.2589371e-38
-0.071157776 -0.13469382 -0.076250874 2.1852525e-38
-0.068958946 -0.13315077 -0.070284329 1.9733105e-38
-0.066875122 -0.13213144 -0.066342793 1.44614e-42
-0.064847447 -0.13135691 -0.063347898 2.0283207e-39
-0.06278687 -0.13032107 -0.059342586 9.1981511e-40
-0.060778901 -0.12952723 -0.056273066 3.2218234e-39
-0.058627315 -0.12772138 -0.049290381 8.1985741e-39
-0.05676344 -0.12772138 -0.049290381 8.4747799e-39
-0.054683629 -0.12616767 -0.043282591 5.5252218e-39
-0.05258983 -0.12434883 -0.0362496 5.5270084e-39
-0.050555184 -0.12280498 -0.030279957 1.0138584e-38
-0.048540272 -0.121251 -0.024271093 1.7331641e-38
-0.046517938 -0.11944233 -0.017277442 2.3509844e-38
-0.044630334 -0.11868234 -0.014338814 2.3509859e-38
-0.042750813 -0.11789979 -0.011312924 2.3509869e-38
-0.040882319 -0.1171218 -0.0083046779 2.3509873e-38
-0.039090306 -0.1171218 -0.0083046779 2.3418047e-38
-0.037178047 -0.1155795 -0.0023409948 2.2683007e-38
-0.035284251 -0.11400281 0.0037556067 2.2591531e-38
-0.033464741 -0.11324753 0.0066761151 2.2132353e-38
-0.031609736 -0.11169861 0.012665309 2.0476086e-38
-0.029814167 -0.11090554 0.015731908 1.7988635e-38
-0.02796183 -0.10858028 0.02472309 1.64224e-38
-0.026179405 -0.10728444 0.029733755 1.5132028e-38
-0.024430709 -0.10651813 0.032696821 1.4948001e-38
-0.022710586 -0.10651813 0.032696821 1.4764333e-38
-0.020977138 -0.10573195 0.035736836 1.4026771e-38
-0.019249212 -0.10444047 0.040730573 1.2736035e-38
-0.017540552 -0.1036671 0.043720998 1.1630777e-38
-0.015845034 -0.1021107 0.04973916 1.0802837e-38
-0.014167793 -0.1008323 0.054682411 1.0435863e-38
-0.012499351 -0.1000575 0.057678379 9.9748825e-39
-0.010823028 -0.1000575 0.057678379 9.4227877e-39
-0.0091467071 -0.1000575 0.057678379 1.0068875e-38
-0.0074904137 -0.099520341 0.059755422 1.1451806e-38
-0.0058177332 -0.099520341 0.059755422 1.1729472e-38
-0.0041450527 -0.099520341 0.059755422 1.1269213e-38
-0.0024723732 -0.099520341 0.059755422 1.1914578e-38
-0.0007996927 -0.099520341 0.059755422 1.1822025e-38
0.0009112251 -0.1000575 0.057678379 1.1822025e-38
0.002587548 -0.1000575 0.057678379 1.1822025e-38
0.0042638709 -0.1000575 0.057678379 1.1913861e-38
0.0060111065 -0.1008323 0.054682411 1.1821666e-38
0.0076926821 -0.1008323 0.054682411 1.1820949e-38
0.0094561875 -0.10161197 0.051667608 1.1453607e-38
0.011198839 -0.1021107 0.04973916 1.090367e-38
0.012889082 -0.1021107 0.04973916 1.0535611e-38
0.014579324 -0.1021107 0.04973916 1.0259025e-38
0.016269566 -0.1021107 0.04973916 1.0350502e-38
0.018069291 -0.10289843 0.046693183 1.0165392e-38
0.019764872 -0.10289843 0.046693183 9.9802803e-39
0.021460457 -0.10289843 0.046693183 1.016395e-38
0.023156038 -0.10289843 0.046693183 1.0716402e-38
0.024851622 -0.10289843 0.046693183 1.2559938e-38
0.026547203 -0.10289843 0.046693183 1.2374832e-38
0.028242787 -0.10289843 0.046693183 1.2374114e-38
0.029938368 -0.10289843 0.046693183 1.2557785e-38
0.031633954 -0.10289843 0.046693183 1.3110233e-38
0.033329535 -0.10289843 0.046693183 1.3386457e-38
0.035184063 -0.1036671 0.043720998 1.329426e-38
0.036884855 -0.1036671 0.043720998 1.3385371e-38
0.038585648 -0.1036671 0.043720998 1.3843823e-38
0.040462092 -0.10444047 0.040730573 1.4671064e-38
0.042168129 -0.10444047 0.040730573 1.4855455e-38
0.043874167 -0.10444047 0.040730573 1.4763259e-38
0.045712464 -0.10497494 0.038663901 1.4670345e-38
0.047422122 -0.10497494 0.038663901 1.4577789e-38
0.049131785 -0.10497494 0.038663901 1.4300123e-38
0.051044162 -0.10573195 0.035736836 1.3839142e-38
0.052758958 -0.10573195 0.035736836 1.4115366e-38
0.054694954 -0.10651813 0.032696821 1.457562e-38
0.056415077 -0.10651813 0.032696821 1.4851485e-38
0.0581352 -0.10651813 0.032696821 1.5035511e-38
0.059855323 -0.10651813 0.032696821 1.5404651e-38
0.062049638 -0.10805537 0.026752748 1.5957822e-38
0.063945659 -0.10858028 0.02472309 1.6418077e-38
0.065679766 -0.10858028 0.02472309 1.6325515e-38
0.067413874 -0.10858028 0.02472309 1.5863457e-38
0.069147982 -0.10858028 0.02472309 1.6324791e-38
0.070882075 -0.10858028 0.02472309 1.6970157e-38
0.072616182 -0.10858028 0.02472309 1.7432215e-38
0.07435029 -0.10858028 0.02472309 1.7800997e-38
0.076084383 -0.10858028 0.02472309 1.8077944e-38
0.077818491 -0.10858028 0.02472309 1.8446364e-38
0.079552598 -0.10858028 0.02472309 1.8722949e-38
0.081286706 -0.10858028 0.02472309 1.9368675e-38
0.083020799 -0.10858028 0.02472309 1.964418e-38
0.084754907 -0.10858028 0.02472309 1.9460141e-38
0.086277269 -0.10805537 0.026752748 9.6870404e-39
0.088007815 -0.10805537 0.026752748 1.7578533e-39
0.089097418 -0.10651813 0.032696821 1.5723802e-39
0.090817533 -0.10651813 0.032696821 3.0471459e-39
0.092537664 -0.10651813 0.032696821 3.045704e-39
-0.091718398 -0.14991184 -0.12735841 2.3418047e-38
-0.089520164 -0.14910837 -0.12427255 2.3234015e-38
-0.087278254 -0.148077 -0.12031134 2.3509527e-38
-0.084807999 -0.1460029 -0.11234542 2.3509167e-38
-0.082657047 -0.14522041 -0.10934015 2.3509168e-38
-0.080460973 -0.14418359 -0.10535797 2.3509527e-38
-0.078110874 -0.14235483 -0.098334275 2.350988e-38
-0.076161012 -0.14235483 -0.098334275 2.341805e-38
-0.07364051 -0.1394823 -0.087301813 2.3234379e-38
-0.071157776 -0.13660498 -0.076250874 2.323402e-38
-0.068958946 -0.13505147 -0.070284329 2.0191584e-38
-0.066875122 -0.1340252 -0.066342793 1.821688e-44
-0.064847447 -0.13324542 -0.063347898 1.4733392e-39
-0.06278687 -0.13220255 -0.059342586 4.0533707e-39
-0.060657792 -0.13063805 -0.053333722 3.4061964e-39
-0.058627315 -0.12958528 -0.049290381 9.9506428e-39
-0.05676344 -0.12958528 -0.049290381 1.2531041e-38
-0.054683629 -0.12802102 -0.043282591 8.2907543e-39
-0.05258983 -0.12618984 -0.0362496 3.9597065e-39
-0.050555184 -0.12463553 -0.030279957 3.5934239e-39
-0.04863219 -0.12385099 -0.027266823 1.0786464e-38
-0.046606503 -0.12204717 -0.020338856 2.0098226e-38
-0.044710197 -0.12125005 -0.017277442 2.3509485e-38
-0.04282774 -0.12048493 -0.014338814 2.3508777e-38
-0.040953524 -0.11969708 -0.011312924 2.3506621e-38
-0.039090306 -0.11891381 -0.0083046779 2.3508428e-38
-0.037178047 -0.11736105 -0.0023409948 2.3509879e-38
-0.035284251 -0.11577369 0.0037556067 2.3050708e-38
-0.033414714 -0.11423124 0.0096795931 2.2407501e-38
-0.031609736 -0.11345388 0.012665309 2.2316024e-38
-0.029735534 -0.11109848 0.021711566 2.1027099e-38
-0.02796183 -0.11031438 0.02472309 1.9000256e-38
-0.026179405 -0.10900976 0.029733755 1.6880127e-38
-0.024430709 -0.10823826 0.032696821 1.5866339e-38
-0.022710586 -0.10823826 0.032696821 1.5498278e-38
-0.020977138 -0.10744675 0.035736836 1.50373e-38
-0.019249212 -0.1061465 0.040730573 1.4207542e-38
-0.017537948 -0.10459404 0.046693183 1.3010814e-38
-0.015849369 -0.10251388 0.054682411 1.2461268e-38
-0.014167793 -0.10251388 0.054682411 1.190991e-38
-0.012499351 -0.10173382 0.057678379 1.1264538e-38
-0.010823028 -0.10173382 0.057678379 1.0527692e-38
-0.0091467071 -0.10173382 0.057678379 1.0804995e-38
-0.0074904137 -0.10119301 0.059755422 1.191134e-38
-0.0058177332 -0.10119301 0.059755422 1.2189006e-38
-0.0041450527 -0.10119301 0.059755422 1.1912416e-38
-0.0024723732 -0.10119301 0.059755422 1.2004611e-38
-0.0007996927 -0.10119301 0.059755422 1.1912419e-38
0.0009112251 -0.10173382 0.057678379 1.1912419e-38
0.002587548 -0.10173382 0.057678379 1.2189006e-38
0.0042638709 -0.10173382 0.057678379 1.2648903e-38
0.0060111065 -0.10251388 0.054682411 1.2925486e-38
0.0076926821 -0.10251388 0.054682411 1.3201351e-38
