# .PCD v0.7 - Point Cloud Data file format
VERSION 0.7
FIELDS x y z rgb
SIZE 4 4 4 4
TYPE F F F F
COUNT 1 1 1 1
WIDTH 691
HEIGHT 1
VIEWPOINT 0 0 0 1 0 0 0
POINTS 691
DATA ascii
0.013282131 -0.11962132 -0.038843423 2.1666339e-38
0.0093438104 -0.12159048 -0.038843423 2.3325131e-38
0.011312969 -0.12159048 -0.038843423 2.304891e-38
0.013282131 -0.12159048 -0.038843423 2.3325856e-38
0.015390929 -0.12230973 -0.041848689 2.341805e-38
0.017365359 -0.12230973 -0.041848689 2.3142544e-38
0.019339789 -0.12230973 -0.041848689 2.2129483e-38
0.0093438104 -0.12355967 -0.038843423 2.3509523e-38
0.011312969 -0.12355967 -0.038843423 2.3509527e-38
0.013282131 -0.12355967 -0.038843423 2.3509886e-38
0.015390929 -0.12428416 -0.041848689 2.341805e-38
0.017220452 -0.12355967 -0.038843423 2.3234379e-38
0.019189615 -0.12355967 -0.038843423 2.2958873e-38
0.021158777 -0.12355967 -0.038843423 2.2867037e-38
-0.003363274 -0.11846836 -0.0097685149 2.2772321e-38
0.0093438104 -0.12552883 -0.038843423 2.3509883e-38
0.011312969 -0.12552883 -0.038843423 2.3509527e-38
0.013282131 -0.12552883 -0.038843423 2.3509886e-38
0.015390929 -0.1262586 -0.041848689 2.341805e-38
0.017220452 -0.12552883 -0.038843423 2.2957796e-38
0.019189615 -0.12552883 -0.038843423 2.3050349e-38
0.021158777 -0.12552883 -0.038843423 2.2958873e-38
0.023127936 -0.12552883 -0.038843423 2.2958873e-38
0.025097098 -0.12552883 -0.038843423 2.2867037e-38
-0.011200447 -0.11868732 -0.0028212359 2.3325127e-38
-0.0093715694 -0.11794533 0.00021240208 2.3509879e-38
-0.0074708872 -0.11794533 0.00021240208 2.3509879e-38
-0.005482439 -0.11868732 -0.0028212359 2.3509883e-38
-0.003363274 -0.12038656 -0.0097685149 2.3509886e-38
-0.0014450885 -0.12038656 -0.0097685149 2.3509527e-38
0.00047309324 -0.12038656 -0.0097685149 2.3509883e-38
0.0023912787 -0.12038656 -0.0097685149 2.3509883e-38
0.0044259354 -0.12114228 -0.0128583 2.3325131e-38
0.006505236 -0.12210761 -0.016805083 2.3416248e-38
0.0093438104 -0.12749799 -0.038843423 2.3508444e-38
0.011312969 -0.12749799 -0.038843423 2.2771602e-38
0.013282131 -0.12749799 -0.038843423 2.3509167e-38
0.015251294 -0.12749799 -0.038843423 2.3509527e-38
0.017220452 -0.12749799 -0.038843423 2.341805e-38
0.019189615 -0.12749799 -0.038843423 2.3142185e-38
0.021158777 -0.12749799 -0.038843423 2.3050708e-38
0.023127936 -0.12749799 -0.038843423 2.2865961e-38
0.024877161 -0.12652399 -0.034861237 2.2497184e-38
0.026839338 -0.12652399 -0.034861237 2.3234379e-38
0.028801523 -0.12652399 -0.034861237 1.8901557e-38
-0.020938737 -0.11715056 0.011154146 1.2448205e-38
-0.019057238 -0.11715056 0.011154146 1.5767248e-38
-0.017102003 -0.11813726 0.007148833 2.1390102e-38
-0.015153095 -0.11887501 0.004153938 2.3509883e-38
-0.013259321 -0.11887501 0.004153938 2.3509883e-38
-0.011272253 -0.119846 0.00021240208 2.3509521e-38
-0.0094717778 -0.11887501 0.004153938 2.2955267e-38
-0.0075780042 -0.11887501 0.004153938 2.3508801e-38
-0.0055702031 -0.119846 0.00021240208 2.2680125e-38
-0.0035764389 -0.12059332 -0.0028212359 2.3326213e-38
-0.0014450885 -0.12230472 -0.0097685149 2.3509886e-38
0.00047309324 -0.12230472 -0.0097685149 2.3233299e-38
0.0023912787 -0.12230472 -0.0097685149 2.314074e-38
0.0044259354 -0.12306587 -0.0128583 2.3509883e-38
0.006505236 -0.12403814 -0.016805083 2.3509521e-38
0.0087244324 -0.12576406 -0.023811251 2.3509521e-38
0.010667238 -0.12576406 -0.023811251 2.3508804e-38
0.012921803 -0.1274818 -0.03078416 2.3509527e-38
0.015066266 -0.12848614 -0.034861237 2.3509527e-38
0.017220452 -0.12946714 -0.038843423 2.3509527e-38
0.019189615 -0.12946714 -0.038843423 2.3509527e-38
0.021158777 -0.12946714 -0.038843423 2.341805e-38
0.023127936 -0.12946714 -0.038843423 2.3417691e-38
0.024877161 -0.12848614 -0.034861237 2.3234379e-38
0.026607014 -0.1274818 -0.03078416 2.231171e-38
0.028562047 -0.1274818 -0.03078416 2.2588296e-38
0.030517079 -0.1274818 -0.03078416 2.2035846e-38
-0.024621956 -0.1207688 0.004153938 2.3142532e-38
-0.022728184 -0.1207688 0.004153938 2.2866307e-38
-0.020938737 -0.11903207 0.011154146 2.3234376e-38
-0.019057238 -0.11903207 0.011154146 2.2773037e-38
-0.017102003 -0.12002577 0.007148833 2.3509883e-38
-0.015213482 -0.12002577 0.007148833 2.2403175e-38
-0.013324959 -0.12002577 0.007148833 2.295527e-38
-0.011436438 -0.12002577 0.007148833 2.3509524e-38
-0.0095479172 -0.12002577 0.007148833 2.3509165e-38
-0.0075780042 -0.1207688 0.004153938 2.3509524e-38
-0.0056842323 -0.1207688 0.004153938 2.341769e-38
-0.003669519 -0.12174667 0.00021240208 2.341805e-38
-0.0016704351 -0.1224993 -0.0028212359 2.3509886e-38
0.00033584237 -0.12322696 -0.0057541421 2.3509886e-38
0.0022469871 -0.12322696 -0.0057541421 2.3509883e-38
0.0043094605 -0.12422292 -0.0097685149 2.3509883e-38
0.0063495338 -0.12498946 -0.0128583 2.3509521e-38
0.008435756 -0.12596865 -0.016805083 2.3047463e-38
0.010667238 -0.12770687 -0.023811251 2.3509524e-38
0.012610044 -0.12770687 -0.023811251 2.3509524e-38
0.014876831 -0.12943684 -0.03078416 2.3509167e-38
0.017028447 -0.13044833 -0.034861237 2.3232583e-38
0.018990625 -0.13044833 -0.034861237 2.3140387e-38
0.020952806 -0.13044833 -0.034861237 2.314075e-38
0.022914983 -0.13044833 -0.034861237 2.314075e-38
0.024877161 -0.13044833 -0.034861237 2.3048554e-38
0.026607014 -0.12943684 -0.03078416 2.3141103e-38
0.02838897 -0.12870578 -0.027837545 2.3509886e-38
0.030338839 -0.12870578 -0.027837545 2.074438e-38
0.0322887 -0.12870578 -0.027837545 2.3142544e-38
-0.02651573 -0.12266256 0.004153938 2.2588994e-38
-0.024621956 -0.12266256 0.004153938 2.3234369e-38
-0.022728184 -0.12266256 0.004153938 2.3234372e-38
-0.020879045 -0.12191428 0.007148833 2.2680841e-38
-0.018990524 -0.12191428 0.007148833 2.3418047e-38
-0.017102003 -0.12191428 0.007148833 2.3509886e-38
-0.015213482 -0.12191428 0.007148833 2.3509527e-38
-0.013324959 -0.12191428 0.007148833 2.3509527e-38
-0.011436438 -0.12191428 0.007148833 2.3508448e-38
-0.0095479172 -0.12191428 0.007148833 2.3414453e-38
-0.0076593962 -0.12191428 0.007148833 2.3231141e-38
-0.0056842323 -0.12266256 0.004153938 2.3509886e-38
-0.003669519 -0.12364738 0.00021240208 2.341805e-38
-0.0016704351 -0.12440531 -0.0028212359 2.2956712e-38
0.00033584237 -0.12513812 -0.0057541421 2.3141103e-38
0.0022469871 -0.12513812 -0.0057541421 2.2864153e-38
0.0043094605 -0.12614109 -0.0097685149 2.2034393e-38
0.0063495338 -0.12691309 -0.0128583 2.2586485e-38
0.0082731359 -0.12691309 -0.0128583 2.3509521e-38
0.010366276 -0.12789918 -0.016805083 2.3508441e-38
0.012474537 -0.12889244 -0.020780474 2.3508445e-38
0.014412027 -0.12889244 -0.020780474 2.3508805e-38
0.016495652 -0.12964968 -0.023811251 2.3509527e-38
0.01863965 -0.13065563 -0.027837545 2.3509527e-38
0.020952806 -0.13241051 -0.034861237 2.3509527e-38
0.022914983 -0.13241051 -0.034861237 2.3509527e-38
0.024877161 -0.13241051 -0.034861237 2.3509527e-38
0.026607014 -0.13139187 -0.03078416 2.350988e-38
0.02838897 -0.13065563 -0.027837545 2.2771953e-38
0.030338839 -0.13065563 -0.027837545 2.2865232e-38
0.0322887 -0.13065563 -0.027837545 2.3234379e-38
0.034238562 -0.13065563 -0.027837545 2.2037639e-38
-0.028409502 -0.12455635 0.004153938 2.3508786e-38
-0.02651573 -0.12455635 0.004153938 2.3509869e-38
-0.024621956 -0.12455635 0.004153938 2.350987e-38
-0.022767566 -0.12380283 0.007148833 2.3416237e-38
-0.020938737 -0.12279506 0.011154146 2.3509513e-38
-0.019057238 -0.12279506 0.011154146 2.3509517e-38
-0.017175741 -0.12279506 0.011154146 2.3140016e-38
-0.015294243 -0.12279506 0.011154146 2.3508801e-38
-0.013412744 -0.12279506 0.011154146 2.3509883e-38
-0.011531245 -0.12279506 0.011154146 2.3324775e-38
-0.0096497461 -0.12279506 0.011154146 2.3509886e-38
-0.0076593962 -0.12380283 0.007148833 2.3325497e-38
-0.0057708751 -0.12380283 0.007148833 2.3050349e-38
-0.0037904605 -0.12455635 0.004153938 2.2312784e-38
-0.0017688386 -0.12554805 0.00021240208 2.341805e-38
0.00023556501 -0.12631132 -0.0028212359 2.3509886e-38
0.0021415688 -0.12631132 -0.0028212359 2.323258e-38
0.0041581318 -0.12704925 -0.0057541421 2.0465991e-38
0.0062276423 -0.12805928 -0.0097685149 2.0834052e-38
0.0081458278 -0.12805928 -0.0097685149 2.3415885e-38
0.010196738 -0.12883668 -0.0128583 2.3509521e-38
0.012296796 -0.12982969 -0.016805083 2.350952e-38
0.01422732 -0.12982969 -0.016805083 2.3509879e-38
0.016349521 -0.13082992 -0.020780474 2.3509521e-38
0.018438458 -0.13159247 -0.023811251 2.3509523e-38
0.020381261 -0.13159247 -0.023811251 2.3325494e-38
0.022696953 -0.13334687 -0.03078416 2.3417691e-38
0.024651986 -0.13334687 -0.03078416 2.3509527e-38
0.026607014 -0.13334687 -0.03078416 2.3509524e-38
0.02838897 -0.13260551 -0.027837545 2.3509883e-38
0.030338839 -0.13260551 -0.027837545 2.3417687e-38
0.0322887 -0.13260551 -0.027837545 2.249645e-38
0.034238562 -0.13260551 -0.027837545 2.3142541e-38
0.036188431 -0.13260551 -0.027837545 2.2775199e-38
0.038138293 -0.13260551 -0.027837545 2.2867037e-38
-0.030321652 -0.12569134 0.007148833 2.3508067e-38
-0.028433131 -0.12569134 0.007148833 2.3506988e-38
-0.02654461 -0.12569134 0.007148833 2.3506988e-38
-0.024701737 -0.12467657 0.011154146 2.3508065e-38
-0.022860602 -0.12389888 0.014223666 2.3508065e-38
-0.020984484 -0.12389888 0.014223666 2.3506984e-38
-0.019108368 -0.12389888 0.014223666 2.3508783e-38
-0.017175741 -0.12467657 0.011154146 2.3509502e-38
-0.015294243 -0.12467657 0.011154146 2.3509147e-38
-0.013412744 -0.12467657 0.011154146 2.2773388e-38
-0.011531245 -0.12467657 0.011154146 2.2591164e-38
-0.0096497461 -0.12467657 0.011154146 2.2775202e-38
-0.0076593962 -0.12569134 0.007148833 2.2591531e-38
-0.0057708751 -0.12569134 0.007148833 2.2591531e-38
-0.0037904605 -0.12645011 0.004153938 2.2958873e-38
-0.0017688386 -0.12744872 0.00021240208 2.3142544e-38
0.00013184547 -0.12744872 0.00021240208 2.3325138e-38
0.0021415688 -0.12821732 -0.0028212359 2.3509168e-38
0.0041581318 -0.12896039 -0.0057541421 2.3508092e-38
0.0062276423 -0.12997745 -0.0097685149 2.2122995e-38
0.0081458278 -0.12997745 -0.0097685149 1.9911372e-38
0.010196738 -0.13076027 -0.0128583 2.2954906e-38
0.012120336 -0.13076027 -0.0128583 2.3509873e-38
0.014043938 -0.13076027 -0.0128583 2.3509873e-38
0.016157839 -0.13176022 -0.016805083 2.3234004e-38
0.01828701 -0.13276742 -0.020780474 2.3418043e-38
0.020381261 -0.13353528 -0.023811251 2.3418047e-38
0.022539381 -0.13455538 -0.027837545 2.3141822e-38
0.024489243 -0.13455538 -0.027837545 2.3048554e-38
0.026439108 -0.13455538 -0.027837545 2.3509168e-38
0.02838897 -0.13455538 -0.027837545 2.3508451e-38
0.030338839 -0.13455538 -0.027837545 2.3509168e-38
0.0322887 -0.13455538 -0.027837545 2.3325129e-38
0.034238562 -0.13455538 -0.027837545 1.8993005e-38
0.036188431 -0.13455538 -0.027837545 2.2681546e-38
-0.030321652 -0.12757985 0.007148833 1.8979315e-38
-0.028464733 -0.12655805 0.011154146 1.9716161e-38
-0.026583236 -0.12655805 0.011154146 2.0637755e-38
-0.024701737 -0.12655805 0.011154146 2.1006535e-38
-0.022860602 -0.12577499 0.014223666 2.0361883e-38
-0.020984484 -0.12577499 0.014223666 2.137783e-38
-0.019108368 -0.12577499 0.014223666 2.2209748e-38
-0.01723225 -0.12577499 0.014223666 2.350373e-38
-0.015356133 -0.12577499 0.014223666 2.3509856e-38
-0.013480017 -0.12577499 0.014223666 2.3509866e-38
-0.011603899 -0.12577499 0.014223666 2.3142534e-38
-0.0097277835 -0.12577499 0.014223666 2.2683363e-38
-0.0077682473 -0.12655805 0.011154146 2.2591531e-38
-0.0057708751 -0.12757985 0.007148833 2.2775202e-38
-0.0038823523 -0.12757985 0.007148833 2.2867037e-38
-0.0018966869 -0.1283439 0.004153938 2.3234379e-38
-2.913177e-06 -0.1283439 0.004153938 2.3509527e-38
0.0021415688 -0.13012333 -0.0028212359 2.3508809e-38
0.0040475726 -0.13012333 -0.0028212359 2.3508451e-38
0.0060692765 -0.13087155 -0.0057541421 2.2768365e-38
0.0079804212 -0.13087155 -0.0057541421 2.1017001e-38
0.01006401 -0.13189565 -0.0097685149 2.0557816e-38
0.012120336 -0.13268389 -0.0128583 2.2587915e-38
0.014043938 -0.13268389 -0.0128583 2.350987e-38
0.015967537 -0.13268389 -0.0128583 2.3418035e-38
0.01828701 -0.1347049 -0.020780474 2.3234369e-38
0.0202245 -0.1347049 -0.020780474 2.3234374e-38
0.02216199 -0.1347049 -0.020780474 2.3142542e-38
0.024266873 -0.13547809 -0.023811251 2.341805e-38
0.026209675 -0.13547809 -0.023811251 2.3509168e-38
0.028152481 -0.13547809 -0.023811251 2.3508809e-38
0.030095287 -0.13547809 -0.023811251 2.3048194e-38
0.032038093 -0.13547809 -0.023811251 2.1757802e-38
0.033980899 -0.13547809 -0.023811251 1.8439466e-38
0.035923697 -0.13547809 -0.023811251 2.3509862e-38
0.037661918 -0.1347049 -0.020780474 2.3509863e-38
-0.030321652 -0.1294684 0.007148833 1.7223634e-38
-0.028464733 -0.12843956 0.011154146 1.7683893e-38
-0.026583236 -0.12843956 0.011154146 1.8420735e-38
-0.024701737 -0.12843956 0.011154146 1.8604405e-38
-0.022860602 -0.12765111 0.014223666 1.7867913e-38
-0.02102829 -0.1268961 0.017163008 1.8606915e-38
-0.019157328 -0.1268961 0.017163008 1.8793823e-38
-0.017286364 -0.1268961 0.017163008 2.0732813e-38
-0.0154154 -0.1268961 0.017163008 2.3502645e-38
-0.013544437 -0.1268961 0.017163008 2.3509136e-38
-0.011603899 -0.12765111 0.014223666 2.3509863e-38
-0.0097277835 -0.12765111 0.014223666 2.3509153e-38
-0.0078516658 -0.12765111 0.014223666 2.3509879e-38
-0.0058867484 -0.12843956 0.011154146 2.3142538e-38
-0.0038823523 -0.1294684 0.007148833 2.295887e-38
-0.0019938312 -0.1294684 0.007148833 2.3234379e-38
-0.00010531023 -0.1294684 0.007148833 2.3325497e-38
0.0018908568 -0.13023765 0.004153938 2.3509168e-38
0.0039332137 -0.1312501 0.00021240208 2.3508451e-38
0.0058338977 -0.1312501 0.00021240208 2.3507009e-38
0.0077345781 -0.1312501 0.00021240208 2.2400298e-38
0.0098915659 -0.13278268 -0.0057541421 2.0835125e-38
0.011802711 -0.13278268 -0.0057541421 2.2772307e-38
0.014043938 -0.13460748 -0.0128583 2.3509873e-38
0.015967537 -0.13460748 -0.0128583 2.3418038e-38
0.017891139 -0.13460748 -0.0128583 2.3234372e-38
0.020018879 -0.13562126 -0.016805083 2.3050703e-38
0.02216199 -0.13664238 -0.020780474 2.2958154e-38
0.02409948 -0.13664238 -0.020780474 2.3234379e-38
0.026209675 -0.13742088 -0.023811251 2.2865243e-38
0.028152481 -0.13742088 -0.023811251 2.3417691e-38
0.030095287 -0.13742088 -0.023811251 2.3049626e-38
0.032038093 -0.13742088 -0.023811251 2.3509876e-38
0.033786938 -0.13664238 -0.020780474 1.8623855e-38
0.035724424 -0.13664238 -0.020780474 2.175778e-38
0.037661918 -0.13664238 -0.020780474 2.2956324e-38
-0.030346232 -0.13032107 0.011154146 1.8602601e-38
-0.028464733 -0.13032107 0.011154146 1.8139825e-38
-0.026612835 -0.12952723 0.014223666 1.7679203e-38
-0.024736717 -0.12952723 0.014223666 1.7954708e-38
-0.022899253 -0.12876706 0.017163008 1.7495162e-38
-0.02102829 -0.12876706 0.017163008 1.7588075e-38
-0.019157328 -0.12876706 0.017163008 1.7129252e-38
-0.017286364 -0.12876706 0.017163008 1.8330678e-38
-0.0154154 -0.12876706 0.017163008 2.1560768e-38
-0.013544437 -0.12876706 0.017163008 2.3502288e-38
-0.011673475 -0.12876706 0.017163008 2.3508057e-38
-0.009802511 -0.12876706 0.017163008 2.3508424e-38
-0.0079315472 -0.12876706 0.017163008 2.3508428e-38
-0.00597555 -0.12952723 0.014223666 2.3326199e-38
-0.0040052496 -0.13032107 0.011154146 2.3142537e-38
-0.0021237507 -0.13032107 0.011154146 2.3141819e-38
-0.0002422519 -0.13032107 0.011154146 2.3141103e-38
0.0016392469 -0.13032107 0.011154146 2.3509168e-38
0.0037846304 -0.13213144 0.004153938 2.3509168e-38
0.0056784041 -0.13213144 0.004153938 2.3509168e-38
0.0075721741 -0.13213144 0.004153938 2.3415532e-38
0.0096352622 -0.13315077 0.00021240208 2.3232933e-38
0.01167158 -0.13393532 -0.0028212359 2.3509876e-38
0.013713855 -0.13469382 -0.0057541421 2.341804e-38
0.015818559 -0.13573201 -0.0097685149 2.295778e-38
0.01773674 -0.13573201 -0.0097685149 2.3234374e-38
0.019814741 -0.13653107 -0.0128583 2.3234376e-38
0.021949399 -0.1375518 -0.016805083 2.3050349e-38
0.02409948 -0.13857989 -0.020780474 2.3049991e-38
0.02603697 -0.13857989 -0.020780474 2.3142544e-38
0.027974464 -0.13857989 -0.020780474 2.1944005e-38
0.030095287 -0.13936369 -0.023811251 2.3418045e-38
0.032038093 -0.13936369 -0.023811251 2.2311326e-38
0.033786938 -0.13857989 -0.020780474 2.350986e-38
0.035724424 -0.13857989 -0.020780474 1.585582e-38
0.037661918 -0.13857989 -0.020780474 2.1203166e-38
0.039599411 -0.13857989 -0.020780474 2.3508786e-38
-0.030346232 -0.13220255 0.011154146 1.9059251e-38
-0.028464733 -0.13220255 0.011154146 1.8596475e-38
-0.026612835 -0.13140334 0.014223666 1.8319527e-38
-0.024736717 -0.13140334 0.014223666 1.8503552e-38
-0.022899253 -0.13063805 0.017163008 1.8135484e-38
-0.02102829 -0.13063805 0.017163008 1.7583026e-38
-0.019157328 -0.13063805 0.017163008 1.7861411e-38
-0.017360801 -0.12958528 0.021206349 1.8601857e-38
-0.015496928 -0.12958528 0.021206349 2.0447932e-38
-0.013633054 -0.12958528 0.021206349 2.293902e-38
-0.011769179 -0.12958528 0.021206349 2.3500127e-38
-0.0099053066 -0.12958528 0.021206349 2.3505895e-38
-0.0079315472 -0.13063805 0.017163008 2.3507701e-38
-0.0060605854 -0.13063805 0.017163008 2.3509507e-38
-0.0040994324 -0.13140334 0.014223666 2.3509873e-38
-0.0022233166 -0.13140334 0.014223666 2.3418042e-38
-0.00034719706 -0.13140334 0.014223666 2.3417327e-38
0.0015289187 -0.13140334 0.014223666 2.3509167e-38
0.0036717318 -0.13324542 0.007148833 2.3509168e-38
0.0055602528 -0.13324542 0.007148833 2.3509168e-38
0.0075721741 -0.1340252 0.004153938 2.3509527e-38
0.0094659477 -0.1340252 0.004153938 2.3509883e-38
0.011535946 -0.13505147 0.00021240208 2.350988e-38
0.01357758 -0.13584132 -0.0028212359 2.3141816e-38
0.015625 -0.13660498 -0.0057541421 2.2680838e-38
0.017536145 -0.13660498 -0.0057541421 2.3234015e-38
0.019654926 -0.13765021 -0.0097685149 2.341805e-38
0.021949399 -0.1394823 -0.016805083 2.3325856e-38
0.023879923 -0.1394823 -0.016805083 2.3234379e-38
0.02603697 -0.14051737 -0.020780474 2.3142544e-38
0.027974464 -0.14051737 -0.020780474 2.3142539e-38
0.029911958 -0.14051737 -0.020780474 2.2956698e-38
0.032038093 -0.1413065 -0.023811251 2.3509866e-38
0.033786938 -0.14051737 -0.020780474 2.3509856e-38
0.035724424 -0.14051737 -0.020780474 1.6130243e-38
0.037661918 -0.14051737 -0.020780474 1.8065635e-38
-0.032227732 -0.13408406 0.011154146 1.8688662e-38
-0.030346232 -0.13408406 0.011154146 1.9147842e-38
-0.028464733 -0.13408406 0.011154146 1.9331874e-38
-0.026612835 -0.13327946 0.014223666 1.979177e-38
-0.024736717 -0.13327946 0.014223666 1.9791406e-38
-0.022899253 -0.13250901 0.017163008 1.9054194e-38
-0.02102829 -0.13250901 0.017163008 1.8501737e-38
-0.019224675 -0.13144915 0.021206349 1.9148902e-38
-0.017360801 -0.13144915 0.021206349 1.9151063e-38
-0.015496928 -0.13144915 0.021206349 1.8598973e-38
-0.013633054 -0.13144915 0.021206349 1.9061758e-38
-0.011769179 -0.13144915 0.021206349 2.1553208e-38
-0.0099053066 -0.13144915 0.021206349 2.3497245e-38
-0.0080414321 -0.13144915 0.021206349 2.3506256e-38
-0.0060605854 -0.13250901 0.017163008 2.3508783e-38
-0.0041896217 -0.13250901 0.017163008 2.3509869e-38
-0.0023186579 -0.13250901 0.017163008 2.3509873e-38
-0.00044769421 -0.13250901 0.017163008 2.3509879e-38
0.0014232695 -0.13250901 0.017163008 2.3509527e-38
0.0034050345 -0.13327946 0.014223666 2.3509168e-38
0.0054022446 -0.13408406 0.011154146 2.3417333e-38
0.0074487738 -0.13513394 0.007148833 2.3509527e-38
0.0093372986 -0.13513394 0.007148833 2.2772321e-38
0.011359721 -0.13591899 0.004153938 2.3509883e-38
0.01343663 -0.13695215 0.00021240208 2.3509883e-38
0.015483584 -0.13774733 -0.0028212359 2.3141819e-38
0.017536145 -0.13851611 -0.0057541421 2.2956712e-38
0.019654926 -0.13956837 -0.0097685149 2.2496097e-38
0.021738339 -0.14037828 -0.0128583 2.2588295e-38
0.023879923 -0.14141284 -0.016805083 2.341805e-38
0.025810443 -0.14141284 -0.016805083 2.2772321e-38
0.027974464 -0.14245488 -0.020780474 2.3509518e-38
0.029911958 -0.14245488 -0.020780474 2.350951e-38
0.031849444 -0.14245488 -0.020780474 2.3506622e-38
0.033786938 -0.14245488 -0.020780474 2.2397028e-38
0.035724424 -0.14245488 -0.020780474 1.3729196e-38
0.037661918 -0.14245488 -0.020780474 1.5388362e-38
0.039599411 -0.14245488 -0.020780474 2.1104858e-38
-0.032227732 -0.13596557 0.011154146 1.8595025e-38
-0.030346232 -0.13596557 0.011154146 1.9054205e-38
-0.028464733 -0.13596557 0.011154146 1.9238235e-38
-0.026612835 -0.13515557 0.014223666 1.9606295e-38
-0.024736717 -0.13515557 0.014223666 1.9697768e-38
-0.022899253 -0.13437997 0.017163008 1.8960558e-38
-0.02102829 -0.13437997 0.017163008 1.9422609e-38
-0.019224675 -0.13331302 0.021206349 1.9607716e-38
-0.017360801 -0.13331302 0.021206349 1.905634e-38
-0.015496928 -0.13331302 0.021206349 1.7766688e-38
-0.013633054 -0.13331302 0.021206349 1.7030209e-38
-0.011769179 -0.13331302 0.021206349 1.8506426e-38
-0.0099053066 -0.13331302 0.021206349 2.2287894e-38
-0.0080414321 -0.13331302 0.021206349 2.3496526e-38
-0.0061775576 -0.13331302 0.021206349 2.3505893e-38
-0.0041896217 -0.13437997 0.017163008 2.3508781e-38
-0.0023186579 -0.13437997 0.017163008 2.350951e-38
-0.00044769421 -0.13437997 0.017163008 2.3509517e-38
0.0014232695 -0.13437997 0.017163008 2.3509883e-38
0.0032942332 -0.13437997 0.017163008 2.3325497e-38
0.0052811503 -0.13515557 0.014223666 2.3325856e-38
0.0072837435 -0.13596557 0.011154146 2.341805e-38
0.0093372986 -0.13702248 0.007148833 2.2957075e-38
0.01122582 -0.13702248 0.007148833 2.3509886e-38
0.013253491 -0.13781275 0.004153938 2.3509883e-38
0.015337311 -0.13885282 0.00021240208 2.3417687e-38
0.017389588 -0.13965334 -0.0028212359 2.323258e-38
0.019447289 -0.14042725 -0.0057541421 2.2495736e-38
0.021738339 -0.14230187 -0.0128583 2.2403185e-38
0.023879923 -0.14334334 -0.016805083 2.3324778e-38
0.025810443 -0.14334334 -0.016805083 2.3508804e-38
0.027974464 -0.14439236 -0.020780474 2.3508435e-38
0.029911958 -0.14439236 -0.020780474 2.3504468e-38
0.031849444 -0.14439236 -0.020780474 2.3501583e-38
0.033786938 -0.14439236 -0.020780474 1.7596734e-38
0.035724424 -0.14439236 -0.020780474 1.7042841e-38
0.037661918 -0.14439236 -0.020780474 1.6582226e-38
0.039809309 -0.1451921 -0.023811251 1.9072598e-38
0.041752115 -0.1451921 -0.023811251 1.7046827e-38
-0.035984591 -0.13970654 0.004153938 1.9149638e-38
-0.034098696 -0.13891099 0.007148833 1.8687219e-38
-0.032227732 -0.13784705 0.011154146 1.8963087e-38
-0.030346232 -0.13784705 0.011154146 1.9423345e-38
-0.028464733 -0.13784705 0.011154146 1.8961648e-38
-0.026612835 -0.13703169 0.014223666 1.8960926e-38
-0.024736717 -0.13703169 0.014223666 1.9421178e-38
-0.022899253 -0.13625093 0.017163008 1.9237142e-38
-0.02102829 -0.13625093 0.017163008 1.9330413e-38
-0.019224675 -0.13517688 0.021206349 1.9054899e-38
-0.017360801 -0.13517688 0.021206349 1.9331846e-38
-0.015496928 -0.13517688 0.021206349 1.9424767e-38
-0.013633054 -0.13517688 0.021206349 1.8504257e-38
-0.011769179 -0.13517688 0.021206349 1.7951809e-38
-0.0099053066 -0.13517688 0.021206349 1.9243275e-38
-0.0080414321 -0.13517688 0.021206349 2.053906e-38
-0.0061775576 -0.13517688 0.021206349 2.350085e-38
-0.0041896217 -0.13625093 0.017163008 2.3504456e-38
-0.0023186579 -0.13625093 0.017163008 2.3508063e-38
-0.00044769421 -0.13625093 0.017163008 2.3509153e-38
0.0014232695 -0.13625093 0.017163008 2.350988e-38
0.0032942332 -0.13625093 0.017163008 2.3234018e-38
0.0052811503 -0.13703169 0.014223666 2.3234379e-38
0.0071572699 -0.13703169 0.014223666 2.3234379e-38
0.0091652423 -0.13784705 0.011154146 2.341805e-38
0.01122582 -0.13891099 0.007148833 2.3509886e-38
0.013114341 -0.13891099 0.007148833 2.323258e-38
0.015147265 -0.13970654 0.004153938 2.3324052e-38
0.017237995 -0.14075352 0.00021240208 2.3509527e-38
0.019295588 -0.14155935 -0.0028212359 2.3509527e-38
0.021573108 -0.14340474 -0.0097685149 2.3416974e-38
0.023879923 -0.14527388 -0.016805083 2.3508809e-38
0.025810443 -0.14527388 -0.016805083 2.2856952e-38
0.027974464 -0.14632986 -0.020780474 1.5662086e-38
0.029911958 -0.14632986 -0.020780474 1.4829799e-38
0.032038093 -0.14713491 -0.023811251 1.2522742e-38
0.033980899 -0.14713491 -0.023811251 1.1136925e-38
0.035923697 -0.14713491 -0.023811251 1.4732554e-38
0.037866503 -0.14713491 -0.023811251 1.7038888e-38
0.039809309 -0.14713491 -0.023811251 1.4182631e-38
0.041752115 -0.14713491 -0.023811251 1.2250852e-38
-0.035984591 -0.1416003 0.004153938 1.8873768e-38
-0.034098696 -0.14079951 0.007148833 1.8319875e-38
-0.032210175 -0.14079951 0.007148833 1.8042571e-38
-0.030321652 -0.14079951 0.007148833 1.8502829e-38
-0.028433131 -0.14079951 0.007148833 1.8963088e-38
-0.026583236 -0.13972856 0.011154146 1.8963087e-38
-0.024701737 -0.13972856 0.011154146 1.877797e-38
-0.022860602 -0.13890781 0.014223666 1.8686129e-38
-0.02102829 -0.13812189 0.017163008 1.9423691e-38
-0.019157328 -0.13812189 0.017163008 1.9055261e-38
-0.017360801 -0.13704078 0.021206349 1.8595362e-38
-0.015496928 -0.13704078 0.021206349 1.8595725e-38
-0.013633054 -0.13704078 0.021206349 1.8412061e-38
-0.011769179 -0.13704078 0.021206349 1.8228396e-38
-0.0099053066 -0.13704078 0.021206349 1.8413514e-38
-0.0080414321 -0.13704078 0.021206349 1.8140892e-38
-0.0061775576 -0.13704078 0.021206349 1.9070054e-38
-0.004313685 -0.13704078 0.021206349 2.3502651e-38
-0.0023186579 -0.13812189 0.017163008 2.3508421e-38
-0.00044769421 -0.13812189 0.017163008 2.3414072e-38
0.0014232695 -0.13812189 0.017163008 2.3509876e-38
0.0032942332 -0.13812189 0.017163008 2.341805e-38
0.0051651932 -0.13812189 0.017163008 2.3142544e-38
0.0071572699 -0.13890781 0.014223666 2.286632e-38
0.0090333857 -0.13890781 0.014223666 2.2773765e-38
0.011046741 -0.13972856 0.011154146 2.3509886e-38
0.013114341 -0.14079951 0.007148833 2.3509527e-38
0.015147265 -0.1416003 0.004153938 2.3507725e-38
0.017237995 -0.1426542 0.00021240208 2.3509165e-38
0.019295588 -0.14346536 -0.0028212359 2.3507728e-38
0.021358434 -0.14424954 -0.0057541421 2.3509527e-38
0.023661941 -0.14614908 -0.0128583 2.3508089e-38
0.025810443 -0.14720438 -0.016805083 2.3499084e-38
0.027974464 -0.14826734 -0.020780474 1.4180119e-38
0.029911958 -0.14826734 -0.020780474 1.3163082e-38
0.032038093 -0.14907773 -0.023811251 1.260774e-38
0.033980899 -0.14907773 -0.023811251 1.2421906e-38
0.035923697 -0.14907773 -0.023811251 1.7031687e-38
0.037866503 -0.14907773 -0.023811251 1.6481396e-38
0.039809309 -0.14907773 -0.023811251 1.4087559e-38
0.041752115 -0.14907773 -0.023811251 1.1142706e-38
-0.041665908 -0.14349405 0.004153938 1.9983004e-38
-0.039772138 -0.14349405 0.004153938 2.0901717e-38
-0.037878364 -0.14349405 0.004153938 1.970281e-38
-0.035984591 -0.14349405 0.004153938 1.9058161e-38
-0.034098696 -0.14268802 0.007148833 1.8504987e-38
-0.032210175 -0.14268802 0.007148833 1.8228044e-38
-0.030321652 -0.14268802 0.007148833 1.8503915e-38
-0.028433131 -0.14268802 0.007148833 1.8687946e-38
-0.026583236 -0.14161004 0.011154146 1.8411356e-38
-0.024701737 -0.14161004 0.011154146 1.8226241e-38
-0.022820238 -0.14161004 0.011154146 1.8226594e-38
-0.020984484 -0.14078392 0.014223666 1.8410981e-38
-0.019157328 -0.13999285 0.017163008 1.8411337e-38
-0.017286364 -0.13999285 0.017163008 1.8412413e-38
-0.015496928 -0.13890465 0.021206349 1.8596448e-38
-0.013699075 -0.13809387 0.024218768 1.8320229e-38
-0.011840483 -0.13809387 0.024218768 1.8044007e-38
-0.0099818911 -0.13809387 0.024218768 1.8229126e-38
-0.0081232991 -0.13809387 0.024218768 1.8323844e-38
-0.0061775576 -0.13890465 0.021206349 1.7223617e-38
-0.004313685 -0.13890465 0.021206349 2.2299063e-38
-0.0024498105 -0.13890465 0.021206349 2.3506616e-38
-0.00044769421 -0.13999285 0.017163008 2.3509143e-38
0.0014232695 -0.13999285 0.017163008 2.3509873e-38
0.0032942332 -0.13999285 0.017163008 2.3142539e-38
0.0051651932 -0.13999285 0.017163008 2.2867037e-38
0.007036157 -0.13999285 0.017163008 2.2958873e-38
0.0090333857 -0.14078392 0.014223666 2.2958155e-38
0.011046741 -0.14161004 0.011154146 2.3509886e-38
0.013114341 -0.14268802 0.007148833 2.3509168e-38
0.015002862 -0.14268802 0.007148833 2.3507726e-38
0.017041039 -0.14349405 0.004153938 2.3508804e-38
0.019138679 -0.14455487 0.00021240208 2.2677241e-38
0.021201592 -0.14537133 -0.0028212359 2.3508082e-38
0.023491293 -0.1472411 -0.0097685149 2.3507006e-38
0.025409475 -0.1472411 -0.0097685149 2.3497284e-38
-0.053028543 -0.14538784 0.004153938 1.1061298e-38
-0.051134769 -0.14538784 0.004153938 1.2533546e-38
-0.049240999 -0.14538784 0.004153938 1.2899083e-38
-0.047347225 -0.14538784 0.004153938 1.5015255e-38
-0.04548455 -0.14645557 0.00021240208 1.7316179e-38
-0.04358387 -0.14645557 0.00021240208 1.887846e-38
-0.041665908 -0.14538784 0.004153938 1.9705695e-38
-0.039772138 -0.14538784 0.004153938 2.0163789e-38
-0.037878364 -0.14538784 0.004153938 1.9518059e-38
-0.035984591 -0.14538784 0.004153938 1.8965965e-38
-0.034098696 -0.14457656 0.007148833 1.8413514e-38
-0.032210175 -0.14457656 0.007148833 1.8321322e-38
-0.030321652 -0.14457656 0.007148833 1.8320966e-38
-0.028433131 -0.14457656 0.007148833 1.822805e-38
-0.02654461 -0.14457656 0.007148833 1.7674873e-38
-0.024656087 -0.14457656 0.007148833 1.7398284e-38
-0.022820238 -0.14349155 0.011154146 1.7398638e-38
-0.020984484 -0.14266007 0.014223666 1.7306077e-38
-0.019108368 -0.14266007 0.014223666 1.7582661e-38
-0.017286364 -0.14186381 0.017163008 1.8136911e-38
-0.015496928 -0.14076851 0.021206349 1.8505336e-38
-0.013699075 -0.13995247 0.024218768 1.8228396e-38
-0.011840483 -0.13995247 0.024218768 1.7675947e-38
-0.010058044 -0.13914107 0.02721414 1.7952183e-38
-0.0082047042 -0.13914107 0.02721414 1.8138734e-38
-0.0063513629 -0.13914107 0.02721414 1.62073e-38
-0.0044061169 -0.13995247 0.024218768 1.9438473e-38
-0.0024498105 -0.14076851 0.021206349 2.1839171e-38
-0.00058593601 -0.14076851 0.021206349 2.3508783e-38
0.0012779385 -0.14076851 0.021206349 2.350879e-38
0.0031418093 -0.14076851 0.021206349 2.3142539e-38
0.0051651932 -0.14186381 0.017163008 2.2683007e-38
0.007036157 -0.14186381 0.017163008 2.2958873e-38
0.0089071207 -0.14186381 0.017163008 2.3234379e-38
0.011046741 -0.14349155 0.011154146 2.3509527e-38
0.01292824 -0.14349155 0.011154146 2.3507726e-38
0.015002862 -0.14457656 0.007148833 2.3505924e-38
0.017041039 -0.14538784 0.004153938 2.3508444e-38
0.018934809 -0.14538784 0.004153938 2.3506999e-38
0.021039363 -0.14645557 0.00021240208 2.35088e-38
0.023269579 -0.14807184 -0.0057541421 2.3507359e-38
0.025409475 -0.1491593 -0.0097685149 2.2107148e-38
-0.053028543 -0.1472816 0.004153938 1.0138984e-38
-0.051134769 -0.1472816 0.004153938 1.1058418e-38
-0.049240999 -0.1472816 0.004153938 1.2991278e-38
-0.047347225 -0.1472816 0.004153938 1.5659906e-38
-0.04548455 -0.14835624 0.00021240208 1.7407655e-38
-0.04358387 -0.14835624 0.00021240208 1.823309e-38
-0.041665908 -0.1472816 0.004153938 1.8875214e-38
-0.039772138 -0.1472816 0.004153938 1.9333667e-38
-0.037878364 -0.1472816 0.004153938 1.9424784e-38
-0.035984591 -0.1472816 0.004153938 1.8412791e-38
-0.034090817 -0.1472816 0.004153938 1.8136928e-38
-0.032197047 -0.1472816 0.004153938 1.8229126e-38
-0.030303273 -0.1472816 0.004153938 1.8136574e-38
-0.028409502 -0.1472816 0.004153938 1.7675598e-38
-0.02651573 -0.1472816 0.004153938 1.6938031e-38
-0.024621956 -0.1472816 0.004153938 1.66618e-38
-0.022767566 -0.14646508 0.007148833 1.6846186e-38
-0.020879045 -0.14646508 0.007148833 1.6937657e-38
-0.018990524 -0.14646508 0.007148833 1.7030209e-38
-0.017175741 -0.14537306 0.011154146 1.7583382e-38
-0.015294243 -0.14537306 0.011154146 1.7953244e-38
-0.013699075 -0.14181106 0.024218768 1.82284e-38
-0.011840483 -0.14181106 0.024218768 1.8043656e-38
-0.010058044 -0.14099441 0.02721414 1.8043301e-38
-0.0082047042 -0.14099441 0.02721414 1.8045099e-38
-0.0063513629 -0.14099441 0.02721414 1.7218574e-38
-0.0044061169 -0.14181106 0.024218768 1.7222894e-38
-0.0024498105 -0.14263238 0.021206349 1.7596367e-38
-0.00058593601 -0.14263238 0.021206349 2.3508418e-38
0.0012779385 -0.14263238 0.021206349 2.3507708e-38
0.0031418093 -0.14263238 0.021206349 2.3234374e-38
0.0050056837 -0.14263238 0.021206349 2.2867037e-38
0.0068695582 -0.14263238 0.021206349 2.2867037e-38
0.0089071207 -0.14373477 0.017163008 2.2957078e-38
0.010909501 -0.14453618 0.014223666 2.3323699e-38
0.01292824 -0.14537306 0.011154146 2.3507365e-38
0.015002862 -0.14646508 0.007148833 2.3507721e-38
0.017041039 -0.1472816 0.004153938 2.3508079e-38
0.018934809 -0.1472816 0.004153938 2.3227887e-38
0.021039363 -0.14835624 0.00021240208 2.0647127e-38
0.023269579 -0.14998297 -0.0057541421 1.658548e-38
-0.053028543 -0.14917539 0.004153938 9.8634764e-39
-0.051134769 -0.14917539 0.004153938 1.0781831e-38
-0.049240999 -0.14917539 0.004153938 1.3913237e-38
-0.047347225 -0.14917539 0.004153938 1.6489668e-38
-0.039772138 -0.14917539 0.004153938 1.9056001e-38
-0.037878364 -0.14917539 0.004153938 1.8963087e-38
-0.035984591 -0.14917539 0.004153938 1.8135486e-38
-0.034090817 -0.14917539 0.004153938 1.8135849e-38
-0.032197047 -0.14917539 0.004153938 1.8228047e-38
-0.030303273 -0.14917539 0.004153938 1.822805e-38
-0.028409502 -0.14917539 0.004153938 1.7674519e-38
-0.02651573 -0.14917539 0.004153938 1.6937311e-38
-0.024621956 -0.14917539 0.004153938 1.6752917e-38
-0.022728184 -0.14917539 0.004153938 1.7029501e-38
-0.020834412 -0.14917539 0.004153938 1.7122051e-38
-0.018940639 -0.14917539 0.004153938 1.6753266e-38
-0.017046867 -0.14917539 0.004153938 1.6845461e-38
-0.015496928 -0.14449625 0.021206349 1.7490831e-38
-0.013633054 -0.14449625 0.021206349 1.8227684e-38
-0.011840483 -0.14366965 0.024218768 1.8411722e-38
-0.0099818911 -0.14366965 0.024218768 1.8226976e-38
-0.0081232991 -0.14366965 0.024218768 1.8135497e-38
-0.0062647071 -0.14366965 0.024218768 1.8230921e-38
-0.0044061169 -0.14366965 0.024218768 1.6482448e-38
-0.0024498105 -0.14449625 0.021206349 1.5565901e-38
-0.00058593601 -0.14449625 0.021206349 2.3506616e-38
0.0012779385 -0.14449625 0.021206349 2.3507707e-38
0.0031418093 -0.14449625 0.021206349 2.3234372e-38
0.0050056837 -0.14449625 0.021206349 2.2867037e-38
0.0068695582 -0.14449625 0.021206349 2.2683007e-38
0.0087334327 -0.14449625 0.021206349 2.341805e-38
0.010909501 -0.1464123 0.014223666 2.3509168e-38
0.01292824 -0.14725454 0.011154146 2.3508444e-38
0.015002862 -0.14835359 0.007148833 2.3505558e-38
0.017041039 -0.14917539 0.004153938 2.3506995e-38
0.018934809 -0.14917539 0.004153938 2.285802e-38
-0.013633054 -0.14636014 0.021206349 1.8319161e-38
-0.011769179 -0.14636014 0.021206349 1.868759e-38
-0.0099053066 -0.14636014 0.021206349 1.859432e-38
-0.0080414321 -0.14636014 0.021206349 1.8226613e-38
-0.0061775576 -0.14636014 0.021206349 1.82284e-38
-0.004313685 -0.14636014 0.021206349 1.6941261e-38
-0.0024498105 -0.14636014 0.021206349 1.5841046e-38
-0.00058593601 -0.14636014 0.021206349 2.3507695e-38
0.0012779385 -0.14636014 0.021206349 2.3509863e-38
0.0031418093 -0.14636014 0.021206349 2.3418043e-38
0.0050056837 -0.14636014 0.021206349 2.2958873e-38
0.0068695582 -0.14636014 0.021206349 2.2867037e-38
0.0087334327 -0.14636014 0.021206349 2.3325856e-38
0.010909501 -0.14828841 0.014223666 2.3506646e-38
0.01292824 -0.14913605 0.011154146 2.2674719e-38
0.014809739 -0.14913605 0.011154146 2.0275469e-38
-0.011673475 -0.14934768 0.017163008 1.8870542e-38
-0.0099053066 -0.14822401 0.021206349 1.8869112e-38
-0.0080414321 -0.14822401 0.021206349 1.8501761e-38
-0.0061775576 -0.14822401 0.021206349 1.8134046e-38
-0.004313685 -0.14822401 0.021206349 1.7308962e-38
-0.0024498105 -0.14822401 0.021206349 1.5932878e-38
-0.00058593601 -0.14822401 0.021206349 2.3505173e-38
0.0012779385 -0.14822401 0.021206349 2.3509504e-38
0.0031418093 -0.14822401 0.021206349 2.3142171e-38
0.0050056837 -0.14822401 0.021206349 2.2958873e-38
0.0068695582 -0.14822401 0.021206349 2.2958873e-38
0.0087334327 -0.14822401 0.021206349 2.3509886e-38
