# .PCD v0.7 - Point Cloud Data file format
VERSION 0.7
FIELDS x y z rgb
SIZE 4 4 4 4
TYPE F F F F
COUNT 1 1 1 1
WIDTH 936
HEIGHT 1
VIEWPOINT 0 0 0 1 0 0 0
POINTS 936
DATA ascii
0.0069923885 -0.11920498 -0.010487163 1.6505925e-38
0.0089298822 -0.11920498 -0.010487163 1.3556023e-38
-0.047575537 -0.12915494 -0.043482505 2.3418047e-38
-0.045580193 -0.12915494 -0.043482505 2.3418045e-38
-0.043584853 -0.12915494 -0.043482505 2.3141816e-38
-0.04158951 -0.12915494 -0.043482505 2.3049621e-38
-0.039594166 -0.12915494 -0.043482505 2.350988e-38
-0.037598826 -0.12915494 -0.043482505 2.3049261e-38
-0.035603479 -0.12915494 -0.043482505 2.3417687e-38
-0.033618554 -0.12819304 -0.039521299 2.3509883e-38
-0.031630158 -0.12819304 -0.039521299 2.3509886e-38
-0.029641762 -0.12819304 -0.039521299 2.3325494e-38
-0.027653364 -0.12819304 -0.039521299 2.341805e-38
-0.025704121 -0.12720706 -0.035461031 2.341805e-38
-0.023722842 -0.12720706 -0.035461031 2.3234018e-38
-0.021688173 -0.12819304 -0.039521299 2.3234379e-38
-0.019818494 -0.1262586 -0.031555377 2.3234379e-38
-0.017844064 -0.1262586 -0.031555377 2.3142544e-38
-0.015869632 -0.1262586 -0.031555377 2.3142544e-38
-0.010445027 -0.12114246 -0.010487163 2.2867037e-38
-0.0085075367 -0.12114246 -0.010487163 2.2867037e-38
-0.0046325549 -0.12114246 -0.010487163 2.2498619e-38
-0.002695065 -0.12114246 -0.010487163 2.2774843e-38
-0.00065926462 -0.12187846 -0.013517939 2.2774843e-38
0.0012835413 -0.12187846 -0.013517939 2.2498978e-38
0.0031174086 -0.12114246 -0.010487163 2.2867037e-38
0.0050548986 -0.12114246 -0.010487163 2.2775202e-38
0.0068355612 -0.12017711 -0.0065117711 2.2775202e-38
0.0087660812 -0.12017711 -0.0065117711 2.2315307e-38
0.016148884 -0.11846836 0.00052479561 1.1618094e-38
-0.047575537 -0.13115029 -0.043482505 2.2865232e-38
-0.045548938 -0.13018142 -0.039521299 2.332621e-38
-0.043560542 -0.13018142 -0.039521299 2.3049624e-38
-0.04158951 -0.13115029 -0.043482505 2.3326208e-38
-0.03958375 -0.13018142 -0.039521299 2.350988e-38
-0.037591793 -0.12918831 -0.035461031 2.3325847e-38
-0.035610512 -0.12918831 -0.035461031 2.2772318e-38
-0.033629235 -0.12918831 -0.035461031 2.3509883e-38
-0.031665076 -0.12823303 -0.031555377 2.3509886e-38
-0.029690646 -0.12823303 -0.031555377 2.341769e-38
-0.027716216 -0.12823303 -0.031555377 2.341805e-38
-0.025741786 -0.12823303 -0.031555377 2.2219866e-38
-0.023767356 -0.12823303 -0.031555377 2.1205714e-38
-0.021741565 -0.12918831 -0.035461031 2.2496453e-38
-0.019863283 -0.12749799 -0.028550111 2.2773039e-38
-0.017894121 -0.12749799 -0.028550111 2.3234379e-38
-0.016127579 -0.12480606 -0.017544232 2.3234379e-38
-0.014177714 -0.12480606 -0.017544232 2.3050349e-38
-0.01222785 -0.12480606 -0.017544232 2.2958873e-38
-0.010445027 -0.12307997 -0.010487163 2.3142544e-38
-0.0085075367 -0.12307997 -0.010487163 2.3142544e-38
-0.0065700449 -0.12307997 -0.010487163 2.3142544e-38
-0.0046325549 -0.12307997 -0.010487163 2.3142544e-38
-0.002695065 -0.12307997 -0.010487163 2.3142544e-38
-0.00075757131 -0.12307997 -0.010487163 2.2958873e-38
0.0011799186 -0.12307997 -0.010487163 2.2867037e-38
0.0028326586 -0.12114228 -0.00256499 2.2591529e-38
0.0047562607 -0.12114228 -0.00256499 2.2407138e-38
0.006679859 -0.12114228 -0.00256499 2.2499695e-38
0.008476153 -0.12038656 0.00052479561 2.2867037e-38
0.010394335 -0.12038656 0.00052479561 2.2683365e-38
0.012312517 -0.12038656 0.00052479561 2.3142544e-38
0.014230702 -0.12038656 0.00052479561 2.0099363e-38
0.016148884 -0.12038656 0.00052479561 1.6041674e-38
0.018067066 -0.12038656 0.00052479561 1.3643866e-38
0.019985251 -0.12038656 0.00052479561 1.5117554e-38
-0.047537338 -0.13216983 -0.039521299 2.3049626e-38
-0.045516904 -0.1311696 -0.035461031 2.341805e-38
-0.043535627 -0.1311696 -0.035461031 2.341805e-38
-0.041554347 -0.1311696 -0.035461031 2.3418047e-38
-0.039562799 -0.13020746 -0.031555377 2.2957428e-38
-0.037588365 -0.13020746 -0.031555377 2.332621e-38
-0.035616569 -0.12946714 -0.028550111 2.3325492e-38
-0.033647411 -0.12946714 -0.028550111 2.3509883e-38
-0.031678252 -0.12946714 -0.028550111 2.3417687e-38
-0.029709088 -0.12946714 -0.028550111 2.3509883e-38
-0.027739927 -0.12946714 -0.028550111 2.3233296e-38
-0.025770765 -0.12946714 -0.028550111 2.1204992e-38
-0.023801606 -0.12946714 -0.028550111 2.0651818e-38
-0.021792924 -0.13020746 -0.031555377 2.2680122e-38
-0.019922631 -0.12848614 -0.024567924 2.3233296e-38
-0.018028362 -0.1274818 -0.020490848 2.341805e-38
-0.016127579 -0.12675591 -0.017544232 2.341805e-38
-0.014258897 -0.12576406 -0.013517939 2.341805e-38
-0.012316093 -0.12576406 -0.013517939 2.3326213e-38
-0.010373289 -0.12576406 -0.013517939 2.3049626e-38
-0.0085075367 -0.12501745 -0.010487163 2.2957075e-38
-0.0065700449 -0.12501745 -0.010487163 2.3141822e-38
-0.0046325549 -0.12501745 -0.010487163 2.3234012e-38
-0.002695065 -0.12501745 -0.010487163 2.2957782e-38
-0.00075757131 -0.12501745 -0.010487163 2.2589722e-38
0.0011799186 -0.12501745 -0.010487163 2.3142538e-38
0.0028326586 -0.12306587 -0.00256499 2.3142538e-38
0.0047562607 -0.12306587 -0.00256499 2.2958867e-38
0.0065579675 -0.12230472 0.00052479561 2.2774476e-38
0.008476153 -0.12230472 0.00052479561 2.3142538e-38
0.010221891 -0.12131582 0.0045391684 2.3234374e-38
0.012133036 -0.12131582 0.0045391684 2.3509879e-38
0.014230702 -0.12230472 0.00052479561 2.2125861e-38
0.016148884 -0.12230472 0.00052479561 1.8160007e-38
0.018067066 -0.12230472 0.00052479561 1.7604672e-38
0.019777615 -0.12131582 0.0045391684 1.7235528e-38
0.023821618 -0.12230472 0.00052479561 1.8063491e-38
-0.049479462 -0.13315089 -0.035461031 2.2497173e-38
-0.047498181 -0.13315089 -0.035461031 2.1482301e-38
-0.045486089 -0.1321819 -0.031555377 2.3141822e-38
-0.043511659 -0.1321819 -0.031555377 2.2219866e-38
-0.041537229 -0.1321819 -0.031555377 2.341805e-38
-0.039562799 -0.1321819 -0.031555377 2.3326213e-38
-0.037585735 -0.1314363 -0.028550111 2.3418047e-38
-0.035616569 -0.1314363 -0.028550111 2.3509883e-38
-0.033647411 -0.1314363 -0.028550111 2.3509883e-38
-0.031678252 -0.1314363 -0.028550111 2.3509883e-38
-0.029709088 -0.1314363 -0.028550111 2.3509883e-38
-0.027771346 -0.13044833 -0.024567924 2.2403535e-38
-0.025809169 -0.13044833 -0.024567924 2.1112796e-38
-0.023801606 -0.1314363 -0.028550111 2.2126948e-38
-0.021832444 -0.1314363 -0.028550111 2.3509883e-38
-0.019983392 -0.12943684 -0.020490848 2.3509883e-38
-0.018077442 -0.12870578 -0.017544232 2.3417687e-38
-0.016201703 -0.12770687 -0.013517939 2.3048907e-38
-0.014258897 -0.12770687 -0.013517939 2.3509886e-38
-0.012316093 -0.12770687 -0.013517939 2.3509527e-38
-0.010373289 -0.12770687 -0.013517939 2.3509886e-38
-0.0084304828 -0.12770687 -0.013517939 2.3509527e-38
-0.0065700449 -0.12695493 -0.010487163 2.3509883e-38
-0.0046325549 -0.12695493 -0.010487163 2.350988e-38
-0.002695065 -0.12695493 -0.010487163 2.3325846e-38
-0.00075757131 -0.12695493 -0.010487163 2.3325847e-38
0.0011799186 -0.12695493 -0.010487163 2.3418045e-38
0.0028326586 -0.12498946 -0.00256499 2.3326208e-38
0.0047562607 -0.12498946 -0.00256499 2.2589722e-38
0.0065579675 -0.12422292 0.00052479561 2.2773034e-38
0.0083107464 -0.12322696 0.0045391684 2.3233652e-38
0.010221891 -0.12322696 0.0045391684 2.3417324e-38
0.012133036 -0.12322696 0.0045391684 2.2678319e-38
0.014044181 -0.12322696 0.0045391684 2.2584681e-38
0.015955325 -0.12322696 0.0045391684 2.1476173e-38
0.01786647 -0.12322696 0.0045391684 2.2949861e-38
0.019777615 -0.12322696 0.0045391684 2.1749158e-38
0.021903433 -0.12422292 0.00052479561 2.2670036e-38
0.023821618 -0.12422292 0.00052479561 2.3222849e-38
-0.051460739 -0.13513215 -0.035461031 2.3050347e-38
-0.049479462 -0.13513215 -0.035461031 2.3050347e-38
-0.047460519 -0.13415633 -0.031555377 2.341805e-38
-0.045486089 -0.13415633 -0.031555377 2.341805e-38
-0.043511659 -0.13415633 -0.031555377 2.2864879e-38
-0.041524053 -0.13340546 -0.028550111 2.341805e-38
-0.039554894 -0.13340546 -0.028550111 2.341805e-38
-0.037582241 -0.13241051 -0.024567924 2.341805e-38
-0.035620064 -0.13241051 -0.024567924 2.3509883e-38
-0.033657886 -0.13241051 -0.024567924 2.2957065e-38
-0.031695705 -0.13241051 -0.024567924 2.3418043e-38
-0.029733526 -0.13241051 -0.024567924 2.2772674e-38
-0.027771346 -0.13241051 -0.024567924 2.055926e-38
-0.025809169 -0.13241051 -0.024567924 2.0835847e-38
-0.023893453 -0.13139187 -0.020490848 2.3048542e-38
-0.021938423 -0.13139187 -0.020490848 2.350988e-38
-0.020027306 -0.13065563 -0.017544232 2.350988e-38
-0.018144507 -0.12964968 -0.013517939 2.3417324e-38
-0.016201703 -0.12964968 -0.013517939 2.3048545e-38
-0.014258897 -0.12964968 -0.013517939 2.3232936e-38
-0.012316093 -0.12964968 -0.013517939 2.3509164e-38
-0.010373289 -0.12964968 -0.013517939 2.3325131e-38
-0.0084304828 -0.12964968 -0.013517939 2.3416248e-38
-0.0065700449 -0.12889244 -0.010487163 2.3508444e-38
-0.0046325549 -0.12889244 -0.010487163 2.3508446e-38
-0.002695065 -0.12889244 -0.010487163 2.3508446e-38
-0.00075757131 -0.12889244 -0.010487163 2.3509527e-38
0.0010439977 -0.12789918 -0.0065117711 2.3509527e-38
0.002721604 -0.12614109 0.00052479561 2.2955996e-38
0.004488457 -0.12513812 0.0045391684 2.3509527e-38
0.0063996017 -0.12513812 0.0045391684 2.3509168e-38
0.0083107464 -0.12513812 0.0045391684 2.3509527e-38
0.010095902 -0.12440531 0.0074720746 2.3507369e-38
0.012001906 -0.12440531 0.0074720746 2.3508448e-38
0.014044181 -0.12513812 0.0045391684 2.3507726e-38
0.015955325 -0.12513812 0.0045391684 2.3503046e-38
0.01786647 -0.12513812 0.0045391684 2.3501965e-38
0.019777615 -0.12513812 0.0045391684 2.3406167e-38
0.021903433 -0.12614109 0.00052479561 2.3035945e-38
0.023821618 -0.12614109 0.00052479561 2.3034866e-38
0.025511049 -0.12513812 0.0045391684 2.3034148e-38
-0.053442016 -0.13711344 -0.035461031 2.3234379e-38
-0.051409379 -0.13613077 -0.031555377 2.3142544e-38
-0.049434949 -0.13613077 -0.031555377 2.341805e-38
-0.047460519 -0.13613077 -0.031555377 2.3325856e-38
-0.045462377 -0.13537462 -0.028550111 2.2864519e-38
-0.043493219 -0.13537462 -0.028550111 2.304891e-38
-0.041524053 -0.13537462 -0.028550111 2.3509886e-38
-0.039544418 -0.1343727 -0.024567924 2.3509886e-38
-0.037582241 -0.1343727 -0.024567924 2.3141103e-38
-0.035623636 -0.13334687 -0.020490848 2.3509527e-38
-0.033668607 -0.13334687 -0.020490848 2.3325492e-38
-0.031713575 -0.13334687 -0.020490848 2.3509883e-38
-0.029758545 -0.13334687 -0.020490848 2.3141819e-38
-0.027803514 -0.13334687 -0.020490848 2.019084e-38
-0.025848484 -0.13334687 -0.020490848 2.1481935e-38
-0.023927035 -0.13260551 -0.017544232 2.350988e-38
-0.021977171 -0.13260551 -0.017544232 2.3233652e-38
-0.020087311 -0.13159247 -0.013517939 2.2864869e-38
-0.018144507 -0.13159247 -0.013517939 2.3509883e-38
-0.016257498 -0.13082992 -0.010487163 2.3509883e-38
-0.014320008 -0.13082992 -0.010487163 2.3509527e-38
-0.012382517 -0.13082992 -0.010487163 2.3509167e-38
-0.010445027 -0.13082992 -0.010487163 2.3416971e-38
-0.0085075367 -0.13082992 -0.010487163 2.3509886e-38
-0.0065700449 -0.13082992 -0.010487163 2.3509886e-38
-0.0047475621 -0.12982969 -0.0065117711 2.3509527e-38
-0.0028170422 -0.12982969 -0.0065117711 2.3232583e-38
-0.00088652223 -0.12982969 -0.0065117711 2.3509527e-38
0.00090906024 -0.12883668 -0.00256499 2.3416971e-38
0.002721604 -0.12805928 0.00052479561 2.3048191e-38
0.004488457 -0.12704925 0.0045391684 2.3509527e-38
0.0062838979 -0.12631132 0.0074720746 2.3048191e-38
0.0081899017 -0.12631132 0.0074720746 1.825294e-38
0.010095902 -0.12631132 0.0074720746 2.0648587e-38
0.012001906 -0.12631132 0.0074720746 2.3508451e-38
0.014044181 -0.12704925 0.0045391684 2.350665e-38
0.015955325 -0.12704925 0.0045391684 2.2025756e-38
0.01786647 -0.12704925 0.0045391684 1.9626146e-38
0.019777615 -0.12704925 0.0045391684 2.0914004e-38
0.021688759 -0.12704925 0.0045391684 1.9345235e-38
0.023599904 -0.12704925 0.0045391684 1.8236729e-38
0.025511049 -0.12704925 0.0045391684 1.8696989e-38
0.027422193 -0.12704925 0.0045391684 1.8144171e-38
-0.057277344 -0.13734378 -0.028550111 1.761081e-38
-0.055308186 -0.13734378 -0.028550111 2.0745461e-38
-0.053339019 -0.13734378 -0.028550111 2.2865961e-38
-0.051369861 -0.13734378 -0.028550111 2.341805e-38
-0.049434949 -0.1381052 -0.031555377 2.341805e-38
-0.04743154 -0.13734378 -0.028550111 2.3509527e-38
-0.045462377 -0.13734378 -0.028550111 2.3509527e-38
-0.043493219 -0.13734378 -0.028550111 2.3509168e-38
-0.0415066 -0.13633488 -0.024567924 2.3509527e-38
-0.039544418 -0.13633488 -0.024567924 2.3509165e-38
-0.037578668 -0.1353019 -0.020490848 2.3509165e-38
-0.035626218 -0.13455538 -0.017544232 2.3509168e-38
-0.033676356 -0.13455538 -0.017544232 2.332478e-38
-0.031726491 -0.13455538 -0.017544232 2.341805e-38
-0.029801335 -0.13353528 -0.013517939 2.2865958e-38
-0.027858531 -0.13353528 -0.013517939 2.0469588e-38
-0.025915727 -0.13353528 -0.013517939 2.1483737e-38
-0.023972921 -0.13353528 -0.013517939 2.3142541e-38
-0.022030117 -0.13353528 -0.013517939 2.3234376e-38
-0.02013248 -0.13276742 -0.010487163 2.3418047e-38
-0.01819499 -0.13276742 -0.010487163 2.3509886e-38
-0.016257498 -0.13276742 -0.010487163 2.3509886e-38
-0.014320008 -0.13276742 -0.010487163 2.3509886e-38
-0.012469646 -0.13176022 -0.0065117711 2.341805e-38
-0.010539124 -0.13176022 -0.0065117711 2.3234379e-38
-0.0085075367 -0.13276742 -0.010487163 2.3142544e-38
-0.0066780839 -0.13176022 -0.0065117711 2.2958873e-38
-0.0048617423 -0.13076027 -0.00256499 2.2498973e-38
-0.0029381439 -0.13076027 -0.00256499 2.2958873e-38
-0.0010145418 -0.13076027 -0.00256499 2.3142541e-38
0.00080341846 -0.12997745 0.00052479561 2.3142541e-38
0.0025773123 -0.12896039 0.0045391684 2.3142541e-38
0.0043778978 -0.12821732 0.0074720746 2.3234376e-38
0.0062838979 -0.12821732 0.0074720746 2.3050347e-38
0.0081899017 -0.12821732 0.0074720746 1.8993739e-38
0.010095902 -0.12821732 0.0074720746 1.9268887e-38
0.012001906 -0.12821732 0.0074720746 2.3509165e-38
0.013907906 -0.12821732 0.0074720746 2.3507365e-38
0.015955325 -0.12896039 0.0045391684 2.0182197e-38
0.01786647 -0.12896039 0.0045391684 1.9348469e-38
0.019777615 -0.12896039 0.0045391684 1.9898398e-38
0.021688759 -0.12896039 0.0045391684 1.9434533e-38
0.023599904 -0.12896039 0.0045391684 1.9339459e-38
0.025511049 -0.12896039 0.0045391684 1.9060355e-38
0.027422193 -0.12896039 0.0045391684 1.896816e-38
0.029155929 -0.12821732 0.0074720746 1.915399e-38
0.031061929 -0.12821732 0.0074720746 1.869517e-38
0.033155624 -0.12896039 0.0045391684 1.6116932e-38
0.036575157 -0.12744872 0.010505713 1.0592764e-38
0.038202863 -0.12645011 0.014447249 1.0227227e-38
0.040096629 -0.12645011 0.014447249 9.3088747e-39
-0.057404574 -0.14107598 -0.035461031 2.074438e-38
-0.055308186 -0.13931294 -0.028550111 2.2497178e-38
-0.053339019 -0.13931294 -0.028550111 2.3234379e-38
-0.051369861 -0.13931294 -0.028550111 2.341805e-38
-0.049400698 -0.13931294 -0.028550111 2.341805e-38
-0.04743154 -0.13931294 -0.028550111 2.3509527e-38
-0.045462377 -0.13931294 -0.028550111 2.3509527e-38
-0.043468781 -0.13829704 -0.024567924 2.3509527e-38
-0.0415066 -0.13829704 -0.024567924 2.3509165e-38
-0.039533697 -0.13725694 -0.020490848 2.3509163e-38
-0.037578668 -0.13725694 -0.020490848 2.3508807e-38
-0.035626218 -0.13650523 -0.017544232 2.3509168e-38
-0.033676356 -0.13650523 -0.017544232 2.3048194e-38
-0.031744141 -0.13547809 -0.013517939 2.3049273e-38
-0.029801335 -0.13547809 -0.013517939 2.1667415e-38
-0.027858531 -0.13547809 -0.013517939 1.9364319e-38
-0.025915727 -0.13547809 -0.013517939 2.056286e-38
-0.023972921 -0.13547809 -0.013517939 2.2867033e-38
-0.022069972 -0.1347049 -0.010487163 2.2958507e-38
-0.02013248 -0.1347049 -0.010487163 2.3418047e-38
-0.01819499 -0.1347049 -0.010487163 2.3509527e-38
-0.016330685 -0.13369073 -0.0065117711 2.3509527e-38
-0.014400166 -0.13369073 -0.0065117711 2.3509527e-38
-0.012469646 -0.13369073 -0.0065117711 2.341805e-38
-0.010539124 -0.13369073 -0.0065117711 2.3234379e-38
-0.0086086039 -0.13369073 -0.0065117711 2.3142544e-38
-0.0067853425 -0.13268389 -0.00256499 2.2958873e-38
-0.0049511306 -0.13189565 0.00052479561 2.2867037e-38
-0.0030329488 -0.13189565 0.00052479561 2.2223103e-38
-0.0011147633 -0.13189565 0.00052479561 2.2406772e-38
0.00080341846 -0.13189565 0.00052479561 2.2498245e-38
0.0025773123 -0.13087155 0.0045391684 2.1483373e-38
0.0043778978 -0.13012333 0.0074720746 2.30507e-38
0.006164223 -0.12934943 0.010505713 2.3418045e-38
0.0080649033 -0.12934943 0.010505713 1.8255451e-38
0.0099655874 -0.12934943 0.010505713 2.1296828e-38
0.011866271 -0.12934943 0.010505713 2.3509163e-38
0.013907906 -0.13012333 0.0074720746 2.3508441e-38
0.015813909 -0.13012333 0.0074720746 2.1194906e-38
0.017719913 -0.13012333 0.0074720746 2.0177145e-38
0.019625913 -0.13012333 0.0074720746 2.0265372e-38
0.021688759 -0.13087155 0.0045391684 1.9616396e-38
0.023599904 -0.13087155 0.0045391684 1.9705712e-38
0.0257398 -0.13189565 0.00052479561 1.9335133e-38
0.027422193 -0.13087155 0.0045391684 1.9796114e-38
0.029155929 -0.13012333 0.0074720746 1.9889749e-38
0.031061929 -0.13012333 0.0074720746 1.8508975e-38
0.033155624 -0.13087155 0.0045391684 1.6391358e-38
0.034873929 -0.13012333 0.0074720746 1.5197136e-38
0.036575157 -0.12934943 0.010505713 1.3818529e-38
0.038202863 -0.1283439 0.014447249 1.179419e-38
0.040096629 -0.1283439 0.014447249 8.9400922e-39
0.041990403 -0.1283439 0.014447249 4.8870872e-39
0.04366101 -0.12757985 0.017442144 5.1658391e-39
0.045244042 -0.12655805 0.021447457 7.010472e-39
0.047125548 -0.12655805 0.021447457 7.6551212e-39
-0.057404574 -0.14305727 -0.035461031 2.2957428e-38
-0.055308186 -0.1412821 -0.028550111 2.3234379e-38
-0.053339019 -0.1412821 -0.028550111 2.3234379e-38
-0.051369861 -0.1412821 -0.028550111 2.341805e-38
-0.049400698 -0.1412821 -0.028550111 2.341805e-38
-0.04743154 -0.1412821 -0.028550111 2.3509886e-38
-0.045462377 -0.1412821 -0.028550111 2.3509883e-38
-0.043468781 -0.14025922 -0.024567924 2.3509524e-38
-0.0415066 -0.14025922 -0.024567924 2.3509521e-38
-0.039533697 -0.13921197 -0.020490848 2.3509521e-38
-0.037578668 -0.13921197 -0.020490848 2.3509521e-38
-0.035626218 -0.13845511 -0.017544232 2.3509527e-38
-0.033676356 -0.13845511 -0.017544232 2.3324778e-38
-0.031744141 -0.13742088 -0.013517939 2.3233302e-38
-0.029801335 -0.13742088 -0.013517939 2.1851803e-38
-0.027882444 -0.13664238 -0.010487163 2.0285194e-38
-0.025944952 -0.13664238 -0.010487163 2.1391897e-38
-0.024007462 -0.13664238 -0.010487163 2.3234374e-38
-0.022069972 -0.13664238 -0.010487163 2.3234012e-38
-0.02013248 -0.13664238 -0.010487163 2.3509521e-38
-0.018261207 -0.13562126 -0.0065117711 2.3509165e-38
-0.016330685 -0.13562126 -0.0065117711 2.3508807e-38
-0.014400166 -0.13562126 -0.0065117711 2.3508809e-38
-0.012556145 -0.13460748 -0.00256499 2.3509168e-38
-0.010632545 -0.13460748 -0.00256499 2.3509527e-38
-0.0087089445 -0.13460748 -0.00256499 2.3509527e-38
-0.0068693142 -0.13381381 0.00052479561 2.341805e-38
-0.0049511306 -0.13381381 0.00052479561 2.3234379e-38
-0.0030329488 -0.13381381 0.00052479561 2.277376e-38
-0.0012449771 -0.13278268 0.0045391684 2.3418047e-38
0.00046217069 -0.1312501 0.010505713 2.3509879e-38
0.0023628548 -0.1312501 0.010505713 2.2402448e-38
0.0041149557 -0.13023765 0.014447249 2.3509517e-38
0.0060087293 -0.13023765 0.014447249 2.3509517e-38
0.0079024993 -0.13023765 0.014447249 1.9081247e-38
0.009796273 -0.13023765 0.014447249 2.1937514e-38
0.011690047 -0.13023765 0.014447249 2.3507359e-38
0.013583817 -0.13023765 0.014447249 2.3502317e-38
0.015667636 -0.1312501 0.010505713 2.1192382e-38
0.017719913 -0.13202934 0.0074720746 2.0542685e-38
0.019625913 -0.13202934 0.0074720746 2.0262853e-38
0.021688759 -0.13278268 0.0045391684 1.9614957e-38
0.023599904 -0.13278268 0.0045391684 1.9889384e-38
0.0257398 -0.13381381 0.00052479561 1.9888307e-38
0.027657982 -0.13381381 0.00052479561 1.9151465e-38
0.029333334 -0.13278268 0.0045391684 1.906071e-38
0.031244483 -0.13278268 0.0045391684 1.7865048e-38
0.033155624 -0.13278268 0.0045391684 1.6208409e-38
0.034873929 -0.13202934 0.0074720746 1.5935425e-38
0.036575157 -0.1312501 0.010505713 1.4556457e-38
0.038202863 -0.13023765 0.014447249 1.1333574e-38
0.040096629 -0.13023765 0.014447249 9.6787363e-39
0.041990403 -0.13023765 0.014447249 7.2838177e-39
0.04366101 -0.1294684 0.017442144 6.6409692e-39
0.045244042 -0.12843956 0.021447457 7.1948633e-39
0.047125548 -0.12843956 0.021447457 8.1160993e-39
-0.059246503 -0.14325126 -0.028550111 1.0234067e-38
-0.057277344 -0.14325126 -0.028550111 2.3326208e-38
-0.055308186 -0.14325126 -0.028550111 2.332621e-38
-0.053339019 -0.14325126 -0.028550111 2.3234376e-38
-0.051369861 -0.14325126 -0.028550111 2.3418047e-38
-0.049400698 -0.14325126 -0.028550111 2.3418047e-38
-0.04743154 -0.14325126 -0.028550111 2.3509883e-38
-0.045430958 -0.14222141 -0.024567924 2.350988e-38
-0.043468781 -0.14222141 -0.024567924 2.350988e-38
-0.0415066 -0.14222141 -0.024567924 2.3509521e-38
-0.039533697 -0.141167 -0.020490848 2.3509879e-38
-0.037578668 -0.141167 -0.020490848 2.3509521e-38
-0.035626218 -0.14040495 -0.017544232 2.3509527e-38
-0.033686943 -0.13936369 -0.013517939 2.3509527e-38
-0.031744141 -0.13936369 -0.013517939 2.3509886e-38
-0.029819936 -0.13857989 -0.010487163 2.3418047e-38
-0.027882444 -0.13857989 -0.010487163 2.2313135e-38
-0.025944952 -0.13857989 -0.010487163 2.2958504e-38
-0.024007462 -0.13857989 -0.010487163 2.3418043e-38
-0.022069972 -0.13857989 -0.010487163 2.3509518e-38
-0.020191727 -0.1375518 -0.0065117711 2.3509521e-38
-0.018261207 -0.1375518 -0.0065117711 2.3508804e-38
-0.016403345 -0.13653107 -0.00256499 2.3508448e-38
-0.014479745 -0.13653107 -0.00256499 2.3508448e-38
-0.012556145 -0.13653107 -0.00256499 2.3508451e-38
-0.010632545 -0.13653107 -0.00256499 2.3508809e-38
-0.008787496 -0.13573201 0.00052479561 2.3509168e-38
-0.0068693142 -0.13573201 0.00052479561 2.3509527e-38
-0.0049511306 -0.13573201 0.00052479561 2.3141106e-38
-0.0031561218 -0.13469382 0.0045391684 2.2772321e-38
-0.0012449771 -0.13469382 0.0045391684 2.3508441e-38
0.00046217069 -0.13315077 0.010505713 2.3509517e-38
0.0023628548 -0.13315077 0.010505713 2.3505556e-38
0.0041149557 -0.13213144 0.014447249 2.3508074e-38
0.0060087293 -0.13213144 0.014447249 2.350519e-38
0.0079024993 -0.13213144 0.014447249 1.8430832e-38
0.009796273 -0.13213144 0.014447249 1.9628659e-38
0.011690047 -0.13213144 0.014447249 2.1102347e-38
0.013583817 -0.13213144 0.014447249 2.0823599e-38
0.01547759 -0.13213144 0.014447249 1.9806565e-38
0.017371364 -0.13213144 0.014447249 1.9894795e-38
0.019265134 -0.13213144 0.014447249 1.989191e-38
0.021158908 -0.13213144 0.014447249 1.9889384e-38
0.023437917 -0.13393532 0.0074720746 2.0441479e-38
0.025511049 -0.13469382 0.0045391684 2.0533676e-38
0.027657982 -0.13573201 0.00052479561 1.9244382e-38
0.029576164 -0.13573201 0.00052479561 1.9615325e-38
0.031494353 -0.13573201 0.00052479561 1.9157227e-38
0.033412535 -0.13573201 0.00052479561 1.6762664e-38
0.035066772 -0.13469382 0.0045391684 1.5200022e-38
0.036575157 -0.13315077 0.010505713 1.474229e-38
0.038202863 -0.13213144 0.014447249 1.3271125e-38
0.040096629 -0.13213144 0.014447249 1.1338621e-38
0.041990403 -0.13213144 0.014447249 5.2555138e-39
0.04366101 -0.13135691 0.017442144 3.5052388e-39
0.045244042 -0.13032107 0.021447457 5.9034056e-39
0.047125548 -0.13032107 0.021447457 7.2852596e-39
-0.059246503 -0.14522041 -0.028550111 1.0787238e-38
-0.057277344 -0.14522041 -0.028550111 2.341804e-38
-0.055308186 -0.14522041 -0.028550111 2.3142174e-38
-0.053339019 -0.14522041 -0.028550111 2.3418045e-38
-0.051369861 -0.14522041 -0.028550111 2.3234374e-38
-0.049400698 -0.14522041 -0.028550111 2.3234374e-38
-0.047393136 -0.14418359 -0.024567924 2.3418045e-38
-0.045430958 -0.14418359 -0.024567924 2.350988e-38
-0.043468781 -0.14418359 -0.024567924 2.350988e-38
-0.041488729 -0.14312203 -0.020490848 2.3509879e-38
-0.039533697 -0.14312203 -0.020490848 2.3509879e-38
-0.037576087 -0.14235483 -0.017544232 2.350988e-38
-0.035629749 -0.1413065 -0.013517939 2.3509164e-38
-0.033686943 -0.1413065 -0.013517939 2.3509167e-38
-0.031757426 -0.14051737 -0.010487163 2.3509886e-38
-0.029819936 -0.14051737 -0.010487163 2.3418047e-38
-0.027882444 -0.14051737 -0.010487163 2.3234374e-38
-0.025944952 -0.14051737 -0.010487163 2.3234374e-38
-0.024052769 -0.1394823 -0.0065117711 2.3509879e-38
-0.022122249 -0.1394823 -0.0065117711 2.3509158e-38
-0.020191727 -0.1394823 -0.0065117711 2.3509161e-38
-0.018326947 -0.13845469 -0.00256499 2.3508802e-38
-0.016403345 -0.13845469 -0.00256499 2.3508086e-38
-0.014479745 -0.13845469 -0.00256499 2.3508089e-38
-0.012556145 -0.13845469 -0.00256499 2.3508089e-38
-0.01070568 -0.13765021 0.00052479561 2.3508451e-38
-0.008787496 -0.13765021 0.00052479561 2.3508809e-38
-0.0068693142 -0.13765021 0.00052479561 2.3509168e-38
-0.0050672665 -0.13660498 0.0045391684 2.3509168e-38
-0.0031561218 -0.13660498 0.0045391684 2.3509168e-38
-0.0012449771 -0.13660498 0.0045391684 2.3508445e-38
0.00046217069 -0.13505147 0.010505713 2.3508079e-38
0.0023628548 -0.13505147 0.010505713 2.3507714e-38
0.0041149557 -0.1340252 0.014447249 2.3505188e-38
0.0060087293 -0.1340252 0.014447249 2.2852258e-38
0.007779099 -0.13324542 0.017442144 1.9347382e-38
0.0096676238 -0.13324542 0.017442144 1.8332511e-38
0.011556145 -0.13324542 0.017442144 1.8884606e-38
0.013444666 -0.13324542 0.017442144 1.9067195e-38
0.01547759 -0.1340252 0.014447249 1.9065034e-38
0.017371364 -0.1340252 0.014447249 1.9430934e-38
0.019265134 -0.1340252 0.014447249 1.9520966e-38
0.021158908 -0.1340252 0.014447249 2.016345e-38
0.023437917 -0.13584132 0.0074720746 2.0625508e-38
0.025511049 -0.13660498 0.0045391684 1.8782682e-38
0.027422193 -0.13660498 0.0045391684 1.8324584e-38
0.029333334 -0.13660498 0.0045391684 1.869517e-38
0.031244483 -0.13660498 0.0045391684 1.8053043e-38
0.033155624 -0.13660498 0.0045391684 1.6212733e-38
0.034873929 -0.13584132 0.0074720746 1.640037e-38
0.036575157 -0.13505147 0.010505713 1.8063495e-38
0.038475838 -0.13505147 0.010505713 1.8435522e-38
-0.061128393 -0.14614578 -0.024567924 1.124785e-38
-0.059166212 -0.14614578 -0.024567924 1.1893941e-38
-0.057277344 -0.1471896 -0.028550111 2.3509876e-38
-0.055308186 -0.1471896 -0.028550111 2.3326206e-38
-0.053279676 -0.14614578 -0.024567924 2.3326206e-38
-0.051317494 -0.14614578 -0.024567924 2.3234374e-38
-0.049355317 -0.14614578 -0.024567924 2.3234374e-38
-0.047393136 -0.14614578 -0.024567924 2.3418045e-38
-0.04539879 -0.14507706 -0.020490848 2.3418045e-38
-0.043443762 -0.14507706 -0.020490848 2.350988e-38
-0.041488729 -0.14507706 -0.020490848 2.350988e-38
-0.039525948 -0.14430468 -0.017544232 2.350988e-38
-0.037576087 -0.14430468 -0.017544232 2.350988e-38
-0.035629749 -0.14324932 -0.013517939 2.3509167e-38
-0.033686943 -0.14324932 -0.013517939 2.3509527e-38
-0.031757426 -0.14245488 -0.010487163 2.3509886e-38
-0.029819936 -0.14245488 -0.010487163 2.332621e-38
-0.027882444 -0.14245488 -0.010487163 2.3234376e-38
-0.025944952 -0.14245488 -0.010487163 2.3234374e-38
-0.024052769 -0.14141284 -0.0065117711 2.350988e-38
-0.022174148 -0.14037828 -0.00256499 2.3509879e-38
-0.020250548 -0.14037828 -0.00256499 2.3509163e-38
-0.018378412 -0.13956837 0.00052479561 2.3508804e-38
-0.016460229 -0.13956837 0.00052479561 2.3508445e-38
-0.014542047 -0.13956837 0.00052479561 2.3508445e-38
-0.012623863 -0.13956837 0.00052479561 2.3508448e-38
-0.01070568 -0.13956837 0.00052479561 2.3508807e-38
-0.008787496 -0.13956837 0.00052479561 2.3509165e-38
-0.0069784112 -0.13851611 0.0045391684 2.3509168e-38
-0.0050672665 -0.13851611 0.0045391684 2.3415535e-38
-0.0031561218 -0.13851611 0.0045391684 2.350665e-38
-0.0012449771 -0.13851611 0.0045391684 2.1567295e-38
0.00046217069 -0.13695215 0.010505713 2.1656963e-38
0.0023628548 -0.13695215 0.010505713 2.3221759e-38
0.0041149557 -0.13591899 0.014447249 2.1928138e-38
0.0060087293 -0.13591899 0.014447249 1.9713278e-38
0.007779099 -0.13513394 0.017442144 1.796048e-38
0.0096676238 -0.13513394 0.017442144 1.8789162e-38
0.011556145 -0.13513394 0.017442144 1.8696606e-38
0.013444666 -0.13513394 0.017442144 1.8971395e-38
0.01547759 -0.13591899 0.014447249 1.9338736e-38
0.017371364 -0.13591899 0.014447249 1.9336575e-38
0.019265134 -0.13591899 0.014447249 1.9426967e-38
0.021158908 -0.13591899 0.014447249 1.9978699e-38
0.023270372 -0.13695215 0.010505713 2.0255646e-38
0.025511049 -0.13851611 0.0045391684 1.9521685e-38
0.027422193 -0.13851611 0.0045391684 1.9340178e-38
0.029333334 -0.13851611 0.0045391684 1.8051601e-38
0.031244483 -0.13851611 0.0045391684 1.7132889e-38
0.033155624 -0.13851611 0.0045391684 1.9717971e-38
0.034873929 -0.13774733 0.0074720746 2.3501957e-38
0.03630909 -0.13591899 0.014447249 2.3508444e-38
0.037995446 -0.13513394 0.017442144 2.3509165e-38
0.039883967 -0.13513394 0.017442144 2.341769e-38
-0.061128393 -0.14810793 -0.024567924 1.1616635e-38
-0.059166212 -0.14810793 -0.024567924 1.2354563e-38
-0.05720403 -0.14810793 -0.024567924 2.3233648e-38
-0.055308186 -0.14915876 -0.028550111 2.3418043e-38
-0.053279676 -0.14810793 -0.024567924 2.3049621e-38
-0.051317494 -0.14810793 -0.024567924 2.3418047e-38
-0.049355317 -0.14810793 -0.024567924 2.3418047e-38
-0.047393136 -0.14810793 -0.024567924 2.3418047e-38
-0.04539879 -0.1470321 -0.020490848 2.3418047e-38
-0.043425679 -0.14625455 -0.017544232 2.3418047e-38
-0.041475814 -0.14625455 -0.017544232 2.3418047e-38
-0.039515361 -0.1451921 -0.013517939 2.3418047e-38
-0.037572555 -0.1451921 -0.013517939 2.3509886e-38
-0.035629749 -0.1451921 -0.013517939 2.3509527e-38
-0.033686943 -0.1451921 -0.013517939 2.3509527e-38
-0.031757426 -0.14439236 -0.010487163 2.3509886e-38
-0.029819936 -0.14439236 -0.010487163 2.3050347e-38
-0.027913809 -0.14334334 -0.0065117711 2.3142544e-38
-0.025983289 -0.14334334 -0.0065117711 2.2958867e-38
-0.024052769 -0.14334334 -0.0065117711 2.2958507e-38
-0.022174148 -0.14230187 -0.00256499 2.350988e-38
-0.020250548 -0.14230187 -0.00256499 2.3509883e-38
-0.018378412 -0.14148657 0.00052479561 2.3509165e-38
-0.016460229 -0.14148657 0.00052479561 2.3508807e-38
-0.014542047 -0.14148657 0.00052479561 2.3508807e-38
-0.012623863 -0.14148657 0.00052479561 2.3509524e-38
-0.01070568 -0.14148657 0.00052479561 2.3509883e-38
-0.008787496 -0.14148657 0.00052479561 2.3509883e-38
-0.0069784112 -0.14042725 0.0045391684 2.3509886e-38
-0.0050672665 -0.14042725 0.0045391684 2.3508809e-38
-0.0031561218 -0.14042725 0.0045391684 2.2029358e-38
-0.0012449771 -0.14042725 0.0045391684 1.9076931e-38
0.00046217069 -0.13885282 0.010505713 2.0087832e-38
0.002221182 -0.13781275 0.014447249 2.1559355e-38
0.0041149557 -0.13781275 0.014447249 2.0819261e-38
0.0060087293 -0.13781275 0.014447249 1.9802225e-38
0.007779099 -0.13702248 0.017442144 1.8049428e-38
0.0096676238 -0.13702248 0.017442144 1.8785195e-38
0.011556145 -0.13702248 0.017442144 1.8508608e-38
0.013444666 -0.13702248 0.017442144 1.8968866e-38
0.015333187 -0.13702248 0.017442144 1.9244734e-38
0.017221708 -0.13702248 0.017442144 1.8966349e-38
0.019265134 -0.13781275 0.014447249 1.9149298e-38
0.021158908 -0.13781275 0.014447249 1.9609914e-38
0.023270372 -0.13885282 0.010505713 1.951916e-38
0.025343921 -0.13965334 0.0074720746 1.8139827e-38
0.027422193 -0.14042725 0.0045391684 1.9617483e-38
0.029576164 -0.14148657 0.00052479561 1.8422542e-38
0.031494353 -0.14148657 0.00052479561 1.8057006e-38
0.033155624 -0.14042725 0.0045391684 2.2024666e-38
0.034873929 -0.13965334 0.0074720746 2.3508082e-38
0.03630909 -0.13781275 0.014447249 2.3508807e-38
0.037718046 -0.13596557 0.021447457 2.3048189e-38
0.039381582 -0.13515557 0.024516977 2.341805e-38
0.041257698 -0.13515557 0.024516977 2.2773765e-38
0.043133814 -0.13515557 0.024516977 2.2404983e-38
0.044785749 -0.13437997 0.027456321 2.3234379e-38
0.046656713 -0.13437997 0.027456321 2.341805e-38
0.048527673 -0.13437997 0.027456321 2.3141467e-38
0.050398633 -0.13437997 0.027456321 2.3509527e-38
0.052269593 -0.13437997 0.027456321 2.2497543e-38
0.05439052 -0.13515557 0.024516977 2.0657953e-38
-0.061039034 -0.14898713 -0.020490848 1.1616638e-38
-0.059084006 -0.14898713 -0.020490848 1.2170175e-38
-0.047353819 -0.14898713 -0.020490848 2.3418047e-38
-0.04539879 -0.14898713 -0.020490848 2.341805e-38
-0.043425679 -0.14820443 -0.017544232 2.341805e-38
-0.041475814 -0.14820443 -0.017544232 2.341805e-38
-0.039515361 -0.14713491 -0.013517939 2.341805e-38
-0.037572555 -0.14713491 -0.013517939 2.3509886e-38
-0.035629749 -0.14713491 -0.013517939 2.3324778e-38
-0.033694915 -0.14632986 -0.010487163 2.3509527e-38
-0.031757426 -0.14632986 -0.010487163 2.3509527e-38
-0.029819936 -0.14632986 -0.010487163 2.3142544e-38
-0.027913809 -0.14527388 -0.0065117711 2.3142544e-38
-0.025983289 -0.14527388 -0.0065117711 2.2498971e-38
-0.024052769 -0.14527388 -0.0065117711 2.23135e-38
-0.022174148 -0.14422549 -0.00256499 2.2865955e-38
-0.020296596 -0.14340474 0.00052479561 2.341805e-38
-0.018378412 -0.14340474 0.00052479561 2.3509886e-38
-0.016460229 -0.14340474 0.00052479561 2.3509527e-38
-0.014542047 -0.14340474 0.00052479561 2.3509883e-38
-0.012623863 -0.14340474 0.00052479561 2.3418047e-38
-0.010800701 -0.14233841 0.0045391684 2.3234376e-38
-0.0088895559 -0.14233841 0.0045391684 2.295887e-38
-0.0070581175 -0.14155935 0.0074720746 2.3234376e-38
-0.0051521137 -0.14155935 0.0074720746 2.3507729e-38
-0.0032461137 -0.14155935 0.0074720746 1.9446438e-38
-0.0014385134 -0.14075352 0.010505713 1.6953908e-38
0.00032741204 -0.13970654 0.014447249 1.9071158e-38
0.002221182 -0.13970654 0.014447249 2.0174254e-38
0.0041149557 -0.13970654 0.014447249 2.0263202e-38
0.0060087293 -0.13970654 0.014447249 2.0168482e-38
0.007779099 -0.13891099 0.017442144 1.7677758e-38
0.0096676238 -0.13891099 0.017442144 1.767704e-38
0.011556145 -0.13891099 0.017442144 1.7675961e-38
0.013444666 -0.13891099 0.017442144 1.8413528e-38
0.015333187 -0.13891099 0.017442144 1.8782311e-38
0.017221708 -0.13891099 0.017442144 1.8320614e-38
0.019110229 -0.13891099 0.017442144 1.8688676e-38
0.02099875 -0.13891099 0.017442144 1.9517718e-38
0.023052681 -0.13970654 0.014447249 1.924257e-38
0.025343921 -0.14155935 0.0074720746 1.8693719e-38
0.027422193 -0.14233841 0.0045391684 2.3214908e-38
0.029333334 -0.14233841 0.0045391684 2.3500507e-38
0.031494353 -0.14340474 0.00052479561 2.3504111e-38
0.033155624 -0.14233841 0.0045391684 2.3507721e-38
0.034415316 -0.13970654 0.014447249 2.3507725e-38
0.035836551 -0.13784705 0.021447457 2.2586134e-38
0.037505466 -0.13703169 0.024516977 2.341805e-38
0.039172854 -0.13625093 0.027456321 2.2589374e-38
0.041043822 -0.13625093 0.027456321 2.3234379e-38
0.042914782 -0.13625093 0.027456321 2.268157e-38
0.044785749 -0.13625093 0.027456321 2.2772686e-38
0.046656713 -0.13625093 0.027456321 2.341805e-38
0.048205107 -0.13517688 0.031499662 2.3232944e-38
0.050068989 -0.13517688 0.031499662 2.3509527e-38
0.052269593 -0.13625093 0.027456321 2.3142544e-38
0.05439052 -0.13703169 0.024516977 2.2499695e-38
0.056533039 -0.13784705 0.021447457 2.2224189e-38
0.058414534 -0.13784705 0.021447457 2.0196975e-38
-0.039515361 -0.14907773 -0.013517939 2.3325856e-38
-0.037572555 -0.14907773 -0.013517939 2.3417333e-38
-0.035629749 -0.14907773 -0.013517939 2.3509168e-38
-0.033694915 -0.14826734 -0.010487163 2.3509168e-38
-0.031774849 -0.14720438 -0.0065117711 2.3417333e-38
-0.029844331 -0.14720438 -0.0065117711 2.3234379e-38
-0.027913809 -0.14720438 -0.0065117711 2.2958873e-38
-0.02602135 -0.14614908 -0.00256499 2.1946163e-38
-0.024097748 -0.14614908 -0.00256499 2.1761053e-38
-0.022214778 -0.14532293 0.00052479561 2.2867037e-38
-0.020296596 -0.14532293 0.00052479561 2.2682286e-38
-0.018378412 -0.14532293 0.00052479561 2.3234379e-38
-0.016534133 -0.14424954 0.0045391684 2.3234379e-38
-0.01462299 -0.14424954 0.0045391684 2.277376e-38
-0.012711845 -0.14424954 0.0045391684 2.2958873e-38
-0.010800701 -0.14424954 0.0045391684 2.2867037e-38
-0.0089641195 -0.14346536 0.0074720746 2.222418e-38
-0.0071405619 -0.1426542 0.010505713 2.295887e-38
-0.0052398778 -0.1426542 0.010505713 2.3508804e-38
-0.0033391938 -0.1426542 0.010505713 1.5573497e-38
-0.0015663616 -0.1416003 0.014447249 1.6031224e-38
0.00032741204 -0.1416003 0.014447249 1.7779334e-38
0.002221182 -0.1416003 0.014447249 1.8512928e-38
0.004002057 -0.14079951 0.017442144 1.9616748e-38
0.005890578 -0.14079951 0.017442144 2.0259233e-38
0.007779099 -0.14079951 0.017442144 1.7861062e-38
0.0096676238 -0.14079951 0.017442144 1.7768148e-38
0.011556145 -0.14079951 0.017442144 1.7952183e-38
0.013444666 -0.14079951 0.017442144 1.804438e-38
0.015333187 -0.14079951 0.017442144 1.8044383e-38
0.017221708 -0.14079951 0.017442144 1.8228774e-38
0.019110229 -0.14079951 0.017442144 1.8780869e-38
0.02099875 -0.14079951 0.017442144 1.8780869e-38
0.023052681 -0.1416003 0.014447249 1.8229134e-38
0.025171053 -0.1426542 0.010505713 1.8601522e-38
0.02707174 -0.1426542 0.010505713 2.1924169e-38
0.029333334 -0.14424954 0.0045391684 2.3497624e-38
0.030873101 -0.1426542 0.010505713 2.3506993e-38
0.032521542 -0.1416003 0.014447249 2.3508082e-38
0.034218397 -0.14079951 0.017442144 2.3509168e-38
0.035836551 -0.13972856 0.021447457 2.2864163e-38
0.037505466 -0.13890781 0.024516977 2.3234379e-38
0.039172854 -0.13812189 0.027456321 2.3142544e-38
0.041043822 -0.13812189 0.027456321 2.3234379e-38
0.042914782 -0.13812189 0.027456321 2.341805e-38
0.044477362 -0.13704078 0.031499662 2.3509886e-38
0.046341237 -0.13704078 0.031499662 2.3509886e-38
0.048205107 -0.13704078 0.031499662 2.3509527e-38
0.050068989 -0.13704078 0.031499662 2.3509527e-38
0.052269593 -0.13812189 0.027456321 2.3142544e-38
0.05439052 -0.13890781 0.024516977 2.2775202e-38
0.056266636 -0.13890781 0.024516977 2.2224189e-38
0.058142751 -0.13890781 0.024516977 2.222383e-38
0.060018867 -0.13890781 0.024516977 9.5001198e-39
0.062177539 -0.13972856 0.021447457 5.0740079e-39
-0.031774849 -0.14913492 -0.0065117711 2.3416974e-38
-0.029844331 -0.14913492 -0.0065117711 2.341805e-38
-0.027913809 -0.14913492 -0.0065117711 2.3142544e-38
-0.02602135 -0.14807267 -0.00256499 2.2958873e-38
-0.024097748 -0.14807267 -0.00256499 2.2406422e-38
-0.022214778 -0.1472411 0.00052479561 2.286632e-38
-0.020296596 -0.1472411 0.00052479561 2.268157e-38
-0.018445278 -0.14616071 0.0045391684 2.3233662e-38
-0.016534133 -0.14616071 0.0045391684 2.304927e-38
-0.01462299 -0.14616071 0.0045391684 2.277376e-38
-0.012776123 -0.14537133 0.0074720746 2.295887e-38
-0.010870121 -0.14537133 0.0074720746 2.2683361e-38
-0.0090412442 -0.14455487 0.010505713 2.2407854e-38
-0.0072476789 -0.14349405 0.014447249 2.3142537e-38
-0.0053539071 -0.14349405 0.014447249 2.350484e-38
-0.0034601353 -0.14349405 0.014447249 1.3634864e-38
-0.0015663616 -0.14349405 0.014447249 1.5106746e-38
0.00032741204 -0.14349405 0.014447249 1.7592777e-38
0.002221182 -0.14349405 0.014447249 1.8142702e-38
0.004002057 -0.14268802 0.017442144 1.92458e-38
0.005890578 -0.14268802 0.017442144 1.9336192e-38
0.007779099 -0.14268802 0.017442144 1.767487e-38
0.0096676238 -0.14268802 0.017442144 1.7767066e-38
0.011556145 -0.14268802 0.017442144 1.795146e-38
0.013444666 -0.14268802 0.017442144 1.7859988e-38
0.015333187 -0.14268802 0.017442144 1.7675598e-38
0.017221708 -0.14268802 0.017442144 1.7859992e-38
0.019110229 -0.14268802 0.017442144 1.8136576e-38
0.02099875 -0.14268802 0.017442144 1.8319888e-38
0.023052681 -0.14349405 0.014447249 1.7677396e-38
0.025171053 -0.14455487 0.010505713 1.7402976e-38
0.02707174 -0.14455487 0.010505713 2.0173528e-38
0.028733995 -0.14349405 0.014447249 2.2665703e-38
0.030627768 -0.14349405 0.014447249 2.3506274e-38
0.032521542 -0.14349405 0.014447249 2.3508445e-38
0.034218397 -0.14268802 0.017442144 2.3509527e-38
0.035629343 -0.14078392 0.024516977 2.2957796e-38
0.037505466 -0.14078392 0.024516977 2.2958873e-38
0.039172854 -0.13999285 0.027456321 2.3142544e-38
0.041043822 -0.13999285 0.027456321 2.3234379e-38
0.042613488 -0.13890465 0.031499662 2.3509886e-38
0.044477362 -0.13890465 0.031499662 2.3509527e-38
0.046341237 -0.13890465 0.031499662 2.3509527e-38
0.048205107 -0.13890465 0.031499662 2.3509527e-38
0.050068989 -0.13890465 0.031499662 2.341805e-38
0.052514404 -0.14078392 0.024516977 2.3234379e-38
0.05439052 -0.14078392 0.024516977 2.2682649e-38
0.056266636 -0.14078392 0.024516977 2.2683366e-38
0.058142751 -0.14078392 0.024516977 2.2958873e-38
0.060296029 -0.14161004 0.021447457 1.3370175e-38
0.062177539 -0.14161004 0.021447457 8.9440663e-39
-0.02602135 -0.1499963 -0.00256499 2.3142544e-38
-0.024097748 -0.1499963 -0.00256499 2.3233662e-38
-0.022214778 -0.1491593 0.00052479561 2.3509886e-38
-0.020296596 -0.1491593 0.00052479561 2.3509527e-38
-0.018445278 -0.14807184 0.0045391684 2.3509168e-38
-0.016534133 -0.14807184 0.0045391684 2.3509168e-38
-0.014682127 -0.14727734 0.0074720746 2.3509165e-38
-0.012776123 -0.14727734 0.0074720746 2.3509521e-38
-0.010941928 -0.14645557 0.010505713 2.3141455e-38
-0.0091414526 -0.14538784 0.014447249 2.3234372e-38
-0.0072476789 -0.14538784 0.014447249 2.3509873e-38
-0.0053539071 -0.14538784 0.014447249 2.3508075e-38
-0.0034601353 -0.14538784 0.014447249 1.206537e-38
-0.0015663616 -0.14538784 0.014447249 1.3537612e-38
0.00032741204 -0.14538784 0.014447249 1.7222189e-38
0.002113536 -0.14457656 0.017442144 1.8233093e-38
0.004002057 -0.14457656 0.017442144 1.8691546e-38
0.005890578 -0.14457656 0.017442144 1.8412435e-38
0.007779099 -0.14457656 0.017442144 1.8135486e-38
0.0094955675 -0.14349155 0.021447457 1.8043293e-38
0.011377066 -0.14349155 0.021447457 1.8135851e-38
0.013115946 -0.14266007 0.024516977 1.7952183e-38
0.014992062 -0.14266007 0.024516977 1.7767793e-38
0.017021563 -0.14349155 0.021447457 1.7676317e-38
0.018903062 -0.14349155 0.021447457 1.8045099e-38
0.02099875 -0.14457656 0.017442144 1.822877e-38
0.022887271 -0.14457656 0.017442144 1.776959e-38
0.024946451 -0.14538784 0.014447249 1.7495528e-38
0.026840221 -0.14538784 0.014447249 1.989586e-38
0.028733995 -0.14538784 0.014447249 2.2113248e-38
0.030627768 -0.14538784 0.014447249 2.3505917e-38
0.032329876 -0.14457656 0.017442144 2.3508807e-38
0.034218397 -0.14457656 0.017442144 2.341805e-38
0.035629343 -0.14266007 0.024516977 2.2682649e-38
0.037505466 -0.14266007 0.024516977 2.2867037e-38
0.039172854 -0.14186381 0.027456321 2.3142544e-38
0.041043822 -0.14186381 0.027456321 2.341805e-38
0.042613488 -0.14076851 0.031499662 2.3509883e-38
0.044477362 -0.14076851 0.031499662 2.3509521e-38
0.046341237 -0.14076851 0.031499662 2.3509524e-38
0.048205107 -0.14076851 0.031499662 2.3509527e-38
0.050068989 -0.14076851 0.031499662 2.341805e-38
0.052514404 -0.14266007 0.024516977 2.3234379e-38
0.05439052 -0.14266007 0.024516977 2.2681212e-38
0.056266636 -0.14266007 0.024516977 2.3050349e-38
0.058142751 -0.14266007 0.024516977 2.3234379e-38
0.060296029 -0.14349155 0.021447457 1.6964363e-38
0.062177539 -0.14349155 0.021447457 1.2353863e-38
-0.018445278 -0.14998297 0.0045391684 2.2765481e-38
-0.016534133 -0.14998297 0.0045391684 2.3502687e-38
-0.014682127 -0.14918335 0.0074720746 2.3507367e-38
-0.012776123 -0.14918335 0.0074720746 2.3507723e-38
-0.010941928 -0.14835624 0.010505713 2.3506639e-38
-0.0091414526 -0.1472816 0.014447249 2.3508075e-38
-0.0072476789 -0.1472816 0.014447249 2.3507351e-38
-0.0053539071 -0.1472816 0.014447249 2.3506632e-38
-0.0034601353 -0.1472816 0.014447249 1.1969568e-38
-0.001663506 -0.14646508 0.017442144 1.2981913e-38
0.00022501498 -0.14646508 0.017442144 1.694344e-38
0.002113536 -0.14646508 0.017442144 1.8138734e-38
0.003851071 -0.14537306 0.021447457 1.8229126e-38
0.0057325698 -0.14537306 0.021447457 1.7582312e-38
0.0076140687 -0.14537306 0.021447457 1.8503549e-38
0.0093637109 -0.14453618 0.024516977 1.7950378e-38
0.011239827 -0.14453618 0.024516977 1.8135132e-38
0.013115946 -0.14453618 0.024516977 1.8043301e-38
0.014992062 -0.14453618 0.024516977 1.7675598e-38
0.017021563 -0.14537306 0.021447457 1.7675598e-38
0.018903062 -0.14537306 0.021447457 1.8044379e-38
0.020784561 -0.14537306 0.021447457 1.8229126e-38
0.022666059 -0.14537306 0.021447457 1.8045098e-38
0.024775792 -0.14646508 0.017442144 1.7771749e-38
0.026840221 -0.1472816 0.014447249 1.9618911e-38
0.028552834 -0.14646508 0.017442144 2.2205443e-38
0.030441355 -0.14646508 0.017442144 2.3507716e-38
0.032329876 -0.14646508 0.017442144 2.3508807e-38
0.034218397 -0.14646508 0.017442144 2.3234379e-38
0.035629343 -0.14453618 0.024516977 2.2591172e-38
0.037301894 -0.14373477 0.027456321 2.2775202e-38
0.039172854 -0.14373477 0.027456321 2.3142544e-38
0.040749613 -0.14263238 0.031499662 2.3418047e-38
0.042613488 -0.14263238 0.031499662 2.3509879e-38
0.044477362 -0.14263238 0.031499662 2.3509879e-38
0.046341237 -0.14263238 0.031499662 2.3509521e-38
0.048205107 -0.14263238 0.031499662 2.3509527e-38
0.050068989 -0.14263238 0.031499662 2.341805e-38
0.052514404 -0.14453618 0.024516977 2.3234379e-38
0.054140568 -0.14373477 0.027456321 2.3325856e-38
0.056011528 -0.14373477 0.027456321 2.3509886e-38
0.058142751 -0.14453618 0.024516977 2.3509886e-38
0.060296029 -0.14537306 0.021447457 1.8899388e-38
0.062177539 -0.14537306 0.021447457 1.428853e-38
0.064434737 -0.14646508 0.017442144 7.4653349e-39
-0.0091414526 -0.14917539 0.014447249 2.3505556e-38
-0.0073290709 -0.14835359 0.017442144 2.3505551e-38
-0.0054405499 -0.14835359 0.017442144 2.1095496e-38
-0.003552027 -0.14835359 0.017442144 1.2335105e-38
-0.001663506 -0.14835359 0.017442144 1.5099168e-38
8.8073313e-05 -0.14725454 0.021447457 1.7033108e-38
0.0019695722 -0.14725454 0.021447457 1.7491205e-38
0.003851071 -0.14725454 0.021447457 1.8043293e-38
0.0057325698 -0.14725454 0.021447457 1.7672712e-38
0.0076140687 -0.14725454 0.021447457 1.7488321e-38
0.0093637109 -0.1464123 0.024516977 1.721246e-38
0.011239827 -0.1464123 0.024516977 1.7489767e-38
0.013115946 -0.1464123 0.024516977 1.7582323e-38
0.014992062 -0.1464123 0.024516977 1.7397935e-38
0.016868178 -0.1464123 0.024516977 1.7397932e-38
0.018903062 -0.14725454 0.021447457 1.7767072e-38
0.020784561 -0.14725454 0.021447457 1.8042937e-38
0.022666059 -0.14725454 0.021447457 1.7768148e-38
0.024775792 -0.14835359 0.017442144 1.7125299e-38
0.026840221 -0.14917539 0.014447249 1.8788428e-38
0.028552834 -0.14835359 0.017442144 2.1928494e-38
0.030441355 -0.14835359 0.017442144 2.3507716e-38
0.032073554 -0.14725454 0.021447457 2.3508086e-38
0.033955049 -0.14725454 0.021447457 2.3234379e-38
0.035629343 -0.1464123 0.024516977 2.2683366e-38
0.037301894 -0.14560573 0.027456321 2.2775202e-38
0.039172854 -0.14560573 0.027456321 2.3142544e-38
0.040749613 -0.14449625 0.031499662 2.3418045e-38
0.042613488 -0.14449625 0.031499662 2.3509876e-38
0.044477362 -0.14449625 0.031499662 2.3509873e-38
0.046106193 -0.14366965 0.03451208 2.3509879e-38
0.047964782 -0.14366965 0.03451208 2.3509883e-38
0.050068989 -0.14449625 0.031499662 2.341805e-38
0.052269593 -0.14560573 0.027456321 2.341805e-38
0.054140568 -0.14560573 0.027456321 2.3509883e-38
0.056011528 -0.14560573 0.027456321 2.350952e-38
0.058142751 -0.1464123 0.024516977 2.3509523e-38
0.060296029 -0.14725454 0.021447457 2.000501e-38
0.062546223 -0.14835359 0.017442144 1.5486708e-38
8.8073313e-05 -0.14913605 0.021447457 1.7952183e-38
0.0019695722 -0.14913605 0.021447457 1.7397207e-38
0.003851071 -0.14913605 0.021447457 1.8594309e-38
0.0057325698 -0.14913605 0.021447457 1.8594309e-38
0.0076140687 -0.14913605 0.021447457 1.6565649e-38
0.0093637109 -0.14828841 0.024516977 1.7211383e-38
0.011239827 -0.14828841 0.024516977 1.7581247e-38
0.012979373 -0.14747669 0.027456321 1.7765998e-38
0.014850337 -0.14747669 0.027456321 1.749013e-38
0.016868178 -0.14828841 0.024516977 1.7489767e-38
0.018744294 -0.14828841 0.024516977 1.7766353e-38
0.020620413 -0.14828841 0.024516977 1.8042577e-38
0.022496529 -0.14828841 0.024516977 1.7858902e-38
0.030192051 -0.14913605 0.021447457 2.3507358e-38
0.031877112 -0.14828841 0.024516977 2.3508448e-38
0.033753227 -0.14828841 0.024516977 2.2958514e-38
0.035629343 -0.14828841 0.024516977 2.2591531e-38
0.037301894 -0.14747669 0.027456321 2.2775202e-38
0.039172854 -0.14747669 0.027456321 2.3142544e-38
0.040749613 -0.14636014 0.031499662 2.3509879e-38
0.042613488 -0.14636014 0.031499662 2.3509873e-38
0.044477362 -0.14636014 0.031499662 2.3509511e-38
0.046106193 -0.14552824 0.03451208 2.3509517e-38
0.047964782 -0.14552824 0.03451208 2.350988e-38
0.050068989 -0.14636014 0.031499662 2.341805e-38
