# .PCD v0.7 - Point Cloud Data file format
VERSION 0.7
FIELDS x y z rgb
SIZE 4 4 4 4
TYPE F F F F
COUNT 1 1 1 1
WIDTH 899
HEIGHT 1
VIEWPOINT 0 0 0 1 0 0 0
POINTS 899
DATA ascii
0.012231606 -0.11726747 -0.013109977 1.9390047e-39
0.014169096 -0.11726747 -0.013109977 1.8460902e-39
0.016231466 -0.11799283 -0.016140755 2.5840126e-39
0.0044816425 -0.11920498 -0.013109977 9.5934056e-39
0.0064191362 -0.11920498 -0.013109977 9.1324274e-39
0.010403051 -0.11993565 -0.016140755 9.2239042e-39
0.012231606 -0.11920498 -0.013109977 8.2097523e-39
0.014169096 -0.11920498 -0.013109977 5.9963341e-39
0.016231466 -0.11993565 -0.016140755 2.3999857e-39
0.018174272 -0.11993565 -0.016140755 3.3215776e-39
0.020117078 -0.11993565 -0.016140755 5.0732918e-39
-0.020594638 -0.1245618 -0.027190741 2.3416248e-38
-0.01863246 -0.1245618 -0.027190741 2.3509524e-38
-0.016716745 -0.12357174 -0.023113664 2.3509168e-38
-0.014761715 -0.12357174 -0.023113664 2.3508451e-38
-0.012910604 -0.12187846 -0.016140755 2.3509527e-38
-0.010967799 -0.12187846 -0.016140755 2.3509527e-38
-0.0090249954 -0.12187846 -0.016140755 2.332478e-38
-0.007143301 -0.12114246 -0.013109977 2.3232585e-38
-0.0052929381 -0.12017711 -0.009134586 2.3324778e-38
-0.0033624163 -0.12017711 -0.009134586 2.3509168e-38
-0.001532237 -0.11921866 -0.0051878048 2.3509886e-38
0.00039136503 -0.11921866 -0.0051878048 2.2957796e-38
0.0023149652 -0.11921866 -0.0051878048 1.9180305e-38
0.0043596653 -0.12017711 -0.009134586 1.6231488e-38
0.0064191362 -0.12114246 -0.013109977 1.7060533e-38
0.0083566261 -0.12114246 -0.013109977 1.8720054e-38
0.010294116 -0.12114246 -0.013109977 1.8535663e-38
0.012231606 -0.12114246 -0.013109977 1.8259076e-38
0.014169096 -0.12114246 -0.013109977 1.5399932e-38
0.016106591 -0.12114246 -0.013109977 9.3153768e-39
0.018174272 -0.12187846 -0.016140755 9.4068507e-39
0.020117078 -0.12187846 -0.016140755 1.1804294e-38
0.02205988 -0.12187846 -0.016140755 1.3831877e-38
-0.026491899 -0.12552677 -0.023113664 2.3509517e-38
-0.024536869 -0.12552677 -0.023113664 2.350952e-38
-0.022581838 -0.12552677 -0.023113664 2.3508439e-38
-0.020626808 -0.12552677 -0.023113664 2.3509524e-38
-0.018700192 -0.12480606 -0.020167049 2.3509524e-38
-0.016750328 -0.12480606 -0.020167049 2.3508091e-38
-0.014800464 -0.12480606 -0.020167049 2.3508809e-38
-0.012910604 -0.12382124 -0.016140755 2.332478e-38
-0.011018283 -0.12307997 -0.013109977 2.3509527e-38
-0.0090807909 -0.12307997 -0.013109977 2.3509527e-38
-0.007223458 -0.12210761 -0.009134586 2.3509168e-38
-0.0052929381 -0.12210761 -0.009134586 2.3509527e-38
-0.0033624163 -0.12210761 -0.009134586 2.3509527e-38
-0.001532237 -0.12114228 -0.0051878048 2.3509886e-38
0.00030739326 -0.12038656 -0.0020980192 2.341805e-38
0.0022255769 -0.12038656 -0.0020980192 2.2867037e-38
0.0042385636 -0.12114228 -0.0051878048 2.213056e-38
0.0062901853 -0.12210761 -0.009134586 2.2222754e-38
0.0083566261 -0.12307997 -0.013109977 2.2775202e-38
0.010294116 -0.12307997 -0.013109977 2.2775202e-38
0.012231606 -0.12307997 -0.013109977 2.2222754e-38
0.014169096 -0.12307997 -0.013109977 1.9732764e-38
0.016106591 -0.12307997 -0.013109977 1.6044939e-38
0.018044081 -0.12307997 -0.013109977 2.1483759e-38
0.019981571 -0.12307997 -0.013109977 2.2867037e-38
0.021734353 -0.12210761 -0.009134586 2.2958873e-38
0.038421191 -0.11940466 0.0019163536 2.2038355e-38
0.040332332 -0.11940466 0.0019163536 2.2406775e-38
0.042243481 -0.11940466 0.0019163536 2.295887e-38
-0.028449513 -0.12675591 -0.020167049 2.3509514e-38
-0.026491899 -0.1274818 -0.023113664 2.3509517e-38
-0.024536869 -0.1274818 -0.023113664 2.35088e-38
-0.022599921 -0.12675591 -0.020167049 2.286271e-38
-0.020681825 -0.12576406 -0.016140755 2.3508805e-38
-0.018739019 -0.12576406 -0.016140755 2.3509165e-38
-0.016796213 -0.12576406 -0.016140755 2.3415895e-38
-0.014853409 -0.12576406 -0.016140755 2.3509168e-38
-0.012955773 -0.12501745 -0.013109977 2.3415898e-38
-0.011018283 -0.12501745 -0.013109977 2.3509168e-38
-0.0090807909 -0.12501745 -0.013109977 2.3509168e-38
-0.007223458 -0.12403814 -0.009134586 2.332478e-38
-0.0052929381 -0.12403814 -0.009134586 2.3509527e-38
-0.0033624163 -0.12403814 -0.009134586 2.332478e-38
-0.001532237 -0.12306587 -0.0051878048 2.3048191e-38
0.00030739326 -0.12230472 -0.0020980192 2.3325138e-38
0.0022255769 -0.12230472 -0.0020980192 2.2865602e-38
0.0042385636 -0.12306587 -0.0051878048 2.2958514e-38
0.0062901853 -0.12403814 -0.009134586 2.2589737e-38
0.0083566261 -0.12501745 -0.013109977 2.3050349e-38
0.010151229 -0.12403814 -0.009134586 2.3142544e-38
0.012081749 -0.12403814 -0.009134586 2.2036209e-38
0.014012269 -0.12403814 -0.009134586 2.102206e-38
0.01594279 -0.12403814 -0.009134586 2.2681572e-38
0.017703772 -0.12306587 -0.0051878048 2.3142544e-38
0.01962737 -0.12306587 -0.0051878048 2.3142544e-38
0.021734353 -0.12403814 -0.009134586 2.3142544e-38
0.023664873 -0.12403814 -0.009134586 2.2681931e-38
0.02716196 -0.12230472 -0.0020980192 2.2958154e-38
0.029080141 -0.12230472 -0.0020980192 2.2497176e-38
0.030998327 -0.12230472 -0.0020980192 2.2589371e-38
0.032916509 -0.12230472 -0.0020980192 2.3142544e-38
0.034598902 -0.12131582 0.0019163536 2.3142544e-38
0.036510043 -0.12131582 0.0019163536 2.3142544e-38
0.038421191 -0.12131582 0.0019163536 2.3142544e-38
0.040332332 -0.12131582 0.0019163536 2.3234379e-38
0.042243481 -0.12131582 0.0019163536 2.3509883e-38
0.044154622 -0.12131582 0.0019163536 2.3509161e-38
0.04606577 -0.12131582 0.0019163536 2.3507002e-38
-0.030395847 -0.12770687 -0.016140755 2.3508784e-38
-0.028449513 -0.12870578 -0.020167049 2.3322962e-38
-0.026499648 -0.12870578 -0.020167049 2.3509517e-38
-0.024549782 -0.12870578 -0.020167049 2.350952e-38
-0.022624627 -0.12770687 -0.016140755 2.3508441e-38
-0.020705737 -0.12695493 -0.013109977 2.3509165e-38
-0.018768245 -0.12695493 -0.013109977 2.3509168e-38
-0.016796213 -0.12770687 -0.016140755 2.3509168e-38
-0.014853409 -0.12770687 -0.016140755 2.3509168e-38
-0.012955773 -0.12695493 -0.013109977 2.3509168e-38
-0.011018283 -0.12695493 -0.013109977 2.3509168e-38
-0.0090807909 -0.12695493 -0.013109977 2.3509168e-38
-0.007223458 -0.12596865 -0.009134586 2.3509527e-38
-0.0052929381 -0.12596865 -0.009134586 2.3509527e-38
-0.0033624163 -0.12596865 -0.009134586 2.3509527e-38
-0.0014318964 -0.12596865 -0.009134586 2.3509527e-38
0.00039136503 -0.12498946 -0.0051878048 2.3509527e-38
0.0023149652 -0.12498946 -0.0051878048 2.3509886e-38
0.0043596653 -0.12596865 -0.009134586 2.341805e-38
0.0062901853 -0.12596865 -0.009134586 2.341805e-38
0.0082207052 -0.12596865 -0.009134586 2.3141467e-38
0.010151229 -0.12596865 -0.009134586 2.2957079e-38
0.012081749 -0.12596865 -0.009134586 1.9822428e-38
0.014012269 -0.12596865 -0.009134586 1.8992311e-38
0.01578017 -0.12498946 -0.0051878048 2.2864526e-38
0.017703772 -0.12498946 -0.0051878048 2.3049273e-38
0.01962737 -0.12498946 -0.0051878048 2.3233662e-38
0.021550972 -0.12498946 -0.0051878048 2.2772688e-38
0.02347457 -0.12498946 -0.0051878048 2.2772686e-38
0.025398172 -0.12498946 -0.0051878048 2.341805e-38
0.02716196 -0.12422292 -0.0020980192 2.341805e-38
0.029080141 -0.12422292 -0.0020980192 2.341805e-38
0.030998327 -0.12422292 -0.0020980192 2.3234379e-38
0.032916509 -0.12422292 -0.0020980192 2.3234379e-38
0.034598902 -0.12322696 0.0019163536 2.2774125e-38
0.036510043 -0.12322696 0.0019163536 2.2404983e-38
0.038421191 -0.12322696 0.0019163536 2.3234018e-38
0.040332332 -0.12322696 0.0019163536 2.3325131e-38
0.042243481 -0.12322696 0.0019163536 2.3508441e-38
0.044154622 -0.12322696 0.0019163536 2.3507722e-38
0.04606577 -0.12322696 0.0019163536 2.2304857e-38
-0.0561717 -0.13513215 -0.038083848 1.0603213e-38
-0.054190423 -0.13513215 -0.038083848 1.0695412e-38
-0.052209143 -0.13513215 -0.038083848 1.0971646e-38
-0.032330681 -0.12889244 -0.013109977 2.0001746e-38
-0.030395847 -0.12964968 -0.016140755 2.3509143e-38
-0.028453041 -0.12964968 -0.016140755 2.3509511e-38
-0.026510239 -0.12964968 -0.016140755 2.3508797e-38
-0.024567433 -0.12964968 -0.016140755 2.350952e-38
-0.022643227 -0.12889244 -0.013109977 2.3509521e-38
-0.020705737 -0.12889244 -0.013109977 2.3508805e-38
-0.018768245 -0.12889244 -0.013109977 2.3508808e-38
-0.016830754 -0.12889244 -0.013109977 2.3508451e-38
-0.014893264 -0.12889244 -0.013109977 2.3139308e-38
-0.012955773 -0.12889244 -0.013109977 2.3323702e-38
-0.011018283 -0.12889244 -0.013109977 2.295492e-38
-0.0090807909 -0.12889244 -0.013109977 2.3509527e-38
-0.007143301 -0.12889244 -0.013109977 2.3509527e-38
-0.0052058091 -0.12889244 -0.013109977 2.2955999e-38
-0.0032683192 -0.12889244 -0.013109977 2.314039e-38
-0.0014318964 -0.12789918 -0.009134586 2.3509527e-38
0.00039136503 -0.12691309 -0.0051878048 2.3416971e-38
0.0023149652 -0.12691309 -0.0051878048 2.3047466e-38
0.0042385636 -0.12691309 -0.0051878048 2.3509521e-38
0.0062901853 -0.12789918 -0.009134586 2.3508804e-38
0.0080857677 -0.12691309 -0.0051878048 2.3509164e-38
0.010009366 -0.12691309 -0.0051878048 2.3509527e-38
0.011932968 -0.12691309 -0.0051878048 2.2309903e-38
0.013856567 -0.12691309 -0.0051878048 2.2125156e-38
0.015652861 -0.12614109 -0.0020980192 2.3509168e-38
0.017571043 -0.12614109 -0.0020980192 2.3509527e-38
0.019489225 -0.12614109 -0.0020980192 2.3509527e-38
0.021407411 -0.12614109 -0.0020980192 2.3509527e-38
0.023325592 -0.12614109 -0.0020980192 2.3509167e-38
0.025243774 -0.12614109 -0.0020980192 2.3509886e-38
0.026954323 -0.12513812 0.0019163536 2.3509883e-38
0.028865468 -0.12513812 0.0019163536 2.3048905e-38
0.030776612 -0.12513812 0.0019163536 2.3325494e-38
0.032520629 -0.12440531 0.0048492597 2.3234379e-38
0.03442663 -0.12440531 0.0048492597 2.3234379e-38
0.036332637 -0.12440531 0.0048492597 2.341805e-38
0.038238637 -0.12440531 0.0048492597 2.3509527e-38
0.040144637 -0.12440531 0.0048492597 2.3508085e-38
0.042050637 -0.12440531 0.0048492597 2.3508445e-38
0.043956645 -0.12440531 0.0048492597 2.3507726e-38
0.045862645 -0.12440531 0.0048492597 1.9813417e-38
0.047768645 -0.12440531 0.0048492597 1.769076e-38
0.049674653 -0.12440531 0.0048492597 1.4739778e-38
-0.060134258 -0.13711344 -0.038083848 1.5028601e-38
-0.058053683 -0.13613077 -0.034178194 1.4198476e-38
-0.056079254 -0.13613077 -0.034178194 1.3553111e-38
-0.054190423 -0.13711344 -0.038083848 1.3644953e-38
-0.052209143 -0.13711344 -0.038083848 1.3460928e-38
-0.050227866 -0.13711344 -0.038083848 1.309287e-38
-0.048246589 -0.13711344 -0.038083848 1.3094309e-38
-0.030393191 -0.13082992 -0.013109977 2.35077e-38
-0.028455701 -0.13082992 -0.013109977 2.3509149e-38
-0.026518207 -0.13082992 -0.013109977 2.2032946e-38
-0.024580717 -0.13082992 -0.013109977 2.2675803e-38
-0.022643227 -0.13082992 -0.013109977 2.3507009e-38
-0.020737102 -0.12982969 -0.009134586 2.3508089e-38
-0.01880658 -0.12982969 -0.009134586 2.3508089e-38
-0.016830754 -0.13082992 -0.013109977 2.3507366e-38
-0.014893264 -0.13082992 -0.013109977 2.1295751e-38
-0.012955773 -0.13082992 -0.013109977 1.5856935e-38
-0.011018283 -0.13082992 -0.013109977 1.5304123e-38
-0.0090807909 -0.13082992 -0.013109977 1.6501947e-38
-0.007143301 -0.13082992 -0.013109977 1.6040969e-38
-0.0052929381 -0.12982969 -0.009134586 1.4565117e-38
-0.0033624163 -0.12982969 -0.009134586 1.6871087e-38
-0.0014318964 -0.12982969 -0.009134586 2.1941489e-38
0.00039136503 -0.12883668 -0.0051878048 2.3509527e-38
0.0023149652 -0.12883668 -0.0051878048 2.3509524e-38
0.0042385636 -0.12883668 -0.0051878048 2.3508801e-38
0.0061621657 -0.12883668 -0.0051878048 2.3509161e-38
0.0080857677 -0.12883668 -0.0051878048 2.3509521e-38
0.0098983115 -0.12805928 -0.0020980192 2.3509165e-38
0.011816493 -0.12805928 -0.0020980192 2.3509524e-38
0.013734675 -0.12805928 -0.0020980192 2.3509168e-38
0.015652861 -0.12805928 -0.0020980192 2.3509167e-38
0.0173986 -0.12704925 0.0019163536 2.3508807e-38
0.019309744 -0.12704925 0.0019163536 2.3509527e-38
0.021220889 -0.12704925 0.0019163536 2.3509527e-38
0.023132034 -0.12704925 0.0019163536 2.3509167e-38
0.025043178 -0.12704925 0.0019163536 2.3509883e-38
0.026954323 -0.12704925 0.0019163536 2.3417327e-38
0.028708626 -0.12631132 0.0048492597 2.3232933e-38
0.030614626 -0.12631132 0.0048492597 2.3509883e-38
0.032347761 -0.12554805 0.0078828977 2.3048554e-38
0.034248449 -0.12554805 0.0078828977 2.3325138e-38
0.036149129 -0.12554805 0.0078828977 2.3509886e-38
0.03804981 -0.12554805 0.0078828977 2.3509527e-38
0.039950497 -0.12554805 0.0078828977 2.3139298e-38
0.041851178 -0.12554805 0.0078828977 2.3508802e-38
0.043751866 -0.12554805 0.0078828977 2.3506999e-38
0.045652546 -0.12554805 0.0078828977 1.7230495e-38
0.047553226 -0.12554805 0.0078828977 1.6029432e-38
-0.062233001 -0.14012341 -0.042144116 1.8716079e-38
-0.060134258 -0.13909473 -0.038083848 2.0837283e-38
-0.058053683 -0.1381052 -0.034178194 1.9822409e-38
-0.056079254 -0.1381052 -0.034178194 1.8622072e-38
-0.054190423 -0.13909473 -0.038083848 1.9083777e-38
-0.052209143 -0.13909473 -0.038083848 1.9453645e-38
-0.050227866 -0.13909473 -0.038083848 1.9640917e-38
-0.048246589 -0.13909473 -0.038083848 2.0105133e-38
-0.032338653 -0.13353528 -0.016140755 2.0741117e-38
-0.030389704 -0.13176022 -0.009134586 2.3325829e-38
-0.028459184 -0.13176022 -0.009134586 2.3418031e-38
-0.026539043 -0.13076027 -0.0051878048 2.350879e-38
-0.024615444 -0.13076027 -0.0051878048 2.1381111e-38
-0.022691842 -0.13076027 -0.0051878048 2.3500538e-38
-0.020768242 -0.13076027 -0.0051878048 2.3505574e-38
-0.018844642 -0.13076027 -0.0051878048 2.3506288e-38
-0.01692104 -0.13076027 -0.0051878048 2.3507359e-38
-0.01499744 -0.13076027 -0.0051878048 2.3509521e-38
-0.01307384 -0.13076027 -0.0051878048 1.5766543e-38
-0.0110845 -0.13176022 -0.009134586 1.5305931e-38
-0.009153978 -0.13176022 -0.009134586 1.4289621e-38
-0.007223458 -0.13176022 -0.009134586 1.4656961e-38
-0.0052929381 -0.13176022 -0.009134586 1.3458051e-38
-0.0034558373 -0.13076027 -0.0051878048 1.7054401e-38
-0.001532237 -0.13076027 -0.0051878048 2.1757112e-38
0.00039136503 -0.13076027 -0.0051878048 2.3417333e-38
0.0022255769 -0.12997745 -0.0020980192 2.3509527e-38
0.0041437587 -0.12997745 -0.0020980192 2.3509883e-38
0.0060619442 -0.12997745 -0.0020980192 2.3509524e-38
0.007980126 -0.12997745 -0.0020980192 2.3509523e-38
0.0098983115 -0.12997745 -0.0020980192 2.3508804e-38
0.011665164 -0.12896039 0.0019163536 2.3509523e-38
0.013576309 -0.12896039 0.0019163536 2.3509524e-38
0.015487454 -0.12896039 0.0019163536 2.3509883e-38
0.0173986 -0.12896039 0.0019163536 2.3509883e-38
0.019309744 -0.12896039 0.0019163536 2.3509883e-38
0.021220889 -0.12896039 0.0019163536 2.314074e-38
0.023132034 -0.12896039 0.0019163536 2.314074e-38
0.025043178 -0.12896039 0.0019163536 2.3509883e-38
0.026802622 -0.12821732 0.0048492597 2.3509883e-38
0.028546397 -0.12744872 0.0078828977 2.3509523e-38
0.030447081 -0.12744872 0.0078828977 2.3509527e-38
0.032347761 -0.12744872 0.0078828977 2.3508451e-38
0.034248449 -0.12744872 0.0078828977 2.3509527e-38
0.036149129 -0.12744872 0.0078828977 2.3233662e-38
0.03804981 -0.12744872 0.0078828977 2.3234379e-38
0.039950497 -0.12744872 0.0078828977 2.3142537e-38
0.041851178 -0.12744872 0.0078828977 2.2864502e-38
0.043751866 -0.12744872 0.0078828977 2.3509149e-38
0.045652546 -0.12744872 0.0078828977 1.6401083e-38
0.047553226 -0.12744872 0.0078828977 1.6488598e-38
0.053255282 -0.12744872 0.0078828977 1.169191e-38
-0.062115535 -0.14107598 -0.038083848 2.3233662e-38
-0.060134258 -0.14107598 -0.038083848 2.3234372e-38
-0.058152977 -0.14107598 -0.038083848 2.3326203e-38
-0.0561717 -0.14107598 -0.038083848 2.2863071e-38
-0.054190423 -0.14107598 -0.038083848 2.3324055e-38
-0.052209143 -0.14107598 -0.038083848 2.2957078e-38
-0.050155964 -0.14007963 -0.034178194 2.2683366e-38
-0.04818153 -0.14007963 -0.034178194 2.2224189e-38
-0.032330681 -0.1347049 -0.013109977 2.2216248e-38
-0.030389704 -0.13369073 -0.009134586 2.3049964e-38
-0.028459184 -0.13369073 -0.009134586 2.314216e-38
-0.026539043 -0.13268389 -0.0051878048 2.3509511e-38
-0.024615444 -0.13268389 -0.0051878048 2.1656262e-38
-0.022691842 -0.13268389 -0.0051878048 2.1927817e-38
-0.020768242 -0.13268389 -0.0051878048 2.0820739e-38
-0.018844642 -0.13268389 -0.0051878048 2.0177881e-38
-0.01692104 -0.13268389 -0.0051878048 2.3504112e-38
-0.01499744 -0.13268389 -0.0051878048 2.3509157e-38
-0.01307384 -0.13268389 -0.0051878048 2.3141467e-38
-0.01115024 -0.13268389 -0.0051878048 1.853062e-38
-0.0092266379 -0.13268389 -0.0051878048 1.6499079e-38
-0.0073030377 -0.13268389 -0.0051878048 1.7327032e-38
-0.0053794375 -0.13268389 -0.0051878048 1.9170577e-38
-0.0035289722 -0.13189565 -0.0020980192 2.3507733e-38
-0.0016107885 -0.13189565 -0.0020980192 2.3508809e-38
0.00030739326 -0.13189565 -0.0020980192 2.3417333e-38
0.0022255769 -0.13189565 -0.0020980192 2.3509527e-38
0.0041437587 -0.13189565 -0.0020980192 2.3509883e-38
0.0060619442 -0.13189565 -0.0020980192 2.3509883e-38
0.0078428751 -0.13087155 0.0019163536 2.3509883e-38
0.0097540198 -0.13087155 0.0019163536 2.3509883e-38
0.011665164 -0.13087155 0.0019163536 2.3509883e-38
0.013576309 -0.13087155 0.0019163536 2.3509883e-38
0.015366609 -0.13012333 0.0048492597 2.3509883e-38
0.01727261 -0.13012333 0.0048492597 2.3325131e-38
0.019178614 -0.13012333 0.0048492597 2.3509883e-38
0.021084614 -0.13012333 0.0048492597 2.3509883e-38
0.022990618 -0.13012333 0.0048492597 2.3509883e-38
0.024896622 -0.13012333 0.0048492597 2.3509883e-38
0.026645713 -0.12934943 0.0078828977 2.3509523e-38
0.028546397 -0.12934943 0.0078828977 2.3232936e-38
0.030447081 -0.12934943 0.0078828977 2.3509527e-38
0.03212316 -0.1283439 0.011824434 2.3509168e-38
0.03401693 -0.1283439 0.011824434 2.3509168e-38
0.035910703 -0.1283439 0.011824434 2.304927e-38
0.03804981 -0.12934943 0.0078828977 2.3050704e-38
0.039950497 -0.12934943 0.0078828977 2.30507e-38
0.041851178 -0.12934943 0.0078828977 2.3326196e-38
0.043751866 -0.12934943 0.0078828977 2.3509504e-38
0.045652546 -0.12934943 0.0078828977 1.6770217e-38
0.047553226 -0.12934943 0.0078828977 1.6118727e-38
-0.063884765 -0.1412821 -0.031172927 2.3325138e-38
-0.061915603 -0.1412821 -0.031172927 2.3141467e-38
-0.059946444 -0.1412821 -0.031172927 2.3234374e-38
-0.058053683 -0.14205404 -0.034178194 2.3418043e-38
-0.056079254 -0.14205404 -0.034178194 2.3509524e-38
-0.054104824 -0.14205404 -0.034178194 2.3509527e-38
-0.052130394 -0.14205404 -0.034178194 2.3417333e-38
-0.050155964 -0.14205404 -0.034178194 2.2958514e-38
-0.04818153 -0.14205404 -0.034178194 2.2591531e-38
-0.032330681 -0.13664238 -0.013109977 2.3507708e-38
-0.030389704 -0.13562126 -0.009134586 2.3509869e-38
-0.028462645 -0.13460748 -0.0051878048 2.3509869e-38
-0.026539043 -0.13460748 -0.0051878048 2.2398495e-38
-0.024615444 -0.13460748 -0.0051878048 2.0180779e-38
-0.022710804 -0.13381381 -0.0020980192 1.8426905e-38
-0.02079262 -0.13381381 -0.0020980192 1.8427254e-38
-0.018874437 -0.13381381 -0.0020980192 2.0734652e-38
-0.016956255 -0.13381381 -0.0020980192 2.3228604e-38
-0.015038071 -0.13381381 -0.0020980192 2.2677593e-38
-0.013119888 -0.13381381 -0.0020980192 2.3508451e-38
-0.011201705 -0.13381381 -0.0020980192 1.8709969e-38
-0.0092835212 -0.13381381 -0.0020980192 1.7691497e-38
-0.0073653394 -0.13381381 -0.0020980192 1.8243582e-38
-0.0054471558 -0.13381381 -0.0020980192 2.0733932e-38
-0.0035289722 -0.13381381 -0.0020980192 2.3507723e-38
-0.0016107885 -0.13381381 -0.0020980192 2.3507733e-38
0.00019829627 -0.13278268 0.0019163536 2.3048556e-38
0.002109441 -0.13278268 0.0019163536 2.3509527e-38
0.0040205857 -0.13278268 0.0019163536 2.3509883e-38
0.0059317304 -0.13278268 0.0019163536 2.3509883e-38
0.0077425977 -0.13202934 0.0048492597 2.3509883e-38
0.0096486015 -0.13202934 0.0048492597 2.3509883e-38
0.011440246 -0.1312501 0.0078828977 2.3417327e-38
0.01334093 -0.1312501 0.0078828977 2.3325131e-38
0.015241611 -0.1312501 0.0078828977 2.3417327e-38
0.017142296 -0.1312501 0.0078828977 2.3048545e-38
0.01904298 -0.1312501 0.0078828977 2.3509883e-38
0.021084614 -0.13202934 0.0048492597 2.3509523e-38
0.022990618 -0.13202934 0.0048492597 2.3325131e-38
0.024896622 -0.13202934 0.0048492597 2.3509883e-38
0.026645713 -0.1312501 0.0078828977 2.3509883e-38
0.028335616 -0.13023765 0.011824434 2.3325131e-38
0.03022939 -0.13023765 0.011824434 2.3509527e-38
0.03212316 -0.13023765 0.011824434 2.3509168e-38
0.03401693 -0.13023765 0.011824434 2.3509168e-38
0.035910703 -0.13023765 0.011824434 2.3141466e-38
0.037804477 -0.13023765 0.011824434 2.2958867e-38
0.039698251 -0.13023765 0.011824434 2.3142537e-38
0.041592024 -0.13023765 0.011824434 2.3509869e-38
0.043751866 -0.1312501 0.0078828977 2.3508063e-38
0.045652546 -0.1312501 0.0078828977 1.5940097e-38
0.047553226 -0.1312501 0.0078828977 1.6210923e-38
-0.06572476 -0.14222141 -0.027190741 2.2864163e-38
-0.063762575 -0.14222141 -0.027190741 2.295636e-38
-0.061800398 -0.14222141 -0.027190741 2.341805e-38
-0.059838217 -0.14222141 -0.027190741 2.2589368e-38
-0.057977278 -0.14325126 -0.031172927 2.3234376e-38
-0.056008119 -0.14325126 -0.031172927 2.3509527e-38
-0.05403896 -0.14325126 -0.031172927 2.3509168e-38
-0.052069794 -0.14325126 -0.031172927 2.3232583e-38
-0.050155964 -0.14402847 -0.034178194 2.2957431e-38
-0.048131477 -0.14325126 -0.031172927 2.3142538e-38
-0.046162311 -0.14325126 -0.031172927 2.1667041e-38
-0.032320224 -0.1375518 -0.009134586 2.3508787e-38
-0.030386247 -0.13653107 -0.0051878048 2.3509151e-38
-0.028462645 -0.13653107 -0.0051878048 2.2305933e-38
-0.026547171 -0.13573201 -0.0020980192 1.3545202e-38
-0.024628986 -0.13573201 -0.0020980192 1.372673e-38
-0.022710804 -0.13573201 -0.0020980192 1.1698426e-38
-0.02079262 -0.13573201 -0.0020980192 1.557279e-38
-0.018874437 -0.13573201 -0.0020980192 2.35052e-38
-0.016956255 -0.13573201 -0.0020980192 2.3508068e-38
-0.015038071 -0.13573201 -0.0020980192 2.3509514e-38
-0.013119888 -0.13573201 -0.0020980192 2.3411576e-38
-0.01126857 -0.13469382 0.0019163536 1.9719801e-38
-0.0093574254 -0.13469382 0.0019163536 1.9161582e-38
-0.0073653394 -0.13573201 -0.0020980192 1.9529275e-38
-0.0054471558 -0.13573201 -0.0020980192 2.0453378e-38
-0.0036239931 -0.13469382 0.0019163536 2.3505194e-38
-0.0017128484 -0.13469382 0.0019163536 2.3507722e-38
0.00019829627 -0.13469382 0.0019163536 2.3509524e-38
0.002109441 -0.13469382 0.0019163536 2.3509883e-38
0.0040205857 -0.13469382 0.0019163536 2.3417327e-38
0.0058365976 -0.13393532 0.0048492597 2.3417327e-38
0.0076388782 -0.13315077 0.0078828977 2.3509523e-38
0.0095395623 -0.13315077 0.0078828977 2.3509523e-38
0.011291663 -0.13213144 0.011824434 2.3509883e-38
0.013185437 -0.13213144 0.011824434 2.3509883e-38
0.015079207 -0.13213144 0.011824434 2.3509883e-38
0.016972981 -0.13213144 0.011824434 2.3509883e-38
0.018866755 -0.13213144 0.011824434 2.3509883e-38
0.020760525 -0.13213144 0.011824434 2.3232936e-38
0.022654299 -0.13213144 0.011824434 2.2864153e-38
0.024548072 -0.13213144 0.011824434 2.3509883e-38
0.026441842 -0.13213144 0.011824434 2.3509883e-38
0.028335616 -0.13213144 0.011824434 2.3509883e-38
0.03022939 -0.13213144 0.011824434 2.3509167e-38
0.03212316 -0.13213144 0.011824434 2.3508451e-38
0.03401693 -0.13213144 0.011824434 2.3509527e-38
0.035910703 -0.13213144 0.011824434 2.3325856e-38
0.037804477 -0.13213144 0.011824434 2.3142539e-38
0.039698251 -0.13213144 0.011824434 2.3234369e-38
0.041592024 -0.13213144 0.011824434 2.3509867e-38
0.043485798 -0.13213144 0.011824434 2.2582146e-38
0.045652546 -0.13315077 0.0078828977 1.4003267e-38
-0.067547545 -0.14312203 -0.023113664 2.3417691e-38
-0.065592512 -0.14312203 -0.023113664 2.3509527e-38
-0.06363748 -0.14312203 -0.023113664 2.3509527e-38
-0.061682448 -0.14312203 -0.023113664 2.341805e-38
-0.059838217 -0.14418359 -0.027190741 2.3050708e-38
-0.057876039 -0.14418359 -0.027190741 2.3234379e-38
-0.055913862 -0.14418359 -0.027190741 2.3509886e-38
-0.05403896 -0.14522041 -0.031172927 2.3509168e-38
-0.052069794 -0.14522041 -0.031172927 2.3509527e-38
-0.050100636 -0.14522041 -0.031172927 2.3509521e-38
-0.048131477 -0.14522041 -0.031172927 2.3509873e-38
-0.046162311 -0.14522041 -0.031172927 2.1478682e-38
-0.034268171 -0.14051737 -0.013109977 2.3499426e-38
-0.032309845 -0.13845469 -0.0051878048 2.3508067e-38
-0.030386247 -0.13845469 -0.0051878048 2.2858383e-38
-0.028465353 -0.13765021 -0.0020980192 1.8614874e-38
-0.026547171 -0.13765021 -0.0020980192 1.0869017e-38
-0.024628986 -0.13765021 -0.0020980192 1.3727096e-38
-0.022735439 -0.13660498 0.0019163536 1.5204024e-38
-0.020824295 -0.13660498 0.0019163536 1.8065672e-38
-0.01891315 -0.13660498 0.0019163536 2.350952e-38
-0.017002005 -0.13660498 0.0019163536 2.3324757e-38
-0.01509086 -0.13660498 0.0019163536 2.3509511e-38
-0.013179715 -0.13660498 0.0019163536 2.3507013e-38
-0.01126857 -0.13660498 0.0019163536 2.3311827e-38
-0.0093574254 -0.13660498 0.0019163536 2.0910054e-38
-0.0074462825 -0.13660498 0.0019163536 2.1092996e-38
-0.0055351378 -0.13660498 0.0019163536 2.0911468e-38
-0.0036239931 -0.13660498 0.0019163536 2.3500141e-38
-0.0017128484 -0.13660498 0.0019163536 2.350879e-38
0.00011858996 -0.13584132 0.0048492597 2.3509157e-38
0.0020245938 -0.13584132 0.0048492597 2.3509521e-38
0.0039305938 -0.13584132 0.0048492597 2.3509523e-38
0.0057381941 -0.13505147 0.0078828977 2.3509883e-38
0.0076388782 -0.13505147 0.0078828977 2.3509883e-38
0.0095395623 -0.13505147 0.0078828977 2.3509883e-38
0.011291663 -0.1340252 0.011824434 2.3325131e-38
0.013185437 -0.1340252 0.011824434 2.3232936e-38
0.015079207 -0.1340252 0.011824434 2.3509523e-38
0.016972981 -0.1340252 0.011824434 2.3325131e-38
0.018866755 -0.1340252 0.011824434 2.3509883e-38
0.020760525 -0.1340252 0.011824434 2.3509883e-38
0.022654299 -0.1340252 0.011824434 2.3509523e-38
0.024548072 -0.1340252 0.011824434 2.3509883e-38
0.026441842 -0.1340252 0.011824434 2.3509883e-38
0.028335616 -0.1340252 0.011824434 2.3509523e-38
0.03022939 -0.1340252 0.011824434 2.3509527e-38
0.03212316 -0.1340252 0.011824434 2.3508809e-38
0.033841021 -0.13324542 0.014819329 2.3509527e-38
0.035729542 -0.13324542 0.014819329 2.341805e-38
0.037804477 -0.1340252 0.011824434 2.3050703e-38
0.039698251 -0.1340252 0.011824434 2.3509876e-38
0.041592024 -0.1340252 0.011824434 2.3047806e-38
0.043485798 -0.1340252 0.011824434 2.1014459e-38
0.045652546 -0.13505147 0.0078828977 1.3264981e-38
-0.06950257 -0.14507706 -0.023113664 2.3509886e-38
-0.067547545 -0.14507706 -0.023113664 2.2956715e-38
-0.065592512 -0.14507706 -0.023113664 2.3141106e-38
-0.06363748 -0.14507706 -0.023113664 2.3417691e-38
-0.061682448 -0.14507706 -0.023113664 2.2680491e-38
-0.059838217 -0.14614578 -0.027190741 2.2958514e-38
-0.057876039 -0.14614578 -0.027190741 2.3142544e-38
-0.055913862 -0.14614578 -0.027190741 2.2957078e-38
-0.053951684 -0.14614578 -0.027190741 2.3324778e-38
-0.051989503 -0.14614578 -0.027190741 2.3509165e-38
-0.050027322 -0.14614578 -0.027190741 2.3509158e-38
-0.048065145 -0.14614578 -0.027190741 2.3505547e-38
-0.046102967 -0.14614578 -0.027190741 2.0183979e-38
-0.034268171 -0.14245488 -0.013109977 2.3505905e-38
-0.032309845 -0.14037828 -0.0051878048 2.3507348e-38
-0.030383535 -0.13956837 -0.0020980192 2.0827918e-38
-0.028465353 -0.13956837 -0.0020980192 1.5201122e-38
-0.026547171 -0.13956837 -0.0020980192 1.3357579e-38
-0.024646584 -0.13851611 0.0019163536 1.6216378e-38
-0.022735439 -0.13851611 0.0019163536 2.3504146e-38
-0.020824295 -0.13851611 0.0019163536 2.3509168e-38
-0.01891315 -0.13851611 0.0019163536 2.3509879e-38
-0.017002005 -0.13851611 0.0019163536 2.350987e-38
-0.01509086 -0.13851611 0.0019163536 2.3231846e-38
-0.013179715 -0.13851611 0.0019163536 2.3507013e-38
-0.011317424 -0.13774733 0.0048492597 2.3502342e-38
-0.0094114216 -0.13774733 0.0048492597 2.2568856e-38
-0.0074462825 -0.13851611 0.0019163536 2.1646526e-38
-0.0055351378 -0.13851611 0.0019163536 2.0174259e-38
-0.0036934139 -0.13774733 0.0048492597 2.2761131e-38
-0.001787412 -0.13774733 0.0048492597 2.3509143e-38
0.00011858996 -0.13774733 0.0048492597 2.3416234e-38
0.0020245938 -0.13774733 0.0048492597 2.3509879e-38
0.0039305938 -0.13774733 0.0048492597 2.3509883e-38
0.0057381941 -0.13695215 0.0078828977 2.3509883e-38
0.0076388782 -0.13695215 0.0078828977 2.3509883e-38
0.0093978895 -0.13591899 0.011824434 2.2864153e-38
0.011291663 -0.13591899 0.011824434 2.1204632e-38
0.013185437 -0.13591899 0.011824434 2.019048e-38
0.015079207 -0.13591899 0.011824434 1.9913893e-38
0.016972981 -0.13591899 0.011824434 2.0282676e-38
0.018732853 -0.13513394 0.014819329 2.2679762e-38
0.020621374 -0.13513394 0.014819329 2.3509883e-38
0.022509895 -0.13513394 0.014819329 2.3509883e-38
0.024398416 -0.13513394 0.014819329 2.3509883e-38
0.026286937 -0.13513394 0.014819329 2.3325131e-38
0.028175458 -0.13513394 0.014819329 2.3509523e-38
0.030063979 -0.13513394 0.014819329 2.3509527e-38
0.0319525 -0.13513394 0.014819329 2.3509527e-38
0.033841021 -0.13513394 0.014819329 2.3509168e-38
0.035729542 -0.13513394 0.014819329 2.3326213e-38
0.037804477 -0.13591899 0.011824434 2.2957425e-38
0.039506584 -0.13513394 0.014819329 2.3509873e-38
0.041395105 -0.13513394 0.014819329 2.2400639e-38
0.043485798 -0.13591899 0.011824434 2.0367648e-38
-0.067547545 -0.1470321 -0.023113664 2.323258e-38
-0.065592512 -0.1470321 -0.023113664 2.258721e-38
-0.063762575 -0.14810793 -0.027190741 2.3509527e-38
-0.061682448 -0.1470321 -0.023113664 2.3509886e-38
-0.059727419 -0.1470321 -0.023113664 2.3142544e-38
-0.057876039 -0.14810793 -0.027190741 2.3142544e-38
-0.055913862 -0.14810793 -0.027190741 2.3141467e-38
-0.053951684 -0.14810793 -0.027190741 2.3416974e-38
-0.051989503 -0.14810793 -0.027190741 2.3509163e-38
-0.049952265 -0.1470321 -0.023113664 2.3508794e-38
-0.047997233 -0.1470321 -0.023113664 2.3409749e-38
-0.046042204 -0.1470321 -0.023113664 1.9442086e-38
-0.034219902 -0.14148657 -0.0020980192 2.350122e-38
-0.03230172 -0.14148657 -0.0020980192 2.3501942e-38
-0.030383535 -0.14148657 -0.0020980192 1.971941e-38
-0.028465353 -0.14148657 -0.0020980192 1.391002e-38
-0.026547171 -0.14148657 -0.0020980192 1.4002949e-38
-0.024646584 -0.14042725 0.0019163536 1.4005481e-38
-0.022735439 -0.14042725 0.0019163536 2.3505222e-38
-0.020824295 -0.14042725 0.0019163536 2.3232583e-38
-0.01891315 -0.14042725 0.0019163536 2.2866307e-38
-0.017002005 -0.14042725 0.0019163536 2.3234364e-38
-0.01509086 -0.14042725 0.0019163536 2.3509873e-38
-0.013179715 -0.14042725 0.0019163536 2.3507733e-38
-0.011317424 -0.13965334 0.0048492597 2.3504502e-38
-0.0094114216 -0.13965334 0.0048492597 2.3496933e-38
-0.0075054197 -0.13965334 0.0048492597 2.1742324e-38
-0.0055351378 -0.14042725 0.0019163536 1.9532489e-38
-0.0036934139 -0.13965334 0.0048492597 2.3500498e-38
-0.001787412 -0.13965334 0.0048492597 2.3509146e-38
0.00011858996 -0.13965334 0.0048492597 2.3509873e-38
0.0020245938 -0.13965334 0.0048492597 2.3509521e-38
0.0039305938 -0.13965334 0.0048492597 2.3417327e-38
0.0057381941 -0.13885282 0.0078828977 2.3509523e-38
0.0076388782 -0.13885282 0.0078828977 2.3509523e-38
0.0093978895 -0.13781275 0.011824434 2.2587566e-38
0.011291663 -0.13781275 0.011824434 2.0928045e-38
0.013185437 -0.13781275 0.011824434 1.9821697e-38
0.015079207 -0.13781275 0.011824434 1.9729502e-38
0.016972981 -0.13781275 0.011824434 2.0006089e-38
0.018732853 -0.13702248 0.014819329 2.2403175e-38
0.020621374 -0.13702248 0.014819329 2.3509883e-38
0.022509895 -0.13702248 0.014819329 2.3509523e-38
0.024398416 -0.13702248 0.014819329 2.3417327e-38
0.026286937 -0.13702248 0.014819329 2.3417327e-38
0.028175458 -0.13702248 0.014819329 2.3509883e-38
0.030063979 -0.13702248 0.014819329 2.3509527e-38
0.0319525 -0.13702248 0.014819329 2.3509527e-38
0.033841021 -0.13702248 0.014819329 2.3141106e-38
0.035729542 -0.13702248 0.014819329 2.3509886e-38
0.037618063 -0.13702248 0.014819329 2.3325129e-38
0.039506584 -0.13702248 0.014819329 2.3509873e-38
0.041395105 -0.13702248 0.014819329 2.1938219e-38
0.043485798 -0.13781275 0.011824434 1.9720477e-38
-0.067547545 -0.14898713 -0.023113664 2.3509883e-38
-0.065592512 -0.14898713 -0.023113664 2.3325131e-38
-0.06363748 -0.14898713 -0.023113664 2.3509527e-38
-0.061682448 -0.14898713 -0.023113664 2.2956715e-38
-0.059727419 -0.14898713 -0.023113664 2.2865602e-38
-0.053862326 -0.14898713 -0.023113664 2.3324775e-38
-0.051907297 -0.14898713 -0.023113664 2.3509161e-38
-0.049952265 -0.14898713 -0.023113664 2.3507353e-38
-0.047948156 -0.14820443 -0.020167049 2.2854053e-38
-0.04599829 -0.14820443 -0.020167049 1.8608724e-38
-0.042018134 -0.14632986 -0.013109977 2.0352148e-38
-0.040080644 -0.14632986 -0.013109977 2.1088634e-38
-0.038080648 -0.14422549 -0.0051878048 2.0074126e-38
-0.036157046 -0.14422549 -0.0051878048 1.9062501e-38
-0.034219902 -0.14340474 -0.0020980192 2.275393e-38
-0.03230172 -0.14340474 -0.0020980192 2.0914342e-38
-0.030383535 -0.14340474 -0.0020980192 1.8888207e-38
-0.028465353 -0.14340474 -0.0020980192 1.778259e-38
-0.026557729 -0.14233841 0.0019163536 1.7599652e-38
-0.024646584 -0.14233841 0.0019163536 1.7417432e-38
-0.022735439 -0.14233841 0.0019163536 2.3508092e-38
-0.020824295 -0.14233841 0.0019163536 2.3141106e-38
-0.01891315 -0.14233841 0.0019163536 2.3142537e-38
-0.017002005 -0.14233841 0.0019163536 2.2497878e-38
-0.01509086 -0.14233841 0.0019163536 2.3509876e-38
-0.013179715 -0.14233841 0.0019163536 2.3508451e-38
-0.011317424 -0.14155935 0.0048492597 2.350234e-38
-0.0094114216 -0.14155935 0.0048492597 2.3500172e-38
-0.0075054197 -0.14155935 0.0048492597 2.0272953e-38
-0.0055994159 -0.14155935 0.0048492597 1.8984359e-38
-0.0036934139 -0.14155935 0.0048492597 2.3508783e-38
-0.001787412 -0.14155935 0.0048492597 2.3509511e-38
3.614556e-05 -0.14075352 0.0078828977 2.3324407e-38
0.0019368296 -0.14075352 0.0078828977 2.350988e-38
0.0038375137 -0.14075352 0.0078828977 2.3325131e-38
0.0057381941 -0.14075352 0.0078828977 2.3417327e-38
0.0075041195 -0.13970654 0.011824434 2.3509883e-38
0.0093978895 -0.13970654 0.011824434 2.3509883e-38
0.011291663 -0.13970654 0.011824434 2.3325131e-38
0.013185437 -0.13970654 0.011824434 2.3417327e-38
0.014955807 -0.13891099 0.014819329 2.3509883e-38
0.016844332 -0.13891099 0.014819329 2.3417327e-38
0.018732853 -0.13891099 0.014819329 2.3509883e-38
0.020621374 -0.13891099 0.014819329 2.3509883e-38
0.022509895 -0.13891099 0.014819329 2.3232936e-38
0.024398416 -0.13891099 0.014819329 2.3509883e-38
0.026286937 -0.13891099 0.014819329 2.3509883e-38
0.028175458 -0.13891099 0.014819329 2.3509883e-38
0.030063979 -0.13891099 0.014819329 2.3324775e-38
0.031724267 -0.13784705 0.018824641 2.3509886e-38
0.033605762 -0.13784705 0.018824641 2.2864519e-38
0.035487264 -0.13784705 0.018824641 2.3509886e-38
0.03736876 -0.13784705 0.018824641 2.3509879e-38
0.039506584 -0.13891099 0.014819329 2.3509153e-38
0.041395105 -0.13891099 0.014819329 2.1660193e-38
-0.047881089 -0.14907773 -0.016140755 2.1099812e-38
-0.045893114 -0.14826734 -0.013109977 1.9620352e-38
-0.043955624 -0.14826734 -0.013109977 1.9430915e-38
-0.042018134 -0.14826734 -0.013109977 2.0534736e-38
-0.040080644 -0.14826734 -0.013109977 2.0625133e-38
-0.038080648 -0.14614908 -0.0051878048 1.8782663e-38
-0.036157046 -0.14614908 -0.0051878048 1.8140179e-38
-0.034233447 -0.14614908 -0.0051878048 1.98955e-38
-0.03230172 -0.14532293 -0.0020980192 2.1004015e-38
-0.030383535 -0.14532293 -0.0020980192 1.9624688e-38
-0.028465353 -0.14532293 -0.0020980192 1.769039e-38
-0.026557729 -0.14424954 0.0019163536 2.0274395e-38
-0.024646584 -0.14424954 0.0019163536 2.3504137e-38
-0.022735439 -0.14424954 0.0019163536 2.3508451e-38
-0.020847434 -0.14346536 0.0048492597 2.3509886e-38
-0.018941432 -0.14346536 0.0048492597 2.3234372e-38
-0.01703543 -0.14346536 0.0048492597 2.286666e-38
-0.015129427 -0.14346536 0.0048492597 2.3418043e-38
-0.013223425 -0.14346536 0.0048492597 2.3417333e-38
-0.011317424 -0.14346536 0.0048492597 2.3508809e-38
-0.0094672712 -0.1426542 0.0078828977 2.3322983e-38
-0.0075665871 -0.1426542 0.0078828977 1.9174886e-38
-0.0055994159 -0.14346536 0.0048492597 1.9360344e-38
-0.0036934139 -0.14346536 0.0048492597 2.3048169e-38
-0.0018645367 -0.1426542 0.0078828977 2.3325129e-38
3.614556e-05 -0.1426542 0.0078828977 2.3509527e-38
0.0019368296 -0.1426542 0.0078828977 2.3417327e-38
0.0038375137 -0.1426542 0.0078828977 2.3509523e-38
0.0056103459 -0.1416003 0.011824434 2.3509523e-38
0.0075041195 -0.1416003 0.011824434 2.3509883e-38
0.0093978895 -0.1416003 0.011824434 2.3509883e-38
0.011291663 -0.1416003 0.011824434 2.3509883e-38
0.013067286 -0.14079951 0.014819329 2.3509883e-38
0.014955807 -0.14079951 0.014819329 2.3509523e-38
0.016844332 -0.14079951 0.014819329 2.3509523e-38
0.018732853 -0.14079951 0.014819329 2.3509523e-38
0.020621374 -0.14079951 0.014819329 2.3509883e-38
0.022509895 -0.14079951 0.014819329 2.3509883e-38
0.024398416 -0.14079951 0.014819329 2.3509883e-38
0.026286937 -0.14079951 0.014819329 2.3509883e-38
0.028175458 -0.14079951 0.014819329 2.3509523e-38
0.029842768 -0.13972856 0.018824641 2.341769e-38
0.031724267 -0.13972856 0.018824641 2.3233662e-38
0.033425473 -0.13890781 0.021894161 2.341805e-38
0.035301588 -0.13890781 0.021894161 2.3509886e-38
0.03736876 -0.13972856 0.018824641 2.350952e-38
0.03905382 -0.13890781 0.021894161 2.3508794e-38
0.040929936 -0.13890781 0.021894161 1.7601424e-38
-0.041972827 -0.14913492 -0.009134586 1.9979045e-38
-0.040042307 -0.14913492 -0.009134586 1.9887205e-38
-0.038111787 -0.14913492 -0.009134586 1.8690104e-38
-0.036157046 -0.14807267 -0.0051878048 1.7402611e-38
-0.034233447 -0.14807267 -0.0051878048 1.8327094e-38
-0.03230172 -0.1472411 -0.0020980192 1.9343412e-38
-0.030383535 -0.1472411 -0.0020980192 1.8792763e-38
-0.028465353 -0.1472411 -0.0020980192 1.7321239e-38
-0.026557729 -0.14616071 0.0019163536 2.3505919e-38
-0.024646584 -0.14616071 0.0019163536 2.3508092e-38
-0.022735439 -0.14616071 0.0019163536 2.2308831e-38
-0.020847434 -0.14537133 0.0048492597 2.3417687e-38
-0.018941432 -0.14537133 0.0048492597 2.3234372e-38
-0.01703543 -0.14537133 0.0048492597 2.2405682e-38
-0.015129427 -0.14537133 0.0048492597 2.3234374e-38
-0.013223425 -0.14537133 0.0048492597 2.3234379e-38
-0.011317424 -0.14537133 0.0048492597 2.3142544e-38
-0.0094672712 -0.14455487 0.0078828977 2.2958873e-38
-0.0075665871 -0.14455487 0.0078828977 2.2406775e-38
-0.005665903 -0.14455487 0.0078828977 2.2867026e-38
-0.0037652208 -0.14455487 0.0078828977 2.3142534e-38
-0.0018645367 -0.14455487 0.0078828977 2.341769e-38
-7.0971437e-05 -0.14349405 0.011824434 2.3509527e-38
0.0018228004 -0.14349405 0.011824434 2.3509527e-38
0.0037165722 -0.14349405 0.011824434 2.3509883e-38
0.0056103459 -0.14349405 0.011824434 2.3509883e-38
0.0075041195 -0.14349405 0.011824434 2.3509883e-38
0.0093978895 -0.14349405 0.011824434 2.3509883e-38
0.011178765 -0.14268802 0.014819329 2.3509883e-38
0.013067286 -0.14268802 0.014819329 2.3509883e-38
0.014955807 -0.14268802 0.014819329 2.3509883e-38
0.016844332 -0.14268802 0.014819329 2.3509883e-38
0.018732853 -0.14268802 0.014819329 2.3509883e-38
0.020621374 -0.14268802 0.014819329 2.3509883e-38
0.022316772 -0.14161004 0.018824641 2.3509883e-38
0.024198271 -0.14161004 0.018824641 2.3509883e-38
0.02607977 -0.14161004 0.018824641 2.3509883e-38
0.027961269 -0.14161004 0.018824641 2.3509883e-38
0.029842768 -0.14161004 0.018824641 2.3509886e-38
0.031549353 -0.14078392 0.021894161 2.3142544e-38
0.033425473 -0.14078392 0.021894161 2.3234379e-38
0.035301588 -0.14078392 0.021894161 2.341769e-38
0.037177704 -0.14078392 0.021894161 2.3508801e-38
0.03905382 -0.14078392 0.021894161 2.3506274e-38
0.040736675 -0.13999285 0.024833504 1.6493636e-38
0.042607643 -0.13999285 0.024833504 1.5474797e-38
-0.038080648 -0.1499963 -0.0051878048 1.8506432e-38
-0.036138084 -0.1491593 -0.0020980192 1.712638e-38
-0.034219902 -0.1491593 -0.0020980192 1.7128187e-38
-0.03230172 -0.1491593 -0.0020980192 1.8051587e-38
-0.030383535 -0.1491593 -0.0020980192 1.8053395e-38
-0.028468873 -0.14807184 0.0019163536 1.861053e-38
-0.026557729 -0.14807184 0.0019163536 2.2578193e-38
-0.024646584 -0.14807184 0.0019163536 2.3506646e-38
-0.022735439 -0.14807184 0.0019163536 2.3509168e-38
-0.020847434 -0.14727734 0.0048492597 2.3418043e-38
-0.018941432 -0.14727734 0.0048492597 2.3234367e-38
-0.01703543 -0.14727734 0.0048492597 2.3234367e-38
-0.015129427 -0.14727734 0.0048492597 2.2313135e-38
-0.013223425 -0.14727734 0.0048492597 2.3234379e-38
-0.011367953 -0.14645557 0.0078828977 2.2497901e-38
-0.0094672712 -0.14645557 0.0078828977 2.2591531e-38
-0.0075665871 -0.14645557 0.0078828977 2.2499695e-38
-0.005665903 -0.14645557 0.0078828977 2.2591524e-38
-0.0037652208 -0.14645557 0.0078828977 2.286703e-38
-0.0019647451 -0.14538784 0.011824434 2.2864163e-38
-7.0971437e-05 -0.14538784 0.011824434 2.3232227e-38
0.0018228004 -0.14538784 0.011824434 2.3509527e-38
0.0037165722 -0.14538784 0.011824434 2.3509883e-38
0.0056103459 -0.14538784 0.011824434 2.3417327e-38
0.0075041195 -0.14538784 0.011824434 2.3232936e-38
0.0093978895 -0.14538784 0.011824434 2.3232936e-38
0.011178765 -0.14457656 0.014819329 2.3325131e-38
0.013067286 -0.14457656 0.014819329 2.3509523e-38
0.014955807 -0.14457656 0.014819329 2.3509883e-38
0.016844332 -0.14457656 0.014819329 2.3509883e-38
0.018553775 -0.14349155 0.018824641 2.3509883e-38
0.020435274 -0.14349155 0.018824641 2.3509883e-38
0.022316772 -0.14349155 0.018824641 2.3509523e-38
0.024198271 -0.14349155 0.018824641 2.3509523e-38
0.02607977 -0.14349155 0.018824641 2.3509883e-38
0.027797122 -0.14266007 0.021894161 2.3509883e-38
0.029673237 -0.14266007 0.021894161 2.3509886e-38
0.031549353 -0.14266007 0.021894161 2.3234379e-38
0.03325282 -0.14186381 0.024833504 2.3234379e-38
0.035123788 -0.14186381 0.024833504 2.3509883e-38
0.036994748 -0.14186381 0.024833504 2.3509158e-38
0.038865715 -0.14186381 0.024833504 2.3505554e-38
0.040736675 -0.14186381 0.024833504 1.5846829e-38
0.042607643 -0.14186381 0.024833504 1.5012378e-38
-0.028468873 -0.14998297 0.0019163536 1.7131799e-38
-0.026557729 -0.14998297 0.0019163536 2.3503028e-38
-0.024646584 -0.14998297 0.0019163536 2.3507722e-38
-0.022735439 -0.14998297 0.0019163536 2.3509521e-38
-0.020847434 -0.14918335 0.0048492597 2.3234369e-38
-0.018941432 -0.14918335 0.0048492597 2.1853224e-38
-0.01703543 -0.14918335 0.0048492597 2.2681546e-38
-0.015129427 -0.14918335 0.0048492597 2.3509879e-38
-0.013223425 -0.14918335 0.0048492597 2.3509168e-38
-0.011367953 -0.14835624 0.0078828977 2.3417691e-38
-0.0094672712 -0.14835624 0.0078828977 2.2958873e-38
-0.0075665871 -0.14835624 0.0078828977 2.249969e-38
-0.005665903 -0.14835624 0.0078828977 2.2223449e-38
-0.0038585169 -0.1472816 0.011824434 2.3142531e-38
-0.0019647451 -0.1472816 0.011824434 2.3509527e-38
-7.0971437e-05 -0.1472816 0.011824434 2.3508451e-38
0.0018228004 -0.1472816 0.011824434 2.3509527e-38
0.0037165722 -0.1472816 0.011824434 2.3509883e-38
0.0056103459 -0.1472816 0.011824434 2.3509883e-38
0.0075041195 -0.1472816 0.011824434 2.3509883e-38
0.0092902435 -0.14646508 0.014819329 2.3509883e-38
0.011178765 -0.14646508 0.014819329 2.3509883e-38
0.013067286 -0.14646508 0.014819329 2.3509883e-38
0.014955807 -0.14646508 0.014819329 2.3509883e-38
0.016844332 -0.14646508 0.014819329 2.3509883e-38
0.018553775 -0.14537306 0.018824641 2.3509883e-38
0.020435274 -0.14537306 0.018824641 2.3509523e-38
0.022316772 -0.14537306 0.018824641 2.3509523e-38
0.024044886 -0.14453618 0.021894161 2.3509523e-38
0.025921002 -0.14453618 0.021894161 2.3509523e-38
0.027797122 -0.14453618 0.021894161 2.3509883e-38
0.029673237 -0.14453618 0.021894161 2.3509886e-38
0.03138186 -0.14373477 0.024833504 2.3142544e-38
0.03325282 -0.14373477 0.024833504 2.3050708e-38
0.035123788 -0.14373477 0.024833504 2.3509883e-38
0.036994748 -0.14373477 0.024833504 2.3509158e-38
0.038865715 -0.14373477 0.024833504 2.3506276e-38
0.040736675 -0.14373477 0.024833504 1.6029778e-38
0.042607643 -0.14373477 0.024833504 1.556411e-38
-0.0095398342 -0.14917539 0.011824434 2.3508451e-38
-0.0076460624 -0.14917539 0.011824434 2.3509517e-38
-0.0057522887 -0.14917539 0.011824434 2.3417305e-38
-0.0038585169 -0.14917539 0.011824434 2.3509862e-38
-0.0019647451 -0.14917539 0.011824434 2.35088e-38
-7.0971437e-05 -0.14917539 0.011824434 2.3508445e-38
0.0018228004 -0.14917539 0.011824434 2.3508805e-38
0.0037165722 -0.14917539 0.011824434 2.3509523e-38
0.0056103459 -0.14917539 0.011824434 2.3509883e-38
0.0074017225 -0.14835359 0.014819329 2.3509883e-38
0.0092902435 -0.14835359 0.014819329 2.3509883e-38
0.011178765 -0.14835359 0.014819329 2.3509883e-38
0.013067286 -0.14835359 0.014819329 2.3509523e-38
0.014790776 -0.14725454 0.018824641 2.3417327e-38
0.016672276 -0.14725454 0.018824641 2.3509523e-38
0.018553775 -0.14725454 0.018824641 2.3509883e-38
0.020435274 -0.14725454 0.018824641 2.3509883e-38
0.022316772 -0.14725454 0.018824641 2.3509883e-38
0.024044886 -0.1464123 0.021894161 2.3509883e-38
0.025921002 -0.1464123 0.021894161 2.3509883e-38
0.027797122 -0.1464123 0.021894161 2.3509883e-38
0.029673237 -0.1464123 0.021894161 2.3326213e-38
0.03138186 -0.14560573 0.024833504 2.2775202e-38
0.03325282 -0.14560573 0.024833504 2.2682286e-38
0.034879208 -0.14449625 0.028876845 2.3417327e-38
0.036743082 -0.14449625 0.028876845 2.35088e-38
0.038606957 -0.14449625 0.028876845 2.3504114e-38
0.040470824 -0.14449625 0.028876845 1.5936143e-38
0.042334698 -0.14449625 0.028876845 1.5747782e-38
0.014790776 -0.14913605 0.018824641 2.3509883e-38
0.016672276 -0.14913605 0.018824641 2.3509883e-38
0.018416535 -0.14828841 0.021894161 2.3509883e-38
0.020292655 -0.14828841 0.021894161 2.3509883e-38
0.02216877 -0.14828841 0.021894161 2.3509883e-38
0.024044886 -0.14828841 0.021894161 2.3509883e-38
0.025921002 -0.14828841 0.021894161 2.3509883e-38
0.027639933 -0.14747669 0.024833504 2.3509883e-38
0.029510897 -0.14747669 0.024833504 2.341805e-38
0.03138186 -0.14747669 0.024833504 2.2867037e-38
0.03325282 -0.14747669 0.024833504 2.2775202e-38
0.034879208 -0.14636014 0.028876845 2.3509883e-38
0.036743082 -0.14636014 0.028876845 2.3508441e-38
0.038606957 -0.14636014 0.028876845 2.3501594e-38
0.040470824 -0.14636014 0.028876845 1.5658835e-38
0.042334698 -0.14636014 0.028876845 1.6115842e-38
0.027639933 -0.14934768 0.024833504 2.3509883e-38
0.029510897 -0.14934768 0.024833504 2.341805e-38
0.03138186 -0.14934768 0.024833504 2.2867037e-38
0.03325282 -0.14934768 0.024833504 2.2958873e-38
0.034879208 -0.14822401 0.028876845 2.3509883e-38
0.036743082 -0.14822401 0.028876845 2.350736e-38
0.038606957 -0.14822401 0.028876845 2.3407235e-38
0.040470824 -0.14822401 0.028876845 1.5658115e-38
0.042334698 -0.14822401 0.028876845 1.639171e-38
0.040272757 -0.14924543 0.031889264 1.5289327e-38
0.042131349 -0.14924543 0.031889264 1.6392066e-38
