# .PCD v0.7 - Point Cloud Data file format
VERSION 0.7
FIELDS x y z rgb
SIZE 4 4 4 4
TYPE F F F F
COUNT 1 1 1 1
WIDTH 852
HEIGHT 1
VIEWPOINT 0 0 0 1 0 0 0
POINTS 852
DATA ascii
-0.024435695 -0.11962132 -0.022071688 6.6384385e-39
-0.022466533 -0.11962132 -0.022071688 5.9008734e-39
-0.020497372 -0.11962132 -0.022071688 5.5320909e-39
-0.01852821 -0.11962132 -0.022071688 6.0852647e-39
-0.024435695 -0.12159048 -0.022071688 5.0707624e-39
-0.022466533 -0.12159048 -0.022071688 5.5317406e-39
-0.02055672 -0.12063743 -0.018089501 4.6097815e-39
-0.018594541 -0.12063743 -0.018089501 7.467846e-39
-0.016632361 -0.12063743 -0.018089501 5.1629525e-39
0.0028428845 -0.11966167 -0.014012424 1.4290688e-38
0.0047979169 -0.11966167 -0.014012424 1.890047e-38
0.0084206685 -0.11799283 -0.0070395153 2.3234379e-38
0.010363474 -0.11799283 -0.0070395153 2.3050708e-38
-0.024435695 -0.12355967 -0.022071688 1.1800689e-38
-0.022466533 -0.12355967 -0.022071688 9.9567749e-39
-0.02055672 -0.12259962 -0.018089501 1.0509949e-38
-0.018594541 -0.12259962 -0.018089501 1.8162542e-38
-0.016632361 -0.12259962 -0.018089501 2.1112802e-38
-0.011079116 -0.11920498 -0.0040087383 2.3048907e-38
-0.009242693 -0.11824657 -3.3346936e-05 2.341769e-38
-0.007312173 -0.11824657 -3.3346936e-05 2.3509886e-38
-0.0053816512 -0.11824657 -3.3346936e-05 2.3509527e-38
-0.0034511313 -0.11824657 -3.3346936e-05 2.3509527e-38
-0.0013916604 -0.11920498 -0.0040087383 2.3509886e-38
0.00064945221 -0.11993565 -0.0070395153 2.3141106e-38
0.0025922544 -0.11993565 -0.0070395153 2.2864882e-38
0.0045350604 -0.11993565 -0.0070395153 2.341805e-38
0.0064778663 -0.11993565 -0.0070395153 2.341805e-38
0.0084206685 -0.11993565 -0.0070395153 2.2773408e-38
0.010363474 -0.11993565 -0.0070395153 2.3142185e-38
0.012978368 -0.12355967 -0.022071688 2.3142544e-38
0.014762502 -0.12259962 -0.018089501 2.286632e-38
0.016724683 -0.12259962 -0.018089501 2.2867037e-38
-0.024401445 -0.1262586 -0.025076954 1.9084507e-38
-0.022466533 -0.12552883 -0.022071688 1.6503385e-38
-0.020497372 -0.12552883 -0.022071688 1.364532e-38
-0.01852821 -0.12552883 -0.022071688 1.9361448e-38
-0.016559049 -0.12552883 -0.022071688 2.1574143e-38
-0.014892986 -0.12187846 -0.0070395153 2.3141106e-38
-0.013016606 -0.12114246 -0.0040087383 2.3233302e-38
-0.011079116 -0.12114246 -0.0040087383 2.3416974e-38
-0.009242693 -0.12017711 -3.3346936e-05 2.3140387e-38
-0.007312173 -0.12017711 -3.3346936e-05 2.3416974e-38
-0.0053816512 -0.12017711 -3.3346936e-05 2.2402819e-38
-0.0034511313 -0.12017711 -3.3346936e-05 2.3048189e-38
-0.0013916604 -0.12114246 -0.0040087383 2.341769e-38
0.00064945221 -0.12187846 -0.0070395153 2.341769e-38
0.0025922544 -0.12187846 -0.0070395153 2.3509886e-38
0.0045350604 -0.12187846 -0.0070395153 2.341805e-38
0.0064778663 -0.12187846 -0.0070395153 2.341805e-38
0.0085865669 -0.12285618 -0.011065809 2.3234379e-38
0.010536432 -0.12285618 -0.011065809 2.2865961e-38
0.012978368 -0.12552883 -0.022071688 2.3142544e-38
0.014762502 -0.1245618 -0.018089501 2.3050708e-38
0.016724683 -0.1245618 -0.018089501 2.3142544e-38
0.018885851 -0.12552883 -0.022071688 2.2958514e-38
0.020855013 -0.12552883 -0.022071688 2.249826e-38
0.022611219 -0.1245618 -0.018089501 2.2958873e-38
0.024573397 -0.1245618 -0.018089501 2.2958873e-38
-0.040112518 -0.12038656 0.0070032198 2.2958873e-38
-0.024401445 -0.12823303 -0.025076954 2.2957079e-38
-0.022466533 -0.12749799 -0.022071688 2.231171e-38
-0.020617481 -0.12552677 -0.014012424 2.3049273e-38
-0.018778596 -0.12382124 -0.0070395153 2.3325856e-38
-0.016835792 -0.12382124 -0.0070395153 2.2496099e-38
-0.014892986 -0.12382124 -0.0070395153 2.3325856e-38
-0.013016606 -0.12307997 -0.0040087383 2.3509527e-38
-0.011079116 -0.12307997 -0.0040087383 2.3509527e-38
-0.009242693 -0.12210761 -3.3346936e-05 2.3324775e-38
-0.007312173 -0.12210761 -3.3346936e-05 2.3509527e-38
-0.0053816512 -0.12210761 -3.3346936e-05 2.3509527e-38
-0.0033291541 -0.12307997 -0.0040087383 2.3509527e-38
-0.0013916604 -0.12307997 -0.0040087383 2.3509886e-38
0.00064945221 -0.12382124 -0.0070395153 2.3509886e-38
0.0025922544 -0.12382124 -0.0070395153 2.3325497e-38
0.0045350604 -0.12382124 -0.0070395153 2.3509886e-38
0.0064778663 -0.12382124 -0.0070395153 2.3325856e-38
0.0085865669 -0.12480606 -0.011065809 2.2957075e-38
0.010536432 -0.12480606 -0.011065809 2.341805e-38
0.012800325 -0.12652399 -0.018089501 2.3234379e-38
0.014762502 -0.12652399 -0.018089501 2.2773765e-38
0.016916689 -0.12749799 -0.022071688 2.3234379e-38
0.018686861 -0.12652399 -0.018089501 2.3234379e-38
0.020438161 -0.12552677 -0.014012424 2.2681212e-38
0.022235617 -0.12480606 -0.011065809 2.2774125e-38
0.024185479 -0.12480606 -0.011065809 2.2313149e-38
0.025905911 -0.12382124 -0.0070395153 2.3234379e-38
0.027848717 -0.12382124 -0.0070395153 2.3233303e-38
-0.04392425 -0.12131582 0.011017593 2.350988e-38
-0.0420307 -0.12230472 0.0070032198 2.2589371e-38
-0.040112518 -0.12230472 0.0070032198 2.2958873e-38
-0.038190812 -0.12131582 0.011017593 2.2773767e-38
-0.036279671 -0.12131582 0.011017593 2.332478e-38
-0.034368522 -0.12131582 0.011017593 2.3508451e-38
-0.032457381 -0.12131582 0.011017593 2.3508809e-38
-0.024481077 -0.12848614 -0.018089501 2.3234379e-38
-0.022518899 -0.12848614 -0.018089501 2.3234379e-38
-0.020661395 -0.12675591 -0.011065809 2.3234379e-38
-0.018778596 -0.12576406 -0.0070395153 2.3234379e-38
-0.016835792 -0.12576406 -0.0070395153 2.3049626e-38
-0.014954098 -0.12501745 -0.0040087383 2.249645e-38
-0.013016606 -0.12501745 -0.0040087383 2.3417327e-38
-0.011079116 -0.12501745 -0.0040087383 2.3509523e-38
-0.0091416258 -0.12501745 -0.0040087383 2.3508804e-38
-0.007312173 -0.12403814 -3.3346936e-05 2.3509883e-38
-0.0053816512 -0.12403814 -3.3346936e-05 2.3417327e-38
-0.0033291541 -0.12501745 -0.0040087383 2.3417687e-38
-0.0013916604 -0.12501745 -0.0040087383 2.3325492e-38
0.00064945221 -0.12576406 -0.0070395153 2.3233296e-38
0.0025922544 -0.12576406 -0.0070395153 2.3325494e-38
0.0045350604 -0.12576406 -0.0070395153 2.3509886e-38
0.0064778663 -0.12576406 -0.0070395153 2.3509886e-38
0.0084206685 -0.12576406 -0.0070395153 2.3509886e-38
0.010363474 -0.12576406 -0.0070395153 2.3509886e-38
0.012486294 -0.12675591 -0.011065809 2.341805e-38
0.014436159 -0.12675591 -0.011065809 2.2588292e-38
0.0165281 -0.1274818 -0.014012424 2.341805e-38
0.018483128 -0.1274818 -0.014012424 2.341805e-38
0.020285752 -0.12675591 -0.011065809 2.341805e-38
0.022235617 -0.12675591 -0.011065809 2.341805e-38
0.024185479 -0.12675591 -0.011065809 2.341805e-38
0.025905911 -0.12576406 -0.0070395153 2.3509527e-38
0.027848717 -0.12576406 -0.0070395153 2.2955996e-38
0.029791523 -0.12576406 -0.0070395153 1.8806469e-38
0.031734329 -0.12576406 -0.0070395153 8.4805532e-39
-0.045835391 -0.12322696 0.011017593 2.3509504e-38
-0.04392425 -0.12322696 0.011017593 2.3509873e-38
-0.042013101 -0.12322696 0.011017593 2.3418047e-38
-0.040112518 -0.12422292 0.0070032198 2.3142544e-38
-0.038190812 -0.12322696 0.011017593 2.286632e-38
-0.036279671 -0.12322696 0.011017593 2.3417333e-38
-0.034368522 -0.12322696 0.011017593 2.3509168e-38
-0.032457381 -0.12322696 0.011017593 2.3509168e-38
-0.030521601 -0.12422292 0.0070032198 2.3509527e-38
-0.028603416 -0.12422292 0.0070032198 2.3509527e-38
-0.026655439 -0.12498946 0.0039134342 2.341805e-38
-0.024527542 -0.12943684 -0.014012424 2.3142544e-38
-0.022572512 -0.12943684 -0.014012424 2.3142542e-38
-0.0207214 -0.12770687 -0.0070395153 2.3050347e-38
-0.018829079 -0.12695493 -0.0040087383 2.3234376e-38
-0.016891588 -0.12695493 -0.0040087383 2.3418047e-38
-0.014954098 -0.12695493 -0.0040087383 2.0375947e-38
-0.013016606 -0.12695493 -0.0040087383 2.1020238e-38
-0.011079116 -0.12695493 -0.0040087383 2.3232932e-38
-0.0091416258 -0.12695493 -0.0040087383 2.3509879e-38
-0.007204134 -0.12695493 -0.0040087383 2.2679758e-38
-0.0052666441 -0.12695493 -0.0040087383 2.3417327e-38
-0.0033291541 -0.12695493 -0.0040087383 2.3509883e-38
-0.0013916604 -0.12695493 -0.0040087383 2.3509883e-38
0.00054582953 -0.12695493 -0.0040087383 2.3509883e-38
0.0024833195 -0.12695493 -0.0040087383 2.3509886e-38
0.0045350604 -0.12770687 -0.0070395153 2.3509886e-38
0.0064778663 -0.12770687 -0.0070395153 2.3325494e-38
0.0084206685 -0.12770687 -0.0070395153 2.3233296e-38
0.010363474 -0.12770687 -0.0070395153 2.3325494e-38
0.01230628 -0.12770687 -0.0070395153 2.3509883e-38
0.014249083 -0.12770687 -0.0070395153 2.3233296e-38
0.016191889 -0.12770687 -0.0070395153 2.3417687e-38
0.018335886 -0.12870578 -0.011065809 2.3048905e-38
0.020285752 -0.12870578 -0.011065809 2.2495731e-38
0.022235617 -0.12870578 -0.011065809 2.3232936e-38
0.023963109 -0.12770687 -0.0070395153 2.2864153e-38
0.025905911 -0.12770687 -0.0070395153 2.3509527e-38
0.027848717 -0.12770687 -0.0070395153 2.0557465e-38
0.029791523 -0.12770687 -0.0070395153 1.8990495e-38
0.031734329 -0.12770687 -0.0070395153 1.3735343e-38
-0.047891442 -0.12889244 -0.0040087383 2.3508416e-38
-0.045835391 -0.12513812 0.011017593 2.3509139e-38
-0.04392425 -0.12513812 0.011017593 2.341551e-38
-0.042013101 -0.12513812 0.011017593 2.3417679e-38
-0.040112518 -0.12614109 0.0070032198 2.2958151e-38
-0.038190812 -0.12513812 0.011017593 2.3234379e-38
-0.036279671 -0.12513812 0.011017593 2.3509527e-38
-0.034368522 -0.12513812 0.011017593 2.3509168e-38
-0.032439783 -0.12614109 0.0070032198 2.3509527e-38
-0.030546235 -0.12513812 0.011017593 2.3509886e-38
-0.02863509 -0.12513812 0.011017593 2.3509886e-38
-0.026685234 -0.12614109 0.0070032198 2.3418047e-38
-0.024731837 -0.12691309 0.0039134342 2.2958507e-38
-0.022704061 -0.12889244 -0.0040087383 2.2589722e-38
-0.020766569 -0.12889244 -0.0040087383 2.30507e-38
-0.018829079 -0.12889244 -0.0040087383 2.2866307e-38
-0.016891588 -0.12889244 -0.0040087383 2.3049978e-38
-0.014892986 -0.12964968 -0.0070395153 1.8440194e-38
-0.012950182 -0.12964968 -0.0070395153 1.9453267e-38
-0.011079116 -0.12889244 -0.0040087383 2.2956701e-38
-0.0091416258 -0.12889244 -0.0040087383 2.3509873e-38
-0.007204134 -0.12889244 -0.0040087383 2.3233288e-38
-0.0052666441 -0.12889244 -0.0040087383 2.350988e-38
-0.0033291541 -0.12889244 -0.0040087383 2.3509883e-38
-0.0013916604 -0.12889244 -0.0040087383 2.3509883e-38
0.00054582953 -0.12889244 -0.0040087383 2.3509883e-38
0.0024833195 -0.12889244 -0.0040087383 2.3509883e-38
0.0044208094 -0.12889244 -0.0040087383 2.3509883e-38
0.0063582994 -0.12889244 -0.0040087383 2.3509883e-38
0.0084206685 -0.12964968 -0.0070395153 2.350952e-38
0.010363474 -0.12964968 -0.0070395153 2.2956349e-38
0.01230628 -0.12964968 -0.0070395153 2.350988e-38
0.014249083 -0.12964968 -0.0070395153 2.350988e-38
0.016191889 -0.12964968 -0.0070395153 2.350988e-38
0.018134695 -0.12964968 -0.0070395153 2.350988e-38
0.020077497 -0.12964968 -0.0070395153 2.350988e-38
0.022020303 -0.12964968 -0.0070395153 2.3509521e-38
0.023963109 -0.12964968 -0.0070395153 2.3047463e-38
0.025905911 -0.12964968 -0.0070395153 2.3508807e-38
0.027848717 -0.12964968 -0.0070395153 2.31375e-38
0.029791523 -0.12964968 -0.0070395153 1.9265283e-38
0.031734329 -0.12964968 -0.0070395153 1.6869268e-38
-0.047891442 -0.13082992 -0.0040087383 2.303807e-38
-0.045891445 -0.12883668 0.0039134342 2.3505535e-38
-0.043948881 -0.12805928 0.0070032198 2.3509146e-38
-0.0420307 -0.12805928 0.0070032198 2.3509873e-38
-0.040112518 -0.12805928 0.0070032198 2.2312782e-38
-0.038190812 -0.12704925 0.011017593 2.3142544e-38
-0.036279671 -0.12704925 0.011017593 2.341805e-38
-0.034368522 -0.12704925 0.011017593 2.3509527e-38
-0.032457381 -0.12704925 0.011017593 2.341769e-38
-0.030546235 -0.12704925 0.011017593 2.3233299e-38
-0.02863509 -0.12704925 0.011017593 2.3141822e-38
-0.026723947 -0.12704925 0.011017593 2.332621e-38
-0.024767051 -0.12805928 0.0070032198 2.3418047e-38
-0.022808237 -0.12883668 0.0039134342 2.3418045e-38
-0.020884637 -0.12883668 0.0039134342 2.3418045e-38
-0.018895296 -0.12982969 -3.3346936e-05 2.3326206e-38
-0.016964775 -0.12982969 -3.3346936e-05 2.3509876e-38
-0.014954098 -0.13082992 -0.0040087383 1.9638374e-38
-0.013016606 -0.13082992 -0.0040087383 1.9176674e-38
-0.011079116 -0.13082992 -0.0040087383 2.1480843e-38
-0.0091416258 -0.13082992 -0.0040087383 2.3509869e-38
-0.007204134 -0.13082992 -0.0040087383 2.350987e-38
-0.0052666441 -0.13082992 -0.0040087383 2.3509879e-38
-0.0033291541 -0.13082992 -0.0040087383 2.3509883e-38
-0.0013916604 -0.13082992 -0.0040087383 2.3417687e-38
0.00054582953 -0.13082992 -0.0040087383 2.3417687e-38
0.0024833195 -0.13082992 -0.0040087383 2.3417687e-38
0.0044208094 -0.13082992 -0.0040087383 2.3509883e-38
0.0063582994 -0.13082992 -0.0040087383 2.350988e-38
0.0082957931 -0.13082992 -0.0040087383 2.350988e-38
0.010233283 -0.13082992 -0.0040087383 2.3232933e-38
0.012170773 -0.13082992 -0.0040087383 2.350988e-38
0.014108263 -0.13082992 -0.0040087383 2.304854e-38
0.016191889 -0.13159247 -0.0070395153 2.304854e-38
0.018134695 -0.13159247 -0.0070395153 2.3509518e-38
0.020077497 -0.13159247 -0.0070395153 2.3509879e-38
0.022020303 -0.13159247 -0.0070395153 2.3509879e-38
0.023963109 -0.13159247 -0.0070395153 2.2217341e-38
0.025905911 -0.13159247 -0.0070395153 2.3509517e-38
0.027848717 -0.13159247 -0.0070395153 2.3508795e-38
0.029791523 -0.13159247 -0.0070395153 2.3509151e-38
0.031734329 -0.13159247 -0.0070395153 1.6683071e-38
-0.047891442 -0.13276742 -0.0040087383 2.0544466e-38
-0.045867067 -0.12997745 0.0070032198 2.3506616e-38
-0.043948881 -0.12997745 0.0070032198 2.3508787e-38
-0.0420307 -0.12997745 0.0070032198 2.3508795e-38
-0.04010196 -0.12896039 0.011017593 2.2958873e-38
-0.038190812 -0.12896039 0.011017593 2.2499695e-38
-0.036279671 -0.12896039 0.011017593 2.3142544e-38
-0.034368522 -0.12896039 0.011017593 2.3234376e-38
-0.032457381 -0.12896039 0.011017593 2.3418047e-38
-0.030546235 -0.12896039 0.011017593 2.341805e-38
-0.02863509 -0.12896039 0.011017593 2.341805e-38
-0.026723947 -0.12896039 0.011017593 2.341805e-38
-0.024812803 -0.12896039 0.011017593 2.341805e-38
-0.022901658 -0.12896039 0.011017593 2.3509886e-38
-0.020930685 -0.12997745 0.0070032198 2.3509883e-38
-0.019012501 -0.12997745 0.0070032198 2.3140737e-38
-0.017094318 -0.12997745 0.0070032198 2.3509876e-38
-0.015034255 -0.13176022 -3.3346936e-05 2.157304e-38
-0.013103735 -0.13176022 -3.3346936e-05 2.1111698e-38
-0.011079116 -0.13276742 -0.0040087383 1.8622413e-38
-0.0091416258 -0.13276742 -0.0040087383 2.2863767e-38
-0.007204134 -0.13276742 -0.0040087383 2.3509863e-38
-0.0052666441 -0.13276742 -0.0040087383 2.3417679e-38
-0.0033291541 -0.13276742 -0.0040087383 2.3509883e-38
-0.0013916604 -0.13276742 -0.0040087383 2.3509883e-38
0.00054582953 -0.13276742 -0.0040087383 2.3509883e-38
0.0024833195 -0.13276742 -0.0040087383 2.3509883e-38
0.0044208094 -0.13276742 -0.0040087383 2.3509883e-38
0.0063582994 -0.13276742 -0.0040087383 2.3509883e-38
0.0082957931 -0.13276742 -0.0040087383 2.3509883e-38
0.010233283 -0.13276742 -0.0040087383 2.350988e-38
0.012170773 -0.13276742 -0.0040087383 2.3233652e-38
0.014108263 -0.13276742 -0.0040087383 2.350988e-38
0.016191889 -0.13353528 -0.0070395153 2.350988e-38
0.018134695 -0.13353528 -0.0070395153 2.2770876e-38
0.020077497 -0.13353528 -0.0070395153 2.3509521e-38
0.022020303 -0.13353528 -0.0070395153 2.3509521e-38
0.023963109 -0.13353528 -0.0070395153 2.1480492e-38
0.025905911 -0.13353528 -0.0070395153 2.3509869e-38
0.027848717 -0.13353528 -0.0070395153 2.2954529e-38
0.029791523 -0.13353528 -0.0070395153 2.3509142e-38
0.031734329 -0.13353528 -0.0070395153 1.7048602e-38
0.033677135 -0.13353528 -0.0070395153 1.5847898e-38
0.035619933 -0.13353528 -0.0070395153 1.9258418e-38
0.039585453 -0.14112701 -0.037004083 2.3507701e-38
0.041580793 -0.14112701 -0.037004083 2.3508067e-38
0.043576133 -0.14112701 -0.037004083 2.3509151e-38
0.04557148 -0.14112701 -0.037004083 2.3232209e-38
0.053552851 -0.14112701 -0.037004083 2.3509168e-38
0.055225238 -0.14012341 -0.033042878 2.3508451e-38
0.057213634 -0.14012341 -0.033042878 2.3507733e-38
-0.045867067 -0.13189565 0.0070032198 2.3506618e-38
-0.043948881 -0.13189565 0.0070032198 2.3508425e-38
-0.0420307 -0.13189565 0.0070032198 2.3509157e-38
-0.04010196 -0.13087155 0.011017593 2.2867037e-38
-0.038190812 -0.13087155 0.011017593 2.2591531e-38
-0.036279671 -0.13087155 0.011017593 2.295887e-38
-0.034368522 -0.13087155 0.011017593 2.3234374e-38
-0.032457381 -0.13087155 0.011017593 2.3234376e-38
-0.030546235 -0.13087155 0.011017593 2.3234376e-38
-0.02863509 -0.13087155 0.011017593 2.341805e-38
-0.026723947 -0.13087155 0.011017593 2.341805e-38
-0.024812803 -0.13087155 0.011017593 2.3509886e-38
-0.022901658 -0.13087155 0.011017593 2.3509886e-38
-0.020990511 -0.13087155 0.011017593 2.3509527e-38
-0.019012501 -0.13189565 0.0070032198 2.3508441e-38
-0.017094318 -0.13189565 0.0070032198 2.3509517e-38
-0.015176136 -0.13189565 0.0070032198 2.350843e-38
-0.013190234 -0.13268389 0.0039134342 2.3323314e-38
-0.011266634 -0.13268389 0.0039134342 1.9082668e-38
-0.009242693 -0.13369073 -3.3346936e-05 2.1571949e-38
-0.007312173 -0.13369073 -3.3346936e-05 2.3047803e-38
-0.0053816512 -0.13369073 -3.3346936e-05 2.3509876e-38
-0.0033291541 -0.1347049 -0.0040087383 2.3509883e-38
-0.0013916604 -0.1347049 -0.0040087383 2.3509523e-38
0.00054582953 -0.1347049 -0.0040087383 2.3417327e-38
0.0024833195 -0.1347049 -0.0040087383 2.3509523e-38
0.0044208094 -0.1347049 -0.0040087383 2.3417687e-38
0.0063582994 -0.1347049 -0.0040087383 2.3417687e-38
0.0082957931 -0.1347049 -0.0040087383 2.3325492e-38
0.010233283 -0.1347049 -0.0040087383 2.350988e-38
0.012170773 -0.1347049 -0.0040087383 2.3141456e-38
0.014108263 -0.1347049 -0.0040087383 2.350988e-38
0.016045757 -0.1347049 -0.0040087383 2.350988e-38
0.018134695 -0.13547809 -0.0070395153 2.3140737e-38
0.019920737 -0.1347049 -0.0040087383 2.350988e-38
0.021858227 -0.1347049 -0.0040087383 2.3416245e-38
0.023795716 -0.1347049 -0.0040087383 1.9822049e-38
0.025905911 -0.13547809 -0.0070395153 2.2219485e-38
0.0276707 -0.1347049 -0.0040087383 2.3509859e-38
0.029608194 -0.1347049 -0.0040087383 2.3508777e-38
0.03154568 -0.1347049 -0.0040087383 1.7230468e-38
0.033483174 -0.1347049 -0.0040087383 1.6674411e-38
0.037792999 -0.14390959 -0.040089935 1.8516525e-38
0.039585453 -0.14312236 -0.037004083 2.2113237e-38
0.041580793 -0.14312236 -0.037004083 2.3038438e-38
0.043576133 -0.14312236 -0.037004083 2.3508783e-38
0.04557148 -0.14312236 -0.037004083 2.350951e-38
0.047566816 -0.14312236 -0.037004083 2.3509876e-38
0.049562156 -0.14312236 -0.037004083 2.3418047e-38
0.051248431 -0.14211179 -0.033042878 2.3325497e-38
0.053236842 -0.14211179 -0.033042878 2.3509168e-38
0.055225238 -0.14211179 -0.033042878 2.3508092e-38
0.057213634 -0.14211179 -0.033042878 2.3506298e-38
0.059538871 -0.14312236 -0.037004083 2.3417691e-38
0.061802045 -0.14390959 -0.040089935 2.2958873e-38
0.063802794 -0.14390959 -0.040089935 2.2958873e-38
0.065803543 -0.14390959 -0.040089935 2.139299e-38
0.067804292 -0.14390959 -0.040089935 1.1989036e-38
-0.047785249 -0.13381381 0.0070032198 1.971146e-38
-0.045867067 -0.13381381 0.0070032198 2.3503374e-38
-0.043948881 -0.13381381 0.0070032198 2.3508065e-38
-0.042013101 -0.13278268 0.011017593 2.3509514e-38
-0.04010196 -0.13278268 0.011017593 2.3142544e-38
-0.038190812 -0.13278268 0.011017593 2.2867037e-38
-0.036279671 -0.13278268 0.011017593 2.3142541e-38
-0.034368522 -0.13278268 0.011017593 2.3418045e-38
-0.032457381 -0.13278268 0.011017593 2.3418047e-38
-0.030564234 -0.13202934 0.013950499 2.3418047e-38
-0.02865823 -0.13202934 0.013950499 2.3509886e-38
-0.02675223 -0.13202934 0.013950499 2.3509886e-38
-0.024846226 -0.13202934 0.013950499 2.3509527e-38
-0.022901658 -0.13278268 0.011017593 2.3509886e-38
-0.020990511 -0.13278268 0.011017593 2.3509527e-38
-0.019079367 -0.13278268 0.011017593 2.3325131e-38
-0.017168222 -0.13278268 0.011017593 2.3509879e-38
-0.015257079 -0.13278268 0.011017593 2.3509873e-38
-0.013257952 -0.13381381 0.0070032198 2.3509869e-38
-0.011266634 -0.13460748 0.0039134342 1.8345826e-38
-0.0093430337 -0.13460748 0.0039134342 1.8991193e-38
-0.0074194316 -0.13460748 0.0039134342 2.1296089e-38
-0.0054958314 -0.13460748 0.0039134342 2.350952e-38
-0.0034511313 -0.13562126 -3.3346936e-05 2.3509524e-38
-0.0015206113 -0.13562126 -3.3346936e-05 2.3508804e-38
0.00040990859 -0.13562126 -3.3346936e-05 2.3508804e-38
0.0023404323 -0.13562126 -3.3346936e-05 2.3509524e-38
0.0042709522 -0.13562126 -3.3346936e-05 2.3509883e-38
0.0062014721 -0.13562126 -3.3346936e-05 2.3509883e-38
0.0082957931 -0.13664238 -0.0040087383 2.3509523e-38
0.010233283 -0.13664238 -0.0040087383 2.3509883e-38
0.012170773 -0.13664238 -0.0040087383 2.3325492e-38
0.014108263 -0.13664238 -0.0040087383 2.3509883e-38
0.016045757 -0.13664238 -0.0040087383 2.3509883e-38
0.017983247 -0.13664238 -0.0040087383 2.3325492e-38
0.019920737 -0.13664238 -0.0040087383 2.3509883e-38
0.021858227 -0.13664238 -0.0040087383 2.2956349e-38
0.023795716 -0.13664238 -0.0040087383 1.9729498e-38
0.025733206 -0.13664238 -0.0040087383 1.8068886e-38
0.0276707 -0.13664238 -0.0040087383 2.3505902e-38
0.029367719 -0.13562126 -3.3346936e-05 2.3506259e-38
0.031298239 -0.13562126 -3.3346936e-05 1.7321225e-38
0.033228759 -0.13562126 -3.3346936e-05 1.7685325e-38
0.037792999 -0.14591034 -0.040089935 1.8330332e-38
0.039793756 -0.14591034 -0.040089935 1.906826e-38
0.041580793 -0.14511769 -0.037004083 2.2666773e-38
0.043576133 -0.14511769 -0.037004083 2.3223911e-38
0.04557148 -0.14511769 -0.037004083 2.3507707e-38
0.047271639 -0.1441002 -0.033042878 2.3509873e-38
0.049260035 -0.1441002 -0.033042878 2.3418045e-38
0.051248431 -0.1441002 -0.033042878 2.3326213e-38
0.053236842 -0.1441002 -0.033042878 2.341805e-38
0.055225238 -0.1441002 -0.033042878 2.3509168e-38
0.057213634 -0.1441002 -0.033042878 2.3509168e-38
0.059538871 -0.14511769 -0.037004083 2.2957796e-38
0.061802045 -0.14591034 -0.040089935 2.3050708e-38
0.063802794 -0.14591034 -0.040089935 2.3142544e-38
0.065803543 -0.14591034 -0.040089935 2.2958873e-38
0.068173483 -0.14694051 -0.044100612 1.9271771e-38
-0.049703434 -0.13573201 0.0070032198 1.8509313e-38
-0.047785249 -0.13573201 0.0070032198 1.8880618e-38
-0.045867067 -0.13573201 0.0070032198 2.3126307e-38
-0.04392425 -0.13469382 0.011017593 2.350158e-38
-0.042013101 -0.13469382 0.011017593 2.350915e-38
-0.04010196 -0.13469382 0.011017593 2.3418047e-38
-0.038190812 -0.13469382 0.011017593 2.2958873e-38
-0.036279671 -0.13469382 0.011017593 2.3234376e-38
-0.034368522 -0.13469382 0.011017593 2.3418045e-38
-0.032470234 -0.13393532 0.013950499 2.3509883e-38
-0.030564234 -0.13393532 0.013950499 2.3509883e-38
-0.02865823 -0.13393532 0.013950499 2.3509886e-38
-0.02675223 -0.13393532 0.013950499 2.3509886e-38
-0.024846226 -0.13393532 0.013950499 2.3509527e-38
-0.022940224 -0.13393532 0.013950499 2.3509527e-38
-0.021034222 -0.13393532 0.013950499 2.3509527e-38
-0.01912822 -0.13393532 0.013950499 2.3509527e-38
-0.017222218 -0.13393532 0.013950499 2.3416245e-38
-0.015257079 -0.13469382 0.011017593 2.3416603e-38
-0.013257952 -0.13573201 0.0070032198 2.3509513e-38
-0.011266634 -0.13653107 0.0039134342 1.8530583e-38
-0.0093430337 -0.13653107 0.0039134342 1.853022e-38
-0.0074194316 -0.13653107 0.0039134342 2.0926951e-38
-0.0054958314 -0.13653107 0.0039134342 2.350952e-38
-0.0034511313 -0.1375518 -3.3346936e-05 2.3509165e-38
-0.0015206113 -0.1375518 -3.3346936e-05 2.3509524e-38
0.00040990859 -0.1375518 -3.3346936e-05 2.3509524e-38
0.0021985695 -0.13653107 0.0039134342 2.3509524e-38
0.0041221716 -0.13653107 0.0039134342 2.3509524e-38
0.0060457699 -0.13653107 0.0039134342 2.3509883e-38
0.0081319921 -0.1375518 -3.3346936e-05 2.3509883e-38
0.010062512 -0.1375518 -3.3346936e-05 2.3509883e-38
0.012170773 -0.13857989 -0.0040087383 2.3509883e-38
0.014108263 -0.13857989 -0.0040087383 2.3509886e-38
0.016045757 -0.13857989 -0.0040087383 2.332621e-38
0.017983247 -0.13857989 -0.0040087383 2.3049626e-38
0.019920737 -0.13857989 -0.0040087383 2.3418047e-38
0.021858227 -0.13857989 -0.0040087383 2.341805e-38
0.023576159 -0.1375518 -3.3346936e-05 2.1757803e-38
0.025506679 -0.1375518 -3.3346936e-05 1.677707e-38
0.027437199 -0.1375518 -3.3346936e-05 2.276654e-38
0.029367719 -0.1375518 -3.3346936e-05 2.3501223e-38
0.031298239 -0.1375518 -3.3346936e-05 1.851761e-38
0.033228759 -0.1375518 -3.3346936e-05 1.7683165e-38
0.037792999 -0.14791109 -0.040089935 1.7774276e-38
0.039793756 -0.14791109 -0.040089935 1.685304e-38
0.041580793 -0.14711304 -0.037004083 2.1004365e-38
0.043576133 -0.14711304 -0.037004083 2.1561866e-38
0.04557148 -0.14711304 -0.037004083 2.350446e-38
0.047271639 -0.14608859 -0.033042878 2.350951e-38
0.049260035 -0.14608859 -0.033042878 2.3418039e-38
0.051248431 -0.14608859 -0.033042878 2.3234376e-38
0.053236842 -0.14608859 -0.033042878 2.3142544e-38
0.055225238 -0.14608859 -0.033042878 2.3050708e-38
0.057213634 -0.14608859 -0.033042878 2.3234379e-38
0.05920203 -0.14608859 -0.033042878 2.3234379e-38
0.061534211 -0.14711304 -0.037004083 2.2958514e-38
0.063529566 -0.14711304 -0.037004083 2.3050349e-38
0.065524906 -0.14711304 -0.037004083 2.3142544e-38
0.067804292 -0.14791109 -0.040089935 2.2866677e-38
0.069805056 -0.14791109 -0.040089935 6.0881486e-39
-0.049703434 -0.13765021 0.0070032198 1.8877372e-38
-0.047785249 -0.13765021 0.0070032198 1.8419277e-38
-0.045867067 -0.13765021 0.0070032198 1.9991291e-38
-0.04392425 -0.13660498 0.011017593 2.0734266e-38
-0.042013101 -0.13660498 0.011017593 2.3507345e-38
-0.04010196 -0.13660498 0.011017593 2.3509879e-38
-0.038190812 -0.13660498 0.011017593 2.2958507e-38
-0.036279671 -0.13660498 0.011017593 2.350988e-38
-0.034368522 -0.13660498 0.011017593 2.350988e-38
-0.032470234 -0.13584132 0.013950499 2.3509883e-38
-0.030564234 -0.13584132 0.013950499 2.3509883e-38
-0.028682167 -0.13505147 0.016984137 2.3509527e-38
-0.026781484 -0.13505147 0.016984137 2.3509527e-38
-0.0248808 -0.13505147 0.016984137 2.3509527e-38
-0.022980116 -0.13505147 0.016984137 2.3509527e-38
-0.021079434 -0.13505147 0.016984137 2.332478e-38
-0.01917875 -0.13505147 0.016984137 2.3509527e-38
-0.017222218 -0.13584132 0.013950499 2.3416971e-38
-0.015316216 -0.13584132 0.013950499 2.3140737e-38
-0.013345934 -0.13660498 0.011017593 2.3509879e-38
-0.011339769 -0.13765021 0.0070032198 2.0559611e-38
-0.0094215851 -0.13765021 0.0070032198 2.0651084e-38
-0.0075034034 -0.13765021 0.0070032198 2.2310249e-38
-0.0055852197 -0.13765021 0.0070032198 2.3415885e-38
-0.003572233 -0.13845469 0.0039134342 2.3508808e-38
-0.0016486309 -0.13845469 0.0039134342 2.3509527e-38
0.00027497113 -0.13845469 0.0039134342 2.3509527e-38
0.0020875148 -0.13765021 0.0070032198 2.3509167e-38
0.0040056966 -0.13765021 0.0070032198 2.3508807e-38
0.0059238784 -0.13765021 0.0070032198 2.3416971e-38
0.007969372 -0.13845469 0.0039134342 2.3509527e-38
0.010062512 -0.1394823 -3.3346936e-05 2.3509886e-38
0.011993032 -0.1394823 -3.3346936e-05 2.3509886e-38
0.013923556 -0.1394823 -3.3346936e-05 2.341805e-38
0.015854076 -0.1394823 -3.3346936e-05 2.3050347e-38
0.017784595 -0.1394823 -3.3346936e-05 2.2865958e-38
0.019715115 -0.1394823 -3.3346936e-05 2.3234379e-38
0.021645635 -0.1394823 -3.3346936e-05 2.3142544e-38
0.023576159 -0.1394823 -3.3346936e-05 2.3325492e-38
0.025506679 -0.1394823 -3.3346936e-05 1.6499767e-38
0.027437199 -0.1394823 -3.3346936e-05 1.9538258e-38
0.02912898 -0.13845469 0.0039134342 2.1654431e-38
0.030860264 -0.13765021 0.0070032198 1.9252298e-38
0.032778446 -0.13765021 0.0070032198 1.7312223e-38
0.034696627 -0.13765021 0.0070032198 1.804798e-38
0.039585453 -0.14910837 -0.037004083 1.7771393e-38
0.041580793 -0.14910837 -0.037004083 2.0631619e-38
0.043576133 -0.14910837 -0.037004083 2.0821053e-38
0.04557148 -0.14910837 -0.037004083 2.3500133e-38
0.047271639 -0.148077 -0.033042878 2.3509143e-38
0.049260035 -0.148077 -0.033042878 2.350987e-38
0.051248431 -0.148077 -0.033042878 2.3234372e-38
0.053236842 -0.148077 -0.033042878 2.2867034e-38
0.055225238 -0.148077 -0.033042878 2.2499694e-38
0.057213634 -0.148077 -0.033042878 2.2867037e-38
0.05920203 -0.148077 -0.033042878 2.3142544e-38
0.061534211 -0.14910837 -0.037004083 2.3142544e-38
0.063529566 -0.14910837 -0.037004083 2.341805e-38
0.065524906 -0.14910837 -0.037004083 2.3050347e-38
0.067804292 -0.14991184 -0.040089935 2.3234379e-38
0.067741334 -0.14418359 -0.018089501 7.1934171e-39
0.069313928 -0.14312203 -0.014012424 3.8736556e-39
0.071268961 -0.14312203 -0.014012424 7.3774455e-39
0.073223993 -0.14312203 -0.014012424 6.9164673e-39
-0.047785249 -0.13956837 0.0070032198 1.8510753e-38
-0.045867067 -0.13956837 0.0070032198 1.7961545e-38
-0.04392425 -0.13851611 0.011017593 1.8520129e-38
-0.042013101 -0.13851611 0.011017593 2.3505184e-38
-0.04010196 -0.13851611 0.011017593 2.3509873e-38
-0.038190812 -0.13851611 0.011017593 2.3049259e-38
-0.036279671 -0.13851611 0.011017593 2.350988e-38
-0.034368522 -0.13851611 0.011017593 2.350988e-38
-0.032483533 -0.13695215 0.016984137 2.3509883e-38
-0.030582849 -0.13695215 0.016984137 2.3509883e-38
-0.028682167 -0.13695215 0.016984137 2.3509527e-38
-0.026781484 -0.13695215 0.016984137 2.3509527e-38
-0.0248808 -0.13695215 0.016984137 2.3509527e-38
-0.022980116 -0.13695215 0.016984137 2.3509527e-38
-0.021079434 -0.13695215 0.016984137 2.2679412e-38
-0.01917875 -0.13695215 0.016984137 2.3509527e-38
-0.017222218 -0.13774733 0.013950499 2.3509168e-38
-0.015316216 -0.13774733 0.013950499 2.3509527e-38
-0.013345934 -0.13851611 0.011017593 2.350988e-38
-0.011339769 -0.13956837 0.0070032198 2.2864149e-38
-0.0094215851 -0.13956837 0.0070032198 2.2956701e-38
-0.0075034034 -0.13956837 0.0070032198 2.3417323e-38
-0.0055852197 -0.13956837 0.0070032198 2.3509524e-38
-0.0036670379 -0.13956837 0.0070032198 2.3509527e-38
-0.0017488524 -0.13956837 0.0070032198 2.3509527e-38
0.00016932935 -0.13956837 0.0070032198 2.3509527e-38
0.0020875148 -0.13956837 0.0070032198 2.3509527e-38
0.0040056966 -0.13956837 0.0070032198 2.3509167e-38
0.0059238784 -0.13956837 0.0070032198 2.3509167e-38
0.0078420639 -0.13956837 0.0070032198 2.3509886e-38
0.009892974 -0.14037828 0.0039134342 2.3141106e-38
0.011816572 -0.14037828 0.0039134342 2.341805e-38
0.013740174 -0.14037828 0.0039134342 2.3234379e-38
0.015663773 -0.14037828 0.0039134342 2.3234379e-38
0.017587375 -0.14037828 0.0039134342 2.3142544e-38
0.019510977 -0.14037828 0.0039134342 2.2867037e-38
0.021434575 -0.14037828 0.0039134342 2.2867037e-38
0.023358177 -0.14037828 0.0039134342 2.3418047e-38
0.025506679 -0.14141284 -3.3346936e-05 1.7237335e-38
0.027205374 -0.14037828 0.0039134342 1.5758237e-38
0.02912898 -0.14037828 0.0039134342 1.851834e-38
0.030860264 -0.13956837 0.0070032198 1.8606566e-38
0.032778446 -0.13956837 0.0070032198 1.7218585e-38
0.034696627 -0.13956837 0.0070032198 1.8599352e-38
0.050931647 -0.14900111 -0.028982608 2.3418038e-38
0.052912921 -0.14900111 -0.028982608 2.2775195e-38
0.054894194 -0.14900111 -0.028982608 2.2224184e-38
0.056875482 -0.14900111 -0.028982608 2.2591531e-38
0.067741334 -0.14614578 -0.018089501 7.2852498e-39
0.069313928 -0.14507706 -0.014012424 3.8740115e-39
0.071268961 -0.14507706 -0.014012424 7.4696411e-39
0.073223993 -0.14507706 -0.014012424 7.0075839e-39
0.075179011 -0.14507706 -0.014012424 6.6380825e-39
-0.047785249 -0.14148657 0.0070032198 1.9247597e-38
-0.045867067 -0.14148657 0.0070032198 1.7500204e-38
-0.04392425 -0.14042725 0.011017593 1.7781121e-38
-0.042013101 -0.14042725 0.011017593 2.350446e-38
-0.04010196 -0.14042725 0.011017593 2.350951e-38
-0.038190812 -0.14042725 0.011017593 2.3508795e-38
-0.036279671 -0.14042725 0.011017593 2.3509879e-38
-0.034368522 -0.14042725 0.011017593 2.3509521e-38
-0.032483533 -0.13885282 0.016984137 2.3509524e-38
-0.030582849 -0.13885282 0.016984137 2.3509524e-38
-0.028682167 -0.13885282 0.016984137 2.3509527e-38
-0.026781484 -0.13885282 0.016984137 2.3509527e-38
-0.0248808 -0.13885282 0.016984137 2.3509527e-38
-0.022980116 -0.13885282 0.016984137 2.3509527e-38
-0.021079434 -0.13885282 0.016984137 2.2955641e-38
-0.01917875 -0.13885282 0.016984137 2.3509527e-38
-0.017278068 -0.13885282 0.016984137 2.3232944e-38
-0.015377384 -0.13885282 0.016984137 2.3509886e-38
-0.013345934 -0.14042725 0.011017593 2.3509886e-38
-0.011339769 -0.14148657 0.0070032198 2.3417687e-38
-0.0094215851 -0.14148657 0.0070032198 2.350988e-38
-0.0075034034 -0.14148657 0.0070032198 2.350988e-38
-0.0055852197 -0.14148657 0.0070032198 2.3509883e-38
-0.0036670379 -0.14148657 0.0070032198 2.3325131e-38
-0.0017488524 -0.14148657 0.0070032198 2.3048189e-38
0.00016932935 -0.14148657 0.0070032198 2.3048907e-38
0.0019432232 -0.14042725 0.011017593 2.3509167e-38
0.0038543679 -0.14042725 0.011017593 2.3509886e-38
0.0057655126 -0.14042725 0.011017593 2.3509886e-38
0.0078420639 -0.14148657 0.0070032198 2.3509886e-38
0.0097602457 -0.14148657 0.0070032198 2.3325494e-38
0.011678427 -0.14148657 0.0070032198 2.341805e-38
0.013740174 -0.14230187 0.0039134342 2.3234379e-38
0.015663773 -0.14230187 0.0039134342 2.3234379e-38
0.017587375 -0.14230187 0.0039134342 2.3142544e-38
0.019510977 -0.14230187 0.0039134342 2.2867037e-38
0.021434575 -0.14230187 0.0039134342 2.2591169e-38
0.023358177 -0.14230187 0.0039134342 2.3142539e-38
0.025506679 -0.14334334 -3.3346936e-05 2.0648573e-38
0.027205374 -0.14230187 0.0039134342 1.5297259e-38
0.02912898 -0.14230187 0.0039134342 1.6766623e-38
0.031052578 -0.14230187 0.0039134342 1.7591695e-38
0.032976177 -0.14230187 0.0039134342 1.7402611e-38
0.068396777 -0.14995177 -0.025076954 5.3480598e-39
0.069032356 -0.14625455 -0.011065809 4.794886e-39
0.070982218 -0.14625455 -0.011065809 7.0075811e-39
0.072932079 -0.14625455 -0.011065809 7.1912563e-39
-0.045867067 -0.14340474 0.0070032198 1.8051936e-38
-0.04392425 -0.14233841 0.011017593 1.7965149e-38
-0.042013101 -0.14233841 0.011017593 2.3503735e-38
-0.04010196 -0.14233841 0.011017593 2.3509146e-38
-0.038190812 -0.14233841 0.011017593 2.350951e-38
-0.036279671 -0.14233841 0.011017593 2.350952e-38
-0.034368522 -0.14233841 0.011017593 2.3509521e-38
-0.032470234 -0.14155935 0.013950499 2.3509524e-38
-0.030582849 -0.14075352 0.016984137 2.3509524e-38
-0.028682167 -0.14075352 0.016984137 2.3509527e-38
-0.026781484 -0.14075352 0.016984137 2.3509527e-38
-0.0248808 -0.14075352 0.016984137 2.3509527e-38
-0.022980116 -0.14075352 0.016984137 2.3509527e-38
-0.021138176 -0.13970654 0.020925673 2.3509168e-38
-0.019244403 -0.13970654 0.020925673 2.3509168e-38
-0.017278068 -0.14075352 0.016984137 2.3048554e-38
-0.015377384 -0.14075352 0.016984137 2.3509527e-38
-0.013410212 -0.14155935 0.013950499 2.3417691e-38
-0.011504211 -0.14155935 0.013950499 2.3048907e-38
-0.009523645 -0.14233841 0.011017593 2.3509886e-38
-0.0075034034 -0.14340474 0.0070032198 2.3509883e-38
-0.0055852197 -0.14340474 0.0070032198 2.2773037e-38
-0.0036670379 -0.14340474 0.0070032198 2.1943276e-38
-0.0017488524 -0.14340474 0.0070032198 2.1205711e-38
0.00016932935 -0.14340474 0.0070032198 2.166597e-38
0.0019432232 -0.14233841 0.011017593 2.2772321e-38
0.0038543679 -0.14233841 0.011017593 2.3509883e-38
0.0057655126 -0.14233841 0.011017593 2.3509527e-38
0.0076766573 -0.14233841 0.011017593 2.3417327e-38
0.0097602457 -0.14340474 0.0070032198 2.3509886e-38
0.011678427 -0.14340474 0.0070032198 2.3509883e-38
0.013596613 -0.14340474 0.0070032198 2.3233296e-38
0.015514795 -0.14340474 0.0070032198 2.3141819e-38
0.017432977 -0.14340474 0.0070032198 2.3234379e-38
0.019351162 -0.14340474 0.0070032198 2.3142544e-38
0.021269344 -0.14340474 0.0070032198 2.295887e-38
0.023187529 -0.14340474 0.0070032198 2.3509883e-38
0.025105711 -0.14340474 0.0070032198 2.1754202e-38
0.027023893 -0.14340474 0.0070032198 1.4743006e-38
0.028942075 -0.14340474 0.0070032198 1.5107099e-38
0.030860264 -0.14340474 0.0070032198 1.6485703e-38
0.069032356 -0.14820443 -0.011065809 5.9008734e-39
0.070982218 -0.14820443 -0.011065809 6.6387986e-39
0.072932079 -0.14820443 -0.011065809 7.3756476e-39
-0.045891445 -0.14614908 0.0039134342 1.9249756e-38
-0.043948881 -0.14532293 0.0070032198 1.7687119e-38
-0.042013101 -0.14424954 0.011017593 2.3504094e-38
-0.04010196 -0.14424954 0.011017593 2.3508784e-38
-0.038190812 -0.14424954 0.011017593 2.350951e-38
-0.036279671 -0.14424954 0.011017593 2.3509517e-38
-0.034384217 -0.1426542 0.016984137 2.3509521e-38
-0.032483533 -0.1426542 0.016984137 2.3509524e-38
-0.030582849 -0.1426542 0.016984137 2.3509524e-38
-0.028682167 -0.1426542 0.016984137 2.3509527e-38
-0.026781484 -0.1426542 0.016984137 2.3509527e-38
-0.0248808 -0.1426542 0.016984137 2.3509527e-38
-0.023031948 -0.1416003 0.020925673 2.3509527e-38
-0.021138176 -0.1416003 0.020925673 2.3509527e-38
-0.019244403 -0.1416003 0.020925673 2.3509527e-38
-0.017350631 -0.1416003 0.020925673 2.3509527e-38
-0.015456859 -0.1416003 0.020925673 2.3509527e-38
-0.0134767 -0.1426542 0.016984137 2.3509527e-38
-0.011504211 -0.14346536 0.013950499 2.3417691e-38
-0.009523645 -0.14424954 0.011017593 2.3417691e-38
-0.0076125003 -0.14424954 0.011017593 2.3326213e-38
-0.0057013556 -0.14424954 0.011017593 2.3234376e-38
-0.0037902109 -0.14424954 0.011017593 2.0746172e-38
-0.0017488524 -0.14532293 0.0070032198 2.1022399e-38
3.2078475e-05 -0.14424954 0.011017593 2.1666686e-38
0.0019432232 -0.14424954 0.011017593 2.166597e-38
0.0038543679 -0.14424954 0.011017593 2.350988e-38
0.0057655126 -0.14424954 0.011017593 2.3509524e-38
0.0076766573 -0.14424954 0.011017593 2.3139658e-38
0.0097602457 -0.14532293 0.0070032198 2.3509165e-38
0.011678427 -0.14532293 0.0070032198 2.3509521e-38
0.013596613 -0.14532293 0.0070032198 2.3509161e-38
0.015514795 -0.14532293 0.0070032198 2.3509521e-38
0.017432977 -0.14532293 0.0070032198 2.3509521e-38
0.019351162 -0.14532293 0.0070032198 2.350952e-38
0.021269344 -0.14532293 0.0070032198 2.350988e-38
0.023187529 -0.14532293 0.0070032198 2.350952e-38
0.025105711 -0.14532293 0.0070032198 2.2213735e-38
0.027023893 -0.14532293 0.0070032198 1.4466054e-38
0.028942075 -0.14532293 0.0070032198 1.418514e-38
0.030860264 -0.14532293 0.0070032198 1.7039593e-38
0.032778446 -0.14532293 0.0070032198 1.7864305e-38
-0.043948881 -0.1472411 0.0070032198 1.7594205e-38
-0.042000249 -0.14537133 0.013950499 2.1931366e-38
-0.040094245 -0.14537133 0.013950499 2.3506621e-38
-0.038188241 -0.14537133 0.013950499 2.3509149e-38
-0.036282241 -0.14537133 0.013950499 2.3509517e-38
-0.034384217 -0.14455487 0.016984137 2.3509521e-38
-0.032483533 -0.14455487 0.016984137 2.3509524e-38
-0.030582849 -0.14455487 0.016984137 2.3509527e-38
-0.028682167 -0.14455487 0.016984137 2.3509527e-38
-0.026781484 -0.14455487 0.016984137 2.3509527e-38
-0.0248808 -0.14455487 0.016984137 2.3509527e-38
-0.023031948 -0.14349405 0.020925673 2.3509527e-38
-0.021138176 -0.14349405 0.020925673 2.3509527e-38
-0.019244403 -0.14349405 0.020925673 2.3509527e-38
-0.017350631 -0.14349405 0.020925673 2.3509527e-38
-0.015456859 -0.14349405 0.020925673 2.3509527e-38
-0.0134767 -0.14455487 0.016984137 2.3509527e-38
-0.011576017 -0.14455487 0.016984137 2.3509527e-38
-0.0095982086 -0.14537133 0.013950499 2.3509886e-38
-0.0076922067 -0.14537133 0.013950499 2.341805e-38
-0.0057013556 -0.14616071 0.011017593 2.3142541e-38
-0.0037902109 -0.14616071 0.011017593 2.3142538e-38
-0.0018790662 -0.14616071 0.011017593 2.2866308e-38
3.2078475e-05 -0.14616071 0.011017593 2.2588643e-38
0.0019432232 -0.14616071 0.011017593 2.2956346e-38
0.0038543679 -0.14616071 0.011017593 2.2679038e-38
0.0057655126 -0.14616071 0.011017593 2.3046022e-38
0.0076766573 -0.14616071 0.011017593 2.3508802e-38
0.009587802 -0.14616071 0.011017593 2.3506283e-38
0.011498947 -0.14616071 0.011017593 2.3508441e-38
0.013596613 -0.1472411 0.0070032198 2.3508441e-38
0.015514795 -0.1472411 0.0070032198 2.3508078e-38
0.017432977 -0.1472411 0.0070032198 2.3508797e-38
0.019351162 -0.1472411 0.0070032198 2.3508797e-38
0.021269344 -0.1472411 0.0070032198 2.2583239e-38
0.023187529 -0.1472411 0.0070032198 1.9908844e-38
0.025105711 -0.1472411 0.0070032198 1.7969854e-38
0.027023893 -0.1472411 0.0070032198 1.3818881e-38
0.028942075 -0.1472411 0.0070032198 1.4737589e-38
0.030860264 -0.1472411 0.0070032198 1.6762286e-38
0.032778446 -0.1472411 0.0070032198 1.749588e-38
0.034696627 -0.1472411 0.0070032198 1.7862136e-38
-0.042000249 -0.14727734 0.013950499 1.8519765e-38
-0.040094245 -0.14727734 0.013950499 2.3502296e-38
-0.038188241 -0.14727734 0.013950499 2.3508068e-38
-0.036284901 -0.14645557 0.016984137 2.3509517e-38
-0.034384217 -0.14645557 0.016984137 2.3509883e-38
-0.032483533 -0.14645557 0.016984137 2.3509527e-38
-0.030582849 -0.14645557 0.016984137 2.3509527e-38
-0.028682167 -0.14645557 0.016984137 2.3509527e-38
-0.026781484 -0.14645557 0.016984137 2.3509527e-38
-0.0248808 -0.14645557 0.016984137 2.3509527e-38
-0.022980116 -0.14645557 0.016984137 2.3509527e-38
-0.021138176 -0.14538784 0.020925673 2.3509527e-38
-0.019244403 -0.14538784 0.020925673 2.3509527e-38
-0.017350631 -0.14538784 0.020925673 2.3509168e-38
-0.015456859 -0.14538784 0.020925673 2.3416974e-38
-0.0134767 -0.14645557 0.016984137 2.3416974e-38
-0.011576017 -0.14645557 0.016984137 2.3509168e-38
-0.0095982086 -0.14727734 0.013950499 2.3509527e-38
-0.0076922067 -0.14727734 0.013950499 2.3509886e-38
-0.0057013556 -0.14807184 0.011017593 2.2129462e-38
-0.0037902109 -0.14807184 0.011017593 2.3142537e-38
-0.0018790662 -0.14807184 0.011017593 2.3326206e-38
3.2078475e-05 -0.14807184 0.011017593 2.3509879e-38
0.0019432232 -0.14807184 0.011017593 2.350952e-38
0.0038543679 -0.14807184 0.011017593 2.35088e-38
0.0057655126 -0.14807184 0.011017593 2.3508438e-38
0.0076766573 -0.14807184 0.011017593 2.3503759e-38
0.009587802 -0.14807184 0.011017593 2.3502677e-38
0.011498947 -0.14807184 0.011017593 2.35052e-38
0.013410091 -0.14807184 0.011017593 2.3506999e-38
0.015321236 -0.14807184 0.011017593 2.3506636e-38
0.017232381 -0.14807184 0.011017593 2.3505917e-38
0.019143526 -0.14807184 0.011017593 2.3501596e-38
0.021269344 -0.1491593 0.0070032198 2.0825041e-38
0.023187529 -0.1491593 0.0070032198 1.7505275e-38
0.025105711 -0.1491593 0.0070032198 1.353942e-38
0.027023893 -0.1491593 0.0070032198 1.3723083e-38
0.028942075 -0.1491593 0.0070032198 1.5933609e-38
0.030860264 -0.1491593 0.0070032198 1.6669367e-38
0.032778446 -0.1491593 0.0070032198 1.6759035e-38
0.034696627 -0.1491593 0.0070032198 1.7310044e-38
-0.04198695 -0.14835624 0.016984137 1.8335374e-38
-0.040086266 -0.14835624 0.016984137 2.3503018e-38
-0.038185582 -0.14835624 0.016984137 2.3508787e-38
-0.036288355 -0.1472816 0.020925673 2.350952e-38
-0.034394585 -0.1472816 0.020925673 2.3509883e-38
-0.032500811 -0.1472816 0.020925673 2.3509527e-38
-0.030607037 -0.1472816 0.020925673 2.3509527e-38
-0.028682167 -0.14835624 0.016984137 2.3509527e-38
-0.026781484 -0.14835624 0.016984137 2.3509527e-38
-0.0248808 -0.14835624 0.016984137 2.3509527e-38
-0.022980116 -0.14835624 0.016984137 2.3509527e-38
-0.021079434 -0.14835624 0.016984137 2.3509527e-38
-0.01917875 -0.14835624 0.016984137 2.3509527e-38
-0.017278068 -0.14835624 0.016984137 2.3509527e-38
-0.015377384 -0.14835624 0.016984137 2.3509527e-38
-0.0134767 -0.14835624 0.016984137 2.3509527e-38
-0.011576017 -0.14835624 0.016984137 2.3509527e-38
-0.0095982086 -0.14918335 0.013950499 2.3509168e-38
-0.0076922067 -0.14918335 0.013950499 2.3509886e-38
-0.0057013556 -0.14998297 0.011017593 2.3234374e-38
-0.0037902109 -0.14998297 0.011017593 2.3234372e-38
-0.0018790662 -0.14998297 0.011017593 2.3509879e-38
3.2078475e-05 -0.14998297 0.011017593 2.3509517e-38
0.0019432232 -0.14998297 0.011017593 2.350484e-38
0.0038543679 -0.14998297 0.011017593 2.3506279e-38
0.0057655126 -0.14998297 0.011017593 2.3502679e-38
0.0076766573 -0.14998297 0.011017593 1.3356119e-38
0.009587802 -0.14998297 0.011017593 1.2708589e-38
0.011498947 -0.14998297 0.011017593 1.2891538e-38
0.013410091 -0.14998297 0.011017593 1.3627661e-38
0.015321236 -0.14998297 0.011017593 1.4088278e-38
0.017232381 -0.14998297 0.011017593 1.2889735e-38
0.019143526 -0.14998297 0.011017593 1.0584481e-38
-0.040075898 -0.14917539 0.020925673 2.1288159e-38
-0.038182128 -0.14917539 0.020925673 2.3506626e-38
-0.036288355 -0.14917539 0.020925673 2.3509879e-38
-0.034394585 -0.14917539 0.020925673 2.341805e-38
-0.032500811 -0.14917539 0.020925673 2.3509886e-38
-0.030607037 -0.14917539 0.020925673 2.3509886e-38
-0.028713265 -0.14917539 0.020925673 2.3509886e-38
