# .PCD v0.7 - Point Cloud Data file format
VERSION 0.7
FIELDS x y z rgb
SIZE 4 4 4 4
TYPE F F F F
COUNT 1 1 1 1
WIDTH 606
HEIGHT 1
VIEWPOINT 0 0 0 1 0 0 0
POINTS 606
DATA ascii
0.016759265 -0.12270601 -0.041409869 1.1435506e-38
0.018781036 -0.12270601 -0.041409869 5.2583991e-39
0.020802803 -0.12270601 -0.041409869 3.6041397e-42
-0.0074081467 -0.12566237 -0.045372862 2.3234376e-38
-0.00537943 -0.12566237 -0.045372862 2.3234379e-38
0.01271573 -0.1247278 -0.041409869 2.3142544e-38
0.014737497 -0.1247278 -0.041409869 2.2958873e-38
0.016759265 -0.1247278 -0.041409869 1.9272135e-38
0.018781036 -0.1247278 -0.041409869 1.0974528e-38
0.020802803 -0.1247278 -0.041409869 3.6917895e-39
-0.0095237186 -0.12674956 -0.041409869 2.3234372e-38
-0.0075019496 -0.12674956 -0.041409869 2.2958504e-38
-0.0054801824 -0.12674956 -0.041409869 2.2497173e-38
-0.0034584152 -0.12674956 -0.041409869 2.341805e-38
-0.0014366442 -0.12674956 -0.041409869 2.3509527e-38
0.00058512297 -0.12674956 -0.041409869 2.3509527e-38
0.0026068902 -0.12674956 -0.041409869 2.3509527e-38
0.0046286574 -0.12674956 -0.041409869 2.3509886e-38
0.0066504246 -0.12674956 -0.041409869 2.341805e-38
0.0086721955 -0.12674956 -0.041409869 2.3325856e-38
0.010693963 -0.12674956 -0.041409869 2.3142185e-38
0.01271573 -0.12674956 -0.041409869 2.3050708e-38
0.014737497 -0.12674956 -0.041409869 2.2958873e-38
0.016759265 -0.12674956 -0.041409869 2.2406783e-38
0.018781036 -0.12674956 -0.041409869 2.1946527e-38
0.020802803 -0.12674956 -0.041409869 1.4939659e-38
0.022824571 -0.12674956 -0.041409869 8.4870412e-39
0.024846338 -0.12674956 -0.041409869 1.296501e-39
-0.011545486 -0.12877132 -0.041409869 2.3234367e-38
-0.0095237186 -0.12877132 -0.041409869 2.3326206e-38
-0.0075019496 -0.12877132 -0.041409869 2.2865229e-38
-0.0054801824 -0.12877132 -0.041409869 2.341805e-38
-0.0034584152 -0.12877132 -0.041409869 2.341805e-38
-0.0014366442 -0.12877132 -0.041409869 2.323258e-38
0.00058512297 -0.12877132 -0.041409869 2.3509883e-38
0.0026068902 -0.12877132 -0.041409869 2.3509527e-38
0.0046286574 -0.12877132 -0.041409869 2.3509886e-38
0.0066504246 -0.12877132 -0.041409869 2.341805e-38
0.0086721955 -0.12877132 -0.041409869 2.341805e-38
0.010693963 -0.12877132 -0.041409869 2.3234379e-38
0.01271573 -0.12877132 -0.041409869 2.2958514e-38
0.014907735 -0.12971978 -0.045372862 2.2958873e-38
0.016759265 -0.12877132 -0.041409869 2.2775202e-38
0.018781036 -0.12877132 -0.041409869 2.2499695e-38
0.020802803 -0.12877132 -0.041409869 2.1946527e-38
0.022824571 -0.12877132 -0.041409869 1.56783e-38
0.024846338 -0.12877132 -0.041409869 9.1324106e-39
0.026650634 -0.12779804 -0.037343163 2.3106515e-39
0.028665271 -0.12779804 -0.037343163 1.3872561e-39
-0.011545486 -0.13079311 -0.041409869 2.3509873e-38
-0.0095237186 -0.13079311 -0.041409869 2.3509876e-38
-0.0075019496 -0.13079311 -0.041409869 2.3418042e-38
-0.0055835703 -0.12981267 -0.037343163 2.3509883e-38
-0.0035689333 -0.12981267 -0.037343163 2.3048905e-38
-0.0014366442 -0.13079311 -0.041409869 2.3509883e-38
0.00046034064 -0.12981267 -0.037343163 2.3509524e-38
0.0024749814 -0.12981267 -0.037343163 2.3509883e-38
0.0044896184 -0.12981267 -0.037343163 2.3416971e-38
0.0065042553 -0.12981267 -0.037343163 2.3325497e-38
0.0085188923 -0.12981267 -0.037343163 2.341805e-38
0.010693963 -0.13079311 -0.041409869 2.341805e-38
0.01271573 -0.13079311 -0.041409869 2.3234379e-38
0.014737497 -0.13079311 -0.041409869 2.3142544e-38
0.016759265 -0.13079311 -0.041409869 2.2867037e-38
0.018781036 -0.13079311 -0.041409869 2.2867037e-38
0.020802803 -0.13079311 -0.041409869 2.2775202e-38
0.022824571 -0.13079311 -0.041409869 2.1116764e-38
0.024635997 -0.12981267 -0.037343163 1.632367e-38
0.026650634 -0.12981267 -0.037343163 8.7636267e-39
0.028665271 -0.12981267 -0.037343163 2.2166594e-39
0.030679908 -0.12981267 -0.037343163 3.4130474e-39
-0.0095237186 -0.13281487 -0.041409869 2.3509876e-38
-0.0075019496 -0.13281487 -0.041409869 2.3140736e-38
-0.0055835703 -0.13182731 -0.037343163 2.350988e-38
-0.0035689333 -0.13182731 -0.037343163 2.3232933e-38
-0.0014366442 -0.13281487 -0.041409869 2.3509521e-38
0.00046034064 -0.13182731 -0.037343163 2.3509521e-38
0.0024749814 -0.13182731 -0.037343163 2.350988e-38
0.0044896184 -0.13182731 -0.037343163 2.3417327e-38
0.0065042553 -0.13182731 -0.037343163 2.3509886e-38
0.0085188923 -0.13182731 -0.037343163 2.341805e-38
0.010693963 -0.13281487 -0.041409869 2.3325856e-38
0.01271573 -0.13281487 -0.041409869 2.2681212e-38
0.014737497 -0.13281487 -0.041409869 2.2773408e-38
0.016759265 -0.13281487 -0.041409869 2.3050708e-38
0.018781036 -0.13281487 -0.041409869 2.2775202e-38
0.020802803 -0.13281487 -0.041409869 2.2867037e-38
0.022824571 -0.13281487 -0.041409869 2.2867037e-38
0.024635997 -0.13182731 -0.037343163 2.1946882e-38
0.026650634 -0.13182731 -0.037343163 1.6691731e-38
0.028665271 -0.13182731 -0.037343163 6.1807113e-39
0.030679908 -0.13182731 -0.037343163 4.6115906e-39
-0.020264637 -0.12307997 0.0066569857 2.3509527e-38
-0.016389657 -0.12307997 0.0066569857 2.3509876e-38
-0.014452164 -0.12307997 0.0066569857 2.314001e-38
-0.012514674 -0.12307997 0.0066569857 2.3509873e-38
-0.0095237186 -0.13483663 -0.041409869 2.3509873e-38
-0.0075019496 -0.13483663 -0.041409869 2.3139294e-38
-0.0054801824 -0.13483663 -0.041409869 2.350952e-38
-0.0034584152 -0.13483663 -0.041409869 2.350952e-38
-0.0014366442 -0.13483663 -0.041409869 2.3508798e-38
-0.0010117078 -0.12210761 0.010632377 2.3509879e-38
0.00091881212 -0.12210761 0.010632377 2.3509879e-38
0.0028493321 -0.12210761 0.010632377 2.350988e-38
0.0047798557 -0.12210761 0.010632377 2.3509883e-38
0.0067103757 -0.12210761 0.010632377 2.3509886e-38
0.010693963 -0.13483663 -0.041409869 2.2956715e-38
0.01271573 -0.13483663 -0.041409869 2.2035121e-38
0.014737497 -0.13483663 -0.041409869 2.2035121e-38
0.016759265 -0.13483663 -0.041409869 2.3142544e-38
0.018781036 -0.13483663 -0.041409869 2.2958514e-38
0.020802803 -0.13483663 -0.041409869 2.2589734e-38
0.022824571 -0.13483663 -0.041409869 2.2867037e-38
0.024635997 -0.13384195 -0.037343163 2.2775202e-38
0.026650634 -0.13384195 -0.037343163 2.1853248e-38
0.028665271 -0.13384195 -0.037343163 1.189612e-38
0.030679908 -0.13384195 -0.037343163 8.0228289e-39
0.032694545 -0.13384195 -0.037343163 6.8235668e-39
-0.020264637 -0.12501745 0.0066569857 2.3508446e-38
-0.018327147 -0.12501745 0.0066569857 2.3509879e-38
-0.016389657 -0.12501745 0.0066569857 2.3509517e-38
-0.014452164 -0.12501745 0.0066569857 2.3509514e-38
-0.012514674 -0.12501745 0.0066569857 2.3509511e-38
-0.010577182 -0.12501745 0.0066569857 2.3509153e-38
-0.0086396923 -0.12501745 0.0066569857 2.3507355e-38
-0.0067022024 -0.12501745 0.0066569857 2.3509158e-38
-0.0048727496 -0.12403814 0.010632377 2.3509157e-38
-0.0029422278 -0.12403814 0.010632377 2.3509876e-38
-0.0010117078 -0.12403814 0.010632377 2.3509876e-38
0.00091881212 -0.12403814 0.010632377 2.3509876e-38
0.0028493321 -0.12403814 0.010632377 2.3509879e-38
0.0047798557 -0.12403814 0.010632377 2.350988e-38
0.0067103757 -0.12403814 0.010632377 2.3509883e-38
0.0086408956 -0.12403814 0.010632377 2.2956712e-38
0.012879017 -0.13783465 -0.045372862 2.2311345e-38
0.014737497 -0.13685839 -0.041409869 2.1481585e-38
0.016759265 -0.13685839 -0.041409869 2.2772684e-38
0.018781036 -0.13685839 -0.041409869 2.341805e-38
0.020802803 -0.13685839 -0.041409869 2.3234379e-38
0.022824571 -0.13685839 -0.041409869 2.3234379e-38
0.024635997 -0.13585658 -0.037343163 2.2681567e-38
0.026650634 -0.13585658 -0.037343163 2.3142544e-38
0.028665271 -0.13585658 -0.037343163 1.7057996e-38
0.030679908 -0.13585658 -0.037343163 1.1526263e-38
0.032694545 -0.13585658 -0.037343163 7.5618507e-39
0.034709182 -0.13585658 -0.037343163 8.206853e-39
-0.026139615 -0.12498946 0.014579158 2.3509886e-38
-0.024216015 -0.12498946 0.014579158 2.3509527e-38
-0.022292413 -0.12498946 0.014579158 2.3509168e-38
-0.020316914 -0.12596865 0.010632377 2.3508448e-38
-0.018386394 -0.12596865 0.010632377 2.350952e-38
-0.016455874 -0.12596865 0.010632377 2.3508794e-38
-0.014525351 -0.12596865 0.010632377 2.3508432e-38
-0.012594831 -0.12596865 0.010632377 2.3508432e-38
-0.010664311 -0.12596865 0.010632377 2.3507352e-38
-0.0087337894 -0.12596865 0.010632377 2.3508434e-38
-0.0068032695 -0.12596865 0.010632377 2.3508797e-38
-0.0048727496 -0.12596865 0.010632377 2.3322243e-38
-0.0029422278 -0.12596865 0.010632377 2.3509873e-38
-0.0010117078 -0.12596865 0.010632377 2.3509873e-38
0.00091881212 -0.12596865 0.010632377 2.3509873e-38
0.0028493321 -0.12596865 0.010632377 2.3417679e-38
0.0047798557 -0.12596865 0.010632377 2.3325127e-38
0.0067103757 -0.12596865 0.010632377 2.350988e-38
0.0086408956 -0.12596865 0.010632377 2.3509883e-38
0.010860092 -0.12770687 0.0036262088 2.341769e-38
0.012802898 -0.12770687 0.0036262088 2.2495736e-38
0.016577445 -0.13787122 -0.037343163 2.2311345e-38
0.018592082 -0.13787122 -0.037343163 2.2680128e-38
0.020606719 -0.13787122 -0.037343163 2.341805e-38
0.022621356 -0.13787122 -0.037343163 2.3509886e-38
0.024635997 -0.13787122 -0.037343163 2.304927e-38
0.02644163 -0.1369016 -0.033434886 2.341805e-38
0.02844942 -0.1369016 -0.033434886 2.1206437e-38
0.030679908 -0.13787122 -0.037343163 1.5398479e-38
0.032694545 -0.13787122 -0.037343163 8.2072201e-39
0.036723819 -0.13787122 -0.037343163 9.2213552e-39
-0.028082177 -0.12614109 0.017668944 2.2957425e-38
-0.026139615 -0.12691309 0.014579158 2.341769e-38
-0.024216015 -0.12691309 0.014579158 2.3324778e-38
-0.022292413 -0.12691309 0.014579158 2.3416251e-38
-0.020368814 -0.12691309 0.014579158 2.3509165e-38
-0.018445212 -0.12691309 0.014579158 2.3509161e-38
-0.016521614 -0.12691309 0.014579158 2.3509156e-38
-0.014598011 -0.12691309 0.014579158 2.3508793e-38
-0.012594831 -0.12789918 0.010632377 2.3507352e-38
-0.010750811 -0.12691309 0.014579158 2.3508793e-38
-0.0088272104 -0.12691309 0.014579158 2.3508435e-38
-0.0068032695 -0.12789918 0.010632377 2.3508438e-38
-0.0048727496 -0.12789918 0.010632377 2.3508797e-38
-0.0029422278 -0.12789918 0.010632377 2.3139647e-38
-0.0010117078 -0.12789918 0.010632377 2.3417673e-38
0.00091881212 -0.12789918 0.010632377 2.3509873e-38
0.0028493321 -0.12789918 0.010632377 2.3509874e-38
0.0047798557 -0.12789918 0.010632377 2.3417323e-38
0.0067103757 -0.12789918 0.010632377 2.350988e-38
0.0086408956 -0.12789918 0.010632377 2.3509883e-38
0.010735217 -0.12889244 0.0066569857 2.3509883e-38
0.012802898 -0.12964968 0.0036262088 2.3509527e-38
0.014745704 -0.12964968 0.0036262088 2.1941841e-38
0.017386954 -0.13340546 -0.011405963 2.1296472e-38
0.020606719 -0.13988586 -0.037343163 2.3233299e-38
0.022621356 -0.13988586 -0.037343163 2.3416971e-38
0.024433848 -0.13890938 -0.033434886 2.3509886e-38
0.02644163 -0.13890938 -0.033434886 2.3509886e-38
0.02844942 -0.13890938 -0.033434886 2.341805e-38
0.030457202 -0.13890938 -0.033434886 2.0652911e-38
0.032464985 -0.13890938 -0.033434886 1.0143328e-38
0.034709182 -0.13988586 -0.037343163 8.8522224e-39
-0.029986817 -0.12883668 0.014579158 2.3509879e-38
-0.028082177 -0.12805928 0.017668944 2.3509879e-38
-0.026163993 -0.12805928 0.017668944 2.3507002e-38
-0.02424581 -0.12805928 0.017668944 2.3320448e-38
-0.022327628 -0.12805928 0.017668944 1.8340082e-38
-0.020409444 -0.12805928 0.017668944 1.70479e-38
-0.018491261 -0.12805928 0.017668944 1.7046455e-38
-0.016573079 -0.12805928 0.017668944 1.7138287e-38
-0.014654894 -0.12805928 0.017668944 1.7414511e-38
-0.012674411 -0.12883668 0.014579158 1.7229037e-38
-0.010750811 -0.12883668 0.014579158 1.76893e-38
-0.0088272104 -0.12883668 0.014579158 1.7873694e-38
-0.0069036102 -0.12883668 0.014579158 1.7597108e-38
-0.0049800081 -0.12883668 0.014579158 1.8520502e-38
-0.0030564079 -0.12883668 0.014579158 2.2856927e-38
-0.0010117078 -0.12982969 0.010632377 2.3413335e-38
0.00079079252 -0.12883668 0.014579158 2.35095e-38
0.0027143946 -0.12883668 0.014579158 2.3509863e-38
0.0046379929 -0.12883668 0.014579158 2.3509869e-38
0.006561595 -0.12883668 0.014579158 2.350987e-38
0.0086408956 -0.12982969 0.010632377 2.3509873e-38
0.010735217 -0.13082992 0.0066569857 2.3509879e-38
0.012802898 -0.13159247 0.0036262088 2.350988e-38
0.014745704 -0.13159247 0.0036262088 2.1482301e-38
0.017386954 -0.13537462 -0.011405963 2.092985e-38
0.020606719 -0.14190049 -0.037343163 2.3142544e-38
0.022621356 -0.14190049 -0.037343163 2.341805e-38
0.024433848 -0.14091717 -0.033434886 2.3509886e-38
0.02644163 -0.14091717 -0.033434886 2.2770876e-38
0.02844942 -0.14091717 -0.033434886 2.3509524e-38
0.030457202 -0.14091717 -0.033434886 2.3232944e-38
0.032694545 -0.14190049 -0.037343163 1.0695783e-38
0.034709182 -0.14190049 -0.037343163 8.4834427e-39
-0.028063215 -0.13076027 0.014579158 2.3506277e-38
-0.026163993 -0.12997745 0.017668944 2.350483e-38
-0.02424581 -0.12997745 0.017668944 2.1284206e-38
-0.022327628 -0.12997745 0.017668944 1.8238502e-38
-0.020409444 -0.12997745 0.017668944 1.7129629e-38
-0.018491261 -0.12997745 0.017668944 1.703455e-38
-0.016573079 -0.12997745 0.017668944 1.7494083e-38
-0.014654894 -0.12997745 0.017668944 1.7861787e-38
-0.012674411 -0.13076027 0.014579158 1.8137295e-38
-0.010818529 -0.12997745 0.017668944 1.8597917e-38
-0.0089003453 -0.12997745 0.017668944 1.8874509e-38
-0.0069821617 -0.12997745 0.017668944 1.8689762e-38
-0.0049800081 -0.13076027 0.014579158 1.7862153e-38
-0.0030564079 -0.13076027 0.014579158 2.0079869e-38
-0.0010117078 -0.13176022 0.010632377 2.3500822e-38
0.00079079252 -0.13076027 0.014579158 2.3508037e-38
0.0027143946 -0.13076027 0.014579158 2.3508043e-38
0.0046379929 -0.13076027 0.014579158 2.3509492e-38
0.006561595 -0.13076027 0.014579158 2.3509856e-38
0.0084851934 -0.13076027 0.014579158 2.3415142e-38
0.010571416 -0.13176022 0.010632377 2.3509863e-38
0.012501935 -0.13176022 0.010632377 2.3234367e-38
0.015239748 -0.13633488 -0.0074237771 2.2867034e-38
0.017201927 -0.13633488 -0.0074237771 2.1119284e-38
0.020418275 -0.14292495 -0.033434886 2.1765011e-38
0.022426061 -0.14292495 -0.033434886 2.2775202e-38
0.024226401 -0.14190884 -0.029424209 2.2958151e-38
0.026227154 -0.14190884 -0.029424209 2.3509156e-38
0.028057475 -0.14112701 -0.026338357 2.3508794e-38
0.030052815 -0.14112701 -0.026338357 2.3509168e-38
0.032694545 -0.14391513 -0.037343163 1.4843143e-38
0.034709182 -0.14391513 -0.037343163 9.8652981e-39
-0.035751391 -0.13087155 0.021683317 2.2215543e-38
-0.033840246 -0.13087155 0.021683317 2.3322257e-38
-0.031918544 -0.13189565 0.017668944 2.3508807e-38
-0.028063215 -0.13268389 0.014579158 1.6125222e-38
-0.026139615 -0.13268389 0.014579158 1.5843945e-38
-0.024216015 -0.13268389 0.014579158 1.6854483e-38
-0.022327628 -0.13189565 0.017668944 1.7772112e-38
-0.020409444 -0.13189565 0.017668944 1.8229842e-38
-0.018491261 -0.13189565 0.017668944 1.8688298e-38
-0.016573079 -0.13189565 0.017668944 1.9238951e-38
-0.014654894 -0.13189565 0.017668944 1.9146036e-38
-0.012736713 -0.13189565 0.017668944 1.8960926e-38
-0.010818529 -0.13189565 0.017668944 1.8868735e-38
-0.0089003453 -0.13189565 0.017668944 1.8869098e-38
-0.0069821617 -0.13189565 0.017668944 1.8684709e-38
-0.0049800081 -0.13268389 0.014579158 1.8041132e-38
-0.0030564079 -0.13268389 0.014579158 1.7583734e-38
-0.0011328096 -0.13268389 0.014579158 1.8049388e-38
0.00079079252 -0.13268389 0.014579158 1.9713964e-38
0.0027143946 -0.13268389 0.014579158 2.276039e-38
0.0045269383 -0.13189565 0.017668944 2.3508044e-38
0.0064451201 -0.13189565 0.017668944 2.3509129e-38
0.0083633019 -0.13189565 0.017668944 2.3509489e-38
0.010408795 -0.13268389 0.014579158 2.3509853e-38
0.012332398 -0.13268389 0.014579158 2.3233999e-38
0.014610196 -0.1347049 0.0066569857 2.2867032e-38
0.017201927 -0.13829704 -0.0074237771 2.1489146e-38
0.019689336 -0.14107598 -0.018316884 2.0014743e-38
0.021670613 -0.14107598 -0.018316884 1.9735274e-38
0.024066791 -0.14312236 -0.026338357 2.0100086e-38
0.026062131 -0.14312236 -0.026338357 2.2675431e-38
0.028057475 -0.14312236 -0.026338357 2.3508071e-38
0.030052815 -0.14312236 -0.026338357 2.3508802e-38
0.032048162 -0.14312236 -0.026338357 1.650086e-38
0.034043502 -0.14312236 -0.026338357 1.2353498e-38
-0.035751391 -0.13278268 0.021683317 2.3508441e-38
-0.033840246 -0.13278268 0.021683317 2.3508079e-38
-0.031918544 -0.13381381 0.017668944 2.258036e-38
-0.030000359 -0.13381381 0.017668944 1.925915e-38
-0.028063215 -0.13460748 0.014579158 1.6121254e-38
-0.026139615 -0.13460748 0.014579158 1.5656669e-38
-0.02424581 -0.13381381 0.017668944 1.7405493e-38
-0.022327628 -0.13381381 0.017668944 1.7770309e-38
-0.020462234 -0.13278268 0.021683317 1.7491555e-38
-0.018551089 -0.13278268 0.021683317 1.8318434e-38
-0.016639944 -0.13278268 0.021683317 1.8594657e-38
-0.014654894 -0.13381381 0.017668944 1.877797e-38
-0.012736713 -0.13381381 0.017668944 1.8316992e-38
-0.010818529 -0.13381381 0.017668944 1.8041487e-38
-0.0089003453 -0.13381381 0.017668944 1.8226241e-38
-0.0069821617 -0.13381381 0.017668944 1.8134767e-38
-0.0050639799 -0.13381381 0.017668944 1.8042928e-38
-0.0031457962 -0.13381381 0.017668944 1.7214236e-38
-0.0011328096 -0.13460748 0.014579158 1.6202243e-38
0.00079079252 -0.13460748 0.014579158 1.6576079e-38
0.0026087528 -0.13381381 0.017668944 1.8055536e-38
0.0045269383 -0.13381381 0.017668944 2.0178561e-38
0.0064451201 -0.13381381 0.017668944 2.32239e-38
0.0083633019 -0.13381381 0.017668944 2.3508409e-38
0.010281487 -0.13381381 0.017668944 2.3506251e-38
0.012199669 -0.13381381 0.017668944 2.3509143e-38
0.014255996 -0.13460748 0.014579158 2.3326203e-38
0.01636298 -0.13562126 0.010632377 2.2591531e-38
0.019164108 -0.14025922 -0.0074237771 2.0657953e-38
0.021475449 -0.14205404 -0.01441123 1.8719683e-38
0.023449879 -0.14205404 -0.01441123 1.7886315e-38
0.025633171 -0.14305727 -0.018316884 2.0647128e-38
0.027614448 -0.14305727 -0.018316884 2.3508431e-38
0.030052815 -0.14511769 -0.026338357 2.3508441e-38
0.032048162 -0.14511769 -0.026338357 1.6406501e-38
0.033803891 -0.1441002 -0.022377152 1.2627561e-38
-0.035751391 -0.13469382 0.021683317 2.3507718e-38
-0.033840246 -0.13469382 0.021683317 2.3503748e-38
-0.031918544 -0.13573201 0.017668944 1.7597104e-38
-0.030000359 -0.13573201 0.017668944 1.6488952e-38
-0.028082177 -0.13573201 0.017668944 1.7500221e-38
-0.026163993 -0.13573201 0.017668944 1.7497333e-38
-0.02424581 -0.13573201 0.017668944 1.8232371e-38
-0.022327628 -0.13573201 0.017668944 1.8045454e-38
-0.020462234 -0.13469382 0.021683317 1.8504268e-38
-0.018551089 -0.13469382 0.021683317 1.7673064e-38
-0.016639944 -0.13469382 0.021683317 1.8225875e-38
-0.014654894 -0.13573201 0.017668944 1.8502462e-38
-0.012736713 -0.13573201 0.017668944 1.8134398e-38
-0.010818529 -0.13573201 0.017668944 1.7858532e-38
-0.0089003453 -0.13573201 0.017668944 1.7951809e-38
-0.0069821617 -0.13573201 0.017668944 1.8045086e-38
-0.0050639799 -0.13573201 0.017668944 1.8320592e-38
-0.0031457962 -0.13573201 0.017668944 1.8687569e-38
-0.0012276145 -0.13573201 0.017668944 1.8411708e-38
0.00069057103 -0.13573201 0.017668944 1.7586278e-38
0.0026087528 -0.13573201 0.017668944 1.6208026e-38
0.0045269383 -0.13573201 0.017668944 1.5656657e-38
0.0062937913 -0.13469382 0.021683317 1.7871512e-38
0.008204936 -0.13469382 0.021683317 2.2297981e-38
0.010281487 -0.13573201 0.017668944 2.350553e-38
0.012199669 -0.13573201 0.017668944 2.3508421e-38
0.014255996 -0.13653107 0.014579158 2.3414436e-38
0.016179599 -0.13653107 0.014579158 2.3234379e-38
0.018485181 -0.13857989 0.0066569857 2.2775202e-38
0.021126285 -0.14222141 -0.0074237771 2.0008981e-38
0.023449879 -0.14402847 -0.01441123 1.6779607e-38
0.025633171 -0.14503856 -0.018316884 1.8250045e-38
0.027614448 -0.14503856 -0.018316884 2.3506635e-38
0.029595729 -0.14503856 -0.018316884 2.3503399e-38
0.031815495 -0.14608859 -0.022377152 1.3729945e-38
-0.035751391 -0.13660498 0.021683317 2.3223209e-38
-0.033840246 -0.13660498 0.021683317 2.3497617e-38
-0.031918544 -0.13765021 0.017668944 1.7038874e-38
-0.030000359 -0.13765021 0.017668944 1.6576456e-38
-0.028082177 -0.13765021 0.017668944 1.814162e-38
-0.026163993 -0.13765021 0.017668944 1.7770673e-38
-0.02424581 -0.13765021 0.017668944 1.8137293e-38
-0.022327628 -0.13765021 0.017668944 1.8135488e-38
-0.020409444 -0.13765021 0.017668944 1.8503549e-38
-0.018491261 -0.13765021 0.017668944 1.8133682e-38
-0.016573079 -0.13765021 0.017668944 1.8686853e-38
-0.014654894 -0.13765021 0.017668944 1.8779768e-38
-0.012736713 -0.13765021 0.017668944 1.8227314e-38
-0.010818529 -0.13765021 0.017668944 1.7584461e-38
-0.0089003453 -0.13765021 0.017668944 1.740043e-38
-0.0069821617 -0.13765021 0.017668944 1.7033446e-38
-0.0050639799 -0.13765021 0.017668944 1.7307875e-38
-0.0031457962 -0.13765021 0.017668944 1.8039689e-38
-0.0012276145 -0.13765021 0.017668944 1.7947138e-38
0.00069057103 -0.13765021 0.017668944 1.7213541e-38
0.0026087528 -0.13765021 0.017668944 1.777032e-38
0.0045269383 -0.13765021 0.017668944 1.7035273e-38
0.0062937913 -0.13660498 0.021683317 1.4547429e-38
0.008204936 -0.13660498 0.021683317 1.7406569e-38
0.010116081 -0.13660498 0.021683317 2.3497605e-38
0.012027225 -0.13660498 0.021683317 2.3506977e-38
0.014117851 -0.13765021 0.017668944 2.3506269e-38
0.016036037 -0.13765021 0.017668944 2.3509164e-38
0.018103197 -0.13845469 0.014579158 2.3234379e-38
0.020775311 -0.14235483 -0.000400085 2.1114608e-38
0.023449879 -0.1460029 -0.01441123 1.7793759e-38
0.025424309 -0.1460029 -0.01441123 1.7605398e-38
0.027614448 -0.14701982 -0.018316884 2.1290338e-38
0.029595729 -0.14701982 -0.018316884 2.1840276e-38
0.031815495 -0.148077 -0.022377152 1.1698757e-38
-0.037673093 -0.13956837 0.017668944 1.9629749e-38
-0.035754908 -0.13956837 0.017668944 2.0455538e-38
-0.033836726 -0.13956837 0.017668944 2.0542308e-38
-0.031918544 -0.13956837 0.017668944 1.8417479e-38
-0.030000359 -0.13956837 0.017668944 1.8969213e-38
-0.028082177 -0.13956837 0.017668944 1.9613502e-38
-0.026163993 -0.13956837 0.017668944 1.9058531e-38
-0.02424581 -0.13956837 0.017668944 1.924148e-38
-0.022327628 -0.13956837 0.017668944 1.8686864e-38
-0.020409444 -0.13956837 0.017668944 1.7303567e-38
-0.018491261 -0.13956837 0.017668944 1.8133328e-38
-0.016573079 -0.13956837 0.017668944 1.8502109e-38
-0.014654894 -0.13956837 0.017668944 1.859502e-38
-0.012736713 -0.13956837 0.017668944 1.8043645e-38
-0.010818529 -0.13956837 0.017668944 1.740007e-38
-0.0089003453 -0.13956837 0.017668944 1.7032727e-38
-0.0069821617 -0.13956837 0.017668944 1.6573184e-38
-0.0050639799 -0.13956837 0.017668944 1.6662505e-38
-0.0031457962 -0.13956837 0.017668944 1.7577994e-38
-0.0012276145 -0.13956837 0.017668944 1.8221573e-38
0.00069057103 -0.13956837 0.017668944 1.6934798e-38
0.0024715019 -0.13851611 0.021683317 1.7583052e-38
0.0043826466 -0.13851611 0.021683317 1.841461e-38
0.0061832322 -0.13774733 0.024616223 1.574165e-38
0.0080892323 -0.13774733 0.024616223 1.5742005e-38
0.010116081 -0.13851611 0.021683317 2.0078079e-38
0.012027225 -0.13851611 0.021683317 2.3495088e-38
0.01393837 -0.13851611 0.021683317 2.3507345e-38
0.015849516 -0.13851611 0.021683317 2.3508802e-38
0.017954219 -0.13956837 0.017668944 2.3048554e-38
0.020422671 -0.14245488 0.0066569857 2.2220234e-38
0.023449879 -0.14797734 -0.01441123 2.1389749e-38
0.025424309 -0.14797734 -0.01441123 2.1385782e-38
-0.035754908 -0.14148657 0.017668944 1.7319445e-38
-0.033836726 -0.14148657 0.017668944 1.7682077e-38
-0.031918544 -0.14148657 0.017668944 1.8784811e-38
-0.030000359 -0.14148657 0.017668944 1.8229839e-38
-0.028082177 -0.14148657 0.017668944 1.7952536e-38
-0.026163993 -0.14148657 0.017668944 1.8043293e-38
-0.02424581 -0.14148657 0.017668944 1.8225889e-38
-0.022327628 -0.14148657 0.017668944 1.8686148e-38
-0.020409444 -0.14148657 0.017668944 1.7947863e-38
-0.018445212 -0.14230187 0.014579158 1.8132254e-38
-0.016521614 -0.14230187 0.014579158 1.813333e-38
-0.014598011 -0.14230187 0.014579158 1.8041851e-38
-0.012674411 -0.14230187 0.014579158 1.7673789e-38
-0.010750811 -0.14230187 0.014579158 1.7490834e-38
-0.0088272104 -0.14230187 0.014579158 1.7400433e-38
-0.0069036102 -0.14230187 0.014579158 1.7032727e-38
-0.0050639799 -0.14148657 0.017668944 1.7122048e-38
-0.0031457962 -0.14148657 0.017668944 1.840668e-38
-0.0012276145 -0.14148657 0.017668944 1.941904e-38
0.00069057103 -0.14148657 0.017668944 1.8131547e-38
0.0024715019 -0.14042725 0.021683317 1.7119916e-38
0.0043826466 -0.14042725 0.021683317 1.7766001e-38
0.0061832322 -0.13965334 0.024616223 1.758268e-38
0.0080892323 -0.13965334 0.024616223 1.6845466e-38
0.0099952361 -0.13965334 0.024616223 1.65714e-38
0.012027225 -0.14042725 0.021683317 1.9802574e-38
0.01393837 -0.14042725 0.021683317 2.3505539e-38
0.015849516 -0.14042725 0.021683317 2.3508435e-38
0.017954219 -0.14148657 0.017668944 2.3508807e-38
0.02022402 -0.14334334 0.010632377 2.341805e-38
0.023449879 -0.14995177 -0.01441123 2.341805e-38
0.025424309 -0.14995177 -0.01441123 2.350952e-38
-0.035754908 -0.14340474 0.017668944 1.593507e-38
-0.033836726 -0.14340474 0.017668944 1.7496604e-38
-0.031918544 -0.14340474 0.017668944 1.9705324e-38
-0.030000359 -0.14340474 0.017668944 1.7952891e-38
-0.028082177 -0.14340474 0.017668944 1.8136204e-38
-0.026163993 -0.14340474 0.017668944 1.8411356e-38
-0.02424581 -0.14340474 0.017668944 1.7119541e-38
-0.022327628 -0.14340474 0.017668944 1.7948586e-38
-0.020409444 -0.14340474 0.017668944 1.8592878e-38
-0.018445212 -0.14422549 0.014579158 1.8777269e-38
-0.016521614 -0.14422549 0.014579158 1.8685073e-38
-0.014598011 -0.14422549 0.014579158 1.8132977e-38
-0.012674411 -0.14422549 0.014579158 1.7672715e-38
-0.010750811 -0.14422549 0.014579158 1.7490119e-38
-0.0088272104 -0.14422549 0.014579158 1.7675226e-38
-0.0068032695 -0.14527388 0.010632377 1.7307521e-38
-0.0049800081 -0.14422549 0.014579158 1.7213168e-38
-0.0030564079 -0.14422549 0.014579158 1.8313769e-38
-0.0011328096 -0.14422549 0.014579158 1.8035748e-38
0.00069057103 -0.14340474 0.017668944 1.8407417e-38
0.0024715019 -0.14233841 0.021683317 1.8593967e-38
0.0043826466 -0.14233841 0.021683317 1.7672363e-38
0.0061832322 -0.14155935 0.024616223 1.7488324e-38
0.0080892323 -0.14155935 0.024616223 1.7857455e-38
0.0099952361 -0.14155935 0.024616223 1.7029853e-38
0.012027225 -0.14233841 0.021683317 1.6758315e-38
0.01393837 -0.14233841 0.021683317 2.3499771e-38
0.016036037 -0.14340474 0.017668944 2.3506632e-38
0.017954219 -0.14340474 0.017668944 2.3509521e-38
0.020026799 -0.14422549 0.014579158 2.341805e-38
0.021950401 -0.14422549 0.014579158 2.2865235e-38
-0.03960482 -0.14614908 0.014579158 1.8983657e-38
-0.03575762 -0.14614908 0.014579158 1.611874e-38
-0.033836726 -0.14532293 0.017668944 1.6851232e-38
-0.031918544 -0.14532293 0.017668944 1.8045803e-38
-0.030000359 -0.14532293 0.017668944 1.8045086e-38
-0.028082177 -0.14532293 0.017668944 1.7490479e-38
-0.026163993 -0.14532293 0.017668944 1.7305012e-38
-0.02424581 -0.14532293 0.017668944 1.7856752e-38
-0.022327628 -0.14532293 0.017668944 1.8224818e-38
-0.020409444 -0.14532293 0.017668944 1.8500329e-38
-0.018445212 -0.14614908 0.014579158 1.8961307e-38
-0.016455874 -0.14720438 0.010632377 1.7577654e-38
-0.014525351 -0.14720438 0.010632377 1.7209587e-38
-0.012674411 -0.14614908 0.014579158 1.7209943e-38
-0.010750811 -0.14614908 0.014579158 1.638126e-38
-0.0087337894 -0.14720438 0.010632377 1.7027346e-38
-0.0068032695 -0.14720438 0.010632377 1.7949299e-38
-0.0049800081 -0.14614908 0.014579158 1.730357e-38
-0.0030564079 -0.14614908 0.014579158 1.8129021e-38
-0.0011328096 -0.14614908 0.014579158 1.8497808e-38
0.00079079252 -0.14614908 0.014579158 1.8315941e-38
0.0024715019 -0.14424954 0.021683317 1.7948597e-38
0.0043826466 -0.14424954 0.021683317 1.7856752e-38
0.0062937913 -0.14424954 0.021683317 1.8041135e-38
0.0080892323 -0.14346536 0.024616223 1.8409187e-38
0.0099952361 -0.14346536 0.024616223 1.8042923e-38
0.012027225 -0.14424954 0.021683317 1.6941261e-38
0.01393837 -0.14424954 0.021683317 2.3125222e-38
0.016036037 -0.14532293 0.017668944 2.3508067e-38
0.017954219 -0.14532293 0.017668944 2.3509161e-38
0.020026799 -0.14614908 0.014579158 2.2680844e-38
0.02215454 -0.14720438 0.010632377 2.3141819e-38
-0.03960482 -0.14807267 0.014579158 1.8798544e-38
-0.037681218 -0.14807267 0.014579158 1.9717622e-38
-0.03575762 -0.14807267 0.014579158 1.5565203e-38
-0.033836726 -0.1472411 0.017668944 1.6574648e-38
-0.031918544 -0.1472411 0.017668944 1.7585547e-38
-0.030000359 -0.1472411 0.017668944 1.7953252e-38
-0.028082177 -0.1472411 0.017668944 1.7675952e-38
-0.026163993 -0.1472411 0.017668944 1.7674157e-38
-0.02424581 -0.1472411 0.017668944 1.7857834e-38
-0.022327628 -0.1472411 0.017668944 1.7948953e-38
-0.020409444 -0.1472411 0.017668944 1.7856041e-38
-0.018445212 -0.14807267 0.014579158 1.7670571e-38
-0.016455874 -0.14913492 0.010632377 1.6840092e-38
-0.014525351 -0.14913492 0.010632377 1.7208871e-38
-0.012594831 -0.14913492 0.010632377 1.7301067e-38
-0.010664311 -0.14913492 0.010632377 1.6656054e-38
-0.0087337894 -0.14913492 0.010632377 1.6841161e-38
-0.0068032695 -0.14913492 0.010632377 1.7394333e-38
-0.0048727496 -0.14913492 0.010632377 1.6840441e-38
-0.0029422278 -0.14913492 0.010632377 1.7576568e-38
-0.0011328096 -0.14807267 0.014579158 1.7946074e-38
0.00079079252 -0.14807267 0.014579158 1.7856041e-38
0.0026087528 -0.1472411 0.017668944 1.7580171e-38
0.0043826466 -0.14616071 0.021683317 1.7580165e-38
0.0062937913 -0.14616071 0.021683317 1.7948939e-38
0.0080892323 -0.14537133 0.024616223 1.8225152e-38
0.0099952361 -0.14537133 0.024616223 1.7765613e-38
0.011901236 -0.14537133 0.024616223 1.6295529e-38
0.01393837 -0.14616071 0.021683317 2.1372423e-38
0.015849516 -0.14616071 0.021683317 2.3504465e-38
0.017954219 -0.1472411 0.017668944 2.3509156e-38
0.020026799 -0.14807267 0.014579158 2.350988e-38
0.021950401 -0.14807267 0.014579158 2.3325847e-38
-0.03960482 -0.1499963 0.014579158 1.8336842e-38
-0.037681218 -0.1499963 0.014579158 1.9256279e-38
-0.035754908 -0.1491593 0.017668944 1.6210572e-38
-0.033836726 -0.1491593 0.017668944 1.6574292e-38
-0.031918544 -0.1491593 0.017668944 1.7309325e-38
-0.030000359 -0.1491593 0.017668944 1.7493e-38
-0.028082177 -0.1491593 0.017668944 1.7399728e-38
-0.026163993 -0.1491593 0.017668944 1.7399011e-38
-0.02424581 -0.1491593 0.017668944 1.7582326e-38
-0.022292413 -0.1499963 0.014579158 1.7580891e-38
-0.020368814 -0.1499963 0.014579158 1.7487619e-38
0.0026087528 -0.1491593 0.017668944 1.7028436e-38
0.0043826466 -0.14807184 0.021683317 1.7120266e-38
0.0062937913 -0.14807184 0.021683317 1.7949655e-38
0.0080892323 -0.14727734 0.024616223 1.8225152e-38
0.0099952361 -0.14727734 0.024616223 1.739683e-38
0.011901236 -0.14727734 0.024616223 1.5649439e-38
0.01380724 -0.14727734 0.024616223 1.9066451e-38
0.015849516 -0.14807184 0.021683317 2.3501223e-38
0.01776066 -0.14807184 0.021683317 2.3506273e-38
0.019872401 -0.1491593 0.017668944 2.350952e-38
0.021790586 -0.1491593 0.017668944 2.12961e-38
0.0043826466 -0.14998297 0.021683317 1.7028788e-38
0.0062937913 -0.14998297 0.021683317 1.8041851e-38
0.0080892323 -0.14918335 0.024616223 1.8317348e-38
0.0099952361 -0.14918335 0.024616223 1.7212439e-38
0.011901236 -0.14918335 0.024616223 1.5833832e-38
0.01380724 -0.14918335 0.024616223 1.7314374e-38
0.015849516 -0.14998297 0.021683317 2.3499421e-38
0.01776066 -0.14998297 0.021683317 2.3505914e-38
