# .PCD v0.7 - Point Cloud Data file format
VERSION 0.7
FIELDS x y z rgb
SIZE 4 4 4 4
TYPE F F F F
COUNT 1 1 1 1
WIDTH 762
HEIGHT 1
VIEWPOINT 0 0 0 1 0 0 0
POINTS 762
DATA ascii
0.016929824 -0.12376876 -0.060004883 2.1943301e-38
0.018944461 -0.12376876 -0.060004883 1.4752779e-38
0.020959098 -0.12376876 -0.060004883 4.8885656e-39
0.014915186 -0.1257834 -0.060004883 2.3233662e-38
0.016929824 -0.1257834 -0.060004883 2.3049632e-38
0.018762868 -0.12485488 -0.056096606 2.2958155e-38
0.020770654 -0.12485488 -0.056096606 2.2497901e-38
0.02277844 -0.12485488 -0.056096606 2.2590813e-38
0.024786226 -0.12485488 -0.056096606 1.0422447e-38
0.006461083 -0.12516426 -0.049000077 2.3509524e-38
0.0084564267 -0.12516426 -0.049000077 2.3509527e-38
0.012447114 -0.12516426 -0.049000077 2.3509527e-38
0.014442454 -0.12516426 -0.049000077 2.3232944e-38
0.016755085 -0.12686269 -0.056096606 2.3233662e-38
0.018762868 -0.12686269 -0.056096606 2.2958873e-38
0.020770654 -0.12686269 -0.056096606 2.2867037e-38
0.02277844 -0.12686269 -0.056096606 2.2407142e-38
0.024786226 -0.12686269 -0.056096606 1.8075036e-38
0.027003013 -0.12779804 -0.060004883 9.4093605e-39
0.02901765 -0.12779804 -0.060004883 1.7571148e-39
0.031032287 -0.12779804 -0.060004883 9.241143e-40
-0.0015202845 -0.12715961 -0.049000077 2.3509168e-38
0.00047505554 -0.12715961 -0.049000077 2.2771607e-38
0.0024703993 -0.12715961 -0.049000077 2.3139308e-38
0.004465743 -0.12715961 -0.049000077 2.3509167e-38
0.006461083 -0.12715961 -0.049000077 2.3415529e-38
0.0084564267 -0.12715961 -0.049000077 2.3415885e-38
0.012447114 -0.12715961 -0.049000077 2.3509527e-38
0.014442454 -0.12715961 -0.049000077 2.3508809e-38
0.016575769 -0.12790357 -0.052085929 2.3141109e-38
0.018576521 -0.12790357 -0.052085929 2.2681214e-38
0.020577274 -0.12790357 -0.052085929 2.2590454e-38
0.022578027 -0.12790357 -0.052085929 2.2867037e-38
0.024786226 -0.12887047 -0.056096606 2.2591531e-38
0.026794009 -0.12887047 -0.056096606 2.0473188e-38
0.028801799 -0.12887047 -0.056096606 1.7430369e-38
0.030809581 -0.12887047 -0.056096606 1.1527691e-38
-0.0015202845 -0.12915494 -0.049000077 2.3509168e-38
0.00047505554 -0.12915494 -0.049000077 2.3415539e-38
0.0024703993 -0.12915494 -0.049000077 2.3508809e-38
0.004465743 -0.12915494 -0.049000077 2.3509168e-38
0.006461083 -0.12915494 -0.049000077 2.3507721e-38
0.0084564267 -0.12915494 -0.049000077 2.3508797e-38
0.010573505 -0.12990431 -0.052085929 2.3509514e-38
0.012447114 -0.12915494 -0.049000077 2.3508077e-38
0.014442454 -0.12915494 -0.049000077 2.3509521e-38
0.016437799 -0.12915494 -0.049000077 2.3509883e-38
0.018433142 -0.12915494 -0.049000077 2.3325497e-38
0.020577274 -0.12990431 -0.052085929 2.2773763e-38
0.022578027 -0.12990431 -0.052085929 2.2867037e-38
0.02457878 -0.12990431 -0.052085929 2.2867037e-38
0.02641451 -0.12915494 -0.049000077 2.2775199e-38
0.028409854 -0.12915494 -0.049000077 2.2775199e-38
0.030405194 -0.12915494 -0.049000077 1.6782842e-38
-0.017929599 -0.12382124 -0.019035509 2.350952e-38
-0.0014310116 -0.13190506 -0.052085929 2.3507733e-38
0.00056974124 -0.13190506 -0.052085929 2.3414822e-38
0.0025704941 -0.13190506 -0.052085929 2.3509168e-38
0.0045712469 -0.13190506 -0.052085929 2.3509163e-38
0.0065719998 -0.13190506 -0.052085929 2.3509153e-38
0.0085727526 -0.13190506 -0.052085929 2.3045289e-38
0.010573505 -0.13190506 -0.052085929 2.3414428e-38
0.012574258 -0.13190506 -0.052085929 2.3509863e-38
0.014575015 -0.13190506 -0.052085929 2.3508428e-38
0.016437799 -0.13115029 -0.049000077 2.350915e-38
0.018433142 -0.13115029 -0.049000077 2.3509879e-38
0.020577274 -0.13190506 -0.052085929 2.350988e-38
0.022578027 -0.13190506 -0.052085929 2.3234376e-38
0.02441917 -0.13115029 -0.049000077 2.2775196e-38
0.02641451 -0.13115029 -0.049000077 2.2499324e-38
0.028191075 -0.13018142 -0.045038871 2.2407491e-38
0.030179471 -0.13018142 -0.045038871 2.2314579e-38
0.032167874 -0.13018142 -0.045038871 1.1435498e-38
0.03415627 -0.13018142 -0.045038871 3.8743773e-39
0.036391228 -0.13115029 -0.049000077 7.0090287e-39
-0.015986793 -0.12576406 -0.019035509 2.3506632e-38
-0.01404399 -0.12576406 -0.019035509 2.3508428e-38
-0.012101184 -0.12576406 -0.019035509 2.3509149e-38
-0.0027934173 -0.12230472 -0.0049927742 2.3508451e-38
-0.00087523554 -0.12230472 -0.0049927742 2.3508451e-38
0.00104295 -0.12230472 -0.0049927742 2.3508807e-38
0.0029611317 -0.12230472 -0.0049927742 2.3507712e-38
0.0048793172 -0.12230472 -0.0049927742 2.3507342e-38
0.006797499 -0.12230472 -0.0049927742 1.7052199e-38
0.0088375723 -0.12306587 -0.0080825593 1.6960357e-38
0.010761174 -0.12306587 -0.0080825593 2.3507687e-38
0.014575015 -0.13390581 -0.052085929 2.3509493e-38
0.016260695 -0.13216983 -0.045038871 2.350806e-38
0.018249091 -0.13216983 -0.045038871 2.3508068e-38
0.020428482 -0.13314565 -0.049000077 2.3509876e-38
0.022423826 -0.13314565 -0.049000077 2.350988e-38
0.02441917 -0.13314565 -0.049000077 2.3234376e-38
0.026202679 -0.13216983 -0.045038871 2.3234379e-38
0.028191075 -0.13216983 -0.045038871 2.3142544e-38
0.030179471 -0.13216983 -0.045038871 2.2958873e-38
0.032167874 -0.13216983 -0.045038871 1.8350533e-38
0.03415627 -0.13216983 -0.045038871 8.7614687e-39
0.036144666 -0.13216983 -0.045038871 7.3788902e-39
0.038133062 -0.13216983 -0.045038871 7.1023033e-39
0.040121458 -0.13216983 -0.045038871 6.3647383e-39
-0.023932144 -0.12322696 -0.0009784014 2.3509165e-38
-0.015986793 -0.12770687 -0.019035509 2.1570162e-38
-0.01404399 -0.12770687 -0.019035509 2.0831874e-38
-0.012101184 -0.12770687 -0.019035509 1.9909196e-38
-0.01015838 -0.12770687 -0.019035509 1.9448221e-38
-0.0082873134 -0.12695493 -0.016004732 1.9447142e-38
-0.0064508906 -0.12596865 -0.01202934 2.0553492e-38
-0.0046276292 -0.12498946 -0.0080825593 2.350664e-38
-0.0027934173 -0.12422292 -0.0049927742 2.3508451e-38
-0.00087523554 -0.12422292 -0.0049927742 2.3508451e-38
0.00104295 -0.12422292 -0.0049927742 2.3509158e-38
0.0029611317 -0.12422292 -0.0049927742 2.3506984e-38
0.0048793172 -0.12422292 -0.0049927742 2.3228943e-38
0.006797499 -0.12422292 -0.0049927742 1.2534599e-38
0.0088375723 -0.12498946 -0.0080825593 1.3087049e-38
0.011087595 -0.12695493 -0.016004732 2.3509115e-38
0.013328235 -0.12870578 -0.023061803 2.3509844e-38
0.015278096 -0.12870578 -0.023061803 2.3509851e-38
0.017878968 -0.1321819 -0.037072949 2.3508421e-38
0.019853398 -0.1321819 -0.037072949 2.3507351e-38
0.022225887 -0.13415821 -0.045038871 2.3231854e-38
0.024214283 -0.13415821 -0.045038871 2.2956712e-38
0.026202679 -0.13415821 -0.045038871 2.3049273e-38
0.028191075 -0.13415821 -0.045038871 2.3050349e-38
0.030179471 -0.13415821 -0.045038871 2.2683007e-38
0.032167874 -0.13415821 -0.045038871 2.2867037e-38
0.03415627 -0.13415821 -0.045038871 1.844201e-38
0.036144666 -0.13415821 -0.045038871 7.931708e-39
0.037873223 -0.13315089 -0.040978603 5.7193689e-39
0.039854497 -0.13315089 -0.040978603 7.6554771e-39
0.041835777 -0.13315089 -0.040978603 7.1934199e-39
-0.021975249 -0.12614109 -0.0049927742 2.3509163e-38
-0.020057065 -0.12614109 -0.0049927742 2.3507362e-38
-0.018138882 -0.12614109 -0.0049927742 2.2860546e-38
-0.015986793 -0.12964968 -0.019035509 2.2030417e-38
-0.01404399 -0.12964968 -0.019035509 2.1384326e-38
-0.012101184 -0.12964968 -0.019035509 2.0461647e-38
-0.01015838 -0.12964968 -0.019035509 2.0276539e-38
-0.0082873134 -0.12889244 -0.016004732 1.9538977e-38
-0.0066297827 -0.12614109 -0.0049927742 2.0091435e-38
-0.004711601 -0.12614109 -0.0049927742 2.3503398e-38
-0.0029095532 -0.12513812 -0.0009784014 2.2768002e-38
-0.00099840853 -0.12513812 -0.0009784014 2.3506643e-38
0.00104295 -0.12614109 -0.0049927742 2.3506628e-38
0.0029611317 -0.12614109 -0.0049927742 2.1846372e-38
0.0048793172 -0.12614109 -0.0049927742 2.2307336e-38
0.0069139739 -0.12691309 -0.0080825593 1.4285945e-38
0.0089932745 -0.12789918 -0.01202934 1.4746557e-38
0.011087595 -0.12889244 -0.016004732 2.2583186e-38
0.013155277 -0.12964968 -0.019035509 2.3506953e-38
0.015098083 -0.12964968 -0.019035509 2.3509123e-38
0.017364871 -0.13139187 -0.026008418 2.35095e-38
0.019853398 -0.13415633 -0.037072949 2.3509153e-38
0.021827828 -0.13415633 -0.037072949 2.3509521e-38
0.024004273 -0.13513215 -0.040978603 2.3509168e-38
0.026202679 -0.13614662 -0.045038871 2.3509168e-38
0.028191075 -0.13614662 -0.045038871 2.3417691e-38
0.030179471 -0.13614662 -0.045038871 2.2958873e-38
0.032167874 -0.13614662 -0.045038871 2.1762133e-38
0.03415627 -0.13614662 -0.045038871 2.1853967e-38
0.036144666 -0.13614662 -0.045038871 1.0329513e-38
0.037873223 -0.13513215 -0.040978603 6.9175561e-39
0.039854497 -0.13513215 -0.040978603 7.0097517e-39
0.041835777 -0.13513215 -0.040978603 5.9026811e-39
-0.029665578 -0.12704925 -0.0009784014 1.4564366e-38
-0.027754433 -0.12704925 -0.0009784014 2.3046011e-38
-0.025843289 -0.12704925 -0.0009784014 2.3506279e-38
-0.023932144 -0.12704925 -0.0009784014 2.3507722e-38
-0.021975249 -0.12805928 -0.0049927742 2.3508444e-38
-0.020057065 -0.12805928 -0.0049927742 2.3508081e-38
-0.018138882 -0.12805928 -0.0049927742 2.3504114e-38
-0.016103495 -0.12982969 -0.01202934 2.3226802e-38
-0.014172972 -0.12982969 -0.01202934 2.2672907e-38
-0.012162295 -0.13082992 -0.016004732 2.1750227e-38
-0.010224803 -0.13082992 -0.016004732 2.1934257e-38
-0.0086429873 -0.12704925 -0.0009784014 2.1840983e-38
-0.0068064062 -0.12631132 0.0019545048 2.2024656e-38
-0.0049004043 -0.12631132 0.0019545048 2.3506993e-38
-0.0029944004 -0.12631132 0.0019545048 2.350628e-38
-0.0010884004 -0.12631132 0.0019545048 2.3509158e-38
0.00091273617 -0.12704925 -0.0009784014 2.3509149e-38
0.0029611317 -0.12805928 -0.0049927742 1.9908825e-38
0.0048793172 -0.12805928 -0.0049927742 2.0829328e-38
0.0069139739 -0.12883668 -0.0080825593 1.6126984e-38
0.0089932745 -0.12982969 -0.01202934 1.4743323e-38
0.011087595 -0.13082992 -0.016004732 1.5112106e-38
0.013155277 -0.13159247 -0.019035509 2.2027867e-38
0.015098083 -0.13159247 -0.019035509 2.3504443e-38
0.017227963 -0.13260551 -0.023061803 2.3509142e-38
0.019708492 -0.13537462 -0.034067683 2.3509151e-38
0.021827828 -0.13613077 -0.037072949 2.3508801e-38
0.023802258 -0.13613077 -0.037072949 2.3508451e-38
0.02598555 -0.13711344 -0.040978603 2.3509168e-38
0.027966827 -0.13711344 -0.040978603 2.3417691e-38
0.030179471 -0.138135 -0.045038871 2.3142544e-38
0.032167874 -0.138135 -0.045038871 2.2590454e-38
0.03415627 -0.138135 -0.045038871 2.2958873e-38
0.036144666 -0.138135 -0.045038871 1.1527339e-38
0.038133062 -0.138135 -0.045038871 8.0228261e-39
0.040121458 -0.138135 -0.045038871 8.8525853e-39
0.042109855 -0.138135 -0.045038871 8.3912471e-39
-0.035402529 -0.12997745 -0.0049927742 1.0782924e-38
-0.033484347 -0.12997745 -0.0049927742 1.1610147e-38
-0.031566165 -0.12997745 -0.0049927742 1.6126646e-38
-0.029665578 -0.12896039 -0.0009784014 1.8523379e-38
-0.027754433 -0.12896039 -0.0009784014 2.2487793e-38
-0.025866428 -0.12821732 0.0019545048 2.1566565e-38
-0.023960426 -0.12821732 0.0019545048 2.3507718e-38
-0.022054425 -0.12821732 0.0019545048 2.3507362e-38
-0.020148423 -0.12821732 0.0019545048 2.3040259e-38
-0.018242419 -0.12821732 0.0019545048 2.3408681e-38
-0.016287565 -0.12896039 -0.0009784014 2.3039174e-38
-0.014172972 -0.13176022 -0.01202934 2.3501228e-38
-0.012162295 -0.13276742 -0.016004732 2.22998e-38
-0.010684897 -0.12744872 0.0049881428 2.3220314e-38
-0.008784215 -0.12744872 0.0049881428 2.2482384e-38
-0.0068835309 -0.12744872 0.0049881428 2.3496894e-38
-0.0049828487 -0.12744872 0.0049881428 2.3505902e-38
-0.0030821646 -0.12744872 0.0049881428 2.3508074e-38
-0.0010884004 -0.12821732 0.0019545048 2.3509517e-38
0.00091273617 -0.12896039 -0.0009784014 2.3506993e-38
0.0028238809 -0.12896039 -0.0009784014 2.2210487e-38
0.0048793172 -0.12997745 -0.0049927742 2.0824307e-38
0.0069139739 -0.13076027 -0.0080825593 1.8794197e-38
0.0089932745 -0.13176022 -0.01202934 1.7502376e-38
0.011087595 -0.13276742 -0.016004732 1.7965152e-38
0.013155277 -0.13353528 -0.019035509 1.7230468e-38
0.015098083 -0.13353528 -0.019035509 2.3225706e-38
0.017040886 -0.13353528 -0.019035509 2.3509143e-38
0.019516487 -0.13633488 -0.030085495 2.350951e-38
0.021827828 -0.1381052 -0.037072949 2.3416603e-38
0.023802258 -0.1381052 -0.037072949 2.3509527e-38
0.02598555 -0.13909473 -0.040978603 2.3509527e-38
0.027966827 -0.13909473 -0.040978603 2.3417333e-38
0.029948108 -0.13909473 -0.040978603 2.3325497e-38
0.031929389 -0.13909473 -0.040978603 2.3141109e-38
0.03415627 -0.14012341 -0.045038871 2.3417691e-38
0.036144666 -0.14012341 -0.045038871 1.4566924e-38
0.038133062 -0.14012341 -0.045038871 8.2986969e-39
0.040121458 -0.14012341 -0.045038871 9.0362591e-39
0.042109855 -0.14012341 -0.045038871 9.1277331e-39
-0.033484347 -0.13189565 -0.0049927742 1.6492554e-38
-0.031566165 -0.13189565 -0.0049927742 1.8519411e-38
-0.02964798 -0.13189565 -0.0049927742 1.8704523e-38
-0.027754433 -0.13087155 -0.0009784014 2.2391996e-38
-0.025866428 -0.13012333 0.0019545048 2.3406872e-38
-0.023960426 -0.13012333 0.0019545048 2.3506993e-38
-0.022054425 -0.13012333 0.0019545048 2.3506999e-38
-0.020148423 -0.13012333 0.0019545048 2.3498717e-38
-0.018242419 -0.13012333 0.0019545048 2.1100908e-38
-0.016452599 -0.1283439 0.0089296792 1.9164078e-38
-0.014558828 -0.1283439 0.0089296792 1.8333233e-38
-0.012665057 -0.1283439 0.0089296792 1.7226161e-38
-0.010771283 -0.1283439 0.0089296792 1.8608009e-38
-0.0088775111 -0.1283439 0.0089296792 1.915974e-38
-0.0069837393 -0.1283439 0.0089296792 1.9435961e-38
-0.0050899656 -0.1283439 0.0089296792 2.0361883e-38
-0.0030821646 -0.12934943 0.0049881428 2.2489597e-38
-0.0011814805 -0.12934943 0.0049881428 2.3508075e-38
0.00081760343 -0.13012333 0.0019545048 2.3505194e-38
0.0028238809 -0.13087155 -0.0009784014 2.2761505e-38
0.0047350256 -0.13087155 -0.0009784014 2.1466086e-38
0.006797499 -0.13189565 -0.0049927742 1.9159391e-38
0.0089932745 -0.13369073 -0.01202934 1.9435612e-38
0.010923794 -0.13369073 -0.01202934 2.2847929e-38
0.013025085 -0.1347049 -0.016004732 2.3405059e-38
0.015098083 -0.13547809 -0.019035509 2.0181456e-38
0.017040886 -0.13547809 -0.019035509 1.8525538e-38
0.019319903 -0.13725694 -0.026008418 2.3230402e-38
0.021677654 -0.13931294 -0.034067683 2.3509876e-38
0.023802258 -0.14007963 -0.037072949 2.2956709e-38
0.025776688 -0.14007963 -0.037072949 2.2495381e-38
0.027966827 -0.14107598 -0.040978603 2.3509527e-38
0.029948108 -0.14107598 -0.040978603 2.3509168e-38
0.031929389 -0.14107598 -0.040978603 2.3509168e-38
0.033910662 -0.14107598 -0.040978603 2.3509168e-38
0.035891943 -0.14107598 -0.040978603 1.67789e-38
0.037873223 -0.14107598 -0.040978603 1.16163e-38
0.039854497 -0.14107598 -0.040978603 8.8511476e-39
0.041835777 -0.14107598 -0.040978603 8.8504273e-39
-0.031576723 -0.13278268 -0.0009784014 1.953068e-38
-0.029665578 -0.13278268 -0.0009784014 1.9162979e-38
-0.02777243 -0.13202934 0.0019545048 2.2297995e-38
-0.025890365 -0.1312501 0.0049881428 2.3503386e-38
-0.023989681 -0.1312501 0.0049881428 2.350663e-38
-0.022088997 -0.1312501 0.0049881428 2.3505195e-38
-0.020188315 -0.1312501 0.0049881428 2.3500874e-38
-0.018287633 -0.1312501 0.0049881428 2.1929227e-38
-0.016502485 -0.1294684 0.011924574 1.9808005e-38
-0.014687703 -0.12843956 0.015929887 1.8423628e-38
-0.012806204 -0.12843956 0.015929887 1.8606214e-38
-0.010924705 -0.12843956 0.015929887 1.925014e-38
-0.0089483997 -0.1294684 0.011924574 1.9801869e-38
-0.0070598787 -0.1294684 0.011924574 1.8695157e-38
-0.0050899656 -0.13023765 0.0089296792 1.9528522e-38
-0.0031961938 -0.13023765 0.0089296792 2.1104858e-38
-0.0011814805 -0.1312501 0.0049881428 2.3508434e-38
0.00071919989 -0.1312501 0.0049881428 2.3507355e-38
0.0027236035 -0.13202934 0.0019545048 2.2851179e-38
0.0046296073 -0.13202934 0.0019545048 2.0634881e-38
0.0065356111 -0.13202934 0.0019545048 1.8328185e-38
0.0087156808 -0.13381381 -0.0049927742 1.8973553e-38
0.010761174 -0.13460748 -0.0080825593 2.2847568e-38
0.012684776 -0.13460748 -0.0080825593 2.3501579e-38
0.014784834 -0.13562126 -0.01202934 2.1471115e-38
0.017040886 -0.13742088 -0.019035509 1.935458e-38
0.019177828 -0.13845511 -0.023061803 2.3137488e-38
0.021274932 -0.13921197 -0.026008418 2.3508795e-38
0.023646817 -0.1412821 -0.034067683 2.31411e-38
0.025615975 -0.1412821 -0.034067683 2.3417691e-38
0.027751118 -0.14205404 -0.037072949 2.3509527e-38
0.029725552 -0.14205404 -0.037072949 2.3232227e-38
0.031699978 -0.14205404 -0.037072949 2.3047838e-38
0.033674411 -0.14205404 -0.037072949 2.3509168e-38
0.035648838 -0.14205404 -0.037072949 1.8807557e-38
0.037623271 -0.14205404 -0.037072949 1.5304123e-38
0.039854497 -0.14305727 -0.040978603 8.6660361e-39
0.041835777 -0.14305727 -0.040978603 9.0348186e-39
-0.031576723 -0.13469382 -0.0009784014 2.0450113e-38
-0.029665578 -0.13469382 -0.0009784014 2.0542674e-38
-0.027791047 -0.13315077 0.0049881428 2.2110363e-38
-0.025890365 -0.13315077 0.0049881428 2.3495821e-38
-0.023989681 -0.13315077 0.0049881428 2.2574229e-38
-0.022133918 -0.13213144 0.0089296792 2.2113253e-38
-0.020279529 -0.13135691 0.011924574 2.1744831e-38
-0.018391006 -0.13135691 0.011924574 2.0637766e-38
-0.016569201 -0.13032107 0.015929887 2.0083152e-38
-0.014687703 -0.13032107 0.015929887 1.9528533e-38
-0.012806204 -0.13032107 0.015929887 2.0540883e-38
-0.010924705 -0.13032107 0.015929887 2.0262131e-38
-0.0090432065 -0.13032107 0.015929887 2.1090806e-38
-0.0070598787 -0.13135691 0.011924574 2.0259605e-38
-0.0051713577 -0.13135691 0.011924574 2.2014564e-38
-0.0032828366 -0.13135691 0.011924574 2.0363692e-38
-0.001302422 -0.13213144 0.0089296792 2.3507711e-38
0.00059135165 -0.13213144 0.0089296792 2.350663e-38
0.0024851253 -0.13213144 0.0089296792 2.1650831e-38
0.0045205681 -0.13315077 0.0049881428 1.9250141e-38
0.0065356111 -0.13393532 0.0019545048 1.7773571e-38
0.008557315 -0.13469382 -0.0009784014 1.7036003e-38
0.010633866 -0.13573201 -0.0049927742 1.832854e-38
0.012684776 -0.13653107 -0.0080825593 2.1374595e-38
0.014784834 -0.1375518 -0.01202934 2.3504458e-38
0.016715359 -0.1375518 -0.01202934 2.3506625e-38
0.01883756 -0.13857989 -0.016004732 2.3508428e-38
0.02112769 -0.14040495 -0.023061803 2.3139294e-38
0.023229964 -0.141167 -0.026008418 2.3509883e-38
0.025403023 -0.14222141 -0.030085495 2.3509886e-38
0.0273652 -0.14222141 -0.030085495 2.3325138e-38
0.0295543 -0.14325126 -0.034067683 2.3509168e-38
0.031523459 -0.14325126 -0.034067683 2.3509168e-38
0.033674411 -0.14402847 -0.037072949 2.3509168e-38
0.035461783 -0.14325126 -0.034067683 1.9636956e-38
0.037430942 -0.14325126 -0.034067683 1.6594497e-38
0.039400108 -0.14325126 -0.034067683 6.7302838e-39
-0.029709008 -0.1340252 0.0089296792 2.0633065e-38
-0.027815234 -0.1340252 0.0089296792 2.0726346e-38
-0.025921464 -0.1340252 0.0089296792 2.1464995e-38
-0.02402769 -0.1340252 0.0089296792 2.0452285e-38
-0.02216805 -0.13324542 0.011924574 2.0453729e-38
-0.020279529 -0.13324542 0.011924574 2.0914707e-38
-0.018391006 -0.13324542 0.011924574 2.07296e-38
-0.016620331 -0.13140334 0.018999407 2.0728518e-38
-0.014744212 -0.13140334 0.018999407 2.0450129e-38
-0.012868094 -0.13140334 0.018999407 2.100114e-38
-0.010991978 -0.13140334 0.018999407 2.0260692e-38
-0.0091158608 -0.13140334 0.018999407 2.0996452e-38
-0.0071617076 -0.13220255 0.015929887 2.0349284e-38
-0.0051713577 -0.13324542 0.011924574 2.2104242e-38
-0.0032828366 -0.13324542 0.011924574 2.0728871e-38
-0.001302422 -0.1340252 0.0089296792 2.3503026e-38
0.00059135165 -0.1340252 0.0089296792 2.3500503e-38
0.0024851253 -0.1340252 0.0089296792 2.1187329e-38
0.0043788953 -0.1340252 0.0089296792 2.0169936e-38
0.0065356111 -0.13584132 0.0019545048 1.9430929e-38
0.0084416112 -0.13584132 0.0019545048 1.7772483e-38
0.01046846 -0.13660498 -0.0009784014 1.7405139e-38
0.012552048 -0.13765021 -0.0049927742 1.8422893e-38
0.014608375 -0.13845469 -0.0080825593 2.3505177e-38
0.016531978 -0.13845469 -0.0080825593 2.3508063e-38
0.018645879 -0.1394823 -0.01202934 2.3508427e-38
0.020926498 -0.1413065 -0.019035509 2.3509514e-38
0.023077555 -0.14235483 -0.023061803 2.3509521e-38
0.025184993 -0.14312203 -0.026008418 2.2864516e-38
0.0273652 -0.14418359 -0.030085495 2.3141106e-38
0.0295543 -0.14522041 -0.034067683 2.3508804e-38
0.031523459 -0.14522041 -0.034067683 2.3509165e-38
0.033492625 -0.14522041 -0.034067683 2.3508805e-38
0.035461783 -0.14522041 -0.034067683 1.9636227e-38
0.037430942 -0.14522041 -0.034067683 1.6593771e-38
0.039400108 -0.14522041 -0.034067683 6.5455268e-39
-0.03350538 -0.13327946 0.018999407 1.8879188e-38
-0.031629264 -0.13327946 0.018999407 1.9893337e-38
-0.029709008 -0.13591899 0.0089296792 1.8603682e-38
-0.027815234 -0.13591899 0.0089296792 1.8974985e-38
-0.025921464 -0.13591899 0.0089296792 1.9161183e-38
-0.024056572 -0.13513394 0.011924574 1.9439212e-38
-0.02216805 -0.13513394 0.011924574 2.0085666e-38
-0.020279529 -0.13513394 0.011924574 2.027078e-38
-0.018391006 -0.13513394 0.011924574 1.9808723e-38
-0.016620331 -0.13327946 0.018999407 2.0360815e-38
-0.014744212 -0.13327946 0.018999407 2.1095859e-38
-0.012868094 -0.13327946 0.018999407 2.1278448e-38
-0.010991978 -0.13327946 0.018999407 2.1367763e-38
-0.0091158608 -0.13327946 0.018999407 2.182586e-38
-0.0071617076 -0.13408406 0.015929887 2.0256373e-38
-0.0052802088 -0.13408406 0.015929887 2.0442923e-38
-0.0033987099 -0.13408406 0.015929887 1.8790241e-38
-0.0013943138 -0.13513394 0.011924574 1.9345574e-38
0.00049420726 -0.13513394 0.011924574 1.8974629e-38
0.0023827283 -0.13513394 0.011924574 1.8418575e-38
0.0042712493 -0.13513394 0.011924574 1.8600805e-38
0.006272669 -0.13591899 0.0089296792 1.7862518e-38
0.0081664426 -0.13591899 0.0089296792 1.6664695e-38
0.010347615 -0.13774733 0.0019545048 1.6666493e-38
0.012379604 -0.13851611 -0.0009784014 1.6670095e-38
0.01447023 -0.13956837 -0.0049927742 2.3498695e-38
0.016388416 -0.13956837 -0.0049927742 2.350554e-38
0.018455576 -0.14037828 -0.0080825593 2.3506265e-38
0.020576399 -0.14141284 -0.01202934 2.3508793e-38
0.02271254 -0.14245488 -0.016004732 2.350952e-38
0.024812106 -0.14324932 -0.019035509 2.3048905e-38
0.0273652 -0.14614578 -0.030085495 2.3509883e-38
0.029327378 -0.14614578 -0.030085495 2.350952e-38
0.031523459 -0.1471896 -0.034067683 2.3508797e-38
0.033492625 -0.1471896 -0.034067683 2.3322609e-38
0.035648838 -0.14797734 -0.037072949 1.9635863e-38
0.037623271 -0.14797734 -0.037072949 1.6593407e-38
0.039597705 -0.14797734 -0.037072949 8.3883576e-39
-0.03350538 -0.13515557 0.018999407 1.9156135e-38
-0.031629264 -0.13515557 0.018999407 1.9063941e-38
-0.029753145 -0.13515557 0.018999407 1.7867559e-38
-0.027877029 -0.13515557 0.018999407 2.0727784e-38
-0.025976695 -0.13596557 0.015929887 1.9716517e-38
-0.024095196 -0.13596557 0.015929887 2.0087102e-38
-0.022213697 -0.13596557 0.015929887 1.9719764e-38
-0.020332199 -0.13596557 0.015929887 1.9720126e-38
-0.0184507 -0.13596557 0.015929887 1.8429027e-38
-0.016569201 -0.13596557 0.015929887 1.9349185e-38
-0.014744212 -0.13515557 0.018999407 2.0638123e-38
-0.012868094 -0.13515557 0.018999407 1.9897319e-38
-0.010991978 -0.13515557 0.018999407 2.0816395e-38
-0.0091158608 -0.13515557 0.018999407 2.1090098e-38
-0.0071617076 -0.13596557 0.015929887 1.998195e-38
-0.0052802088 -0.13596557 0.015929887 1.970536e-38
-0.0033987099 -0.13596557 0.015929887 1.9985544e-38
-0.0013943138 -0.13702248 0.011924574 1.8604405e-38
0.00036428776 -0.13596557 0.015929887 1.8602244e-38
0.0022457866 -0.13596557 0.015929887 1.9153977e-38
0.0041272854 -0.13596557 0.015929887 1.9152175e-38
0.0060087843 -0.13596557 0.015929887 1.8414607e-38
0.0080482913 -0.13702248 0.011924574 1.8230935e-38
0.010060213 -0.13781275 0.0089296792 1.8047986e-38
0.012253615 -0.13965334 0.0019545048 1.6298791e-38
0.014290749 -0.14042725 -0.0009784014 2.1188762e-38
0.016388416 -0.14148657 -0.0049927742 2.3221393e-38
0.018306598 -0.14148657 -0.0049927742 2.3507348e-38
0.020379178 -0.14230187 -0.0080825593 2.3506274e-38
0.02230278 -0.14230187 -0.0080825593 2.3509157e-38
0.024437439 -0.14334334 -0.01202934 2.350952e-38
0.027140025 -0.1470321 -0.026008418 2.350952e-38
0.029327378 -0.14810793 -0.030085495 2.3509514e-38
0.031523459 -0.14915876 -0.034067683 2.2400642e-38
0.033492625 -0.14915876 -0.034067683 2.1478328e-38
0.035648838 -0.14995177 -0.037072949 1.8989768e-38
-0.033507958 -0.13625093 0.021938751 1.7959036e-38
-0.031636994 -0.13625093 0.021938751 1.8053392e-38
-0.029766031 -0.13625093 0.021938751 1.9253378e-38
-0.027895067 -0.13625093 0.021938751 2.3505542e-38
-0.026024103 -0.13625093 0.021938751 2.3505184e-38
-0.024153141 -0.13625093 0.021938751 2.3508065e-38
-0.022282179 -0.13625093 0.021938751 2.3508428e-38
-0.020464385 -0.13517688 0.025982091 2.3508431e-38
-0.018600512 -0.13517688 0.025982091 2.3508431e-38
-0.016669288 -0.13625093 0.021938751 2.3507714e-38
-0.014798325 -0.13625093 0.021938751 2.3504475e-38
-0.012927362 -0.13625093 0.021938751 2.0361901e-38
-0.011056398 -0.13625093 0.021938751 1.9804768e-38
-0.0091854362 -0.13625093 0.021938751 1.90654e-38
-0.007239745 -0.13703169 0.018999407 1.9431306e-38
-0.0053636273 -0.13703169 0.018999407 1.9707164e-38
-0.0034875115 -0.13703169 0.018999407 1.9246537e-38
-0.0015172111 -0.13784705 0.015929887 1.8600804e-38
0.00036428776 -0.13784705 0.015929887 1.9152535e-38
0.0021408414 -0.13703169 0.018999407 1.9059977e-38
0.0040169572 -0.13703169 0.018999407 1.8136579e-38
0.005893073 -0.13703169 0.018999407 1.8136579e-38
0.0078902831 -0.13784705 0.015929887 1.8413526e-38
0.0099368123 -0.13891099 0.011924574 1.7124588e-38
0.011953986 -0.13970654 0.0089296792 1.7311863e-38
0.014023985 -0.14075352 0.0049881428 1.657682e-38
0.016201895 -0.14233841 -0.0009784014 1.9439212e-38
0.018113039 -0.14233841 -0.0009784014 2.3506989e-38
0.02022478 -0.14340474 -0.0049927742 2.3508075e-38
0.02230278 -0.14422549 -0.0080825593 2.3229329e-38
0.024226379 -0.14422549 -0.0080825593 2.2217702e-38
0.026754912 -0.14713491 -0.019035509 2.1203907e-38
0.029095054 -0.14898713 -0.026008418 2.0833316e-38
-0.035375375 -0.13704078 0.025982091 1.7406216e-38
-0.033511501 -0.13704078 0.025982091 1.6210923e-38
-0.031647626 -0.13704078 0.025982091 1.9255902e-38
-0.029783756 -0.13704078 0.025982091 2.2668585e-38
-0.027919881 -0.13704078 0.025982091 2.3505547e-38
-0.026056007 -0.13704078 0.025982091 2.3508428e-38
-0.024192132 -0.13704078 0.025982091 2.3508432e-38
-0.022328258 -0.13704078 0.025982091 2.3507351e-38
-0.020543387 -0.13543437 0.03198988 2.3509873e-38
-0.018690046 -0.13543437 0.03198988 2.3509514e-38
-0.016736638 -0.13704078 0.025982091 2.3137133e-38
-0.014872762 -0.13704078 0.025982091 2.3508079e-38
-0.01300889 -0.13704078 0.025982091 2.3505561e-38
-0.011145015 -0.13704078 0.025982091 1.8887858e-38
-0.0091854362 -0.13812189 0.021938751 1.8608749e-38
-0.0073144725 -0.13812189 0.021938751 1.9805494e-38
-0.0054435087 -0.13812189 0.021938751 1.8419312e-38
-0.0035725469 -0.13812189 0.021938751 1.9060704e-38
-0.0016113939 -0.13890781 0.018999407 1.9243289e-38
0.00026472192 -0.13890781 0.018999407 1.8966339e-38
0.0021408414 -0.13890781 0.018999407 1.8780866e-38
0.0040169572 -0.13890781 0.018999407 1.8319888e-38
0.005893073 -0.13890781 0.018999407 1.8043301e-38
0.0078902831 -0.13972856 0.015929887 1.8043301e-38
0.0099368123 -0.14079951 0.011924574 1.7952548e-38
0.011825337 -0.14079951 0.011924574 1.7217146e-38
0.014023985 -0.1426542 0.0049881428 1.6113684e-38
0.01606562 -0.14346536 0.0019545048 1.6947409e-38
0.018113039 -0.14424954 -0.0009784014 2.3504467e-38
0.02022478 -0.14532293 -0.0049927742 2.3507355e-38
0.02230278 -0.14614908 -0.0080825593 2.3507715e-38
0.024226379 -0.14614908 -0.0080825593 2.1294305e-38
0.026367962 -0.14720438 -0.01202934 2.111099e-38
-0.033511501 -0.13890465 0.025982091 1.8242473e-38
-0.03165555 -0.13809387 0.02899451 2.2671468e-38
-0.02981009 -0.13728772 0.03198988 2.3508431e-38
-0.027956748 -0.13728772 0.03198988 2.3508432e-38
-0.026103407 -0.13728772 0.03198988 2.3508075e-38
-0.024250068 -0.13728772 0.03198988 2.3509876e-38
-0.022396728 -0.13728772 0.03198988 2.3509879e-38
-0.020582553 -0.13648613 0.034968324 2.3326206e-38
-0.018734436 -0.13648613 0.034968324 2.3418045e-38
-0.016836707 -0.13728772 0.03198988 2.3232933e-38
-0.014928223 -0.13809387 0.02899451 2.3414806e-38
-0.013069631 -0.13809387 0.02899451 2.3508445e-38
-0.011145015 -0.13890465 0.025982091 2.3502686e-38
-0.0091854362 -0.13999285 0.021938751 1.8797467e-38
-0.0073144725 -0.13999285 0.021938751 1.5569539e-38
-0.0054435087 -0.13999285 0.021938751 1.8422913e-38
-0.0035725469 -0.13999285 0.021938751 1.9337291e-38
-0.0016113939 -0.14078392 0.018999407 1.9794658e-38
0.00026472192 -0.14078392 0.018999407 1.933368e-38
0.0021408414 -0.14078392 0.018999407 1.88727e-38
0.0040169572 -0.14078392 0.018999407 1.8319527e-38
0.005893073 -0.14078392 0.018999407 1.804294e-38
0.0078902831 -0.14161004 0.015929887 1.8043301e-38
0.0099368123 -0.14268802 0.011924574 1.8044383e-38
0.011825337 -0.14268802 0.011924574 1.6570698e-38
0.014023985 -0.14455487 0.0049881428 1.5005894e-38
0.01606562 -0.14537133 0.0019545048 1.5470119e-38
0.018113039 -0.14616071 -0.0009784014 2.3310352e-38
0.02022478 -0.1472411 -0.0049927742 2.3406875e-38
0.022142965 -0.1472411 -0.0049927742 2.082936e-38
0.024061147 -0.1472411 -0.0049927742 1.6683439e-38
0.026149981 -0.14807267 -0.0080825593 1.5577808e-38
-0.035367496 -0.13833423 0.034968324 1.9347016e-38
-0.03351938 -0.13833423 0.034968324 2.1288896e-38
-0.031671263 -0.13833423 0.034968324 2.3508797e-38
-0.029823143 -0.13833423 0.034968324 2.3509158e-38
-0.027999908 -0.13723589 0.03902287 2.35088e-38
-0.026158899 -0.13723589 0.03902287 2.2864869e-38
-0.02431789 -0.13723589 0.03902287 2.3234376e-38
-0.02247688 -0.13723589 0.03902287 2.295887e-38
-0.020635871 -0.13723589 0.03902287 2.2406775e-38
-0.018794861 -0.13723589 0.03902287 2.2958873e-38
-0.016953852 -0.13723589 0.03902287 2.3234379e-38
-0.015038201 -0.13833423 0.034968324 2.3141103e-38
-0.013130027 -0.13914107 0.03198988 2.3508446e-38
-0.011145015 -0.14076851 0.025982091 2.3508448e-38
-0.0092811408 -0.14076851 0.025982091 2.1936799e-38
-0.0074172681 -0.14076851 0.025982091 1.6956796e-38
-0.0054435087 -0.14186381 0.021938751 1.6490407e-38
-0.0035725469 -0.14186381 0.021938751 1.8876313e-38
-0.0017015832 -0.14186381 0.021938751 1.9793217e-38
0.00016938057 -0.14186381 0.021938751 1.9148568e-38
0.0020403443 -0.14186381 0.021938751 1.868759e-38
0.003911308 -0.14186381 0.021938751 1.8135135e-38
0.0057822717 -0.14186381 0.021938751 1.804294e-38
0.0077691888 -0.14266007 0.018999407 1.8135137e-38
0.009771782 -0.14349155 0.015929887 1.81355e-38
0.011653281 -0.14349155 0.015929887 1.8044027e-38
0.01384776 -0.14538784 0.0089296792 1.6202279e-38
0.01606562 -0.14727734 0.0019545048 1.6205526e-38
0.018113039 -0.14807184 -0.0009784014 2.3031607e-38
0.020024184 -0.14807184 -0.0009784014 2.3127766e-38
0.022142965 -0.1491593 -0.0049927742 2.0274025e-38
0.024061147 -0.1491593 -0.0049927742 1.6221019e-38
0.026149981 -0.1499963 -0.0080825593 1.4747685e-38
-0.035367496 -0.14018236 0.034968324 2.3504108e-38
-0.03351938 -0.14018236 0.034968324 2.3506277e-38
-0.031681925 -0.1390769 0.03902287 2.3509521e-38
-0.029840916 -0.1390769 0.03902287 2.3509883e-38
-0.027999908 -0.1390769 0.03902287 2.31411e-38
-0.026158899 -0.1390769 0.03902287 2.3234379e-38
-0.024346232 -0.13827558 0.041961975 2.3142544e-38
-0.022510376 -0.13827558 0.041961975 2.2591169e-38
-0.020635871 -0.1390769 0.03902287 2.2407138e-38
-0.018794861 -0.1390769 0.03902287 2.2683007e-38
-0.016953852 -0.1390769 0.03902287 2.3142544e-38
-0.015112844 -0.1390769 0.03902287 2.3234379e-38
-0.013190082 -0.14018236 0.034968324 2.2956715e-38
-0.011211037 -0.14181106 0.02899451 2.3508446e-38
-0.0093524447 -0.14181106 0.02899451 2.3508807e-38
-0.0074172681 -0.14263238 0.025982091 2.2399938e-38
-0.0055533936 -0.14263238 0.025982091 1.4740851e-38
-0.0035725469 -0.14373477 0.021938751 1.767777e-38
-0.0017015832 -0.14373477 0.021938751 1.8962738e-38
0.00016938057 -0.14373477 0.021938751 1.8779066e-38
0.0020403443 -0.14373477 0.021938751 1.8318808e-38
0.003911308 -0.14373477 0.021938751 1.7950741e-38
0.0057822717 -0.14373477 0.021938751 1.7950744e-38
0.0077691888 -0.14453618 0.018999407 1.7950745e-38
0.0096453084 -0.14453618 0.018999407 1.7858194e-38
0.011521424 -0.14453618 0.018999407 1.6660372e-38
0.01384776 -0.1472816 0.0089296792 1.5094133e-38
0.01592467 -0.14835624 0.0049881428 1.4728235e-38
0.018113039 -0.14998297 -0.0009784014 1.9802599e-38
0.020024184 -0.14998297 -0.0009784014 1.9529978e-38
-0.035363942 -0.14091791 0.03902287 2.3507714e-38
-0.033522934 -0.14091791 0.03902287 2.3509161e-38
-0.031681925 -0.14091791 0.03902287 2.3417687e-38
-0.029853798 -0.14011143 0.041961975 2.2864516e-38
-0.028017944 -0.14011143 0.041961975 2.3325856e-38
-0.026182089 -0.14011143 0.041961975 2.3234379e-38
-0.024346232 -0.14011143 0.041961975 2.3234379e-38
-0.022510376 -0.14011143 0.041961975 2.2774125e-38
-0.020674519 -0.14011143 0.041961975 2.3142544e-38
-0.018838665 -0.14011143 0.041961975 2.3142544e-38
-0.01700281 -0.14011143 0.041961975 2.1944005e-38
-0.015112844 -0.14091791 0.03902287 2.341805e-38
-0.013190082 -0.14203046 0.034968324 2.341805e-38
-0.011276686 -0.14284773 0.03198988 2.3048189e-38
-0.0094233463 -0.14284773 0.03198988 2.3509883e-38
-0.0074938526 -0.14366965 0.02899451 2.3509524e-38
-0.0055533936 -0.14449625 0.025982091 1.5018877e-38
-0.0036895191 -0.14449625 0.025982091 1.6664697e-38
-0.0018256465 -0.14449625 0.025982091 1.8501761e-38
3.8227998e-05 -0.14449625 0.025982091 1.8594674e-38
0.0020403443 -0.14560573 0.021938751 1.8135135e-38
0.003911308 -0.14560573 0.021938751 1.7859267e-38
0.0057822717 -0.14560573 0.021938751 1.7859267e-38
0.0076532317 -0.14560573 0.021938751 1.7766354e-38
0.0096453084 -0.1464123 0.018999407 1.730502e-38
0.011521424 -0.1464123 0.018999407 1.7120632e-38
0.01384776 -0.14917539 0.0089296792 1.6383432e-38
-0.03904596 -0.14275892 0.03902287 2.3413e-38
-0.037204951 -0.14275892 0.03902287 2.3507716e-38
-0.035363942 -0.14275892 0.03902287 2.3508438e-38
-0.033522934 -0.14275892 0.03902287 2.3416248e-38
-0.031681925 -0.14275892 0.03902287 2.341805e-38
-0.029853798 -0.14194728 0.041961975 2.341805e-38
-0.028017944 -0.14194728 0.041961975 2.3325856e-38
-0.026182089 -0.14194728 0.041961975 2.341805e-38
-0.024375457 -0.14111041 0.044992514 2.3325856e-38
-0.022544913 -0.14111041 0.044992514 2.3325856e-38
-0.020674519 -0.14194728 0.041961975 2.341805e-38
-0.018838665 -0.14194728 0.041961975 2.3509527e-38
-0.01700281 -0.14194728 0.041961975 2.3233302e-38
-0.015112844 -0.14275892 0.03902287 2.3509886e-38
-0.013271836 -0.14275892 0.03902287 2.3048907e-38
-0.011341964 -0.14387859 0.034968324 2.3509883e-38
-0.0094233463 -0.14470108 0.03198988 2.350988e-38
-0.007570005 -0.14470108 0.03198988 2.3140737e-38
-0.0056352606 -0.14552824 0.02899451 1.5480572e-38
-0.0036895191 -0.14636014 0.025982091 1.6572501e-38
-0.0018256465 -0.14636014 0.025982091 1.8501761e-38
3.8227998e-05 -0.14636014 0.025982091 1.8503199e-38
0.0020403443 -0.14747669 0.021938751 1.804294e-38
0.003911308 -0.14747669 0.021938751 1.7491205e-38
0.0057822717 -0.14747669 0.021938751 1.7491205e-38
0.0076532317 -0.14747669 0.021938751 1.7305736e-38
0.0096453084 -0.14828841 0.018999407 1.6844042e-38
0.011521424 -0.14828841 0.018999407 1.6382348e-38
-0.03904596 -0.14459993 0.03902287 2.3230415e-38
-0.037204951 -0.14459993 0.03902287 2.3508444e-38
-0.035361368 -0.14378314 0.041961975 2.3506644e-38
-0.033525512 -0.14378314 0.041961975 2.3139664e-38
-0.031689655 -0.14378314 0.041961975 2.3509886e-38
-0.029853798 -0.14378314 0.041961975 2.3509886e-38
-0.028036542 -0.14294095 0.044992514 2.3232583e-38
-0.026205998 -0.14294095 0.044992514 2.3416974e-38
-0.024375457 -0.14294095 0.044992514 2.3508809e-38
-0.022544913 -0.14294095 0.044992514 2.3508451e-38
-0.020674519 -0.14378314 0.041961975 2.3509168e-38
-0.018838665 -0.14378314 0.041961975 2.3415535e-38
-0.01700281 -0.14378314 0.041961975 2.3509527e-38
-0.015112844 -0.14459993 0.03902287 2.3509527e-38
-0.013271836 -0.14459993 0.03902287 2.2770879e-38
-0.011341964 -0.1457267 0.034968324 2.3509521e-38
-0.0094233463 -0.14655443 0.03198988 2.3509879e-38
-0.007570005 -0.14655443 0.03198988 2.3417323e-38
-0.0056352606 -0.14738683 0.02899451 1.6310688e-38
-0.0036895191 -0.14822401 0.025982091 1.6480306e-38
-0.0018256465 -0.14822401 0.025982091 1.8409566e-38
3.8227998e-05 -0.14822401 0.025982091 1.8226613e-38
0.0020403443 -0.14934768 0.021938751 1.7490127e-38
0.003911308 -0.14934768 0.021938751 1.7030228e-38
0.0057822717 -0.14934768 0.021938751 1.721462e-38
-0.03904596 -0.14644094 0.03902287 2.3507725e-38
-0.037204951 -0.14644094 0.03902287 2.3508807e-38
-0.035361368 -0.14561899 0.041961975 2.3508448e-38
-0.033525512 -0.14561899 0.041961975 2.341805e-38
-0.031689655 -0.14561899 0.041961975 2.3142544e-38
-0.029853798 -0.14561899 0.041961975 2.2772684e-38
-0.028036542 -0.1447715 0.044992514 2.3141106e-38
-0.026205998 -0.1447715 0.044992514 2.3509168e-38
-0.024404513 -0.14392884 0.048005648 2.3508809e-38
-0.022579253 -0.14392884 0.048005648 2.3507732e-38
-0.020714372 -0.1447715 0.044992514 2.3508449e-38
-0.01888383 -0.1447715 0.044992514 2.3508809e-38
-0.017053287 -0.1447715 0.044992514 2.3046747e-38
-0.015166952 -0.14561899 0.041961975 2.3509164e-38
-0.013271836 -0.14644094 0.03902287 2.350988e-38
-0.011341964 -0.14757483 0.034968324 2.3509879e-38
-0.0094938455 -0.14757483 0.034968324 2.2773391e-38
-0.0076457271 -0.14757483 0.034968324 2.341804e-38
-0.0057166656 -0.14840777 0.03198988 1.7787257e-38
-0.03904596 -0.14828195 0.03902287 2.3416251e-38
-0.037197221 -0.14745484 0.041961975 2.3509168e-38
-0.035361368 -0.14745484 0.041961975 2.3325494e-38
-0.033525512 -0.14745484 0.041961975 2.2591531e-38
-0.031689655 -0.14745484 0.041961975 2.2316024e-38
-0.029853798 -0.14745484 0.041961975 2.2775202e-38
-0.028036542 -0.14660202 0.044992514 2.3234379e-38
-0.026205998 -0.14660202 0.044992514 2.3509168e-38
-0.024404513 -0.14575411 0.048005648 2.3508809e-38
-0.022579253 -0.14575411 0.048005648 2.3508451e-38
-0.020714372 -0.14660202 0.044992514 2.3508451e-38
-0.01888383 -0.14660202 0.044992514 2.3507009e-38
-0.017053287 -0.14660202 0.044992514 2.3509524e-38
-0.015222746 -0.14660202 0.044992514 2.3509883e-38
-0.013331098 -0.14745484 0.041961975 2.2774832e-38
-0.011430825 -0.14828195 0.03902287 2.2867029e-38
-0.0094938455 -0.14942293 0.034968324 2.2683358e-38
-0.0076457271 -0.14942293 0.034968324 2.2683355e-38
-0.037197221 -0.14929073 0.041961975 2.3508085e-38
-0.035361368 -0.14929073 0.041961975 2.3509883e-38
-0.033525512 -0.14929073 0.041961975 2.2591531e-38
-0.031689655 -0.14929073 0.041961975 2.2316024e-38
-0.029853798 -0.14929073 0.041961975 2.2867037e-38
-0.028036542 -0.14843257 0.044992514 2.3234379e-38
-0.026205998 -0.14843257 0.044992514 2.3509168e-38
-0.024404513 -0.14757936 0.048005648 2.3508451e-38
-0.022579253 -0.14757936 0.048005648 2.3508092e-38
-0.020714372 -0.14843257 0.044992514 2.3508451e-38
-0.01888383 -0.14843257 0.044992514 2.3509168e-38
-0.017053287 -0.14843257 0.044992514 2.2310979e-38
-0.015222746 -0.14843257 0.044992514 2.2680478e-38
-0.013331098 -0.14929073 0.041961975 2.3234374e-38
-0.011495241 -0.14929073 0.041961975 2.3142537e-38
-0.024404513 -0.14940463 0.048005648 2.3508092e-38
-0.022579253 -0.14940463 0.048005648 2.3508451e-38
-0.018928736 -0.14940463 0.048005648 2.3509168e-38
-0.017103475 -0.14940463 0.048005648 2.3324775e-38
