# .PCD v0.7 - Point Cloud Data file format
VERSION 0.7
FIELDS x y z rgb
SIZE 4 4 4 4
TYPE F F F F
COUNT 1 1 1 1
WIDTH 883
HEIGHT 1
VIEWPOINT 0 0 0 1 0 0 0
POINTS 883
DATA ascii
0.0097544268 -0.12033533 -0.03111171 1.8899737e-38
0.011728857 -0.12033533 -0.03111171 2.2680478e-38
0.016075775 -0.12222783 -0.039077632 2.3509886e-38
0.017854162 -0.12126322 -0.035017364 2.3509527e-38
0.019835439 -0.12126322 -0.035017364 2.341805e-38
0.0032783933 -0.11895646 -0.017100565 1.2077616e-38
0.0052282587 -0.11895646 -0.017100565 1.6410455e-38
0.007178124 -0.11895646 -0.017100565 2.2771953e-38
0.0091279857 -0.11895646 -0.017100565 2.350988e-38
0.011404194 -0.12063743 -0.024124257 2.3509883e-38
0.015677717 -0.12230973 -0.03111171 2.3509886e-38
0.017652147 -0.12230973 -0.03111171 2.3141106e-38
0.019626576 -0.12230973 -0.03111171 2.3048554e-38
0.026017763 -0.12421621 -0.039077632 2.3509879e-38
0.02776055 -0.12324448 -0.035017364 2.350988e-38
0.029741831 -0.12324448 -0.035017364 2.3509886e-38
0.031723112 -0.12324448 -0.035017364 2.3509527e-38
0.033704385 -0.12324448 -0.035017364 2.3509168e-38
0.035685666 -0.12324448 -0.035017364 2.3417333e-38
0.0011767522 -0.11993565 -0.01307427 2.3508432e-38
0.0031195581 -0.11993565 -0.01307427 2.3509873e-38
0.0050623603 -0.11993565 -0.01307427 2.3509876e-38
0.0070051663 -0.11993565 -0.01307427 2.350952e-38
0.0089479722 -0.11993565 -0.01307427 2.3325131e-38
0.011404194 -0.12259962 -0.024124257 2.2495734e-38
0.013366375 -0.12259962 -0.024124257 2.2495736e-38
0.015677717 -0.12428416 -0.03111171 2.3509886e-38
0.017652147 -0.12428416 -0.03111171 2.3509886e-38
0.019626576 -0.12428416 -0.03111171 2.3509886e-38
0.021601006 -0.12428416 -0.03111171 2.3509883e-38
0.02357544 -0.12428416 -0.03111171 2.3509521e-38
0.025549866 -0.12428416 -0.03111171 2.3509879e-38
0.0275243 -0.12428416 -0.03111171 2.3509524e-38
0.029498726 -0.12428416 -0.03111171 2.3509527e-38
0.03147316 -0.12428416 -0.03111171 2.3509527e-38
0.033447593 -0.12428416 -0.03111171 2.3417691e-38
0.03542202 -0.12428416 -0.03111171 2.323402e-38
0.037396453 -0.12428416 -0.03111171 2.3142544e-38
0.03937088 -0.12428416 -0.03111171 2.2590813e-38
-0.012881953 -0.11749353 0.0049828375 2.3507009e-38
-0.010970809 -0.11749353 0.0049828375 2.350737e-38
-0.0090596639 -0.11749353 0.0049828375 2.2490336e-38
-0.0071485192 -0.11749353 0.0049828375 2.3508445e-38
-0.004651662 -0.12187846 -0.01307427 2.3508441e-38
-0.002708856 -0.12187846 -0.01307427 2.3507716e-38
-0.0007660538 -0.12187846 -0.01307427 2.350951e-38
0.0011767522 -0.12187846 -0.01307427 2.3509869e-38
0.0031195581 -0.12187846 -0.01307427 2.3231846e-38
0.0050623603 -0.12187846 -0.01307427 2.277123e-38
0.0070051663 -0.12187846 -0.01307427 2.350988e-38
0.0089479722 -0.12187846 -0.01307427 2.3509527e-38
0.011077851 -0.12285618 -0.017100565 2.3509886e-38
0.01355838 -0.12552883 -0.028106444 2.3509886e-38
0.015527543 -0.12552883 -0.028106444 2.3509886e-38
0.017496705 -0.12552883 -0.028106444 2.3509886e-38
0.019465864 -0.12552883 -0.028106444 2.3048905e-38
0.021435026 -0.12552883 -0.028106444 2.350952e-38
0.023404188 -0.12552883 -0.028106444 2.3509521e-38
0.025373347 -0.12552883 -0.028106444 2.3509524e-38
0.0275243 -0.1262586 -0.03111171 2.3509524e-38
0.029311672 -0.12552883 -0.028106444 2.3509527e-38
0.031280831 -0.12552883 -0.028106444 2.3509886e-38
0.033447593 -0.1262586 -0.03111171 2.341805e-38
0.03542202 -0.1262586 -0.03111171 2.3234379e-38
0.037396453 -0.1262586 -0.03111171 2.2958873e-38
0.03915748 -0.12552883 -0.028106444 2.2775202e-38
0.041126639 -0.12552883 -0.028106444 2.2316024e-38
-0.012881953 -0.11940466 0.0049828375 2.3508086e-38
-0.010970809 -0.11940466 0.0049828375 2.3413371e-38
-0.0090596639 -0.11940466 0.0049828375 2.350629e-38
-0.0071485192 -0.11940466 0.0049828375 2.3502686e-38
-0.0048789196 -0.12210761 -0.0060681021 2.1658769e-38
-0.0028124787 -0.12307997 -0.010043493 1.7511038e-38
-0.00087498873 -0.12307997 -0.010043493 2.2767626e-38
0.0010625012 -0.12307997 -0.010043493 2.2492116e-38
0.0031195581 -0.12382124 -0.01307427 2.3509511e-38
0.0050623603 -0.12382124 -0.01307427 2.3509517e-38
0.0070051663 -0.12382124 -0.01307427 2.2770879e-38
0.0089479722 -0.12382124 -0.01307427 2.3509527e-38
0.010890774 -0.12382124 -0.01307427 2.3509527e-38
0.013169792 -0.12552677 -0.02004718 2.3417333e-38
0.015328553 -0.12652399 -0.024124257 2.3417691e-38
0.017290734 -0.12652399 -0.024124257 2.3233296e-38
0.019252911 -0.12652399 -0.024124257 2.3325846e-38
0.021215089 -0.12652399 -0.024124257 2.3509879e-38
0.023177266 -0.12652399 -0.024124257 2.3509524e-38
0.025139451 -0.12652399 -0.024124257 2.3509527e-38
0.027342513 -0.12749799 -0.028106444 2.3509527e-38
0.029063806 -0.12652399 -0.024124257 2.3509527e-38
0.031025983 -0.12652399 -0.024124257 2.3509886e-38
0.033249997 -0.12749799 -0.028106444 2.341805e-38
0.035219155 -0.12749799 -0.028106444 2.3234379e-38
0.037188314 -0.12749799 -0.028106444 2.2958873e-38
0.03915748 -0.12749799 -0.028106444 2.2775202e-38
0.041126639 -0.12749799 -0.028106444 2.093417e-38
0.043095794 -0.12749799 -0.028106444 2.2224189e-38
0.045064967 -0.12749799 -0.028106444 2.0568269e-38
0.047034126 -0.12749799 -0.028106444 2.0570429e-38
-0.012779893 -0.12230472 0.00096846465 2.3508802e-38
-0.010861712 -0.12230472 0.00096846465 2.3508445e-38
-0.0089435279 -0.12230472 0.00096846465 2.3507013e-38
-0.0070253462 -0.12230472 0.00096846465 2.3506651e-38
-0.0048789196 -0.12403814 -0.0060681021 2.0090001e-38
-0.0029483996 -0.12403814 -0.0060681021 1.9814848e-38
-0.001017876 -0.12403814 -0.0060681021 1.9815924e-38
0.0010625012 -0.12501745 -0.010043493 2.2952373e-38
0.0031195581 -0.12576406 -0.01307427 2.037198e-38
0.0050623603 -0.12576406 -0.01307427 2.2216617e-38
0.0070051663 -0.12576406 -0.01307427 2.3509524e-38
0.0089479722 -0.12576406 -0.01307427 2.3509527e-38
0.010890774 -0.12576406 -0.01307427 2.295636e-38
0.01283358 -0.12576406 -0.01307427 2.2495382e-38
0.01512482 -0.1274818 -0.02004718 2.3325856e-38
0.017290734 -0.12848614 -0.024124257 2.3418047e-38
0.019034881 -0.1274818 -0.02004718 2.3418043e-38
0.020989913 -0.1274818 -0.02004718 2.3509879e-38
0.022944942 -0.1274818 -0.02004718 2.3509527e-38
0.024899974 -0.1274818 -0.02004718 2.3509527e-38
0.027101628 -0.12848614 -0.024124257 2.3509527e-38
0.029063806 -0.12848614 -0.024124257 2.3509527e-38
0.031025983 -0.12848614 -0.024124257 2.3509883e-38
0.032988168 -0.12848614 -0.024124257 2.3509883e-38
0.034950346 -0.12848614 -0.024124257 2.3418047e-38
0.036912523 -0.12848614 -0.024124257 2.3234376e-38
0.03915748 -0.12946714 -0.028106444 2.2775196e-38
0.041126639 -0.12946714 -0.028106444 2.2867034e-38
0.043095794 -0.12946714 -0.028106444 2.0472828e-38
0.045064967 -0.12946714 -0.028106444 2.2316024e-38
0.046723422 -0.12848614 -0.024124257 2.2132353e-38
-0.016374914 -0.12695493 -0.010043493 2.3507718e-38
-0.014531521 -0.12596865 -0.0060681021 2.3508081e-38
-0.012779893 -0.12422292 0.00096846465 2.35088e-38
-0.010861712 -0.12422292 0.00096846465 2.3508085e-38
-0.0089435279 -0.12422292 0.00096846465 2.350341e-38
-0.0069305412 -0.12498946 -0.0021213209 2.3504492e-38
-0.0048789196 -0.12596865 -0.0060681021 2.2485649e-38
-0.0029483996 -0.12596865 -0.0060681021 1.9905246e-38
-0.001017876 -0.12596865 -0.0060681021 2.2119736e-38
0.0010625012 -0.12695493 -0.010043493 2.3505188e-38
0.0029999912 -0.12695493 -0.010043493 2.3507711e-38
0.0049374849 -0.12695493 -0.010043493 2.3509157e-38
0.0068749748 -0.12695493 -0.010043493 2.277016e-38
0.0088124648 -0.12695493 -0.010043493 2.3509168e-38
0.010749955 -0.12695493 -0.010043493 2.3509168e-38
0.01283358 -0.12770687 -0.01307427 2.3509527e-38
0.014776386 -0.12770687 -0.01307427 2.341805e-38
0.016927443 -0.12870578 -0.017100565 2.3418047e-38
0.018877309 -0.12870578 -0.017100565 2.3142171e-38
0.02082717 -0.12870578 -0.017100565 2.2865587e-38
0.022777036 -0.12870578 -0.017100565 2.3509527e-38
0.024726897 -0.12870578 -0.017100565 2.3509527e-38
0.026855007 -0.12943684 -0.02004718 2.3509527e-38
0.028810039 -0.12943684 -0.02004718 2.3509886e-38
0.030765064 -0.12943684 -0.02004718 2.350988e-38
0.032720096 -0.12943684 -0.02004718 2.3509879e-38
0.034675129 -0.12943684 -0.02004718 2.3509876e-38
0.036630161 -0.12943684 -0.02004718 2.341804e-38
0.038874701 -0.13044833 -0.024124257 2.341804e-38
0.041126639 -0.1314363 -0.028106444 2.3142535e-38
0.042799067 -0.13044833 -0.024124257 2.1391897e-38
0.044761237 -0.13044833 -0.024124257 2.2867037e-38
0.046723422 -0.13044833 -0.024124257 2.1669937e-38
0.048685592 -0.13044833 -0.024124257 1.9643078e-38
0.051535886 -0.13315089 -0.035017364 1.0607909e-38
-0.018312406 -0.12889244 -0.010043493 2.3505557e-38
-0.016374914 -0.12889244 -0.010043493 2.3508079e-38
-0.014531521 -0.12789918 -0.0060681021 2.3508797e-38
-0.012701342 -0.12691309 -0.0021213209 2.3508797e-38
-0.01077774 -0.12691309 -0.0021213209 2.3507362e-38
-0.0088541396 -0.12691309 -0.0021213209 2.3506293e-38
-0.0069305412 -0.12691309 -0.0021213209 2.3503053e-38
-0.0048789196 -0.12789918 -0.0060681021 2.1377863e-38
-0.0029483996 -0.12789918 -0.0060681021 2.1564044e-38
-0.001017876 -0.12789918 -0.0060681021 2.2026817e-38
0.0010625012 -0.12889244 -0.010043493 2.3508427e-38
0.0029999912 -0.12889244 -0.010043493 2.3507352e-38
0.0049374849 -0.12889244 -0.010043493 2.3509158e-38
0.0068749748 -0.12889244 -0.010043493 1.9173454e-38
0.0088124648 -0.12889244 -0.010043493 2.1756376e-38
0.010749955 -0.12889244 -0.010043493 2.3508809e-38
0.012687448 -0.12889244 -0.010043493 2.3509527e-38
0.014624938 -0.12889244 -0.010043493 2.341805e-38
0.016719189 -0.12964968 -0.01307427 2.332621e-38
0.018661994 -0.12964968 -0.01307427 2.3326203e-38
0.0206048 -0.12964968 -0.01307427 2.3418043e-38
0.022777036 -0.13065563 -0.017100565 2.3234379e-38
0.024726897 -0.13065563 -0.017100565 2.3234379e-38
0.026676767 -0.13065563 -0.017100565 2.341805e-38
0.028626628 -0.13065563 -0.017100565 2.341805e-38
0.03057649 -0.13065563 -0.017100565 2.350988e-38
0.032526359 -0.13065563 -0.017100565 2.3509876e-38
0.034476221 -0.13065563 -0.017100565 2.3509873e-38
0.036426082 -0.13065563 -0.017100565 2.350987e-38
0.038585186 -0.13139187 -0.02004718 2.2864499e-38
0.040836878 -0.13241051 -0.024124257 2.3509873e-38
0.042799067 -0.13241051 -0.024124257 2.1481933e-38
0.044761237 -0.13241051 -0.024124257 2.2403535e-38
0.046723422 -0.13241051 -0.024124257 2.341805e-38
0.049554612 -0.13513215 -0.035017364 2.3234379e-38
0.051535886 -0.13513215 -0.035017364 1.55818e-38
0.053517174 -0.13513215 -0.035017364 6.1796393e-39
-0.018534444 -0.12805928 0.00096846465 2.082576e-38
-0.016548542 -0.12883668 -0.0021213209 2.1195261e-38
-0.014624942 -0.12883668 -0.0021213209 2.1749155e-38
-0.012779893 -0.12805928 0.00096846465 2.2765105e-38
-0.010861712 -0.12805928 0.00096846465 2.3504477e-38
-0.0088541396 -0.12883668 -0.0021213209 2.3500885e-38
-0.0069305412 -0.12883668 -0.0021213209 2.0361193e-38
-0.0050069392 -0.12883668 -0.0021213209 1.9533228e-38
-0.0030833371 -0.12883668 -0.0021213209 2.0919398e-38
-0.001017876 -0.12982969 -0.0060681021 2.3508075e-38
0.00091264397 -0.12982969 -0.0060681021 2.3507714e-38
0.0029999912 -0.13082992 -0.010043493 2.3509158e-38
0.0049374849 -0.13082992 -0.010043493 2.3509161e-38
0.0067042038 -0.12982969 -0.0060681021 2.3231141e-38
0.0086347237 -0.12982969 -0.0060681021 2.3509168e-38
0.010565247 -0.12982969 -0.0060681021 2.3509527e-38
0.012495767 -0.12982969 -0.0060681021 2.3140387e-38
0.014624938 -0.13082992 -0.010043493 2.3233299e-38
0.016562428 -0.13082992 -0.010043493 2.350988e-38
0.018661994 -0.13159247 -0.01307427 2.3418043e-38
0.0206048 -0.13159247 -0.01307427 2.3418045e-38
0.022547603 -0.13159247 -0.01307427 2.3234379e-38
0.024490409 -0.13159247 -0.01307427 2.3142544e-38
0.026676767 -0.13260551 -0.017100565 2.3234379e-38
0.028626628 -0.13260551 -0.017100565 2.341805e-38
0.03057649 -0.13260551 -0.017100565 2.3418045e-38
0.032526359 -0.13260551 -0.017100565 2.3509876e-38
0.034476221 -0.13260551 -0.017100565 2.3509873e-38
0.036426082 -0.13260551 -0.017100565 2.350987e-38
0.038375951 -0.13260551 -0.017100565 2.3509873e-38
0.040540218 -0.13334687 -0.02004718 2.3509873e-38
0.042799067 -0.1343727 -0.024124257 2.3508798e-38
0.044761237 -0.1343727 -0.024124257 2.3509883e-38
0.046723422 -0.1343727 -0.024124257 2.2587213e-38
0.049554612 -0.13711344 -0.035017364 2.3509168e-38
0.051535886 -0.13711344 -0.035017364 2.3509168e-38
0.053517174 -0.13711344 -0.035017364 7.468939e-39
-0.016616261 -0.12997745 0.00096846465 1.8975359e-38
-0.014698077 -0.12997745 0.00096846465 1.9437414e-38
-0.012779893 -0.12997745 0.00096846465 2.2666775e-38
-0.010861712 -0.12997745 0.00096846465 2.35005e-38
-0.0089435279 -0.12997745 0.00096846465 2.350195e-38
-0.0069305412 -0.13076027 -0.0021213209 1.7134335e-38
-0.0050069392 -0.13076027 -0.0021213209 1.4463546e-38
-0.0030833371 -0.13076027 -0.0021213209 2.0459866e-38
-0.001017876 -0.13176022 -0.0060681021 2.3508445e-38
0.00091264397 -0.13176022 -0.0060681021 2.3508807e-38
0.0029999912 -0.13276742 -0.010043493 2.3509886e-38
0.0047736838 -0.13176022 -0.0060681021 2.3325856e-38
0.0067042038 -0.13176022 -0.0060681021 2.3509527e-38
0.0086347237 -0.13176022 -0.0060681021 2.3509521e-38
0.010565247 -0.13176022 -0.0060681021 2.350952e-38
0.012495767 -0.13176022 -0.0060681021 2.350952e-38
0.014624938 -0.13276742 -0.010043493 2.3509521e-38
0.016562428 -0.13276742 -0.010043493 2.350988e-38
0.018499918 -0.13276742 -0.010043493 2.3509883e-38
0.0206048 -0.13353528 -0.01307427 2.341805e-38
0.022547603 -0.13353528 -0.01307427 2.3234379e-38
0.024490409 -0.13353528 -0.01307427 2.3234379e-38
0.026433215 -0.13353528 -0.01307427 2.341805e-38
0.02837602 -0.13353528 -0.01307427 2.3418047e-38
0.030318826 -0.13353528 -0.01307427 2.3418047e-38
0.032261625 -0.13353528 -0.01307427 2.3418045e-38
0.034476221 -0.13455538 -0.017100565 2.350988e-38
0.036426082 -0.13455538 -0.017100565 2.3509879e-38
0.038375951 -0.13455538 -0.017100565 2.3233652e-38
0.040325813 -0.13455538 -0.017100565 2.3418043e-38
0.042495247 -0.1353019 -0.02004718 2.350952e-38
0.044450279 -0.1353019 -0.02004718 2.3509883e-38
0.046405312 -0.1353019 -0.02004718 2.3509527e-38
0.048685592 -0.13633488 -0.024124257 2.3509527e-38
0.050972443 -0.13734378 -0.028106444 2.2679409e-38
0.052941602 -0.13734378 -0.028106444 1.1709212e-38
-0.016704243 -0.13087155 0.0049828375 2.0262853e-38
-0.014793098 -0.13087155 0.0049828375 2.1001494e-38
-0.012881953 -0.13087155 0.0049828375 2.3401455e-38
-0.010970809 -0.13087155 0.0049828375 2.3496534e-38
-0.0090596639 -0.13087155 0.0049828375 2.3493298e-38
-0.0070253462 -0.13189565 0.00096846465 1.5751033e-38
-0.0051071607 -0.13189565 0.00096846465 1.4094763e-38
-0.0031889789 -0.13189565 0.00096846465 2.2304141e-38
-0.0011597387 -0.13268389 -0.0021213209 2.332226e-38
0.00076386333 -0.13268389 -0.0021213209 2.341805e-38
0.0028431639 -0.13369073 -0.0060681021 2.3050708e-38
0.0047736838 -0.13369073 -0.0060681021 2.3142544e-38
0.0067042038 -0.13369073 -0.0060681021 2.341805e-38
0.0086347237 -0.13369073 -0.0060681021 2.3509879e-38
0.010565247 -0.13369073 -0.0060681021 2.3509517e-38
0.012495767 -0.13369073 -0.0060681021 2.3509873e-38
0.014624938 -0.1347049 -0.010043493 2.350952e-38
0.016562428 -0.1347049 -0.010043493 2.3509883e-38
0.018499918 -0.1347049 -0.010043493 2.3509886e-38
0.020437408 -0.1347049 -0.010043493 2.341805e-38
0.022374898 -0.1347049 -0.010043493 2.341805e-38
0.024490409 -0.13547809 -0.01307427 2.3418047e-38
0.026433215 -0.13547809 -0.01307427 2.3509883e-38
0.02837602 -0.13547809 -0.01307427 2.3509883e-38
0.030318826 -0.13547809 -0.01307427 2.3509883e-38
0.032261625 -0.13547809 -0.01307427 2.3418047e-38
0.034204431 -0.13547809 -0.01307427 2.3418047e-38
0.036147237 -0.13547809 -0.01307427 2.3418047e-38
0.038090043 -0.13547809 -0.01307427 2.3509883e-38
0.040325813 -0.13650523 -0.017100565 2.3509883e-38
0.042495247 -0.13725694 -0.02004718 2.3509883e-38
0.044450279 -0.13725694 -0.02004718 2.31411e-38
0.046405312 -0.13725694 -0.02004718 2.31411e-38
0.048360344 -0.13725694 -0.02004718 2.3509883e-38
0.050647777 -0.13829704 -0.024124257 2.3509883e-38
0.052609961 -0.13829704 -0.024124257 1.447508e-38
-0.02439253 -0.13202934 0.0079157436 2.3504819e-38
-0.022486528 -0.13202934 0.0079157436 2.2761128e-38
-0.020636376 -0.1312501 0.010949382 2.0544117e-38
-0.018735692 -0.1312501 0.010949382 2.0448683e-38
-0.016768521 -0.13202934 0.0079157436 2.0446522e-38
-0.014793098 -0.13278268 0.0049828375 2.0908219e-38
-0.012881953 -0.13278268 0.0049828375 2.2755369e-38
-0.010970809 -0.13278268 0.0049828375 2.3217066e-38
-0.0090596639 -0.13278268 0.0049828375 2.2663538e-38
-0.0071485192 -0.13278268 0.0049828375 1.492055e-38
-0.0051071607 -0.13381381 0.00096846465 1.4647214e-38
-0.0031889789 -0.13381381 0.00096846465 2.2027191e-38
-0.0012707934 -0.13381381 0.00096846465 2.350665e-38
0.0006473884 -0.13381381 0.00096846465 2.3325138e-38
0.0025655702 -0.13381381 0.00096846465 2.3049991e-38
0.0046110637 -0.13460748 -0.0021213209 2.3142544e-38
0.0065346658 -0.13460748 -0.0021213209 2.341805e-38
0.0084582642 -0.13460748 -0.0021213209 2.350988e-38
0.010565247 -0.13562126 -0.0060681021 2.3509879e-38
0.012495767 -0.13562126 -0.0060681021 2.3509879e-38
0.014624938 -0.13664238 -0.010043493 2.3509524e-38
0.016562428 -0.13664238 -0.010043493 2.3509886e-38
0.018499918 -0.13664238 -0.010043493 2.341805e-38
0.020437408 -0.13664238 -0.010043493 2.3234379e-38
0.022374898 -0.13664238 -0.010043493 2.3509886e-38
0.024312392 -0.13664238 -0.010043493 2.3509527e-38
0.026249886 -0.13664238 -0.010043493 2.3509527e-38
0.02837602 -0.13742088 -0.01307427 2.3509527e-38
0.030318826 -0.13742088 -0.01307427 2.3509527e-38
0.032261625 -0.13742088 -0.01307427 2.3509886e-38
0.034204431 -0.13742088 -0.01307427 2.3509883e-38
0.036147237 -0.13742088 -0.01307427 2.3509883e-38
0.038090043 -0.13742088 -0.01307427 2.2588645e-38
0.040325813 -0.13845511 -0.017100565 2.3049624e-38
0.042275675 -0.13845511 -0.017100565 2.3418045e-38
0.04422554 -0.13845511 -0.017100565 2.3049621e-38
0.046175402 -0.13845511 -0.017100565 2.2865229e-38
0.048360344 -0.13921197 -0.02004718 2.3326208e-38
0.050315376 -0.13921197 -0.02004718 2.3234374e-38
0.052609961 -0.14025922 -0.024124257 1.6227873e-38
-0.026259966 -0.13469382 0.0049828375 2.146787e-38
-0.02439253 -0.13393532 0.0079157436 2.082358e-38
-0.022486528 -0.13393532 0.0079157436 2.0453718e-38
-0.020636376 -0.13315077 0.010949382 2.0173173e-38
-0.018735692 -0.13315077 0.010949382 2.1000415e-38
-0.016835008 -0.13315077 0.010949382 2.090714e-38
-0.014862519 -0.13393532 0.0079157436 2.155287e-38
-0.012956517 -0.13393532 0.0079157436 2.3493296e-38
-0.011050515 -0.13393532 0.0079157436 2.3497619e-38
-0.0091445111 -0.13393532 0.0079157436 2.2570623e-38
-0.007238511 -0.13393532 0.0079157436 1.5288613e-38
-0.0052373745 -0.13469382 0.0049828375 1.5108189e-38
-0.0031889789 -0.13573201 0.00096846465 1.8246089e-38
-0.0012707934 -0.13573201 0.00096846465 2.3508448e-38
0.0006473884 -0.13573201 0.00096846465 2.3509527e-38
0.0025655702 -0.13573201 0.00096846465 2.341805e-38
0.0046110637 -0.13653107 -0.0021213209 2.2589374e-38
0.0065346658 -0.13653107 -0.0021213209 2.3234379e-38
0.0084582642 -0.13653107 -0.0021213209 2.3418047e-38
0.010381866 -0.13653107 -0.0021213209 2.350988e-38
0.012305465 -0.13653107 -0.0021213209 2.350988e-38
0.014426287 -0.1375518 -0.0060681021 2.3509527e-38
0.016356807 -0.1375518 -0.0060681021 2.341805e-38
0.018287327 -0.1375518 -0.0060681021 2.3234379e-38
0.020217851 -0.1375518 -0.0060681021 2.3234379e-38
0.022374898 -0.13857989 -0.010043493 2.3509527e-38
0.024312392 -0.13857989 -0.010043493 2.3509168e-38
0.026249886 -0.13857989 -0.010043493 2.3509168e-38
0.028187372 -0.13857989 -0.010043493 2.3509527e-38
0.030124865 -0.13857989 -0.010043493 2.3509527e-38
0.032261625 -0.13936369 -0.01307427 2.3509527e-38
0.034204431 -0.13936369 -0.01307427 2.3509527e-38
0.036147237 -0.13936369 -0.01307427 2.3509883e-38
0.038090043 -0.13936369 -0.01307427 2.3417687e-38
0.040325813 -0.14040495 -0.017100565 2.3049621e-38
0.042275675 -0.14040495 -0.017100565 2.3418045e-38
0.04422554 -0.14040495 -0.017100565 2.3234374e-38
0.046175402 -0.14040495 -0.017100565 2.3234374e-38
0.048360344 -0.141167 -0.02004718 2.3234372e-38
0.050315376 -0.141167 -0.02004718 2.3142538e-38
0.052270409 -0.141167 -0.02004718 1.8901543e-38
0.054225426 -0.141167 -0.02004718 1.226203e-38
-0.049060293 -0.13220255 0.021891125 1.4382515e-38
-0.047178797 -0.13220255 0.021891125 1.5857283e-38
-0.026259966 -0.13660498 0.0049828375 2.0542671e-38
-0.02439253 -0.13584132 0.0079157436 1.9068257e-38
-0.022537058 -0.13505147 0.010949382 1.9621071e-38
-0.020708939 -0.1340252 0.014890918 2.0815661e-38
-0.018815167 -0.1340252 0.014890918 2.256558e-38
-0.016921394 -0.1340252 0.014890918 2.2657778e-38
-0.015027622 -0.1340252 0.014890918 2.2474466e-38
-0.01313385 -0.1340252 0.014890918 2.3490779e-38
-0.011240076 -0.1340252 0.014890918 2.2939046e-38
-0.0093463045 -0.1340252 0.014890918 2.1002937e-38
-0.0073315911 -0.13505147 0.010949382 1.6948135e-38
-0.0053325072 -0.13584132 0.0079157436 1.5475532e-38
-0.0034265071 -0.13584132 0.0079157436 1.4650096e-38
-0.0015205033 -0.13584132 0.0079157436 2.295167e-38
0.00049605966 -0.13660498 0.0049828375 2.3509168e-38
0.0024072044 -0.13660498 0.0049828375 2.341805e-38
0.0044837557 -0.13765021 0.00096846465 2.3234379e-38
0.0064019375 -0.13765021 0.00096846465 2.3234379e-38
0.0083201192 -0.13765021 0.00096846465 2.341805e-38
0.010381866 -0.13845469 -0.0021213209 2.341805e-38
0.012305465 -0.13845469 -0.0021213209 2.341805e-38
0.014426287 -0.1394823 -0.0060681021 2.341805e-38
0.016356807 -0.1394823 -0.0060681021 2.3234379e-38
0.018287327 -0.1394823 -0.0060681021 2.3142544e-38
0.020217851 -0.1394823 -0.0060681021 2.3234379e-38
0.022148371 -0.1394823 -0.0060681021 2.3509168e-38
0.024312392 -0.14051737 -0.010043493 2.3508809e-38
0.026249886 -0.14051737 -0.010043493 2.3508809e-38
0.027939931 -0.1394823 -0.0060681021 2.3509168e-38
0.02987045 -0.1394823 -0.0060681021 2.3509168e-38
0.032062352 -0.14051737 -0.010043493 2.3509527e-38
0.033999845 -0.14051737 -0.010043493 2.3509527e-38
0.036147237 -0.1413065 -0.01307427 2.3509883e-38
0.038090043 -0.1413065 -0.01307427 2.3509883e-38
0.040032849 -0.1413065 -0.01307427 2.2588643e-38
0.042275675 -0.14235483 -0.017100565 2.3049621e-38
0.044450279 -0.14312203 -0.02004718 2.3234369e-38
0.046405312 -0.14312203 -0.02004718 2.3234372e-38
0.048360344 -0.14312203 -0.02004718 2.2866663e-38
0.050315376 -0.14312203 -0.02004718 2.3142537e-38
0.052270409 -0.14312203 -0.02004718 2.1022396e-38
0.054225426 -0.14312203 -0.02004718 1.5027172e-38
-0.049060293 -0.13408406 0.021891125 2.3509883e-38
-0.047178797 -0.13408406 0.021891125 2.350988e-38
-0.045297295 -0.13408406 0.021891125 2.3508441e-38
-0.026298532 -0.13774733 0.0079157436 2.1000767e-38
-0.024437742 -0.13695215 0.010949382 2.0908927e-38
-0.022602711 -0.13591899 0.014890918 2.1276991e-38
-0.020708939 -0.13591899 0.014890918 2.2288629e-38
-0.018875554 -0.13513394 0.017885812 2.3490056e-38
-0.016987031 -0.13513394 0.017885812 2.3492219e-38
-0.01509851 -0.13513394 0.017885812 2.348862e-38
-0.01313385 -0.13591899 0.014890918 2.2382635e-38
-0.011321468 -0.13513394 0.017885812 1.9526009e-38
-0.0094329473 -0.13513394 0.017885812 1.9526728e-38
-0.0074525326 -0.13591899 0.014890918 1.952817e-38
-0.0054309107 -0.13695215 0.010949382 1.648932e-38
-0.0035302266 -0.13695215 0.010949382 1.4464264e-38
-0.0015205033 -0.13774733 0.0079157436 1.8801423e-38
0.00038550049 -0.13774733 0.0079157436 2.3508807e-38
0.0022915006 -0.13774733 0.0079157436 2.2955993e-38
0.0043183491 -0.13851611 0.0049828375 2.341805e-38
0.0064019375 -0.13956837 0.00096846465 2.3234379e-38
0.0083201192 -0.13956837 0.00096846465 2.3234379e-38
0.010238305 -0.13956837 0.00096846465 2.3234379e-38
0.012305465 -0.14037828 -0.0021213209 2.3234379e-38
0.014229067 -0.14037828 -0.0021213209 2.3234379e-38
0.016356807 -0.14141284 -0.0060681021 2.3142544e-38
0.018287327 -0.14141284 -0.0060681021 2.3142544e-38
0.020217851 -0.14141284 -0.0060681021 2.3234379e-38
0.022148371 -0.14141284 -0.0060681021 2.3509168e-38
0.024078891 -0.14141284 -0.0060681021 2.3509168e-38
0.026009411 -0.14141284 -0.0060681021 2.3509168e-38
0.027939931 -0.14141284 -0.0060681021 2.3509168e-38
0.02987045 -0.14141284 -0.0060681021 2.3509168e-38
0.032062352 -0.14245488 -0.010043493 2.3509527e-38
0.033999845 -0.14245488 -0.010043493 2.3509527e-38
0.036147237 -0.14324932 -0.01307427 2.3509883e-38
0.038090043 -0.14324932 -0.01307427 2.350988e-38
0.040032849 -0.14324932 -0.01307427 2.2771953e-38
0.042275675 -0.14430468 -0.017100565 2.3509879e-38
0.04422554 -0.14430468 -0.017100565 2.3509876e-38
0.046175402 -0.14430468 -0.017100565 2.3509876e-38
0.048360344 -0.14507706 -0.02004718 2.3509873e-38
0.050315376 -0.14507706 -0.02004718 2.341804e-38
0.052270409 -0.14507706 -0.02004718 2.1481931e-38
0.054225426 -0.14507706 -0.02004718 1.7791596e-38
-0.060423024 -0.13702248 0.017885812 1.3001026e-38
-0.058534503 -0.13702248 0.017885812 1.8071785e-38
-0.056645982 -0.13702248 0.017885812 2.2497173e-38
-0.054757461 -0.13702248 0.017885812 2.3050347e-38
-0.05286894 -0.13702248 0.017885812 2.3050347e-38
-0.050980419 -0.13702248 0.017885812 2.3141819e-38
-0.049091898 -0.13702248 0.017885812 2.3048905e-38
-0.047178797 -0.13596557 0.021891125 2.3325131e-38
-0.045297295 -0.13596557 0.021891125 2.3509524e-38
-0.0434158 -0.13596557 0.021891125 2.3509521e-38
-0.04153781 -0.13702248 0.017885812 2.3509521e-38
-0.039649289 -0.13702248 0.017885812 2.3509883e-38
-0.037760768 -0.13702248 0.017885812 2.2861632e-38
-0.032040477 -0.13885282 0.010949382 2.1740512e-38
-0.030139793 -0.13885282 0.010949382 1.9340897e-38
-0.028284028 -0.13781275 0.014890918 1.9339809e-38
-0.026390256 -0.13781275 0.014890918 2.0629461e-38
-0.024437742 -0.13885282 0.010949382 2.0352871e-38
-0.022602711 -0.13781275 0.014890918 2.0720933e-38
-0.020708939 -0.13781275 0.014890918 2.1642173e-38
-0.018875554 -0.13702248 0.017885812 2.3488251e-38
-0.016987031 -0.13702248 0.017885812 2.3492577e-38
-0.01509851 -0.13702248 0.017885812 2.3490422e-38
-0.013209989 -0.13702248 0.017885812 2.3118402e-38
-0.011321468 -0.13702248 0.017885812 2.0077025e-38
-0.0094329473 -0.13702248 0.017885812 1.9617126e-38
-0.0075444244 -0.13702248 0.017885812 1.9988786e-38
-0.005558759 -0.13781275 0.014890918 1.8515823e-38
-0.0036649853 -0.13781275 0.014890918 1.5753558e-38
-0.0016295426 -0.13885282 0.010949382 1.6402173e-38
0.00027114153 -0.13885282 0.010949382 2.3506283e-38
0.0021718256 -0.13885282 0.010949382 2.3415529e-38
0.0041975044 -0.13965334 0.0079157436 2.3509886e-38
0.0062294938 -0.14042725 0.0049828375 2.3234379e-38
0.0083201192 -0.14148657 0.00096846465 2.3142544e-38
0.010238305 -0.14148657 0.00096846465 2.3142544e-38
0.012156487 -0.14148657 0.00096846465 2.3142544e-38
0.014229067 -0.14230187 -0.0021213209 2.3142544e-38
0.016356807 -0.14334334 -0.0060681021 2.3142544e-38
0.018287327 -0.14334334 -0.0060681021 2.3142544e-38
0.020217851 -0.14334334 -0.0060681021 2.3234379e-38
0.022148371 -0.14334334 -0.0060681021 2.341805e-38
0.024078891 -0.14334334 -0.0060681021 2.3509527e-38
0.026009411 -0.14334334 -0.0060681021 2.3509527e-38
0.027939931 -0.14334334 -0.0060681021 2.3509527e-38
0.02987045 -0.14334334 -0.0060681021 2.3509527e-38
0.03180097 -0.14334334 -0.0060681021 2.3509527e-38
0.033999845 -0.14439236 -0.010043493 2.3509527e-38
0.036147237 -0.1451921 -0.01307427 2.3509524e-38
0.038090043 -0.1451921 -0.01307427 2.3509521e-38
0.040032849 -0.1451921 -0.01307427 2.3509879e-38
0.042275675 -0.14625455 -0.017100565 2.350952e-38
0.04422554 -0.14625455 -0.017100565 2.2954903e-38
0.046175402 -0.14625455 -0.017100565 2.2955259e-38
0.048125263 -0.14625455 -0.017100565 2.350915e-38
0.05007514 -0.14625455 -0.017100565 2.3509513e-38
0.052270409 -0.1470321 -0.02004718 2.1571245e-38
0.054225426 -0.1470321 -0.02004718 1.8620269e-38
-0.060423024 -0.13891099 0.017885812 2.341805e-38
-0.058467787 -0.13784705 0.021891125 2.341805e-38
-0.056586292 -0.13784705 0.021891125 2.3234379e-38
-0.054704789 -0.13784705 0.021891125 2.3050347e-38
-0.05282329 -0.13784705 0.021891125 2.3234379e-38
-0.050941791 -0.13784705 0.021891125 2.341805e-38
-0.049060293 -0.13784705 0.021891125 2.332621e-38
-0.047178797 -0.13784705 0.021891125 2.3417687e-38
-0.045297295 -0.13784705 0.021891125 2.3509883e-38
-0.0434158 -0.13784705 0.021891125 2.3509521e-38
-0.041534297 -0.13784705 0.021891125 2.3048545e-38
-0.039652802 -0.13784705 0.021891125 2.2773765e-38
-0.037771299 -0.13784705 0.021891125 2.3509527e-38
-0.035872247 -0.13891099 0.017885812 2.3505924e-38
-0.032071576 -0.13970654 0.014890918 2.0267543e-38
-0.030177802 -0.13970654 0.014890918 1.9801875e-38
-0.028284028 -0.13970654 0.014890918 2.0444716e-38
-0.026390256 -0.13970654 0.014890918 2.0074126e-38
-0.024496485 -0.13970654 0.014890918 2.0073402e-38
-0.022602711 -0.13970654 0.014890918 2.0625856e-38
-0.020708939 -0.13970654 0.014890918 2.1086836e-38
-0.018875554 -0.13891099 0.017885812 2.2746723e-38
-0.016987031 -0.13891099 0.017885812 2.3024036e-38
-0.01509851 -0.13891099 0.017885812 2.2655618e-38
-0.013209989 -0.13891099 0.017885812 2.2470875e-38
-0.011321468 -0.13891099 0.017885812 2.0167782e-38
-0.0094329473 -0.13891099 0.017885812 1.9892633e-38
-0.0075444244 -0.13891099 0.017885812 1.8604411e-38
-0.0056559034 -0.13891099 0.017885812 1.9897672e-38
-0.0036649853 -0.13970654 0.014890918 1.648932e-38
-0.0017712153 -0.13970654 0.014890918 1.6861348e-38
0.00012255833 -0.13970654 0.014890918 2.3504835e-38
0.0021718256 -0.14075352 0.010949382 2.3508802e-38
0.0041975044 -0.14155935 0.0079157436 2.3416245e-38
0.0062294938 -0.14233841 0.0049828375 2.341805e-38
0.0081406385 -0.14233841 0.0049828375 2.3142544e-38
0.010238305 -0.14340474 0.00096846465 2.3142544e-38
0.012156487 -0.14340474 0.00096846465 2.3142544e-38
0.014074668 -0.14340474 0.00096846465 2.3142544e-38
0.016152669 -0.14422549 -0.0021213209 2.3234379e-38
0.018076267 -0.14422549 -0.0021213209 2.3234379e-38
0.019999869 -0.14422549 -0.0021213209 2.3234379e-38
0.021923468 -0.14422549 -0.0021213209 2.3234379e-38
0.024078891 -0.14527388 -0.0060681021 2.3234379e-38
0.026009411 -0.14527388 -0.0060681021 2.341805e-38
0.027939931 -0.14527388 -0.0060681021 2.341805e-38
0.02987045 -0.14527388 -0.0060681021 2.3509886e-38
0.03180097 -0.14527388 -0.0060681021 2.3509886e-38
0.033999845 -0.14632986 -0.010043493 2.3509524e-38
0.036147237 -0.14713491 -0.01307427 2.3509521e-38
0.038090043 -0.14713491 -0.01307427 2.3508081e-38
0.040032849 -0.14713491 -0.01307427 2.3509157e-38
0.041975655 -0.14713491 -0.01307427 2.3322246e-38
0.04422554 -0.14820443 -0.017100565 1.8250765e-38
0.046175402 -0.14820443 -0.017100565 1.7881259e-38
0.048125263 -0.14820443 -0.017100565 2.0554931e-38
0.05007514 -0.14820443 -0.017100565 2.2305931e-38
0.052270409 -0.14898713 -0.02004718 2.0278346e-38
0.054225426 -0.14898713 -0.02004718 1.7882338e-38
-0.067977116 -0.14079951 0.017885812 9.8631415e-39
-0.066088587 -0.14079951 0.017885812 9.8638618e-39
-0.064200073 -0.14079951 0.017885812 2.3509168e-38
-0.062311545 -0.14079951 0.017885812 2.2864163e-38
-0.060423024 -0.14079951 0.017885812 2.3325856e-38
-0.058467787 -0.13972856 0.021891125 2.341805e-38
-0.056586292 -0.13972856 0.021891125 2.341805e-38
-0.054704789 -0.13972856 0.021891125 2.341805e-38
-0.05282329 -0.13972856 0.021891125 2.341805e-38
-0.050912194 -0.13890781 0.024960645 2.341805e-38
-0.049036074 -0.13890781 0.024960645 2.341805e-38
-0.047159959 -0.13890781 0.024960645 2.3509883e-38
-0.045283843 -0.13890781 0.024960645 2.3509883e-38
-0.043407723 -0.13890781 0.024960645 2.3509883e-38
-0.041534297 -0.13972856 0.021891125 2.3509886e-38
-0.039652802 -0.13972856 0.021891125 2.2774125e-38
-0.037771299 -0.13972856 0.021891125 2.341805e-38
-0.035872247 -0.14079951 0.017885812 2.3508091e-38
-0.033983722 -0.14079951 0.017885812 2.1196349e-38
-0.032071576 -0.1416003 0.014890918 2.0822157e-38
-0.030177802 -0.1416003 0.014890918 1.9157584e-38
-0.028284028 -0.1416003 0.014890918 1.9705709e-38
-0.026390256 -0.1416003 0.014890918 1.9702823e-38
-0.024496485 -0.1416003 0.014890918 2.0070881e-38
-0.022602711 -0.1416003 0.014890918 1.9794291e-38
-0.020708939 -0.1416003 0.014890918 1.9703177e-38
-0.018875554 -0.14079951 0.017885812 2.0441467e-38
-0.016987031 -0.14079951 0.017885812 2.1457066e-38
-0.01509851 -0.14079951 0.017885812 2.2194277e-38
-0.013209989 -0.14079951 0.017885812 2.2008456e-38
-0.011430319 -0.13972856 0.021891125 2.1180493e-38
-0.0095488206 -0.13972856 0.021891125 1.9891191e-38
-0.0075444244 -0.14079951 0.017885812 1.9985544e-38
-0.0056559034 -0.14079951 0.017885812 1.9895509e-38
-0.0036649853 -0.1416003 0.014890918 1.6671545e-38
-0.0017712153 -0.1416003 0.014890918 1.6674071e-38
0.00012255833 -0.1416003 0.014890918 2.3507352e-38
0.0021718256 -0.1426542 0.010949382 2.3505554e-38
0.004072506 -0.1426542 0.010949382 2.3509517e-38
0.0062294938 -0.14424954 0.0049828375 2.3509883e-38
0.0081406385 -0.14424954 0.0049828375 2.341805e-38
0.010238305 -0.14532293 0.00096846465 2.3142544e-38
0.012156487 -0.14532293 0.00096846465 2.3142544e-38
0.014074668 -0.14532293 0.00096846465 2.3234379e-38
0.016152669 -0.14614908 -0.0021213209 2.341805e-38
0.018076267 -0.14614908 -0.0021213209 2.3509886e-38
0.019999869 -0.14614908 -0.0021213209 2.3233662e-38
0.021923468 -0.14614908 -0.0021213209 2.2958873e-38
0.023847066 -0.14614908 -0.0021213209 2.2498973e-38
0.025770672 -0.14614908 -0.0021213209 2.3142544e-38
0.02769427 -0.14614908 -0.0021213209 2.2865955e-38
0.029617868 -0.14614908 -0.0021213209 2.3234018e-38
0.031541474 -0.14614908 -0.0021213209 2.3509883e-38
0.033999845 -0.14826734 -0.010043493 2.3508441e-38
0.035937339 -0.14826734 -0.010043493 2.3509161e-38
0.037874825 -0.14826734 -0.010043493 2.3508438e-38
0.040032849 -0.14907773 -0.01307427 2.3508797e-38
0.041975655 -0.14907773 -0.01307427 2.3506637e-38
0.043918457 -0.14907773 -0.01307427 1.5850797e-38
-0.072042584 -0.14537133 0.0079157436 1.2169456e-38
-0.069947019 -0.14349405 0.014890918 1.0877289e-38
-0.067977116 -0.14268802 0.017885812 1.1061683e-38
-0.066088587 -0.14268802 0.017885812 1.2629731e-38
-0.064200073 -0.14268802 0.017885812 2.3509527e-38
-0.062311545 -0.14268802 0.017885812 2.3048554e-38
-0.060423024 -0.14268802 0.017885812 2.3509527e-38
-0.058467787 -0.14161004 0.021891125 2.3233662e-38
-0.056586292 -0.14161004 0.021891125 2.341805e-38
-0.054704789 -0.14161004 0.021891125 2.341805e-38
-0.05282329 -0.14161004 0.021891125 2.341805e-38
-0.050912194 -0.14078392 0.024960645 2.341805e-38
-0.049036074 -0.14078392 0.024960645 2.341805e-38
-0.047159959 -0.14078392 0.024960645 2.3509883e-38
-0.045283843 -0.14078392 0.024960645 2.3509883e-38
-0.043407723 -0.14078392 0.024960645 2.3509883e-38
-0.041534297 -0.14161004 0.021891125 2.341805e-38
-0.039652802 -0.14161004 0.021891125 2.3142544e-38
-0.037771299 -0.14161004 0.021891125 2.3234379e-38
-0.035872247 -0.14268802 0.017885812 2.3509168e-38
-0.033983722 -0.14268802 0.017885812 2.3505563e-38
-0.032095201 -0.14268802 0.017885812 2.349835e-38
-0.030177802 -0.14349405 0.014890918 2.0448323e-38
-0.028284028 -0.14349405 0.014890918 1.9797545e-38
-0.026390256 -0.14349405 0.014890918 2.0530783e-38
-0.024496485 -0.14349405 0.014890918 2.1083591e-38
-0.022602711 -0.14349405 0.014890918 2.062261e-38
-0.020708939 -0.14349405 0.014890918 1.979501e-38
-0.018875554 -0.14268802 0.017885812 1.9335118e-38
-0.016987031 -0.14268802 0.017885812 1.942768e-38
-0.01509851 -0.14268802 0.017885812 1.9611719e-38
-0.013209989 -0.14268802 0.017885812 1.9703199e-38
-0.011430319 -0.14161004 0.021891125 1.9611007e-38
-0.0095488206 -0.14161004 0.021891125 1.8783401e-38
-0.0076673217 -0.14161004 0.021891125 1.8877755e-38
-0.0056559034 -0.14268802 0.017885812 1.8787357e-38
-0.0037673824 -0.14268802 0.017885812 1.5194611e-38
-0.0017712153 -0.14349405 0.014890918 1.5381522e-38
0.00012255833 -0.14349405 0.014890918 2.3505186e-38
0.0021718256 -0.14455487 0.010949382 2.3507709e-38
0.004072506 -0.14455487 0.010949382 2.3508794e-38
0.0062294938 -0.14616071 0.0049828375 2.3415884e-38
0.0081406385 -0.14616071 0.0049828375 2.3509886e-38
0.010051783 -0.14616071 0.0049828375 2.341805e-38
0.011962928 -0.14616071 0.0049828375 2.3142544e-38
0.014074668 -0.1472411 0.00096846465 2.3048907e-38
0.015992854 -0.1472411 0.00096846465 2.3509523e-38
0.017911036 -0.1472411 0.00096846465 2.3416245e-38
0.019829221 -0.1472411 0.00096846465 2.350988e-38
0.021747403 -0.1472411 0.00096846465 2.3142541e-38
0.023847066 -0.14807267 -0.0021213209 2.2683363e-38
0.025770672 -0.14807267 -0.0021213209 2.295887e-38
0.02769427 -0.14807267 -0.0021213209 2.3142541e-38
0.029617868 -0.14807267 -0.0021213209 2.3234012e-38
0.031541474 -0.14807267 -0.0021213209 2.350952e-38
0.03373149 -0.14913492 -0.0060681021 2.3139297e-38
-0.073855504 -0.14645557 0.010949382 1.2446396e-38
-0.071954824 -0.14645557 0.010949382 1.2722986e-38
-0.069947019 -0.14538784 0.014890918 1.1154952e-38
-0.068053246 -0.14538784 0.014890918 1.3736433e-38
-0.066159472 -0.14538784 0.014890918 1.7700848e-38
-0.064265706 -0.14538784 0.014890918 2.3509527e-38
-0.062371932 -0.14538784 0.014890918 2.3417691e-38
-0.060423024 -0.14457656 0.017885812 2.3509886e-38
-0.058534503 -0.14457656 0.017885812 2.2956715e-38
-0.056586292 -0.14349155 0.021891125 2.3509886e-38
-0.054704789 -0.14349155 0.021891125 2.341805e-38
-0.05282329 -0.14349155 0.021891125 2.341805e-38
-0.050912194 -0.14266007 0.024960645 2.341805e-38
-0.049036074 -0.14266007 0.024960645 2.341805e-38
-0.047159959 -0.14266007 0.024960645 2.341805e-38
-0.045283843 -0.14266007 0.024960645 2.341805e-38
-0.043407723 -0.14266007 0.024960645 2.341805e-38
-0.041534297 -0.14349155 0.021891125 2.341805e-38
-0.039652802 -0.14349155 0.021891125 2.3142544e-38
-0.037771299 -0.14349155 0.021891125 2.2865602e-38
-0.035889804 -0.14349155 0.021891125 2.3509527e-38
-0.034008302 -0.14349155 0.021891125 2.3508438e-38
-0.032095201 -0.14457656 0.017885812 2.3498709e-38
-0.030206682 -0.14457656 0.017885812 1.9987705e-38
-0.028318159 -0.14457656 0.017885812 1.9243292e-38
-0.026390256 -0.14538784 0.014890918 1.9792499e-38
-0.024496485 -0.14538784 0.014890918 1.9422269e-38
-0.022602711 -0.14538784 0.014890918 1.9422987e-38
-0.020764075 -0.14457656 0.017885812 1.8965246e-38
-0.018875554 -0.14457656 0.017885812 1.8690104e-38
-0.016987031 -0.14457656 0.017885812 1.8690468e-38
-0.01509851 -0.14457656 0.017885812 1.9058901e-38
-0.013311818 -0.14349155 0.021891125 1.9978343e-38
-0.011430319 -0.14349155 0.021891125 2.0439323e-38
-0.0095488206 -0.14349155 0.021891125 1.8597567e-38
-0.0076673217 -0.14349155 0.021891125 1.8692279e-38
-0.0056559034 -0.14457656 0.017885812 1.8785914e-38
-0.0037673824 -0.14457656 0.017885812 1.5376116e-38
-0.0018788613 -0.14457656 0.017885812 1.4641791e-38
0.00012255833 -0.14538784 0.014890918 2.3500135e-38
0.002016332 -0.14538784 0.014890918 2.3507345e-38
0.003910102 -0.14538784 0.014890918 2.3508068e-38
0.0061035044 -0.14727734 0.0079157436 2.3508075e-38
0.0080095083 -0.14727734 0.0079157436 2.3509521e-38
0.010051783 -0.14807184 0.0049828375 2.2772318e-38
0.011962928 -0.14807184 0.0049828375 2.3233296e-38
0.013874073 -0.14807184 0.0049828375 2.3509521e-38
0.015785217 -0.14807184 0.0049828375 2.3509517e-38
0.017911036 -0.1491593 0.00096846465 2.3506276e-38
0.019829221 -0.1491593 0.00096846465 2.3509514e-38
0.021747403 -0.1491593 0.00096846465 2.2957782e-38
0.023847066 -0.1499963 -0.0021213209 2.2958864e-38
0.025770672 -0.1499963 -0.0021213209 2.3234372e-38
0.02769427 -0.1499963 -0.0021213209 2.2957782e-38
-0.073855504 -0.14835624 0.010949382 1.2262002e-38
-0.071954824 -0.14835624 0.010949382 1.1708831e-38
-0.069947019 -0.1472816 0.014890918 1.1431895e-38
-0.068053246 -0.1472816 0.014890918 1.6133516e-38
-0.066159472 -0.1472816 0.014890918 2.1941844e-38
-0.064265706 -0.1472816 0.014890918 2.3509527e-38
-0.062371932 -0.1472816 0.014890918 2.3509886e-38
-0.060423024 -0.14646508 0.017885812 2.3509886e-38
-0.058534503 -0.14646508 0.017885812 2.2864519e-38
-0.056586292 -0.14537306 0.021891125 2.3509886e-38
-0.054704789 -0.14537306 0.021891125 2.3509886e-38
-0.05282329 -0.14537306 0.021891125 2.341805e-38
-0.050912194 -0.14453618 0.024960645 2.341805e-38
-0.049036074 -0.14453618 0.024960645 2.341805e-38
-0.047159959 -0.14453618 0.024960645 2.341805e-38
-0.045283843 -0.14453618 0.024960645 2.341805e-38
-0.043407723 -0.14453618 0.024960645 2.341805e-38
-0.041531608 -0.14453618 0.024960645 2.341805e-38
-0.039655492 -0.14453618 0.024960645 2.3142185e-38
-0.037779376 -0.14453618 0.024960645 2.3325856e-38
-0.035889804 -0.14537306 0.021891125 2.3509164e-38
-0.034008302 -0.14537306 0.021891125 2.2214457e-38
-0.032095201 -0.14646508 0.017885812 1.9811241e-38
-0.030206682 -0.14646508 0.017885812 1.796048e-38
-0.028318159 -0.14646508 0.017885812 1.8321336e-38
-0.026390256 -0.1472816 0.014890918 1.8869463e-38
-0.024496485 -0.1472816 0.014890918 1.9513748e-38
-0.022602711 -0.1472816 0.014890918 1.9699213e-38
-0.020764075 -0.14646508 0.017885812 1.9426224e-38
-0.018875554 -0.14646508 0.017885812 1.9151798e-38
-0.016987031 -0.14646508 0.017885812 1.8691546e-38
-0.01509851 -0.14646508 0.017885812 1.8597557e-38
-0.013311818 -0.14537306 0.021891125 1.8963105e-38
-0.011430319 -0.14537306 0.021891125 1.8962749e-38
-0.0095488206 -0.14537306 0.021891125 1.8596125e-38
-0.0076673217 -0.14537306 0.021891125 1.8598999e-38
-0.0056559034 -0.14646508 0.017885812 1.9245087e-38
-0.0037673824 -0.14646508 0.017885812 1.6296266e-38
-0.0018788613 -0.14646508 0.017885812 1.4086451e-38
0.00012255833 -0.1472816 0.014890918 2.174157e-38
0.002016332 -0.1472816 0.014890918 2.3504097e-38
0.003910102 -0.1472816 0.014890918 2.3506265e-38
0.0059731901 -0.14835624 0.010949382 2.3506992e-38
0.0078738742 -0.14835624 0.010949382 2.3509517e-38
0.010051783 -0.14998297 0.0049828375 2.2863429e-38
0.011962928 -0.14998297 0.0049828375 2.3509879e-38
0.013874073 -0.14998297 0.0049828375 2.3509514e-38
0.015785217 -0.14998297 0.0049828375 2.3508793e-38
-0.069947019 -0.14917539 0.014890918 1.1339697e-38
-0.068053246 -0.14917539 0.014890918 1.7055829e-38
-0.066159472 -0.14917539 0.014890918 2.3509527e-38
-0.064265706 -0.14917539 0.014890918 2.3048545e-38
-0.062371932 -0.14917539 0.014890918 2.3416971e-38
-0.060423024 -0.14835359 0.017885812 2.3509883e-38
-0.058534503 -0.14835359 0.017885812 2.3324775e-38
-0.056586292 -0.14725454 0.021891125 2.3509886e-38
-0.054704789 -0.14725454 0.021891125 2.3509886e-38
-0.05278831 -0.1464123 0.024960645 2.3509886e-38
-0.050912194 -0.1464123 0.024960645 2.341805e-38
-0.049036074 -0.1464123 0.024960645 2.341805e-38
-0.047159959 -0.1464123 0.024960645 2.3234379e-38
-0.045283843 -0.1464123 0.024960645 2.3234379e-38
-0.043407723 -0.1464123 0.024960645 2.3234379e-38
-0.041531608 -0.1464123 0.024960645 2.341805e-38
-0.039655492 -0.1464123 0.024960645 2.3509527e-38
-0.037779376 -0.1464123 0.024960645 2.3509527e-38
-0.035889804 -0.14725454 0.021891125 2.3509879e-38
-0.034008302 -0.14725454 0.021891125 2.1937866e-38
-0.032095201 -0.14835359 0.017885812 1.8059524e-38
-0.030206682 -0.14835359 0.017885812 1.6761937e-38
-0.028318159 -0.14835359 0.017885812 1.8044749e-38
-0.026390256 -0.14917539 0.014890918 1.914605e-38
-0.024496485 -0.14917539 0.014890918 1.9789615e-38
-0.022602711 -0.14917539 0.014890918 1.960666e-38
-0.020764075 -0.14835359 0.017885812 1.9058161e-38
-0.018875554 -0.14835359 0.017885812 1.8691899e-38
-0.016987031 -0.14835359 0.017885812 1.8507152e-38
-0.01509851 -0.14835359 0.017885812 1.822877e-38
-0.013311818 -0.14725454 0.021891125 1.8224095e-38
-0.011430319 -0.14725454 0.021891125 1.7762401e-38
-0.0095488206 -0.14725454 0.021891125 1.795039e-38
-0.0076673217 -0.14725454 0.021891125 1.7767796e-38
-0.0056559034 -0.14835359 0.017885812 1.8321686e-38
-0.0037673824 -0.14835359 0.017885812 1.6387017e-38
-0.0018788613 -0.14835359 0.017885812 1.2977937e-38
0.00012255833 -0.14917539 0.014890918 1.7406569e-38
0.002016332 -0.14917539 0.014890918 2.3126307e-38
0.003910102 -0.14917539 0.014890918 2.3505539e-38
-0.058467787 -0.14913605 0.021891125 2.3417327e-38
-0.056540545 -0.14828841 0.024960645 2.3509883e-38
-0.054664426 -0.14828841 0.024960645 2.3509886e-38
-0.052754808 -0.14747669 0.027899988 2.3509886e-38
-0.050883848 -0.14747669 0.027899988 2.341805e-38
-0.049012884 -0.14747669 0.027899988 2.341805e-38
-0.047141921 -0.14747669 0.027899988 2.3234379e-38
-0.045270957 -0.14747669 0.027899988 2.3234379e-38
-0.043407723 -0.14828841 0.024960645 2.3234379e-38
-0.041531608 -0.14828841 0.024960645 2.341805e-38
-0.039655492 -0.14828841 0.024960645 2.3509527e-38
-0.037779376 -0.14828841 0.024960645 2.3508445e-38
-0.035889804 -0.14913605 0.021891125 2.3509517e-38
-0.034008302 -0.14913605 0.021891125 2.3505907e-38
-0.032126807 -0.14913605 0.021891125 1.8613054e-38
-0.030245308 -0.14913605 0.021891125 1.648535e-38
-0.013311818 -0.14913605 0.021891125 1.9237527e-38
-0.011430319 -0.14913605 0.021891125 1.8868027e-38
-0.0095488206 -0.14913605 0.021891125 1.8041143e-38
-0.0076673217 -0.14913605 0.021891125 1.7582323e-38
-0.054625776 -0.14934768 0.027899988 2.3509883e-38
-0.052754808 -0.14934768 0.027899988 2.3509883e-38
-0.050883848 -0.14934768 0.027899988 2.341805e-38
-0.049012884 -0.14934768 0.027899988 2.341805e-38
-0.047141921 -0.14934768 0.027899988 2.3234379e-38
-0.045270957 -0.14934768 0.027899988 2.3234379e-38
-0.043399997 -0.14934768 0.027899988 2.3142544e-38
-0.04152903 -0.14934768 0.027899988 2.341805e-38
