# .PCD v0.7 - Point Cloud Data file format
VERSION 0.7
FIELDS x y z rgb
SIZE 4 4 4 4
TYPE F F F F
COUNT 1 1 1 1
WIDTH 949
HEIGHT 1
VIEWPOINT 0 0 0 1 0 0 0
POINTS 949
DATA ascii
0.065751329 -0.12952723 -0.019569274 2.3507733e-38
0.067775443 -0.13032107 -0.022638794 2.3507374e-38
0.069656938 -0.13032107 -0.022638794 2.3509151e-38
0.071745604 -0.13135691 -0.026644107 2.3509111e-38
0.07379429 -0.13213144 -0.029639002 2.0926868e-38
0.075688064 -0.13213144 -0.029639002 1.9727597e-38
0.077806428 -0.13315077 -0.033580538 2.2492413e-38
0.079707116 -0.13315077 -0.033580538 2.3509105e-38
0.081791312 -0.13393532 -0.036614176 2.3509838e-38
0.083697304 -0.13393532 -0.036614176 2.3508399e-38
0.085791007 -0.13469382 -0.039547082 2.3509474e-38
0.087702155 -0.13469382 -0.039547082 2.3509824e-38
0.089613289 -0.13469382 -0.039547082 2.341797e-38
0.092016444 -0.13653107 -0.04665124 2.3050263e-38
0.093940049 -0.13653107 -0.04665124 2.3142106e-38
0.09615083 -0.1375518 -0.050598022 2.3234319e-38
0.098377585 -0.13857989 -0.054573413 2.3509852e-38
0.10031507 -0.13857989 -0.054573413 2.350987e-38
0.10248903 -0.13936369 -0.05760419 2.3509521e-38
0.10443185 -0.13936369 -0.05760419 2.3509521e-38
0.10637464 -0.13936369 -0.05760419 2.3509514e-38
0.10831746 -0.13936369 -0.05760419 2.3509157e-38
0.11026026 -0.13936369 -0.05760419 2.3509527e-38
0.11220307 -0.13936369 -0.05760419 2.3509886e-38
0.11450236 -0.14040495 -0.061630484 2.3418043e-38
0.11645224 -0.14040495 -0.061630484 2.3509873e-38
0.11867333 -0.141167 -0.064577103 2.0927669e-38
0.12062836 -0.141167 -0.064577103 6.2689175e-39
0.1225834 -0.141167 -0.064577103 6.176003e-39
0.12561512 -0.14402847 -0.075641632 7.2823533e-39
0.12758955 -0.14402847 -0.075641632 8.0195638e-39
-0.10871374 -0.12724553 -0.0036003552 1.8791211e-38
-0.10639287 -0.12618984 0.00045419112 2.01727e-38
-0.10455186 -0.12618984 0.00045419112 2.0816996e-38
-0.10237848 -0.12542458 0.0033932962 2.0909192e-38
-0.10054261 -0.12542458 0.0033932962 2.1002458e-38
-0.098374672 -0.12463553 0.0064238347 2.0910618e-38
-0.095896192 -0.123071 0.012432698 2.1371597e-38
-0.094076179 -0.123071 0.012432698 2.2108085e-38
-0.091845952 -0.12204717 0.016364936 2.1831143e-38
-0.090032838 -0.12204717 0.016364936 2.1369804e-38
-0.087911077 -0.12125005 0.01942635 2.1646391e-38
-0.085812233 -0.12048493 0.022364978 2.2383954e-38
-0.083715193 -0.11969708 0.025390867 2.2476146e-38
-0.081630446 -0.11891381 0.028399114 2.2937479e-38
-0.079557903 -0.11813517 0.031389717 2.2937832e-38
-0.077771135 -0.11813517 0.031389717 2.2661597e-38
-0.075715907 -0.11736105 0.034362797 2.2753788e-38
-0.07366363 -0.11656497 0.037420277 2.3307315e-38
-0.071623676 -0.11577369 0.040459398 2.3400224e-38
-0.069604449 -0.11501329 0.043379907 2.3032526e-38
-0.06758856 -0.11423124 0.046383385 2.3218008e-38
-0.065828092 -0.11423124 0.046383385 2.2942503e-38
-0.06406761 -0.11423124 0.046383385 2.2759904e-38
-0.062074177 -0.11345388 0.0493691 2.2577673e-38
-0.060318924 -0.11345388 0.0493691 2.2579486e-38
-0.058563687 -0.11345388 0.0493691 2.3133041e-38
-0.056585304 -0.11265542 0.0524357 2.3502212e-38
-0.054625966 -0.11188738 0.055385474 2.3503315e-38
-0.05267144 -0.11109848 0.058415357 2.3507655e-38
-0.050728761 -0.11031438 0.061426882 2.3507306e-38
-0.048994653 -0.11031438 0.061426882 2.350839e-38
-0.047130667 -0.10978593 0.063456535 2.3509483e-38
-0.04540012 -0.10978593 0.063456535 2.3509863e-38
-0.043669574 -0.10978593 0.063456535 2.3509527e-38
-0.041939028 -0.10978593 0.063456535 2.3233662e-38
-0.040208481 -0.10978593 0.063456535 2.2957438e-38
-0.038477935 -0.10978593 0.063456535 2.3234379e-38
-0.036747389 -0.10978593 0.063456535 2.341805e-38
-0.03501685 -0.10978593 0.063456535 2.341805e-38
-0.033286303 -0.10978593 0.063456535 2.341805e-38
-0.03165362 -0.11031438 0.061426882 2.341805e-38
-0.02991952 -0.11031438 0.061426882 2.341805e-38
-0.028320059 -0.11109848 0.058415357 2.3509886e-38
-0.026710831 -0.11188738 0.055385474 2.3509886e-38
-0.024966136 -0.11188738 0.055385474 2.3325494e-38
-0.023221437 -0.11188738 0.055385474 2.341769e-38
-0.021476742 -0.11188738 0.055385474 2.3509527e-38
-0.019732047 -0.11188738 0.055385474 2.3509883e-38
-0.017987348 -0.11188738 0.055385474 2.3509527e-38
-0.016242653 -0.11188738 0.055385474 2.3232936e-38
-0.014588468 -0.11265542 0.0524357 2.3324775e-38
-0.012927316 -0.11345388 0.0493691 2.350988e-38
-0.011334836 -0.11501329 0.043379907 2.3509879e-38
-0.0096433386 -0.11577369 0.040459398 2.3509876e-38
-0.0079444088 -0.11656497 0.037420277 2.31411e-38
-0.0061682127 -0.11656497 0.037420277 2.3049626e-38
-0.0043920204 -0.11656497 0.037420277 2.3325856e-38
-0.0026158243 -0.11656497 0.037420277 2.3234379e-38
-0.000890553 -0.11736105 0.034362797 2.3234379e-38
0.00089100003 -0.11736105 0.034362797 2.3050708e-38
0.0026334599 -0.11813517 0.031389717 2.3142544e-38
0.0044202283 -0.11813517 0.031389717 2.3142538e-38
0.0061781593 -0.11891381 0.028399114 2.2958503e-38
0.0079701729 -0.11891381 0.028399114 2.3418043e-38
0.009743724 -0.11969708 0.025390867 2.3049261e-38
0.011527747 -0.12048493 0.022364978 2.350988e-38
0.013330339 -0.12048493 0.022364978 2.3416971e-38
0.01513293 -0.12048493 0.022364978 2.2955993e-38
0.016935524 -0.12048493 0.022364978 2.3509886e-38
0.018745843 -0.12125005 0.01942635 2.3509886e-38
0.020567007 -0.12204717 0.016364936 2.3509886e-38
0.022380119 -0.12204717 0.016364936 2.341769e-38
0.024193231 -0.12204717 0.016364936 2.341769e-38
0.026006345 -0.12204717 0.016364936 2.341769e-38
0.02786427 -0.123071 0.012432698 2.341769e-38
0.029684277 -0.123071 0.012432698 2.341769e-38
0.031593837 -0.12463553 0.0064238347 2.3509886e-38
0.033424377 -0.12463553 0.0064238347 2.3509886e-38
0.035310715 -0.12542458 0.0033932962 2.3509886e-38
0.037146568 -0.12542458 0.0033932962 2.3509886e-38
0.038982425 -0.12542458 0.0033932962 2.3509886e-38
0.040887848 -0.12618984 0.00045419112 2.3509886e-38
0.042728856 -0.12618984 0.00045419112 2.3509886e-38
0.044680059 -0.12724553 -0.0036003552 2.3509883e-38
0.046528175 -0.12724553 -0.0036003552 2.3418043e-38
0.048467681 -0.12802102 -0.0065787993 2.3418043e-38
0.050418179 -0.12880091 -0.0095741712 2.3418047e-38
0.052379768 -0.12958528 -0.01258659 2.341805e-38
0.054243643 -0.12958528 -0.01258659 2.3417691e-38
0.056107514 -0.12958528 -0.01258659 2.3417691e-38
0.058130898 -0.13063805 -0.016629931 2.3509168e-38
0.060001861 -0.13063805 -0.016629931 2.3509168e-38
0.061872825 -0.13063805 -0.016629931 2.3415535e-38
0.063875206 -0.13140334 -0.019569274 2.3509161e-38
0.065751329 -0.13140334 -0.019569274 2.3509507e-38
0.067775443 -0.13220255 -0.022638794 2.3509851e-38
0.069656938 -0.13220255 -0.022638794 2.3509111e-38
0.071745604 -0.13324542 -0.026644107 2.1109126e-38
0.07379429 -0.1340252 -0.029639002 1.9910569e-38
0.075688064 -0.1340252 -0.029639002 2.2768283e-38
0.077806428 -0.13505147 -0.033580538 2.3509488e-38
0.079885304 -0.13584132 -0.036614176 2.3509142e-38
0.081791312 -0.13584132 -0.036614176 2.350805e-38
0.083697304 -0.13584132 -0.036614176 2.3508397e-38
0.085791007 -0.13660498 -0.039547082 2.3509825e-38
0.087702155 -0.13660498 -0.039547082 2.341797e-38
0.089613289 -0.13660498 -0.039547082 2.2958423e-38
0.091802463 -0.13765021 -0.043561455 2.3326136e-38
0.093720645 -0.13765021 -0.043561455 2.3509827e-38
0.095863655 -0.13845469 -0.04665124 2.3418012e-38
0.09808135 -0.1394823 -0.050598022 2.3509518e-38
0.10031507 -0.14051737 -0.054573413 2.3509527e-38
0.10225257 -0.14051737 -0.054573413 2.3509168e-38
0.10419006 -0.14051737 -0.054573413 2.3509527e-38
0.10612755 -0.14051737 -0.054573413 2.3509869e-38
0.10831746 -0.1413065 -0.05760419 2.3417673e-38
0.11026026 -0.1413065 -0.05760419 2.3326213e-38
0.11220307 -0.1413065 -0.05760419 2.341805e-38
0.11450236 -0.14235483 -0.061630484 2.3418047e-38
0.11645224 -0.14235483 -0.061630484 2.3509876e-38
0.11867333 -0.14312203 -0.064577103 1.9914958e-38
0.12062836 -0.14312203 -0.064577103 5.163293e-39
0.12297299 -0.14418359 -0.06865418 5.8075834e-39
0.12532267 -0.14522041 -0.072636366 7.8358901e-39
0.12797645 -0.14701982 -0.079547286 8.2965137e-39
-0.10871374 -0.12909363 -0.0036003552 1.8883771e-38
-0.10639287 -0.12803085 0.00045419112 1.9988672e-38
-0.10455186 -0.12803085 0.00045419112 2.0541134e-38
-0.10237848 -0.12726043 0.0033932962 2.0908835e-38
-0.10020521 -0.12646608 0.0064238347 2.0172703e-38
-0.098374672 -0.12646608 0.0064238347 2.0449287e-38
-0.095896192 -0.124891 0.012432698 2.137089e-38
-0.093659066 -0.12386028 0.016364936 2.2293567e-38
-0.091845952 -0.12386028 0.016364936 2.2292495e-38
-0.090032838 -0.12386028 0.016364936 2.1370903e-38
-0.087911077 -0.1230578 0.01942635 2.100212e-38
-0.085812233 -0.12228753 0.022364978 2.1370903e-38
-0.083715193 -0.12149437 0.025390867 2.1278346e-38
-0.081630446 -0.12070583 0.028399114 2.2292848e-38
-0.079557903 -0.11992194 0.031389717 2.2845295e-38
-0.077771135 -0.11992194 0.031389717 2.2568696e-38
-0.075715907 -0.11914261 0.034362797 2.2753077e-38
-0.07366363 -0.11834116 0.037420277 2.3491712e-38
-0.071623676 -0.11754455 0.040459398 2.3494228e-38
-0.069604449 -0.11677901 0.043379907 2.3494223e-38
-0.06758856 -0.11599173 0.046383385 2.3494949e-38
-0.065828092 -0.11599173 0.046383385 2.3494585e-38
-0.063829415 -0.11520912 0.0493691 2.3495297e-38
-0.062074177 -0.11520912 0.0493691 2.3496014e-38
-0.060318924 -0.11520912 0.0493691 2.3313073e-38
-0.058335163 -0.11440529 0.0524357 2.3498203e-38
-0.056150205 -0.11283787 0.058415357 2.3499666e-38
-0.054196976 -0.11204849 0.061426882 2.3500404e-38
-0.052462868 -0.11204849 0.061426882 2.3131636e-38
-0.050591759 -0.11151646 0.063456535 2.2947979e-38
-0.048861213 -0.11151646 0.063456535 2.3134178e-38
-0.047130667 -0.11151646 0.063456535 2.3413298e-38
-0.045214571 -0.11073507 0.066437542 2.35084e-38
-0.043489255 -0.11073507 0.066437542 2.3509869e-38
-0.041763939 -0.11073507 0.066437542 2.3234379e-38
-0.040038615 -0.11073507 0.066437542 2.3142185e-38
-0.038477935 -0.11151646 0.063456535 2.3234379e-38
-0.036747389 -0.11151646 0.063456535 2.341805e-38
-0.03501685 -0.11151646 0.063456535 2.341805e-38
-0.033286303 -0.11151646 0.063456535 2.341805e-38
-0.03165362 -0.11204849 0.061426882 2.341805e-38
-0.02991952 -0.11204849 0.061426882 2.341805e-38
-0.028320059 -0.11283787 0.058415357 2.3509886e-38
-0.026710831 -0.11363207 0.055385474 2.3509886e-38
-0.024966136 -0.11363207 0.055385474 2.341769e-38
-0.023221437 -0.11363207 0.055385474 2.3509883e-38
-0.021476742 -0.11363207 0.055385474 2.3509883e-38
-0.019732047 -0.11363207 0.055385474 2.3325131e-38
-0.017987348 -0.11363207 0.055385474 2.3232936e-38
-0.016242653 -0.11363207 0.055385474 2.350988e-38
-0.014588468 -0.11440529 0.0524357 2.3509883e-38
-0.012927316 -0.11520912 0.0493691 2.3509879e-38
-0.011253212 -0.11599173 0.046383385 2.3509873e-38
-0.0095690899 -0.11677901 0.043379907 2.3509873e-38
-0.0078724697 -0.11754455 0.040459398 2.3509879e-38
-0.0061682127 -0.11834116 0.037420277 2.3234015e-38
-0.0043920204 -0.11834116 0.037420277 2.341805e-38
-0.0026158243 -0.11834116 0.037420277 2.3234379e-38
-0.000890553 -0.11914261 0.034362797 2.3234379e-38
0.00089100003 -0.11914261 0.034362797 2.2958507e-38
0.0026334599 -0.11992194 0.031389717 2.30507e-38
0.0044202283 -0.11992194 0.031389717 2.2682272e-38
0.0062069986 -0.11992194 0.031389717 2.3418036e-38
0.0079701729 -0.12070583 0.028399114 2.350987e-38
0.009743724 -0.12149437 0.025390867 2.3509873e-38
0.011541009 -0.12149437 0.025390867 2.2956701e-38
0.013338298 -0.12149437 0.025390867 2.3508798e-38
0.015135583 -0.12149437 0.025390867 2.3509521e-38
0.016935524 -0.12228753 0.022364978 2.350952e-38
0.018745843 -0.1230578 0.01942635 2.3509883e-38
0.020553589 -0.1230578 0.01942635 2.3509883e-38
0.022380119 -0.12386028 0.016364936 2.3509886e-38
0.024193231 -0.12386028 0.016364936 2.3509886e-38
0.026006345 -0.12386028 0.016364936 2.341769e-38
0.02786427 -0.124891 0.012432698 2.3325494e-38
0.029684277 -0.124891 0.012432698 2.3325494e-38
0.031548932 -0.12567626 0.0094369687 2.3509886e-38
0.033424377 -0.12646608 0.0064238347 2.3509886e-38
0.035310715 -0.12726043 0.0033932962 2.3509886e-38
0.037146568 -0.12726043 0.0033932962 2.3509886e-38
0.038982425 -0.12726043 0.0033932962 2.3509886e-38
0.040887848 -0.12803085 0.00045419112 2.3509886e-38
0.042728856 -0.12803085 0.00045419112 2.3509886e-38
0.044680059 -0.12909363 -0.0036003552 2.3418045e-38
0.046528175 -0.12909363 -0.0036003552 2.3418038e-38
0.048467681 -0.12987436 -0.0065787993 2.3234367e-38
0.050418179 -0.13065951 -0.0095741712 2.3418045e-38
0.052379768 -0.13144915 -0.01258659 2.341805e-38
0.054243643 -0.13144915 -0.01258659 2.3417691e-38
0.056107514 -0.13144915 -0.01258659 2.3508809e-38
0.058130898 -0.13250901 -0.016629931 2.3508451e-38
0.060001861 -0.13250901 -0.016629931 2.3508809e-38
0.061872825 -0.13250901 -0.016629931 2.3509163e-38
0.063875206 -0.13327946 -0.019569274 2.3508058e-38
0.065751329 -0.13327946 -0.019569274 2.3509834e-38
0.067775443 -0.13408406 -0.022638794 2.3509818e-38
0.069656938 -0.13408406 -0.022638794 2.0924368e-38
0.071745604 -0.13513394 -0.026644107 1.8710954e-38
0.073634133 -0.13513394 -0.026644107 2.1384632e-38
0.075688064 -0.13591899 -0.029639002 2.3509834e-38
0.077806428 -0.13695215 -0.033580538 2.3508787e-38
0.079885304 -0.13774733 -0.036614176 2.3508797e-38
0.081791312 -0.13774733 -0.036614176 2.350878e-38
0.083879858 -0.13851611 -0.039547082 2.3509846e-38
0.085791007 -0.13851611 -0.039547082 2.3509832e-38
0.087702155 -0.13851611 -0.039547082 2.2865166e-38
0.089613289 -0.13851611 -0.039547082 2.2681847e-38
0.091802463 -0.13956837 -0.043561455 2.3509825e-38
0.093720645 -0.13956837 -0.043561455 2.3509846e-38
0.095863655 -0.14037828 -0.04665124 2.3509866e-38
0.097787246 -0.14037828 -0.04665124 2.341805e-38
0.10001188 -0.14141284 -0.050598022 2.3417691e-38
0.10225257 -0.14245488 -0.054573413 2.3417691e-38
0.10419006 -0.14245488 -0.054573413 2.3325856e-38
0.10612755 -0.14245488 -0.054573413 2.3326201e-38
0.10806505 -0.14245488 -0.054573413 2.3326201e-38
0.11026026 -0.14324932 -0.05760419 2.3325856e-38
0.11220307 -0.14324932 -0.05760419 2.341805e-38
0.11450236 -0.14430468 -0.061630484 2.3418047e-38
0.11645224 -0.14430468 -0.061630484 2.3418043e-38
0.11867333 -0.14507706 -0.064577103 1.9730567e-38
0.12062836 -0.14507706 -0.064577103 4.9792647e-39
0.12297299 -0.14614578 -0.06865418 5.5324384e-39
0.12532267 -0.1471896 -0.072636366 7.8366117e-39
-0.10871374 -0.13094176 -0.0036003552 1.9067806e-38
-0.10686562 -0.13094176 -0.0036003552 1.9896479e-38
-0.10455186 -0.12987186 0.00045419112 2.00798e-38
-0.10237848 -0.12909628 0.0033932962 2.0171995e-38
-0.10020521 -0.1282966 0.0064238347 1.9895762e-38
-0.098374672 -0.1282966 0.0064238347 1.998796e-38
-0.095896192 -0.126711 0.012432698 2.1002478e-38
-0.093659066 -0.1256734 0.016364936 2.2477976e-38
-0.091845952 -0.1256734 0.016364936 2.3215911e-38
-0.090032838 -0.1256734 0.016364936 2.2754942e-38
-0.087911077 -0.12486555 0.01942635 2.2110298e-38
-0.085812233 -0.12409012 0.022364978 2.2110301e-38
-0.083715193 -0.12329166 0.025390867 2.0818839e-38
-0.081630446 -0.12249784 0.028399114 2.1463843e-38
-0.079557903 -0.12170871 0.031389717 2.2109198e-38
-0.07749746 -0.12092416 0.034362797 2.2477251e-38
-0.075715907 -0.12092416 0.034362797 2.28453e-38
-0.07339453 -0.11931543 0.040459398 2.3305547e-38
-0.071623676 -0.11931543 0.040459398 2.3490649e-38
-0.069604449 -0.11854477 0.043379907 2.3491005e-38
-0.06758856 -0.11775221 0.046383385 2.3490284e-38
-0.065584667 -0.11696436 0.0493691 2.3490998e-38
-0.063829415 -0.11696436 0.0493691 2.3492068e-38
-0.061834909 -0.11615516 0.0524357 2.3493862e-38
-0.060085036 -0.11615516 0.0524357 2.3494944e-38
-0.057889588 -0.11457725 0.058415357 2.3312361e-38
-0.055931069 -0.1137826 0.061426882 2.3312021e-38
-0.054052837 -0.11324702 0.063456535 2.3128721e-38
-0.052322291 -0.11324702 0.063456535 2.2760306e-38
-0.050591759 -0.11324702 0.063456535 2.2301494e-38
-0.048665203 -0.11246039 0.066437542 2.2304019e-38
-0.046939887 -0.11246039 0.066437542 2.2582782e-38
-0.045030139 -0.1116785 0.069400609 2.3046309e-38
-0.043310016 -0.1116785 0.069400609 2.3325444e-38
-0.041589893 -0.1116785 0.069400609 2.3326201e-38
-0.03986977 -0.1116785 0.069400609 2.3142544e-38
-0.038313299 -0.11246039 0.066437542 2.341805e-38
-0.036587976 -0.11246039 0.066437542 2.341805e-38
-0.03501685 -0.11324702 0.063456535 2.341805e-38
-0.033286303 -0.11324702 0.063456535 2.341805e-38
-0.031555764 -0.11324702 0.063456535 2.341805e-38
-0.02991952 -0.1137826 0.061426882 2.341805e-38
-0.02818542 -0.1137826 0.061426882 2.3509883e-38
-0.026580676 -0.11457725 0.058415357 2.3509883e-38
-0.024966136 -0.11537679 0.055385474 2.3325492e-38
-0.023221437 -0.11537679 0.055385474 2.350988e-38
-0.021587938 -0.11615516 0.0524357 2.350988e-38
-0.019838069 -0.11615516 0.0524357 2.3140737e-38
-0.017987348 -0.11537679 0.055385474 2.3325129e-38
-0.016242653 -0.11537679 0.055385474 2.3509879e-38
-0.014588468 -0.11615516 0.0524357 2.350988e-38
-0.012838598 -0.11615516 0.0524357 2.2495722e-38
-0.011253212 -0.11775221 0.046383385 2.2403879e-38
-0.0094927326 -0.11775221 0.046383385 2.3233636e-38
-0.0078724697 -0.11931543 0.040459398 2.350987e-38
-0.0061682127 -0.12011738 0.037420277 2.3509876e-38
-0.0043920204 -0.12011738 0.037420277 2.350988e-38
-0.0026158243 -0.12011738 0.037420277 2.350988e-38
-0.000890553 -0.12092416 0.034362797 2.3418043e-38
0.00089100003 -0.12092416 0.034362797 2.3234367e-38
0.0026334599 -0.12170871 0.031389717 2.3509873e-38
0.0044202283 -0.12170871 0.031389717 2.3509869e-38
0.0062069986 -0.12170871 0.031389717 2.3509863e-38
0.0079701729 -0.12249784 0.028399114 2.2587544e-38
0.009743724 -0.12329166 0.025390867 2.3509866e-38
0.011541009 -0.12329166 0.025390867 2.3508786e-38
0.013338298 -0.12329166 0.025390867 2.350951e-38
0.015135583 -0.12329166 0.025390867 2.3508074e-38
0.016935524 -0.12409012 0.022364978 2.3140736e-38
0.018745843 -0.12486555 0.01942635 2.3141456e-38
0.020553589 -0.12486555 0.01942635 2.3418043e-38
0.022380119 -0.1256734 0.016364936 2.3509883e-38
0.024193231 -0.1256734 0.016364936 2.3509883e-38
0.026006345 -0.1256734 0.016364936 2.3509883e-38
0.02786427 -0.126711 0.012432698 2.3509886e-38
0.029684277 -0.126711 0.012432698 2.341769e-38
0.031548932 -0.1275015 0.0094369687 2.3509886e-38
0.033424377 -0.1282966 0.0064238347 2.3509886e-38
0.035310715 -0.12909628 0.0033932962 2.3509886e-38
0.037146568 -0.12909628 0.0033932962 2.3509886e-38
0.038982425 -0.12909628 0.0033932962 2.3509886e-38
0.040887848 -0.12987186 0.00045419112 2.3509886e-38
0.042728856 -0.12987186 0.00045419112 2.3509883e-38
0.044680059 -0.13094176 -0.0036003552 2.3418047e-38
0.046528175 -0.13094176 -0.0036003552 2.3418045e-38
0.048559587 -0.1325181 -0.0095741712 2.3234374e-38
0.050418179 -0.1325181 -0.0095741712 2.3418045e-38
0.052276772 -0.1325181 -0.0095741712 2.341805e-38
0.054135364 -0.1325181 -0.0095741712 2.3509527e-38
0.056107514 -0.13331302 -0.01258659 2.3509168e-38
0.058130898 -0.13437997 -0.016629931 2.3508809e-38
0.060001861 -0.13437997 -0.016629931 2.3509168e-38
0.061872825 -0.13437997 -0.016629931 2.3509507e-38
0.063875206 -0.13515557 -0.019569274 2.3508758e-38
0.065893948 -0.13596557 -0.022638794 2.3231057e-38
0.067968562 -0.13702248 -0.026644107 2.2124335e-38
0.069857091 -0.13702248 -0.026644107 2.0555572e-38
0.071745604 -0.13702248 -0.026644107 2.1015122e-38
0.073634133 -0.13702248 -0.026644107 2.3503347e-38
0.075688064 -0.13781275 -0.029639002 2.3509129e-38
0.077806428 -0.13885282 -0.033580538 2.3506628e-38
0.079707116 -0.13885282 -0.033580538 2.3509154e-38
0.081791312 -0.13965334 -0.036614176 2.350879e-38
0.083879858 -0.14042725 -0.039547082 2.3509142e-38
0.085791007 -0.14042725 -0.039547082 2.3509855e-38
0.087702155 -0.14042725 -0.039547082 2.3142143e-38
0.089884281 -0.14148657 -0.043561455 2.2866272e-38
0.091802463 -0.14148657 -0.043561455 2.3418018e-38
0.093720645 -0.14148657 -0.043561455 2.3234357e-38
0.095863655 -0.14230187 -0.04665124 2.3234369e-38
0.097787246 -0.14230187 -0.04665124 2.3142544e-38
0.099710844 -0.14230187 -0.04665124 2.3142544e-38
0.1019424 -0.14334334 -0.050598022 2.3142544e-38
0.10387292 -0.14334334 -0.050598022 2.3142544e-38
0.10612755 -0.14439236 -0.054573413 2.2958867e-38
0.10806505 -0.14439236 -0.054573413 2.3142538e-38
0.11026026 -0.1451921 -0.05760419 2.341805e-38
0.11220307 -0.1451921 -0.05760419 2.341805e-38
0.11414587 -0.1451921 -0.05760419 2.3234015e-38
0.11608867 -0.1451921 -0.05760419 2.3418043e-38
0.11867333 -0.1470321 -0.064577103 2.0099712e-38
0.12062836 -0.1470321 -0.064577103 5.6253543e-39
0.1225834 -0.1470321 -0.064577103 5.71755e-39
0.12493516 -0.14810793 -0.06865418 7.1919612e-39
0.12758955 -0.14995177 -0.075641632 6.454043e-39
-0.10871374 -0.13278987 -0.0036003552 1.9160002e-38
-0.10686562 -0.13278987 -0.0036003552 1.9620614e-38
-0.10455186 -0.13171287 0.00045419112 1.9618822e-38
-0.10237848 -0.13093217 0.0033932962 1.9711017e-38
-0.10020521 -0.13012715 0.0064238347 2.035674e-38
-0.098374672 -0.13012715 0.0064238347 1.9896125e-38
-0.095896192 -0.12853102 0.012432698 2.0450029e-38
-0.093659066 -0.12748651 0.016364936 2.2294671e-38
-0.091845952 -0.12748651 0.016364936 2.3495389e-38
-0.090032838 -0.12748651 0.016364936 2.349756e-38
-0.087911077 -0.1266733 0.01942635 2.3496491e-38
-0.085812233 -0.12589271 0.022364978 2.3496496e-38
-0.083715193 -0.12508895 0.025390867 2.3218469e-38
-0.081630446 -0.12428986 0.028399114 2.2572734e-38
-0.079557903 -0.12349547 0.031389717 2.220394e-38
-0.07749746 -0.12270571 0.034362797 2.2663828e-38
-0.075715907 -0.12270571 0.034362797 2.2847126e-38
-0.07339453 -0.12108628 0.040459398 2.2570528e-38
-0.071623676 -0.12108628 0.040459398 2.3214807e-38
-0.069604449 -0.1203105 0.043379907 2.3493549e-38
-0.06758856 -0.11951269 0.046383385 2.3491383e-38
-0.065584667 -0.11871959 0.0493691 2.3492455e-38
-0.063829415 -0.11871959 0.0493691 2.3494243e-38
-0.061834909 -0.11790501 0.0524357 2.3496035e-38
-0.059860058 -0.11712147 0.055385474 2.3497111e-38
-0.057889588 -0.11631663 0.058415357 2.3496755e-38
-0.055931069 -0.11551671 0.061426882 2.3495685e-38
-0.054052837 -0.11497755 0.063456535 2.3219464e-38
-0.052322291 -0.11497755 0.063456535 2.3498213e-38
-0.050390519 -0.11418571 0.066437542 2.3406377e-38
-0.048470385 -0.11339863 0.069400609 2.2948283e-38
-0.04675027 -0.11339863 0.069400609 2.3043012e-38
-0.045030139 -0.11339863 0.069400609 2.3322511e-38
-0.043126129 -0.1125911 0.072440624 2.3509454e-38
-0.041411333 -0.1125911 0.072440624 2.3509856e-38
-0.03986977 -0.11339863 0.069400609 2.341804e-38
-0.038149647 -0.11339863 0.069400609 2.3418047e-38
-0.036429524 -0.11339863 0.069400609 2.341805e-38
-0.03486266 -0.11418571 0.066437542 2.341805e-38
-0.033137344 -0.11418571 0.066437542 2.341805e-38
-0.031555764 -0.11497755 0.063456535 2.341805e-38
-0.02991952 -0.11551671 0.061426882 2.341805e-38
-0.02818542 -0.11551671 0.061426882 2.3509883e-38
-0.026580676 -0.11631663 0.058415357 2.350988e-38
-0.024966136 -0.11712147 0.055385474 2.2957065e-38
-0.023221437 -0.11712147 0.055385474 2.350988e-38
-0.021587938 -0.11790501 0.0524357 2.350988e-38
-0.019838069 -0.11790501 0.0524357 2.3325127e-38
-0.018088203 -0.11790501 0.0524357 2.3509879e-38
-0.016338333 -0.11790501 0.0524357 2.3509876e-38
-0.014588468 -0.11790501 0.0524357 2.2679758e-38
-0.012838598 -0.11790501 0.0524357 2.0374497e-38
-0.011253212 -0.11951269 0.046383385 2.1019497e-38
-0.0094927326 -0.11951269 0.046383385 2.2679375e-38
-0.0078033432 -0.1203105 0.043379907 2.3509863e-38
-0.0061682127 -0.12189357 0.037420277 2.3509869e-38
-0.0043920204 -0.12189357 0.037420277 2.3509513e-38
-0.0026158243 -0.12189357 0.037420277 2.3508793e-38
-0.000890553 -0.12270571 0.034362797 2.3509513e-38
0.00089100003 -0.12270571 0.034362797 2.350987e-38
0.0026334599 -0.12349547 0.031389717 2.3416949e-38
0.0044202283 -0.12349547 0.031389717 2.3509139e-38
0.0061781593 -0.12428986 0.028399114 2.323147e-38
0.0079701729 -0.12428986 0.028399114 1.852913e-38
0.009743724 -0.12508895 0.025390867 2.1478674e-38
0.011541009 -0.12508895 0.025390867 2.3044921e-38
0.013338298 -0.12508895 0.025390867 2.332115e-38
0.01513293 -0.12589271 0.022364978 1.8435508e-38
0.016935524 -0.12589271 0.022364978 2.2955619e-38
0.018745843 -0.1266733 0.01942635 2.2957064e-38
0.020553589 -0.1266733 0.01942635 2.3325846e-38
0.022380119 -0.12748651 0.016364936 2.350988e-38
0.024193231 -0.12748651 0.016364936 2.3509883e-38
0.026044264 -0.12853102 0.012432698 2.3509883e-38
0.02786427 -0.12853102 0.012432698 2.3509886e-38
0.029684277 -0.12853102 0.012432698 2.3509886e-38
0.031593837 -0.13012715 0.0064238347 2.3509886e-38
0.033424377 -0.13012715 0.0064238347 2.3509886e-38
0.035310715 -0.13093217 0.0033932962 2.3509886e-38
0.037146568 -0.13093217 0.0033932962 2.3509886e-38
0.038982425 -0.13093217 0.0033932962 2.3509886e-38
0.040887848 -0.13171287 0.00045419112 2.3509883e-38
0.042831939 -0.13278987 -0.0036003552 2.3509883e-38
0.044680059 -0.13278987 -0.0036003552 2.350988e-38
0.046614341 -0.13358103 -0.0065787993 2.3418045e-38
0.048559587 -0.13437669 -0.0095741712 2.3234374e-38
0.050418179 -0.13437669 -0.0095741712 2.341805e-38
0.052276772 -0.13437669 -0.0095741712 2.3509527e-38
0.054135364 -0.13437669 -0.0095741712 2.3509527e-38
0.056107514 -0.13517688 -0.01258659 2.3509168e-38
0.057971388 -0.13517688 -0.01258659 2.3509168e-38
0.060001861 -0.13625093 -0.016629931 2.3509869e-38
0.061872825 -0.13625093 -0.016629931 2.3509842e-38
0.063875206 -0.13703169 -0.019569274 2.3509821e-38
0.065893948 -0.13784705 -0.022638794 2.101871e-38
0.067968562 -0.13891099 -0.026644107 1.8897122e-38
0.069857091 -0.13891099 -0.026644107 2.2768269e-38
0.071745604 -0.13891099 -0.026644107 2.3509816e-38
0.07379429 -0.13970654 -0.029639002 2.3506239e-38
0.075688064 -0.13970654 -0.029639002 2.3507339e-38
0.077806428 -0.14075352 -0.033580538 2.3508786e-38
0.079707116 -0.14075352 -0.033580538 2.3509873e-38
0.081791312 -0.14155935 -0.036614176 2.3048893e-38
0.083697304 -0.14155935 -0.036614176 2.2587918e-38
0.085791007 -0.14233841 -0.039547082 2.3509876e-38
0.087702155 -0.14233841 -0.039547082 2.3509876e-38
0.089884281 -0.14340474 -0.043561455 2.3418043e-38
0.091802463 -0.14340474 -0.043561455 2.2866307e-38
0.093720645 -0.14340474 -0.043561455 2.3050703e-38
0.095638826 -0.14340474 -0.043561455 2.3050707e-38
0.097787246 -0.14422549 -0.04665124 2.3142544e-38
0.099710844 -0.14422549 -0.04665124 2.2958873e-38
0.1019424 -0.14527388 -0.050598022 2.2958873e-38
0.10387292 -0.14527388 -0.050598022 2.2958873e-38
0.10580344 -0.14527388 -0.050598022 2.2958873e-38
0.10806505 -0.14632986 -0.054573413 2.3142544e-38
0.11026026 -0.14713491 -0.05760419 2.3509886e-38
0.11220307 -0.14713491 -0.05760419 2.3509527e-38
0.11414587 -0.14713491 -0.05760419 2.3325129e-38
0.11608867 -0.14713491 -0.05760419 2.3509876e-38
0.11867333 -0.14898713 -0.064577103 2.0652526e-38
0.12062836 -0.14898713 -0.064577103 6.4543961e-39
0.1225834 -0.14898713 -0.064577103 5.9019412e-39
-0.10823389 -0.13355388 0.00045419112 1.8606831e-38
-0.10639287 -0.13355388 0.00045419112 1.9159639e-38
-0.10455186 -0.13355388 0.00045419112 1.9526629e-38
-0.10237848 -0.13276802 0.0033932962 1.9803213e-38
-0.10020521 -0.13195769 0.0064238347 1.9988672e-38
-0.098374672 -0.13195769 0.0064238347 1.9989754e-38
-0.095896192 -0.13035102 0.012432698 2.0819526e-38
-0.093659066 -0.1292996 0.016364936 2.2111356e-38
-0.091845952 -0.1292996 0.016364936 2.2850377e-38
-0.090032838 -0.1292996 0.016364936 2.294331e-38
-0.087911077 -0.12848105 0.01942635 2.2760012e-38
-0.085812233 -0.12769531 0.022364978 2.2760023e-38
-0.083715193 -0.12688623 0.025390867 2.2576352e-38
-0.081630446 -0.12608187 0.028399114 2.2760742e-38
-0.079557903 -0.12528224 0.031389717 2.2760376e-38
-0.077771135 -0.12528224 0.031389717 2.2483778e-38
-0.075715907 -0.1244873 0.034362797 2.2667079e-38
-0.07366363 -0.12366976 0.037420277 2.285074e-38
-0.071623676 -0.12285714 0.040459398 2.2665622e-38
-0.069852807 -0.12285714 0.040459398 2.2663454e-38
-0.06758856 -0.12127317 0.046383385 2.3029708e-38
-0.065584667 -0.12047486 0.0493691 2.3490315e-38
-0.063829415 -0.12047486 0.0493691 2.3492823e-38
-0.061834909 -0.11965488 0.0524357 2.3494972e-38
-0.059860058 -0.11886616 0.055385474 2.3494247e-38
-0.057889588 -0.11805601 0.058415357 2.3125823e-38
-0.055783384 -0.11670811 0.063456535 2.3310217e-38
-0.054052837 -0.11670811 0.063456535 2.3496049e-38
-0.05211585 -0.11591102 0.066437542 2.3497486e-38
-0.050390519 -0.11591102 0.066437542 2.3313449e-38
-0.048470385 -0.11511876 0.069400609 2.2854631e-38
-0.04675027 -0.11511876 0.069400609 2.2856806e-38
-0.045030139 -0.11511876 0.069400609 2.3228859e-38
-0.043126129 -0.1143059 0.072440624 2.3509081e-38
-0.041411333 -0.1143059 0.072440624 2.3509844e-38
-0.03986977 -0.11511876 0.069400609 2.3509869e-38
-0.038149647 -0.11511876 0.069400609 2.350988e-38
-0.036429524 -0.11511876 0.069400609 2.341805e-38
-0.03486266 -0.11591102 0.066437542 2.341805e-38
-0.033137344 -0.11591102 0.066437542 2.341805e-38
-0.031555764 -0.11670811 0.063456535 2.341805e-38
-0.02991952 -0.11725079 0.061426882 2.341805e-38
-0.02818542 -0.11725079 0.061426882 2.3509883e-38
-0.026580676 -0.11805601 0.058415357 2.350988e-38
-0.024966136 -0.11886616 0.055385474 2.350988e-38
-0.023221437 -0.11886616 0.055385474 2.3325846e-38
-0.021587938 -0.11965488 0.0524357 2.3509879e-38
-0.019838069 -0.11965488 0.0524357 2.2956701e-38
-0.018088203 -0.11965488 0.0524357 2.3141092e-38
-0.016338333 -0.11965488 0.0524357 2.3509873e-38
-0.014588468 -0.11965488 0.0524357 2.3141092e-38
-0.012838598 -0.11965488 0.0524357 1.8530583e-38
-0.011253212 -0.12127317 0.046383385 1.7330584e-38
-0.0094927326 -0.12127317 0.046383385 2.3138906e-38
-0.0078033432 -0.12207626 0.043379907 2.3415498e-38
-0.0061016083 -0.12285714 0.040459398 2.350986e-38
-0.0043920204 -0.12366976 0.037420277 2.3507346e-38
-0.0026158243 -0.12366976 0.037420277 2.3509507e-38
-0.000890553 -0.1244873 0.034362797 2.3509507e-38
0.00089100003 -0.1244873 0.034362797 2.3508423e-38
0.0026334599 -0.12528224 0.031389717 2.3509859e-38
0.0044202283 -0.12528224 0.031389717 2.3508053e-38
0.0062069986 -0.12528224 0.031389717 2.3508769e-38
0.0079701729 -0.12608187 0.028399114 1.7790117e-38
0.009743724 -0.12688623 0.025390867 2.0831857e-38
0.011541009 -0.12688623 0.025390867 2.0093216e-38
0.013338298 -0.12688623 0.025390867 1.7695413e-38
0.015135583 -0.12688623 0.025390867 1.9171631e-38
0.016935524 -0.12769531 0.022364978 2.2770865e-38
0.018738115 -0.12769531 0.022364978 2.3233648e-38
0.020553589 -0.12848105 0.01942635 2.3509879e-38
0.022380119 -0.1292996 0.016364936 2.350988e-38
0.024193231 -0.1292996 0.016364936 2.3509883e-38
0.026044264 -0.13035102 0.012432698 2.31411e-38
0.02786427 -0.13035102 0.012432698 2.2956712e-38
0.029684277 -0.13035102 0.012432698 2.3509886e-38
0.031593837 -0.13195769 0.0064238347 2.3509886e-38
0.033474855 -0.13276802 0.0033932962 2.3509886e-38
0.035364822 -0.13355388 0.00045419112 2.3509886e-38
0.037146568 -0.13276802 0.0033932962 2.3509886e-38
0.038982425 -0.13276802 0.0033932962 2.3509886e-38
0.040887848 -0.13355388 0.00045419112 2.3509883e-38
0.042831939 -0.134638 -0.0036003552 2.3509883e-38
0.044680059 -0.134638 -0.0036003552 2.3509879e-38
0.046614341 -0.13543437 -0.0065787993 2.3418038e-38
0.048559587 -0.13623528 -0.0095741712 2.2773391e-38
0.050418179 -0.13623528 -0.0095741712 2.3232944e-38
0.052276772 -0.13623528 -0.0095741712 2.3509168e-38
0.054135364 -0.13623528 -0.0095741712 2.3508451e-38
0.056107514 -0.13704078 -0.01258659 2.3508446e-38
0.057971388 -0.13704078 -0.01258659 2.350986e-38
0.060001861 -0.13812189 -0.016629931 2.3509837e-38
0.061872825 -0.13812189 -0.016629931 2.3509811e-38
0.063875206 -0.13890781 -0.019569274 2.1849187e-38
0.065893948 -0.13972856 -0.022638794 2.0188947e-38
0.067968562 -0.14079951 -0.026644107 2.1755201e-38
0.069857091 -0.14079951 -0.026644107 2.3506221e-38
0.071745604 -0.14079951 -0.026644107 2.3507677e-38
0.07379429 -0.1416003 -0.029639002 2.3507331e-38
0.075688064 -0.1416003 -0.029639002 2.3509142e-38
0.07758183 -0.1416003 -0.029639002 2.3509863e-38
0.079707116 -0.1426542 -0.033580538 2.3418033e-38
0.081791312 -0.14346536 -0.036614176 2.341804e-38
0.083697304 -0.14346536 -0.036614176 2.3418047e-38
0.085791007 -0.14424954 -0.039547082 2.341805e-38
0.087702155 -0.14424954 -0.039547082 2.3417691e-38
0.089884281 -0.14532293 -0.043561455 2.3141826e-38
0.091802463 -0.14532293 -0.043561455 2.3049632e-38
0.093720645 -0.14532293 -0.043561455 2.2865243e-38
0.095638826 -0.14532293 -0.043561455 2.286632e-38
0.097787246 -0.14614908 -0.04665124 2.3050708e-38
0.099710844 -0.14614908 -0.04665124 2.3142541e-38
0.10163445 -0.14614908 -0.04665124 2.3142538e-38
0.10355806 -0.14614908 -0.04665124 2.2958867e-38
0.10580344 -0.14720438 -0.050598022 2.295887e-38
0.10806505 -0.14826734 -0.054573413 2.3234379e-38
0.11026026 -0.14907773 -0.05760419 2.3509524e-38
0.11220307 -0.14907773 -0.05760419 2.3508082e-38
0.11414587 -0.14907773 -0.05760419 2.3508801e-38
-0.10823389 -0.13539489 0.00045419112 1.8423158e-38
-0.10639287 -0.13539489 0.00045419112 1.9067443e-38
-0.10455186 -0.13539489 0.00045419112 1.9435152e-38
-0.10237848 -0.13460387 0.0033932962 1.9619538e-38
-0.10020521 -0.13378824 0.0064238347 1.925146e-38
-0.098044477 -0.13297729 0.0094369687 1.9436928e-38
-0.095896192 -0.13217102 0.012432698 2.0451811e-38
-0.093659066 -0.13111271 0.016364936 2.1652169e-38
-0.091845952 -0.13111271 0.016364936 2.2574861e-38
-0.089718826 -0.13028879 0.01942635 2.2759991e-38
-0.087614827 -0.1294979 0.022364978 2.2577055e-38
-0.085512482 -0.12868352 0.025390867 2.248595e-38
-0.083715193 -0.12868352 0.025390867 2.3503347e-38
-0.081630446 -0.12787388 0.028399114 2.3503707e-38
-0.079557903 -0.12706901 0.031389717 2.3502986e-38
-0.077771135 -0.12706901 0.031389717 2.3501539e-38
-0.075715907 -0.12626885 0.034362797 2.3501528e-38
-0.07366363 -0.12544595 0.037420277 2.3501881e-38
-0.071623676 -0.12462802 0.040459398 2.3500795e-38
-0.069852807 -0.12462802 0.040459398 2.3498986e-38
-0.067838706 -0.12384202 0.043379907 2.3494299e-38
-0.065828092 -0.12303366 0.046383385 2.3492844e-38
-0.063584767 -0.12140475 0.0524357 2.3032574e-38
-0.061604761 -0.12061088 0.055385474 2.3032923e-38
-0.059628971 -0.1197954 0.058415357 2.3033276e-38
-0.057665177 -0.11898489 0.061426882 2.3033275e-38
-0.055783384 -0.11843865 0.063456535 2.3494253e-38
-0.054052837 -0.11843865 0.063456535 2.3496051e-38
-0.05211585 -0.11763634 0.066437542 2.3496764e-38
-0.050190516 -0.11683889 0.069400609 2.349676e-38
-0.048470385 -0.11683889 0.069400609 2.3037579e-38
-0.04675027 -0.11683889 0.069400609 2.2947917e-38
-0.044840924 -0.11602069 0.072440624 2.3411806e-38
-0.043126129 -0.11602069 0.072440624 2.3509078e-38
-0.041589893 -0.11683889 0.069400609 2.3509844e-38
-0.03986977 -0.11683889 0.069400609 2.3509869e-38
-0.038313299 -0.11763634 0.066437542 2.350988e-38
-0.036587976 -0.11763634 0.066437542 2.341805e-38
-0.03486266 -0.11763634 0.066437542 2.341805e-38
-0.033286303 -0.11843865 0.063456535 2.341805e-38
-0.031555764 -0.11843865 0.063456535 2.341805e-38
-0.02991952 -0.11898489 0.061426882 2.3418047e-38
-0.02818542 -0.11898489 0.061426882 2.350988e-38
-0.026580676 -0.1197954 0.058415357 2.350988e-38
-0.024966136 -0.12061088 0.055385474 2.3049259e-38
-0.023221437 -0.12061088 0.055385474 2.3233648e-38
-0.021587938 -0.12140475 0.0524357 2.2219136e-38
-0.019838069 -0.12140475 0.0524357 2.332548e-38
-0.018088203 -0.12140475 0.0524357 2.3509873e-38
-0.016338333 -0.12140475 0.0524357 2.1481565e-38
-0.014588468 -0.12140475 0.0524357 2.2680108e-38
-0.012838598 -0.12140475 0.0524357 2.2218043e-38
-0.011253212 -0.12303366 0.046383385 1.8436566e-38
-0.0094927326 -0.12303366 0.046383385 2.2123669e-38
-0.0077322498 -0.12303366 0.046383385 2.3509851e-38
-0.0060376003 -0.12384202 0.043379907 2.3508417e-38
-0.0043307394 -0.12462802 0.040459398 2.184602e-38
-0.0026158243 -0.12544595 0.037420277 1.4748039e-38
-0.00083962828 -0.12544595 0.037420277 2.1569436e-38
0.00089100003 -0.12626885 0.034362797 2.0002108e-38
0.0026725568 -0.12626885 0.034362797 1.9264897e-38
0.0044202283 -0.12706901 0.031389717 2.286088e-38
0.0062069986 -0.12706901 0.031389717 2.0739659e-38
0.0079701729 -0.12787388 0.028399114 1.539159e-38
0.0097621828 -0.12787388 0.028399114 2.0830415e-38
0.011541009 -0.12868352 0.025390867 1.9077982e-38
0.013338298 -0.12868352 0.025390867 1.7140801e-38
0.015135583 -0.12868352 0.025390867 2.3507344e-38
0.016935524 -0.1294979 0.022364978 2.3509869e-38
0.018738115 -0.1294979 0.022364978 2.3509873e-38
0.020553589 -0.13028879 0.01942635 2.3418039e-38
0.022380119 -0.13111271 0.016364936 2.3141455e-38
0.024193231 -0.13111271 0.016364936 2.350988e-38
0.026044264 -0.13217102 0.012432698 2.3509883e-38
0.027898412 -0.13297729 0.0094369687 2.3325494e-38
0.02972367 -0.13297729 0.0094369687 2.3417691e-38
0.031593837 -0.13378824 0.0064238347 2.3509886e-38
0.033474855 -0.13460387 0.0033932962 2.3509886e-38
0.035310715 -0.13460387 0.0033932962 2.3509886e-38
0.037146568 -0.13460387 0.0033932962 2.3509886e-38
0.038982425 -0.13460387 0.0033932962 2.3509886e-38
0.040887848 -0.13539489 0.00045419112 2.3509883e-38
0.042728856 -0.13539489 0.00045419112 2.350988e-38
0.044680059 -0.13648613 -0.0036003552 2.3509879e-38
0.046614341 -0.13728772 -0.0065787993 2.3509873e-38
0.048559587 -0.13809387 -0.0095741712 2.3509876e-38
0.050418179 -0.13809387 -0.0095741712 2.3509527e-38
0.052276772 -0.13809387 -0.0095741712 2.3232227e-38
0.054135364 -0.13809387 -0.0095741712 2.3509168e-38
0.056107514 -0.13890465 -0.01258659 2.3509873e-38
0.057971388 -0.13890465 -0.01258659 2.3509842e-38
0.059835263 -0.13890465 -0.01258659 2.3139948e-38
0.061872825 -0.13999285 -0.016629931 1.9175514e-38
0.063875206 -0.14078392 -0.019569274 2.037441e-38
0.065893948 -0.14161004 -0.022638794 2.2401648e-38
0.067968562 -0.14268802 -0.026644107 2.3508734e-38
0.069857091 -0.14268802 -0.026644107 2.3509838e-38
0.071745604 -0.14268802 -0.026644107 2.3509136e-38
0.07379429 -0.14349405 -0.029639002 2.3506628e-38
0.075688064 -0.14349405 -0.029639002 2.3506267e-38
0.07758183 -0.14349405 -0.029639002 2.3234355e-38
0.079707116 -0.14455487 -0.033580538 2.2867016e-38
0.081791312 -0.14537133 -0.036614176 2.2866663e-38
0.083697304 -0.14537133 -0.036614176 2.2866311e-38
0.085791007 -0.14616071 -0.039547082 2.3048914e-38
0.087702155 -0.14616071 -0.039547082 2.3325138e-38
0.089613289 -0.14616071 -0.039547082 2.3416974e-38
0.091524437 -0.14616071 -0.039547082 2.3416615e-38
0.093720645 -0.1472411 -0.043561455 2.3508451e-38
0.095638826 -0.1472411 -0.043561455 2.3509168e-38
0.097557008 -0.1472411 -0.043561455 2.341805e-38
0.099475197 -0.1472411 -0.043561455 2.3418045e-38
0.10163445 -0.14807267 -0.04665124 2.3326201e-38
0.10355806 -0.14807267 -0.04665124 2.3418038e-38
0.10580344 -0.14913492 -0.050598022 2.3418043e-38
-0.10823389 -0.13723589 0.00045419112 1.8423158e-38
-0.10639287 -0.13723589 0.00045419112 1.9067443e-38
-0.10455186 -0.13723589 0.00045419112 1.9342956e-38
-0.10237848 -0.13643973 0.0033932962 1.9619894e-38
-0.10020521 -0.13561879 0.0064238347 1.8884105e-38
-0.098044477 -0.13480256 0.0094369687 1.9346157e-38
-0.095896192 -0.13399105 0.012432698 2.0177008e-38
-0.093659066 -0.13292582 0.016364936 2.1191894e-38
-0.091845952 -0.13292582 0.016364936 2.1837998e-38
-0.089718826 -0.13209651 0.01942635 2.1655423e-38
-0.087614827 -0.13130049 0.022364978 2.1747994e-38
-0.085512482 -0.13048081 0.025390867 2.1749085e-38
-0.08342246 -0.1296659 0.028399114 2.2948356e-38
-0.081630446 -0.1296659 0.028399114 2.313311e-38
-0.079557903 -0.12885578 0.031389717 2.3225306e-38
-0.077771135 -0.12885578 0.031389717 2.304127e-38
-0.075715907 -0.1280504 0.034362797 2.313346e-38
-0.07366363 -0.12722217 0.037420277 2.3501879e-38
-0.071623676 -0.12639888 0.040459398 2.3502233e-38
-0.069852807 -0.12639888 0.040459398 2.3501147e-38
-0.067838706 -0.12560774 0.043379907 2.3496816e-38
-0.065828092 -0.12479414 0.046383385 2.312586e-38
-0.063584767 -0.12315463 0.0524357 2.2296448e-38
-0.061604761 -0.12235557 0.055385474 2.2204604e-38
-0.059628971 -0.12153481 0.058415357 2.2664856e-38
-0.057665177 -0.120719 0.061426882 2.3033276e-38
-0.055783384 -0.12016918 0.063456535 2.3493177e-38
-0.054052837 -0.12016918 0.063456535 2.3494974e-38
-0.05211585 -0.11936165 0.066437542 2.3494969e-38
-0.050190516 -0.11855899 0.069400609 2.3495323e-38
-0.048470385 -0.11855899 0.069400609 2.3220174e-38
-0.046555705 -0.11773549 0.072440624 2.2946844e-38
-0.044840924 -0.11773549 0.072440624 2.3410737e-38
-0.043126129 -0.11773549 0.072440624 2.3508012e-38
-0.041411333 -0.11773549 0.072440624 2.3509856e-38
-0.03986977 -0.11855899 0.069400609 2.3509879e-38
-0.038149647 -0.11855899 0.069400609 2.3509886e-38
-0.036587976 -0.11936165 0.066437542 2.341805e-38
-0.03501685 -0.12016918 0.063456535 2.341805e-38
-0.033286303 -0.12016918 0.063456535 2.341805e-38
-0.031555764 -0.12016918 0.063456535 2.341805e-38
-0.02991952 -0.120719 0.061426882 2.3418047e-38
-0.02818542 -0.120719 0.061426882 2.350988e-38
-0.026580676 -0.12153481 0.058415357 2.350988e-38
-0.024966136 -0.12235557 0.055385474 2.3141455e-38
-0.023221437 -0.12235557 0.055385474 2.3509876e-38
-0.021587938 -0.12315463 0.0524357 1.8070329e-38
-0.019838069 -0.12315463 0.0524357 1.8162522e-38
-0.018088203 -0.12315463 0.0524357 2.3048891e-38
-0.016338333 -0.12315463 0.0524357 2.258827e-38
-0.014588468 -0.12315463 0.0524357 2.3325835e-38
-0.012838598 -0.12315463 0.0524357 1.9452171e-38
-0.011253212 -0.12479414 0.046383385 1.9634387e-38
-0.0094927326 -0.12479414 0.046383385 1.871063e-38
-0.0077322498 -0.12479414 0.046383385 1.8526243e-38
-0.0060376003 -0.12560774 0.043379907 2.0094295e-38
-0.00427185 -0.12560774 0.043379907 1.8803203e-38
-0.0025598705 -0.12639888 0.040459398 1.6406478e-38
-0.00083962828 -0.12722217 0.037420277 2.2030051e-38
0.00089100003 -0.1280504 0.034362797 1.7235877e-38
0.0026725568 -0.1280504 0.034362797 1.0874376e-38
0.0044541135 -0.1280504 0.034362797 1.9172336e-38
0.0062069986 -0.12885578 0.031389717 1.8157461e-38
0.0079701729 -0.1296659 0.028399114 1.5760374e-38
0.0097621828 -0.1296659 0.028399114 2.0830418e-38
0.011541009 -0.13048081 0.025390867 1.8801395e-38
0.013338298 -0.13048081 0.025390867 1.6034453e-38
0.015135583 -0.13048081 0.025390867 2.166019e-38
0.016935524 -0.13130049 0.022364978 2.3508784e-38
0.018738115 -0.13130049 0.022364978 2.350987e-38
0.020553589 -0.13209651 0.01942635 2.3509873e-38
0.022380119 -0.13292582 0.016364936 2.2957061e-38
0.024193231 -0.13292582 0.016364936 2.350988e-38
0.026073154 -0.13480256 0.0094369687 2.3509883e-38
0.027898412 -0.13480256 0.0094369687 2.3509886e-38
0.02972367 -0.13480256 0.0094369687 2.3325497e-38
0.031593837 -0.13561879 0.0064238347 2.3509527e-38
0.033474855 -0.13643973 0.0033932962 2.3509527e-38
0.035310715 -0.13643973 0.0033932962 2.3509886e-38
0.037146568 -0.13643973 0.0033932962 2.3509886e-38
0.038982425 -0.13643973 0.0033932962 2.3509886e-38
0.040887848 -0.13723589 0.00045419112 2.3509883e-38
0.042728856 -0.13723589 0.00045419112 2.350988e-38
0.044680059 -0.13833423 -0.0036003552 2.3509879e-38
0.046528175 -0.13833423 -0.0036003552 2.268083e-38
0.048467681 -0.13914107 -0.0065787993 2.3509873e-38
0.05032102 -0.13914107 -0.0065787993 2.3508801e-38
0.052276772 -0.13995247 -0.0095741712 2.3323688e-38
0.054135364 -0.13995247 -0.0095741712 2.3509869e-38
0.055993956 -0.13995247 -0.0095741712 2.3509853e-38
0.057971388 -0.14076851 -0.01258659 2.3232161e-38
0.059835263 -0.14076851 -0.01258659 2.3509088e-38
0.061872825 -0.14186381 -0.016629931 1.8161009e-38
0.063875206 -0.14266007 -0.019569274 2.1296016e-38
0.065893948 -0.14349155 -0.022638794 2.3509804e-38
0.067968562 -0.14457656 -0.026644107 2.3509825e-38
0.069857091 -0.14457656 -0.026644107 2.3508767e-38
0.071745604 -0.14457656 -0.026644107 2.3509149e-38
0.073634133 -0.14457656 -0.026644107 2.3508444e-38
0.075522646 -0.14457656 -0.026644107 2.3507366e-38
0.07758183 -0.14538784 -0.029639002 2.3509879e-38
0.079707116 -0.14645557 -0.033580538 2.3142534e-38
0.081791312 -0.14727734 -0.036614176 2.3234367e-38
0.083697304 -0.14727734 -0.036614176 2.341804e-38
0.085791007 -0.14807184 -0.039547082 2.3509886e-38
0.087702155 -0.14807184 -0.039547082 2.3509168e-38
0.089613289 -0.14807184 -0.039547082 2.3415898e-38
0.091524437 -0.14807184 -0.039547082 2.3506657e-38
0.093720645 -0.1491593 -0.043561455 2.3507374e-38
0.095638826 -0.1491593 -0.043561455 2.3508092e-38
0.097557008 -0.1491593 -0.043561455 2.3508451e-38
0.099475197 -0.1491593 -0.043561455 2.3509157e-38
0.10163445 -0.1499963 -0.04665124 2.3509149e-38
0.10355806 -0.1499963 -0.04665124 2.3509863e-38
-0.10823389 -0.1390769 0.00045419112 1.8330963e-38
-0.10639287 -0.1390769 0.00045419112 1.8975966e-38
-0.10455186 -0.1390769 0.00045419112 1.9159285e-38
-0.10237848 -0.13827558 0.0033932962 1.9528418e-38
-0.10020521 -0.13744931 0.0064238347 1.897702e-38
-0.098044477 -0.13662781 0.0094369687 1.9346517e-38
-0.095896192 -0.13581105 0.012432698 1.9900418e-38
-0.093659066 -0.13473894 0.016364936 2.0178093e-38
-0.091845952 -0.13473894 0.016364936 2.0270302e-38
-0.089718826 -0.13390426 0.01942635 2.01792e-38
-0.087614827 -0.13310309 0.022364978 2.0180293e-38
-0.085512482 -0.1322781 0.025390867 2.0365411e-38
-0.08342246 -0.13145791 0.028399114 2.0366138e-38
-0.081630446 -0.13145791 0.028399114 2.0919675e-38
-0.079557903 -0.13064255 0.031389717 2.1380656e-38
-0.077771135 -0.13064255 0.031389717 2.1473931e-38
-0.075715907 -0.12983195 0.034362797 2.184271e-38
-0.07366363 -0.12899835 0.037420277 2.2488077e-38
-0.071623676 -0.12816976 0.040459398 2.2765021e-38
-0.069852807 -0.12816976 0.040459398 2.3131636e-38
-0.067838706 -0.1273735 0.043379907 2.2482297e-38
-0.065828092 -0.12655462 0.046383385 2.2296096e-38
-0.063829415 -0.12574057 0.0493691 2.2020217e-38
-0.061834909 -0.1249045 0.0524357 2.22968e-38
-0.059860058 -0.12410025 0.055385474 2.284925e-38
-0.057889588 -0.12327419 0.058415357 2.303256e-38
-0.055783384 -0.12189974 0.063456535 2.3399545e-38
-0.054052837 -0.12189974 0.063456535 2.3492098e-38
-0.05211585 -0.12108697 0.066437542 2.349353e-38
-0.050190516 -0.12027912 0.069400609 2.3494604e-38
-0.048470385 -0.12027912 0.069400609 2.3219458e-38
-0.046555705 -0.11945029 0.072440624 2.2853932e-38
-0.044840924 -0.11945029 0.072440624 2.3409662e-38
-0.043126129 -0.11945029 0.072440624 2.3508019e-38
-0.041411333 -0.11945029 0.072440624 2.3509504e-38
-0.03986977 -0.12027912 0.069400609 2.3509167e-38
-0.038149647 -0.12027912 0.069400609 2.3509886e-38
-0.036587976 -0.12108697 0.066437542 2.341805e-38
-0.03486266 -0.12108697 0.066437542 2.341805e-38
-0.033286303 -0.12189974 0.063456535 2.341805e-38
-0.031555764 -0.12189974 0.063456535 2.341805e-38
-0.02991952 -0.12245311 0.061426882 2.3418047e-38
-0.02818542 -0.12245311 0.061426882 2.350988e-38
-0.026580676 -0.12327419 0.058415357 2.3509879e-38
-0.024841294 -0.12327419 0.058415357 2.3509876e-38
-0.023221437 -0.12410025 0.055385474 2.3509873e-38
-0.021476742 -0.12410025 0.055385474 1.7056175e-38
-0.019838069 -0.1249045 0.0524357 1.2723337e-38
-0.018088203 -0.1249045 0.0524357 1.8531662e-38
-0.016338333 -0.1249045 0.0524357 2.3509866e-38
-0.014588468 -0.1249045 0.0524357 2.3509866e-38
-0.012838598 -0.1249045 0.0524357 1.5211529e-38
-0.011253212 -0.12655462 0.046383385 1.5023887e-38
-0.0094927326 -0.12655462 0.046383385 1.6497935e-38
-0.0077322498 -0.12655462 0.046383385 1.7235149e-38
-0.0059717707 -0.12655462 0.046383385 1.9264178e-38
-0.00427185 -0.1273735 0.043379907 1.7512466e-38
-0.0025598705 -0.12816976 0.040459398 1.8803567e-38
-0.00083962828 -0.12899835 0.037420277 1.9633328e-38
0.00089100003 -0.12983195 0.034362797 1.3640612e-38
0.0026725568 -0.12983195 0.034362797 1.2811206e-38
0.0044541135 -0.12983195 0.034362797 1.8711723e-38
0.0062069986 -0.13064255 0.031389717 1.7144035e-38
0.0079701729 -0.13145791 0.028399114 1.5668905e-38
0.0097621828 -0.13145791 0.028399114 1.6405393e-38
0.011541009 -0.1322781 0.025390867 1.7879807e-38
0.013338298 -0.1322781 0.025390867 1.7325916e-38
0.015135583 -0.1322781 0.025390867 1.6313566e-38
0.016935524 -0.13310309 0.022364978 2.0281937e-38
0.018738115 -0.13310309 0.022364978 2.258863e-38
0.020553589 -0.13390426 0.01942635 2.350987e-38
0.022380119 -0.13473894 0.016364936 2.3509876e-38
0.024224257 -0.13581105 0.012432698 2.3325846e-38
