# .PCD v0.7 - Point Cloud Data file format
VERSION 0.7
FIELDS x y z rgb
SIZE 4 4 4 4
TYPE F F F F
COUNT 1 1 1 1
WIDTH 922
HEIGHT 1
VIEWPOINT 0 0 0 1 0 0 0
POINTS 922
DATA ascii
-0.054911796 -0.092737779 -0.054891691 2.3509886e-38
-0.052990559 -0.09203364 -0.051883444 2.3509886e-38
-0.05108057 -0.091333628 -0.048892841 2.3509886e-38
-0.049293801 -0.091333628 -0.048892841 2.3509886e-38
-0.047507033 -0.091333628 -0.048892841 2.3509886e-38
-0.045720264 -0.091333628 -0.048892841 2.3509886e-38
-0.043837059 -0.090637714 -0.045919761 2.3509886e-38
-0.042055503 -0.090637714 -0.045919761 2.3509883e-38
-0.040273946 -0.090637714 -0.045919761 2.3509883e-38
-0.038573187 -0.091333628 -0.048892841 2.3509886e-38
-0.036786418 -0.091333628 -0.048892841 2.3509886e-38
-0.033147722 -0.090637714 -0.045919761 2.3509886e-38
-0.031366166 -0.090637714 -0.045919761 2.3509886e-38
-0.029584613 -0.090637714 -0.045919761 2.3509886e-38
-0.027752127 -0.089922056 -0.042862281 2.3509886e-38
-0.025975931 -0.089922056 -0.042862281 2.3509886e-38
-0.024199735 -0.089922056 -0.042862281 2.3325494e-38
-0.022388905 -0.089210689 -0.03982316 2.341769e-38
-0.020618038 -0.089210689 -0.03982316 2.3509886e-38
-0.018871151 -0.089922056 -0.042862281 2.3509886e-38
-0.017094955 -0.089922056 -0.042862281 2.3509886e-38
-0.015318761 -0.089922056 -0.042862281 2.3141103e-38
-0.013534572 -0.089210689 -0.03982316 2.3141103e-38
-0.011763705 -0.089210689 -0.03982316 2.2772321e-38
-0.0099901743 -0.089922056 -0.042862281 2.3509883e-38
-0.0082219727 -0.089210689 -0.03982316 2.3233652e-38
-0.0064639077 -0.088527083 -0.036902651 2.3418043e-38
-0.004698161 -0.088527083 -0.036902651 2.350988e-38
-0.0029324153 -0.088527083 -0.036902651 2.3509883e-38
-0.058366593 -0.093825653 -0.051883444 2.3509527e-38
-0.056574587 -0.093825653 -0.051883444 2.3509527e-38
-0.054782573 -0.093825653 -0.051883444 2.3509527e-38
-0.052867338 -0.093120396 -0.048892841 2.3509886e-38
-0.05108057 -0.093120396 -0.048892841 2.3509886e-38
-0.049293801 -0.093120396 -0.048892841 2.3509886e-38
-0.047400169 -0.092419267 -0.045919761 2.3509886e-38
-0.045618612 -0.092419267 -0.045919761 2.3509886e-38
-0.043837059 -0.092419267 -0.045919761 2.3509883e-38
-0.041961689 -0.091698244 -0.042862281 2.3509883e-38
-0.040185492 -0.091698244 -0.042862281 2.3509883e-38
-0.038492389 -0.092419267 -0.045919761 2.3509886e-38
-0.036710832 -0.092419267 -0.045919761 2.3509886e-38
-0.034929279 -0.092419267 -0.045919761 2.3509886e-38
-0.033147722 -0.092419267 -0.045919761 2.3509886e-38
-0.03130452 -0.091698244 -0.042862281 2.3509886e-38
-0.029528324 -0.091698244 -0.042862281 2.3509886e-38
-0.027752127 -0.091698244 -0.042862281 2.3509886e-38
-0.025975931 -0.091698244 -0.042862281 2.3509886e-38
-0.024199735 -0.091698244 -0.042862281 2.3509886e-38
-0.022388905 -0.090981558 -0.03982316 2.2772321e-38
-0.020618038 -0.090981558 -0.03982316 2.3233299e-38
-0.018871151 -0.091698244 -0.042862281 2.3509886e-38
-0.017094955 -0.091698244 -0.042862281 2.3509886e-38
-0.015318761 -0.091698244 -0.042862281 2.341769e-38
-0.013534572 -0.090981558 -0.03982316 2.3509886e-38
-0.011763705 -0.090981558 -0.03982316 2.3509886e-38
-0.0099901743 -0.091698244 -0.042862281 2.3509883e-38
-0.0082296543 -0.090292826 -0.036902651 2.3509883e-38
-0.0064639077 -0.090292826 -0.036902651 2.3509883e-38
-0.004698161 -0.090292826 -0.036902651 2.3417687e-38
-0.0029324153 -0.090292826 -0.036902651 2.31411e-38
-0.059723642 -0.093474448 -0.042862281 2.3509527e-38
-0.057947446 -0.093474448 -0.042862281 2.3509527e-38
-0.056307953 -0.094200835 -0.045919761 2.3509527e-38
-0.054526392 -0.094200835 -0.045919761 2.3509527e-38
-0.052744839 -0.094200835 -0.045919761 2.3509886e-38
-0.050963283 -0.094200835 -0.045919761 2.3509886e-38
-0.049181726 -0.094200835 -0.045919761 2.3509886e-38
-0.047290273 -0.093474448 -0.042862281 2.3509886e-38
-0.045514077 -0.093474448 -0.042862281 2.3509886e-38
-0.043737885 -0.093474448 -0.042862281 2.3509883e-38
-0.041961689 -0.093474448 -0.042862281 2.3509883e-38
-0.040185492 -0.093474448 -0.042862281 2.3509883e-38
-0.038492389 -0.094200835 -0.045919761 2.3509886e-38
-0.0366331 -0.093474448 -0.042862281 2.3509886e-38
-0.034856908 -0.093474448 -0.042862281 2.3509886e-38
-0.033080712 -0.093474448 -0.042862281 2.3509886e-38
-0.03130452 -0.093474448 -0.042862281 2.3509886e-38
-0.029528324 -0.093474448 -0.042862281 2.3509886e-38
-0.027752127 -0.093474448 -0.042862281 2.3509886e-38
-0.025975931 -0.093474448 -0.042862281 2.3509886e-38
-0.024199735 -0.093474448 -0.042862281 2.3509886e-38
-0.022388905 -0.092752427 -0.03982316 2.3141103e-38
-0.020618038 -0.092752427 -0.03982316 2.3509886e-38
-0.018847171 -0.092752427 -0.03982316 2.3509886e-38
-0.017076306 -0.092752427 -0.03982316 2.3048907e-38
-0.015305439 -0.092752427 -0.03982316 2.3509886e-38
-0.01352689 -0.092058569 -0.036902651 2.3325494e-38
-0.011761146 -0.092058569 -0.036902651 2.3509886e-38
-0.0099928398 -0.092752427 -0.03982316 2.31411e-38
-0.0082296543 -0.092058569 -0.036902651 2.3509883e-38
-0.0064770728 -0.091345012 -0.033899173 2.3509883e-38
-0.0047165928 -0.091345012 -0.033899173 2.3325492e-38
-0.0029561128 -0.091345012 -0.033899173 2.3509883e-38
-0.0011956329 -0.091345012 -0.033899173 2.3509883e-38
-0.059723642 -0.095250636 -0.042862281 2.3509527e-38
-0.057947446 -0.095250636 -0.042862281 2.3509527e-38
-0.05617125 -0.095250636 -0.042862281 2.3416974e-38
-0.054395054 -0.095250636 -0.042862281 2.3324778e-38
-0.052744839 -0.095982388 -0.045919761 2.3509527e-38
-0.050842665 -0.095250636 -0.042862281 2.3509527e-38
-0.049066469 -0.095250636 -0.042862281 2.3509886e-38
-0.047290273 -0.095250636 -0.042862281 2.3509886e-38
-0.045514077 -0.095250636 -0.042862281 2.3509886e-38
-0.043639306 -0.094523281 -0.03982316 2.3509883e-38
-0.041868437 -0.094523281 -0.03982316 2.350988e-38
-0.040185492 -0.095250636 -0.042862281 2.3509883e-38
-0.038409296 -0.095250636 -0.042862281 2.3509886e-38
-0.0366331 -0.095250636 -0.042862281 2.3509886e-38
-0.034856908 -0.095250636 -0.042862281 2.3509886e-38
-0.033080712 -0.095250636 -0.042862281 2.3509886e-38
-0.031243239 -0.094523281 -0.03982316 2.3509886e-38
-0.02947237 -0.094523281 -0.03982316 2.3509886e-38
-0.027752127 -0.095250636 -0.042862281 2.3509886e-38
-0.025975931 -0.095250636 -0.042862281 2.3509886e-38
-0.02415977 -0.094523281 -0.03982316 2.3509886e-38
-0.022388905 -0.094523281 -0.03982316 2.3509886e-38
-0.020618038 -0.094523281 -0.03982316 2.3509886e-38
-0.018847171 -0.094523281 -0.03982316 2.3509886e-38
-0.017076306 -0.094523281 -0.03982316 2.3509886e-38
-0.015305439 -0.094523281 -0.03982316 2.3509886e-38
-0.013518993 -0.093105495 -0.033899173 2.3509886e-38
-0.011758512 -0.093105495 -0.033899173 2.3509886e-38
-0.009995399 -0.093824327 -0.036902651 2.3509886e-38
-0.0082375519 -0.093105495 -0.033899173 2.3509886e-38
-0.0064770728 -0.093105495 -0.033899173 2.3509883e-38
-0.0047349147 -0.092390925 -0.030913457 2.3509883e-38
-0.0029796707 -0.092390925 -0.030913457 2.3509883e-38
-0.0012244256 -0.092390925 -0.030913457 2.3509883e-38
0.0004958706 -0.091656998 -0.027846858 2.3509883e-38
0.0022069495 -0.090951025 -0.024897084 2.3509883e-38
0.0039064903 -0.09022589 -0.021867201 2.3509883e-38
0.005595712 -0.089505136 -0.018855676 2.3509883e-38
0.007329816 -0.089505136 -0.018855676 2.3509883e-38
-0.061652612 -0.097763941 -0.045919761 2.3508798e-38
-0.059871059 -0.097763941 -0.045919761 2.3508444e-38
-0.057947446 -0.09702684 -0.042862281 2.3509527e-38
-0.05617125 -0.09702684 -0.042862281 2.3509527e-38
-0.054395054 -0.09702684 -0.042862281 2.3509168e-38
-0.052618857 -0.09702684 -0.042862281 2.3509527e-38
-0.05072277 -0.09629415 -0.03982316 2.3509527e-38
-0.048951905 -0.09629415 -0.03982316 2.3509886e-38
-0.047181036 -0.09629415 -0.03982316 2.3509886e-38
-0.045410171 -0.09629415 -0.03982316 2.3509886e-38
-0.043544572 -0.09559007 -0.036902651 2.3509883e-38
-0.041778829 -0.09559007 -0.036902651 2.350988e-38
-0.040097572 -0.09629415 -0.03982316 2.350988e-38
-0.038326707 -0.09629415 -0.03982316 2.3509886e-38
-0.036555838 -0.09629415 -0.03982316 2.3509886e-38
-0.034784969 -0.09629415 -0.03982316 2.3509886e-38
-0.033014107 -0.09629415 -0.03982316 2.3509886e-38
-0.031243239 -0.09629415 -0.03982316 2.3509886e-38
-0.02947237 -0.09629415 -0.03982316 2.3509886e-38
-0.027701505 -0.09629415 -0.03982316 2.3509886e-38
-0.025930639 -0.09629415 -0.03982316 2.3509886e-38
-0.02415977 -0.09629415 -0.03982316 2.3509886e-38
-0.02235562 -0.09559007 -0.036902651 2.3509886e-38
-0.020589875 -0.09559007 -0.036902651 2.3509886e-38
-0.01882413 -0.09559007 -0.036902651 2.3509886e-38
-0.017058384 -0.09559007 -0.036902651 2.3509886e-38
-0.015279472 -0.094865978 -0.033899173 2.3509886e-38
-0.013518993 -0.094865978 -0.033899173 2.3509886e-38
-0.011758512 -0.094865978 -0.033899173 2.3509886e-38
-0.0099980328 -0.094865978 -0.033899173 2.3509886e-38
-0.0082454048 -0.094146177 -0.030913457 2.3509886e-38
-0.0064901598 -0.094146177 -0.030913457 2.3509883e-38
-0.0047349147 -0.094146177 -0.030913457 2.3509883e-38
-0.0029796707 -0.094146177 -0.030913457 2.3509883e-38
-0.0012539979 -0.093406871 -0.027846858 2.3509883e-38
0.0004958706 -0.093406871 -0.027846858 2.3509883e-38
0.0022069495 -0.092695728 -0.024897084 2.3509883e-38
0.0039064903 -0.091965273 -0.021867201 2.3509883e-38
0.005595712 -0.091239244 -0.018855676 2.3417687e-38
0.007329816 -0.091239244 -0.018855676 2.3509883e-38
0.00906392 -0.091239244 -0.018855676 2.3325492e-38
-0.061652612 -0.099545494 -0.045919761 2.3508793e-38
-0.059723642 -0.098803028 -0.042862281 2.350952e-38
-0.057947446 -0.098803028 -0.042862281 2.3509521e-38
-0.056035366 -0.098065019 -0.03982316 2.3508807e-38
-0.054264504 -0.098065019 -0.03982316 2.3509527e-38
-0.052493636 -0.098065019 -0.03982316 2.3509527e-38
-0.050607558 -0.097355813 -0.036902651 2.3509527e-38
-0.048841812 -0.097355813 -0.036902651 2.3509886e-38
-0.04696811 -0.096626461 -0.033899173 2.3509886e-38
-0.045207631 -0.096626461 -0.033899173 2.3509886e-38
-0.043447152 -0.096626461 -0.033899173 2.3509883e-38
-0.041686673 -0.096626461 -0.033899173 2.3418045e-38
-0.03992619 -0.096626461 -0.033899173 2.3418045e-38
-0.038001228 -0.095156729 -0.027846858 2.3509886e-38
-0.036176365 -0.094440416 -0.024897084 2.3509886e-38
-0.034359954 -0.093704656 -0.021867201 2.3509886e-38
-0.032620568 -0.093704656 -0.021867201 2.3509886e-38
-0.030881185 -0.093704656 -0.021867201 2.3509886e-38
-0.029308345 -0.095901415 -0.030913457 2.3509886e-38
-0.027602833 -0.096626461 -0.033899173 2.3509886e-38
-0.025930639 -0.098065019 -0.03982316 2.3509886e-38
-0.024121366 -0.097355813 -0.036902651 2.3509886e-38
-0.02235562 -0.097355813 -0.036902651 2.3509886e-38
-0.020589875 -0.097355813 -0.036902651 2.3509886e-38
-0.018800432 -0.096626461 -0.033899173 2.3509886e-38
-0.017039951 -0.096626461 -0.033899173 2.3509886e-38
-0.015266385 -0.095901415 -0.030913457 2.3509886e-38
-0.01351114 -0.095901415 -0.030913457 2.3509886e-38
-0.011755895 -0.095901415 -0.030913457 2.3509886e-38
-0.0099980328 -0.096626461 -0.033899173 2.3509886e-38
-0.0082454048 -0.095901415 -0.030913457 2.3509886e-38
-0.0064901598 -0.095901415 -0.030913457 2.3509886e-38
-0.0047349147 -0.095901415 -0.030913457 2.3509886e-38
-0.0029796707 -0.095901415 -0.030913457 2.3509886e-38
-0.0012539979 -0.095156729 -0.027846858 2.3509886e-38
0.0004958706 -0.095156729 -0.027846858 2.3509883e-38
0.0021671066 -0.093704656 -0.021867201 2.3509883e-38
0.0039064903 -0.093704656 -0.021867201 2.3509883e-38
0.005595712 -0.092973351 -0.018855676 2.3509883e-38
0.007329816 -0.092973351 -0.018855676 2.3417687e-38
0.00906392 -0.092973351 -0.018855676 2.3509883e-38
0.01093043 -0.094440416 -0.024897084 2.350988e-38
0.012675127 -0.094440416 -0.024897084 2.350988e-38
-0.061652612 -0.10132705 -0.045919761 2.3508428e-38
-0.059723642 -0.10057923 -0.042862281 2.3509873e-38
-0.057806235 -0.099835888 -0.03982316 2.350952e-38
-0.055904794 -0.099121556 -0.036902651 2.3231857e-38
-0.05401003 -0.098386943 -0.033899173 2.3509527e-38
-0.052249551 -0.098386943 -0.033899173 2.3509527e-38
-0.050489068 -0.098386943 -0.033899173 2.3509527e-38
-0.048728589 -0.098386943 -0.033899173 2.3509886e-38
-0.04696811 -0.098386943 -0.033899173 2.3509886e-38
-0.045105547 -0.097656667 -0.030913457 2.3509886e-38
-0.043350302 -0.097656667 -0.030913457 2.3509883e-38
-0.04159506 -0.097656667 -0.030913457 2.3418047e-38
-0.039839815 -0.097656667 -0.030913457 2.3418047e-38
-0.038001228 -0.096906602 -0.027846858 2.3509886e-38
-0.036176365 -0.096185118 -0.024897084 2.3509886e-38
-0.034359954 -0.095444039 -0.021867201 2.3509886e-38
-0.032620568 -0.095444039 -0.021867201 2.3509886e-38
-0.030881185 -0.095444039 -0.021867201 2.3509886e-38
-0.029197585 -0.096185118 -0.024897084 2.3509886e-38
-0.027502019 -0.096906602 -0.027846858 2.3509886e-38
-0.025752153 -0.096906602 -0.027846858 2.3509886e-38
-0.024081871 -0.098386943 -0.033899173 2.3509886e-38
-0.022321392 -0.098386943 -0.033899173 2.3509886e-38
-0.020560913 -0.098386943 -0.033899173 2.3509886e-38
-0.018800432 -0.098386943 -0.033899173 2.3509886e-38
-0.01702163 -0.097656667 -0.030913457 2.3509886e-38
-0.015252942 -0.096906602 -0.027846858 2.3509886e-38
-0.013495317 -0.096185118 -0.024897084 2.3509886e-38
-0.01175062 -0.096185118 -0.024897084 2.3509886e-38
-0.010003338 -0.096906602 -0.027846858 2.3509886e-38
-0.0082534701 -0.096906602 -0.027846858 2.3509886e-38
-0.0065036025 -0.096906602 -0.027846858 2.3509886e-38
-0.004753734 -0.096906602 -0.027846858 2.3509886e-38
-0.0030038655 -0.096906602 -0.027846858 2.3509886e-38
-0.0012539979 -0.096906602 -0.027846858 2.3509886e-38
0.0004958706 -0.096906602 -0.027846858 2.3509883e-38
0.0021671066 -0.095444039 -0.021867201 2.3509883e-38
0.0039064903 -0.095444039 -0.021867201 2.3509883e-38
0.005595712 -0.094707444 -0.018855676 2.3509883e-38
0.007329816 -0.094707444 -0.018855676 2.3417687e-38
0.00906392 -0.094707444 -0.018855676 2.3509883e-38
0.01093043 -0.096185118 -0.024897084 2.350988e-38
0.012675127 -0.096185118 -0.024897084 2.3233652e-38
0.020298958 -0.10132705 -0.045919761 2.341805e-38
0.022080515 -0.10132705 -0.045919761 2.341805e-38
0.027425181 -0.10132705 -0.045919761 2.3509886e-38
0.029206738 -0.10132705 -0.045919761 2.3509886e-38
0.030737091 -0.099835888 -0.03982316 2.3509886e-38
0.03250796 -0.099835888 -0.03982316 2.341769e-38
-0.059723642 -0.10235542 -0.042862281 2.3415512e-38
-0.057530988 -0.10014741 -0.033899173 2.3509873e-38
-0.055770513 -0.10014741 -0.033899173 2.3509879e-38
-0.053881776 -0.099411905 -0.030913457 2.3509524e-38
-0.052126527 -0.099411905 -0.030913457 2.3509527e-38
-0.050371282 -0.099411905 -0.030913457 2.3509527e-38
-0.048616037 -0.099411905 -0.030913457 2.3509886e-38
-0.046860792 -0.099411905 -0.030913457 2.3509886e-38
-0.045105547 -0.099411905 -0.030913457 2.341805e-38
-0.043250833 -0.098656476 -0.027846858 2.3418047e-38
-0.041500967 -0.098656476 -0.027846858 2.3418047e-38
-0.039751098 -0.098656476 -0.027846858 2.3418047e-38
-0.037921064 -0.09792982 -0.024897084 2.3509886e-38
-0.036176365 -0.09792982 -0.024897084 2.3509886e-38
-0.034359954 -0.097183421 -0.021867201 2.3509886e-38
-0.032620568 -0.097183421 -0.021867201 2.3509886e-38
-0.030881185 -0.097183421 -0.021867201 2.3509886e-38
-0.029141802 -0.097183421 -0.021867201 2.3509886e-38
-0.02740242 -0.097183421 -0.021867201 2.3509886e-38
-0.025663037 -0.097183421 -0.021867201 2.3509886e-38
-0.023963492 -0.09792982 -0.024897084 2.3509886e-38
-0.022218797 -0.09792982 -0.024897084 2.3509886e-38
-0.020474102 -0.09792982 -0.024897084 2.3509886e-38
-0.018729405 -0.09792982 -0.024897084 2.3509886e-38
-0.016984709 -0.09792982 -0.024897084 2.3509886e-38
-0.015240014 -0.09792982 -0.024897084 2.3509886e-38
-0.013487348 -0.097183421 -0.021867201 2.3509886e-38
-0.011747964 -0.097183421 -0.021867201 2.3509886e-38
-0.010005925 -0.09792982 -0.024897084 2.3509886e-38
-0.008261228 -0.09792982 -0.024897084 2.3509886e-38
-0.0065165311 -0.09792982 -0.024897084 2.3509886e-38
-0.0047718361 -0.09792982 -0.024897084 2.3509886e-38
-0.0030271392 -0.09792982 -0.024897084 2.3509886e-38
-0.0012824433 -0.09792982 -0.024897084 2.3509886e-38
0.00046225265 -0.09792982 -0.024897084 2.3509883e-38
0.0021671066 -0.097183421 -0.021867201 2.3509883e-38
0.0039064903 -0.097183421 -0.021867201 2.3509883e-38
0.005645873 -0.097183421 -0.021867201 2.3509883e-38
0.0073852576 -0.097183421 -0.021867201 2.3233652e-38
0.0091246422 -0.097183421 -0.021867201 2.350988e-38
0.01093043 -0.09792982 -0.024897084 2.350988e-38
0.012744948 -0.098656476 -0.027846858 2.22195e-38
0.014494816 -0.098656476 -0.027846858 2.3325846e-38
0.018517401 -0.1031086 -0.045919761 2.3509883e-38
0.020298958 -0.1031086 -0.045919761 2.341805e-38
0.022080515 -0.1031086 -0.045919761 2.341805e-38
0.023862068 -0.1031086 -0.045919761 2.341805e-38
0.025643624 -0.1031086 -0.045919761 2.341805e-38
0.027425181 -0.1031086 -0.045919761 2.3234379e-38
0.02908612 -0.10235542 -0.042862281 2.3234379e-38
0.030737091 -0.10160676 -0.03982316 2.3234379e-38
0.03250796 -0.10160676 -0.03982316 2.3234379e-38
-0.057530988 -0.10190789 -0.033899173 2.3507351e-38
-0.055637013 -0.10116716 -0.030913457 2.3509517e-38
-0.053881776 -0.10116716 -0.030913457 2.332405e-38
-0.052000172 -0.10040633 -0.027846858 2.3509883e-38
-0.050250307 -0.10040633 -0.027846858 2.3509527e-38
-0.048616037 -0.10116716 -0.030913457 2.3509886e-38
-0.046750568 -0.10040633 -0.027846858 2.3509886e-38
-0.045000702 -0.10040633 -0.027846858 2.341805e-38
-0.043155152 -0.099674508 -0.024897084 2.341805e-38
-0.041410457 -0.099674508 -0.024897084 2.3418047e-38
-0.039578106 -0.098922804 -0.021867201 2.3418047e-38
-0.037838724 -0.098922804 -0.021867201 2.3509886e-38
-0.036099337 -0.098922804 -0.021867201 2.3509886e-38
-0.034359954 -0.098922804 -0.021867201 2.3509886e-38
-0.032620568 -0.098922804 -0.021867201 2.3509886e-38
-0.030881185 -0.098922804 -0.021867201 2.3509886e-38
-0.029141802 -0.098922804 -0.021867201 2.3509886e-38
-0.02740242 -0.098922804 -0.021867201 2.3509886e-38
-0.025663037 -0.098922804 -0.021867201 2.3509886e-38
-0.02392365 -0.098922804 -0.021867201 2.3509886e-38
-0.022184268 -0.098922804 -0.021867201 2.3509886e-38
-0.020444883 -0.098922804 -0.021867201 2.3509886e-38
-0.018705498 -0.098922804 -0.021867201 2.3509886e-38
-0.016966116 -0.098922804 -0.021867201 2.3509886e-38
-0.015226733 -0.098922804 -0.021867201 2.3509886e-38
-0.013487348 -0.098922804 -0.021867201 2.3509886e-38
-0.011747964 -0.098922804 -0.021867201 2.3509886e-38
-0.010008581 -0.098922804 -0.021867201 2.3509886e-38
-0.0082691964 -0.098922804 -0.021867201 2.3509886e-38
-0.0065298118 -0.098922804 -0.021867201 2.3509886e-38
-0.004790429 -0.098922804 -0.021867201 2.3509886e-38
-0.0030510454 -0.098922804 -0.021867201 2.3509886e-38
-0.0012824433 -0.099674508 -0.024897084 2.3509886e-38
0.00046225265 -0.099674508 -0.024897084 2.3509883e-38
0.0021671066 -0.098922804 -0.021867201 2.3509883e-38
0.0039064903 -0.098922804 -0.021867201 2.3233296e-38
0.005645873 -0.098922804 -0.021867201 2.3509883e-38
0.0073852576 -0.098922804 -0.021867201 2.2957065e-38
0.0091246422 -0.098922804 -0.021867201 2.350988e-38
0.01093043 -0.099674508 -0.024897084 2.2772674e-38
0.012744948 -0.10040633 -0.027846858 2.074437e-38
0.014494816 -0.10040633 -0.027846858 2.2588281e-38
0.016735844 -0.10489015 -0.045919761 2.350988e-38
0.018517401 -0.10489015 -0.045919761 2.3509883e-38
0.020298958 -0.10489015 -0.045919761 2.3509886e-38
0.022080515 -0.10489015 -0.045919761 2.341805e-38
0.023862068 -0.10489015 -0.045919761 2.341805e-38
0.025643624 -0.10489015 -0.045919761 2.3234379e-38
0.027425181 -0.10489015 -0.045919761 2.3142544e-38
0.02908612 -0.10413162 -0.042862281 2.3142544e-38
0.030862313 -0.10413162 -0.042862281 2.3142544e-38
0.032382503 -0.10265306 -0.036902651 2.3142544e-38
0.03414825 -0.10265306 -0.036902651 2.3234379e-38
0.036049694 -0.10337763 -0.03982316 2.3141822e-38
-0.055637013 -0.10292239 -0.030913457 2.3324041e-38
-0.053750042 -0.10215621 -0.027846858 2.3324407e-38
-0.052000172 -0.10215621 -0.027846858 2.3509883e-38
-0.050250307 -0.10215621 -0.027846858 2.3509527e-38
-0.048500437 -0.10215621 -0.027846858 2.3509886e-38
-0.046750568 -0.10215621 -0.027846858 2.3509886e-38
-0.044899847 -0.10141921 -0.024897084 2.341805e-38
-0.043056872 -0.10066219 -0.021867201 2.341805e-38
-0.041317489 -0.10066219 -0.021867201 2.3418047e-38
-0.039578106 -0.10066219 -0.021867201 2.3418047e-38
-0.037756879 -0.099909768 -0.018855676 2.3509886e-38
-0.036022775 -0.099909768 -0.018855676 2.3509886e-38
-0.034288671 -0.099909768 -0.018855676 2.3509886e-38
-0.032554567 -0.099909768 -0.018855676 2.3509886e-38
-0.030779537 -0.099402651 -0.016826019 2.3509886e-38
-0.029048994 -0.099402651 -0.016826019 2.3509886e-38
-0.027318452 -0.099402651 -0.016826019 2.3509886e-38
-0.025587905 -0.099402651 -0.016826019 2.3509886e-38
-0.023857359 -0.099402651 -0.016826019 2.3509886e-38
-0.022149947 -0.099909768 -0.018855676 2.3509886e-38
-0.020415843 -0.099909768 -0.018855676 2.3509886e-38
-0.018681739 -0.099909768 -0.018855676 2.3509886e-38
-0.016947635 -0.099909768 -0.018855676 2.3509886e-38
-0.015213531 -0.099909768 -0.018855676 2.3509886e-38
-0.013479428 -0.099909768 -0.018855676 2.3509886e-38
-0.011745324 -0.099909768 -0.018855676 2.3509886e-38
-0.01001122 -0.099909768 -0.018855676 2.3509886e-38
-0.0082771163 -0.099909768 -0.018855676 2.3509886e-38
-0.0065430142 -0.099909768 -0.018855676 2.3509886e-38
-0.004790429 -0.10066219 -0.021867201 2.3509886e-38
-0.0030510454 -0.10066219 -0.021867201 2.3509886e-38
-0.0013116617 -0.10066219 -0.021867201 2.3509886e-38
0.0004958706 -0.10215621 -0.027846858 2.3509886e-38
0.0022069495 -0.10141921 -0.024897084 2.3509886e-38
0.0039516455 -0.10141921 -0.024897084 2.31411e-38
0.0056963414 -0.10141921 -0.024897084 2.3509883e-38
0.0074410383 -0.10141921 -0.024897084 2.2864869e-38
0.0091857333 -0.10141921 -0.024897084 2.350988e-38
0.010995079 -0.10215621 -0.027846858 2.2035109e-38
0.012744948 -0.10215621 -0.027846858 1.9453631e-38
0.014494816 -0.10215621 -0.027846858 2.1850716e-38
0.016735844 -0.10667174 -0.045919761 2.3233652e-38
0.018517401 -0.10667174 -0.045919761 2.3509883e-38
0.020298958 -0.10667174 -0.045919761 2.3509886e-38
0.022080515 -0.10667174 -0.045919761 2.341805e-38
0.023862068 -0.10667174 -0.045919761 2.3234379e-38
0.025643624 -0.10667174 -0.045919761 2.3142544e-38
0.027425181 -0.10667174 -0.045919761 2.2958873e-38
0.02908612 -0.10590781 -0.042862281 2.2867037e-38
0.030737091 -0.10514848 -0.03982316 2.2867037e-38
0.032382503 -0.1044188 -0.036902651 2.2958873e-38
0.03414825 -0.1044188 -0.036902651 2.3142544e-38
0.035913996 -0.1044188 -0.036902651 2.3326213e-38
0.037679743 -0.1044188 -0.036902651 2.323258e-38
-0.053750042 -0.10390608 -0.027846858 2.3509863e-38
-0.052000172 -0.10390608 -0.027846858 2.3509873e-38
-0.050250307 -0.10390608 -0.027846858 2.3509521e-38
-0.048500437 -0.10390608 -0.027846858 2.3509527e-38
-0.046535641 -0.10240157 -0.021867201 2.3509886e-38
-0.044796258 -0.10240157 -0.021867201 2.341805e-38
-0.043056872 -0.10240157 -0.021867201 2.341805e-38
-0.041317489 -0.10240157 -0.021867201 2.341805e-38
-0.039578106 -0.10240157 -0.021867201 2.3418047e-38
-0.037756879 -0.10164386 -0.018855676 2.3418047e-38
-0.036022775 -0.10164386 -0.018855676 2.3509883e-38
-0.034288671 -0.10164386 -0.018855676 2.3509886e-38
-0.032554567 -0.10164386 -0.018855676 2.3509883e-38
-0.030779537 -0.1011332 -0.016826019 2.3509883e-38
-0.028994113 -0.10038316 -0.013845012 2.3509883e-38
-0.027268793 -0.10038316 -0.013845012 2.3509883e-38
-0.025543477 -0.10038316 -0.013845012 2.3509883e-38
-0.023818161 -0.10038316 -0.013845012 2.3509883e-38
-0.022092842 -0.10038316 -0.013845012 2.3509883e-38
-0.020367522 -0.10038316 -0.013845012 2.3509883e-38
-0.018642204 -0.10038316 -0.013845012 2.3509883e-38
-0.016916886 -0.10038316 -0.013845012 2.3509883e-38
-0.015191568 -0.10038316 -0.013845012 2.3509883e-38
-0.01347409 -0.1011332 -0.016826019 2.3509883e-38
-0.011743546 -0.1011332 -0.016826019 2.3509886e-38
-0.010012999 -0.1011332 -0.016826019 2.3509886e-38
-0.0082771163 -0.10164386 -0.018855676 2.3509886e-38
-0.0065430142 -0.10164386 -0.018855676 2.3509527e-38
-0.004790429 -0.10240157 -0.021867201 2.3509886e-38
-0.0030510454 -0.10240157 -0.021867201 2.3509886e-38
-0.0013116617 -0.10240157 -0.021867201 2.3509886e-38
0.0004958706 -0.10390608 -0.027846858 2.3509886e-38
0.0022457391 -0.10390608 -0.027846858 2.3509886e-38
0.0039956067 -0.10390608 -0.027846858 2.3325494e-38
0.0057454742 -0.10390608 -0.027846858 2.3509886e-38
0.0074953437 -0.10390608 -0.027846858 2.2956709e-38
0.0092452113 -0.10390608 -0.027846858 2.3509883e-38
0.010995079 -0.10390608 -0.027846858 2.1758166e-38
0.012817534 -0.10467763 -0.030913457 1.8807906e-38
0.014725044 -0.10618456 -0.036902651 2.1573775e-38
0.016652754 -0.107684 -0.042862281 2.31411e-38
0.018428948 -0.107684 -0.042862281 2.3509883e-38
0.020298958 -0.10845329 -0.045919761 2.3509883e-38
0.022080515 -0.10845329 -0.045919761 2.3509883e-38
0.023757532 -0.107684 -0.042862281 2.3418047e-38
0.025533728 -0.107684 -0.042862281 2.3234376e-38
0.027309924 -0.107684 -0.042862281 2.3142541e-38
0.028851014 -0.10618456 -0.036902651 2.295887e-38
0.030616757 -0.10618456 -0.036902651 2.295887e-38
0.032125227 -0.10467763 -0.030913457 2.2314577e-38
0.033880472 -0.10467763 -0.030913457 2.3142544e-38
0.035635717 -0.10467763 -0.030913457 2.341805e-38
0.037390962 -0.10467763 -0.030913457 2.3509527e-38
0.040742837 -0.10390608 -0.027846858 2.3508809e-38
0.042492706 -0.10390608 -0.027846858 2.3508451e-38
0.048948303 -0.10164386 -0.018855676 2.3509168e-38
-0.053750042 -0.10565595 -0.027846858 2.350983e-38
-0.052000172 -0.10565595 -0.027846858 2.3509856e-38
-0.050250307 -0.10565595 -0.027846858 2.3509514e-38
-0.048389241 -0.1049086 -0.024897084 2.3507725e-38
-0.046427395 -0.10337795 -0.018855676 2.3509168e-38
-0.044693291 -0.10337795 -0.018855676 2.3509527e-38
-0.042959191 -0.10337795 -0.018855676 2.3325856e-38
-0.041225087 -0.10337795 -0.018855676 2.2865955e-38
-0.039490979 -0.10337795 -0.018855676 2.3234376e-38
-0.037701719 -0.10286374 -0.016826019 2.3418047e-38
-0.035971176 -0.10286374 -0.016826019 2.3418045e-38
-0.03424063 -0.10286374 -0.016826019 2.3418047e-38
-0.032510083 -0.10286374 -0.016826019 2.3418045e-38
-0.030719433 -0.10210848 -0.013845012 2.3418045e-38
-0.028994113 -0.10210848 -0.013845012 2.3418045e-38
-0.027268793 -0.10210848 -0.013845012 2.3418045e-38
-0.025499318 -0.10135777 -0.010881945 2.3418045e-38
-0.023779195 -0.10135777 -0.010881945 2.3418045e-38
-0.022059072 -0.10135777 -0.010881945 2.3418045e-38
-0.020338949 -0.10135777 -0.010881945 2.3418045e-38
-0.018618826 -0.10135777 -0.010881945 2.3418045e-38
-0.016880047 -0.10058756 -0.0078419298 2.3418043e-38
-0.015165254 -0.10058756 -0.0078419298 2.3418043e-38
-0.013458457 -0.10135777 -0.010881945 2.3418043e-38
-0.011738334 -0.10135777 -0.010881945 2.3418045e-38
-0.010018211 -0.10135777 -0.010881945 2.3509886e-38
-0.0082980879 -0.10135777 -0.010881945 2.3509527e-38
-0.0065430142 -0.10337795 -0.018855676 2.3509527e-38
-0.0048089102 -0.10337795 -0.018855676 2.3509527e-38
-0.0030748062 -0.10337795 -0.018855676 2.3509527e-38
0.0004958706 -0.10565595 -0.027846858 2.3509527e-38
0.0022457391 -0.10565595 -0.027846858 2.3509527e-38
0.0039956067 -0.10565595 -0.027846858 2.3509527e-38
0.0057454742 -0.10565595 -0.027846858 2.3509527e-38
0.0074953437 -0.10565595 -0.027846858 2.3509527e-38
0.0092452113 -0.10565595 -0.027846858 2.3509527e-38
0.010995079 -0.10565595 -0.027846858 2.3509527e-38
0.012817534 -0.1064329 -0.030913457 2.3509527e-38
0.014725044 -0.10795029 -0.036902651 2.3509527e-38
0.01657016 -0.10869022 -0.03982316 2.3509886e-38
0.018428948 -0.10946019 -0.042862281 2.3509883e-38
0.020298958 -0.11023484 -0.045919761 2.350988e-38
0.02198134 -0.10946019 -0.042862281 2.3509879e-38
0.023757532 -0.10946019 -0.042862281 2.3509879e-38
0.025424492 -0.10869022 -0.03982316 2.3418043e-38
0.027195361 -0.10869022 -0.03982316 2.3418043e-38
0.028851014 -0.10795029 -0.036902651 2.3234372e-38
0.030493006 -0.10718934 -0.033899173 2.3234372e-38
0.032125227 -0.1064329 -0.030913457 2.3234374e-38
0.033880472 -0.1064329 -0.030913457 2.3234376e-38
0.035493232 -0.10565595 -0.027846858 2.341805e-38
0.037243102 -0.10565595 -0.027846858 2.3509886e-38
0.038992971 -0.10565595 -0.027846858 2.3509527e-38
0.040742837 -0.10565595 -0.027846858 2.3509168e-38
0.042492706 -0.10565595 -0.027846858 2.3509168e-38
0.044079658 -0.1049086 -0.024897084 2.3509168e-38
0.0456517 -0.10414095 -0.021867201 2.3140384e-38
0.047214199 -0.10337795 -0.018855676 2.350988e-38
0.048948303 -0.10337795 -0.018855676 2.3509876e-38
0.050682407 -0.10337795 -0.018855676 2.3325131e-38
-0.052000172 -0.10740583 -0.027846858 2.3509846e-38
-0.050014406 -0.10588033 -0.021867201 2.3509507e-38
-0.048161499 -0.10511206 -0.018855676 2.3508081e-38
-0.046427395 -0.10511206 -0.018855676 2.3508451e-38
-0.044693291 -0.10511206 -0.018855676 2.3509527e-38
-0.042893354 -0.10459428 -0.016826019 2.3417691e-38
-0.041162807 -0.10459428 -0.016826019 2.2958154e-38
-0.039432261 -0.10459428 -0.016826019 2.3234376e-38
-0.037620705 -0.10383381 -0.013845012 2.3418047e-38
-0.035820056 -0.1030779 -0.010881945 2.3418047e-38
-0.034099933 -0.1030779 -0.010881945 2.3418047e-38
-0.032313183 -0.10230236 -0.0078419298 2.3418047e-38
-0.030598391 -0.10230236 -0.0078419298 2.3418045e-38
-0.028883595 -0.10230236 -0.0078419298 2.3418045e-38
-0.027168807 -0.10230236 -0.0078419298 2.3418045e-38
-0.025454011 -0.10230236 -0.0078419298 2.3418045e-38
-0.023739219 -0.10230236 -0.0078419298 2.3418045e-38
-0.022024427 -0.10230236 -0.0078419298 2.3418045e-38
-0.020309633 -0.10230236 -0.0078419298 2.3418045e-38
-0.018594841 -0.10230236 -0.0078419298 2.3418045e-38
-0.016862085 -0.10155563 -0.0049148649 2.3418043e-38
-0.015143365 -0.1010284 -0.002848193 2.3418043e-38
-0.013437329 -0.1010284 -0.002848193 2.3418043e-38
-0.011731291 -0.1010284 -0.002848193 2.3418045e-38
-0.010025254 -0.1010284 -0.002848193 2.3509886e-38
-0.0083192158 -0.1010284 -0.002848193 2.3509886e-38
-0.00661318 -0.1010284 -0.002848193 2.3509527e-38
-0.0049071424 -0.1010284 -0.002848193 2.3509886e-38
0.0004958706 -0.10740583 -0.027846858 2.3509527e-38
0.0022457391 -0.10740583 -0.027846858 2.3509886e-38
0.0039956067 -0.10740583 -0.027846858 2.3509527e-38
0.0057454742 -0.10740583 -0.027846858 2.3509886e-38
0.0074953437 -0.10740583 -0.027846858 2.3509527e-38
0.0092452113 -0.10740583 -0.027846858 2.3509886e-38
0.010995079 -0.10740583 -0.027846858 2.3509527e-38
0.012744948 -0.10740583 -0.027846858 2.3509886e-38
0.014648685 -0.10894983 -0.033899173 2.3509527e-38
0.016490791 -0.10971604 -0.036902651 2.3509886e-38
0.018428948 -0.11123641 -0.042862281 2.3509883e-38
0.020205144 -0.11123641 -0.042862281 2.350988e-38
0.02198134 -0.11123641 -0.042862281 2.350988e-38
0.023653626 -0.11046107 -0.03982316 2.3509879e-38
0.025424492 -0.11046107 -0.03982316 2.3509879e-38
0.027195361 -0.11046107 -0.03982316 2.3509879e-38
0.028851014 -0.10971604 -0.036902651 2.3418043e-38
0.030493006 -0.10894983 -0.033899173 2.3418043e-38
0.032125227 -0.10818814 -0.030913457 2.3418045e-38
0.033880472 -0.10818814 -0.030913457 2.3418047e-38
0.035493232 -0.10740583 -0.027846858 2.341805e-38
0.037243102 -0.10740583 -0.027846858 2.341805e-38
0.038992971 -0.10740583 -0.027846858 2.341805e-38
0.040742837 -0.10740583 -0.027846858 2.3417691e-38
0.042492706 -0.10740583 -0.027846858 2.3417691e-38
0.044079658 -0.10665329 -0.024897084 2.3417691e-38
0.0456517 -0.10588033 -0.021867201 2.3141466e-38
0.047214199 -0.10511206 -0.018855676 2.3418043e-38
0.048948303 -0.10511206 -0.018855676 2.3417676e-38
0.050869852 -0.10588033 -0.021867201 2.3416603e-38
0.052609235 -0.10588033 -0.021867201 2.3509168e-38
0.054348618 -0.10588033 -0.021867201 2.3509168e-38
-0.051546078 -0.10632484 -0.016826019 2.3509841e-38
-0.049815532 -0.10632484 -0.016826019 2.350986e-38
-0.048084989 -0.10632484 -0.016826019 2.3508441e-38
-0.046354443 -0.10632484 -0.016826019 2.3508451e-38
-0.0446239 -0.10632484 -0.016826019 2.3509168e-38
-0.04279666 -0.10555913 -0.013845012 2.3417691e-38
-0.041071344 -0.10555913 -0.013845012 2.2958154e-38
-0.039260302 -0.104798 -0.010881945 2.3234379e-38
-0.037540179 -0.104798 -0.010881945 2.341805e-38
-0.035742771 -0.10401715 -0.0078419298 2.3509886e-38
-0.033958692 -0.1032653 -0.0049148649 2.3509886e-38
-0.03224903 -0.1032653 -0.0049148649 2.3509886e-38
-0.030539371 -0.1032653 -0.0049148649 2.3509886e-38
-0.028829712 -0.1032653 -0.0049148649 2.3509886e-38
-0.02712005 -0.1032653 -0.0049148649 2.3509886e-38
-0.025410388 -0.1032653 -0.0049148649 2.3509886e-38
-0.023739219 -0.10401715 -0.0078419298 2.3509886e-38
-0.022024427 -0.10401715 -0.0078419298 2.3509886e-38
-0.020309633 -0.10401715 -0.0078419298 2.3509886e-38
-0.018571746 -0.1032653 -0.0049148649 2.3509886e-38
-0.016862085 -0.1032653 -0.0049148649 2.3509883e-38
-0.015143365 -0.10273445 -0.002848193 2.3509883e-38
-0.013437329 -0.10273445 -0.002848193 2.3509883e-38
-0.011731291 -0.10273445 -0.002848193 2.3509883e-38
-0.010025254 -0.10273445 -0.002848193 2.3509883e-38
-0.0083270818 -0.10196631 0.00014223158 2.350988e-38
-0.0066262875 -0.10196631 0.00014223158 2.3509883e-38
-0.0049254932 -0.10196631 0.00014223158 2.350988e-38
-0.0032481495 -0.10120286 0.0031144172 2.3509883e-38
-0.0015525678 -0.10120286 0.0031144172 2.350988e-38
0.0022457391 -0.10915567 -0.027846858 2.350988e-38
0.0039956067 -0.10915567 -0.027846858 2.3509883e-38
0.0057454742 -0.10915567 -0.027846858 2.350988e-38
0.0074953437 -0.10915567 -0.027846858 2.3509883e-38
0.0089031421 -0.104798 -0.010881945 2.350988e-38
0.010623265 -0.104798 -0.010881945 2.3509883e-38
0.012082446 -0.10196631 0.00014223158 2.350988e-38
0.013783241 -0.10196631 0.00014223158 2.3509883e-38
0.016490791 -0.11148177 -0.036902651 2.3509883e-38
0.018428948 -0.1130126 -0.042862281 2.3509886e-38
0.018885622 -0.10196631 0.00014223158 2.3509886e-38
0.020490009 -0.10120286 0.0031144172 2.3509886e-38
0.02218559 -0.10120286 0.0031144172 2.3509886e-38
0.023988005 -0.10196631 0.00014223158 2.3509883e-38
0.025688797 -0.10196631 0.00014223158 2.3509883e-38
0.02738959 -0.10196631 0.00014223158 2.350988e-38
0.029090386 -0.10196631 0.00014223158 2.350988e-38
0.031993497 -0.10915567 -0.027846858 2.3509883e-38
0.033743367 -0.10915567 -0.027846858 2.3509883e-38
0.035493232 -0.10915567 -0.027846858 2.341805e-38
0.037243102 -0.10915567 -0.027846858 2.341805e-38
0.038992971 -0.10915567 -0.027846858 2.341805e-38
0.040742837 -0.10915567 -0.027846858 2.341805e-38
0.042492706 -0.10915567 -0.027846858 2.341805e-38
0.044079658 -0.10839801 -0.024897084 2.341805e-38
0.045824353 -0.10839801 -0.024897084 2.341805e-38
0.047214199 -0.10684617 -0.018855676 2.3417687e-38
0.048948303 -0.10684617 -0.018855676 2.3233288e-38
0.050682407 -0.10684617 -0.018855676 2.3509164e-38
0.052416511 -0.10684617 -0.018855676 2.3508809e-38
0.053234003 -0.1032653 -0.0049148649 2.3509168e-38
-0.051175904 -0.10573195 -0.0078419298 2.3509831e-38
-0.049461111 -0.10573195 -0.0078419298 2.3509856e-38
-0.047972616 -0.10728444 -0.013845012 2.3509517e-38
-0.046247296 -0.10728444 -0.013845012 2.3508091e-38
-0.044521976 -0.10728444 -0.013845012 2.3509168e-38
-0.042700548 -0.10651813 -0.010881945 2.3509527e-38
-0.040980425 -0.10651813 -0.010881945 2.3233662e-38
-0.039172355 -0.10573195 -0.0078419298 2.3234379e-38
-0.037457559 -0.10573195 -0.0078419298 2.3509886e-38
-0.035668354 -0.10497494 -0.0049148649 2.3509886e-38
-0.033909772 -0.10444047 -0.002848193 2.3509527e-38
-0.032203738 -0.10444047 -0.002848193 2.3509886e-38
-0.0304977 -0.10444047 -0.002848193 2.3509527e-38
-0.028791662 -0.10444047 -0.002848193 2.3509886e-38
-0.027085625 -0.10444047 -0.002848193 2.3509527e-38
-0.025410388 -0.10497494 -0.0049148649 2.3509886e-38
-0.023700729 -0.10497494 -0.0049148649 2.3509527e-38
-0.021991067 -0.10497494 -0.0049148649 2.3509886e-38
-0.020281406 -0.10497494 -0.0049148649 2.3509527e-38
-0.018571746 -0.10497494 -0.0049148649 2.3509886e-38
-0.016849402 -0.10444047 -0.002848193 2.3509886e-38
-0.015143365 -0.10444047 -0.002848193 2.3509886e-38
-0.013429463 -0.1036671 0.00014223158 2.3509886e-38
-0.011728669 -0.1036671 0.00014223158 2.3509886e-38
-0.010027876 -0.1036671 0.00014223158 2.350988e-38
-0.0083270818 -0.1036671 0.00014223158 2.3509879e-38
-0.0066262875 -0.1036671 0.00014223158 2.350988e-38
-0.0049437331 -0.10289843 0.0031144172 2.3509879e-38
-0.0032481495 -0.10289843 0.0031144172 2.350988e-38
-0.0015525678 -0.10289843 0.0031144172 2.3509879e-38
0.00014301483 -0.10289843 0.0031144172 2.350988e-38
0.0018385984 -0.10289843 0.0031144172 2.3509879e-38
0.003534181 -0.10289843 0.0031144172 2.350988e-38
0.0052297637 -0.10289843 0.0031144172 2.3509879e-38
0.0070351176 -0.10444047 -0.002848193 2.350988e-38
0.0087411553 -0.10444047 -0.002848193 2.3509879e-38
0.010447193 -0.10444047 -0.002848193 2.350988e-38
0.012082446 -0.1036671 0.00014223158 2.3509879e-38
0.013783241 -0.1036671 0.00014223158 2.350988e-38
0.015484033 -0.1036671 0.00014223158 2.3509883e-38
0.017184827 -0.1036671 0.00014223158 2.3509527e-38
0.018885622 -0.1036671 0.00014223158 2.3509527e-38
0.020490009 -0.10289843 0.0031144172 2.3509527e-38
0.02218559 -0.10289843 0.0031144172 2.3509527e-38
0.023988005 -0.1036671 0.00014223158 2.3509886e-38
0.025688797 -0.1036671 0.00014223158 2.3509886e-38
0.02738959 -0.1036671 0.00014223158 2.3509883e-38
0.029090386 -0.1036671 0.00014223158 2.3509883e-38
0.030791178 -0.1036671 0.00014223158 2.3509883e-38
0.033743367 -0.11090554 -0.027846858 2.3509883e-38
0.035493232 -0.11090554 -0.027846858 2.3418047e-38
0.037243102 -0.11090554 -0.027846858 2.3418047e-38
0.038845569 -0.11014269 -0.024897084 2.341805e-38
0.040433548 -0.1093591 -0.021867201 2.341805e-38
0.042172935 -0.1093591 -0.021867201 2.341805e-38
0.043912318 -0.1093591 -0.021867201 2.341805e-38
0.0456517 -0.1093591 -0.021867201 2.341805e-38
0.047094982 -0.10805537 -0.016826019 2.3509883e-38
0.048825528 -0.10805537 -0.016826019 2.350952e-38
0.050556075 -0.10805537 -0.016826019 2.3509527e-38
0.052286617 -0.10805537 -0.016826019 2.3508809e-38
0.053234003 -0.10497494 -0.0049148649 2.304748e-38
0.054943666 -0.10497494 -0.0049148649 2.268192e-38
0.056097247 -0.10289843 0.0031144172 2.2867032e-38
0.057792827 -0.10289843 0.0031144172 2.2224189e-38
0.059488408 -0.10289843 0.0031144172 2.2132353e-38
0.061405472 -0.1036671 0.00014223158 2.075264e-38
-0.051055301 -0.10668461 -0.0049148649 2.3322909e-38
-0.049345639 -0.10668461 -0.0049148649 2.3509848e-38
-0.047860917 -0.10823826 -0.010881945 2.3509153e-38
-0.046247296 -0.10900976 -0.013845012 2.3508445e-38
-0.044420671 -0.10823826 -0.010881945 2.3509168e-38
-0.042601939 -0.10744675 -0.0078419298 2.3509886e-38
-0.040797334 -0.10668461 -0.0049148649 2.3325856e-38
-0.039087672 -0.10668461 -0.0049148649 2.3234379e-38
-0.037378013 -0.10668461 -0.0049148649 2.3509527e-38
-0.035615813 -0.1061465 -0.002848193 2.3509527e-38
-0.033838991 -0.10536788 0.00014223158 2.3509527e-38
-0.032138195 -0.10536788 0.00014223158 2.3509527e-38
-0.030437402 -0.10536788 0.00014223158 2.3509527e-38
-0.02873661 -0.10536788 0.00014223158 2.3509527e-38
-0.027035814 -0.10536788 0.00014223158 2.3509527e-38
-0.025335021 -0.10536788 0.00014223158 2.3509527e-38
-0.023634229 -0.10536788 0.00014223158 2.3509527e-38
-0.021933433 -0.10536788 0.00014223158 2.3509527e-38
-0.020261478 -0.1061465 -0.002848193 2.3509527e-38
-0.018531844 -0.10536788 0.00014223158 2.3509527e-38
-0.016831052 -0.10536788 0.00014223158 2.3509527e-38
-0.015117228 -0.10459404 0.0031144172 2.3509527e-38
-0.013421647 -0.10459404 0.0031144172 2.3509527e-38
-0.011726065 -0.10459404 0.0031144172 2.3509886e-38
-0.01003048 -0.10459404 0.0031144172 2.3509883e-38
-0.0083348975 -0.10459404 0.0031144172 2.350988e-38
-0.0066526681 -0.10380094 0.0061603934 2.3509883e-38
-0.0049742591 -0.10329883 0.008088842 2.350988e-38
-0.0032873983 -0.10329883 0.008088842 2.3509883e-38
-0.0015525678 -0.10459404 0.0031144172 2.350988e-38
0.00014301483 -0.10459404 0.0031144172 2.3509883e-38
0.0018385984 -0.10459404 0.0031144172 2.350988e-38
0.003534181 -0.10459404 0.0031144172 2.3509883e-38
0.0052297637 -0.10459404 0.0031144172 2.350988e-38
0.0069253463 -0.10459404 0.0031144172 2.3509883e-38
0.0087411553 -0.1061465 -0.002848193 2.350988e-38
0.010381652 -0.10536788 0.00014223158 2.3509883e-38
0.012082446 -0.10536788 0.00014223158 2.350988e-38
0.013783241 -0.10536788 0.00014223158 2.3509883e-38
0.015484033 -0.10536788 0.00014223158 2.3509886e-38
0.017184827 -0.10536788 0.00014223158 2.3509527e-38
0.018885622 -0.10536788 0.00014223158 2.3509527e-38
0.020586416 -0.10536788 0.00014223158 2.3509527e-38
0.022287209 -0.10536788 0.00014223158 2.3509527e-38
0.023988005 -0.10536788 0.00014223158 2.3509886e-38
0.025688797 -0.10536788 0.00014223158 2.3509886e-38
0.02727234 -0.10459404 0.0031144172 2.3509883e-38
0.028967921 -0.10459404 0.0031144172 2.3509883e-38
0.030449819 -0.10329883 0.008088842 2.350988e-38
0.032001887 -0.10251388 0.011103645 2.350988e-38
0.033544261 -0.10173382 0.014099613 2.350988e-38
0.035220582 -0.10173382 0.014099613 2.350988e-38
0.037046611 -0.10251388 0.011103645 2.350988e-38
0.038728189 -0.10251388 0.011103645 2.350988e-38
0.040570986 -0.10329883 0.008088842 2.350988e-38
0.042532582 -0.10459404 0.0031144172 2.3509883e-38
0.044228166 -0.10459404 0.0031144172 2.3233296e-38
0.046098325 -0.10536788 0.00014223158 2.3325492e-38
0.047619332 -0.10459404 0.0031144172 2.350952e-38
0.049314912 -0.10459404 0.0031144172 2.3509527e-38
0.051200707 -0.10536788 0.00014223158 2.3508809e-38
0.052901499 -0.10536788 0.00014223158 2.3509168e-38
0.054602295 -0.10536788 0.00014223158 2.3326206e-38
0.056097247 -0.10459404 0.0031144172 2.2775186e-38
0.057792827 -0.10459404 0.0031144172 2.1854686e-38
0.059488408 -0.10459404 0.0031144172 2.2499695e-38
0.061405472 -0.10536788 0.00014223158 2.2499678e-38
0.063106261 -0.10536788 0.00014223158 8.395898e-39
-0.051055301 -0.10839428 -0.0049148649 2.1939966e-38
-0.049345639 -0.10839428 -0.0049148649 2.3508039e-38
-0.047635976 -0.10839428 -0.0049148649 2.350951e-38
-0.046031527 -0.10916151 -0.0078419298 2.3508802e-38
-0.044216655 -0.10839428 -0.0049148649 2.3509524e-38
-0.042506997 -0.10839428 -0.0049148649 2.3509883e-38
-0.040797334 -0.10839428 -0.0049148649 2.332621e-38
-0.039087672 -0.10839428 -0.0049148649 2.341805e-38
-0.037378013 -0.10839428 -0.0049148649 2.3509886e-38
-0.035615813 -0.10785256 -0.002848193 2.3509886e-38
-0.033838991 -0.1070687 0.00014223158 2.3509527e-38
-0.032073054 -0.10628961 0.0031144172 2.3509886e-38
-0.030377474 -0.10628961 0.0031144172 2.3509527e-38
-0.028681893 -0.10628961 0.0031144172 2.3509527e-38
-0.026935574 -0.10549118 0.0061603934 2.3509527e-38
-0.025245331 -0.10549118 0.0061603934 2.3509527e-38
-0.023555089 -0.10549118 0.0061603934 2.3509527e-38
-0.021864846 -0.10549118 0.0061603934 2.3509527e-38
-0.020174604 -0.10549118 0.0061603934 2.3509527e-38
-0.018508395 -0.10628961 0.0031144172 2.3509527e-38
-0.016812813 -0.10628961 0.0031144172 2.3509527e-38
-0.015117228 -0.10628961 0.0031144172 2.3509527e-38
-0.013413636 -0.10549118 0.0061603934 2.3509527e-38
-0.011723394 -0.10549118 0.0061603934 2.3509886e-38
-0.01003048 -0.10628961 0.0031144172 2.3509886e-38
-0.0083479807 -0.1049857 0.008088842 2.3509886e-38
-0.0066611208 -0.1049857 0.008088842 2.3509886e-38
-0.0049742591 -0.1049857 0.008088842 2.3509886e-38
-0.0032873983 -0.1049857 0.008088842 2.3509886e-38
-0.0016005374 -0.1049857 0.008088842 2.3509886e-38
0.00014301483 -0.10628961 0.0031144172 2.3509886e-38
0.0018385984 -0.10628961 0.0031144172 2.3509886e-38
0.003534181 -0.10628961 0.0031144172 2.3509886e-38
0.0052297637 -0.10628961 0.0031144172 2.3509886e-38
0.0069253463 -0.10628961 0.0031144172 2.3509886e-38
0.0087411553 -0.10785256 -0.002848193 2.3509886e-38
0.010381652 -0.1070687 0.00014223158 2.3509886e-38
0.012082446 -0.1070687 0.00014223158 2.3509886e-38
0.013783241 -0.1070687 0.00014223158 2.3509886e-38
0.015484033 -0.1070687 0.00014223158 2.3509886e-38
0.017184827 -0.1070687 0.00014223158 2.3509886e-38
0.018885622 -0.1070687 0.00014223158 2.3509886e-38
0.020586416 -0.1070687 0.00014223158 2.3509886e-38
0.022287209 -0.1070687 0.00014223158 2.3509886e-38
0.023988005 -0.1070687 0.00014223158 2.3509886e-38
0.025688797 -0.1070687 0.00014223158 2.3509883e-38
0.02727234 -0.10628961 0.0031144172 2.350988e-38
0.028842416 -0.10549118 0.0061603934 2.3509879e-38
0.030449819 -0.1049857 0.008088842 2.3509876e-38
0.032001887 -0.10419546 0.011103645 2.3509876e-38
0.033544261 -0.10341014 0.014099613 2.3509876e-38
0.035220582 -0.10341014 0.014099613 2.3509876e-38
0.037046611 -0.10419546 0.011103645 2.3509876e-38
0.038728189 -0.10419546 0.011103645 2.3509876e-38
0.040570986 -0.1049857 0.008088842 2.3509876e-38
0.042257845 -0.1049857 0.008088842 2.3509876e-38
0.043944705 -0.1049857 0.008088842 2.3417323e-38
0.045923747 -0.10628961 0.0031144172 2.3509879e-38
0.047619332 -0.10628961 0.0031144172 2.3509879e-38
0.049314912 -0.10628961 0.0031144172 2.3416248e-38
0.051010497 -0.10628961 0.0031144172 2.3508809e-38
0.052706078 -0.10628961 0.0031144172 2.3509527e-38
0.054401658 -0.10628961 0.0031144172 2.350987e-38
0.056303091 -0.1070687 0.00014223158 2.323436e-38
0.057792827 -0.10628961 0.0031144172 2.3142538e-38
0.059488408 -0.10628961 0.0031144172 2.1669559e-38
0.061405472 -0.1070687 0.00014223158 2.2499659e-38
0.063106261 -0.1070687 0.00014223158 9.1309309e-39
0.064807057 -0.1070687 0.00014223158 5.5335287e-39
-0.053979445 -0.10718144 0.0061603934 1.9449954e-38
-0.052206364 -0.10667257 0.008088842 1.9174075e-38
-0.050519504 -0.10667257 0.008088842 2.06485e-38
-0.048908718 -0.10718144 0.0061603934 2.3322199e-38
-0.047218479 -0.10718144 0.0061603934 2.3509504e-38
-0.045637719 -0.10798518 0.0031144172 2.3508802e-38
-0.043566551 -0.10508646 0.014099613 2.350916e-38
-0.04189023 -0.10508646 0.014099613 2.3509879e-38
-0.040213909 -0.10508646 0.014099613 2.3418042e-38
-0.038711477 -0.10667257 0.008088842 2.350988e-38
-0.037024613 -0.10667257 0.008088842 2.350988e-38
-0.035386782 -0.10718144 0.0061603934 2.350988e-38
-0.033696543 -0.10718144 0.0061603934 2.3509883e-38
-0.032006297 -0.10718144 0.0061603934 2.350988e-38
-0.030277174 -0.10667257 0.008088842 2.3509883e-38
-0.02859031 -0.10667257 0.008088842 2.3509883e-38
-0.026853234 -0.10587703 0.011103645 2.3509883e-38
-0.02517166 -0.10587703 0.011103645 2.3509883e-38
-0.023490082 -0.10587703 0.011103645 2.3509883e-38
-0.021808509 -0.10587703 0.011103645 2.3509883e-38
-0.020126935 -0.10587703 0.011103645 2.3509883e-38
-0.018469147 -0.10667257 0.008088842 2.3509883e-38
-0.016782286 -0.10667257 0.008088842 2.3509527e-38
-0.015095424 -0.10667257 0.008088842 2.3509527e-38
-0.013408564 -0.10667257 0.008088842 2.3509527e-38
-0.011721702 -0.10667257 0.008088842 2.3509527e-38
-0.010033151 -0.10718144 0.0061603934 2.3509527e-38
-0.0083479807 -0.10667257 0.008088842 2.3509527e-38
-0.0066611208 -0.10667257 0.008088842 2.3509527e-38
-0.0049742591 -0.10667257 0.008088842 2.3509527e-38
-0.0032873983 -0.10667257 0.008088842 2.3509527e-38
-0.0016005374 -0.10667257 0.008088842 2.3509527e-38
0.00010830164 -0.10718144 0.0061603934 2.3509527e-38
0.0017731842 -0.10667257 0.008088842 2.3509527e-38
0.003460045 -0.10667257 0.008088842 2.3509527e-38
0.0051469058 -0.10667257 0.008088842 2.3509527e-38
0.0068692695 -0.10718144 0.0061603934 2.3509527e-38
0.008620929 -0.10798518 0.0031144172 2.3509527e-38
0.010316512 -0.10798518 0.0031144172 2.3509527e-38
0.012082446 -0.10876949 0.00014223158 2.3509527e-38
0.013783241 -0.10876949 0.00014223158 2.3509527e-38
0.015484033 -0.10876949 0.00014223158 2.3509527e-38
0.017184827 -0.10876949 0.00014223158 2.350988e-38
0.018885622 -0.10876949 0.00014223158 2.3509879e-38
0.020490009 -0.10798518 0.0031144172 2.3509879e-38
0.02218559 -0.10798518 0.0031144172 2.3509876e-38
0.023881175 -0.10798518 0.0031144172 2.3509876e-38
0.025576755 -0.10798518 0.0031144172 2.3509873e-38
0.027152173 -0.10718144 0.0061603934 2.3509873e-38
0.028842416 -0.10718144 0.0061603934 2.350987e-38
0.030449819 -0.10667257 0.008088842 2.3509869e-38
0.032001887 -0.10587703 0.011103645 2.3509867e-38
0.033683464 -0.10587703 0.011103645 2.3509867e-38
0.035365038 -0.10587703 0.011103645 2.3509867e-38
