# .PCD v0.7 - Point Cloud Data file format
VERSION 0.7
FIELDS x y z rgb
SIZE 4 4 4 4
TYPE F F F F
COUNT 1 1 1 1
WIDTH 932
HEIGHT 1
VIEWPOINT 0 0 0 1 0 0 0
POINTS 932
DATA ascii
-0.050593659 -0.096378669 -0.0642021 2.3509886e-38
-0.048605263 -0.096378669 -0.0642021 2.3509886e-38
-0.04661686 -0.096378669 -0.0642021 2.3509886e-38
-0.044812515 -0.097229466 -0.068163306 2.3509886e-38
-0.042955145 -0.097892255 -0.071249157 2.3509886e-38
-0.040954389 -0.097892255 -0.071249157 2.3509886e-38
-0.038953632 -0.097892255 -0.071249157 2.3509886e-38
-0.036952883 -0.097892255 -0.071249157 2.3509886e-38
-0.034952126 -0.097892255 -0.071249157 2.3509886e-38
-0.033095531 -0.098753676 -0.075259835 2.3509886e-38
-0.031087747 -0.098753676 -0.075259835 2.3509886e-38
-0.027316878 -0.10046658 -0.083234817 2.3509886e-38
-0.025177458 -0.099593118 -0.079168111 2.3509886e-38
-0.023162821 -0.099593118 -0.079168111 2.3509168e-38
-0.021251572 -0.10046658 -0.083234817 2.3509168e-38
-0.019418059 -0.1021748 -0.091188103 2.3509168e-38
-0.017470406 -0.10303779 -0.095206052 2.3325856e-38
-0.015509227 -0.1039068 -0.099252015 2.2958514e-38
-0.013459379 -0.1039068 -0.099252015 2.2958873e-38
-0.011409527 -0.1039068 -0.099252015 2.2867037e-38
-0.009418359 -0.10475256 -0.10318974 2.2775202e-38
-0.0073616039 -0.10475256 -0.10318974 2.2775202e-38
0.01113884 -0.1039068 -0.099252015 2.3416974e-38
0.013188692 -0.1039068 -0.099252015 2.3325138e-38
0.015213715 -0.10303779 -0.095206052 2.3509527e-38
0.017256472 -0.10303779 -0.095206052 2.3509527e-38
-0.061339527 -0.094246268 -0.045171645 2.2311331e-38
-0.059384495 -0.094246268 -0.045171645 2.350988e-38
-0.057902828 -0.095991403 -0.053230908 2.3509886e-38
-0.055933669 -0.095991403 -0.053230908 2.3509886e-38
-0.053964511 -0.095991403 -0.053230908 2.3509886e-38
-0.051995352 -0.095991403 -0.053230908 2.3509886e-38
-0.050383642 -0.097487867 -0.060141828 2.3509886e-38
-0.048402369 -0.097487867 -0.060141828 2.3509886e-38
-0.04661686 -0.098367065 -0.0642021 2.3509886e-38
-0.044628464 -0.098367065 -0.0642021 2.3509886e-38
-0.042817175 -0.099224806 -0.068163306 2.3509886e-38
-0.040821828 -0.099224806 -0.068163306 2.3509886e-38
-0.038826488 -0.099224806 -0.068163306 2.3509886e-38
-0.036831141 -0.099224806 -0.068163306 2.3509886e-38
-0.034835801 -0.099224806 -0.068163306 2.3509886e-38
-0.032840461 -0.099224806 -0.068163306 2.3509886e-38
-0.030845119 -0.099224806 -0.068163306 2.3509886e-38
-0.02894987 -0.099893004 -0.071249157 2.3509886e-38
-0.027316878 -0.10248834 -0.083234817 2.3509886e-38
-0.02529511 -0.10248834 -0.083234817 2.3509886e-38
-0.023273339 -0.10248834 -0.083234817 2.3509168e-38
-0.021251572 -0.10248834 -0.083234817 2.3509527e-38
-0.019323608 -0.10334648 -0.08719781 2.3509527e-38
-0.017382348 -0.10421051 -0.091188103 2.341805e-38
-0.015427651 -0.10508056 -0.095206052 2.3234379e-38
-0.013384892 -0.10508056 -0.095206052 2.2774125e-38
-0.011342132 -0.10508056 -0.095206052 2.2681931e-38
-0.0093596745 -0.10595666 -0.099252015 2.2775202e-38
-0.0073098224 -0.10595666 -0.099252015 2.2867037e-38
0.0070531797 -0.10248834 -0.083234817 2.350988e-38
0.0090749469 -0.10248834 -0.083234817 2.3509527e-38
0.011117632 -0.10421051 -0.091188103 2.3509168e-38
0.013153345 -0.10421051 -0.091188103 2.3325138e-38
0.015213715 -0.10508056 -0.095206052 2.3417333e-38
0.017256472 -0.10508056 -0.095206052 2.3509527e-38
0.01929923 -0.10508056 -0.095206052 2.3509527e-38
0.021341987 -0.10508056 -0.095206052 2.3509527e-38
0.023227323 -0.10248834 -0.083234817 2.3325138e-38
0.025249092 -0.10248834 -0.083234817 2.295672e-38
0.027270859 -0.10248834 -0.083234817 2.3049273e-38
0.029292626 -0.10248834 -0.083234817 2.3233662e-38
-0.069717795 -0.097960562 -0.053230908 2.3509879e-38
-0.067479834 -0.097091287 -0.049248721 2.3509873e-38
-0.065055847 -0.095558092 -0.042225029 2.3509872e-38
-0.063105971 -0.095558092 -0.042225029 2.3233288e-38
-0.061339527 -0.096201301 -0.045171645 2.2956346e-38
-0.059384495 -0.096201301 -0.045171645 2.3141103e-38
-0.057668939 -0.097091287 -0.049248721 2.3509527e-38
-0.055706754 -0.097091287 -0.049248721 2.2864883e-38
-0.053744569 -0.097091287 -0.049248721 2.3509527e-38
-0.051782399 -0.097091287 -0.049248721 2.3509886e-38
-0.050026193 -0.097960562 -0.053230908 2.3509886e-38
-0.048402369 -0.09946914 -0.060141828 2.3509886e-38
-0.046421088 -0.09946914 -0.060141828 2.3509886e-38
-0.044628464 -0.10035546 -0.0642021 2.3509886e-38
-0.042640068 -0.10035546 -0.0642021 2.3509886e-38
-0.040651664 -0.10035546 -0.0642021 2.3509886e-38
-0.038663268 -0.10035546 -0.0642021 2.3509886e-38
-0.036674872 -0.10035546 -0.0642021 2.3509886e-38
-0.034686476 -0.10035546 -0.0642021 2.3509886e-38
-0.03269808 -0.10035546 -0.0642021 2.3509886e-38
-0.030709686 -0.10035546 -0.0642021 2.3509883e-38
-0.028721286 -0.10035546 -0.0642021 2.3509883e-38
-0.027316878 -0.10451011 -0.083234817 2.3509883e-38
-0.025177458 -0.10362239 -0.079168111 2.3509883e-38
-0.023162821 -0.10362239 -0.079168111 2.3325494e-38
-0.021251572 -0.10451011 -0.083234817 2.3233299e-38
-0.019323608 -0.10537519 -0.08719781 2.3509886e-38
-0.017382348 -0.10624625 -0.091188103 2.3509886e-38
-0.015346633 -0.10624625 -0.091188103 2.341805e-38
-0.013310919 -0.10624625 -0.091188103 2.341805e-38
-0.011275208 -0.10624625 -0.091188103 2.341805e-38
-0.009299377 -0.1071233 -0.095206052 2.341805e-38
-0.0072566178 -0.1071233 -0.095206052 2.3325856e-38
-0.00082087331 -0.098616585 -0.056236174 2.341805e-38
0.0070531797 -0.10451011 -0.083234817 2.3509883e-38
0.0090749469 -0.10451011 -0.083234817 2.3509883e-38
0.011096716 -0.10451011 -0.083234817 2.341769e-38
0.013118483 -0.10451011 -0.083234817 2.3325497e-38
0.015140251 -0.10451011 -0.083234817 2.3233302e-38
0.017162019 -0.10451011 -0.083234817 2.3325138e-38
0.01929923 -0.1071233 -0.095206052 2.3325138e-38
0.021341987 -0.1071233 -0.095206052 2.3141467e-38
0.023227323 -0.10451011 -0.083234817 2.3141467e-38
0.025249092 -0.10451011 -0.083234817 2.341805e-38
0.027270859 -0.10451011 -0.083234817 2.341805e-38
0.029292626 -0.10451011 -0.083234817 2.3142185e-38
0.031010503 -0.10122015 -0.068163306 2.3234379e-38
0.079683594 -0.097091287 -0.049248721 8.2075578e-39
0.081377707 -0.096201301 -0.045171645 7.3767182e-39
0.08333274 -0.096201301 -0.045171645 7.1912451e-39
-0.077594444 -0.09992972 -0.053230908 2.3509527e-38
-0.075625286 -0.09992972 -0.053230908 2.3509527e-38
-0.073366359 -0.099053472 -0.049248721 2.3416974e-38
-0.071404189 -0.099053472 -0.049248721 2.2956349e-38
-0.069442004 -0.099053472 -0.049248721 2.304782e-38
-0.067479834 -0.099053472 -0.049248721 2.3508795e-38
-0.065055847 -0.097507954 -0.042225029 2.3509879e-38
-0.063105971 -0.097507954 -0.042225029 2.350988e-38
-0.061339527 -0.098156333 -0.045171645 2.3509886e-38
-0.059384495 -0.098156333 -0.045171645 2.2587576e-38
-0.057429463 -0.098156333 -0.045171645 2.3417691e-38
-0.05547443 -0.098156333 -0.045171645 2.3417691e-38
-0.053519398 -0.098156333 -0.045171645 2.3509527e-38
-0.051782399 -0.099053472 -0.049248721 2.3509886e-38
-0.049820215 -0.099053472 -0.049248721 2.3509886e-38
-0.048057027 -0.09992972 -0.053230908 2.3509886e-38
-0.046232775 -0.100591 -0.056236174 2.3509886e-38
-0.044439808 -0.10145043 -0.060141828 2.3509886e-38
-0.042458534 -0.10145043 -0.060141828 2.3509886e-38
-0.040477253 -0.10145043 -0.060141828 2.3509886e-38
-0.038495973 -0.10145043 -0.060141828 2.3509886e-38
-0.036514699 -0.10145043 -0.060141828 2.3509886e-38
-0.034533419 -0.10145043 -0.060141828 2.3509886e-38
-0.032552145 -0.10145043 -0.060141828 2.3509886e-38
-0.030570863 -0.10145043 -0.060141828 2.3509883e-38
-0.028589586 -0.10145043 -0.060141828 2.3509883e-38
-0.026854431 -0.1032155 -0.068163306 2.3509883e-38
-0.024948364 -0.10389452 -0.071249157 2.3509883e-38
-0.023056606 -0.10477705 -0.075259835 2.3418045e-38
-0.021251572 -0.10653187 -0.083234817 2.3326208e-38
-0.019323608 -0.10740392 -0.08719781 2.3325492e-38
-0.017294893 -0.10740392 -0.08719781 2.341769e-38
-0.015266174 -0.10740392 -0.08719781 2.3509886e-38
-0.013310919 -0.10828196 -0.091188103 2.3509527e-38
-0.011275208 -0.10828196 -0.091188103 2.3509527e-38
-0.0092394967 -0.10828196 -0.091188103 2.3509527e-38
-0.007203782 -0.10828196 -0.091188103 2.3509168e-38
-0.0047354829 -0.09992972 -0.053230908 2.3509527e-38
-0.0027663242 -0.09992972 -0.053230908 2.3509527e-38
-0.00082087331 -0.100591 -0.056236174 2.3509886e-38
0.0011535566 -0.100591 -0.056236174 2.3509886e-38
0.0031279866 -0.100591 -0.056236174 2.341805e-38
0.0050921459 -0.10145043 -0.060141828 2.332621e-38
0.0070531797 -0.10653187 -0.083234817 2.3234015e-38
0.0090749469 -0.10653187 -0.083234817 2.350988e-38
0.011086021 -0.10563703 -0.079168111 2.350988e-38
0.013100658 -0.10563703 -0.079168111 2.3509883e-38
0.015140251 -0.10653187 -0.083234817 2.3509883e-38
0.017162019 -0.10653187 -0.083234817 2.3509886e-38
0.01929923 -0.10916607 -0.095206052 2.3509886e-38
0.021341987 -0.10916607 -0.095206052 2.341805e-38
0.023227323 -0.10653187 -0.083234817 2.341805e-38
0.025188483 -0.10563703 -0.079168111 2.3049273e-38
0.027203122 -0.10563703 -0.079168111 2.3325856e-38
0.029071972 -0.10389452 -0.071249157 2.3234379e-38
0.031010503 -0.1032155 -0.068163306 2.3050349e-38
0.033005849 -0.1032155 -0.068163306 2.2865958e-38
0.035001189 -0.1032155 -0.068163306 2.2865955e-38
0.036996529 -0.1032155 -0.068163306 2.3234379e-38
0.038991876 -0.1032155 -0.068163306 2.3234376e-38
0.056779794 -0.10234386 -0.0642021 2.341805e-38
0.058768198 -0.10234386 -0.0642021 2.341805e-38
0.060756594 -0.10234386 -0.0642021 2.3050349e-38
0.077721417 -0.099053472 -0.049248721 6.2732531e-39
0.079683594 -0.099053472 -0.049248721 6.917182e-39
0.081377707 -0.098156333 -0.045171645 7.0079357e-39
0.08333274 -0.098156333 -0.045171645 6.9153771e-39
-0.081532761 -0.10189888 -0.053230908 2.3234379e-38
-0.079563603 -0.10189888 -0.053230908 2.3234379e-38
-0.077290729 -0.10101564 -0.049248721 2.3509527e-38
-0.075328544 -0.10101564 -0.049248721 2.3509527e-38
-0.073366359 -0.10101564 -0.049248721 2.3509527e-38
-0.071404189 -0.10101564 -0.049248721 2.3509527e-38
-0.069442004 -0.10101564 -0.049248721 2.3509521e-38
-0.067479834 -0.10101564 -0.049248721 2.3509879e-38
-0.065249577 -0.10011137 -0.045171645 2.2771955e-38
-0.063294545 -0.10011137 -0.045171645 2.2679762e-38
-0.061339527 -0.10011137 -0.045171645 2.3509886e-38
-0.059384495 -0.10011137 -0.045171645 2.3509527e-38
-0.057429463 -0.10011137 -0.045171645 2.3417691e-38
-0.05547443 -0.10011137 -0.045171645 2.3233303e-38
-0.053519398 -0.10011137 -0.045171645 2.341805e-38
-0.051564366 -0.10011137 -0.045171645 2.341805e-38
-0.049609333 -0.10011137 -0.045171645 2.341805e-38
-0.047858037 -0.10101564 -0.049248721 2.341805e-38
-0.04589586 -0.10101564 -0.049248721 2.3509886e-38
-0.044118702 -0.10189888 -0.053230908 2.3509886e-38
-0.042149544 -0.10189888 -0.053230908 2.3509886e-38
-0.040180385 -0.10189888 -0.053230908 2.3509886e-38
-0.038335048 -0.10256544 -0.056236174 2.3509886e-38
-0.036360621 -0.10256544 -0.056236174 2.3509886e-38
-0.034386188 -0.10256544 -0.056236174 2.3509883e-38
-0.032411762 -0.10256544 -0.056236174 2.3509883e-38
-0.03043733 -0.10256544 -0.056236174 2.3509883e-38
-0.028365416 -0.10189888 -0.053230908 2.3509883e-38
-0.026396258 -0.10189888 -0.053230908 2.3509883e-38
-0.024744494 -0.10433225 -0.0642021 2.350988e-38
-0.022756094 -0.10433225 -0.0642021 2.3418043e-38
-0.020767698 -0.10433225 -0.0642021 2.3234372e-38
-0.019133547 -0.10765167 -0.079168111 2.3418045e-38
-0.01687772 -0.10521083 -0.068163306 2.3233652e-38
-0.014882376 -0.10521083 -0.068163306 2.314074e-38
-0.012814106 -0.10433225 -0.0642021 2.3508446e-38
-0.010758081 -0.10343169 -0.060141828 2.3508809e-38
-0.0086738039 -0.10189888 -0.053230908 2.3508809e-38
-0.0067046452 -0.10189888 -0.053230908 2.3508451e-38
-0.0046901014 -0.10101564 -0.049248721 2.3508809e-38
-0.0027279202 -0.10101564 -0.049248721 2.3509168e-38
-0.00076574273 -0.10101564 -0.049248721 2.3509527e-38
0.0011719987 -0.10189888 -0.053230908 2.3509886e-38
0.0031279866 -0.10256544 -0.056236174 2.341805e-38
0.0050921459 -0.10343169 -0.060141828 2.341805e-38
0.0070698652 -0.10433225 -0.0642021 2.3418047e-38
0.0090617351 -0.10521083 -0.068163306 2.3325843e-38
0.011057077 -0.10521083 -0.068163306 2.3325843e-38
0.01305242 -0.10521083 -0.068163306 2.3418042e-38
0.015047763 -0.10521083 -0.068163306 2.3325846e-38
0.017043106 -0.10521083 -0.068163306 2.3234015e-38
0.019038448 -0.10521083 -0.068163306 2.3234015e-38
0.021205556 -0.10855366 -0.083234817 2.3326213e-38
0.023227323 -0.10855366 -0.083234817 2.341805e-38
0.025070464 -0.10589527 -0.071249157 2.341805e-38
0.027019817 -0.10521083 -0.068163306 2.341805e-38
0.029015161 -0.10521083 -0.068163306 2.3234379e-38
0.031010503 -0.10521083 -0.068163306 2.3234379e-38
0.033005849 -0.10521083 -0.068163306 2.2958151e-38
0.035001189 -0.10521083 -0.068163306 2.2866311e-38
0.036895826 -0.10433225 -0.0642021 2.3142539e-38
0.038773879 -0.10343169 -0.060141828 2.3234374e-38
0.040755153 -0.10343169 -0.060141828 2.350988e-38
0.042982556 -0.10521083 -0.068163306 2.3233652e-38
0.044977903 -0.10521083 -0.068163306 2.2864869e-38
0.048539884 -0.10256544 -0.056236174 2.332621e-38
0.050514318 -0.10256544 -0.056236174 2.3418047e-38
0.052642822 -0.10343169 -0.060141828 2.341805e-38
0.054624103 -0.10343169 -0.060141828 2.341805e-38
0.056605384 -0.10343169 -0.060141828 2.3326213e-38
0.058586657 -0.10343169 -0.060141828 2.341805e-38
0.060567938 -0.10343169 -0.060141828 2.3142544e-38
0.077721417 -0.10101564 -0.049248721 6.9189882e-39
0.079683594 -0.10101564 -0.049248721 7.010458e-39
0.081377707 -0.10011137 -0.045171645 7.4699928e-39
0.08333274 -0.10011137 -0.045171645 7.6529421e-39
-0.085471094 -0.10386805 -0.053230908 2.3418045e-38
-0.083501935 -0.10386805 -0.053230908 2.3234379e-38
-0.081215084 -0.10297783 -0.049248721 2.3234379e-38
-0.079252899 -0.10297783 -0.049248721 2.2864882e-38
-0.077290729 -0.10297783 -0.049248721 2.314075e-38
-0.075328544 -0.10297783 -0.049248721 2.3509527e-38
-0.073366359 -0.10297783 -0.049248721 2.3509527e-38
-0.071404189 -0.10297783 -0.049248721 2.3140384e-38
-0.069442004 -0.10297783 -0.049248721 2.2864153e-38
-0.067479834 -0.10297783 -0.049248721 2.350988e-38
-0.065249577 -0.1020664 -0.045171645 2.3232936e-38
-0.063294545 -0.1020664 -0.045171645 2.3509883e-38
-0.061339527 -0.1020664 -0.045171645 2.3509886e-38
-0.059384495 -0.1020664 -0.045171645 2.3325138e-38
-0.057429463 -0.1020664 -0.045171645 2.3048914e-38
-0.05547443 -0.1020664 -0.045171645 2.3417691e-38
-0.053356655 -0.10140768 -0.042225029 2.341805e-38
-0.051406793 -0.10140768 -0.042225029 2.341805e-38
-0.049456924 -0.10140768 -0.042225029 2.341805e-38
-0.047654301 -0.1020664 -0.045171645 2.341805e-38
-0.045699276 -0.1020664 -0.045171645 2.3509886e-38
-0.043933675 -0.10297783 -0.049248721 2.3509886e-38
-0.041971505 -0.10297783 -0.049248721 2.3509886e-38
-0.040180385 -0.10386805 -0.053230908 2.3509886e-38
-0.038211226 -0.10386805 -0.053230908 2.3509886e-38
-0.03624206 -0.10386805 -0.053230908 2.3509886e-38
-0.034272894 -0.10386805 -0.053230908 2.3509883e-38
-0.032303743 -0.10386805 -0.053230908 2.3509883e-38
-0.030334579 -0.10386805 -0.053230908 2.3509883e-38
-0.028365416 -0.10386805 -0.053230908 2.3509883e-38
-0.026396258 -0.10386805 -0.053230908 2.3509883e-38
-0.024514036 -0.10453986 -0.056236174 2.3509883e-38
-0.022645751 -0.10541297 -0.060141828 2.2773034e-38
-0.02066447 -0.10541297 -0.060141828 2.3418043e-38
-0.018519612 -0.10386805 -0.053230908 2.3418045e-38
-0.016550453 -0.10386805 -0.053230908 2.350988e-38
-0.014581287 -0.10386805 -0.053230908 2.3509523e-38
-0.012612129 -0.10386805 -0.053230908 2.3509527e-38
-0.01064297 -0.10386805 -0.053230908 2.3509168e-38
-0.0086738039 -0.10386805 -0.053230908 2.3509168e-38
-0.0067046452 -0.10386805 -0.053230908 2.3509168e-38
-0.0046901014 -0.10297783 -0.049248721 2.3509168e-38
-0.0027279202 -0.10297783 -0.049248721 2.3509168e-38
-0.00076574273 -0.10297783 -0.049248721 2.3509168e-38
0.0011719987 -0.10386805 -0.053230908 2.341769e-38
0.0031279866 -0.10453986 -0.056236174 2.3326213e-38
0.0051024184 -0.10453986 -0.056236174 2.341805e-38
0.0070734248 -0.10541297 -0.060141828 2.3418047e-38
0.0090547018 -0.10541297 -0.060141828 2.3509879e-38
0.011035981 -0.10541297 -0.060141828 2.3509876e-38
0.013000139 -0.10453986 -0.056236174 2.3509879e-38
0.01497457 -0.10453986 -0.056236174 2.3509879e-38
0.016925288 -0.10386805 -0.053230908 2.3418045e-38
0.018894449 -0.10386805 -0.053230908 2.3418047e-38
0.020863611 -0.10386805 -0.053230908 2.341805e-38
0.022872292 -0.10453986 -0.056236174 2.341805e-38
0.024846721 -0.10453986 -0.056236174 2.3325856e-38
0.026953837 -0.10632066 -0.0642021 2.3233662e-38
0.028942235 -0.10632066 -0.0642021 2.3141822e-38
0.031010503 -0.10720618 -0.068163306 2.3142542e-38
0.033005849 -0.10720618 -0.068163306 2.3418047e-38
0.034907427 -0.10632066 -0.0642021 2.3234376e-38
0.036792599 -0.10541297 -0.060141828 2.3418047e-38
0.038667735 -0.10453986 -0.056236174 2.3326208e-38
0.040642165 -0.10453986 -0.056236174 2.3509879e-38
0.042861015 -0.10632066 -0.0642021 2.3509879e-38
0.044591025 -0.10453986 -0.056236174 2.3509879e-38
0.046462707 -0.10386805 -0.053230908 2.3509879e-38
0.048431866 -0.10386805 -0.053230908 2.3326208e-38
0.050514318 -0.10453986 -0.056236174 2.3326208e-38
0.052642822 -0.10541297 -0.060141828 2.332621e-38
0.054624103 -0.10541297 -0.060141828 2.332621e-38
0.056605384 -0.10541297 -0.060141828 2.2957431e-38
0.058586657 -0.10541297 -0.060141828 2.341805e-38
0.060567938 -0.10541297 -0.060141828 2.341805e-38
0.062360898 -0.10453986 -0.056236174 2.3234379e-38
0.064335331 -0.10453986 -0.056236174 2.2588292e-38
0.066309758 -0.10453986 -0.056236174 2.3050349e-38
0.068123475 -0.10386805 -0.053230908 2.341805e-38
0.0698727 -0.10297783 -0.049248721 2.3142544e-38
0.071602553 -0.1020664 -0.045171645 2.2683366e-38
0.073557585 -0.1020664 -0.045171645 2.2775202e-38
0.075759239 -0.10297783 -0.049248721 2.2591531e-38
0.077721417 -0.10297783 -0.049248721 2.1392626e-38
0.079683594 -0.10297783 -0.049248721 2.1114954e-38
0.081645779 -0.10297783 -0.049248721 2.194363e-38
0.083607957 -0.10297783 -0.049248721 2.1850716e-38
0.085570134 -0.10297783 -0.049248721 2.1112432e-38
0.087815091 -0.10386805 -0.053230908 2.0466342e-38
0.08978425 -0.10386805 -0.053230908 2.0098284e-38
-0.085139439 -0.10494001 -0.049248721 2.3509886e-38
-0.083177254 -0.10494001 -0.049248721 2.341805e-38
-0.081215084 -0.10494001 -0.049248721 2.341805e-38
-0.079252899 -0.10494001 -0.049248721 2.3509886e-38
-0.077290729 -0.10494001 -0.049248721 2.3509886e-38
-0.075328544 -0.10494001 -0.049248721 2.3509886e-38
-0.073069707 -0.10402142 -0.045171645 2.3509886e-38
-0.071114674 -0.10402142 -0.045171645 2.3509886e-38
-0.069159642 -0.10402142 -0.045171645 2.3509886e-38
-0.06720461 -0.10402142 -0.045171645 2.3509883e-38
-0.065249577 -0.10402142 -0.045171645 2.3509886e-38
-0.063294545 -0.10402142 -0.045171645 2.3509886e-38
-0.061156109 -0.10335754 -0.042225029 2.3509886e-38
-0.059206247 -0.10335754 -0.042225029 2.3509886e-38
-0.057256386 -0.10335754 -0.042225029 2.3509527e-38
-0.055306524 -0.10335754 -0.042225029 2.3509527e-38
-0.053356655 -0.10335754 -0.042225029 2.3509886e-38
-0.051191479 -0.1024504 -0.038198736 2.3509886e-38
-0.049248673 -0.1024504 -0.038198736 2.3509886e-38
-0.047507063 -0.10335754 -0.042225029 2.3509886e-38
-0.045557201 -0.10335754 -0.042225029 2.3509886e-38
-0.043744244 -0.10402142 -0.045171645 2.3509886e-38
-0.041789219 -0.10402142 -0.045171645 2.3509886e-38
-0.04000932 -0.10494001 -0.049248721 2.3509886e-38
-0.038047142 -0.10494001 -0.049248721 2.3509886e-38
-0.036084965 -0.10494001 -0.049248721 2.3509886e-38
-0.03412278 -0.10494001 -0.049248721 2.3509886e-38
-0.032303743 -0.10583721 -0.053230908 2.3509886e-38
-0.030334579 -0.10583721 -0.053230908 2.3509886e-38
-0.028365416 -0.10583721 -0.053230908 2.3509886e-38
-0.026396258 -0.10583721 -0.053230908 2.3509886e-38
-0.024427095 -0.10583721 -0.053230908 2.3509886e-38
-0.02253961 -0.10651429 -0.056236174 2.3509883e-38
-0.020565176 -0.10651429 -0.056236174 2.3509883e-38
-0.018519612 -0.10583721 -0.053230908 2.3509883e-38
-0.016550453 -0.10583721 -0.053230908 2.3509883e-38
-0.014500996 -0.10494001 -0.049248721 2.3509886e-38
-0.012538815 -0.10494001 -0.049248721 2.3509527e-38
-0.01064297 -0.10583721 -0.053230908 2.3509527e-38
-0.00861446 -0.10494001 -0.049248721 2.3509527e-38
-0.0066522788 -0.10494001 -0.049248721 2.3509527e-38
-0.0046901014 -0.10494001 -0.049248721 2.3509527e-38
-0.0027279202 -0.10494001 -0.049248721 2.3509527e-38
-0.00079716183 -0.10583721 -0.053230908 2.3509886e-38
0.0011719987 -0.10583721 -0.053230908 2.3509886e-38
0.0031411611 -0.10583721 -0.053230908 2.3509886e-38
0.0051103216 -0.10583721 -0.053230908 2.3509886e-38
0.0070794821 -0.10583721 -0.053230908 2.3509886e-38
0.0090512782 -0.10651429 -0.056236174 2.3509883e-38
0.011025708 -0.10651429 -0.056236174 2.3509883e-38
0.012986965 -0.10583721 -0.053230908 2.3509883e-38
0.014956128 -0.10583721 -0.053230908 2.3509883e-38
0.016925288 -0.10583721 -0.053230908 2.3509883e-38
0.018856049 -0.10494001 -0.049248721 2.3509886e-38
0.020818226 -0.10494001 -0.049248721 2.3509886e-38
0.022832772 -0.10583721 -0.053230908 2.3509886e-38
0.024801932 -0.10583721 -0.053230908 2.3509886e-38
0.026821151 -0.10651429 -0.056236174 2.3509886e-38
0.028795583 -0.10651429 -0.056236174 2.3509886e-38
0.030770013 -0.10651429 -0.056236174 2.341805e-38
0.032830045 -0.10739426 -0.060141828 2.3509886e-38
0.034811318 -0.10739426 -0.060141828 2.341805e-38
0.036693305 -0.10651429 -0.056236174 2.3509886e-38
0.038586061 -0.10583721 -0.053230908 2.3509883e-38
0.040555224 -0.10583721 -0.053230908 2.350988e-38
0.042524382 -0.10583721 -0.053230908 2.3509879e-38
0.044493541 -0.10583721 -0.053230908 2.3509879e-38
0.046326555 -0.10494001 -0.049248721 2.3509879e-38
0.048288733 -0.10494001 -0.049248721 2.350988e-38
0.050401025 -0.10583721 -0.053230908 2.350988e-38
0.052370191 -0.10583721 -0.053230908 2.350988e-38
0.054624103 -0.10739426 -0.060141828 2.350988e-38
0.056605384 -0.10739426 -0.060141828 2.3509883e-38
0.058586657 -0.10739426 -0.060141828 2.3509883e-38
0.060246833 -0.10583721 -0.053230908 2.3509886e-38
0.062215991 -0.10583721 -0.053230908 2.341805e-38
0.064185157 -0.10583721 -0.053230908 2.3509886e-38
0.066154316 -0.10583721 -0.053230908 2.341805e-38
0.068123475 -0.10583721 -0.053230908 2.3509886e-38
0.0698727 -0.10494001 -0.049248721 2.341805e-38
0.071602553 -0.10402142 -0.045171645 2.3417691e-38
0.073557585 -0.10402142 -0.045171645 2.3417691e-38
0.075759239 -0.10494001 -0.049248721 2.3509527e-38
0.077721417 -0.10494001 -0.049248721 2.3509527e-38
0.079683594 -0.10494001 -0.049248721 2.3509886e-38
0.081645779 -0.10494001 -0.049248721 2.3509883e-38
0.083607957 -0.10494001 -0.049248721 2.3509883e-38
0.085570134 -0.10494001 -0.049248721 2.3509883e-38
0.087815091 -0.10583721 -0.053230908 2.3509527e-38
0.08978425 -0.10583721 -0.053230908 2.3509168e-38
0.091753408 -0.10583721 -0.053230908 2.3324421e-38
0.093418851 -0.10494001 -0.049248721 2.2955641e-38
0.094833016 -0.10335754 -0.042225029 2.2679054e-38
0.096782878 -0.10335754 -0.042225029 2.2402467e-38
-0.087440252 -0.10780637 -0.053230908 2.3509886e-38
-0.085139439 -0.1069022 -0.049248721 2.3509886e-38
-0.083177254 -0.1069022 -0.049248721 2.3509886e-38
-0.080889821 -0.10597645 -0.045171645 2.3509886e-38
-0.078934789 -0.10597645 -0.045171645 2.3509886e-38
-0.076979771 -0.10597645 -0.045171645 2.3509886e-38
-0.075024739 -0.10597645 -0.045171645 2.3509886e-38
-0.073069707 -0.10597645 -0.045171645 2.3509886e-38
-0.071114674 -0.10597645 -0.045171645 2.3509886e-38
-0.069159642 -0.10597645 -0.045171645 2.3509886e-38
-0.06720461 -0.10597645 -0.045171645 2.3509886e-38
-0.065055847 -0.10530742 -0.042225029 2.3509886e-38
-0.063105971 -0.10530742 -0.042225029 2.3509886e-38
-0.061156109 -0.10530742 -0.042225029 2.3509886e-38
-0.059206247 -0.10530742 -0.042225029 2.3509886e-38
-0.057256386 -0.10530742 -0.042225029 2.3509886e-38
-0.055306524 -0.10530742 -0.042225029 2.3509886e-38
-0.053356655 -0.10530742 -0.042225029 2.3509886e-38
-0.051191479 -0.1043932 -0.038198736 2.3509886e-38
-0.049248673 -0.1043932 -0.038198736 2.3509886e-38
-0.047507063 -0.10530742 -0.042225029 2.3509886e-38
-0.045557201 -0.10530742 -0.042225029 2.3509886e-38
-0.043607339 -0.10530742 -0.042225029 2.3509886e-38
-0.04165747 -0.10530742 -0.042225029 2.3509886e-38
-0.039834186 -0.10597645 -0.045171645 2.3509886e-38
-0.037879154 -0.10597645 -0.045171645 2.3509886e-38
-0.036084965 -0.1069022 -0.049248721 2.3509886e-38
-0.03412278 -0.1069022 -0.049248721 2.3509886e-38
-0.03216061 -0.1069022 -0.049248721 2.3509886e-38
-0.030198427 -0.1069022 -0.049248721 2.3509886e-38
-0.028236249 -0.1069022 -0.049248721 2.3509886e-38
-0.026274068 -0.1069022 -0.049248721 2.3509886e-38
-0.024311891 -0.1069022 -0.049248721 2.3509886e-38
-0.022457937 -0.10780637 -0.053230908 2.3509886e-38
-0.020488771 -0.10780637 -0.053230908 2.3509886e-38
-0.018519612 -0.10780637 -0.053230908 2.3509886e-38
-0.016463177 -0.1069022 -0.049248721 2.3509886e-38
-0.014500996 -0.1069022 -0.049248721 2.3509886e-38
-0.012538815 -0.1069022 -0.049248721 2.3509886e-38
-0.010576637 -0.1069022 -0.049248721 2.3509886e-38
-0.00861446 -0.1069022 -0.049248721 2.3509886e-38
-0.0066522788 -0.1069022 -0.049248721 2.3509886e-38
-0.0046901014 -0.1069022 -0.049248721 2.3509886e-38
-0.0027279202 -0.1069022 -0.049248721 2.3509886e-38
-0.00076574273 -0.1069022 -0.049248721 2.3509886e-38
0.0011719987 -0.10780637 -0.053230908 2.3509886e-38
0.0031411611 -0.10780637 -0.053230908 2.3509886e-38
0.0051103216 -0.10780637 -0.053230908 2.3509886e-38
0.0070794821 -0.10780637 -0.053230908 2.3509886e-38
0.0090486445 -0.10780637 -0.053230908 2.3509886e-38
0.011017805 -0.10780637 -0.053230908 2.3509886e-38
0.012986965 -0.10780637 -0.053230908 2.3509886e-38
0.014956128 -0.10780637 -0.053230908 2.3509886e-38
0.016893869 -0.1069022 -0.049248721 2.3509886e-38
0.018856049 -0.1069022 -0.049248721 2.3509886e-38
0.020818226 -0.1069022 -0.049248721 2.3509886e-38
0.022780407 -0.1069022 -0.049248721 2.3509886e-38
0.024742585 -0.1069022 -0.049248721 2.3509886e-38
0.026704764 -0.1069022 -0.049248721 2.3509886e-38
0.028666943 -0.1069022 -0.049248721 2.3509886e-38
0.030629123 -0.1069022 -0.049248721 2.3509886e-38
0.032591302 -0.1069022 -0.049248721 2.3509886e-38
0.034553483 -0.1069022 -0.049248721 2.3509886e-38
0.036515661 -0.1069022 -0.049248721 2.3509886e-38
0.038367037 -0.10597645 -0.045171645 2.3509883e-38
0.040236823 -0.10530742 -0.042225029 2.350988e-38
0.042186685 -0.10530742 -0.042225029 2.3509879e-38
0.04423213 -0.10597645 -0.045171645 2.350988e-38
0.046187162 -0.10597645 -0.045171645 2.350988e-38
0.048142187 -0.10597645 -0.045171645 2.350988e-38
0.05009722 -0.10597645 -0.045171645 2.350988e-38
0.051936008 -0.10530742 -0.042225029 2.350988e-38
0.05388587 -0.10530742 -0.042225029 2.350988e-38
0.055962309 -0.10597645 -0.045171645 2.3509883e-38
0.058099627 -0.1069022 -0.049248721 2.3509883e-38
0.059872374 -0.10597645 -0.045171645 2.3509886e-38
0.061827406 -0.10597645 -0.045171645 2.3509886e-38
0.063782431 -0.10597645 -0.045171645 2.3509886e-38
0.065948345 -0.1069022 -0.049248721 2.3509886e-38
0.067910522 -0.1069022 -0.049248721 2.3509886e-38
0.069647528 -0.10597645 -0.045171645 2.3509886e-38
0.071602553 -0.10597645 -0.045171645 2.3509168e-38
0.073557585 -0.10597645 -0.045171645 2.3508809e-38
0.075759239 -0.1069022 -0.049248721 2.3509168e-38
0.077969283 -0.10780637 -0.053230908 2.3509527e-38
0.079683594 -0.1069022 -0.049248721 2.3509527e-38
0.081645779 -0.1069022 -0.049248721 2.3509883e-38
0.083607957 -0.1069022 -0.049248721 2.3509527e-38
0.085570134 -0.1069022 -0.049248721 2.3509527e-38
0.087532312 -0.1069022 -0.049248721 2.3509527e-38
0.089494489 -0.1069022 -0.049248721 2.3509168e-38
0.091152862 -0.10597645 -0.045171645 2.3509168e-38
0.093107894 -0.10597645 -0.045171645 2.3509168e-38
0.09451887 -0.1043932 -0.038198736 2.3508809e-38
0.096219897 -0.10370506 -0.035167959 2.3508807e-38
0.098157391 -0.10370506 -0.035167959 2.3508804e-38
0.10009488 -0.10370506 -0.035167959 2.3508446e-38
0.10229009 -0.1043932 -0.038198736 2.3138239e-38
0.10396986 -0.10370506 -0.035167959 2.3508451e-38
0.10590735 -0.10370506 -0.035167959 2.3416615e-38
-0.096326798 -0.11228584 -0.0642021 2.341769e-38
-0.094338402 -0.11228584 -0.0642021 2.3509886e-38
-0.092349991 -0.11228584 -0.0642021 2.3509886e-38
-0.089670241 -0.11046316 -0.056236174 2.3509886e-38
-0.087440252 -0.10977553 -0.053230908 2.3325497e-38
-0.085139439 -0.10886435 -0.049248721 2.3509886e-38
-0.083177254 -0.10886435 -0.049248721 2.3509886e-38
-0.080889821 -0.10793148 -0.045171645 2.3509886e-38
-0.078934789 -0.10793148 -0.045171645 2.3509886e-38
-0.076979771 -0.10793148 -0.045171645 2.3509886e-38
-0.075024739 -0.10793148 -0.045171645 2.3509886e-38
-0.073069707 -0.10793148 -0.045171645 2.3509886e-38
-0.071114674 -0.10793148 -0.045171645 2.3509886e-38
-0.069159642 -0.10793148 -0.045171645 2.3509886e-38
-0.06720461 -0.10793148 -0.045171645 2.3509886e-38
-0.065055847 -0.10725726 -0.042225029 2.3509886e-38
-0.063105971 -0.10725726 -0.042225029 2.3509886e-38
-0.061156109 -0.10725726 -0.042225029 2.3509886e-38
-0.059206247 -0.10725726 -0.042225029 2.3509886e-38
-0.057256386 -0.10725726 -0.042225029 2.3509886e-38
-0.055306524 -0.10725726 -0.042225029 2.3509886e-38
-0.053356655 -0.10725726 -0.042225029 2.3509886e-38
-0.051191479 -0.10633601 -0.038198736 2.3509886e-38
-0.049248673 -0.10633601 -0.038198736 2.3509886e-38
-0.047305867 -0.10633601 -0.038198736 2.3509886e-38
-0.045363069 -0.10633601 -0.038198736 2.3509886e-38
-0.043420255 -0.10633601 -0.038198736 2.3509886e-38
-0.04165747 -0.10725726 -0.042225029 2.3509886e-38
-0.039707609 -0.10725726 -0.042225029 2.3509886e-38
-0.037757739 -0.10725726 -0.042225029 2.3509886e-38
-0.035924122 -0.10793148 -0.045171645 2.3509886e-38
-0.033969089 -0.10793148 -0.045171645 2.3509886e-38
-0.032014064 -0.10793148 -0.045171645 2.3509886e-38
-0.030059034 -0.10793148 -0.045171645 2.3509886e-38
-0.028104002 -0.10793148 -0.045171645 2.3509886e-38
-0.026148973 -0.10793148 -0.045171645 2.3509886e-38
-0.024193941 -0.10793148 -0.045171645 2.3509886e-38
-0.022238912 -0.10793148 -0.045171645 2.3509886e-38
-0.020387532 -0.10886435 -0.049248721 2.3509886e-38
-0.018425355 -0.10886435 -0.049248721 2.3509886e-38
-0.016463177 -0.10886435 -0.049248721 2.3509886e-38
-0.01441879 -0.10793148 -0.045171645 2.3509886e-38
-0.012463758 -0.10793148 -0.045171645 2.3509886e-38
-0.010508725 -0.10793148 -0.045171645 2.3509886e-38
-0.0085536968 -0.10793148 -0.045171645 2.3509886e-38
-0.0065986682 -0.10793148 -0.045171645 2.3509886e-38
-0.0046436358 -0.10793148 -0.045171645 2.3509886e-38
-0.0026886035 -0.10793148 -0.045171645 2.3509886e-38
-0.00076574273 -0.10886435 -0.049248721 2.3509886e-38
0.0011964366 -0.10886435 -0.049248721 2.3509886e-38
0.0031586159 -0.10886435 -0.049248721 2.3509886e-38
0.0051207952 -0.10886435 -0.049248721 2.3509886e-38
0.0070829745 -0.10886435 -0.049248721 2.3509886e-38
0.009045152 -0.10886435 -0.049248721 2.3509886e-38
0.011007331 -0.10886435 -0.049248721 2.3509886e-38
0.012969511 -0.10886435 -0.049248721 2.3509886e-38
0.01493169 -0.10886435 -0.049248721 2.3509886e-38
0.016893869 -0.10886435 -0.049248721 2.3509886e-38
0.018816732 -0.10793148 -0.045171645 2.3509886e-38
0.020771762 -0.10793148 -0.045171645 2.3509886e-38
0.022726793 -0.10793148 -0.045171645 2.3509886e-38
0.024742585 -0.10886435 -0.049248721 2.3509886e-38
0.026636854 -0.10793148 -0.045171645 2.3509886e-38
0.028591884 -0.10793148 -0.045171645 2.3509886e-38
0.030546915 -0.10793148 -0.045171645 2.3509886e-38
0.032501943 -0.10793148 -0.045171645 2.3509886e-38
0.034456976 -0.10793148 -0.045171645 2.3509886e-38
0.036412008 -0.10793148 -0.045171645 2.3509886e-38
0.038286958 -0.10725726 -0.042225029 2.3509886e-38
0.040236823 -0.10725726 -0.042225029 2.3509883e-38
0.042186685 -0.10725726 -0.042225029 2.350988e-38
0.044136554 -0.10725726 -0.042225029 2.3509883e-38
0.046086416 -0.10725726 -0.042225029 2.3509883e-38
0.048036277 -0.10725726 -0.042225029 2.3509883e-38
0.049986146 -0.10725726 -0.042225029 2.3509883e-38
0.051936008 -0.10725726 -0.042225029 2.3509883e-38
0.05388587 -0.10725726 -0.042225029 2.3509883e-38
0.055835739 -0.10725726 -0.042225029 2.3509886e-38
0.0577856 -0.10725726 -0.042225029 2.3509886e-38
0.059735462 -0.10725726 -0.042225029 2.3509886e-38
0.061685331 -0.10725726 -0.042225029 2.3509886e-38
0.063635193 -0.10725726 -0.042225029 2.3509886e-38
0.065737464 -0.10793148 -0.045171645 2.3509886e-38
0.067910522 -0.10886435 -0.049248721 2.3509886e-38
0.069647528 -0.10793148 -0.045171645 2.3509886e-38
0.071602553 -0.10793148 -0.045171645 2.3509527e-38
0.073557585 -0.10793148 -0.045171645 2.3509527e-38
0.075759239 -0.10886435 -0.049248721 2.3509527e-38
0.077721417 -0.10886435 -0.049248721 2.3509527e-38
0.079422675 -0.10793148 -0.045171645 2.3509883e-38
0.081377707 -0.10793148 -0.045171645 2.3509883e-38
0.08333274 -0.10793148 -0.045171645 2.3509886e-38
0.085287772 -0.10793148 -0.045171645 2.3509886e-38
0.087532312 -0.10886435 -0.049248721 2.3509527e-38
0.08869046 -0.10633601 -0.038198736 2.3509527e-38
0.090633266 -0.10633601 -0.038198736 2.3509527e-38
0.092576072 -0.10633601 -0.038198736 2.3509527e-38
0.094282404 -0.10564254 -0.035167959 2.3509527e-38
0.096219897 -0.10564254 -0.035167959 2.3509883e-38
0.098157391 -0.10564254 -0.035167959 2.350988e-38
0.10009488 -0.10564254 -0.035167959 2.3509524e-38
0.10203236 -0.10564254 -0.035167959 2.3508451e-38
0.10396986 -0.10564254 -0.035167959 2.3508809e-38
0.10590735 -0.10564254 -0.035167959 2.3509168e-38
0.10784484 -0.10564254 -0.035167959 2.3418045e-38
-0.096326798 -0.11427425 -0.0642021 2.3325494e-38
-0.094338402 -0.11427425 -0.0642021 2.3509886e-38
-0.092349991 -0.11427425 -0.0642021 2.3509886e-38
-0.089670241 -0.11243759 -0.056236174 2.3509886e-38
-0.087101623 -0.11082654 -0.049248721 2.3417691e-38
-0.085139439 -0.11082654 -0.049248721 2.3509886e-38
-0.082844853 -0.10988651 -0.045171645 2.3509886e-38
-0.080889821 -0.10988651 -0.045171645 2.3509886e-38
-0.078934789 -0.10988651 -0.045171645 2.3509886e-38
-0.076979771 -0.10988651 -0.045171645 2.3509886e-38
-0.075024739 -0.10988651 -0.045171645 2.3509886e-38
-0.073069707 -0.10988651 -0.045171645 2.3509886e-38
-0.070905432 -0.10920714 -0.042225029 2.3509886e-38
-0.06895557 -0.10920714 -0.042225029 2.3509886e-38
-0.067005709 -0.10920714 -0.042225029 2.3509886e-38
-0.065055847 -0.10920714 -0.042225029 2.3509886e-38
-0.063105971 -0.10920714 -0.042225029 2.3509886e-38
-0.061156109 -0.10920714 -0.042225029 2.3509886e-38
-0.059206247 -0.10920714 -0.042225029 2.3509886e-38
-0.057019889 -0.10827883 -0.038198736 2.3509886e-38
-0.055077091 -0.10827883 -0.038198736 2.3509886e-38
-0.053134285 -0.10827883 -0.038198736 2.3509886e-38
-0.051191479 -0.10827883 -0.038198736 2.3509886e-38
-0.049248673 -0.10827883 -0.038198736 2.3509886e-38
-0.047305867 -0.10827883 -0.038198736 2.3509886e-38
-0.045363069 -0.10827883 -0.038198736 2.3509886e-38
-0.043420255 -0.10827883 -0.038198736 2.3509886e-38
-0.041477457 -0.10827883 -0.038198736 2.3509886e-38
-0.039534651 -0.10827883 -0.038198736 2.3509886e-38
-0.037591845 -0.10827883 -0.038198736 2.3509886e-38
-0.035807878 -0.10920714 -0.042225029 2.3509886e-38
-0.033858016 -0.10920714 -0.042225029 2.3509886e-38
-0.031908154 -0.10920714 -0.042225029 2.3509886e-38
-0.029958287 -0.10920714 -0.042225029 2.3509886e-38
-0.028104002 -0.10988651 -0.045171645 2.3509886e-38
-0.02605856 -0.10920714 -0.042225029 2.3509886e-38
-0.024108695 -0.10920714 -0.042225029 2.3509886e-38
-0.022238912 -0.10988651 -0.045171645 2.3509886e-38
-0.02028388 -0.10988651 -0.045171645 2.3509886e-38
-0.018425355 -0.11082654 -0.049248721 2.3509886e-38
-0.016463177 -0.11082654 -0.049248721 2.3509886e-38
-0.01441879 -0.10988651 -0.045171645 2.3509886e-38
-0.012463758 -0.10988651 -0.045171645 2.3509886e-38
-0.010508725 -0.10988651 -0.045171645 2.3509886e-38
-0.0085536968 -0.10988651 -0.045171645 2.3509886e-38
-0.0065986682 -0.10988651 -0.045171645 2.3509886e-38
-0.0046436358 -0.10988651 -0.045171645 2.3509886e-38
-0.0026886035 -0.10988651 -0.045171645 2.3509886e-38
-0.00073357485 -0.10988651 -0.045171645 2.3509886e-38
0.0012214556 -0.10988651 -0.045171645 2.3509886e-38
0.0031764861 -0.10988651 -0.045171645 2.3509886e-38
0.0051315166 -0.10988651 -0.045171645 2.3509886e-38
0.0070865471 -0.10988651 -0.045171645 2.3509886e-38
0.0090415794 -0.10988651 -0.045171645 2.3509886e-38
0.01099661 -0.10988651 -0.045171645 2.3509886e-38
0.012951639 -0.10988651 -0.045171645 2.3509886e-38
0.014906671 -0.10988651 -0.045171645 2.3509886e-38
0.0168617 -0.10988651 -0.045171645 2.3509886e-38
0.018816732 -0.10988651 -0.045171645 2.3509886e-38
0.020771762 -0.10988651 -0.045171645 2.3509886e-38
0.022726793 -0.10988651 -0.045171645 2.3509886e-38
0.024681823 -0.10988651 -0.045171645 2.3509886e-38
0.026636854 -0.10988651 -0.045171645 2.3509886e-38
0.028537637 -0.10920714 -0.042225029 2.3509886e-38
0.030487502 -0.10920714 -0.042225029 2.3509886e-38
0.032437366 -0.10920714 -0.042225029 2.3509886e-38
0.034387231 -0.10920714 -0.042225029 2.3509886e-38
0.036337093 -0.10920714 -0.042225029 2.3509886e-38
0.038286958 -0.10920714 -0.042225029 2.3509886e-38
0.040120341 -0.10827883 -0.038198736 2.3509886e-38
0.042063147 -0.10827883 -0.038198736 2.3509883e-38
0.044005953 -0.10827883 -0.038198736 2.3509886e-38
0.045948759 -0.10827883 -0.038198736 2.3509883e-38
0.048036277 -0.10920714 -0.042225029 2.3509886e-38
0.049834363 -0.10827883 -0.038198736 2.3509883e-38
0.051777169 -0.10827883 -0.038198736 2.3509886e-38
0.053719975 -0.10827883 -0.038198736 2.3509886e-38
0.055835739 -0.10920714 -0.042225029 2.3509886e-38
0.057605587 -0.10827883 -0.038198736 2.3509886e-38
0.059548385 -0.10827883 -0.038198736 2.3509886e-38
0.061491191 -0.10827883 -0.038198736 2.3509886e-38
0.063635193 -0.10920714 -0.042225029 2.3509886e-38
0.065585054 -0.10920714 -0.042225029 2.3509886e-38
0.067692496 -0.10988651 -0.045171645 2.3509886e-38
0.069647528 -0.10988651 -0.045171645 2.3509886e-38
0.071602553 -0.10988651 -0.045171645 2.3509886e-38
0.073557585 -0.10988651 -0.045171645 2.3509886e-38
0.075512618 -0.10988651 -0.045171645 2.3509527e-38
0.077721417 -0.11082654 -0.049248721 2.3509883e-38
0.079422675 -0.10988651 -0.045171645 2.3509883e-38
0.08118397 -0.10920714 -0.042225029 2.3509883e-38
0.081240371 -0.10273984 -0.014175083 2.3509886e-38
0.083141051 -0.10273984 -0.014175083 2.3509886e-38
0.085041732 -0.10273984 -0.014175083 2.3509527e-38
0.08869046 -0.10827883 -0.038198736 2.3509527e-38
0.089586847 -0.10504107 -0.024156 2.3509527e-38
0.091505036 -0.10504107 -0.024156 2.3417691e-38
0.093423218 -0.10504107 -0.024156 2.341769e-38
0.095341399 -0.10504107 -0.024156 2.3417687e-38
0.097511485 -0.10575347 -0.027245786 2.350952e-38
0.099435091 -0.10575347 -0.027245786 2.3509523e-38
0.10169432 -0.10666345 -0.031192567 2.3509168e-38
0.10362484 -0.10666345 -0.031192567 2.3323703e-38
0.10555536 -0.10666345 -0.031192567 2.28638e-38
0.10748588 -0.10666345 -0.031192567 2.3233648e-38
0.10978234 -0.10758002 -0.035167959 2.1575902e-38
-0.090664983 -0.11184154 -0.045171645 2.3509886e-38
-0.08870995 -0.11184154 -0.045171645 2.3509886e-38
-0.086754918 -0.11184154 -0.045171645 2.3509886e-38
-0.084554479 -0.11115701 -0.042225029 2.3509886e-38
-0.082604617 -0.11115701 -0.042225029 2.3509886e-38
-0.080654755 -0.11115701 -0.042225029 2.3509886e-38
-0.078704894 -0.11115701 -0.042225029 2.3509886e-38
-0.076755032 -0.11115701 -0.042225029 2.3509886e-38
-0.074805155 -0.11115701 -0.042225029 2.3509886e-38
-0.072855294 -0.11115701 -0.042225029 2.3509886e-38
-0.070905432 -0.11115701 -0.042225029 2.3509886e-38
-0.06895557 -0.11115701 -0.042225029 2.3509886e-38
-0.067005709 -0.11115701 -0.042225029 2.3509886e-38
-0.064791113 -0.11022164 -0.038198736 2.3509886e-38
-0.062848315 -0.11022164 -0.038198736 2.3509886e-38
-0.060716853 -0.10951753 -0.035167959 2.3509886e-38
-0.058779374 -0.10951753 -0.035167959 2.3509886e-38
-0.05684188 -0.10951753 -0.035167959 2.3509886e-38
-0.054904386 -0.10951753 -0.035167959 2.3509886e-38
-0.053134285 -0.11022164 -0.038198736 2.3509886e-38
-0.051029399 -0.10951753 -0.035167959 2.3509886e-38
-0.049091913 -0.10951753 -0.035167959 2.3509886e-38
-0.047154427 -0.10951753 -0.035167959 2.3509886e-38
-0.045216933 -0.10951753 -0.035167959 2.3509886e-38
-0.043279439 -0.10951753 -0.035167959 2.3509886e-38
-0.041341946 -0.10951753 -0.035167959 2.3509886e-38
-0.039404459 -0.10951753 -0.035167959 2.3509886e-38
-0.037591845 -0.11022164 -0.038198736 2.3509886e-38
-0.035649046 -0.11022164 -0.038198736 2.3509886e-38
-0.03370624 -0.11022164 -0.038198736 2.3509886e-38
-0.031763434 -0.11022164 -0.038198736 2.3509886e-38
-0.02982063 -0.11022164 -0.038198736 2.3509886e-38
-0.027877824 -0.11022164 -0.038198736 2.3509886e-38
-0.025935018 -0.11022164 -0.038198736 2.3509886e-38
-0.023992216 -0.11022164 -0.038198736 2.3509886e-38
-0.022238912 -0.11184154 -0.045171645 2.3509886e-38
-0.02028388 -0.11184154 -0.045171645 2.3509886e-38
-0.018425355 -0.11278872 -0.049248721 2.3509886e-38
-0.016373819 -0.11184154 -0.045171645 2.3509886e-38
-0.01441879 -0.11184154 -0.045171645 2.3509886e-38
-0.01240951 -0.11115701 -0.042225029 2.3509886e-38
-0.010459648 -0.11115701 -0.042225029 2.3509886e-38
-0.0085097831 -0.11115701 -0.042225029 2.3509886e-38
-0.0065599177 -0.11115701 -0.042225029 2.3509886e-38
-0.0046100561 -0.11115701 -0.042225029 2.3509886e-38
-0.0026601907 -0.11115701 -0.042225029 2.3509886e-38
-0.00071032532 -0.11115701 -0.042225029 2.3509886e-38
0.0012395382 -0.11115701 -0.042225029 2.3509886e-38
0.0031894017 -0.11115701 -0.042225029 2.3509886e-38
0.0051392671 -0.11115701 -0.042225029 2.3509886e-38
0.0070926603 -0.11022164 -0.038198736 2.3509886e-38
0.0090354662 -0.11022164 -0.038198736 2.3509886e-38
0.010988859 -0.11115701 -0.042225029 2.3509886e-38
0.012938725 -0.11115701 -0.042225029 2.3509886e-38
0.014888588 -0.11115701 -0.042225029 2.3509886e-38
0.0168617 -0.11184154 -0.045171645 2.3509886e-38
0.018788315 -0.11115701 -0.042225029 2.3509886e-38
0.020738181 -0.11115701 -0.042225029 2.3509886e-38
0.022688044 -0.11115701 -0.042225029 2.3509886e-38
0.024681823 -0.11184154 -0.045171645 2.3509886e-38
0.026587773 -0.11115701 -0.042225029 2.3509886e-38
0.028463513 -0.11022164 -0.038198736 2.3509886e-38
0.030406319 -0.11022164 -0.038198736 2.3509886e-38
0.032349125 -0.11022164 -0.038198736 2.3509886e-38
0.034291927 -0.11022164 -0.038198736 2.3509886e-38
0.036234733 -0.11022164 -0.038198736 2.3509886e-38
0.038177535 -0.11022164 -0.038198736 2.3509886e-38
0.040032662 -0.10951753 -0.035167959 2.3509886e-38
0.041970149 -0.10951753 -0.035167959 2.3509886e-38
0.044005953 -0.11022164 -0.038198736 2.3509886e-38
0.045948759 -0.11022164 -0.038198736 2.3509886e-38
0.047782622 -0.10951753 -0.035167959 2.3509886e-38
0.049720116 -0.10951753 -0.035167959 2.3509886e-38
0.051777169 -0.11022164 -0.038198736 2.3509886e-38
0.053719975 -0.11022164 -0.038198736 2.3509886e-38
0.055662781 -0.11022164 -0.038198736 2.3509886e-38
0.057605587 -0.11022164 -0.038198736 2.3509886e-38
0.059548385 -0.11022164 -0.038198736 2.3509886e-38
0.061491191 -0.11022164 -0.038198736 2.3509886e-38
0.063433997 -0.11022164 -0.038198736 2.3509886e-38
0.065376803 -0.11022164 -0.038198736 2.3509886e-38
0.067319609 -0.11022164 -0.038198736 2.3509886e-38
0.069484785 -0.11115701 -0.042225029 2.3509883e-38
0.071434647 -0.11115701 -0.042225029 2.3509883e-38
0.073384508 -0.11115701 -0.042225029 2.3418045e-38
0.075334378 -0.11115701 -0.042225029 2.350988e-38
0.077721417 -0.11278872 -0.049248721 2.3509883e-38
0.079683594 -0.11278872 -0.049248721 2.3509883e-38
0.079339683 -0.10464053 -0.014175083 2.3509886e-38
0.080974303 -0.10372485 -0.010233548 2.3509886e-38
0.082868077 -0.10372485 -0.010233548 2.3509886e-38
0.084761843 -0.10372485 -0.010233548 2.3509527e-38
0.086655617 -0.10372485 -0.010233548 2.3509527e-38
0.0888431 -0.10464053 -0.014175083 2.3509886e-38
0.091198862 -0.10602666 -0.020141628 2.3509886e-38
0.093109995 -0.10602666 -0.020141628 2.3509886e-38
0.095021144 -0.10602666 -0.020141628 2.3418047e-38
0.096932292 -0.10602666 -0.020141628 2.350988e-38
0.09884344 -0.10602666 -0.020141628 2.3509883e-38
0.10075457 -0.10602666 -0.020141628 2.3509168e-38
0.10301413 -0.10695927 -0.024156 2.3509527e-38
0.10493231 -0.10695927 -0.024156 2.3509883e-38
0.1071295 -0.10767709 -0.027245786 2.350987e-38
0.10905309 -0.10767709 -0.027245786 2.1944319e-38
0.1109767 -0.10767709 -0.027245786 1.660931e-39
-0.08870995 -0.11379658 -0.045171645 2.3325497e-38
-0.086754918 -0.11379658 -0.045171645 2.3509886e-38
-0.083635658 -0.11052449 -0.031192567 2.3509886e-38
-0.081705138 -0.11052449 -0.031192567 2.3509886e-38
-0.079774618 -0.11052449 -0.031192567 2.3509886e-38
-0.078390747 -0.11216442 -0.038198736 2.3509886e-38
-0.076447934 -0.11216442 -0.038198736 2.3509886e-38
-0.074505135 -0.11216442 -0.038198736 2.3509886e-38
-0.072562337 -0.11216442 -0.038198736 2.3509886e-38
-0.070404306 -0.11145501 -0.035167959 2.3509886e-38
-0.068466827 -0.11145501 -0.035167959 2.3509886e-38
-0.066529334 -0.11145501 -0.035167959 2.3509886e-38
-0.06459184 -0.11145501 -0.035167959 2.3509886e-38
-0.062654346 -0.11145501 -0.035167959 2.3509886e-38
-0.060031444 -0.10887744 -0.024156 2.3509886e-38
-0.058113247 -0.10887744 -0.024156 2.3509886e-38
-0.056195065 -0.10887744 -0.024156 2.3509886e-38
-0.054276884 -0.10887744 -0.024156 2.3509886e-38
-0.053134285 -0.11216442 -0.038198736 2.3509886e-38
-0.051029399 -0.11145501 -0.035167959 2.3509886e-38
-0.049091913 -0.11145501 -0.035167959 2.3509886e-38
-0.047154427 -0.11145501 -0.035167959 2.3509886e-38
-0.045216933 -0.11145501 -0.035167959 2.3509886e-38
-0.043279439 -0.11145501 -0.035167959 2.3509886e-38
-0.041341946 -0.11145501 -0.035167959 2.3509886e-38
-0.039404459 -0.11145501 -0.035167959 2.3509886e-38
-0.037466973 -0.11145501 -0.035167959 2.3509886e-38
-0.035529479 -0.11145501 -0.035167959 2.3509886e-38
-0.033591986 -0.11145501 -0.035167959 2.3509886e-38
-0.031654499 -0.11145501 -0.035167959 2.3509886e-38
-0.029446149 -0.10960068 -0.027245786 2.3509886e-38
-0.027522547 -0.10960068 -0.027245786 2.3509886e-38
-0.025380967 -0.1079378 -0.020141628 2.3509886e-38
-0.023469822 -0.1079378 -0.020141628 2.3509886e-38
-0.022238912 -0.11379658 -0.045171645 2.3509886e-38
-0.02028388 -0.11379658 -0.045171645 2.3509886e-38
-0.018328847 -0.11379658 -0.045171645 2.3509886e-38
-0.016373819 -0.11379658 -0.045171645 2.3509886e-38
-0.014359375 -0.11310686 -0.042225029 2.3509886e-38
-0.012335384 -0.11216442 -0.038198736 2.3509886e-38
-0.010392582 -0.11216442 -0.038198736 2.3509886e-38
-0.0084497798 -0.11216442 -0.038198736 2.3509886e-38
-0.0065069739 -0.11216442 -0.038198736 2.3509886e-38
-0.0045641679 -0.11216442 -0.038198736 2.3509886e-38
-0.002621362 -0.11216442 -0.038198736 2.3509886e-38
-0.0006785579 -0.11216442 -0.038198736 2.3509886e-38
0.0012642462 -0.11216442 -0.038198736 2.3509886e-38
0.0032203365 -0.11145501 -0.035167959 2.3509886e-38
0.0051578265 -0.11145501 -0.035167959 2.3509886e-38
0.0070988033 -0.11052449 -0.031192567 2.3509886e-38
0.0090293232 -0.11052449 -0.031192567 2.3509886e-38
0.0109703 -0.11145501 -0.035167959 2.3509886e-38
0.01290779 -0.11145501 -0.035167959 2.3509886e-38
0.01486388 -0.11216442 -0.038198736 2.3509886e-38
0.016838452 -0.11310686 -0.042225029 2.3509886e-38
0.018788315 -0.11310686 -0.042225029 2.3509886e-38
0.020692294 -0.11216442 -0.038198736 2.3509886e-38
0.022635099 -0.11216442 -0.038198736 2.3509886e-38
0.024577904 -0.11216442 -0.038198736 2.3509886e-38
0.026520709 -0.11216442 -0.038198736 2.3509886e-38
0.028407717 -0.11145501 -0.035167959 2.3509886e-38
0.030345207 -0.11145501 -0.035167959 2.3509886e-38
0.032282699 -0.11145501 -0.035167959 2.3509886e-38
0.034220189 -0.11145501 -0.035167959 2.3509886e-38
0.036157679 -0.11145501 -0.035167959 2.3509886e-38
0.037987132 -0.11052449 -0.031192567 2.3509886e-38
0.039917655 -0.11052449 -0.031192567 2.3509886e-38
0.041848175 -0.11052449 -0.031192567 2.3509886e-38
0.043778695 -0.11052449 -0.031192567 2.3509886e-38
0.045709215 -0.11052449 -0.031192567 2.3509886e-38
0.047639735 -0.11052449 -0.031192567 2.3509886e-38
0.049570255 -0.11052449 -0.031192567 2.3509886e-38
