# .PCD v0.7 - Point Cloud Data file format
VERSION 0.7
FIELDS x y z rgb
SIZE 4 4 4 4
TYPE F F F F
COUNT 1 1 1 1
WIDTH 942
HEIGHT 1
VIEWPOINT 0 0 0 1 0 0 0
POINTS 942
DATA ascii
-0.045600496 -0.10908265 -0.014786284 2.3509886e-38
-0.043638907 -0.1083564 -0.011773866 2.3509886e-38
-0.041780315 -0.1083564 -0.011773866 2.3509886e-38
-0.036536686 -0.11150609 -0.024838489 2.3509883e-38
-0.034655187 -0.11150609 -0.024838489 2.3509883e-38
-0.032706413 -0.11076607 -0.021768969 2.3509883e-38
-0.030830298 -0.11076607 -0.021768969 2.3509883e-38
-0.028770171 -0.1083564 -0.011773866 2.3509883e-38
-0.026861686 -0.10763429 -0.0087784939 2.3418047e-38
-0.024963956 -0.10691623 -0.0058000498 2.3418047e-38
-0.02311584 -0.10691623 -0.0058000498 2.0283755e-38
-0.021267723 -0.10691623 -0.0058000498 1.7517886e-38
-0.019419603 -0.10691623 -0.0058000498 1.5951639e-38
-0.017539496 -0.10593875 -0.0017455034 1.8164334e-38
-0.015680451 -0.10523017 0.0011936016 2.1575572e-38
-0.013818104 -0.10377313 0.0072372742 2.3234376e-38
-0.011992844 -0.10377313 0.0072372742 2.3234376e-38
-0.010167584 -0.10377313 0.0072372742 2.3234376e-38
-0.0064934418 -0.10593875 -0.0017455034 2.3509886e-38
-0.0046524331 -0.10593875 -0.0017455034 2.3509886e-38
-0.0028114226 -0.10593875 -0.0017455034 2.3509886e-38
-0.00097041391 -0.10593875 -0.0017455034 2.3509886e-38
0.00090969447 -0.10691623 -0.0058000498 2.3509886e-38
0.0027578129 -0.10691623 -0.0058000498 2.3509886e-38
0.0046059303 -0.10691623 -0.0058000498 2.3509886e-38
0.0064540487 -0.10691623 -0.0058000498 2.3509886e-38
0.0083021671 -0.10691623 -0.0058000498 2.3509886e-38
0.010150284 -0.10691623 -0.0058000498 2.3509886e-38
0.011998402 -0.10691623 -0.0058000498 2.3509886e-38
0.01384652 -0.10691623 -0.0058000498 2.3509886e-38
0.015694639 -0.10691623 -0.0058000498 2.3509886e-38
0.017542757 -0.10691623 -0.0058000498 2.3509886e-38
0.019390875 -0.10691623 -0.0058000498 2.3509886e-38
0.021238992 -0.10691623 -0.0058000498 2.3509886e-38
0.02308711 -0.10691623 -0.0058000498 2.3509886e-38
0.024803713 -0.10593875 -0.0017455034 2.3509886e-38
0.026644722 -0.10593875 -0.0017455034 2.3509886e-38
0.02848573 -0.10593875 -0.0017455034 2.3509886e-38
0.030326739 -0.10593875 -0.0017455034 2.3509886e-38
0.032167748 -0.10593875 -0.0017455034 2.3509886e-38
0.034008756 -0.10593875 -0.0017455034 2.3509886e-38
0.036023937 -0.10691623 -0.0058000498 2.3509886e-38
0.037872054 -0.10691623 -0.0058000498 2.3509886e-38
0.039858561 -0.10763429 -0.0087784939 2.3509886e-38
0.04185633 -0.1083564 -0.011773866 2.3509886e-38
0.043714922 -0.1083564 -0.011773866 2.3509886e-38
0.045729324 -0.10908265 -0.014786284 2.3509886e-38
0.047593199 -0.10908265 -0.014786284 2.3509886e-38
0.049680386 -0.11005743 -0.018829625 2.3509886e-38
0.051551349 -0.11005743 -0.018829625 2.3233662e-38
0.053422309 -0.11005743 -0.018829625 2.3325856e-38
0.055293277 -0.11005743 -0.018829625 2.3509886e-38
0.057973966 -0.11319371 -0.031838696 2.3416974e-38
0.05986774 -0.11319371 -0.031838696 2.3508807e-38
0.061761513 -0.11319371 -0.031838696 1.3459123e-38
0.063655287 -0.11319371 -0.031838696 1.0231554e-38
0.065549061 -0.11319371 -0.031838696 9.2174022e-39
-0.064966336 -0.1143602 -0.028843801 9.4968547e-39
-0.063077822 -0.1143602 -0.028843801 2.3509876e-38
-0.06118929 -0.1143602 -0.028843801 2.3509879e-38
-0.059300777 -0.1143602 -0.028843801 2.3325847e-38
-0.057412248 -0.1143602 -0.028843801 2.3509883e-38
-0.055523735 -0.1143602 -0.028843801 2.3509886e-38
-0.053470176 -0.11338757 -0.024838489 2.3509886e-38
-0.051351625 -0.11192839 -0.018829625 2.3509886e-38
-0.048989493 -0.10876434 -0.0058000498 2.3509527e-38
-0.047141373 -0.10876434 -0.0058000498 2.3509527e-38
-0.045293257 -0.10876434 -0.0058000498 2.3509886e-38
-0.043638907 -0.11021499 -0.011773866 2.3509886e-38
-0.041780315 -0.11021499 -0.011773866 2.3509886e-38
-0.036458649 -0.11264218 -0.021768969 2.3509883e-38
-0.034582533 -0.11264218 -0.021768969 2.3509883e-38
-0.032706413 -0.11264218 -0.021768969 2.3509883e-38
-0.030830298 -0.11264218 -0.021768969 2.3509883e-38
-0.028770171 -0.11021499 -0.011773866 2.3509883e-38
-0.026812077 -0.10876434 -0.0058000498 2.3418047e-38
-0.024963956 -0.10876434 -0.0058000498 2.3418047e-38
-0.02311584 -0.10876434 -0.0058000498 2.037595e-38
-0.021267723 -0.10876434 -0.0058000498 1.9085211e-38
-0.019380504 -0.10777976 -0.0017455034 1.761116e-38
-0.017539496 -0.10777976 -0.0017455034 1.7887747e-38
-0.015680451 -0.10706602 0.0011936016 2.0008247e-38
-0.013818104 -0.10559841 0.0072372742 2.2220942e-38
-0.011992844 -0.10559841 0.0072372742 2.2958507e-38
-0.010167584 -0.10559841 0.0072372742 2.268192e-38
-0.0064827781 -0.10876434 -0.0058000498 2.3509886e-38
-0.0046346597 -0.10876434 -0.0058000498 2.3509886e-38
-0.0028114226 -0.10777976 -0.0017455034 2.3509886e-38
-0.00097041391 -0.10777976 -0.0017455034 2.3509886e-38
0.00090969447 -0.10876434 -0.0058000498 2.3509886e-38
0.0027578129 -0.10876434 -0.0058000498 2.3509886e-38
0.0046059303 -0.10876434 -0.0058000498 2.3509886e-38
0.0064540487 -0.10876434 -0.0058000498 2.3509886e-38
0.0083021671 -0.10876434 -0.0058000498 2.3509886e-38
0.01007564 -0.10777976 -0.0017455034 2.3509886e-38
0.011916649 -0.10777976 -0.0017455034 2.3509886e-38
0.013757659 -0.10777976 -0.0017455034 2.3509886e-38
0.015598668 -0.10777976 -0.0017455034 2.3509886e-38
0.017439676 -0.10777976 -0.0017455034 2.3509886e-38
0.019280685 -0.10777976 -0.0017455034 2.3509886e-38
0.021121694 -0.10777976 -0.0017455034 2.3509886e-38
0.022962704 -0.10777976 -0.0017455034 2.3509886e-38
0.024803713 -0.10777976 -0.0017455034 2.3509886e-38
0.026644722 -0.10777976 -0.0017455034 2.3509886e-38
0.02848573 -0.10777976 -0.0017455034 2.3509886e-38
0.030215945 -0.10706602 0.0011936016 2.3509886e-38
0.032051802 -0.10706602 0.0011936016 2.3509886e-38
0.033887658 -0.10706602 0.0011936016 2.3509886e-38
0.035849769 -0.10777976 -0.0017455034 2.3509886e-38
0.037690777 -0.10777976 -0.0017455034 2.3509886e-38
0.039720174 -0.10876434 -0.0058000498 2.3509886e-38
0.04156829 -0.10876434 -0.0058000498 2.3509886e-38
0.043416411 -0.10876434 -0.0058000498 2.3509886e-38
0.045264527 -0.10876434 -0.0058000498 2.3509886e-38
0.047432106 -0.11021499 -0.011773866 2.3509886e-38
0.049290698 -0.11021499 -0.011773866 2.3509886e-38
0.05114929 -0.11021499 -0.011773866 2.341805e-38
0.053007882 -0.11021499 -0.011773866 2.3234018e-38
0.055048697 -0.11094652 -0.014786284 2.3509886e-38
0.057538249 -0.11338757 -0.024838489 2.3509167e-38
0.059676073 -0.1143602 -0.028843801 2.3324055e-38
0.061761513 -0.11508749 -0.031838696 1.5210121e-38
0.063655287 -0.11508749 -0.031838696 1.0230475e-38
0.065549061 -0.11508749 -0.031838696 9.2163232e-39
0.067442827 -0.11508749 -0.031838696 8.9397363e-39
-0.065405726 -0.10962076 -0.0017455034 9.4968519e-39
-0.064966336 -0.11624874 -0.028843801 1.0879789e-38
-0.063077822 -0.11624874 -0.028843801 2.3233648e-38
-0.06118929 -0.11624874 -0.028843801 2.2772672e-38
-0.059114676 -0.11526908 -0.024838489 2.350988e-38
-0.057233173 -0.11526908 -0.024838489 2.3509886e-38
-0.055523735 -0.11624874 -0.028843801 2.3509886e-38
-0.053635206 -0.11624874 -0.028843801 2.3509886e-38
-0.051073276 -0.11207359 -0.011773866 2.3509886e-38
-0.048836648 -0.10962076 -0.0017455034 2.3509527e-38
-0.04699564 -0.10962076 -0.0017455034 2.3509527e-38
-0.045154631 -0.10962076 -0.0017455034 2.3509886e-38
-0.043638907 -0.11207359 -0.011773866 2.3509886e-38
-0.037465058 -0.10669093 0.010233004 2.3509886e-38
-0.032773688 -0.11526908 -0.024838489 2.3509883e-38
-0.03089219 -0.11526908 -0.024838489 2.3509883e-38
-0.029010691 -0.11526908 -0.024838489 2.3509883e-38
-0.026812077 -0.11061247 -0.0058000498 2.3418047e-38
-0.024963956 -0.11061247 -0.0058000498 2.3418047e-38
-0.02311584 -0.11061247 -0.0058000498 2.3418047e-38
-0.021267723 -0.11061247 -0.0058000498 2.3418047e-38
-0.019380504 -0.10962076 -0.0017455034 2.2774116e-38
-0.017539496 -0.10962076 -0.0017455034 2.2405333e-38
-0.015680451 -0.10890187 0.0011936016 2.3050703e-38
-0.013818104 -0.10742365 0.0072372742 2.3234376e-38
-0.011992844 -0.10742365 0.0072372742 2.3234376e-38
-0.010167584 -0.10742365 0.0072372742 2.3234376e-38
-0.0064827781 -0.11061247 -0.0058000498 2.3509886e-38
-0.0046346597 -0.11061247 -0.0058000498 2.3509886e-38
-0.0028114226 -0.10962076 -0.0017455034 2.3509886e-38
-0.00097041391 -0.10962076 -0.0017455034 2.3509886e-38
0.00090969447 -0.11061247 -0.0058000498 2.3509886e-38
0.0027578129 -0.11061247 -0.0058000498 2.3509886e-38
0.0046059303 -0.11061247 -0.0058000498 2.3509886e-38
0.0064540487 -0.11061247 -0.0058000498 2.3509886e-38
0.0082346313 -0.10962076 -0.0017455034 2.3509886e-38
0.01007564 -0.10962076 -0.0017455034 2.3509886e-38
0.011916649 -0.10962076 -0.0017455034 2.3509886e-38
0.013693243 -0.10890187 0.0011936016 2.3509886e-38
0.015529098 -0.10890187 0.0011936016 2.3509886e-38
0.017364955 -0.10890187 0.0011936016 2.3509886e-38
0.019200811 -0.10890187 0.0011936016 2.3509886e-38
0.021036666 -0.10890187 0.0011936016 2.3509886e-38
0.022872522 -0.10890187 0.0011936016 2.3509886e-38
0.024708379 -0.10890187 0.0011936016 2.3509886e-38
0.026544232 -0.10890187 0.0011936016 2.3509886e-38
0.028380089 -0.10890187 0.0011936016 2.3509886e-38
0.030215945 -0.10890187 0.0011936016 2.3509886e-38
0.031303369 -0.10426159 0.020165283 2.3509886e-38
0.033105962 -0.10426159 0.020165283 2.3509886e-38
0.035849769 -0.10962076 -0.0017455034 2.3509886e-38
0.037690777 -0.10962076 -0.0017455034 2.3509886e-38
0.039720174 -0.11061247 -0.0058000498 2.3509886e-38
0.04156829 -0.11061247 -0.0058000498 2.3509886e-38
0.043213803 -0.10962076 -0.0017455034 2.3509886e-38
0.045054812 -0.10962076 -0.0017455034 2.3509886e-38
0.047271922 -0.11134095 -0.0087784939 2.3509886e-38
0.049125262 -0.11134095 -0.0087784939 2.3509886e-38
0.050978601 -0.11134095 -0.0087784939 2.3418047e-38
0.052831944 -0.11134095 -0.0087784939 2.332621e-38
0.05486647 -0.11207359 -0.011773866 2.3509883e-38
0.056912571 -0.11281042 -0.014786284 2.3232936e-38
0.059676073 -0.11624874 -0.028843801 2.3509524e-38
0.061761513 -0.11698125 -0.031838696 1.8068183e-38
0.063655287 -0.11698125 -0.031838696 1.0968396e-38
0.065549061 -0.11698125 -0.031838696 8.3869184e-39
-0.063564718 -0.11146177 -0.0017455034 1.1986137e-38
-0.061723713 -0.11146177 -0.0017455034 2.3325843e-38
-0.05911554 -0.10754226 0.014165241 2.3418042e-38
-0.057302427 -0.10754226 0.014165241 2.350988e-38
-0.055489313 -0.10754226 0.014165241 2.3233299e-38
-0.053676199 -0.10754226 0.014165241 2.3509886e-38
-0.051863093 -0.10754226 0.014165241 2.3509886e-38
-0.050677657 -0.11146177 -0.0017455034 2.3509527e-38
-0.048611615 -0.10999118 0.0042241402 2.3509527e-38
-0.046781071 -0.10999118 0.0042241402 2.3509527e-38
-0.044745088 -0.10851096 0.010233004 2.3509527e-38
-0.042925078 -0.10851096 0.010233004 2.3509527e-38
-0.041105073 -0.10851096 0.010233004 2.3509886e-38
-0.03908274 -0.10678811 0.017226655 2.3509886e-38
-0.037465058 -0.10851096 0.010233004 2.3509886e-38
-0.035645053 -0.10851096 0.010233004 2.3509883e-38
-0.033825044 -0.10851096 0.010233004 2.3509883e-38
-0.032005038 -0.10851096 0.010233004 2.3509883e-38
-0.029984765 -0.10606419 0.020165283 2.3509883e-38
-0.028420176 -0.10924892 0.0072372742 2.3509883e-38
-0.026594918 -0.10924892 0.0072372742 2.3418047e-38
-0.02476966 -0.10924892 0.0072372742 2.3418047e-38
-0.022944398 -0.10924892 0.0072372742 2.3418047e-38
-0.02111914 -0.10924892 0.0072372742 2.3418047e-38
-0.019322937 -0.10999118 0.0042241402 2.3234376e-38
-0.017539496 -0.11146177 -0.0017455034 2.3234376e-38
-0.015680451 -0.11073773 0.0011936016 2.3234376e-38
-0.013818104 -0.10924892 0.0072372742 2.3050703e-38
-0.011992844 -0.10924892 0.0072372742 2.2774116e-38
-0.010167584 -0.10924892 0.0072372742 2.2497529e-38
-0.0064827781 -0.11246057 -0.0058000498 2.3509886e-38
-0.0046346597 -0.11246057 -0.0058000498 2.3509886e-38
-0.0027865414 -0.11246057 -0.0058000498 2.3509886e-38
-0.00093842391 -0.11246057 -0.0058000498 2.3509886e-38
0.00090969447 -0.11246057 -0.0058000498 2.3509886e-38
0.0027578129 -0.11246057 -0.0058000498 2.3509886e-38
0.0046059303 -0.11246057 -0.0058000498 2.3509886e-38
0.0064540487 -0.11246057 -0.0058000498 2.3509886e-38
0.0080850087 -0.10924892 0.0072372742 2.3509886e-38
0.0098551158 -0.10851096 0.010233004 2.3509886e-38
0.011675123 -0.10851096 0.010233004 2.3509886e-38
0.013560785 -0.10924892 0.0072372742 2.3509886e-38
0.015386045 -0.10924892 0.0072372742 2.3509886e-38
0.017211305 -0.10924892 0.0072372742 2.3509886e-38
0.019036563 -0.10924892 0.0072372742 2.3509886e-38
0.020661397 -0.10754226 0.014165241 2.3509886e-38
0.022290409 -0.10606419 0.020165283 2.3509886e-38
0.024092998 -0.10606419 0.020165283 2.3509886e-38
0.026235178 -0.10851096 0.010233004 2.3509886e-38
0.027698185 -0.10606419 0.020165283 2.3509886e-38
0.029500775 -0.10606419 0.020165283 2.3509886e-38
0.031303369 -0.10606419 0.020165283 2.3509886e-38
0.033105962 -0.10606419 0.020165283 2.3509886e-38
0.034908552 -0.10606419 0.020165283 2.3509886e-38
0.036711145 -0.10606419 0.020165283 2.3509886e-38
0.037814219 -0.10235542 0.035220582 2.3509886e-38
0.041372795 -0.11146177 -0.0017455034 2.3509886e-38
0.043213803 -0.11146177 -0.0017455034 2.3509886e-38
0.045054812 -0.11146177 -0.0017455034 2.3509886e-38
0.047112644 -0.11246057 -0.0058000498 2.3509886e-38
0.048960764 -0.11246057 -0.0058000498 2.3509883e-38
0.050978601 -0.1131943 -0.0087784939 2.3418043e-38
0.052831944 -0.1131943 -0.0087784939 2.341804e-38
0.05468528 -0.1131943 -0.0087784939 2.3418039e-38
0.056538627 -0.1131943 -0.0087784939 2.2956701e-38
0.058391966 -0.1131943 -0.0087784939 2.3509876e-38
-0.063564718 -0.11330278 -0.0017455034 1.263115e-38
-0.061723713 -0.11330278 -0.0017455034 2.3049256e-38
-0.05911554 -0.10935538 0.014165241 2.350988e-38
-0.057302427 -0.10935538 0.014165241 2.350988e-38
-0.055489313 -0.10935538 0.014165241 2.3048907e-38
-0.053418461 -0.10786678 0.020165283 2.3509886e-38
-0.051615875 -0.10786678 0.020165283 2.3509527e-38
-0.049813278 -0.10786678 0.020165283 2.3509527e-38
-0.048010685 -0.10786678 0.020165283 2.3509527e-38
-0.046565093 -0.11033095 0.010233004 2.3509527e-38
-0.044745088 -0.11033095 0.010233004 2.3509527e-38
-0.042925078 -0.11033095 0.010233004 2.3509527e-38
-0.040890485 -0.10859586 0.017226655 2.3509886e-38
-0.03908274 -0.10859586 0.017226655 2.3509886e-38
-0.037274998 -0.10859586 0.017226655 2.3509886e-38
-0.035545085 -0.10935538 0.014165241 2.3509883e-38
-0.033731971 -0.10935538 0.014165241 2.3509883e-38
-0.031787354 -0.10786678 0.020165283 2.3509883e-38
-0.029984765 -0.10786678 0.020165283 2.3509883e-38
-0.028182175 -0.10786678 0.020165283 2.3509883e-38
-0.02647952 -0.10935538 0.014165241 2.3418047e-38
-0.02466641 -0.10935538 0.014165241 2.3418047e-38
-0.022905003 -0.11033095 0.010233004 2.3418047e-38
-0.02111914 -0.11107419 0.0072372742 2.332621e-38
-0.019322937 -0.11182173 0.0042241402 2.3234376e-38
-0.017516306 -0.11257361 0.0011936016 2.3234376e-38
-0.015680451 -0.11257361 0.0011936016 2.3234376e-38
-0.01383131 -0.11182173 0.0042241402 2.3142539e-38
-0.012000768 -0.11182173 0.0042241402 2.3142539e-38
-0.010170225 -0.11182173 0.0042241402 2.3234376e-38
-0.0083641764 -0.10489015 0.032163102 2.3509886e-38
-0.0065826215 -0.10489015 0.032163102 2.3509886e-38
-0.0048144665 -0.10413162 0.035220582 2.3509886e-38
-0.0030382723 -0.10413162 0.035220582 2.3509886e-38
-0.0013090977 -0.10265306 0.041180212 2.3509886e-38
0.00045664795 -0.10265306 0.041180212 2.3509886e-38
0.0022223936 -0.10265306 0.041180212 2.3509886e-38
0.0040265443 -0.10337763 0.038259704 2.3509886e-38
0.0062597487 -0.11107419 0.0072372742 2.3509886e-38
0.0080850087 -0.11107419 0.0072372742 2.3509886e-38
0.0096165556 -0.10711606 0.023191173 2.3509886e-38
0.011413842 -0.10711606 0.023191173 2.3509886e-38
0.013277447 -0.10786678 0.020165283 2.3509886e-38
0.015149597 -0.10859586 0.017226655 2.3509886e-38
0.016957341 -0.10859586 0.017226655 2.3509886e-38
0.018685224 -0.10786678 0.020165283 2.3509886e-38
0.020487815 -0.10786678 0.020165283 2.3509886e-38
0.022197563 -0.10711606 0.023191173 2.3509886e-38
0.023994852 -0.10711606 0.023191173 2.3509886e-38
0.025792137 -0.10711606 0.023191173 2.3509886e-38
0.027589425 -0.10711606 0.023191173 2.3509886e-38
0.029273309 -0.10636975 0.026199419 2.3509886e-38
0.031065322 -0.10636975 0.026199419 2.3509886e-38
0.032734111 -0.10562779 0.029190022 2.3509886e-38
0.034520879 -0.10562779 0.029190022 2.3509886e-38
0.036307648 -0.10562779 0.029190022 2.3509886e-38
0.037814219 -0.10413162 0.035220582 2.3509886e-38
0.039443877 -0.10337763 0.038259704 2.3509886e-38
0.041214742 -0.10337763 0.038259704 2.3509886e-38
0.04252477 -0.10116716 0.047169406 2.3509886e-38
0.044116024 -0.10040633 0.050236005 2.3509886e-38
0.045865893 -0.10040633 0.050236005 2.3418045e-38
0.050978601 -0.11504765 -0.0087784939 2.2865581e-38
0.052831944 -0.11504765 -0.0087784939 2.305069e-38
0.054505117 -0.1143087 -0.0058000498 2.3418033e-38
0.056353234 -0.1143087 -0.0058000498 2.3048891e-38
0.05820135 -0.1143087 -0.0058000498 2.350987e-38
-0.063564718 -0.11514379 -0.0017455034 1.6411171e-38
-0.061723713 -0.11514379 -0.0017455034 2.2957061e-38
-0.058826234 -0.10966937 0.020165283 2.350988e-38
-0.057023648 -0.10966937 0.020165283 2.3418043e-38
-0.055352446 -0.11040358 0.017226655 2.3509886e-38
-0.053418461 -0.10966937 0.020165283 2.341769e-38
-0.051491197 -0.10891335 0.023191173 2.3509527e-38
-0.049693905 -0.10891335 0.023191173 2.3509527e-38
-0.04789662 -0.10891335 0.023191173 2.3509527e-38
-0.046208095 -0.10966937 0.020165283 2.3509527e-38
-0.044405501 -0.10966937 0.020165283 2.3509527e-38
-0.042797532 -0.11116849 0.014165241 2.3509527e-38
-0.040707473 -0.10891335 0.023191173 2.3509886e-38
-0.038823158 -0.10816176 0.026199419 2.3509886e-38
-0.037031148 -0.10816176 0.026199419 2.3509886e-38
-0.035392541 -0.10966937 0.020165283 2.3509883e-38
-0.033518326 -0.10891335 0.023191173 2.3509883e-38
-0.031721037 -0.10891335 0.023191173 2.3509883e-38
-0.029863097 -0.10816176 0.026199419 2.3509883e-38
-0.028071083 -0.10816176 0.026199419 2.3509883e-38
-0.026329178 -0.10891335 0.023191173 2.3418047e-38
-0.024576988 -0.10966937 0.020165283 2.3418047e-38
-0.022774395 -0.10966937 0.020165283 2.332621e-38
-0.020971805 -0.10966937 0.020165283 2.332621e-38
-0.019322937 -0.11365227 0.0042241402 2.3142539e-38
-0.017516306 -0.11440946 0.0011936016 2.3142539e-38
-0.015680451 -0.11440946 0.0011936016 2.3142539e-38
-0.013844594 -0.11440946 0.0011936016 2.3234376e-38
-0.012008738 -0.11440946 0.0011936016 2.3234376e-38
-0.010172883 -0.11440946 0.0011936016 2.3234376e-38
-0.0083641764 -0.10667174 0.032163102 2.3509886e-38
-0.0065826215 -0.10667174 0.032163102 2.3509886e-38
-0.0048144665 -0.10590781 0.035220582 2.3509886e-38
-0.0030382723 -0.10590781 0.035220582 2.3509886e-38
-0.0013090977 -0.1044188 0.041180212 2.3509886e-38
0.00045664795 -0.1044188 0.041180212 2.3509886e-38
0.0022556782 -0.10514848 0.038259704 2.3509886e-38
0.0040265443 -0.10514848 0.038259704 2.3509886e-38
0.0057974113 -0.10514848 0.038259704 2.3509886e-38
0.0076189004 -0.10590781 0.035220582 2.3509886e-38
0.0095061176 -0.10741456 0.029190022 2.3509886e-38
0.011292886 -0.10741456 0.029190022 2.3509886e-38
0.013145199 -0.10816176 0.026199419 2.3509886e-38
0.015008416 -0.10891335 0.023191173 2.3509886e-38
0.016729223 -0.10816176 0.026199419 2.3509886e-38
0.018521236 -0.10816176 0.026199419 2.3509886e-38
0.020313248 -0.10816176 0.026199419 2.3509886e-38
0.022105262 -0.10816176 0.026199419 2.3509886e-38
0.023897272 -0.10816176 0.026199419 2.3509886e-38
0.025689285 -0.10816176 0.026199419 2.3509886e-38
0.027481299 -0.10816176 0.026199419 2.3509886e-38
0.029273309 -0.10816176 0.026199419 2.3509886e-38
0.031065322 -0.10816176 0.026199419 2.3509886e-38
0.032734111 -0.10741456 0.029190022 2.3509886e-38
0.034393165 -0.10667174 0.032163102 2.3509886e-38
0.036174722 -0.10667174 0.032163102 2.3509886e-38
0.037814219 -0.10590781 0.035220582 2.3509886e-38
0.039443877 -0.10514848 0.038259704 2.3509886e-38
0.041214742 -0.10514848 0.038259704 2.3509886e-38
0.04252477 -0.10292239 0.047169406 2.3509886e-38
0.044116024 -0.10215621 0.050236005 2.3509886e-38
0.045865893 -0.10215621 0.050236005 2.3418045e-38
0.050577838 -0.11514379 -0.0017455034 2.1759588e-38
0.052418847 -0.11514379 -0.0017455034 2.2682977e-38
0.054505117 -0.1161568 -0.0058000498 2.3509863e-38
0.056353234 -0.1161568 -0.0058000498 2.3418025e-38
0.05820135 -0.1161568 -0.0058000498 2.3509863e-38
0.060049474 -0.1161568 -0.0058000498 1.4011555e-38
-0.062274914 -0.11071064 0.023191173 2.2310235e-38
-0.060477626 -0.11071064 0.023191173 2.3509865e-38
-0.058680337 -0.11071064 0.023191173 2.3416953e-38
-0.056883048 -0.11071064 0.023191173 2.3233288e-38
-0.055085767 -0.11071064 0.023191173 2.3509883e-38
-0.053159256 -0.10995375 0.026199419 2.2680128e-38
-0.051367242 -0.10995375 0.026199419 2.3509527e-38
-0.049457252 -0.10920133 0.029190022 2.341805e-38
-0.047670484 -0.10920133 0.029190022 2.3509886e-38
-0.045991208 -0.10995375 0.026199419 2.3509886e-38
-0.044199195 -0.10995375 0.026199419 2.3509886e-38
-0.042310178 -0.10920133 0.029190022 2.3509886e-38
-0.040432185 -0.10845329 0.032163102 2.3509527e-38
-0.038650628 -0.10845329 0.032163102 2.3509527e-38
-0.036869071 -0.10845329 0.032163102 2.3509886e-38
-0.035163101 -0.10920133 0.029190022 2.3509883e-38
-0.03344712 -0.10995375 0.026199419 2.3509883e-38
-0.031589564 -0.10920133 0.029190022 2.3509883e-38
-0.029802795 -0.10920133 0.029190022 2.3509883e-38
-0.028016027 -0.10920133 0.029190022 2.3509886e-38
-0.026229259 -0.10920133 0.029190022 2.3509886e-38
-0.02448706 -0.10995375 0.026199419 2.341805e-38
-0.022616625 -0.10845329 0.032163102 2.341769e-38
-0.020765588 -0.10691936 0.038259704 2.341805e-38
-0.018966557 -0.10618456 0.041180212 2.341805e-38
-0.017177114 -0.10542886 0.04418369 2.3234018e-38
-0.015416633 -0.10542886 0.04418369 2.3234015e-38
-0.013669319 -0.10618456 0.041180212 2.3418047e-38
-0.011919247 -0.107684 0.035220582 2.3418047e-38
-0.010143053 -0.107684 0.035220582 2.2957428e-38
-0.0083668567 -0.107684 0.035220582 2.3509886e-38
-0.0065906625 -0.107684 0.035220582 2.3509886e-38
-0.0048144665 -0.107684 0.035220582 2.3509886e-38
-0.0030382723 -0.107684 0.035220582 2.3509886e-38
-0.001286055 -0.10691936 0.038259704 2.3509886e-38
0.00048481114 -0.10691936 0.038259704 2.3509886e-38
0.0022556782 -0.10691936 0.038259704 2.3509886e-38
0.0040265443 -0.10691936 0.038259704 2.3509886e-38
0.0057974113 -0.10691936 0.038259704 2.3509883e-38
0.0076189004 -0.107684 0.035220582 2.3509883e-38
0.0094513837 -0.10845329 0.032163102 2.3509883e-38
0.011232939 -0.10845329 0.032163102 2.3509883e-38
0.013014495 -0.10845329 0.032163102 2.3509883e-38
0.014866423 -0.10920133 0.029190022 2.3509883e-38
0.016653193 -0.10920133 0.029190022 2.3509883e-38
0.018439962 -0.10920133 0.029190022 2.3509886e-38
0.02022673 -0.10920133 0.029190022 2.3509886e-38
0.0220135 -0.10920133 0.029190022 2.3509886e-38
0.023800269 -0.10920133 0.029190022 2.3509886e-38
0.025485385 -0.10845329 0.032163102 2.3509886e-38
0.027266942 -0.10845329 0.032163102 2.3509886e-38
0.029048499 -0.10845329 0.032163102 2.3509886e-38
0.030830055 -0.10845329 0.032163102 2.3509886e-38
0.032611612 -0.10845329 0.032163102 2.3509886e-38
0.034261826 -0.107684 0.035220582 2.3509886e-38
0.036038022 -0.107684 0.035220582 2.3509886e-38
0.037814219 -0.107684 0.035220582 2.3509886e-38
0.039590415 -0.107684 0.035220582 2.3509886e-38
0.041366607 -0.107684 0.035220582 2.3509883e-38
0.042679202 -0.10542886 0.04418369 2.3509883e-38
0.044280015 -0.10467763 0.047169406 2.3509883e-38
0.04603526 -0.10467763 0.047169406 2.350987e-38
0.050577838 -0.1169848 -0.0017455034 2.1021641e-38
0.052418847 -0.1169848 -0.0017455034 2.2681516e-38
0.054259859 -0.1169848 -0.0017455034 2.3509856e-38
0.056100868 -0.1169848 -0.0017455034 2.350986e-38
0.05820135 -0.11800493 -0.0058000498 2.2771214e-38
0.060049474 -0.11800493 -0.0058000498 9.9553007e-39
0.06263531 -0.11397095 0.010233004 6.911773e-39
0.064455315 -0.11397095 0.010233004 7.3727511e-39
-0.061810855 -0.11023484 0.032163102 2.3506956e-38
-0.060029294 -0.11023484 0.032163102 2.3509841e-38
-0.058247741 -0.11023484 0.032163102 2.3509851e-38
-0.056604322 -0.1109881 0.029190022 2.3509144e-38
-0.054817554 -0.1109881 0.029190022 2.332405e-38
-0.053030785 -0.1109881 0.029190022 2.3509527e-38
-0.05124402 -0.1109881 0.029190022 2.3325856e-38
-0.049339965 -0.11023484 0.032163102 2.3142544e-38
-0.047558408 -0.11023484 0.032163102 2.3418045e-38
-0.045666955 -0.10946019 0.035220582 2.3418043e-38
-0.043890759 -0.10946019 0.035220582 2.3418043e-38
-0.042114567 -0.10946019 0.035220582 2.3509886e-38
-0.040245119 -0.10869022 0.038259704 2.3417333e-38
-0.038474254 -0.10869022 0.038259704 2.3508809e-38
-0.036785979 -0.10946019 0.035220582 2.3509168e-38
-0.035009783 -0.10946019 0.035220582 2.3509523e-38
-0.033305962 -0.11023484 0.032163102 2.3509164e-38
-0.031457394 -0.10946019 0.035220582 2.3509523e-38
-0.029681202 -0.10946019 0.035220582 2.3509167e-38
-0.027905006 -0.10946019 0.035220582 2.3509168e-38
-0.02612881 -0.10946019 0.035220582 2.3509168e-38
-0.024352614 -0.10946019 0.035220582 2.3417691e-38
-0.022576418 -0.10946019 0.035220582 2.3509527e-38
-0.020765588 -0.10869022 0.038259704 2.3509886e-38
-0.018966557 -0.10795029 0.041180212 2.3509886e-38
-0.017177114 -0.10718934 0.04418369 2.3509886e-38
-0.015416633 -0.10718934 0.04418369 2.3509886e-38
-0.013669319 -0.10795029 0.041180212 2.3509886e-38
-0.011911254 -0.10869022 0.038259704 2.3417687e-38
-0.010140387 -0.10869022 0.038259704 2.3417687e-38
-0.0083668567 -0.10946019 0.035220582 2.3509167e-38
-0.0065906625 -0.10946019 0.035220582 2.3509527e-38
-0.0048277881 -0.10869022 0.038259704 2.3509527e-38
-0.0030569211 -0.10869022 0.038259704 2.3509527e-38
-0.001286055 -0.10869022 0.038259704 2.3509168e-38
0.00048481114 -0.10869022 0.038259704 2.3509527e-38
0.0022223936 -0.10795029 0.041180212 2.3509527e-38
0.0039881403 -0.10795029 0.041180212 2.3509527e-38
0.005753886 -0.10795029 0.041180212 2.350988e-38
0.0075682774 -0.10869022 0.038259704 2.3509879e-38
0.0093950946 -0.10946019 0.035220582 2.3509876e-38
0.011171291 -0.10946019 0.035220582 2.3509876e-38
0.012947485 -0.10946019 0.035220582 2.3509876e-38
0.01479605 -0.11023484 0.032163102 2.3509879e-38
0.016577607 -0.11023484 0.032163102 2.3418045e-38
0.018276071 -0.10946019 0.035220582 2.3418047e-38
0.020052265 -0.10946019 0.035220582 2.3417687e-38
0.021922275 -0.11023484 0.032163102 2.3417687e-38
0.023703832 -0.11023484 0.032163102 2.341769e-38
0.02538085 -0.10946019 0.035220582 2.341769e-38
0.027047809 -0.10869022 0.038259704 2.3417691e-38
0.028818678 -0.10869022 0.038259704 2.3417691e-38
0.030709438 -0.10946019 0.035220582 2.3417691e-38
0.03248563 -0.10946019 0.035220582 2.3417691e-38
0.034261826 -0.10946019 0.035220582 2.3509527e-38
0.035902143 -0.10869022 0.038259704 2.3509527e-38
0.037673011 -0.10869022 0.038259704 2.3509883e-38
0.039443877 -0.10869022 0.038259704 2.3509883e-38
0.041366607 -0.10946019 0.035220582 2.350988e-38
0.042679202 -0.10718934 0.04418369 2.350952e-38
0.044280015 -0.1064329 0.047169406 2.3509518e-38
0.04603526 -0.1064329 0.047169406 2.3509853e-38
0.050577838 -0.11882581 -0.0017455034 1.9636869e-38
0.052418847 -0.11882581 -0.0017455034 2.2126145e-38
0.054259859 -0.11882581 -0.0017455034 2.3509846e-38
0.056100868 -0.11882581 -0.0017455034 2.3323311e-38
0.057941876 -0.11882581 -0.0017455034 2.3509856e-38
0.059782885 -0.11882581 -0.0017455034 7.8362404e-39
0.06263531 -0.11579098 0.010233004 7.9277227e-39
0.064455315 -0.11579098 0.010233004 8.1110322e-39
0.066493303 -0.11654995 0.0072372742 7.5571452e-39
-0.061495524 -0.11046107 0.038259704 2.3043797e-38
-0.059724655 -0.11046107 0.038259704 2.3508381e-38
-0.057953786 -0.11046107 0.038259704 2.3509837e-38
-0.056182917 -0.11046107 0.038259704 2.350949e-38
-0.054412048 -0.11046107 0.038259704 2.3509153e-38
-0.052641187 -0.11046107 0.038259704 2.3509886e-38
-0.05099554 -0.11123641 0.035220582 2.341805e-38
-0.049219348 -0.11123641 0.035220582 2.3234376e-38
-0.047443151 -0.11123641 0.035220582 2.3234364e-38
-0.045557719 -0.11046107 0.038259704 2.3418031e-38
-0.043786854 -0.11046107 0.038259704 2.3418033e-38
-0.042015988 -0.11046107 0.038259704 2.3509876e-38
-0.040155511 -0.10971604 0.041180212 2.3509527e-38
-0.038389761 -0.10971604 0.041180212 2.3509168e-38
-0.036703389 -0.11046107 0.038259704 2.3509524e-38
-0.035009783 -0.11123641 0.035220582 2.3509879e-38
-0.03323359 -0.11123641 0.035220582 2.3509879e-38
-0.031457394 -0.11123641 0.035220582 2.3509879e-38
-0.029681202 -0.11123641 0.035220582 2.350988e-38
-0.027849052 -0.11046107 0.038259704 2.3509883e-38
-0.026078187 -0.11046107 0.038259704 2.3509883e-38
-0.024352614 -0.11123641 0.035220582 2.3509527e-38
-0.022576418 -0.11123641 0.035220582 2.3509527e-38
-0.020732302 -0.10971604 0.041180212 2.3509527e-38
-0.018966557 -0.10971604 0.041180212 2.3509527e-38
-0.017177114 -0.10894983 0.04418369 2.3509883e-38
-0.015416633 -0.10894983 0.04418369 2.350988e-38
-0.013669319 -0.10971604 0.041180212 2.3509879e-38
-0.011911254 -0.11046107 0.038259704 2.3509874e-38
-0.010140387 -0.11046107 0.038259704 2.3509518e-38
-0.0083695222 -0.11046107 0.038259704 2.350988e-38
-0.0065986551 -0.11046107 0.038259704 2.3509527e-38
-0.0048277881 -0.11046107 0.038259704 2.3509527e-38
-0.0030569211 -0.11046107 0.038259704 2.3509527e-38
-0.0013090977 -0.10971604 0.041180212 2.3509527e-38
0.00045664795 -0.10971604 0.041180212 2.3509527e-38
0.0022223936 -0.10971604 0.041180212 2.3509527e-38
0.0039486438 -0.10894983 0.04418369 2.3509883e-38
0.0057091238 -0.10894983 0.04418369 2.3509879e-38
0.0075196326 -0.10971604 0.041180212 2.3509876e-38
0.0092853773 -0.10971604 0.041180212 2.3509873e-38
0.011110011 -0.11046107 0.038259704 2.3509873e-38
0.012880879 -0.11046107 0.038259704 2.3509873e-38
0.014651744 -0.11046107 0.038259704 2.3509876e-38
0.016422611 -0.11046107 0.038259704 2.3418045e-38
0.018193478 -0.11046107 0.038259704 2.3418045e-38
0.019964345 -0.11046107 0.038259704 2.3509879e-38
0.021828461 -0.11123641 0.035220582 2.3509879e-38
0.023604658 -0.11123641 0.035220582 2.350988e-38
0.025276944 -0.11046107 0.038259704 2.350988e-38
0.026942838 -0.10971604 0.041180212 2.3509883e-38
0.028708585 -0.10971604 0.041180212 2.3509883e-38
0.030589543 -0.11046107 0.038259704 2.3509883e-38
0.032360408 -0.11046107 0.038259704 2.3509883e-38
0.034131277 -0.11046107 0.038259704 2.350952e-38
0.035902143 -0.11046107 0.038259704 2.350952e-38
0.037673011 -0.11046107 0.038259704 2.3509879e-38
0.039443877 -0.11046107 0.038259704 2.3509876e-38
0.041214742 -0.11046107 0.038259704 2.3509513e-38
0.042679202 -0.10894983 0.04418369 2.3509869e-38
0.044439681 -0.10894983 0.04418369 2.3509509e-38
0.04620016 -0.10894983 0.04418369 2.3509844e-38
0.047960643 -0.10894983 0.04418369 1.7884412e-38
0.052657001 -0.12170117 -0.0058000498 1.5762831e-38
0.054259859 -0.12066682 -0.0017455034 2.3507321e-38
0.055917926 -0.11991702 0.0011936016 2.3509863e-38
0.057753786 -0.11991702 0.0011936016 2.3509496e-38
0.059589639 -0.11991702 0.0011936016 5.1636447e-39
0.061425492 -0.11991702 0.0011936016 6.3618362e-39
0.064668044 -0.11837523 0.0072372742 8.0199128e-39
0.066493303 -0.11837523 0.0072372742 7.6500597e-39
-0.064710066 -0.11071031 0.04418369 8.7538442e-39
-0.062949598 -0.11071031 0.04418369 1.4376685e-38
-0.061189111 -0.11071031 0.04418369 2.1661214e-38
-0.059428629 -0.11071031 0.04418369 2.350621e-38
-0.057953786 -0.11223195 0.038259704 2.3509821e-38
-0.056182917 -0.11223195 0.038259704 2.3509476e-38
-0.054412048 -0.11223195 0.038259704 2.3509859e-38
-0.052641187 -0.11223195 0.038259704 2.350987e-38
-0.050870318 -0.11223195 0.038259704 2.3326201e-38
-0.049099453 -0.11223195 0.038259704 2.3326196e-38
-0.047328588 -0.11223195 0.038259704 2.3326184e-38
-0.045452747 -0.11148177 0.041180212 2.3418014e-38
-0.043687001 -0.11148177 0.041180212 2.3418016e-38
-0.041921254 -0.11148177 0.041180212 2.3509859e-38
-0.040155511 -0.11148177 0.041180212 2.3509872e-38
-0.038389761 -0.11148177 0.041180212 2.3509518e-38
-0.036624018 -0.11148177 0.041180212 2.350987e-38
-0.034858271 -0.11148177 0.041180212 2.3509869e-38
-0.033161651 -0.11223195 0.038259704 2.3509866e-38
-0.03139079 -0.11223195 0.038259704 2.3509866e-38
-0.029619921 -0.11223195 0.038259704 2.3509869e-38
-0.027849052 -0.11223195 0.038259704 2.3509869e-38
-0.026078187 -0.11223195 0.038259704 2.350987e-38
-0.024307322 -0.11223195 0.038259704 2.3509873e-38
-0.022576418 -0.1130126 0.035220582 2.3509872e-38
-0.020732302 -0.11148177 0.041180212 2.3509872e-38
-0.018966557 -0.11148177 0.041180212 2.3509873e-38
-0.017177114 -0.11071031 0.04418369 2.350987e-38
-0.015416633 -0.11071031 0.04418369 2.3509865e-38
-0.013669319 -0.11148177 0.041180212 2.3509862e-38
-0.011911254 -0.11223195 0.038259704 2.3418022e-38
-0.010140387 -0.11223195 0.038259704 2.3418025e-38
-0.0083695222 -0.11223195 0.038259704 2.350987e-38
-0.0065986551 -0.11223195 0.038259704 2.3509876e-38
-0.0048277881 -0.11223195 0.038259704 2.3509879e-38
-0.0030569211 -0.11223195 0.038259704 2.350988e-38
-0.0013090977 -0.11148177 0.041180212 2.3509527e-38
0.00045664795 -0.11148177 0.041180212 2.3509527e-38
0.0021881647 -0.11071031 0.04418369 2.3509527e-38
0.0039486438 -0.11071031 0.04418369 2.3509883e-38
0.0057091238 -0.11071031 0.04418369 2.3509518e-38
0.0075196326 -0.11148177 0.041180212 2.3509874e-38
0.0092853773 -0.11148177 0.041180212 2.3509874e-38
0.011051124 -0.11148177 0.041180212 2.3509874e-38
0.012816871 -0.11148177 0.041180212 2.3418042e-38
0.014582615 -0.11148177 0.041180212 2.3418043e-38
0.016422611 -0.11223195 0.038259704 2.3417687e-38
0.018114109 -0.11148177 0.041180212 2.3418043e-38
0.019879853 -0.11148177 0.041180212 2.3509873e-38
0.0216456 -0.11148177 0.041180212 2.3509869e-38
0.023411345 -0.11148177 0.041180212 2.3509869e-38
0.025177091 -0.11148177 0.041180212 2.3509869e-38
0.026834883 -0.11071031 0.04418369 2.350987e-38
0.028595362 -0.11071031 0.04418369 2.350987e-38
0.030474331 -0.11148177 0.041180212 2.350987e-38
0.032240074 -0.11148177 0.041180212 2.350987e-38
0.034005821 -0.11148177 0.041180212 2.3509509e-38
0.035771567 -0.11148177 0.041180212 2.3509509e-38
0.037537314 -0.11148177 0.041180212 2.3509867e-38
0.039443877 -0.11223195 0.038259704 2.3509865e-38
0.041214742 -0.11223195 0.038259704 2.350986e-38
0.042679202 -0.11071031 0.04418369 2.3509858e-38
0.044439681 -0.11071031 0.04418369 2.3509497e-38
0.04620016 -0.11071031 0.04418369 2.3509834e-38
0.047960643 -0.11071031 0.04418369 2.0188221e-38
0.052657001 -0.1235493 -0.0058000498 9.9537901e-39
0.054082073 -0.12175287 0.0011936016 1.7328775e-38
0.055917926 -0.12175287 0.0011936016 1.9173792e-38
0.057753786 -0.12175287 0.0011936016 1.8806801e-38
0.059390381 -0.12097444 0.0042241402 5.9001322e-39
0.061220922 -0.12097444 0.0042241402 8.0213575e-39
0.064668044 -0.12020047 0.0072372742 7.466739e-39
0.066493303 -0.12020047 0.0072372742 7.557864e-39
-0.064710066 -0.11247079 0.04418369 7.1883122e-39
-0.062949598 -0.11247079 0.04418369 1.3456159e-38
-0.061189111 -0.11247079 0.04418369 2.0371546e-38
-0.059428629 -0.11247079 0.04418369 2.3138855e-38
-0.05781297 -0.11324753 0.041180212 2.3509446e-38
-0.056047227 -0.11324753 0.041180212 2.3417263e-38
-0.054281477 -0.11324753 0.041180212 2.3325807e-38
-0.052515727 -0.11324753 0.041180212 2.3234341e-38
-0.050626233 -0.11247079 0.04418369 2.3142511e-38
-0.04886575 -0.11247079 0.04418369 2.3142503e-38
-0.047105271 -0.11247079 0.04418369 2.3050656e-38
-0.045344792 -0.11247079 0.04418369 2.3142485e-38
-0.043584313 -0.11247079 0.04418369 2.3142488e-38
-0.041823834 -0.11247079 0.04418369 2.3326163e-38
-0.040063355 -0.11247079 0.04418369 2.3509133e-38
-0.038302872 -0.11247079 0.04418369 2.3508779e-38
-0.036624018 -0.11324753 0.041180212 2.3509852e-38
-0.034858271 -0.11324753 0.041180212 2.3509849e-38
-0.033092525 -0.11324753 0.041180212 2.3509849e-38
-0.03139079 -0.11400281 0.038259704 2.3509849e-38
-0.029561032 -0.11324753 0.041180212 2.3509849e-38
-0.027795289 -0.11324753 0.041180212 2.3509849e-38
-0.026029542 -0.11324753 0.041180212 2.3509852e-38
-0.024307322 -0.11400281 0.038259704 2.3509496e-38
-0.022536453 -0.11400281 0.038259704 2.3326185e-38
-0.020732302 -0.11324753 0.041180212 2.3325829e-38
-0.018966557 -0.11324753 0.041180212 2.3418022e-38
-0.017177114 -0.11247079 0.04418369 2.3418022e-38
-0.015416633 -0.11247079 0.04418369 2.3418018e-38
-0.013669319 -0.11324753 0.041180212 2.3326178e-38
-0.011903573 -0.11324753 0.041180212 2.3234338e-38
-0.010137828 -0.11324753 0.041180212 2.3234338e-38
-0.0083695222 -0.11400281 0.038259704 2.3418015e-38
-0.0065986551 -0.11400281 0.038259704 2.3418018e-38
-0.0048405901 -0.11324753 0.041180212 2.3418021e-38
-0.0030748434 -0.11324753 0.041180212 2.3509862e-38
-0.0013327952 -0.11247079 0.04418369 2.3509865e-38
0.00042768475 -0.11247079 0.04418369 2.3509867e-38
0.0021881647 -0.11247079 0.04418369 2.3509869e-38
0.0039486438 -0.11247079 0.04418369 2.3509869e-38
0.0057091238 -0.11247079 0.04418369 2.3325835e-38
0.0074696038 -0.11247079 0.04418369 2.3325835e-38
0.0092853773 -0.11324753 0.041180212 2.3325832e-38
0.011051124 -0.11324753 0.041180212 2.3325835e-38
0.012816871 -0.11324753 0.041180212 2.3233999e-38
0.014582615 -0.11324753 0.041180212 2.3234001e-38
0.016348362 -0.11324753 0.041180212 2.3234001e-38
0.018114109 -0.11324753 0.041180212 2.3233999e-38
0.019879853 -0.11324753 0.041180212 2.3326187e-38
0.0216456 -0.11324753 0.041180212 2.3326182e-38
0.023411345 -0.11324753 0.041180212 2.3326182e-38
0.025177091 -0.11324753 0.041180212 2.3326182e-38
0.026834883 -0.11247079 0.04418369 2.3418021e-38
0.028595362 -0.11247079 0.04418369 2.3418021e-38
0.030355841 -0.11247079 0.04418369 2.3418021e-38
0.032116324 -0.11247079 0.04418369 2.3418021e-38
0.033876803 -0.11247079 0.04418369 2.3509496e-38
0.035637282 -0.11247079 0.04418369 2.3509852e-38
0.037397761 -0.11247079 0.04418369 2.3509852e-38
0.039303061 -0.11324753 0.041180212 2.3509846e-38
0.041068804 -0.11324753 0.041180212 2.3509846e-38
0.042679202 -0.11247079 0.04418369 2.3509844e-38
0.044439681 -0.11247079 0.04418369 2.3418005e-38
0.04620016 -0.11247079 0.04418369 2.3509462e-38
0.047960643 -0.11247079 0.04418369 2.0188221e-38
0.049721122 -0.11247079 0.04418369 6.1737847e-39
0.054082073 -0.12358873 0.0011936016 8.3858016e-39
0.0557293 -0.12280498 0.0042241402 9.123752e-39
0.05755984 -0.12280498 0.0042241402 8.664206e-39
0.05919227 -0.12202574 0.0072372742 5.9001322e-39
0.061017528 -0.12202574 0.0072372742 7.2827135e-39
0.062842786 -0.12202574 0.0072372742 5.899779e-39
0.064668044 -0.12202574 0.0072372742 6.9135652e-39
0.066493303 -0.12202574 0.0072372742 7.3734728e-39
-0.064710066 -0.11423124 0.04418369 5.8060966e-39
-0.062949598 -0.11423124 0.04418369 1.2719309e-38
-0.061189111 -0.11423124 0.04418369 1.9450659e-38
-0.059428629 -0.11423124 0.04418369 2.3323952e-38
-0.05781297 -0.11501329 0.041180212 2.3509788e-38
-0.056047227 -0.11501329 0.041180212 2.3326126e-38
-0.054281477 -0.11501329 0.041180212 2.323395e-38
-0.052515727 -0.11501329 0.041180212 2.2865536e-38
-0.050626233 -0.11423124 0.04418369 2.3233964e-38
-0.04886575 -0.11423124 0.04418369 2.3050645e-38
-0.047105271 -0.11423124 0.04418369 2.2958798e-38
-0.045344792 -0.11423124 0.04418369 2.3050625e-38
-0.043482229 -0.11345388 0.047169406 2.3142461e-38
-0.041726984 -0.11345388 0.047169406 2.3234305e-38
-0.040063355 -0.11423124 0.04418369 2.3509108e-38
-0.038302872 -0.11423124 0.04418369 2.3509112e-38
-0.036624018 -0.11501329 0.041180212 2.3417637e-38
-0.034858271 -0.11501329 0.041180212 2.3417637e-38
-0.033092525 -0.11501329 0.041180212 2.3417637e-38
-0.03139079 -0.11577369 0.038259704 2.3417994e-38
-0.029561032 -0.11501329 0.041180212 2.3417994e-38
-0.027795289 -0.11501329 0.041180212 2.3417994e-38
-0.026029542 -0.11501329 0.041180212 2.3326163e-38
-0.024263795 -0.11501329 0.041180212 2.332581e-38
-0.022536453 -0.11577369 0.038259704 2.3418007e-38
-0.020732302 -0.11501329 0.041180212 2.3417651e-38
-0.018937595 -0.11423124 0.04418369 2.3234341e-38
-0.017177114 -0.11423124 0.04418369 2.3234338e-38
-0.015416633 -0.11423124 0.04418369 2.3234336e-38
-0.013669319 -0.11501329 0.041180212 2.3142497e-38
-0.011903573 -0.11501329 0.041180212 2.3142492e-38
-0.010137828 -0.11501329 0.041180212 2.3050651e-38
-0.0083720814 -0.11501329 0.041180212 2.3234316e-38
-0.0066063367 -0.11501329 0.041180212 2.3234313e-38
-0.0048405901 -0.11501329 0.041180212 2.3234316e-38
-0.0030748434 -0.11501329 0.041180212 2.3234322e-38
-0.0013327952 -0.11423124 0.04418369 2.3234326e-38
0.00042768475 -0.11423124 0.04418369 2.3326166e-38
0.0021881647 -0.11423124 0.04418369 2.3326168e-38
0.0039486438 -0.11423124 0.04418369 2.3326171e-38
0.0057091238 -0.11423124 0.04418369 2.3234336e-38
0.0074696038 -0.11423124 0.04418369 2.3234336e-38
0.0092300847 -0.11423124 0.04418369 2.3234336e-38
0.011051124 -0.11501329 0.041180212 2.3234336e-38
0.012816871 -0.11501329 0.041180212 2.3234336e-38
0.014582615 -0.11501329 0.041180212 2.3234334e-38
0.016348362 -0.11501329 0.041180212 2.3234334e-38
0.018114109 -0.11501329 0.041180212 2.3234334e-38
0.019879853 -0.11501329 0.041180212 2.3142495e-38
0.0216456 -0.11501329 0.041180212 2.3142495e-38
0.023411345 -0.11501329 0.041180212 2.3142495e-38
0.025177091 -0.11501329 0.041180212 2.3142495e-38
0.026834883 -0.11423124 0.04418369 2.332581e-38
0.028595362 -0.11423124 0.04418369 2.332581e-38
0.030355841 -0.11423124 0.04418369 2.332581e-38
0.032116324 -0.11423124 0.04418369 2.332581e-38
0.033876803 -0.11423124 0.04418369 2.3417642e-38
0.035637282 -0.11423124 0.04418369 2.3509835e-38
0.037397761 -0.11423124 0.04418369 2.3509835e-38
0.03915824 -0.11423124 0.04418369 2.3509831e-38
0.040918723 -0.11423124 0.04418369 2.3509831e-38
0.042679202 -0.11423124 0.04418369 2.3417991e-38
0.044439681 -0.11423124 0.04418369 2.3325793e-38
0.04620016 -0.11423124 0.04418369 2.3509451e-38
0.047960643 -0.11423124 0.04418369 2.0648838e-38
0.049721122 -0.11423124 0.04418369 8.3857512e-39
0.053898752 -0.12463553 0.0042241402 9.4907156e-39
0.0557293 -0.12463553 0.0042241402 7.2798408e-39
0.05755984 -0.12463553 0.0042241402 7.0046874e-39
0.05919227 -0.12385099 0.0072372742 7.8362432e-39
0.061017528 -0.12385099 0.0072372742 8.3890638e-39
0.064668044 -0.12385099 0.0072372742 6.8213696e-39
0.066493303 -0.12385099 0.0072372742 7.4656656e-39
-0.064710066 -0.11599173 0.04418369 4.5160823e-39
-0.062949598 -0.11599173 0.04418369 1.2259047e-38
-0.061189111 -0.11599173 0.04418369 1.8714169e-38
-0.059428629 -0.11599173 0.04418369 2.3509413e-38
-0.05781297 -0.11677901 0.041180212 2.3509775e-38
-0.056047227 -0.11677901 0.041180212 2.3417949e-38
-0.054281477 -0.11677901 0.041180212 2.35098e-38
-0.052515727 -0.11677901 0.041180212 2.2957712e-38
-0.050749984 -0.11677901 0.041180212 2.3417979e-38
-0.048984241 -0.11677901 0.041180212 2.3326136e-38
-0.047105271 -0.11599173 0.04418369 2.3234288e-38
-0.045344792 -0.11599173 0.04418369 2.3142443e-38
-0.043482229 -0.11520912 0.047169406 2.3326114e-38
-0.041726984 -0.11520912 0.047169406 2.3509792e-38
-0.040063355 -0.11599173 0.04418369 2.3509806e-38
-0.038302872 -0.11599173 0.04418369 2.3509814e-38
-0.036624018 -0.11677901 0.041180212 2.341762e-38
-0.034858271 -0.11677901 0.041180212 2.3233949e-38
-0.033092525 -0.11677901 0.041180212 2.3417617e-38
-0.03139079 -0.11754455 0.038259704 2.3234302e-38
-0.029561032 -0.11677901 0.041180212 2.3234302e-38
-0.027795289 -0.11677901 0.041180212 2.3234305e-38
-0.026029542 -0.11677901 0.041180212 2.3233953e-38
-0.024263795 -0.11677901 0.041180212 2.3141767e-38
-0.022498049 -0.11677901 0.041180212 2.3418002e-38
-0.020732302 -0.11677901 0.041180212 2.3418007e-38
-0.018937595 -0.11599173 0.04418369 2.3509846e-38
-0.017177114 -0.11599173 0.04418369 2.3326175e-38
-0.015416633 -0.11599173 0.04418369 2.3234336e-38
-0.013669319 -0.11677901 0.041180212 2.3234334e-38
-0.011895675 -0.11599173 0.04418369 2.3142492e-38
-0.010135194 -0.11599173 0.04418369 2.3142482e-38
-0.0083720814 -0.11677901 0.041180212 2.3050632e-38
-0.0066063367 -0.11677901 0.041180212 2.3050628e-38
-0.0048405901 -0.11677901 0.041180212 2.305063e-38
-0.0030932752 -0.11599173 0.04418369 2.3050632e-38
-0.0013327952 -0.11599173 0.04418369 2.3142475e-38
0.00042768475 -0.11599173 0.04418369 2.3142476e-38
0.0021881647 -0.11599173 0.04418369 2.3142482e-38
0.0039486438 -0.11599173 0.04418369 2.3142485e-38
0.0057091238 -0.11599173 0.04418369 2.3142488e-38
0.0074696038 -0.11599173 0.04418369 2.3142489e-38
0.0092300847 -0.11599173 0.04418369 2.3142488e-38
0.010990564 -0.11599173 0.04418369 2.3142485e-38
0.012751043 -0.11599173 0.04418369 2.3142482e-38
0.014511524 -0.11599173 0.04418369 2.332615e-38
0.016348362 -0.11677901 0.041180212 2.3326147e-38
0.018114109 -0.11677901 0.041180212 2.3326147e-38
0.019879853 -0.11677901 0.041180212 2.3234313e-38
0.0216456 -0.11677901 0.041180212 2.3050645e-38
0.023411345 -0.11677901 0.041180212 2.3050645e-38
0.025177091 -0.11677901 0.041180212 2.3234316e-38
0.026834883 -0.11599173 0.04418369 2.3234319e-38
0.028595362 -0.11599173 0.04418369 2.3234319e-38
0.030355841 -0.11599173 0.04418369 2.3234319e-38
0.032116324 -0.11599173 0.04418369 2.3234319e-38
0.033876803 -0.11599173 0.04418369 2.3325793e-38
0.035637282 -0.11599173 0.04418369 2.3326149e-38
0.037397761 -0.11599173 0.04418369 2.3417983e-38
0.03915824 -0.11599173 0.04418369 2.3417981e-38
0.040918723 -0.11599173 0.04418369 2.3417979e-38
0.042679202 -0.11599173 0.04418369 2.350981e-38
0.044439681 -0.11599173 0.04418369 2.3417614e-38
0.04620016 -0.11599173 0.04418369 2.350944e-38
0.047960643 -0.11599173 0.04418369 1.9818714e-38
0.049721122 -0.11599173 0.04418369 8.2002837e-39
0.051481601 -0.11599173 0.04418369 1.0135369e-38
-0.062949598 -0.11775221 0.04418369 1.2535636e-38
-0.061189111 -0.11775221 0.04418369 1.8622329e-38
-0.059428629 -0.11775221 0.04418369 2.3509769e-38
-0.057953786 -0.11931543 0.038259704 2.3326094e-38
-0.056047227 -0.11854477 0.041180212 2.3234263e-38
-0.054281477 -0.11854477 0.041180212 2.3417951e-38
-0.052515727 -0.11854477 0.041180212 2.3234282e-38
-0.050749984 -0.11854477 0.041180212 2.3509797e-38
-0.048984241 -0.11854477 0.041180212 2.3326119e-38
-0.047105271 -0.11775221 0.04418369 2.323427e-38
-0.045237474 -0.11696436 0.047169406 2.3234263e-38
-0.043482229 -0.11696436 0.047169406 2.3326097e-38
-0.041726984 -0.11696436 0.047169406 2.3417938e-38
-0.039971743 -0.11696436 0.047169406 2.3509426e-38
-0.038302872 -0.11775221 0.04418369 2.3509796e-38
-0.036624018 -0.11854477 0.041180212 2.34176e-38
-0.034858271 -0.11854477 0.041180212 2.3326124e-38
-0.033161651 -0.11931543 0.038259704 2.3417958e-38
-0.031326782 -0.11854477 0.041180212 2.3326122e-38
-0.029561032 -0.11854477 0.041180212 2.3326122e-38
-0.027795289 -0.11854477 0.041180212 2.3142455e-38
-0.026029542 -0.11854477 0.041180212 2.3142106e-38
-0.024263795 -0.11854477 0.041180212 2.3141758e-38
-0.022498049 -0.11854477 0.041180212 2.3509838e-38
-0.020732302 -0.11854477 0.041180212 2.3509848e-38
-0.018937595 -0.11775221 0.04418369 2.3509855e-38
-0.017177114 -0.11775221 0.04418369 2.3509858e-38
-0.015435066 -0.11854477 0.041180212 2.3509858e-38
-0.013669319 -0.11854477 0.041180212 2.3418015e-38
-0.011895675 -0.11775221 0.04418369 2.3326173e-38
-0.010135194 -0.11775221 0.04418369 2.3326163e-38
-0.0083747152 -0.11775221 0.04418369 2.3234306e-38
-0.0066063367 -0.11854477 0.041180212 2.3234299e-38
-0.0048537552 -0.11775221 0.04418369 2.305063e-38
-0.0030932752 -0.11775221 0.04418369 2.3050632e-38
-0.0013327952 -0.11775221 0.04418369 2.3050635e-38
0.00042768475 -0.11775221 0.04418369 2.3142475e-38
0.0021881647 -0.11775221 0.04418369 2.3050644e-38
0.0039486438 -0.11775221 0.04418369 2.3050649e-38
0.0057091238 -0.11775221 0.04418369 2.2958815e-38
0.0074696038 -0.11775221 0.04418369 2.2958815e-38
0.0092300847 -0.11775221 0.04418369 2.3050648e-38
0.010990564 -0.11775221 0.04418369 2.3050642e-38
0.012751043 -0.11775221 0.04418369 2.3234306e-38
0.014511524 -0.11775221 0.04418369 2.3326136e-38
0.016348362 -0.11854477 0.041180212 2.3326132e-38
0.018114109 -0.11854477 0.041180212 2.3326132e-38
0.019879853 -0.11854477 0.041180212 2.3234303e-38
0.0216456 -0.11854477 0.041180212 2.3234306e-38
0.023411345 -0.11854477 0.041180212 2.3234306e-38
0.025177091 -0.11854477 0.041180212 2.3326142e-38
