# .PCD v0.7 - Point Cloud Data file format
VERSION 0.7
FIELDS x y z rgb
SIZE 4 4 4 4
TYPE F F F F
COUNT 1 1 1 1
WIDTH 938
HEIGHT 1
VIEWPOINT 0 0 0 1 0 0 0
POINTS 938
DATA ascii
0.091827452 -0.11415605 -0.10658384 1.8437622e-38
0.093877301 -0.11415605 -0.10658384 2.3231795e-38
0.096248195 -0.11503632 -0.11052156 2.3509844e-38
0.098304957 -0.11503632 -0.11052156 1.6039492e-38
0.10137996 -0.11771317 -0.12249578 9.1262771e-39
0.10380885 -0.11861761 -0.12654161 2.4885631e-39
-0.00034128688 -0.097037792 -0.021506911 2.3048189e-38
0.0015593972 -0.097037792 -0.021506911 2.3509527e-38
0.0034600794 -0.097037792 -0.021506911 2.3509886e-38
0.0053607635 -0.097037792 -0.021506911 2.3509527e-38
0.0072980616 -0.098382086 -0.027473455 2.3509886e-38
0.0092092063 -0.098382086 -0.027473455 2.3509527e-38
0.011188858 -0.099982664 -0.034577616 2.3509886e-38
0.013157439 -0.10087189 -0.038524397 2.3509886e-38
0.015087959 -0.10087189 -0.038524397 2.3509886e-38
0.016451983 -0.092307791 -0.00051296316 2.3509886e-38
0.018315857 -0.092307791 -0.00051296316 2.3509883e-38
0.020179732 -0.092307791 -0.00051296316 2.3509883e-38
0.029619975 -0.10989676 -0.078580983 2.3509883e-38
0.03162073 -0.10989676 -0.078580983 2.3509883e-38
0.033871014 -0.097037792 -0.021506911 2.3509886e-38
0.035643846 -0.096149758 -0.017565375 2.3509886e-38
0.037537619 -0.096149758 -0.017565375 2.3509886e-38
0.039431389 -0.096149758 -0.017565375 2.3509883e-38
0.041473746 -0.097037792 -0.021506911 2.3509883e-38
0.044045769 -0.10087189 -0.038524397 2.3509883e-38
0.045976289 -0.10087189 -0.038524397 2.3509883e-38
0.047906809 -0.10087189 -0.038524397 2.3509883e-38
0.049837328 -0.10087189 -0.038524397 2.3509883e-38
0.05195256 -0.10176755 -0.042499788 2.3509883e-38
0.053890053 -0.10176755 -0.042499788 2.3509883e-38
0.055628892 -0.10087189 -0.038524397 2.3509886e-38
0.057559412 -0.10087189 -0.038524397 2.3509886e-38
0.059702523 -0.10176755 -0.042499788 2.341805e-38
0.061807405 -0.1024504 -0.045530565 2.3509886e-38
0.063979641 -0.10335754 -0.049556859 2.3509168e-38
0.065929502 -0.10335754 -0.049556859 2.3508809e-38
0.067879371 -0.10335754 -0.049556859 2.3509168e-38
0.069829233 -0.10335754 -0.049556859 2.323402e-38
0.071779095 -0.10335754 -0.049556859 2.2958873e-38
0.073922701 -0.10402142 -0.052503474 2.3142544e-38
0.080602445 -0.11979093 -0.12249578 2.3418045e-38
0.082125463 -0.11798631 -0.11448599 2.3509869e-38
0.084189177 -0.11798631 -0.11448599 2.3509849e-38
0.086252883 -0.11798631 -0.11448599 2.3509841e-38
0.08831659 -0.11798631 -0.11448599 2.3504437e-38
0.090380296 -0.11798631 -0.11448599 2.0737464e-38
0.092134684 -0.1170931 -0.11052156 1.8895312e-38
0.094191447 -0.1170931 -0.11052156 2.3136678e-38
0.096248195 -0.1170931 -0.11052156 2.3507674e-38
0.099302202 -0.11979093 -0.12249578 1.6959655e-38
0.10137996 -0.11979093 -0.12249578 9.5872581e-39
0.10380885 -0.12070246 -0.12654161 2.9509762e-39
0.1062419 -0.12158851 -0.13047433 3.1350045e-39
-0.0096422508 -0.094171658 -0.00051296316 2.2864516e-38
-0.007754609 -0.09348768 0.0024994556 2.0928408e-38
-0.005896017 -0.09348768 0.0024994556 1.9637669e-38
-0.0040374249 -0.09348768 0.0024994556 2.046743e-38
-0.0021788329 -0.09348768 0.0024994556 2.2587929e-38
-0.00032900274 -0.095757127 -0.0074956473 2.3509886e-38
0.0015471131 -0.095757127 -0.0074956473 2.3509886e-38
0.0034232307 -0.095757127 -0.0074956473 2.3509886e-38
0.0053303577 -0.097363517 -0.01457048 2.3509886e-38
0.0072188806 -0.097363517 -0.01457048 2.3509886e-38
0.0090758 -0.096454084 -0.010565167 2.3509886e-38
0.010899353 -0.095089734 -0.0045563038 2.3509886e-38
0.012770316 -0.095089734 -0.0045563038 2.3509886e-38
0.014588109 -0.094171658 -0.00051296316 2.3509886e-38
0.016451983 -0.094171658 -0.00051296316 2.3509886e-38
0.018315857 -0.094171658 -0.00051296316 2.3509886e-38
0.020179732 -0.094171658 -0.00051296316 2.3509886e-38
0.021982864 -0.09348768 0.0024994556 2.3509886e-38
0.031856298 -0.098043531 -0.017565375 2.3509886e-38
0.03365818 -0.097363517 -0.01457048 2.3509886e-38
0.035546701 -0.097363517 -0.01457048 2.3509886e-38
0.037537619 -0.098043531 -0.017565375 2.3509886e-38
0.039431389 -0.098043531 -0.017565375 2.3509883e-38
0.041325163 -0.098043531 -0.017565375 2.3509883e-38
0.04337443 -0.09893848 -0.021506911 2.3509883e-38
0.045275111 -0.09893848 -0.021506911 2.3509883e-38
0.047432099 -0.10029322 -0.027473455 2.3509883e-38
0.049343243 -0.10029322 -0.027473455 2.3509883e-38
0.05144091 -0.10120471 -0.03148783 2.3509883e-38
0.053359091 -0.10120471 -0.03148783 2.3509883e-38
0.055277273 -0.10120471 -0.03148783 2.341805e-38
0.057195459 -0.10120471 -0.03148783 2.341805e-38
0.059278872 -0.10190627 -0.034577616 2.3234379e-38
0.061640013 -0.10370506 -0.042499788 2.341805e-38
0.063750207 -0.1043932 -0.045530565 2.2955644e-38
0.065693013 -0.1043932 -0.045530565 2.3416974e-38
0.067635819 -0.1043932 -0.045530565 2.323402e-38
0.069578625 -0.1043932 -0.045530565 2.2867037e-38
0.071521431 -0.1043932 -0.045530565 2.2867037e-38
0.073728964 -0.10530742 -0.049556859 2.2867037e-38
0.075678825 -0.10530742 -0.049556859 2.3234372e-38
0.082125463 -0.12005 -0.11448599 2.3509865e-38
0.084189177 -0.12005 -0.11448599 2.3508766e-38
0.086252883 -0.12005 -0.11448599 2.3508032e-38
0.08831659 -0.12005 -0.11448599 2.3505145e-38
0.090380296 -0.12005 -0.11448599 2.2211496e-38
0.092444003 -0.12005 -0.11448599 1.9908359e-38
0.094507709 -0.12005 -0.11448599 2.2582044e-38
0.096571416 -0.12005 -0.11448599 2.331824e-38
0.099302202 -0.12186868 -0.12249578 1.6497963e-38
0.10137996 -0.12186868 -0.12249578 9.5879784e-39
0.1034577 -0.12186868 -0.12249578 3.2286421e-39
0.1062419 -0.12368025 -0.13047433 3.9654827e-39
0.10833365 -0.12368025 -0.13047433 4.0573126e-39
-0.011471793 -0.095346272 0.0024994556 2.3048907e-38
-0.009613201 -0.095346272 0.0024994556 2.2587929e-38
-0.007754609 -0.095346272 0.0024994556 2.1665973e-38
-0.005896017 -0.095346272 0.0024994556 2.1389386e-38
-0.0040374249 -0.095346272 0.0024994556 2.2126951e-38
-0.0021788329 -0.095346272 0.0024994556 2.3325494e-38
-0.0003264267 -0.096960694 -0.0045563038 2.3509886e-38
0.001544537 -0.096960694 -0.0045563038 2.3509886e-38
0.0034155007 -0.096960694 -0.0045563038 2.3509886e-38
0.0052993484 -0.097633243 -0.0074956473 2.3509886e-38
0.0071754642 -0.097633243 -0.0074956473 2.3509886e-38
0.0090515809 -0.097633243 -0.0074956473 2.3509886e-38
0.010899353 -0.096960694 -0.0045563038 2.3509886e-38
0.012770316 -0.096960694 -0.0045563038 2.3509886e-38
0.014588109 -0.09603554 -0.00051296316 2.3509886e-38
0.016451983 -0.09603554 -0.00051296316 2.3509886e-38
0.018265679 -0.095346272 0.0024994556 2.3509886e-38
0.020124272 -0.095346272 0.0024994556 2.3509886e-38
0.021982864 -0.095346272 0.0024994556 2.3509886e-38
0.02371053 -0.093979403 0.0084732715 2.3509886e-38
0.025558649 -0.093979403 0.0084732715 2.3509886e-38
0.028068755 -0.099937305 -0.017565375 2.3509886e-38
0.029962528 -0.099937305 -0.017565375 2.3509886e-38
0.031856298 -0.099937305 -0.017565375 2.3509886e-38
0.03365818 -0.099252045 -0.01457048 2.3509886e-38
0.035546701 -0.099252045 -0.01457048 2.3509886e-38
0.037435222 -0.099252045 -0.01457048 2.3509886e-38
0.039323743 -0.099252045 -0.01457048 2.3509883e-38
0.041325163 -0.099937305 -0.017565375 2.3509883e-38
0.043218937 -0.099937305 -0.017565375 2.3509883e-38
0.045112707 -0.099937305 -0.017565375 2.3509883e-38
0.047175795 -0.10083917 -0.021506911 2.3509886e-38
0.049212113 -0.10153329 -0.024540549 2.3509886e-38
0.051118113 -0.10153329 -0.024540549 2.3509886e-38
0.053165533 -0.10220437 -0.027473455 2.3509886e-38
0.055076677 -0.10220437 -0.027473455 2.341805e-38
0.056987822 -0.10220437 -0.027473455 2.341805e-38
0.05911364 -0.1031229 -0.03148783 2.341805e-38
0.061420456 -0.10473295 -0.038524397 2.3509886e-38
0.063577503 -0.10564254 -0.042499788 2.3509168e-38
0.065693013 -0.10633601 -0.045530565 2.3509168e-38
0.067635819 -0.10633601 -0.045530565 2.3417333e-38
0.069578625 -0.10633601 -0.045530565 2.3050349e-38
0.071521431 -0.10633601 -0.045530565 2.286702e-38
0.073728964 -0.10725726 -0.049556859 2.2867016e-38
0.075678825 -0.10725726 -0.049556859 2.3326196e-38
0.081297979 -0.11937986 -0.10253788 2.3509859e-38
0.083340734 -0.11937986 -0.10253788 2.350804e-38
0.085964411 -0.1212066 -0.11052156 2.3506583e-38
0.088021174 -0.1212066 -0.11052156 2.3506214e-38
0.090380296 -0.12211372 -0.11448599 2.3410391e-38
0.092444003 -0.12211372 -0.11448599 2.073812e-38
0.094507709 -0.12211372 -0.11448599 2.1937039e-38
0.096896827 -0.12302695 -0.11847723 2.230481e-38
0.099302202 -0.12394641 -0.12249578 1.6221376e-38
0.10137996 -0.12394641 -0.12249578 9.2191958e-39
0.1034577 -0.12394641 -0.12249578 2.9520524e-39
0.10589369 -0.12487216 -0.12654161 3.7810914e-39
0.10797854 -0.12487216 -0.12654161 3.8729213e-39
-0.011471793 -0.097204864 0.0024994556 2.0559625e-38
-0.009613201 -0.097204864 0.0024994556 2.2219147e-38
-0.007754609 -0.097204864 0.0024994556 2.3325494e-38
-0.005896017 -0.097204864 0.0024994556 2.3509886e-38
-0.0040242951 -0.09651424 0.0054948274 2.3509886e-38
-0.0021709558 -0.09651424 0.0054948274 2.3325494e-38
-0.00032288209 -0.097899407 -0.00051296316 2.2587929e-38
0.0015409924 -0.097899407 -0.00051296316 2.3509886e-38
0.0034155007 -0.098831654 -0.0045563038 2.3509886e-38
0.0052993484 -0.099509358 -0.0074956473 2.3509886e-38
0.0071754642 -0.099509358 -0.0074956473 2.3509886e-38
0.0090515809 -0.099509358 -0.0074956473 2.3509886e-38
0.010899353 -0.098831654 -0.0045563038 2.3509886e-38
0.012770316 -0.098831654 -0.0045563038 2.3509886e-38
0.014588109 -0.097899407 -0.00051296316 2.3509886e-38
0.016407087 -0.097204864 0.0024994556 2.3509886e-38
0.018265679 -0.097204864 0.0024994556 2.3509886e-38
0.020069128 -0.09651424 0.0054948274 2.3509886e-38
0.021922467 -0.09651424 0.0054948274 2.3509886e-38
0.02371053 -0.09582752 0.0084732715 2.3509886e-38
0.025558649 -0.09582752 0.0084732715 2.3509886e-38
0.027738022 -0.098831654 -0.0045563038 2.3509886e-38
0.029608985 -0.098831654 -0.0045563038 2.3509886e-38
0.031769656 -0.10114056 -0.01457048 2.3509886e-38
0.033535283 -0.10021709 -0.010565167 2.3509886e-38
0.035416782 -0.10021709 -0.010565167 2.3509886e-38
0.037298281 -0.10021709 -0.010565167 2.3509886e-38
0.03917978 -0.10021709 -0.010565167 2.3509883e-38
0.041212264 -0.10114056 -0.01457048 2.3509883e-38
0.043100785 -0.10114056 -0.01457048 2.3509883e-38
0.044989306 -0.10114056 -0.01457048 2.3509883e-38
0.04700648 -0.10183108 -0.017565375 2.3509886e-38
0.049076479 -0.10273984 -0.021506911 2.3509886e-38
0.050977163 -0.10273984 -0.021506911 2.3509886e-38
0.052877843 -0.10273984 -0.021506911 2.3509886e-38
0.054778527 -0.10273984 -0.021506911 2.341805e-38
0.056836121 -0.10343929 -0.024540549 2.341805e-38
0.05911364 -0.10504107 -0.03148783 2.341805e-38
0.061420456 -0.10666345 -0.038524397 2.3509527e-38
0.063577503 -0.10758002 -0.042499788 2.3508809e-38
0.065693013 -0.10827883 -0.045530565 2.3507729e-38
0.067635819 -0.10827883 -0.045530565 2.3508807e-38
0.069829233 -0.10920714 -0.049556859 2.3509873e-38
0.071779095 -0.10920714 -0.049556859 2.3234341e-38
0.073728964 -0.10920714 -0.049556859 2.1944673e-38
0.075678825 -0.10920714 -0.049556859 2.2310954e-38
0.079638802 -0.11589904 -0.078580983 2.3509135e-38
0.081924357 -0.11682375 -0.08259166 2.3508036e-38
0.085091144 -0.12049623 -0.098519929 2.3507293e-38
0.08742626 -0.1214226 -0.10253788 2.3507279e-38
0.089777604 -0.12235548 -0.10658384 2.3503654e-38
0.092444003 -0.12417741 -0.11448599 2.1107264e-38
0.094826117 -0.12509765 -0.11847723 2.2398746e-38
0.096896827 -0.12509765 -0.11847723 2.2674317e-38
0.099302202 -0.12602417 -0.12249578 1.6313934e-38
0.10137996 -0.12602417 -0.12249578 9.772371e-39
0.1034577 -0.12602417 -0.12249578 3.7807341e-39
0.10589369 -0.12695698 -0.12654161 4.3335463e-39
0.10797854 -0.12695698 -0.12654161 4.0573126e-39
-0.011471793 -0.099063456 0.0024994556 2.1020604e-38
-0.009613201 -0.099063456 0.0024994556 2.3233299e-38
-0.007754609 -0.099063456 0.0024994556 2.3509886e-38
-0.0058776364 -0.098367572 0.0054948274 2.3509886e-38
-0.0040242951 -0.098367572 0.0054948274 2.3233299e-38
-0.0021709558 -0.098367572 0.0054948274 2.3509886e-38
-0.00032288209 -0.099763289 -0.00051296316 2.3509886e-38
0.0015409924 -0.099763289 -0.00051296316 2.3509886e-38
0.0034155007 -0.10070263 -0.0045563038 2.3509886e-38
0.0052993484 -0.10138547 -0.0074956473 2.3509886e-38
0.0071754642 -0.10138547 -0.0074956473 2.3509886e-38
0.0090758 -0.10209858 -0.010565167 2.3509886e-38
0.010899353 -0.10070263 -0.0045563038 2.3509886e-38
0.012770316 -0.10070263 -0.0045563038 2.3509886e-38
0.014588109 -0.099763289 -0.00051296316 2.3509886e-38
0.016407087 -0.099063456 0.0024994556 2.3509886e-38
0.018265679 -0.099063456 0.0024994556 2.3509886e-38
0.020069128 -0.098367572 0.0054948274 2.3509886e-38
0.021922467 -0.098367572 0.0054948274 2.3509886e-38
0.02371053 -0.097675636 0.0084732715 2.3509886e-38
0.025558649 -0.097675636 0.0084732715 2.3509886e-38
0.027738022 -0.10070263 -0.0045563038 2.3509886e-38
0.029608985 -0.10070263 -0.0045563038 2.3509886e-38
0.031653784 -0.10209858 -0.010565167 2.3509883e-38
0.0334411 -0.10138547 -0.0074956473 2.3509883e-38
0.035317216 -0.10138547 -0.0074956473 2.3509883e-38
0.037193336 -0.10138547 -0.0074956473 2.3509883e-38
0.039069451 -0.10138547 -0.0074956473 2.3509886e-38
0.041061278 -0.10209858 -0.010565167 2.3509886e-38
0.042942777 -0.10209858 -0.010565167 2.3509886e-38
0.044989306 -0.10302909 -0.01457048 2.3509886e-38
0.046877831 -0.10302909 -0.01457048 2.3509886e-38
0.048900254 -0.10372485 -0.017565375 2.3509886e-38
0.050794024 -0.10372485 -0.017565375 2.3509886e-38
0.052687798 -0.10372485 -0.017565375 2.3509886e-38
0.054778527 -0.10464053 -0.021506911 2.3509886e-38
0.056679212 -0.10464053 -0.021506911 2.3509886e-38
0.058579896 -0.10464053 -0.021506911 2.3509886e-38
0.061640013 -0.10951753 -0.042499788 2.3509524e-38
0.063750207 -0.11022164 -0.045530565 2.3321892e-38
0.065929502 -0.11115701 -0.049556859 2.3507719e-38
0.068057612 -0.11184154 -0.052503474 2.3509514e-38
0.070266411 -0.11278872 -0.056580551 2.3509853e-38
0.072228588 -0.11278872 -0.056580551 2.2496384e-38
0.074452601 -0.11371385 -0.060562737 2.1666979e-38
0.077162348 -0.11626263 -0.071533926 2.2401697e-38
0.079638802 -0.11789979 -0.078580983 2.350697e-38
0.081924357 -0.11883153 -0.08259166 2.3509471e-38
0.085091144 -0.12253194 -0.098519929 2.3508727e-38
0.08742626 -0.12346537 -0.10253788 2.350726e-38
0.089777604 -0.12440531 -0.10658384 2.248985e-38
0.092444003 -0.12624113 -0.11448599 2.0463339e-38
0.094826117 -0.12716834 -0.11847723 2.3321072e-38
0.096896827 -0.12716834 -0.11847723 2.3504087e-38
0.098967522 -0.12716834 -0.11847723 1.6129189e-38
0.10103823 -0.12716834 -0.11847723 9.6801754e-39
0.1034577 -0.12810193 -0.12249578 3.7807341e-39
0.10553545 -0.12810193 -0.12249578 4.3335463e-39
0.10761321 -0.12810193 -0.12249578 3.9651169e-39
-0.011506125 -0.10162716 -0.00051296316 2.3509886e-38
-0.009613201 -0.10092205 0.0024994556 2.3509886e-38
-0.007754609 -0.10092205 0.0024994556 2.3509886e-38
-0.0058776364 -0.10022092 0.0054948274 2.3509886e-38
-0.0040242951 -0.10022092 0.0054948274 2.3509886e-38
-0.0021709558 -0.10022092 0.0054948274 2.3509886e-38
-0.00031761453 -0.10022092 0.0054948274 2.3509886e-38
0.0015357248 -0.10022092 0.0054948274 2.3509886e-38
0.0033890661 -0.10022092 0.0054948274 2.3509886e-38
0.0052687395 -0.10162716 -0.00051296316 2.3509886e-38
0.007132614 -0.10162716 -0.00051296316 2.3509886e-38
0.0089964876 -0.10162716 -0.00051296316 2.3509886e-38
0.010899353 -0.10257359 -0.0045563038 2.3509886e-38
0.012724236 -0.10162716 -0.00051296316 2.3509886e-38
0.014588109 -0.10162716 -0.00051296316 2.3509886e-38
0.016451983 -0.10162716 -0.00051296316 2.3509886e-38
0.018265679 -0.10092205 0.0024994556 2.3509886e-38
0.020124272 -0.10092205 0.0024994556 2.3509886e-38
0.021982864 -0.10092205 0.0024994556 2.3509886e-38
0.023841457 -0.10092205 0.0024994556 2.3509886e-38
0.025771353 -0.10162716 -0.00051296316 2.3509886e-38
0.027738022 -0.10257359 -0.0045563038 2.3509886e-38
0.029608985 -0.10257359 -0.0045563038 2.3509886e-38
0.031479947 -0.10257359 -0.0045563038 2.3509883e-38
0.033350911 -0.10257359 -0.0045563038 2.3509883e-38
0.035317216 -0.1032616 -0.0074956473 2.3509883e-38
0.037193336 -0.1032616 -0.0074956473 2.3509883e-38
0.039069451 -0.1032616 -0.0074956473 2.3509886e-38
0.040945567 -0.1032616 -0.0074956473 2.3509886e-38
0.042942777 -0.10398008 -0.010565167 2.3509886e-38
0.044824276 -0.10398008 -0.010565167 2.3509886e-38
0.046877831 -0.1049176 -0.01457048 2.3509886e-38
0.048766352 -0.1049176 -0.01457048 2.3509886e-38
0.050654873 -0.1049176 -0.01457048 2.3509886e-38
0.052687798 -0.10561861 -0.017565375 2.3509886e-38
0.054581571 -0.10561861 -0.017565375 2.3509886e-38
0.056475341 -0.10561861 -0.017565375 2.3509527e-38
0.058369115 -0.10561861 -0.017565375 2.3509527e-38
0.061640013 -0.11145501 -0.042499788 2.3509521e-38
0.063979641 -0.11310686 -0.049556859 2.3508794e-38
0.066102579 -0.11379658 -0.052503474 2.3508787e-38
0.068304233 -0.11475091 -0.056580551 2.350914e-38
0.070266411 -0.11475091 -0.056580551 2.0926554e-38
0.072228588 -0.11475091 -0.056580551 1.945318e-38
0.074452601 -0.115683 -0.060562737 2.1020506e-38
0.077162348 -0.11825104 -0.071533926 2.3321843e-38
0.079916574 -0.12083931 -0.08259166 2.3507324e-38
0.082201883 -0.12175412 -0.086499937 2.3509464e-38
0.085091144 -0.12456764 -0.098519929 2.3509796e-38
0.08742626 -0.12550814 -0.10253788 2.3505805e-38
0.089777604 -0.12645517 -0.10658384 2.1108709e-38
0.092134684 -0.12737687 -0.11052156 1.9726139e-38
0.094507709 -0.12830482 -0.11448599 2.3506913e-38
0.096571416 -0.12830482 -0.11448599 2.3505892e-38
0.098967522 -0.12923907 -0.11847723 1.5484902e-38
0.10103823 -0.12923907 -0.11847723 9.771292e-39
0.1034577 -0.13017969 -0.12249578 3.7807341e-39
0.10553545 -0.13017969 -0.12249578 4.2413507e-39
0.10761321 -0.13017969 -0.12249578 3.7800068e-39
-0.062240858 -0.10513772 -0.0074956473 2.350986e-38
-0.017047569 -0.10278064 0.0024994556 2.3509886e-38
-0.015188977 -0.10278064 0.0024994556 2.3325494e-38
-0.013290998 -0.10207425 0.0054948274 2.3509886e-38
-0.011437658 -0.10207425 0.0054948274 2.3509886e-38
-0.009613201 -0.10278064 0.0024994556 2.3141103e-38
-0.0077309757 -0.10207425 0.0054948274 2.3048907e-38
-0.0058776364 -0.10207425 0.0054948274 2.3509886e-38
-0.0040112399 -0.10137187 0.0084732715 2.3509886e-38
-0.0021631215 -0.10137187 0.0084732715 2.3325494e-38
-0.00031761453 -0.10207425 0.0054948274 2.2495734e-38
0.0015331134 -0.10137187 0.0084732715 2.3509886e-38
0.0033812318 -0.10137187 0.0084732715 2.3509886e-38
0.0052293502 -0.10137187 0.0084732715 2.3509886e-38
0.0070774686 -0.10137187 0.0084732715 2.3509886e-38
0.008925586 -0.10137187 0.0084732715 2.3509886e-38
0.010831311 -0.10278064 0.0024994556 2.3509886e-38
0.012689904 -0.10278064 0.0024994556 2.3509886e-38
0.014548496 -0.10278064 0.0024994556 2.3509886e-38
0.016407087 -0.10278064 0.0024994556 2.3509886e-38
0.018265679 -0.10278064 0.0024994556 2.3509886e-38
0.020069128 -0.10207425 0.0054948274 2.3509886e-38
0.021922467 -0.10207425 0.0054948274 2.3509886e-38
0.023841457 -0.10278064 0.0024994556 2.3509886e-38
0.025700049 -0.10278064 0.0024994556 2.3509886e-38
0.027635226 -0.10349102 -0.00051296316 2.3509886e-38
0.029608985 -0.10444455 -0.0045563038 2.3509886e-38
0.031479947 -0.10444455 -0.0045563038 2.3509883e-38
0.033350911 -0.10444455 -0.0045563038 2.3509883e-38
0.035317216 -0.10513772 -0.0074956473 2.3509883e-38
0.037092838 -0.10444455 -0.0045563038 2.3509883e-38
0.038963802 -0.10444455 -0.0045563038 2.3509886e-38
0.040945567 -0.10513772 -0.0074956473 2.3509886e-38
0.042821683 -0.10513772 -0.0074956473 2.341805e-38
0.044824276 -0.10586159 -0.010565167 2.341805e-38
0.046705775 -0.10586159 -0.010565167 2.3509886e-38
0.048766352 -0.10680611 -0.01457048 2.3509886e-38
0.050654873 -0.10680611 -0.01457048 2.3509527e-38
0.052543394 -0.10680611 -0.01457048 2.3509527e-38
0.054431915 -0.10680611 -0.01457048 2.3509527e-38
0.056320436 -0.10680611 -0.01457048 2.3509524e-38
0.058208957 -0.10680611 -0.01457048 2.3509524e-38
0.062192518 -0.11575161 -0.052503474 2.3509517e-38
0.064147547 -0.11575161 -0.052503474 2.3508787e-38
0.066575952 -0.11765216 -0.060562737 2.3509133e-38
0.068545118 -0.11765216 -0.060562737 2.3043465e-38
0.070514277 -0.11765216 -0.060562737 2.0094975e-38
0.072483435 -0.11765216 -0.060562737 1.9082933e-38
0.07490699 -0.11928193 -0.067473657 2.0926127e-38
0.077429749 -0.12117358 -0.075495131 2.3504781e-38
0.080187246 -0.12376876 -0.086499937 2.3509119e-38
0.08249066 -0.1247278 -0.090566643 2.3507295e-38
0.085091144 -0.12660335 -0.098519929 2.3507985e-38
0.08742626 -0.12755089 -0.10253788 2.3229208e-38
0.089777604 -0.12850504 -0.10658384 2.0740998e-38
0.092134684 -0.12943362 -0.11052156 1.9634675e-38
0.094507709 -0.13036855 -0.11448599 2.3507285e-38
0.096571416 -0.13036855 -0.11448599 2.3506978e-38
0.098967522 -0.13130976 -0.11847723 1.5577459e-38
0.10103823 -0.13130976 -0.11847723 1.0785447e-38
0.1034577 -0.13225742 -0.12249578 4.9789171e-39
0.10553545 -0.13225742 -0.12249578 5.3473353e-39
0.10761321 -0.13225742 -0.12249578 4.5175719e-39
-0.079653099 -0.10869466 -0.01457048 2.25893e-38
-0.077473134 -0.10774307 -0.010565167 2.3509832e-38
-0.075591639 -0.10774307 -0.010565167 2.3509844e-38
-0.05437522 -0.10535492 -0.00051296316 2.3509527e-38
-0.018906161 -0.10463922 0.0024994556 2.3509886e-38
-0.017047569 -0.10463922 0.0024994556 2.3509886e-38
-0.015144337 -0.1039276 0.0054948274 2.3509886e-38
-0.013290998 -0.1039276 0.0054948274 2.3141103e-38
-0.011437658 -0.1039276 0.0054948274 2.3509886e-38
-0.0095843151 -0.1039276 0.0054948274 2.3509886e-38
-0.0077309757 -0.1039276 0.0054948274 2.3509886e-38
-0.0058593582 -0.10322 0.0084732715 2.3325494e-38
-0.0040112399 -0.10322 0.0084732715 2.3509886e-38
-0.0021631215 -0.10322 0.0084732715 2.3509886e-38
-0.0003150031 -0.10322 0.0084732715 2.3509886e-38
0.0015295595 -0.10225673 0.012527818 2.3509886e-38
0.0033705682 -0.10225673 0.012527818 2.3509886e-38
0.0052115768 -0.10225673 0.012527818 2.3509886e-38
0.0070525873 -0.10225673 0.012527818 2.3509886e-38
0.008893596 -0.10225673 0.012527818 2.3509886e-38
0.010773704 -0.10322 0.0084732715 2.3509886e-38
0.012621823 -0.10322 0.0084732715 2.3509886e-38
0.01446994 -0.10322 0.0084732715 2.3509886e-38
0.016362447 -0.1039276 0.0054948274 2.3509886e-38
0.018215787 -0.1039276 0.0054948274 2.3509886e-38
0.020069128 -0.1039276 0.0054948274 2.3509886e-38
0.021922467 -0.1039276 0.0054948274 2.3509886e-38
0.023775809 -0.1039276 0.0054948274 2.3509886e-38
0.025700049 -0.10463922 0.0024994556 2.3509886e-38
0.027558642 -0.10463922 0.0024994556 2.3509886e-38
0.029499101 -0.10535492 -0.00051296316 2.3509886e-38
0.031362973 -0.10535492 -0.00051296316 2.3509883e-38
0.033226848 -0.10535492 -0.00051296316 2.3509883e-38
0.035221875 -0.10631551 -0.0045563038 2.3509883e-38
0.037092838 -0.10631551 -0.0045563038 2.3509883e-38
0.038963802 -0.10631551 -0.0045563038 2.3509886e-38
0.040834766 -0.10631551 -0.0045563038 2.3509886e-38
0.042821683 -0.10701384 -0.0074956473 2.341805e-38
0.044697803 -0.10701384 -0.0074956473 2.341805e-38
0.046705775 -0.10774307 -0.010565167 2.3509886e-38
0.048766352 -0.10869466 -0.01457048 2.3509886e-38
0.050654873 -0.10869466 -0.01457048 2.3509527e-38
0.052543394 -0.10869466 -0.01457048 2.3509883e-38
0.054431915 -0.10869466 -0.01457048 2.3509521e-38
0.056320436 -0.10869466 -0.01457048 2.3509521e-38
0.058208957 -0.10869466 -0.01457048 2.350952e-38
0.062417693 -0.11867525 -0.056580551 2.3509153e-38
0.064379871 -0.11867525 -0.056580551 2.2582498e-38
0.066752471 -0.12033533 -0.063568003 2.1475773e-38
0.068726905 -0.12033533 -0.063568003 2.1475043e-38
0.070944436 -0.12126322 -0.067473657 2.2306212e-38
0.072925717 -0.12126322 -0.067473657 2.2399799e-38
0.075434402 -0.12316893 -0.075495131 2.1938823e-38
0.077638052 -0.12390204 -0.078580983 2.3318217e-38
0.080187246 -0.1257834 -0.086499937 2.3509108e-38
0.08249066 -0.12674956 -0.090566643 2.3505125e-38
0.085091144 -0.12863909 -0.098519929 2.3505099e-38
0.08742626 -0.12959366 -0.10253788 2.2768946e-38
0.089777604 -0.13055487 -0.10658384 2.0742084e-38
0.092134684 -0.13149039 -0.11052156 1.9911992e-38
0.094507709 -0.13243224 -0.11448599 2.3508018e-38
0.096571416 -0.13243224 -0.11448599 2.3508424e-38
0.098967522 -0.13338046 -0.11847723 1.6131351e-38
0.10103823 -0.13338046 -0.11847723 1.0324469e-38
0.1034577 -0.13433518 -0.12249578 4.517939e-39
0.10553545 -0.13433518 -0.12249578 5.0707484e-39
0.10761321 -0.13433518 -0.12249578 4.3331778e-39
-0.081236139 -0.10962458 -0.010565167 2.3509863e-38
-0.079354644 -0.10962458 -0.010565167 2.3509866e-38
-0.077473134 -0.10962458 -0.010565167 2.3509866e-38
-0.075591639 -0.10962458 -0.010565167 2.3509869e-38
-0.073987544 -0.11058317 -0.01457048 2.3509869e-38
-0.072099015 -0.11058317 -0.01457048 2.3509872e-38
-0.070210487 -0.11058317 -0.01457048 2.3509876e-38
-0.067869201 -0.10888995 -0.0074956473 2.350988e-38
-0.063694596 -0.10721879 -0.00051296316 2.3509527e-38
-0.061830718 -0.10721879 -0.00051296316 2.3509527e-38
-0.060364742 -0.10888995 -0.0074956473 2.3509527e-38
-0.058488626 -0.10888995 -0.0074956473 2.350988e-38
-0.056239102 -0.10721879 -0.00051296316 2.3418043e-38
-0.05437522 -0.10721879 -0.00051296316 2.3418047e-38
-0.052860279 -0.10888995 -0.0074956473 2.341805e-38
-0.050984163 -0.10888995 -0.0074956473 2.341805e-38
-0.020704355 -0.10578094 0.0054948274 2.3509886e-38
-0.018851016 -0.10578094 0.0054948274 2.3509886e-38
-0.016997676 -0.10578094 0.0054948274 2.3509886e-38
-0.015099946 -0.1050681 0.0084732715 2.3509886e-38
-0.01325183 -0.1050681 0.0084732715 2.3509886e-38
-0.011403713 -0.1050681 0.0084732715 2.3509886e-38
-0.0095555931 -0.1050681 0.0084732715 2.3509886e-38
-0.0077074766 -0.1050681 0.0084732715 2.3509886e-38
-0.0058593582 -0.1050681 0.0084732715 2.3509886e-38
-0.0039934665 -0.10409774 0.012527818 2.3509886e-38
-0.0021524578 -0.10409774 0.012527818 2.3509886e-38
-0.0003150031 -0.1050681 0.0084732715 2.3509886e-38
0.0015295595 -0.10409774 0.012527818 2.3509886e-38
0.0033705682 -0.10409774 0.012527818 2.3509886e-38
0.0051986948 -0.10339431 0.015466923 2.3509886e-38
0.0070345504 -0.10339431 0.015466923 2.3509886e-38
0.0088704061 -0.10339431 0.015466923 2.3509886e-38
0.010706262 -0.10339431 0.015466923 2.3509886e-38
0.012542118 -0.10339431 0.015466923 2.3509886e-38
0.014377974 -0.10339431 0.015466923 2.3509886e-38
0.016213831 -0.10339431 0.015466923 2.3509886e-38
0.018098641 -0.10409774 0.012527818 2.3509886e-38
0.01993965 -0.10409774 0.012527818 2.3509886e-38
0.021780659 -0.10409774 0.012527818 2.3509886e-38
0.02371053 -0.1050681 0.0084732715 2.3509886e-38
0.025629148 -0.10578094 0.0054948274 2.3509886e-38
0.027482489 -0.10578094 0.0054948274 2.3509886e-38
0.029417234 -0.10649781 0.0024994556 2.3509886e-38
0.031275824 -0.10649781 0.0024994556 2.3509523e-38
0.033226848 -0.10721879 -0.00051296316 2.3509523e-38
0.035090722 -0.10721879 -0.00051296316 2.3509167e-38
0.036954597 -0.10721879 -0.00051296316 2.341769e-38
0.038818471 -0.10721879 -0.00051296316 2.3417691e-38
0.040682342 -0.10721879 -0.00051296316 2.341805e-38
0.042705726 -0.10818647 -0.0045563038 2.341805e-38
0.044697803 -0.10888995 -0.0074956473 2.341805e-38
0.046705775 -0.10962458 -0.010565167 2.341805e-38
0.048587274 -0.10962458 -0.010565167 2.3509886e-38
0.050654873 -0.11058317 -0.01457048 2.3417327e-38
0.052543394 -0.11058317 -0.01457048 2.3417324e-38
0.054431915 -0.11058317 -0.01457048 2.3509879e-38
0.056320436 -0.11058317 -0.01457048 2.3509517e-38
0.060455516 -0.12063743 -0.056580551 2.3507353e-38
0.062637627 -0.12159048 -0.060562737 2.2492471e-38
0.064606793 -0.12159048 -0.060562737 2.2582487e-38
0.066752471 -0.12230973 -0.063568003 2.2120769e-38
0.068726905 -0.12230973 -0.063568003 2.0737822e-38
0.070944436 -0.12324448 -0.067473657 2.2581346e-38
0.073185556 -0.12421621 -0.071533926 2.2859327e-38
0.075637296 -0.12590279 -0.078580983 2.1568234e-38
0.077908784 -0.12686269 -0.08259166 2.3500802e-38
0.080468893 -0.12877132 -0.090566643 2.3503699e-38
0.08249066 -0.12877132 -0.090566643 2.3503318e-38
0.085091144 -0.13067479 -0.098519929 2.3136312e-38
0.08742626 -0.1316364 -0.10253788 2.1939911e-38
0.089777604 -0.13260473 -0.10658384 2.083465e-38
0.092134684 -0.13354714 -0.11052156 1.9820532e-38
0.094507709 -0.13449596 -0.11448599 2.3324001e-38
0.096571416 -0.13449596 -0.11448599 2.3509869e-38
0.098967522 -0.13545118 -0.11847723 1.5302314e-38
0.10137996 -0.13641293 -0.12249578 1.087764e-38
0.1034577 -0.13641293 -0.12249578 5.1625881e-39
0.10553545 -0.13641293 -0.12249578 6.2692916e-39
0.10761321 -0.13641293 -0.12249578 5.1629385e-39
-0.088429943 -0.10523017 0.015466923 2.3509879e-38
-0.08659409 -0.10523017 0.015466923 2.3141092e-38
-0.083117634 -0.11150609 -0.010565167 2.3509886e-38
-0.081236139 -0.11150609 -0.010565167 2.3417691e-38
-0.079354644 -0.11150609 -0.010565167 2.3141106e-38
-0.077249795 -0.11076607 -0.0074956473 2.3141103e-38
-0.075373679 -0.11076607 -0.0074956473 2.3325847e-38
-0.073710144 -0.11150609 -0.010565167 2.3418039e-38
-0.071621433 -0.11076607 -0.0074956473 2.3418039e-38
-0.069745317 -0.11076607 -0.0074956473 2.3418039e-38
-0.067869201 -0.11076607 -0.0074956473 2.3418043e-38
-0.065370962 -0.1083564 0.0024994556 2.3417333e-38
-0.063694596 -0.10908265 -0.00051296316 2.3325497e-38
-0.061830718 -0.10908265 -0.00051296316 2.3416615e-38
-0.059966851 -0.10908265 -0.00051296316 2.3325497e-38
-0.058102969 -0.10908265 -0.00051296316 2.3418045e-38
-0.056078006 -0.1083564 0.0024994556 2.3418035e-38
-0.054219414 -0.1083564 0.0024994556 2.341804e-38
-0.052511353 -0.10908265 -0.00051296316 2.3418045e-38
-0.050647479 -0.10908265 -0.00051296316 2.341805e-38
-0.048783604 -0.10908265 -0.00051296316 2.3417691e-38
-0.04691973 -0.10908265 -0.00051296316 2.323402e-38
-0.0409736 -0.10691623 0.0084732715 2.323402e-38
-0.038861845 -0.10523017 0.015466923 2.3234379e-38
-0.037025988 -0.10523017 0.015466923 2.3234379e-38
-0.031608604 -0.10593875 0.012527818 2.2590795e-38
-0.029767592 -0.10593875 0.012527818 2.2958859e-38
-0.022557698 -0.10763429 0.0054948274 2.3509886e-38
-0.020644303 -0.10691623 0.0084732715 2.3509886e-38
-0.018796183 -0.10691623 0.0084732715 2.3509886e-38
-0.016948067 -0.10691623 0.0084732715 2.3509886e-38
-0.015099946 -0.10691623 0.0084732715 2.3509886e-38
-0.013198514 -0.10593875 0.012527818 2.3509886e-38
-0.011357505 -0.10593875 0.012527818 2.3509886e-38
-0.0095164943 -0.10593875 0.012527818 2.3509886e-38
-0.0076754857 -0.10593875 0.012527818 2.3509886e-38
-0.005834477 -0.10593875 0.012527818 2.3509886e-38
-0.0039934665 -0.10593875 0.012527818 2.3509886e-38
-0.0021524578 -0.10593875 0.012527818 2.3509886e-38
-0.00031144917 -0.10593875 0.012527818 2.3509886e-38
0.0015269835 -0.10523017 0.015466923 2.3509886e-38
0.0033628382 -0.10523017 0.015466923 2.3509886e-38
0.0051986948 -0.10523017 0.015466923 2.3509886e-38
0.0070345504 -0.10523017 0.015466923 2.3509886e-38
0.0088464953 -0.10449956 0.018497461 2.3509886e-38
0.010677038 -0.10449956 0.018497461 2.3509886e-38
0.01250758 -0.10449956 0.018497461 2.3509886e-38
0.014338123 -0.10449956 0.018497461 2.3509886e-38
0.016168665 -0.10449956 0.018497461 2.3509886e-38
0.018049685 -0.10523017 0.015466923 2.3509886e-38
0.01993965 -0.10593875 0.012527818 2.3509886e-38
0.021780659 -0.10593875 0.012527818 2.3509886e-38
0.023621669 -0.10593875 0.012527818 2.3509886e-38
0.025558649 -0.10691623 0.0084732715 2.3509886e-38
0.027406767 -0.10691623 0.0084732715 2.3509886e-38
0.029335828 -0.10763429 0.0054948274 2.3509886e-38
0.031275824 -0.1083564 0.0024994556 2.3509524e-38
0.033134416 -0.1083564 0.0024994556 2.3509164e-38
0.035090722 -0.10908265 -0.00051296316 2.3509167e-38
0.036954597 -0.10908265 -0.00051296316 2.341769e-38
0.038818471 -0.10908265 -0.00051296316 2.3417691e-38
0.040682342 -0.10908265 -0.00051296316 2.3325856e-38
0.042705726 -0.11005743 -0.0045563038 2.3325856e-38
0.04457669 -0.11005743 -0.0045563038 2.3326213e-38
0.046573918 -0.11076607 -0.0074956473 2.341805e-38
0.048587274 -0.11150609 -0.010565167 2.3509883e-38
0.050654873 -0.11247168 -0.01457048 2.350952e-38
0.052543394 -0.11247168 -0.01457048 2.3508795e-38
0.054431915 -0.11247168 -0.01457048 2.3509513e-38
0.056320436 -0.11247168 -0.01457048 2.3509509e-38
0.060455516 -0.12259962 -0.056580551 2.3138207e-38
0.062417693 -0.12259962 -0.056580551 2.2399549e-38
0.064606793 -0.12355967 -0.060562737 2.1384292e-38
0.066752471 -0.12428416 -0.063568003 2.1567944e-38
0.068726905 -0.12428416 -0.063568003 2.1566852e-38
0.070944436 -0.12522577 -0.067473657 2.3503653e-38
0.073439062 -0.12715961 -0.075495131 2.3503976e-38
0.075637296 -0.12790357 -0.078580983 2.2211082e-38
0.077638052 -0.12790357 -0.078580983 2.3500078e-38
0.080468893 -0.13079311 -0.090566643 2.3504416e-38
0.08249066 -0.13079311 -0.090566643 2.3503308e-38
0.085091144 -0.1327105 -0.098519929 2.1753376e-38
0.08742626 -0.13367917 -0.10253788 2.0465151e-38
0.089777604 -0.13465457 -0.10658384 2.1204171e-38
0.092134684 -0.13560389 -0.11052156 2.1296399e-38
0.094507709 -0.13655965 -0.11448599 2.3509846e-38
0.096571416 -0.13655965 -0.11448599 2.350987e-38
0.098967522 -0.13752188 -0.11847723 1.5395228e-38
0.10137996 -0.13849069 -0.12249578 1.0141154e-38
0.1034577 -0.13849069 -0.12249578 5.0703925e-39
0.10553545 -0.13849069 -0.12249578 6.3614873e-39
0.10761321 -0.13849069 -0.12249578 5.9919789e-39
0.10969095 -0.13849069 -0.12249578 5.6224761e-39
-0.092101663 -0.10706602 0.015466923 2.2865207e-38
-0.09026581 -0.10706602 0.015466923 2.3509863e-38
-0.088429943 -0.10706602 0.015466923 2.3416603e-38
-0.08659409 -0.10706602 0.015466923 2.3508809e-38
-0.084758237 -0.10706602 0.015466923 2.3508451e-38
-0.082922384 -0.10706602 0.015466923 2.3508451e-38
-0.081315845 -0.10777976 0.012527818 2.3324421e-38
-0.079474837 -0.10777976 0.012527818 2.3416974e-38
-0.078906879 -0.11192839 -0.0045563038 2.3509527e-38
-0.076522514 -0.11021499 0.0024994556 2.341805e-38
-0.074239716 -0.10876434 0.0084732715 2.3418047e-38
-0.072391599 -0.10876434 0.0084732715 2.3418043e-38
-0.070744544 -0.10948761 0.0054948274 2.3418043e-38
-0.068891197 -0.10948761 0.0054948274 2.3418045e-38
-0.067037866 -0.10948761 0.0054948274 2.341805e-38
-0.065370962 -0.11021499 0.0024994556 2.3417691e-38
-0.06351237 -0.11021499 0.0024994556 2.323402e-38
-0.061653782 -0.11021499 0.0024994556 2.3416974e-38
-0.05979519 -0.11021499 0.0024994556 2.3417333e-38
-0.057936598 -0.11021499 0.0024994556 2.3418047e-38
-0.056078006 -0.11021499 0.0024994556 2.3418038e-38
-0.054219414 -0.11021499 0.0024994556 2.341804e-38
-0.052360822 -0.11021499 0.0024994556 2.3418045e-38
-0.0503578 -0.10948761 0.0054948274 2.341805e-38
-0.048504461 -0.10948761 0.0054948274 2.341805e-38
-0.046336677 -0.10777976 0.012527818 2.341805e-38
-0.044495668 -0.10777976 0.012527818 2.3417691e-38
-0.042821724 -0.10876434 0.0084732715 2.3141109e-38
-0.040813647 -0.10777976 0.012527818 2.341805e-38
-0.038861845 -0.10706602 0.015466923 2.341805e-38
-0.036917061 -0.10633011 0.018497461 2.341805e-38
-0.034983501 -0.10559841 0.021510595 2.3418047e-38
-0.033158243 -0.10559841 0.021510595 2.3234374e-38
-0.031518422 -0.10706602 0.015466923 2.3234369e-38
-0.029594894 -0.10633011 0.018497461 2.3234372e-38
-0.02776435 -0.10633011 0.018497461 2.3418047e-38
-0.024174999 -0.10706602 0.015466923 2.3509886e-38
-0.022339143 -0.10706602 0.015466923 2.3509886e-38
-0.020562548 -0.10777976 0.012527818 2.3509886e-38
-0.01872154 -0.10777976 0.012527818 2.3509886e-38
-0.016831573 -0.10706602 0.015466923 2.3509886e-38
-0.01499572 -0.10706602 0.015466923 2.3509886e-38
-0.013159864 -0.10706602 0.015466923 2.3509886e-38
-0.011324007 -0.10706602 0.015466923 2.3509886e-38
-0.0094881505 -0.10706602 0.015466923 2.3509886e-38
-0.0076754857 -0.10777976 0.012527818 2.3509886e-38
-0.005816441 -0.10706602 0.015466923 2.3509886e-38
-0.0039805844 -0.10706602 0.015466923 2.3509886e-38
-0.0021447279 -0.10706602 0.015466923 2.3509886e-38
-0.00031144917 -0.10777976 0.012527818 2.3509886e-38
0.0015269835 -0.10706602 0.015466923 2.3509886e-38
0.0033628382 -0.10706602 0.015466923 2.3509886e-38
0.0051986948 -0.10706602 0.015466923 2.3509886e-38
0.0070159528 -0.10633011 0.018497461 2.3509886e-38
0.0088464953 -0.10633011 0.018497461 2.3509886e-38
0.010677038 -0.10633011 0.018497461 2.3509886e-38
0.01250758 -0.10633011 0.018497461 2.3509886e-38
0.014338123 -0.10633011 0.018497461 2.3509886e-38
0.016168665 -0.10633011 0.018497461 2.3509886e-38
0.017999208 -0.10633011 0.018497461 2.3509886e-38
0.019885542 -0.10706602 0.015466923 2.3509886e-38
0.021721397 -0.10706602 0.015466923 2.3509886e-38
0.023557253 -0.10706602 0.015466923 2.3509886e-38
0.025462678 -0.10777976 0.012527818 2.3509886e-38
0.027303686 -0.10777976 0.012527818 2.3509886e-38
0.029254885 -0.10876434 0.0084732715 2.3509886e-38
0.03118917 -0.10948761 0.0054948274 2.3509524e-38
0.033042509 -0.10948761 0.0054948274 2.3509524e-38
0.034993008 -0.11021499 0.0024994556 2.3509527e-38
0.0368516 -0.11021499 0.0024994556 2.341769e-38
0.038710192 -0.11021499 0.0024994556 2.3325497e-38
0.040682342 -0.11094652 -0.00051296316 2.3233662e-38
0.042705726 -0.11192839 -0.0045563038 2.3050347e-38
0.04457669 -0.11192839 -0.0045563038 2.3050347e-38
0.046573918 -0.11264218 -0.0074956473 2.332621e-38
0.048587274 -0.11338757 -0.010565167 2.350988e-38
0.050654873 -0.1143602 -0.01457048 2.3509874e-38
0.052543394 -0.1143602 -0.01457048 2.3509149e-38
0.054431915 -0.1143602 -0.01457048 2.3507705e-38
0.058493339 -0.1245618 -0.056580551 2.3046364e-38
0.060455516 -0.1245618 -0.056580551 2.2216239e-38
0.062417693 -0.1245618 -0.056580551 2.14783e-38
0.064606793 -0.12552883 -0.060562737 2.1108054e-38
0.066575952 -0.12552883 -0.060562737 2.2121466e-38
0.068726905 -0.1262586 -0.063568003 2.3042689e-38
0.070944436 -0.12720706 -0.067473657 2.3506888e-38
0.073185556 -0.12819304 -0.071533926 2.3503263e-38
0.075637296 -0.12990431 -0.078580983 2.2209653e-38
0.077638052 -0.12990431 -0.078580983 2.3130212e-38
0.080187246 -0.13182731 -0.086499937 2.3501887e-38
0.082772069 -0.13377722 -0.094529636 2.3502581e-38
0.085091144 -0.13474621 -0.098519929 2.0463358e-38
0.08742626 -0.13572191 -0.10253788 1.9450659e-38
0.089777604 -0.13670443 -0.10658384 2.2217989e-38
0.092134684 -0.13766064 -0.11052156 2.3232525e-38
0.094507709 -0.13862337 -0.11448599 2.3509859e-38
0.096571416 -0.13862337 -0.11448599 2.314001e-38
0.098967522 -0.13959257 -0.11847723 1.5119718e-38
0.10103823 -0.13959257 -0.11847723 1.0878719e-38
0.1034577 -0.14056842 -0.12249578 5.6235663e-39
0.10553545 -0.14056842 -0.12249578 6.3604054e-39
0.10761321 -0.14056842 -0.12249578 5.8075876e-39
0.10969095 -0.14056842 -0.12249578 6.1756499e-39
-0.094202906 -0.10962076 0.012527818 2.3509841e-38
-0.092101663 -0.10890187 0.015466923 2.3509838e-38
-0.09026581 -0.10890187 0.015466923 2.3509837e-38
-0.088429943 -0.10890187 0.015466923 2.3508417e-38
-0.08659409 -0.10890187 0.015466923 2.3231508e-38
-0.084758237 -0.10890187 0.015466923 2.3139315e-38
-0.082922384 -0.10890187 0.015466923 2.3324062e-38
-0.081315845 -0.10962076 0.012527818 2.3508809e-38
-0.079474837 -0.10962076 0.012527818 2.3509168e-38
-0.077633828 -0.10962076 0.012527818 2.3509527e-38
-0.075578958 -0.10890187 0.015466923 2.3509886e-38
-0.073743105 -0.10890187 0.015466923 2.3048907e-38
-0.071907252 -0.10890187 0.015466923 2.3509883e-38
-0.070071384 -0.10890187 0.015466923 2.3509886e-38
-0.068235531 -0.10890187 0.015466923 2.3509886e-38
-0.066399679 -0.10890187 0.015466923 2.3325856e-38
-0.064746767 -0.10962076 0.012527818 2.3325856e-38
-0.062727973 -0.10890187 0.015466923 2.3325856e-38
-0.060892116 -0.10890187 0.015466923 2.3325497e-38
-0.059223738 -0.10962076 0.012527818 2.3325856e-38
-0.057382729 -0.10962076 0.012527818 2.3418047e-38
-0.055917818 -0.11134095 0.0054948274 2.3418045e-38
-0.053910423 -0.11061247 0.0084732715 2.3418045e-38
-0.051859703 -0.10962076 0.012527818 2.3418045e-38
-0.050018694 -0.10962076 0.012527818 2.3418047e-38
-0.048041124 -0.10890187 0.015466923 2.3418047e-38
-0.046205271 -0.10890187 0.015466923 2.3418047e-38
-0.044369411 -0.10890187 0.015466923 2.3418047e-38
-0.042533558 -0.10890187 0.015466923 2.3418047e-38
-0.040697701 -0.10890187 0.015466923 2.3418047e-38
-0.038747605 -0.10816063 0.018497461 2.3141819e-38
-0.036917061 -0.10816063 0.018497461 2.2957428e-38
-0.034881078 -0.10669093 0.024506325 2.2957428e-38
-0.033061069 -0.10669093 0.024506325 2.3049624e-38
-0.031332981 -0.10742365 0.021510595 2.3234015e-38
-0.029507723 -0.10742365 0.021510595 2.3418047e-38
-0.027682465 -0.10742365 0.021510595 2.3509886e-38
-0.025781043 -0.10669093 0.024506325 2.3509886e-38
-0.023961034 -0.10669093 0.024506325 2.3509886e-38
-0.022206683 -0.10742365 0.021510595 2.3509886e-38
-0.02044218 -0.10816063 0.018497461 2.3509886e-38
-0.018611636 -0.10816063 0.018497461 2.3509886e-38
-0.016730908 -0.10742365 0.021510595 2.3509886e-38
-0.01490565 -0.10742365 0.021510595 2.3509886e-38
-0.013120014 -0.10816063 0.018497461 2.3509886e-38
-0.01128947 -0.10816063 0.018497461 2.3509886e-38
-0.0094589274 -0.10816063 0.018497461 2.3509886e-38
-0.007628385 -0.10816063 0.018497461 2.3509886e-38
-0.0057978425 -0.10816063 0.018497461 2.3509886e-38
-0.0039673001 -0.10816063 0.018497461 2.3509886e-38
-0.0021367576 -0.10816063 0.018497461 2.3509886e-38
-0.00030887313 -0.10890187 0.015466923 2.3509886e-38
0.0015243255 -0.10816063 0.018497461 2.3509886e-38
0.0033548679 -0.10816063 0.018497461 2.3509886e-38
0.0051854104 -0.10816063 0.018497461 2.3509886e-38
0.0070159528 -0.10816063 0.018497461 2.3509886e-38
0.0088464953 -0.10816063 0.018497461 2.3509886e-38
0.010677038 -0.10816063 0.018497461 2.3509886e-38
0.01247324 -0.10742365 0.021510595 2.3509886e-38
0.0142985 -0.10742365 0.021510595 2.3509886e-38
0.016123759 -0.10742365 0.021510595 2.3509886e-38
0.017999208 -0.10816063 0.018497461 2.3509886e-38
0.019829748 -0.10816063 0.018497461 2.3509886e-38
0.021660291 -0.10816063 0.018497461 2.3509886e-38
0.023490833 -0.10816063 0.018497461 2.3509886e-38
0.025393108 -0.10890187 0.015466923 2.3509886e-38
0.027303686 -0.10962076 0.012527818 2.3509886e-38
0.029254885 -0.11061247 0.0084732715 2.3509527e-38
0.031103002 -0.11061247 0.0084732715 2.3509524e-38
0.033042509 -0.11134095 0.0054948274 2.3509524e-38
0.034993008 -0.11207359 0.0024994556 2.3509527e-38
0.0368516 -0.11207359 0.0024994556 2.3509886e-38
0.038710192 -0.11207359 0.0024994556 2.3509886e-38
0.040682342 -0.11281042 -0.00051296316 2.3326213e-38
0.042705726 -0.11379938 -0.0045563038 2.3142542e-38
0.044697803 -0.1145183 -0.0074956473 2.3050703e-38
0.046573918 -0.1145183 -0.0074956473 2.3141816e-38
0.048587274 -0.11526908 -0.010565167 2.3418039e-38
0.050654873 -0.11624874 -0.01457048 2.350987e-38
0.052543394 -0.11624874 -0.01457048 2.3509144e-38
0.056327425 -0.12552677 -0.052503474 2.3231471e-38
0.058282457 -0.12552677 -0.052503474 2.2492823e-38
0.060455516 -0.12652399 -0.056580551 2.1754532e-38
0.062417693 -0.12652399 -0.056580551 2.1109149e-38
0.064606793 -0.12749799 -0.060562737 2.1477906e-38
0.066575952 -0.12749799 -0.060562737 2.3044854e-38
0.068726905 -0.12823303 -0.063568003 2.3506179e-38
0.070944436 -0.12918831 -0.067473657 2.3503644e-38
0.073185556 -0.13018142 -0.071533926 2.3131252e-38
0.075637296 -0.13190506 -0.078580983 2.2853236e-38
0.077638052 -0.13190506 -0.078580983 2.3497916e-38
0.080187246 -0.13384195 -0.086499937 2.3499722e-38
0.082772069 -0.13580595 -0.094529636 2.2949761e-38
0.085091144 -0.13678192 -0.098519929 2.0739589e-38
0.08742626 -0.13776468 -0.10253788 2.0096051e-38
0.089777604 -0.13875429 -0.10658384 2.3232525e-38
0.092134684 -0.13971741 -0.11052156 2.3509856e-38
0.094507709 -0.14068706 -0.11448599 2.3509869e-38
0.096571416 -0.14068706 -0.11448599 2.212694e-38
0.098967522 -0.1416633 -0.11847723 1.4750934e-38
0.10103823 -0.1416633 -0.11847723 1.1339697e-38
0.1034577 -0.14264618 -0.12249578 6.0845444e-39
0.10553545 -0.14264618 -0.12249578 6.3604054e-39
0.10761321 -0.14264618 -0.12249578 6.0841731e-39
0.10969095 -0.14264618 -0.12249578 6.7291796e-39
-0.094202906 -0.11146177 0.012527818 2.3509809e-38
-0.092361897 -0.11146177 0.012527818 2.350872e-38
-0.090520889 -0.11146177 0.012527818 2.3509441e-38
-0.08867988 -0.11146177 0.012527818 2.3509818e-38
-0.08659409 -0.11073773 0.015466923 2.3509844e-38
-0.084758237 -0.11073773 0.015466923 2.3509856e-38
-0.082922384 -0.11073773 0.015466923 2.3509859e-38
-0.081315845 -0.11146177 0.012527818 2.350986e-38
-0.079474837 -0.11146177 0.012527818 2.3509867e-38
-0.077633828 -0.11146177 0.012527818 2.3508793e-38
-0.075578958 -0.11073773 0.015466923 2.3416245e-38
-0.073743105 -0.11073773 0.015466923 2.3232583e-38
-0.071697354 -0.10999118 0.018497461 2.3416615e-38
-0.069866821 -0.10999118 0.018497461 2.3416615e-38
-0.068036273 -0.10999118 0.018497461 2.3416974e-38
-0.066012904 -0.10924892 0.021510595 2.3325494e-38
-0.064187646 -0.10924892 0.021510595 2.3325843e-38
-0.062362392 -0.10924892 0.021510595 2.3326195e-38
-0.060537133 -0.10924892 0.021510595 2.323435e-38
-0.058711875 -0.10924892 0.021510595 2.314252e-38
-0.057220403 -0.11073773 0.015466923 2.3418047e-38
-0.05538455 -0.11073773 0.015466923 2.341805e-38
-0.053391937 -0.10999118 0.018497461 2.341805e-38
-0.051410835 -0.10924892 0.021510595 2.3418047e-38
-0.04958557 -0.10924892 0.021510595 2.3418043e-38
-0.047760312 -0.10924892 0.021510595 2.341804e-38
-0.045935053 -0.10924892 0.021510595 2.350987e-38
-0.044109795 -0.10924892 0.021510595 2.350987e-38
-0.042284537 -0.10924892 0.021510595 2.350987e-38
-0.040578146 -0.10999118 0.018497461 2.3509873e-38
-0.038747605 -0.10999118 0.018497461 2.3509879e-38
-0.036808759 -0.10924892 0.021510595 2.3509883e-38
-0.034881078 -0.10851096 0.024506325 2.3509886e-38
-0.033061069 -0.10851096 0.024506325 2.3509527e-38
-0.031241063 -0.10851096 0.024506325 2.3509527e-38
-0.029421058 -0.10851096 0.024506325 2.3417333e-38
-0.027601048 -0.10851096 0.024506325 2.3509886e-38
-0.025681075 -0.10754226 0.028438563 2.3509886e-38
-0.023867961 -0.10754226 0.028438563 2.3509886e-38
-0.022054847 -0.10754226 0.028438563 2.3509886e-38
-0.020381425 -0.10924892 0.021510595 2.3509886e-38
-0.018501017 -0.10851096 0.024506325 2.3509886e-38
-0.016681008 -0.10851096 0.024506325 2.3509886e-38
-0.014861003 -0.10851096 0.024506325 2.3509886e-38
-0.013080388 -0.10924892 0.021510595 2.3509886e-38
-0.01125513 -0.10924892 0.021510595 2.3509886e-38
-0.009429872 -0.10924892 0.021510595 2.3509886e-38
-0.0076046102 -0.10924892 0.021510595 2.3509886e-38
-0.005779352 -0.10924892 0.021510595 2.3509886e-38
-0.0039409623 -0.10851096 0.024506325 2.3509886e-38
-0.0021209549 -0.10851096 0.024506325 2.3509886e-38
-0.00030357391 -0.10924892 0.021510595 2.3509886e-38
0.0015216842 -0.10924892 0.021510595 2.3509886e-38
0.0033469442 -0.10924892 0.021510595 2.3509886e-38
0.0051722042 -0.10924892 0.021510595 2.3509886e-38
0.0069974624 -0.10924892 0.021510595 2.3509886e-38
0.0088227214 -0.10924892 0.021510595 2.3509886e-38
0.010647981 -0.10924892 0.021510595 2.3509886e-38
0.01247324 -0.10924892 0.021510595 2.3509886e-38
0.0142985 -0.10924892 0.021510595 2.3509886e-38
0.016123759 -0.10924892 0.021510595 2.3509886e-38
0.017949019 -0.10924892 0.021510595 2.3509886e-38
0.019774277 -0.10924892 0.021510595 2.3509886e-38
0.021599537 -0.10924892 0.021510595 2.3509886e-38
0.023424795 -0.10924892 0.021510595 2.3509886e-38
0.025321376 -0.10999118 0.018497461 2.3509886e-38
0.027228964 -0.11073773 0.015466923 2.3509886e-38
0.029144695 -0.11146177 0.012527818 2.3509527e-38
0.031103002 -0.11246057 0.0084732715 2.3509167e-38
0.033042509 -0.1131943 0.0054948274 2.3509527e-38
0.035090722 -0.11467429 -0.00051296316 2.3509527e-38
0.0368516 -0.11393218 0.0024994556 2.3509886e-38
0.038710192 -0.11393218 0.0024994556 2.3509886e-38
0.040682342 -0.11467429 -0.00051296316 2.341805e-38
0.042705726 -0.11567034 -0.0045563038 2.3234379e-38
0.044697803 -0.11639442 -0.0074956473 2.3234374e-38
0.046573918 -0.11639442 -0.0074956473 2.3418043e-38
0.048587274 -0.11715056 -0.010565167 2.3326199e-38
0.050794024 -0.11887501 -0.017565375 2.3049245e-38
0.052687798 -0.11887501 -0.017565375 2.2771214e-38
0.056180183 -0.12675591 -0.049556859 2.2493539e-38
0.058282457 -0.1274818 -0.052503474 2.2032195e-38
0.060455516 -0.12848614 -0.056580551 2.1939275e-38
