# .PCD v0.7 - Point Cloud Data file format
VERSION 0.7
FIELDS x y z rgb
SIZE 4 4 4 4
TYPE F F F F
COUNT 1 1 1 1
WIDTH 932
HEIGHT 1
VIEWPOINT 0 0 0 1 0 0 0
POINTS 932
DATA ascii
-0.019224133 -0.10190627 -0.05835323 2.3509886e-38
-0.017300531 -0.10190627 -0.05835323 2.3509886e-38
-0.015325464 -0.10120471 -0.055263445 2.3509886e-38
-0.013407283 -0.10120471 -0.055263445 2.3509886e-38
-0.011489101 -0.10120471 -0.055263445 2.3509886e-38
-0.009570919 -0.10120471 -0.055263445 2.3509886e-38
-0.0076527335 -0.10120471 -0.055263445 2.3509886e-38
-0.0057345517 -0.10120471 -0.055263445 2.3509886e-38
-0.0038353279 -0.10190627 -0.05835323 2.3509886e-38
-0.0019117277 -0.10190627 -0.05835323 2.3509886e-38
1.18725e-05 -0.10190627 -0.05835323 2.3509886e-38
0.0019354727 -0.10190627 -0.05835323 2.3509886e-38
0.0038563646 -0.10120471 -0.055263445 2.3509886e-38
0.0057745483 -0.10120471 -0.055263445 2.3509886e-38
0.0076927319 -0.10120471 -0.055263445 2.3509886e-38
0.0096109146 -0.10120471 -0.055263445 2.3509886e-38
0.011497425 -0.10029322 -0.051249072 2.3509886e-38
0.013408569 -0.10029322 -0.051249072 2.3509886e-38
0.015319713 -0.10029322 -0.051249072 2.3509886e-38
0.017230857 -0.10029322 -0.051249072 2.3509886e-38
0.019142004 -0.10029322 -0.051249072 2.3509886e-38
0.021053148 -0.10029322 -0.051249072 2.3509886e-38
0.022910297 -0.099627286 -0.048316166 2.3509886e-38
0.024816299 -0.099627286 -0.048316166 2.3509886e-38
0.026722303 -0.099627286 -0.048316166 2.3509886e-38
0.028556498 -0.09893848 -0.045282528 2.3509886e-38
0.030457182 -0.09893848 -0.045282528 2.3509886e-38
0.032357864 -0.09893848 -0.045282528 2.3509886e-38
0.034144521 -0.098043531 -0.041340992 2.3509886e-38
0.036038291 -0.098043531 -0.041340992 2.3509886e-38
0.03783492 -0.097363517 -0.038346097 2.3509886e-38
0.039586499 -0.096454084 -0.034340784 2.3509886e-38
0.041467998 -0.096454084 -0.034340784 2.3509886e-38
0.043500483 -0.097363517 -0.038346097 2.3509886e-38
0.045230996 -0.096454084 -0.034340784 2.3509886e-38
0.047112495 -0.096454084 -0.034340784 2.3509886e-38
0.048993994 -0.096454084 -0.034340784 2.3509886e-38
0.050875492 -0.096454084 -0.034340784 2.3509886e-38
0.052614372 -0.095757127 -0.031271264 2.3509886e-38
0.054490488 -0.095757127 -0.031271264 2.3509886e-38
0.056219727 -0.095089734 -0.028331921 2.3509886e-38
0.058090687 -0.095089734 -0.028331921 2.3509886e-38
0.059961651 -0.095089734 -0.028331921 2.3509886e-38
0.061609302 -0.094171658 -0.02428858 2.3509886e-38
0.06347318 -0.094171658 -0.02428858 2.323258e-38
0.065337047 -0.094171658 -0.02428858 2.3324055e-38
0.067200929 -0.094171658 -0.02428858 2.3509527e-38
0.068877295 -0.09348768 -0.021276161 2.3047468e-38
0.070735887 -0.09348768 -0.021276161 2.3509527e-38
0.072594479 -0.09348768 -0.021276161 2.3509527e-38
0.074656412 -0.094171658 -0.02428858 2.3509886e-38
0.076520294 -0.094171658 -0.02428858 2.2772323e-38
0.078384161 -0.094171658 -0.02428858 2.3509527e-38
0.080248043 -0.094171658 -0.02428858 2.314075e-38
0.08211191 -0.094171658 -0.02428858 2.341805e-38
0.083975792 -0.094171658 -0.02428858 2.2127317e-38
0.085839659 -0.094171658 -0.02428858 1.6965441e-38
0.087703533 -0.094171658 -0.02428858 6.2707476e-39
-0.10076032 -0.11046316 -0.087343618 1.0141134e-38
-0.098785885 -0.11046316 -0.087343618 1.2722612e-38
-0.096811466 -0.11046316 -0.087343618 1.8530936e-38
-0.094837032 -0.11046316 -0.087343618 2.3140718e-38
-0.092862599 -0.11046316 -0.087343618 2.350987e-38
-0.091213442 -0.11135681 -0.091249272 2.3509527e-38
-0.088668726 -0.10977553 -0.084338352 2.2955999e-38
-0.086699553 -0.10977553 -0.084338352 2.3325497e-38
-0.085586406 -0.11228584 -0.095309541 2.2865232e-38
-0.083288334 -0.11135681 -0.091249272 2.2957425e-38
-0.081016012 -0.11046316 -0.087343618 2.3142535e-38
-0.077508591 -0.10564254 -0.066275403 2.2406404e-38
-0.07528881 -0.10473295 -0.062300012 2.3142531e-38
-0.073084943 -0.10382988 -0.05835323 2.3142531e-38
-0.070952781 -0.1031229 -0.055263445 2.3142534e-38
-0.069034599 -0.1031229 -0.055263445 2.3234372e-38
-0.066859506 -0.10220437 -0.051249072 2.2958504e-38
-0.064765804 -0.10153329 -0.048316166 2.2956712e-38
-0.062859811 -0.10153329 -0.048316166 2.3509886e-38
-0.060953803 -0.10153329 -0.048316166 2.3509527e-38
-0.059047796 -0.10153329 -0.048316166 2.3509527e-38
-0.057141796 -0.10153329 -0.048316166 2.3509886e-38
-0.055073567 -0.10083917 -0.045282528 2.3509886e-38
-0.053172879 -0.10083917 -0.045282528 2.3509886e-38
-0.051272199 -0.10083917 -0.045282528 2.3509886e-38
-0.049371518 -0.10083917 -0.045282528 2.3509886e-38
-0.04747083 -0.10083917 -0.045282528 2.3509886e-38
-0.045393921 -0.099937305 -0.041340992 2.3509886e-38
-0.043500148 -0.099937305 -0.041340992 2.3509886e-38
-0.041768782 -0.10083917 -0.045282528 2.3509886e-38
-0.039868101 -0.10083917 -0.045282528 2.3509886e-38
-0.038081776 -0.10153329 -0.048316166 2.3509886e-38
-0.036175773 -0.10153329 -0.048316166 2.3509886e-38
-0.034269769 -0.10153329 -0.048316166 2.3509886e-38
-0.032458901 -0.10220437 -0.051249072 2.3509886e-38
-0.030547757 -0.10220437 -0.051249072 2.3509886e-38
-0.028636612 -0.10220437 -0.051249072 2.3509886e-38
-0.026834562 -0.1031229 -0.055263445 2.3509886e-38
-0.024916381 -0.1031229 -0.055263445 2.3509886e-38
-0.022998199 -0.1031229 -0.055263445 2.3509886e-38
-0.021080017 -0.1031229 -0.055263445 2.3509886e-38
-0.019161832 -0.1031229 -0.055263445 2.3509886e-38
-0.01724365 -0.1031229 -0.055263445 2.3509886e-38
-0.015325464 -0.1031229 -0.055263445 2.3509886e-38
-0.013407283 -0.1031229 -0.055263445 2.3509886e-38
-0.011489101 -0.1031229 -0.055263445 2.3509886e-38
-0.009570919 -0.1031229 -0.055263445 2.3509886e-38
-0.0076140203 -0.10220437 -0.051249072 2.3509886e-38
-0.0057028774 -0.10220437 -0.051249072 2.3509886e-38
-0.0037917327 -0.10220437 -0.051249072 2.3509886e-38
-0.0018981844 -0.1031229 -0.055263445 2.3509886e-38
1.9999221e-05 -0.1031229 -0.055263445 2.3509886e-38
0.0019417014 -0.10220437 -0.051249072 2.3509886e-38
0.0038502757 -0.10153329 -0.048316166 2.3509886e-38
0.0057562776 -0.10153329 -0.048316166 2.3509886e-38
0.0076622795 -0.10153329 -0.048316166 2.3509886e-38
0.0095682815 -0.10153329 -0.048316166 2.3509886e-38
0.011474284 -0.10153329 -0.048316166 2.3509886e-38
0.013351032 -0.10083917 -0.045282528 2.3509886e-38
0.015251715 -0.10083917 -0.045282528 2.3509886e-38
0.017192291 -0.10153329 -0.048316166 2.3509886e-38
0.019098293 -0.10153329 -0.048316166 2.3509886e-38
0.021053148 -0.10220437 -0.051249072 2.3509886e-38
0.022910297 -0.10153329 -0.048316166 2.3509886e-38
0.024755131 -0.10083917 -0.045282528 2.3509886e-38
0.026655816 -0.10083917 -0.045282528 2.3509886e-38
0.028556498 -0.10083917 -0.045282528 2.3509886e-38
0.030457182 -0.10083917 -0.045282528 2.3509886e-38
0.032357864 -0.10083917 -0.045282528 2.3509886e-38
0.034144521 -0.099937305 -0.041340992 2.3509886e-38
0.035946399 -0.099252045 -0.038346097 2.3509886e-38
0.03783492 -0.099252045 -0.038346097 2.3509886e-38
0.039481554 -0.097633243 -0.031271264 2.3509886e-38
0.04135767 -0.097633243 -0.031271264 2.3509886e-38
0.043349497 -0.098335579 -0.034340784 2.3509886e-38
0.045109902 -0.097633243 -0.031271264 2.3509886e-38
0.046864908 -0.096960694 -0.028331921 2.3509886e-38
0.048735872 -0.096960694 -0.028331921 2.3509886e-38
0.050606836 -0.096960694 -0.028331921 2.3509886e-38
0.052477799 -0.096960694 -0.028331921 2.3509886e-38
0.054348763 -0.096960694 -0.028331921 2.3509886e-38
0.056017678 -0.09603554 -0.02428858 2.3509886e-38
0.057881553 -0.09603554 -0.02428858 2.3509886e-38
0.059745427 -0.09603554 -0.02428858 2.3509886e-38
0.061442927 -0.095346272 -0.021276161 2.3509886e-38
0.063301519 -0.095346272 -0.021276161 2.3509883e-38
0.065160111 -0.095346272 -0.021276161 2.3509883e-38
0.067018703 -0.095346272 -0.021276161 2.3509883e-38
0.068877295 -0.095346272 -0.021276161 2.2679762e-38
0.070735887 -0.095346272 -0.021276161 2.3048545e-38
0.072594479 -0.095346272 -0.021276161 2.3509883e-38
0.074656412 -0.09603554 -0.02428858 2.3233296e-38
0.076520294 -0.09603554 -0.02428858 2.3509883e-38
0.078384161 -0.09603554 -0.02428858 2.3233296e-38
0.080248043 -0.09603554 -0.02428858 2.2772318e-38
0.081887439 -0.095346272 -0.021276161 2.3418047e-38
0.083746031 -0.095346272 -0.021276161 2.3418047e-38
0.085604623 -0.095346272 -0.021276161 2.3418047e-38
0.087224253 -0.094660893 -0.018280789 5.6246495e-39
-0.10076032 -0.11243759 -0.087343618 2.3416952e-38
-0.098785885 -0.11243759 -0.087343618 2.323256e-38
-0.096811466 -0.11243759 -0.087343618 2.3509869e-38
-0.094837032 -0.11243759 -0.087343618 2.3509869e-38
-0.092607044 -0.11174469 -0.084338352 2.3509513e-38
-0.090637885 -0.11174469 -0.084338352 2.3509167e-38
-0.088668726 -0.11174469 -0.084338352 2.3509527e-38
-0.086699553 -0.11174469 -0.084338352 2.3509886e-38
-0.085586406 -0.11427425 -0.095309541 2.3418047e-38
-0.082990445 -0.11243759 -0.087343618 2.3418045e-38
-0.080792077 -0.11174469 -0.084338352 2.3234369e-38
-0.077508591 -0.10758002 -0.066275403 2.3050697e-38
-0.07528881 -0.10666345 -0.062300012 2.2775183e-38
-0.073084943 -0.10575347 -0.05835323 2.2406401e-38
-0.070952781 -0.10504107 -0.055263445 2.3050694e-38
-0.068770654 -0.1041155 -0.051249072 2.3234372e-38
-0.066859506 -0.1041155 -0.051249072 2.3234374e-38
-0.064765804 -0.10343929 -0.048316166 2.3509883e-38
-0.062859811 -0.10343929 -0.048316166 2.3509886e-38
-0.060953803 -0.10343929 -0.048316166 2.3509527e-38
-0.059047796 -0.10343929 -0.048316166 2.3324778e-38
-0.057141796 -0.10343929 -0.048316166 2.3509886e-38
-0.055073567 -0.10273984 -0.045282528 2.3509886e-38
-0.053172879 -0.10273984 -0.045282528 2.3509886e-38
-0.051272199 -0.10273984 -0.045282528 2.3509886e-38
-0.049371518 -0.10273984 -0.045282528 2.3509886e-38
-0.04747083 -0.10273984 -0.045282528 2.3509886e-38
-0.045393921 -0.10183108 -0.041340992 2.3509886e-38
-0.043500148 -0.10183108 -0.041340992 2.3509886e-38
-0.041606374 -0.10183108 -0.041340992 2.3509886e-38
-0.039868101 -0.10273984 -0.045282528 2.3509886e-38
-0.037967417 -0.10273984 -0.045282528 2.3509886e-38
-0.036066733 -0.10273984 -0.045282528 2.3509886e-38
-0.034269769 -0.10343929 -0.048316166 2.3509886e-38
-0.032363769 -0.10343929 -0.048316166 2.3509886e-38
-0.030547757 -0.1041155 -0.051249072 2.3509886e-38
-0.028636612 -0.1041155 -0.051249072 2.3509886e-38
-0.026834562 -0.10504107 -0.055263445 2.3509886e-38
-0.024916381 -0.10504107 -0.055263445 2.3509886e-38
-0.022998199 -0.10504107 -0.055263445 2.3509886e-38
-0.021080017 -0.10504107 -0.055263445 2.3509886e-38
-0.019161832 -0.10504107 -0.055263445 2.3509886e-38
-0.01724365 -0.10504107 -0.055263445 2.3509886e-38
-0.015325464 -0.10504107 -0.055263445 2.3509886e-38
-0.013347454 -0.1041155 -0.051249072 2.3509886e-38
-0.01143631 -0.1041155 -0.051249072 2.3509886e-38
-0.009525165 -0.1041155 -0.051249072 2.3509886e-38
-0.0075857379 -0.10343929 -0.048316166 2.3509886e-38
-0.0056797378 -0.10343929 -0.048316166 2.3509886e-38
-0.003773734 -0.10343929 -0.048316166 2.3509886e-38
-0.001867732 -0.10343929 -0.048316166 2.3509886e-38
3.8269907e-05 -0.10343929 -0.048316166 2.3509886e-38
0.0019442718 -0.10343929 -0.048316166 2.3509886e-38
0.0038476158 -0.10273984 -0.045282528 2.3509886e-38
0.005748298 -0.10273984 -0.045282528 2.3509886e-38
0.0076489821 -0.10273984 -0.045282528 2.3509886e-38
0.0095496653 -0.10273984 -0.045282528 2.3509886e-38
0.011450348 -0.10273984 -0.045282528 2.3509886e-38
0.013351032 -0.10273984 -0.045282528 2.3509886e-38
0.015251715 -0.10273984 -0.045282528 2.3509886e-38
0.017152399 -0.10273984 -0.045282528 2.3509886e-38
0.019053081 -0.10273984 -0.045282528 2.3509886e-38
0.020953765 -0.10273984 -0.045282528 2.3509886e-38
0.022781884 -0.10183108 -0.041340992 2.3509886e-38
0.024675656 -0.10183108 -0.041340992 2.3509886e-38
0.02656943 -0.10183108 -0.041340992 2.3509886e-38
0.028463202 -0.10183108 -0.041340992 2.3509886e-38
0.030356973 -0.10183108 -0.041340992 2.3509886e-38
0.032250747 -0.10183108 -0.041340992 2.3509886e-38
0.034057878 -0.10114056 -0.038346097 2.3509886e-38
0.035823502 -0.10021709 -0.034340784 2.3509886e-38
0.037705 -0.10021709 -0.034340784 2.3509886e-38
0.039381057 -0.098831654 -0.028331921 2.3509886e-38
0.041252021 -0.098831654 -0.028331921 2.3509886e-38
0.043122984 -0.098831654 -0.028331921 2.3509886e-38
0.044993944 -0.098831654 -0.028331921 2.3509886e-38
0.046698309 -0.097899407 -0.02428858 2.3509886e-38
0.048562184 -0.097899407 -0.02428858 2.3509886e-38
0.050426058 -0.097899407 -0.02428858 2.3509886e-38
0.052289933 -0.097899407 -0.02428858 2.3509886e-38
0.054153807 -0.097899407 -0.02428858 2.3509886e-38
0.056017678 -0.097899407 -0.02428858 2.3509886e-38
0.057725742 -0.097204864 -0.021276161 2.3509886e-38
0.059584334 -0.097204864 -0.021276161 2.3509886e-38
0.061442927 -0.097204864 -0.021276161 2.3509883e-38
0.063301519 -0.097204864 -0.021276161 2.3049261e-38
0.065160111 -0.097204864 -0.021276161 2.350988e-38
0.067018703 -0.097204864 -0.021276161 2.350988e-38
0.068690851 -0.09651424 -0.018280789 2.3509879e-38
0.070544198 -0.09651424 -0.018280789 2.3232933e-38
0.07239753 -0.09651424 -0.018280789 2.3509879e-38
0.074453071 -0.097204864 -0.021276161 2.240389e-38
0.076520294 -0.097899407 -0.02428858 2.3509879e-38
0.078170255 -0.097204864 -0.021276161 1.7886304e-38
0.080028847 -0.097204864 -0.021276161 1.5581413e-38
0.081664234 -0.09651424 -0.018280789 1.3737501e-38
0.083517566 -0.09651424 -0.018280789 1.9085566e-38
0.085370913 -0.09651424 -0.018280789 2.0006803e-38
0.087224253 -0.09651424 -0.018280789 6.3625691e-39
0.089077599 -0.09651424 -0.018280789 3.3193944e-39
-0.09934897 -0.10602666 -0.051249072 2.3509873e-38
-0.097437821 -0.10602666 -0.051249072 2.3509873e-38
-0.095526673 -0.10602666 -0.051249072 2.3509873e-38
-0.094946004 -0.10951753 -0.066275403 2.3508793e-38
-0.094230585 -0.11278872 -0.080356166 2.3324401e-38
-0.092268415 -0.11278872 -0.080356166 2.3416603e-38
-0.09030623 -0.11278872 -0.080356166 2.2771602e-38
-0.088344045 -0.11278872 -0.080356166 2.3509527e-38
-0.086381875 -0.11278872 -0.080356166 2.3141103e-38
-0.085269608 -0.11531936 -0.091249272 2.249645e-38
-0.082761236 -0.11371385 -0.084338352 2.2773034e-38
-0.08019153 -0.11184154 -0.076279089 2.2590076e-38
-0.077508591 -0.10951753 -0.066275403 2.3142534e-38
-0.07528881 -0.10859399 -0.062300012 2.3142531e-38
-0.073084943 -0.10767709 -0.05835323 2.3142531e-38
-0.070952781 -0.10695927 -0.055263445 2.2682988e-38
-0.068770654 -0.10602666 -0.051249072 2.2405329e-38
-0.066859506 -0.10602666 -0.051249072 2.3234374e-38
-0.064765804 -0.10534529 -0.048316166 2.3509883e-38
-0.062859811 -0.10534529 -0.048316166 2.3048907e-38
-0.060953803 -0.10534529 -0.048316166 2.3048191e-38
-0.059047796 -0.10534529 -0.048316166 2.3509527e-38
-0.057141796 -0.10534529 -0.048316166 2.3509886e-38
-0.055073567 -0.10464053 -0.045282528 2.3509886e-38
-0.053172879 -0.10464053 -0.045282528 2.3509886e-38
-0.051272199 -0.10464053 -0.045282528 2.3509886e-38
-0.049371518 -0.10464053 -0.045282528 2.3509886e-38
-0.04747083 -0.10464053 -0.045282528 2.3509886e-38
-0.04557015 -0.10464053 -0.045282528 2.3509886e-38
-0.043500148 -0.10372485 -0.041340992 2.3509886e-38
-0.041606374 -0.10372485 -0.041340992 2.3509886e-38
-0.039868101 -0.10464053 -0.045282528 2.3509886e-38
-0.037967417 -0.10464053 -0.045282528 2.3509886e-38
-0.036066733 -0.10464053 -0.045282528 2.3509886e-38
-0.034166049 -0.10464053 -0.045282528 2.3509886e-38
-0.032265365 -0.10464053 -0.045282528 2.3509886e-38
-0.030457765 -0.10534529 -0.048316166 2.3509886e-38
-0.028551765 -0.10534529 -0.048316166 2.3509886e-38
-0.026645761 -0.10534529 -0.048316166 2.3509886e-38
-0.024916381 -0.10695927 -0.055263445 2.3509886e-38
-0.022998199 -0.10695927 -0.055263445 2.3509886e-38
-0.021080017 -0.10695927 -0.055263445 2.3509886e-38
-0.019161832 -0.10695927 -0.055263445 2.3509886e-38
-0.01724365 -0.10695927 -0.055263445 2.3509886e-38
-0.015258603 -0.10602666 -0.051249072 2.3509886e-38
-0.013347454 -0.10602666 -0.051249072 2.3509886e-38
-0.011397742 -0.10534529 -0.048316166 2.3509886e-38
-0.0094917417 -0.10534529 -0.048316166 2.3509886e-38
-0.0075564831 -0.10464053 -0.045282528 2.3509886e-38
-0.0056558009 -0.10464053 -0.045282528 2.3509886e-38
-0.0037551187 -0.10464053 -0.045282528 2.3509886e-38
-0.0018544346 -0.10464053 -0.045282528 2.3509886e-38
5.6615099e-05 -0.10372485 -0.041340992 2.3509886e-38
0.0019503869 -0.10372485 -0.041340992 2.3509886e-38
0.0038441606 -0.10372485 -0.041340992 2.3509886e-38
0.0057379324 -0.10372485 -0.041340992 2.3509886e-38
0.0076317042 -0.10372485 -0.041340992 2.3509886e-38
0.0095254779 -0.10372485 -0.041340992 2.3509886e-38
0.01141925 -0.10372485 -0.041340992 2.3509886e-38
0.013313022 -0.10372485 -0.041340992 2.3509886e-38
0.015206794 -0.10372485 -0.041340992 2.3509886e-38
0.017100567 -0.10372485 -0.041340992 2.3509886e-38
0.018994339 -0.10372485 -0.041340992 2.3509886e-38
0.020838227 -0.10302909 -0.038346097 2.3509886e-38
0.02265301 -0.10209858 -0.034340784 2.3509886e-38
0.024534509 -0.10209858 -0.034340784 2.3509886e-38
0.026416007 -0.10209858 -0.034340784 2.3509886e-38
0.028297506 -0.10209858 -0.034340784 2.3509886e-38
0.030179005 -0.10209858 -0.034340784 2.3509886e-38
0.032060504 -0.10209858 -0.034340784 2.3509886e-38
0.033942003 -0.10209858 -0.034340784 2.3509886e-38
0.03563913 -0.10070263 -0.028331921 2.3509886e-38
0.037510093 -0.10070263 -0.028331921 2.3509886e-38
0.039242815 -0.099763289 -0.02428858 2.3509886e-38
0.04099841 -0.099063456 -0.021276161 2.3509886e-38
0.042857002 -0.099063456 -0.021276161 2.3509886e-38
0.044715595 -0.099063456 -0.021276161 2.3509886e-38
0.04657419 -0.099063456 -0.021276161 2.3509886e-38
0.048432782 -0.099063456 -0.021276161 2.3509886e-38
0.050291374 -0.099063456 -0.021276161 2.3509886e-38
0.052149966 -0.099063456 -0.021276161 2.3509886e-38
0.054008558 -0.099063456 -0.021276161 2.3509886e-38
0.05586715 -0.099063456 -0.021276161 2.3509886e-38
0.057725742 -0.099063456 -0.021276161 2.3509886e-38
0.059424151 -0.098367572 -0.018280789 2.3509886e-38
0.06127749 -0.098367572 -0.018280789 2.3509883e-38
0.063301519 -0.099063456 -0.021276161 2.350988e-38
0.065160111 -0.099063456 -0.021276161 2.3142174e-38
0.067018703 -0.099063456 -0.021276161 2.3418042e-38
0.068690851 -0.098367572 -0.018280789 2.231241e-38
0.070544198 -0.098367572 -0.018280789 2.3509879e-38
0.07239753 -0.098367572 -0.018280789 2.1666322e-38
0.074453071 -0.099063456 -0.021276161 1.4659454e-38
0.076311663 -0.099063456 -0.021276161 8.6667381e-39
0.078170255 -0.099063456 -0.021276161 9.1280722e-39
0.080028847 -0.099063456 -0.021276161 6.3622033e-39
0.081664234 -0.098367572 -0.018280789 6.3622005e-39
0.083517566 -0.098367572 -0.018280789 1.1986134e-38
0.085370913 -0.098367572 -0.018280789 1.272298e-38
0.087224253 -0.098367572 -0.018280789 6.5465918e-39
-0.1050824 -0.1079378 -0.051249072 2.3509876e-38
-0.10317125 -0.1079378 -0.051249072 2.3509516e-38
-0.1016437 -0.10887744 -0.055263445 2.3509879e-38
-0.09934897 -0.1079378 -0.051249072 2.3508798e-38
-0.097437821 -0.1079378 -0.051249072 2.3416603e-38
-0.095526673 -0.1079378 -0.051249072 2.3509879e-38
-0.094946004 -0.11145501 -0.066275403 2.3509518e-38
-0.093008526 -0.11145501 -0.066275403 2.3509518e-38
-0.091671132 -0.11310686 -0.073332474 2.3509521e-38
-0.08972127 -0.11310686 -0.073332474 2.3416971e-38
-0.088011645 -0.11379658 -0.076279089 2.3509167e-38
-0.086056612 -0.11379658 -0.076279089 2.3048905e-38
-0.084730394 -0.115683 -0.084338352 2.3418045e-38
-0.082146563 -0.11379658 -0.076279089 2.3049978e-38
-0.08019153 -0.11379658 -0.076279089 1.7980295e-38
-0.077508591 -0.11145501 -0.066275403 1.5860511e-38
-0.07528881 -0.11052449 -0.062300012 1.7520033e-38
-0.073084943 -0.10960068 -0.05835323 1.5952707e-38
-0.070952781 -0.10887744 -0.055263445 1.9732728e-38
-0.069034599 -0.10887744 -0.055263445 2.2958859e-38
-0.066859506 -0.1079378 -0.051249072 2.3234372e-38
-0.064765804 -0.1072513 -0.048316166 2.3141456e-38
-0.062859811 -0.1072513 -0.048316166 2.3509883e-38
-0.060775615 -0.1065412 -0.045282528 2.3509527e-38
-0.058874927 -0.1065412 -0.045282528 2.3509527e-38
-0.056974255 -0.1065412 -0.045282528 2.3509886e-38
-0.055073567 -0.1065412 -0.045282528 2.3509886e-38
-0.053172879 -0.1065412 -0.045282528 2.3509886e-38
-0.051272199 -0.1065412 -0.045282528 2.3509886e-38
-0.049371518 -0.1065412 -0.045282528 2.3509886e-38
-0.04747083 -0.1065412 -0.045282528 2.3509886e-38
-0.04557015 -0.1065412 -0.045282528 2.3509886e-38
-0.04366947 -0.1065412 -0.045282528 2.3509886e-38
-0.041606374 -0.10561861 -0.041340992 2.3509886e-38
-0.039712608 -0.10561861 -0.041340992 2.3509886e-38
-0.037818834 -0.10561861 -0.041340992 2.3509886e-38
-0.035925061 -0.10561861 -0.041340992 2.3509886e-38
-0.034031291 -0.10561861 -0.041340992 2.3509886e-38
-0.032137517 -0.10561861 -0.041340992 2.3509886e-38
-0.030243743 -0.10561861 -0.041340992 2.3509886e-38
-0.028349973 -0.10561861 -0.041340992 2.3509886e-38
-0.026645761 -0.1072513 -0.048316166 2.3509886e-38
-0.024814323 -0.1079378 -0.051249072 2.3509886e-38
-0.022998199 -0.10887744 -0.055263445 2.3509886e-38
-0.021080017 -0.10887744 -0.055263445 2.3509886e-38
-0.019080888 -0.1079378 -0.051249072 2.3509886e-38
-0.017169744 -0.1079378 -0.051249072 2.3509886e-38
-0.015258603 -0.1079378 -0.051249072 2.3509886e-38
-0.013303746 -0.1072513 -0.048316166 2.3509886e-38
-0.011397742 -0.1072513 -0.048316166 2.3509886e-38
-0.0094571672 -0.1065412 -0.045282528 2.3509886e-38
-0.0075564831 -0.1065412 -0.045282528 2.3509886e-38
-0.0056247022 -0.10561861 -0.041340992 2.3509886e-38
-0.0037309304 -0.10561861 -0.041340992 2.3509886e-38
-0.0018371567 -0.10561861 -0.041340992 2.3509886e-38
5.6615099e-05 -0.10561861 -0.041340992 2.3509886e-38
0.0019530132 -0.1049176 -0.038346097 2.3509886e-38
0.0038415343 -0.1049176 -0.038346097 2.3509886e-38
0.0057300553 -0.1049176 -0.038346097 2.3509886e-38
0.0076185763 -0.1049176 -0.038346097 2.3509886e-38
0.0095070992 -0.1049176 -0.038346097 2.3509886e-38
0.01139562 -0.1049176 -0.038346097 2.3509886e-38
0.013284141 -0.1049176 -0.038346097 2.3509886e-38
0.015172663 -0.1049176 -0.038346097 2.3509886e-38
0.017008513 -0.10398008 -0.034340784 2.3509886e-38
0.018890014 -0.10398008 -0.034340784 2.3509886e-38
0.020771513 -0.10398008 -0.034340784 2.3509886e-38
0.022596501 -0.1032616 -0.031271264 2.3509886e-38
0.024331823 -0.10162716 -0.02428858 2.3509886e-38
0.026195697 -0.10162716 -0.02428858 2.3509886e-38
0.028059572 -0.10162716 -0.02428858 2.3509886e-38
0.029923445 -0.10162716 -0.02428858 2.3509886e-38
0.031977087 -0.1032616 -0.031271264 2.3509886e-38
0.033651195 -0.10162716 -0.02428858 2.3509886e-38
0.035515066 -0.10162716 -0.02428858 2.3509886e-38
0.037378941 -0.10162716 -0.02428858 2.3509886e-38
0.039139818 -0.10092205 -0.021276161 2.3509886e-38
0.04089075 -0.10022092 -0.018280789 2.3509886e-38
0.042744089 -0.10022092 -0.018280789 2.3509886e-38
0.044597428 -0.10022092 -0.018280789 2.3509886e-38
0.046450768 -0.10022092 -0.018280789 2.3509886e-38
0.048304111 -0.10022092 -0.018280789 2.3509886e-38
0.05015745 -0.10022092 -0.018280789 2.3509886e-38
0.05201079 -0.10022092 -0.018280789 2.3509886e-38
0.053864129 -0.10022092 -0.018280789 2.3509886e-38
0.055717472 -0.10022092 -0.018280789 2.3509886e-38
0.057570811 -0.10022092 -0.018280789 2.3509886e-38
0.059264872 -0.099523753 -0.015302345 2.3509886e-38
0.061112992 -0.099523753 -0.015302345 2.3509883e-38
0.062961109 -0.099523753 -0.015302345 2.3141816e-38
0.064809233 -0.099523753 -0.015302345 2.3418043e-38
0.067018703 -0.10092205 -0.021276161 2.3418043e-38
0.069499418 -0.1032616 -0.031271264 1.1894304e-38
0.071375534 -0.1032616 -0.031271264 9.6816089e-39
0.072594479 -0.10092205 -0.021276161 5.1640231e-39
0.074453071 -0.10092205 -0.021276161 5.716478e-39
0.076311663 -0.10092205 -0.021276161 3.3197475e-39
0.078170255 -0.10092205 -0.021276161 5.5324426e-39
0.080028847 -0.10092205 -0.021276161 3.2275491e-39
0.081887439 -0.10092205 -0.021276161 5.7164696e-39
0.083746031 -0.10092205 -0.021276161 6.5462302e-39
0.085839659 -0.10162716 -0.02428858 6.2696433e-39
0.087463208 -0.10092205 -0.021276161 3.872557e-39
0.089321814 -0.10092205 -0.021276161 4.7945105e-39
-0.10890468 -0.10984896 -0.051249072 2.3509518e-38
-0.10669785 -0.10915731 -0.048316166 2.2956345e-38
-0.10479186 -0.10915731 -0.048316166 2.3325127e-38
-0.10288585 -0.10915731 -0.048316166 2.3509879e-38
-0.10097984 -0.10915731 -0.048316166 2.350988e-38
-0.098789282 -0.1084419 -0.045282528 2.3417324e-38
-0.096888594 -0.1084419 -0.045282528 2.3232933e-38
-0.095261849 -0.10915731 -0.048316166 2.3509883e-38
-0.093355842 -0.10915731 -0.048316166 2.3509883e-38
-0.091449834 -0.10915731 -0.048316166 2.2956349e-38
-0.091671132 -0.11505674 -0.073332474 2.3509523e-38
-0.08972127 -0.11505674 -0.073332474 2.3509883e-38
-0.088011645 -0.11575161 -0.076279089 2.3232936e-38
-0.086056612 -0.11575161 -0.076279089 2.3233296e-38
-0.084730394 -0.11765216 -0.084338352 2.3418045e-38
-0.082146563 -0.11575161 -0.076279089 2.2681196e-38
-0.079446085 -0.11339252 -0.066275403 1.5030034e-38
-0.07721933 -0.11245503 -0.062300012 9.5912084e-39
-0.075008549 -0.11152427 -0.05835323 1.0881947e-38
-0.073084943 -0.11152427 -0.05835323 8.3926652e-39
-0.070952781 -0.11079563 -0.055263445 1.6137098e-38
-0.068770654 -0.10984896 -0.051249072 2.2774467e-38
-0.066859506 -0.10984896 -0.051249072 2.3234372e-38
-0.064765804 -0.10915731 -0.048316166 2.350988e-38
-0.062859811 -0.10915731 -0.048316166 2.3509883e-38
-0.060775615 -0.1084419 -0.045282528 2.3509883e-38
-0.058874927 -0.1084419 -0.045282528 2.2402819e-38
-0.056974255 -0.1084419 -0.045282528 2.3509886e-38
-0.055073567 -0.1084419 -0.045282528 2.3509886e-38
-0.053172879 -0.1084419 -0.045282528 2.3509886e-38
-0.051272199 -0.1084419 -0.045282528 2.3509886e-38
-0.049371518 -0.1084419 -0.045282528 2.3509886e-38
-0.04747083 -0.1084419 -0.045282528 2.3509886e-38
-0.045393921 -0.1075124 -0.041340992 2.3509886e-38
-0.043500148 -0.1075124 -0.041340992 2.3509886e-38
-0.041606374 -0.1075124 -0.041340992 2.3509886e-38
-0.039712608 -0.1075124 -0.041340992 2.3509886e-38
-0.037705936 -0.10680611 -0.038346097 2.3509886e-38
-0.035817415 -0.10680611 -0.038346097 2.3509886e-38
-0.033928894 -0.10680611 -0.038346097 2.3509886e-38
-0.032040372 -0.10680611 -0.038346097 2.3509886e-38
-0.030028954 -0.10586159 -0.034340784 2.3509886e-38
-0.028147455 -0.10586159 -0.034340784 2.3509886e-38
-0.0264562 -0.1075124 -0.041340992 2.3509886e-38
-0.024739757 -0.10915731 -0.048316166 2.3509886e-38
-0.022833757 -0.10915731 -0.048316166 2.3509886e-38
-0.020927757 -0.10915731 -0.048316166 2.3509886e-38
-0.019021749 -0.10915731 -0.048316166 2.3509886e-38
-0.0170599 -0.1084419 -0.045282528 2.3509886e-38
-0.01515922 -0.1084419 -0.045282528 2.3509886e-38
-0.013258532 -0.1084419 -0.045282528 2.3509886e-38
-0.011357851 -0.1084419 -0.045282528 2.3509886e-38
-0.0094122477 -0.1075124 -0.041340992 2.3509886e-38
-0.007518474 -0.1075124 -0.041340992 2.3509886e-38
-0.0056247022 -0.1075124 -0.041340992 2.3509886e-38
-0.0037125517 -0.10680611 -0.038346097 2.3509886e-38
-0.0018240288 -0.10680611 -0.038346097 2.3509886e-38
6.4492226e-05 -0.10680611 -0.038346097 2.3509886e-38
0.0019565243 -0.10586159 -0.034340784 2.3509886e-38
0.0038380232 -0.10586159 -0.034340784 2.3509886e-38
0.005719522 -0.10586159 -0.034340784 2.3509886e-38
0.0076010209 -0.10586159 -0.034340784 2.3509886e-38
0.0094825197 -0.10586159 -0.034340784 2.3509886e-38
0.011364019 -0.10586159 -0.034340784 2.3509886e-38
0.013245516 -0.10586159 -0.034340784 2.3509886e-38
0.015127015 -0.10586159 -0.034340784 2.3509886e-38
0.01696815 -0.10513772 -0.031271264 2.3509886e-38
0.018800462 -0.10444455 -0.028331921 2.3509886e-38
0.020671424 -0.10444455 -0.028331921 2.3509886e-38
0.02246795 -0.10349102 -0.02428858 2.3509886e-38
0.024271082 -0.10278064 -0.021276161 2.3509886e-38
0.026129676 -0.10278064 -0.021276161 2.3509886e-38
0.027988268 -0.10278064 -0.021276161 2.3509886e-38
0.02984686 -0.10278064 -0.021276161 2.3509886e-38
0.031787321 -0.10349102 -0.02428858 2.3509886e-38
0.033564046 -0.10278064 -0.021276161 2.3509886e-38
0.035422634 -0.10278064 -0.021276161 2.3509886e-38
0.037281226 -0.10278064 -0.021276161 2.3509886e-38
0.039139818 -0.10278064 -0.021276161 2.3509886e-38
0.04089075 -0.10207425 -0.018280789 2.3509886e-38
0.042744089 -0.10207425 -0.018280789 2.3509886e-38
0.044597428 -0.10207425 -0.018280789 2.3509886e-38
0.046328049 -0.10137187 -0.015302345 2.3509886e-38
0.048176166 -0.10137187 -0.015302345 2.3509886e-38
0.050024282 -0.10137187 -0.015302345 2.3509886e-38
0.051872402 -0.10137187 -0.015302345 2.3509886e-38
0.053720519 -0.10137187 -0.015302345 2.3509886e-38
0.055366032 -0.10041572 -0.011247799 2.3509886e-38
0.05720704 -0.10041572 -0.011247799 2.3509886e-38
0.059048049 -0.10041572 -0.011247799 2.3509886e-38
0.060889058 -0.10041572 -0.011247799 2.3509886e-38
0.062730066 -0.10041572 -0.011247799 2.3418047e-38
0.064571075 -0.10041572 -0.011247799 2.30507e-38
0.067808986 -0.10586159 -0.034340784 2.2866308e-38
0.069499418 -0.10513772 -0.031271264 1.521407e-38
0.071375534 -0.10513772 -0.031271264 1.6135306e-38
0.072792545 -0.10349102 -0.02428858 1.3553825e-38
0.074656412 -0.10349102 -0.02428858 1.327652e-38
0.076520294 -0.10349102 -0.02428858 1.0511007e-38
0.078384161 -0.10349102 -0.02428858 9.8656372e-39
0.080248043 -0.10349102 -0.02428858 7.0997656e-39
0.081887439 -0.10278064 -0.021276161 7.1915996e-39
0.083746031 -0.10278064 -0.021276161 6.2696433e-39
0.085839659 -0.10349102 -0.02428858 7.651496e-39
0.087463208 -0.10278064 -0.021276161 6.913931e-39
0.088834755 -0.10137187 -0.015302345 7.2827135e-39
0.090682887 -0.10137187 -0.015302345 5.8075862e-39
0.092531003 -0.10137187 -0.015302345 4.9760347e-39
0.09463761 -0.10207425 -0.018280789 3.8693312e-39
0.096490957 -0.10207425 -0.018280789 2.5796686e-39
-0.12291422 -0.10535492 -0.02428858 9.4979197e-39
-0.11019338 -0.11034258 -0.045282528 2.3509879e-38
-0.10829269 -0.11034258 -0.045282528 2.350952e-38
-0.10669785 -0.11106332 -0.048316166 2.3232933e-38
-0.10479186 -0.11106332 -0.048316166 2.350988e-38
-0.10259064 -0.11034258 -0.045282528 2.2956349e-38
-0.10068997 -0.11034258 -0.045282528 2.3509883e-38
-0.098789282 -0.11034258 -0.045282528 2.3509883e-38
-0.096888594 -0.11034258 -0.045282528 2.323258e-38
-0.094632007 -0.10940616 -0.041340992 2.3509527e-38
-0.092473052 -0.10869466 -0.038346097 2.3509527e-38
-0.090584539 -0.10869466 -0.038346097 2.3416974e-38
-0.088950686 -0.10940616 -0.041340992 2.3509527e-38
-0.087056912 -0.10940616 -0.041340992 2.3048545e-38
-0.085731827 -0.11106332 -0.048316166 2.3509883e-38
-0.083825834 -0.11106332 -0.048316166 2.350988e-38
-0.081919827 -0.11106332 -0.048316166 2.221986e-38
-0.08108037 -0.11438553 -0.062300012 2.3418043e-38
-0.07914985 -0.11438553 -0.062300012 2.3234369e-38
-0.07721933 -0.11438553 -0.062300012 2.2037621e-38
-0.075008549 -0.11344786 -0.05835323 2.2590792e-38
-0.072870962 -0.1127138 -0.055263445 2.1300056e-38
-0.070681788 -0.11176009 -0.051249072 2.1668839e-38
-0.068770654 -0.11176009 -0.051249072 2.2590076e-38
-0.066859506 -0.11176009 -0.051249072 2.3050698e-38
-0.064765804 -0.11106332 -0.048316166 2.3141456e-38
-0.062676303 -0.11034258 -0.045282528 2.2772674e-38
-0.060775615 -0.11034258 -0.045282528 2.3417327e-38
-0.058874927 -0.11034258 -0.045282528 2.3509883e-38
-0.056974255 -0.11034258 -0.045282528 2.3509886e-38
-0.055073567 -0.11034258 -0.045282528 2.3509886e-38
-0.053172879 -0.11034258 -0.045282528 2.3509886e-38
-0.051272199 -0.11034258 -0.045282528 2.3509886e-38
-0.049371518 -0.11034258 -0.045282528 2.3509886e-38
-0.047287695 -0.10940616 -0.041340992 2.3509886e-38
-0.045393921 -0.10940616 -0.041340992 2.3509886e-38
-0.043500148 -0.10940616 -0.041340992 2.3509886e-38
-0.041606374 -0.10940616 -0.041340992 2.3509886e-38
-0.039594457 -0.10869466 -0.038346097 2.3509886e-38
-0.037705936 -0.10869466 -0.038346097 2.3509886e-38
-0.035817415 -0.10869466 -0.038346097 2.3509886e-38
-0.033791952 -0.10774307 -0.034340784 2.3509886e-38
-0.031910453 -0.10774307 -0.034340784 2.3509886e-38
-0.029934771 -0.10701384 -0.031271264 2.3509886e-38
-0.028058656 -0.10701384 -0.031271264 2.3509886e-38
-0.026374809 -0.10869466 -0.038346097 2.3509886e-38
-0.024486288 -0.10869466 -0.038346097 2.3509886e-38
-0.022597767 -0.10869466 -0.038346097 2.3509886e-38
-0.020709246 -0.10869466 -0.038346097 2.3509886e-38
-0.018881109 -0.10940616 -0.041340992 2.3509886e-38
-0.016987339 -0.10940616 -0.041340992 2.3509886e-38
-0.015093565 -0.10940616 -0.041340992 2.3509886e-38
-0.013199791 -0.10940616 -0.041340992 2.3509886e-38
-0.011266638 -0.10869466 -0.038346097 2.3509886e-38
-0.0093781166 -0.10869466 -0.038346097 2.3509886e-38
-0.0074895937 -0.10869466 -0.038346097 2.3509886e-38
-0.0056010727 -0.10869466 -0.038346097 2.3509886e-38
-0.0036879722 -0.10774307 -0.034340784 2.3509886e-38
-0.0018064734 -0.10774307 -0.034340784 2.3509886e-38
7.5025484e-05 -0.10774307 -0.034340784 2.3509886e-38
0.0019592158 -0.10701384 -0.031271264 2.3509886e-38
0.0038353316 -0.10701384 -0.031271264 2.3509886e-38
0.0057114493 -0.10701384 -0.031271264 2.3509886e-38
0.007587567 -0.10701384 -0.031271264 2.3509886e-38
0.0094636828 -0.10701384 -0.031271264 2.3509886e-38
0.0113398 -0.10701384 -0.031271264 2.3509886e-38
0.013215916 -0.10701384 -0.031271264 2.3509886e-38
0.015058534 -0.10631551 -0.028331921 2.3509886e-38
0.016929498 -0.10631551 -0.028331921 2.3509886e-38
0.018740201 -0.10535492 -0.02428858 2.3509886e-38
0.020604076 -0.10535492 -0.02428858 2.3509886e-38
0.02241249 -0.10463922 -0.021276161 2.3509886e-38
0.024210686 -0.1039276 -0.018280789 2.3509886e-38
0.026064027 -0.1039276 -0.018280789 2.3509886e-38
0.027917366 -0.1039276 -0.018280789 2.3509886e-38
0.029770708 -0.1039276 -0.018280789 2.3509886e-38
0.031624049 -0.1039276 -0.018280789 2.3509886e-38
0.033477388 -0.1039276 -0.018280789 2.3509886e-38
0.035330728 -0.1039276 -0.018280789 2.3509886e-38
0.037184067 -0.1039276 -0.018280789 2.3509886e-38
0.038935576 -0.10322 -0.015302345 2.3509886e-38
0.040783692 -0.10322 -0.015302345 2.3509886e-38
0.042631812 -0.10322 -0.015302345 2.3509886e-38
0.044479929 -0.10322 -0.015302345 2.3509886e-38
0.046328049 -0.10322 -0.015302345 2.3509886e-38
0.048176166 -0.10322 -0.015302345 2.3509886e-38
0.049843006 -0.10225673 -0.011247799 2.3509886e-38
0.051684014 -0.10225673 -0.011247799 2.3509886e-38
0.053383309 -0.10155846 -0.0083086938 2.3509886e-38
0.055219166 -0.10155846 -0.0083086938 2.3509886e-38
0.057055019 -0.10155846 -0.0083086938 2.3509886e-38
0.058890875 -0.10155846 -0.0083086938 2.3509886e-38
0.060726732 -0.10155846 -0.0083086938 2.341805e-38
0.062730066 -0.10225673 -0.011247799 2.3326213e-38
0.064571075 -0.10225673 -0.011247799 2.3142542e-38
0.068051264 -0.10869466 -0.038346097 2.3234376e-38
0.069690481 -0.10774307 -0.034340784 2.3234376e-38
0.071571976 -0.10774307 -0.034340784 2.3418047e-38
0.072792545 -0.10535492 -0.02428858 2.3326208e-38
0.074656412 -0.10535492 -0.02428858 2.2496085e-38
0.076520294 -0.10535492 -0.02428858 2.3509879e-38
0.078384161 -0.10535492 -0.02428858 2.3233648e-38
0.080248043 -0.10535492 -0.02428858 2.3509876e-38
0.081887439 -0.10463922 -0.021276161 2.3509873e-38
0.083746031 -0.10463922 -0.021276161 2.350987e-38
0.085839659 -0.10535492 -0.02428858 2.350987e-38
0.087463208 -0.10463922 -0.021276161 2.3140365e-38
0.088834755 -0.10322 -0.015302345 2.323256e-38
0.090682887 -0.10322 -0.015302345 2.314001e-38
0.092531003 -0.10322 -0.015302345 2.2586124e-38
0.09463761 -0.1039276 -0.018280789 2.2124793e-38
0.096490957 -0.1039276 -0.018280789 2.1756727e-38
-0.12291422 -0.10721879 -0.02428858 1.1803165e-38
-0.12105034 -0.10721879 -0.02428858 1.7979565e-38
-0.11918647 -0.10721879 -0.02428858 2.2865584e-38
-0.11777986 -0.10818647 -0.028331921 2.3418045e-38
-0.11590888 -0.10818647 -0.028331921 2.350988e-38
-0.11403792 -0.10818647 -0.028331921 2.3509879e-38
-0.11216696 -0.10818647 -0.028331921 2.350988e-38
-0.110296 -0.10818647 -0.028331921 2.350988e-38
-0.10905191 -0.10962458 -0.034340784 2.350988e-38
-0.10758124 -0.11058317 -0.038346097 2.3509883e-38
-0.10639202 -0.11224325 -0.045282528 2.3509883e-38
-0.10449133 -0.11224325 -0.045282528 2.3509883e-38
-0.10259064 -0.11224325 -0.045282528 2.3509527e-38
-0.10031333 -0.11129995 -0.041340992 2.3509527e-38
-0.098419555 -0.11129995 -0.041340992 2.3509527e-38
-0.096888594 -0.11224325 -0.045282528 2.3509527e-38
-0.094632007 -0.11129995 -0.041340992 2.3509527e-38
-0.09211842 -0.10962458 -0.034340784 2.3509527e-38
-0.09023691 -0.10962458 -0.034340784 2.3509527e-38
-0.08869601 -0.11058317 -0.038346097 2.3509527e-38
-0.086807497 -0.11058317 -0.038346097 2.3509527e-38
-0.084918968 -0.11058317 -0.038346097 2.3509883e-38
-0.083030455 -0.11058317 -0.038346097 2.350988e-38
-0.081141926 -0.11058317 -0.038346097 2.3418045e-38
-0.079253413 -0.11058317 -0.038346097 2.3418043e-38
-0.07914985 -0.11631607 -0.062300012 2.3234372e-38
-0.07721933 -0.11631607 -0.062300012 2.3142537e-38
-0.075008549 -0.11537148 -0.05835323 2.3142534e-38
-0.072870962 -0.114632 -0.055263445 2.3142537e-38
-0.070681788 -0.11367123 -0.051249072 2.3142537e-38
-0.068577804 -0.11296929 -0.048316166 2.3234372e-38
-0.066671811 -0.11296929 -0.048316166 2.3234372e-38
-0.064576976 -0.11224325 -0.045282528 2.350988e-38
-0.062676303 -0.11224325 -0.045282528 2.350988e-38
-0.060544096 -0.11129995 -0.041340992 2.3509883e-38
-0.058479674 -0.11058317 -0.038346097 2.3509883e-38
-0.056591146 -0.11058317 -0.038346097 2.3509886e-38
-0.054702632 -0.11058317 -0.038346097 2.3509886e-38
-0.052969016 -0.11129995 -0.041340992 2.3509886e-38
-0.051075242 -0.11129995 -0.041340992 2.3509886e-38
-0.049037062 -0.11058317 -0.038346097 2.3509886e-38
-0.047148548 -0.11058317 -0.038346097 2.3509886e-38
-0.04526002 -0.11058317 -0.038346097 2.3509886e-38
-0.043371506 -0.11058317 -0.038346097 2.3509886e-38
-0.041482978 -0.11058317 -0.038346097 2.3509886e-38
-0.039594457 -0.11058317 -0.038346097 2.3509886e-38
-0.03755495 -0.10962458 -0.034340784 2.3509886e-38
-0.035673451 -0.10962458 -0.034340784 2.3509886e-38
-0.033791952 -0.10962458 -0.034340784 2.3509886e-38
-0.031910453 -0.10962458 -0.034340784 2.3509886e-38
-0.029934771 -0.10888995 -0.031271264 2.3509886e-38
-0.028058656 -0.10888995 -0.031271264 2.3509886e-38
-0.026265956 -0.10962458 -0.034340784 2.3509886e-38
-0.024486288 -0.11058317 -0.038346097 2.3509886e-38
-0.022502959 -0.10962458 -0.034340784 2.3509886e-38
-0.02062146 -0.10962458 -0.034340784 2.3509886e-38
-0.018739961 -0.10962458 -0.034340784 2.3509886e-38
-0.016858462 -0.10962458 -0.034340784 2.3509886e-38
-0.014976963 -0.10962458 -0.034340784 2.3509886e-38
-0.013155159 -0.11058317 -0.038346097 2.3509886e-38
-0.011213966 -0.10962458 -0.034340784 2.3509886e-38
-0.0093324669 -0.10962458 -0.034340784 2.3509886e-38
-0.007450968 -0.10962458 -0.034340784 2.3509886e-38
-0.005569471 -0.10962458 -0.034340784 2.3509886e-38
-0.0036691353 -0.10888995 -0.031271264 2.3509886e-38
-0.0017930195 -0.10888995 -0.031271264 2.3509886e-38
8.3098188e-05 -0.10888995 -0.031271264 2.3509886e-38
0.0019592158 -0.10888995 -0.031271264 2.3509886e-38
0.0038353316 -0.10888995 -0.031271264 2.3509886e-38
0.0057037193 -0.10818647 -0.028331921 2.3509886e-38
0.0075746812 -0.10818647 -0.028331921 2.3509886e-38
0.0094456449 -0.10818647 -0.028331921 2.3509886e-38
0.011316609 -0.10818647 -0.028331921 2.3509886e-38
0.01314858 -0.10721879 -0.02428858 2.3509886e-38
0.015012454 -0.10721879 -0.02428858 2.3509886e-38
0.016836714 -0.10649781 -0.021276161 2.3509886e-38
0.018650666 -0.10578094 -0.018280789 2.3509886e-38
0.020504005 -0.10578094 -0.018280789 2.3509886e-38
0.022357346 -0.10578094 -0.018280789 2.3509886e-38
0.02415063 -0.1050681 -0.015302345 2.3509886e-38
0.025998749 -0.1050681 -0.015302345 2.3509886e-38
0.027846867 -0.1050681 -0.015302345 2.3509886e-38
0.029694986 -0.1050681 -0.015302345 2.3509886e-38
0.031543106 -0.1050681 -0.015302345 2.3509886e-38
0.033391222 -0.1050681 -0.015302345 2.3509886e-38
0.035239339 -0.1050681 -0.015302345 2.3509886e-38
0.037087455 -0.1050681 -0.015302345 2.3509886e-38
0.038935576 -0.1050681 -0.015302345 2.3509886e-38
0.040637959 -0.10409774 -0.011247799 2.3509886e-38
0.042478967 -0.10409774 -0.011247799 2.3509886e-38
0.044319976 -0.10409774 -0.011247799 2.3509886e-38
0.046160985 -0.10409774 -0.011247799 2.3509886e-38
0.04787574 -0.10339431 -0.0083086938 2.3509886e-38
0.049711596 -0.10339431 -0.0083086938 2.3509886e-38
0.051547453 -0.10339431 -0.0083086938 2.3509886e-38
0.053237185 -0.10266902 -0.0052781552 2.3509886e-38
0.055067729 -0.10266902 -0.0052781552 2.3509886e-38
0.057055019 -0.10339431 -0.0083086938 2.3509886e-38
0.058407478 -0.10123092 0.00073070824 2.3509886e-38
0.059678927 -0.098853827 0.010662988 2.341805e-38
0.061481517 -0.098853827 0.010662988 2.341805e-38
0.063284114 -0.098853827 0.010662988 2.3234379e-38
0.068051264 -0.11058317 -0.038346097 2.3234379e-38
0.069939777 -0.11058317 -0.038346097 2.3234379e-38
0.071828306 -0.11058317 -0.038346097 2.341805e-38
0.072792545 -0.10721879 -0.02428858 2.341805e-38
0.074656412 -0.10721879 -0.02428858 2.3509883e-38
0.076520294 -0.10721879 -0.02428858 2.3509883e-38
0.078384161 -0.10721879 -0.02428858 2.350988e-38
0.080028847 -0.10649781 -0.021276161 2.350988e-38
0.081664234 -0.10578094 -0.018280789 2.3509879e-38
0.083517566 -0.10578094 -0.018280789 2.3509876e-38
0.085604623 -0.10649781 -0.021276161 2.3509876e-38
0.087463208 -0.10649781 -0.021276161 2.3509876e-38
0.088504188 -0.10409774 -0.011247799 2.3509873e-38
0.09010043 -0.10339431 -0.0083086938 2.3509879e-38
0.091936283 -0.10339431 -0.0083086938 2.3509168e-38
0.09463761 -0.10578094 -0.018280789 2.3416615e-38
0.096490957 -0.10578094 -0.018280789 2.3417333e-38
0.098344289 -0.10578094 -0.018280789 2.3509527e-38
-0.12291422 -0.10908265 -0.02428858 2.2866285e-38
-0.12105034 -0.10908265 -0.02428858 2.3418033e-38
-0.11918647 -0.10908265 -0.02428858 2.3418045e-38
-0.11732259 -0.10908265 -0.02428858 2.2864516e-38
-0.11545872 -0.10908265 -0.02428858 2.3509883e-38
-0.11359484 -0.10908265 -0.02428858 2.350988e-38
-0.11173097 -0.10908265 -0.02428858 2.3509883e-38
-0.1098671 -0.10908265 -0.02428858 2.3509883e-38
-0.10842504 -0.11005743 -0.028331921 2.3509883e-38
-0.10717041 -0.11150609 -0.034340784 2.3509883e-38
-0.10569271 -0.11247168 -0.038346097 2.3509527e-38
-0.10449133 -0.11414395 -0.045282528 2.3509527e-38
-0.10259064 -0.11414395 -0.045282528 2.3509527e-38
-0.10031333 -0.11319371 -0.041340992 2.3509527e-38
-0.098419555 -0.11319371 -0.041340992 2.3509527e-38
-0.096888594 -0.11414395 -0.045282528 2.3509527e-38
-0.094361581 -0.11247168 -0.038346097 2.3509527e-38
-0.091846623 -0.11076607 -0.031271264 2.3509527e-38
-0.089715399 -0.11005743 -0.028331921 2.3509527e-38
-0.087844439 -0.11005743 -0.028331921 2.3509527e-38
-0.086218275 -0.11076607 -0.031271264 2.3509527e-38
-0.084592424 -0.11150609 -0.034340784 2.3509883e-38
-0.082710914 -0.11150609 -0.034340784 2.350988e-38
-0.080829419 -0.11150609 -0.034340784 2.3418045e-38
-0.078947924 -0.11150609 -0.034340784 2.3418045e-38
-0.077066429 -0.11150609 -0.034340784 2.3234372e-38
-0.073290743 -0.10523017 -0.0083086938 2.3142538e-38
-0.071663596 -0.10593875 -0.011247799 2.3142537e-38
-0.069822587 -0.10593875 -0.011247799 2.3142538e-38
-0.068861865 -0.10908265 -0.02428858 2.3142537e-38
-0.066997997 -0.10908265 -0.02428858 2.3234374e-38
-0.06513413 -0.10908265 -0.02428858 2.3234374e-38
-0.063704871 -0.11076607 -0.031271264 2.350988e-38
-0.061828755 -0.11076607 -0.031271264 2.350988e-38
-0.059779994 -0.11005743 -0.028331921 2.3509883e-38
-0.057678632 -0.10908265 -0.02428858 2.3509883e-38
-0.05581475 -0.10908265 -0.02428858 2.3509886e-38
-0.053253502 -0.10593875 -0.011247799 2.3509886e-38
-0.051412493 -0.10593875 -0.011247799 2.3509886e-38
-0.050725438 -0.11150609 -0.034340784 2.3509886e-38
-0.048554219 -0.11005743 -0.028331921 2.3509886e-38
-0.046683252 -0.11005743 -0.028331921 2.3509886e-38
-0.044943705 -0.11076607 -0.031271264 2.3509886e-38
-0.043199442 -0.11150609 -0.034340784 2.3509886e-38
-0.041317947 -0.11150609 -0.034340784 2.3509886e-38
-0.039436452 -0.11150609 -0.034340784 2.3509886e-38
-0.037439238 -0.11076607 -0.031271264 2.3509886e-38
-0.035563122 -0.11076607 -0.031271264 2.3509886e-38
-0.033687007 -0.11076607 -0.031271264 2.3509886e-38
-0.031810887 -0.11076607 -0.031271264 2.3509886e-38
-0.029934771 -0.11076607 -0.031271264 2.3509886e-38
-0.028058656 -0.11076607 -0.031271264 2.3509886e-38
-0.026265956 -0.11150609 -0.034340784 2.3509886e-38
-0.024384458 -0.11150609 -0.034340784 2.3509886e-38
-0.022502959 -0.11150609 -0.034340784 2.3509886e-38
-0.02062146 -0.11150609 -0.034340784 2.3509886e-38
-0.018739961 -0.11150609 -0.034340784 2.3509886e-38
-0.016858462 -0.11150609 -0.034340784 2.3509886e-38
-0.014976963 -0.11150609 -0.034340784 2.3509886e-38
-0.013049722 -0.11076607 -0.031271264 2.3509886e-38
-0.011173602 -0.11076607 -0.031271264 2.3509886e-38
-0.0092974864 -0.11076607 -0.031271264 2.3509886e-38
-0.0074213687 -0.11076607 -0.031271264 2.3509886e-38
-0.0055452511 -0.11076607 -0.031271264 2.3509886e-38
-0.0036691353 -0.11076607 -0.031271264 2.3509886e-38
-0.0017801337 -0.11005743 -0.028331921 2.3509886e-38
9.0828165e-05 -0.11005743 -0.028331921 2.3509886e-38
0.0019617919 -0.11005743 -0.028331921 2.3509886e-38
0.0038327556 -0.11005743 -0.028331921 2.3509886e-38
0.0057037193 -0.11005743 -0.028331921 2.3509886e-38
0.0075746812 -0.11005743 -0.028331921 2.3509886e-38
0.0094456449 -0.11005743 -0.028331921 2.3509886e-38
0.011284706 -0.10908265 -0.02428858 2.3509886e-38
0.01314858 -0.10908265 -0.02428858 2.3509886e-38
0.014978123 -0.1083564 -0.021276161 2.3509886e-38
0.016797327 -0.10763429 -0.018280789 2.3509886e-38
0.018606277 -0.10691623 -0.015302345 2.3509886e-38
0.020454396 -0.10691623 -0.015302345 2.3509886e-38
0.022302512 -0.10691623 -0.015302345 2.3509886e-38
0.02415063 -0.10691623 -0.015302345 2.3509886e-38
0.025998749 -0.10691623 -0.015302345 2.3509886e-38
0.027846867 -0.10691623 -0.015302345 2.3509886e-38
0.029694986 -0.10691623 -0.015302345 2.3509886e-38
0.031543106 -0.10691623 -0.015302345 2.3509886e-38
0.033391222 -0.10691623 -0.015302345 2.3509886e-38
0.035239339 -0.10691623 -0.015302345 2.3509886e-38
0.037087455 -0.10691623 -0.015302345 2.3509886e-38
0.03879695 -0.10593875 -0.011247799 2.3509886e-38
0.040532317 -0.10523017 -0.0083086938 2.3509886e-38
0.042368174 -0.10523017 -0.0083086938 2.3509886e-38
0.044084474 -0.10449956 -0.0052781552 2.3509886e-38
0.045915019 -0.10449956 -0.0052781552 2.3509886e-38
0.04787574 -0.10523017 -0.0083086938 2.3509886e-38
0.049576104 -0.10449956 -0.0052781552 2.3509886e-38
0.051406644 -0.10449956 -0.0052781552 2.3509886e-38
0.053091902 -0.10377313 -0.0022650212 2.3509886e-38
0.054917164 -0.10377313 -0.0022650212 2.3509886e-38
0.056742422 -0.10377313 -0.0022650212 2.3509886e-38
0.058407478 -0.10305093 0.00073070824 2.3509886e-38
0.059678927 -0.10065642 0.010662988 2.3509886e-38
0.061481517 -0.10065642 0.010662988 2.341805e-38
0.063284114 -0.10065642 0.010662988 2.3234379e-38
0.065086707 -0.10065642 0.010662988 2.3234379e-38
0.066889301 -0.10065642 0.010662988 2.3234379e-38
0.06869188 -0.10065642 0.010662988 2.341805e-38
0.072792545 -0.10908265 -0.02428858 2.341805e-38
0.074656412 -0.10908265 -0.02428858 2.3509886e-38
0.076520294 -0.10908265 -0.02428858 2.3509886e-38
0.078384161 -0.10908265 -0.02428858 2.3509886e-38
0.080028847 -0.1083564 -0.021276161 2.3509883e-38
0.081664234 -0.10763429 -0.018280789 2.3509883e-38
0.083517566 -0.10763429 -0.018280789 2.3509883e-38
0.085604623 -0.1083564 -0.021276161 2.3509521e-38
0.087463208 -0.1083564 -0.021276161 2.3509521e-38
0.088504188 -0.10593875 -0.011247799 2.3509879e-38
0.09010043 -0.10523017 -0.0083086938 2.3509527e-38
0.091936283 -0.10523017 -0.0083086938 2.3416974e-38
0.094027229 -0.10593875 -0.011247799 2.314075e-38
0.095868237 -0.10593875 -0.011247799 2.3141109e-38
0.097709246 -0.10593875 -0.011247799 2.3141109e-38
0.099550255 -0.10593875 -0.011247799 2.3325497e-38
-0.12291422 -0.11094652 -0.02428858 2.3233999e-38
-0.12105034 -0.11094652 -0.02428858 2.3326187e-38
-0.11918647 -0.11094652 -0.02428858 2.3142509e-38
-0.11732259 -0.11094652 -0.02428858 2.3418023e-38
-0.11545872 -0.11094652 -0.02428858 2.3509876e-38
-0.11359484 -0.11094652 -0.02428858 2.3509883e-38
-0.11173097 -0.11094652 -0.02428858 2.3509886e-38
-0.1098671 -0.11094652 -0.02428858 2.3509886e-38
