# .PCD v0.7 - Point Cloud Data file format
VERSION 0.7
FIELDS x y z rgb
SIZE 4 4 4 4
TYPE F F F F
COUNT 1 1 1 1
WIDTH 953
HEIGHT 1
VIEWPOINT 0 0 0 1 0 0 0
POINTS 953
DATA ascii
-0.061569903 -0.13851084 0.0025858246 2.2771967e-38
-0.059600193 -0.13766994 0.005611714 2.3325129e-38
-0.057642031 -0.13683395 0.0086199604 2.3325483e-38
-0.055695336 -0.13600285 0.011610564 2.332548e-38
-0.053908568 -0.13600285 0.011610564 2.332548e-38
-0.051978443 -0.13517661 0.014583644 2.3325478e-38
-0.05005483 -0.13432692 0.017641123 2.3325835e-38
-0.048278634 -0.13432692 0.017641123 2.3509144e-38
-0.046371888 -0.13348235 0.020680245 2.3509497e-38
-0.044601019 -0.13348235 0.020680245 2.3417656e-38
-0.042830154 -0.13348235 0.020680245 2.3417651e-38
-0.040949196 -0.13267075 0.023600753 2.3509482e-38
-0.038968176 -0.13100632 0.029589947 2.3417637e-38
-0.037212931 -0.13100632 0.029589947 2.3325798e-38
-0.035358217 -0.13015409 0.032656547 2.3233597e-38
-0.033608351 -0.13015409 0.032656547 2.3233953e-38
-0.031858481 -0.13015409 0.032656547 2.332507e-38
-0.030191954 -0.13100632 0.029589947 2.3230363e-38
-0.028358746 -0.13015409 0.032656547 2.3508728e-38
-0.026539054 -0.12933435 0.035606321 2.3509768e-38
-0.024727952 -0.12849234 0.038636204 2.3234242e-38
-0.022988569 -0.12849234 0.038636204 2.3234254e-38
-0.021249186 -0.12849234 0.038636204 2.3509768e-38
-0.019459639 -0.12765543 0.041647729 2.3414695e-38
-0.017725538 -0.12765543 0.041647729 2.3042659e-38
-0.015964743 -0.12709136 0.043677386 2.1748647e-38
-0.014200225 -0.12626295 0.046658393 1.7137423e-38
-0.012446333 -0.12543948 0.049621459 1.6398456e-38
-0.010702224 -0.12459467 0.052661475 2.3503686e-38
-0.0089874305 -0.12459467 0.052661475 2.3508421e-38
-0.0072598085 -0.12378122 0.05558854 2.3509161e-38
-0.0055368468 -0.12237583 0.060645636 2.2683342e-38
-0.0038360525 -0.12237583 0.060645636 2.2866988e-38
-0.00213526 -0.12237583 0.060645636 2.3050597e-38
-0.00043446571 -0.12237583 0.060645636 2.3326091e-38
0.0012532994 -0.12154986 0.063617826 2.3050607e-38
0.002948883 -0.12154986 0.063617826 2.2866952e-38
0.0046052178 -0.12016745 0.06859225 2.3142109e-38
0.0062920786 -0.12016745 0.06859225 2.341689e-38
0.0079445811 -0.11932962 0.071607053 2.3507987e-38
0.0096261557 -0.11932962 0.071607053 2.3507606e-38
0.011263081 -0.11849703 0.074603021 2.3498946e-38
0.012939403 -0.11849703 0.074603021 2.3127276e-38
0.014615724 -0.11849703 0.074603021 2.2204971e-38
0.016292047 -0.11849703 0.074603021 2.2298271e-38
0.017922847 -0.11791982 0.076680064 2.3316059e-38
0.01952536 -0.11709599 0.079644442 2.3507684e-38
0.021066016 -0.11570965 0.084633052 2.3509873e-38
0.022724751 -0.11570965 0.084633052 2.3509886e-38
0.024383487 -0.11570965 0.084633052 2.3509527e-38
0.026042225 -0.11570965 0.084633052 2.3509869e-38
0.027700961 -0.11570965 0.084633052 2.3509835e-38
0.029359695 -0.11570965 0.084633052 2.3417963e-38
0.031018432 -0.11570965 0.084633052 2.3326089e-38
0.032677166 -0.11570965 0.084633052 2.3326059e-38
0.034412973 -0.11625256 0.08267951 2.3417874e-38
0.036075134 -0.11625256 0.08267951 2.3509699e-38
0.037867669 -0.11709599 0.079644442 2.3509701e-38
0.039535154 -0.11709599 0.079644442 2.3509348e-38
0.04134037 -0.11791982 0.076680064 2.3508277e-38
0.043113198 -0.11849703 0.074603021 2.3416803e-38
0.044939227 -0.11932962 0.071607053 2.3416803e-38
0.046620805 -0.11932962 0.071607053 2.3324607e-38
0.048302379 -0.11932962 0.071607053 2.3233128e-38
0.050150461 -0.12016745 0.06859225 2.3141296e-38
0.051837321 -0.12016745 0.06859225 2.3050561e-38
0.053816363 -0.12154986 0.063617826 2.3326108e-38
0.055511948 -0.12154986 0.063617826 2.3509482e-38
0.05739253 -0.12237583 0.060645636 2.3508809e-38
0.059093323 -0.12237583 0.060645636 2.3508092e-38
0.060990736 -0.1232069 0.057655212 2.3415898e-38
0.062836282 -0.12378122 0.05558854 2.3325497e-38
0.06474866 -0.12459467 0.052661475 2.3418045e-38
0.066463456 -0.12459467 0.052661475 2.3418033e-38
0.068399452 -0.12543948 0.049621459 2.3509866e-38
0.070119575 -0.12543948 0.049621459 2.3417676e-38
0.072065689 -0.12626295 0.046658393 2.3509153e-38
0.073791005 -0.12626295 0.046658393 2.350986e-38
0.075916059 -0.12765543 0.041647729 2.3509841e-38
0.077895693 -0.12849234 0.038636204 2.3416164e-38
0.079635076 -0.12849234 0.038636204 2.2861519e-38
0.081632107 -0.12933435 0.035606321 2.2579865e-38
0.08337681 -0.12933435 0.035606321 2.3131585e-38
0.085382685 -0.13015409 0.032656547 2.3314908e-38
0.087679058 -0.13183604 0.026604231 2.3406024e-38
0.089716017 -0.13267075 0.023600753 2.3312747e-38
0.091755703 -0.13348235 0.020680245 2.3310952e-38
0.093816981 -0.13432692 0.017641123 2.3401005e-38
0.095593184 -0.13432692 0.017641123 2.3400284e-38
0.097369373 -0.13432692 0.017641123 2.3493179e-38
0.099145576 -0.13432692 0.017641123 2.2664492e-38
0.10092176 -0.13432692 0.017641123 2.1284446e-38
0.10301693 -0.13517661 0.014583644 1.5202091e-38
0.10479848 -0.13517661 0.014583644 1.1423576e-38
-0.091268778 -0.14924543 -0.029353324 2.0008961e-38
-0.089410186 -0.14924543 -0.029353324 2.0470667e-38
-0.087551594 -0.14924543 -0.029353324 2.0839449e-38
-0.085693002 -0.14924543 -0.029353324 2.0655061e-38
-0.083605945 -0.14840777 -0.026357953 2.047067e-38
-0.081530675 -0.14757483 -0.023379508 2.0655058e-38
-0.079387531 -0.14644094 -0.019324962 2.0747607e-38
-0.077337816 -0.14561899 -0.016385857 2.0655407e-38
-0.075292066 -0.1447715 -0.013355318 2.0562488e-38
-0.073258132 -0.14392884 -0.010342184 2.0009312e-38
-0.071432874 -0.14392884 -0.010342184 2.0101146e-38
-0.069415897 -0.14309107 -0.007346455 2.0745438e-38
-0.067595899 -0.14309107 -0.007346455 2.2404243e-38
-0.065775886 -0.14309107 -0.007346455 2.3325846e-38
-0.06372492 -0.14199139 -0.0034142174 2.3048545e-38
-0.061569903 -0.14031343 0.0025858246 2.350988e-38
-0.059600193 -0.13946722 0.005611714 2.3324401e-38
-0.057642031 -0.13862596 0.0086199604 2.3324756e-38
-0.055695336 -0.13778962 0.011610564 2.3324756e-38
-0.053908568 -0.13778962 0.011610564 2.3324753e-38
-0.051978443 -0.13695817 0.014583644 2.3325109e-38
-0.05005483 -0.13610314 0.017641123 2.3325106e-38
-0.048278634 -0.13610314 0.017641123 2.3325461e-38
-0.046371888 -0.13525321 0.020680245 2.3325455e-38
-0.044601019 -0.13525321 0.020680245 2.3233614e-38
-0.042830154 -0.13525321 0.020680245 2.3233967e-38
-0.040949196 -0.13443647 0.023600753 2.32336e-38
-0.038968176 -0.13276155 0.029589947 2.3233953e-38
-0.037212931 -0.13276155 0.029589947 2.3141753e-38
-0.035457686 -0.13276155 0.029589947 2.3049911e-38
-0.033608351 -0.13190396 0.032656547 2.3049911e-38
-0.031858481 -0.13190396 0.032656547 2.3232863e-38
-0.030191954 -0.13276155 0.029589947 2.3508379e-38
-0.028358746 -0.13190396 0.032656547 2.3508364e-38
-0.026608877 -0.13190396 0.032656547 2.3232459e-38
-0.024727952 -0.13023172 0.038636204 2.3325357e-38
-0.022988569 -0.13023172 0.038636204 2.3509759e-38
-0.021249186 -0.13023172 0.038636204 2.350688e-38
-0.019459639 -0.12938951 0.041647729 2.1014001e-38
-0.017725538 -0.12938951 0.041647729 1.8337801e-38
-0.015964743 -0.12882192 0.043677386 1.8519656e-38
-0.014200225 -0.12798826 0.046658393 1.7781376e-38
-0.012446333 -0.12715961 0.049621459 1.9163268e-38
-0.010702224 -0.12630944 0.052661475 2.3508383e-38
-0.008969469 -0.12549089 0.05558854 2.3507341e-38
-0.0072507486 -0.12491293 0.057655212 2.3509869e-38
-0.0055368468 -0.12407662 0.060645636 2.2683324e-38
-0.0038360525 -0.12407662 0.060645636 2.1948605e-38
-0.00213526 -0.12407662 0.060645636 2.249958e-38
-0.00043446571 -0.12407662 0.060645636 2.2866914e-38
0.0012532994 -0.12324543 0.063617826 2.295877e-38
0.002948883 -0.12324543 0.063617826 2.3142457e-38
0.0046052178 -0.12185432 0.06859225 2.332577e-38
0.0062920786 -0.12185432 0.06859225 2.3508355e-38
0.0079445811 -0.12101121 0.071607053 2.3507974e-38
0.0096261557 -0.12101121 0.071607053 2.3507599e-38
0.011263081 -0.12017335 0.074603021 2.3500023e-38
0.012939403 -0.12017335 0.074603021 2.2482634e-38
0.014615724 -0.12017335 0.074603021 2.1560339e-38
0.016292047 -0.12017335 0.074603021 2.2575596e-38
0.017857878 -0.11876349 0.079644442 2.3502265e-38
0.01952536 -0.11876349 0.079644442 2.3506615e-38
0.021066016 -0.11736839 0.084633052 2.3508797e-38
0.022724751 -0.11736839 0.084633052 2.3509527e-38
0.024383487 -0.11736839 0.084633052 2.3509168e-38
0.026042225 -0.11736839 0.084633052 2.3509153e-38
0.027700961 -0.11736839 0.084633052 2.3509119e-38
0.029359695 -0.11736839 0.084633052 2.350908e-38
0.031018432 -0.11736839 0.084633052 2.3509399e-38
0.032677166 -0.11736839 0.084633052 2.3416814e-38
0.034335904 -0.11736839 0.084633052 2.350827e-38
0.036075134 -0.11791472 0.08267951 2.3324228e-38
0.037737295 -0.11791472 0.08267951 2.3509702e-38
0.039535154 -0.11876349 0.079644442 2.3509349e-38
0.04134037 -0.1195925 0.076680064 2.3508637e-38
0.043113198 -0.12017335 0.074603021 2.3508641e-38
0.044789519 -0.12017335 0.074603021 2.3508281e-38
0.046620805 -0.12101121 0.071607053 2.3508281e-38
0.048302379 -0.12101121 0.071607053 2.3324607e-38
0.050150461 -0.12185432 0.06859225 2.3232776e-38
0.051837321 -0.12185432 0.06859225 2.3234232e-38
0.053816363 -0.12324543 0.063617826 2.3417942e-38
0.055511948 -0.12324543 0.063617826 2.3509832e-38
0.05739253 -0.12407662 0.060645636 2.350987e-38
0.059093323 -0.12407662 0.060645636 2.3509168e-38
0.060990736 -0.12491293 0.057655212 2.3509168e-38
0.062836282 -0.12549089 0.05558854 2.3509883e-38
0.064545944 -0.12549089 0.05558854 2.3509866e-38
0.066679329 -0.12715961 0.049621459 2.3418012e-38
0.068399452 -0.12715961 0.049621459 2.3234334e-38
0.070119575 -0.12715961 0.049621459 2.3233615e-38
0.072065689 -0.12798826 0.046658393 2.3141055e-38
0.074023597 -0.12882192 0.043677386 2.3509108e-38
0.075916059 -0.12938951 0.041647729 2.3509446e-38
0.077895693 -0.13023172 0.038636204 2.2771492e-38
0.079635076 -0.13023172 0.038636204 2.2124659e-38
0.081374466 -0.13023172 0.038636204 2.2211437e-38
0.08337681 -0.13107903 0.035606321 2.3038671e-38
0.085382685 -0.13190396 0.032656547 2.3406021e-38
0.087679058 -0.13359652 0.026604231 2.3497504e-38
0.089439541 -0.13359652 0.026604231 2.3403866e-38
0.09148176 -0.13443647 0.023600753 2.3402073e-38
0.093526572 -0.13525321 0.020680245 2.349284e-38
0.095297441 -0.13525321 0.020680245 2.3493198e-38
0.097369373 -0.13610314 0.017641123 2.3493539e-38
0.099145576 -0.13610314 0.017641123 2.2572298e-38
0.10092176 -0.13610314 0.017641123 2.0915307e-38
0.10301693 -0.13695817 0.014583644 1.4925505e-38
0.10479848 -0.13695817 0.014583644 1.1056224e-38
-0.081530675 -0.14942293 -0.023379508 2.0932716e-38
-0.079387531 -0.14828195 -0.019324962 2.0748324e-38
-0.077546522 -0.14828195 -0.019324962 2.0748684e-38
-0.075501963 -0.14745484 -0.016385857 2.0656845e-38
-0.073461533 -0.14660202 -0.013355318 2.0379536e-38
-0.071432874 -0.14575411 -0.010342184 2.0563565e-38
-0.069607615 -0.14575411 -0.010342184 2.1668472e-38
-0.067595899 -0.14491107 -0.007346455 2.249715e-38
-0.065775886 -0.14491107 -0.007346455 2.2588264e-38
-0.06372492 -0.14380451 -0.0034142174 2.2495348e-38
-0.061569903 -0.14211603 0.0025858246 2.2494629e-38
-0.059600193 -0.14126451 0.005611714 2.3231116e-38
-0.057642031 -0.14041798 0.0086199604 2.2862333e-38
-0.055695336 -0.13957639 0.011610564 2.2954885e-38
-0.053908568 -0.13957639 0.011610564 2.3415861e-38
-0.051978443 -0.13873972 0.014583644 2.3324742e-38
-0.05005483 -0.13787933 0.017641123 2.2956312e-38
-0.048278634 -0.13787933 0.017641123 2.2771917e-38
-0.046502437 -0.13787933 0.017641123 2.2864463e-38
-0.044601019 -0.13702409 0.020680245 2.2588228e-38
-0.042830154 -0.13702409 0.020680245 2.3049559e-38
-0.040949196 -0.13620223 0.023600753 2.3417976e-38
-0.038968176 -0.13451682 0.029589947 2.3417972e-38
-0.037212931 -0.13451682 0.029589947 2.3050618e-38
-0.035457686 -0.13451682 0.029589947 2.2774027e-38
-0.033702444 -0.13451682 0.029589947 2.3049894e-38
-0.031947199 -0.13451682 0.029589947 2.3417958e-38
-0.030191954 -0.13451682 0.029589947 2.3509084e-38
-0.028358746 -0.13365383 0.032656547 2.3507639e-38
-0.026608877 -0.13365383 0.032656547 2.3507269e-38
-0.024794359 -0.13282375 0.035606321 2.3506901e-38
-0.022988569 -0.13197111 0.038636204 2.3505816e-38
-0.021249186 -0.13197111 0.038636204 2.3502208e-38
-0.019459639 -0.13112362 0.041647729 2.1376301e-38
-0.017695289 -0.13055246 0.043677386 1.741045e-38
-0.015925545 -0.12971358 0.046658393 1.4735704e-38
-0.014200225 -0.12971358 0.046658393 2.0175985e-38
-0.012446333 -0.12887974 0.049621459 2.35019e-38
-0.010702224 -0.12802424 0.052661475 2.3507323e-38
-0.008969469 -0.12720053 0.05558854 2.350697e-38
-0.0072507486 -0.12661897 0.057655212 2.3509841e-38
-0.0055368468 -0.12577744 0.060645636 2.341799e-38
-0.0038360525 -0.12577744 0.060645636 2.2591445e-38
-0.00213526 -0.12577744 0.060645636 2.2224077e-38
-0.00043446571 -0.12577744 0.060645636 2.2958761e-38
0.0012663286 -0.12577744 0.060645636 2.314243e-38
0.002948883 -0.12494104 0.063617826 2.2865119e-38
0.0046204329 -0.12408386 0.066663802 2.3507962e-38
0.0062920786 -0.12354116 0.06859225 2.3509761e-38
0.0079445811 -0.12269278 0.071607053 2.3508669e-38
0.0095867589 -0.12184967 0.074603021 2.3503983e-38
0.011263081 -0.12184967 0.074603021 2.303689e-38
0.012939403 -0.12184967 0.074603021 2.1653251e-38
0.014615724 -0.12184967 0.074603021 2.147068e-38
0.016250167 -0.12126519 0.076680064 2.3500452e-38
0.017857878 -0.12043096 0.079644442 2.3508762e-38
0.01940728 -0.11902712 0.084633052 2.3508787e-38
0.021066016 -0.11902712 0.084633052 2.3508444e-38
0.022724751 -0.11902712 0.084633052 2.3509168e-38
0.024383487 -0.11902712 0.084633052 2.3509168e-38
0.026042225 -0.11902712 0.084633052 2.350915e-38
0.027700961 -0.11902712 0.084633052 2.3508397e-38
0.029359695 -0.11902712 0.084633052 2.3506922e-38
0.031018432 -0.11902712 0.084633052 2.3506162e-38
0.032677166 -0.11902712 0.084633052 2.3505776e-38
0.034335904 -0.11902712 0.084633052 2.3506116e-38
0.036075134 -0.11957689 0.08267951 2.3506828e-38
0.037737295 -0.11957689 0.08267951 2.3506111e-38
0.039535154 -0.12043096 0.079644442 2.3509716e-38
0.041202635 -0.12043096 0.079644442 2.3509726e-38
0.043113198 -0.12184967 0.074603021 2.3507209e-38
0.044789519 -0.12184967 0.074603021 2.3045871e-38
0.046465844 -0.12184967 0.074603021 2.3415009e-38
0.048302379 -0.12269278 0.071607053 2.3508281e-38
0.050150461 -0.12354116 0.06859225 2.3507925e-38
0.051947214 -0.12408386 0.066663802 2.249667e-38
0.053816363 -0.12494104 0.063617826 2.3326096e-38
0.055511948 -0.12494104 0.063617826 2.3509804e-38
0.05739253 -0.12577744 0.060645636 2.3509824e-38
0.059093323 -0.12577744 0.060645636 2.3509839e-38
0.060990736 -0.12661897 0.057655212 2.3509483e-38
0.062836282 -0.12720053 0.05558854 2.3509837e-38
0.064545944 -0.12720053 0.05558854 2.3509827e-38
0.066679329 -0.12887974 0.049621459 2.3140664e-38
0.068399452 -0.12887974 0.049621459 2.2956622e-38
0.070340373 -0.12971358 0.046658393 2.2864778e-38
0.072065689 -0.12971358 0.046658393 2.3233552e-38
0.074023597 -0.13055246 0.043677386 2.3417938e-38
0.075916059 -0.13112362 0.041647729 2.3417569e-38
0.077895693 -0.13197111 0.038636204 2.2680355e-38
0.079635076 -0.13197111 0.038636204 2.258491e-38
0.081374466 -0.13197111 0.038636204 2.2394741e-38
0.083632827 -0.13365383 0.032656547 2.3498203e-38
0.085382685 -0.13365383 0.032656547 2.3498576e-38
0.087679058 -0.13535701 0.026604231 2.3496785e-38
0.089439541 -0.13535701 0.026604231 2.3495354e-38
0.09148176 -0.13620223 0.023600753 2.3494639e-38
0.093247503 -0.13620223 0.023600753 2.3493558e-38
0.095297441 -0.13702409 0.020680245 2.349247e-38
0.09706831 -0.13702409 0.020680245 2.2939288e-38
0.099145576 -0.13787933 0.017641123 2.2387553e-38
0.10092176 -0.13787933 0.017641123 2.0731283e-38
0.10269795 -0.13787933 0.017641123 1.4741113e-38
-0.075501963 -0.14929073 -0.016385857 2.2406753e-38
-0.073461533 -0.14843257 -0.013355318 2.1945774e-38
-0.071432874 -0.14757936 -0.010342184 2.1853213e-38
-0.069415897 -0.14673109 -0.007346455 2.2036524e-38
-0.067595899 -0.14673109 -0.007346455 2.2220189e-38
-0.065775886 -0.14673109 -0.007346455 2.2127268e-38
-0.06372492 -0.14561762 -0.0034142174 2.2403134e-38
-0.061569903 -0.14391862 0.0025858246 2.2955585e-38
-0.059600193 -0.1430618 0.005611714 2.3138542e-38
-0.057642031 -0.14220999 0.0086199604 2.2769039e-38
-0.055695336 -0.14136316 0.011610564 2.2492452e-38
-0.053908568 -0.14136316 0.011610564 2.267684e-38
-0.051978443 -0.14052127 0.014583644 2.2769033e-38
-0.05005483 -0.13965552 0.017641123 2.2861583e-38
-0.048278634 -0.13965552 0.017641123 2.3046328e-38
-0.046502437 -0.13965552 0.017641123 2.3415105e-38
-0.044601019 -0.13879494 0.020680245 2.3508735e-38
-0.042830154 -0.13879494 0.020680245 2.3508368e-38
-0.040949196 -0.13796796 0.023600753 2.3415448e-38
-0.038968176 -0.13627206 0.029589947 2.3138855e-38
-0.037212931 -0.13627206 0.029589947 2.2954821e-38
-0.035457686 -0.13627206 0.029589947 2.2954819e-38
-0.033702444 -0.13627206 0.029589947 2.3322878e-38
-0.031947199 -0.13627206 0.029589947 2.3506908e-38
-0.030191954 -0.13627206 0.029589947 2.3228522e-38
-0.028358746 -0.13540371 0.032656547 2.2766102e-38
-0.026539054 -0.13456844 0.035606321 2.1382087e-38
-0.024794359 -0.13456844 0.035606321 1.9996985e-38
-0.022988569 -0.13371049 0.038636204 1.9073219e-38
-0.021249186 -0.13371049 0.038636204 1.8518599e-38
-0.019459639 -0.13285773 0.041647729 1.8333482e-38
-0.017695289 -0.13228302 0.043677386 1.8240936e-38
-0.015925545 -0.1314389 0.046658393 2.2482311e-38
-0.014166456 -0.13059987 0.049621459 2.3503688e-38
-0.012417017 -0.12973903 0.052661475 2.3508389e-38
-0.010702224 -0.12973903 0.052661475 2.3509116e-38
-0.008969469 -0.1289102 0.05558854 2.3322193e-38
-0.0072507486 -0.128325 0.057655212 2.2772245e-38
-0.0055368468 -0.12747823 0.060645636 2.2407037e-38
-0.0038360525 -0.12747823 0.060645636 2.1947846e-38
-0.00213526 -0.12747823 0.060645636 2.2683257e-38
-0.00043446571 -0.12747823 0.060645636 2.2958758e-38
0.0012663286 -0.12747823 0.060645636 2.2958386e-38
0.002948883 -0.12663661 0.063617826 2.3508675e-38
0.0046204329 -0.1257741 0.066663802 2.350975e-38
0.0062920786 -0.12522803 0.06859225 2.3509025e-38
0.0079445811 -0.12437434 0.071607053 2.3502546e-38
0.0095867589 -0.12352599 0.074603021 2.2117457e-38
0.011263081 -0.12352599 0.074603021 2.128591e-38
0.012939403 -0.12352599 0.074603021 2.1101894e-38
0.014577486 -0.12293784 0.076680064 2.211715e-38
0.016250167 -0.12293784 0.076680064 2.3504786e-38
0.017857878 -0.12209846 0.079644442 2.3509133e-38
0.01940728 -0.12068586 0.084633052 2.3508793e-38
0.021066016 -0.12068586 0.084633052 2.3508446e-38
0.022724751 -0.12068586 0.084633052 2.3509168e-38
0.024383487 -0.12068586 0.084633052 2.3509527e-38
0.026042225 -0.12068586 0.084633052 2.350951e-38
0.027700961 -0.12068586 0.084633052 2.3508397e-38
0.029359695 -0.12068586 0.084633052 2.3506922e-38
0.031018432 -0.12068586 0.084633052 2.3505448e-38
0.032677166 -0.12068586 0.084633052 2.3505058e-38
0.034335904 -0.12068586 0.084633052 2.3505401e-38
0.036075134 -0.12123902 0.08267951 2.3506113e-38
0.037737295 -0.12123902 0.08267951 2.3411758e-38
0.039535154 -0.12209846 0.079644442 2.3506839e-38
0.041202635 -0.12209846 0.079644442 2.3507208e-38
0.043013051 -0.12293784 0.076680064 2.3229186e-38
0.044789519 -0.12352599 0.074603021 2.2952955e-38
0.046465844 -0.12352599 0.074603021 2.3321735e-38
0.048302379 -0.12437434 0.071607053 2.3506122e-38
0.049983952 -0.12437434 0.071607053 2.3046227e-38
0.051837321 -0.12522803 0.06859225 2.2588144e-38
0.053816363 -0.12663661 0.063617826 2.2958021e-38
0.055511948 -0.12663661 0.063617826 2.3417935e-38
0.05739253 -0.12747823 0.060645636 2.3232119e-38
0.059284698 -0.128325 0.057655212 2.2862987e-38
0.060990736 -0.128325 0.057655212 2.3046665e-38
0.062836282 -0.1289102 0.05558854 2.3323252e-38
0.064545944 -0.1289102 0.05558854 2.3507637e-38
0.066463456 -0.12973903 0.052661475 2.3509064e-38
0.068399452 -0.13059987 0.049621459 2.3507611e-38
0.070119575 -0.13059987 0.049621459 2.3139174e-38
0.072065689 -0.1314389 0.046658393 2.3047328e-38
0.074023597 -0.13228302 0.043677386 2.3139522e-38
0.075916059 -0.13285773 0.041647729 2.3231358e-38
0.077895693 -0.13371049 0.038636204 2.2862575e-38
0.079635076 -0.13371049 0.038636204 2.304408e-38
0.081632107 -0.13456844 0.035606321 2.2762436e-38
0.083898976 -0.13627206 0.029589947 2.3497841e-38
0.085654214 -0.13627206 0.029589947 2.3498213e-38
0.087409467 -0.13627206 0.029589947 2.3496066e-38
0.089439541 -0.13711749 0.026604231 2.3493915e-38
0.09148176 -0.13796796 0.023600753 2.3308089e-38
0.093247503 -0.13796796 0.023600753 2.2754189e-38
0.095013246 -0.13796796 0.023600753 2.201626e-38
0.09706831 -0.13879494 0.020680245 2.1464158e-38
0.099145576 -0.13965552 0.017641123 2.1649991e-38
0.10092176 -0.13965552 0.017641123 2.0546895e-38
0.10269795 -0.13965552 0.017641123 1.483331e-38
-0.071432874 -0.14940463 -0.010342184 2.2310216e-38
-0.069415897 -0.14855109 -0.007346455 2.2494604e-38
-0.067595899 -0.14855109 -0.007346455 2.2310568e-38
-0.065775886 -0.14855109 -0.007346455 2.1941422e-38
-0.06372492 -0.14743073 -0.0034142174 2.1941419e-38
-0.061569903 -0.14572121 0.0025858246 2.2309836e-38
-0.059600193 -0.14485909 0.005611714 2.3413664e-38
-0.057642031 -0.14400201 0.0086199604 2.3044519e-38
-0.055850018 -0.14400201 0.0086199604 2.2767213e-38
-0.053908568 -0.14314993 0.011610564 2.2859408e-38
-0.051978443 -0.14230286 0.014583644 2.3135272e-38
-0.05005483 -0.1414317 0.017641123 2.341114e-38
-0.048278634 -0.1414317 0.017641123 2.3503693e-38
-0.046502437 -0.1414317 0.017641123 2.3505132e-38
-0.044601019 -0.14056583 0.020680245 2.3501893e-38
-0.042830154 -0.14056583 0.020680245 2.350153e-38
-0.040835973 -0.13887797 0.026604231 2.3500811e-38
-0.038968176 -0.1380273 0.029589947 2.3501528e-38
-0.037212931 -0.1380273 0.029589947 2.3502969e-38
-0.035457686 -0.1380273 0.029589947 2.350297e-38
-0.033702444 -0.1380273 0.029589947 2.3502607e-38
-0.031947199 -0.1380273 0.029589947 2.3502239e-38
-0.030191954 -0.1380273 0.029589947 2.3502939e-38
-0.028358746 -0.13715358 0.032656547 2.3408207e-38
-0.026539054 -0.13631313 0.035606321 2.0550493e-38
-0.024794359 -0.13631313 0.035606321 1.7692783e-38
-0.022988569 -0.13544987 0.038636204 1.6310209e-38
-0.021249186 -0.13544987 0.038636204 1.5572647e-38
-0.019459639 -0.13459183 0.041647729 1.6403495e-38
-0.017695289 -0.13401355 0.043677386 1.8985347e-38
-0.015925545 -0.13316421 0.046658393 2.3505107e-38
-0.014131811 -0.13145383 0.052661475 2.3508723e-38
-0.012417017 -0.13145383 0.052661475 2.3509811e-38
-0.010702224 -0.13145383 0.052661475 2.3509806e-38
-0.008969469 -0.13061987 0.05558854 2.3508711e-38
-0.0072507486 -0.13003103 0.057655212 2.3234268e-38
-0.0055368468 -0.12917902 0.060645636 2.3234254e-38
-0.0038360525 -0.12917902 0.060645636 2.3142413e-38
-0.00213526 -0.12917902 0.060645636 2.2958384e-38
-0.00043446571 -0.12917902 0.060645636 2.2865472e-38
0.0012663286 -0.12917902 0.060645636 2.3232812e-38
0.002948883 -0.12833218 0.063617826 2.3509759e-38
0.0046204329 -0.12746434 0.066663802 2.3509767e-38
0.0062920786 -0.1269149 0.06859225 2.3508685e-38
0.0079445811 -0.12605591 0.071607053 2.3503291e-38
0.0095867589 -0.12520231 0.074603021 2.303944e-38
0.011232126 -0.12461053 0.076680064 2.1287016e-38
0.012904806 -0.12461053 0.076680064 2.2025677e-38
0.014522912 -0.12376593 0.079644442 2.3501905e-38
0.016190395 -0.12376593 0.079644442 2.3508406e-38
0.017791359 -0.12290119 0.08267951 2.35095e-38
0.01940728 -0.1223446 0.084633052 2.3509873e-38
0.020989662 -0.12148891 0.087636352 2.3509523e-38
0.022643132 -0.12148891 0.087636352 2.3417691e-38
0.024296602 -0.12148891 0.087636352 2.3509527e-38
0.025950072 -0.12148891 0.087636352 2.3509869e-38
0.027603542 -0.12148891 0.087636352 2.3508758e-38
0.029257014 -0.12148891 0.087636352 2.3506922e-38
0.030910484 -0.12148891 0.087636352 2.3505085e-38
0.032563955 -0.12148891 0.087636352 2.3504698e-38
0.034335904 -0.1223446 0.084633052 2.3505041e-38
0.036075134 -0.12290119 0.08267951 2.3505753e-38
0.037737295 -0.12290119 0.08267951 2.3319563e-38
0.039535154 -0.12376593 0.079644442 2.3505759e-38
0.041202635 -0.12376593 0.079644442 2.3505767e-38
0.043013051 -0.12461053 0.076680064 2.3137346e-38
0.044789519 -0.12520231 0.074603021 2.3137346e-38
0.046465844 -0.12520231 0.074603021 2.3506126e-38
0.048302379 -0.12605591 0.071607053 2.3506122e-38
0.049983952 -0.12605591 0.071607053 2.2861833e-38
0.051837321 -0.1269149 0.06859225 2.3139873e-38
0.053816363 -0.12833218 0.063617826 2.3325354e-38
0.055511948 -0.12833218 0.063617826 2.3509041e-38
0.057578664 -0.13003103 0.057655212 2.3323579e-38
0.059284698 -0.13003103 0.057655212 2.2953728e-38
0.060990736 -0.13003103 0.057655212 2.3045209e-38
0.062836282 -0.13061987 0.05558854 2.341291e-38
0.064545944 -0.13061987 0.05558854 2.3505102e-38
0.066463456 -0.13145383 0.052661475 2.3506531e-38
0.068399452 -0.13231997 0.049621459 2.3505081e-38
0.070119575 -0.13231997 0.049621459 2.3411793e-38
0.072065689 -0.13316421 0.046658393 2.3135557e-38
0.073791005 -0.13316421 0.046658393 2.3319226e-38
0.075916059 -0.13459183 0.041647729 2.3226312e-38
0.077895693 -0.13544987 0.038636204 2.2949726e-38
0.079635076 -0.13544987 0.038636204 2.3040476e-38
0.081374466 -0.13544987 0.038636204 2.2946104e-38
0.083632827 -0.13715358 0.032656547 2.3129056e-38
0.085382685 -0.13715358 0.032656547 2.3219824e-38
0.087409467 -0.1380273 0.029589947 2.2942169e-38
0.089439541 -0.13887797 0.026604231 2.2941097e-38
0.091200024 -0.13887797 0.026604231 2.2847464e-38
0.093247503 -0.13973372 0.023600753 2.2293566e-38
0.095013246 -0.13973372 0.023600753 2.1740026e-38
0.096778989 -0.13973372 0.023600753 2.1648544e-38
0.098839179 -0.14056583 0.020680245 2.2110967e-38
0.10061005 -0.14056583 0.020680245 2.0914958e-38
0.10238092 -0.14056583 0.020680245 1.4372332e-38
-0.06372492 -0.14924385 -0.0034142174 2.1571179e-38
-0.061569903 -0.14752381 0.0025858246 2.184704e-38
-0.059600193 -0.14665638 0.005611714 2.2398053e-38
-0.057642031 -0.14579402 0.0086199604 2.2489887e-38
-0.055850018 -0.14579402 0.0086199604 2.2765395e-38
-0.053908568 -0.1449367 0.011610564 2.3134178e-38
-0.051978443 -0.14408441 0.014583644 2.3410402e-38
-0.05005483 -0.14320792 0.017641123 2.3502239e-38
-0.048278634 -0.14320792 0.017641123 2.350152e-38
-0.046371888 -0.14233668 0.020680245 2.3501158e-38
-0.044601019 -0.14233668 0.020680245 2.350116e-38
-0.042830154 -0.14233668 0.020680245 2.3500801e-38
-0.040835973 -0.14063846 0.026604231 2.3499721e-38
-0.039075494 -0.14063846 0.026604231 2.3496841e-38
-0.037315015 -0.14063846 0.026604231 2.2757833e-38
-0.035457686 -0.13978253 0.029589947 2.1281984e-38
-0.033702444 -0.13978253 0.029589947 1.989797e-38
-0.031947199 -0.13978253 0.029589947 1.8793051e-38
-0.030191954 -0.13978253 0.029589947 1.8701557e-38
-0.028358746 -0.13890342 0.032656547 1.9348349e-38
-0.026539054 -0.13805781 0.035606321 1.8059754e-38
-0.024794359 -0.13805781 0.035606321 1.8153742e-38
-0.022988569 -0.13718925 0.038636204 2.0645185e-38
-0.021193746 -0.13632594 0.041647729 2.2029927e-38
-0.019459639 -0.13632594 0.041647729 2.304482e-38
-0.017695289 -0.13574408 0.043677386 2.3509783e-38
-0.015925545 -0.13488953 0.046658393 2.350871e-38
-0.014131811 -0.13316862 0.052661475 2.3508355e-38
-0.012417017 -0.13316862 0.052661475 2.332504e-38
-0.010702224 -0.13316862 0.052661475 2.3325748e-38
-0.008969469 -0.13232954 0.05558854 2.3417569e-38
-0.0072507486 -0.13173707 0.057655212 2.3141332e-38
-0.0055368468 -0.1308798 0.060645636 2.3141682e-38
-0.0038360525 -0.1308798 0.060645636 2.3325354e-38
-0.00213526 -0.1308798 0.060645636 2.3509761e-38
-0.00043446571 -0.1308798 0.060645636 2.3509398e-38
0.0012532994 -0.13002776 0.063617826 2.3508322e-38
0.002948883 -0.13002776 0.063617826 2.3506169e-38
0.0046204329 -0.12915458 0.066663802 2.2765732e-38
0.0062920786 -0.12860174 0.06859225 2.1382087e-38
0.0079445811 -0.12773751 0.071607053 2.0920401e-38
0.0095867589 -0.12687863 0.074603021 2.1288835e-38
0.011232126 -0.12628321 0.076680064 2.3409348e-38
0.012904806 -0.12628321 0.076680064 2.3505155e-38
0.014522912 -0.12543343 0.079644442 2.350877e-38
0.016190395 -0.12543343 0.079644442 2.35095e-38
0.017791359 -0.12456335 0.08267951 2.3508788e-38
0.01940728 -0.12400334 0.084633052 2.323365e-38
0.020989662 -0.12314238 0.087636352 2.3142539e-38
0.022643132 -0.12314238 0.087636352 2.3234379e-38
0.024296602 -0.12314238 0.087636352 2.3509883e-38
0.025950072 -0.12314238 0.087636352 2.3509509e-38
0.027603542 -0.12314238 0.087636352 2.3508037e-38
0.029257014 -0.12314238 0.087636352 2.3506202e-38
0.030910484 -0.12314238 0.087636352 2.3412169e-38
0.032563955 -0.12314238 0.087636352 2.3503615e-38
0.034335904 -0.12400334 0.084633052 2.3503958e-38
0.036075134 -0.12456335 0.08267951 2.3505029e-38
0.037737295 -0.12456335 0.08267951 2.3411757e-38
0.039535154 -0.12543343 0.079644442 2.34132e-38
0.041202635 -0.12543343 0.079644442 2.3321372e-38
0.043013051 -0.12628321 0.076680064 2.3137346e-38
0.044789519 -0.12687863 0.074603021 2.3413933e-38
0.046465844 -0.12687863 0.074603021 2.3506846e-38
0.048302379 -0.12773751 0.071607053 2.3505762e-38
0.049983952 -0.12773751 0.071607053 2.2861111e-38
0.051837321 -0.12860174 0.06859225 2.3323177e-38
0.053637452 -0.12915458 0.066663802 2.350938e-38
0.055511948 -0.13002776 0.063617826 2.3509754e-38
0.057578664 -0.13173707 0.057655212 2.3509761e-38
0.059284698 -0.13173707 0.057655212 2.3508327e-38
0.060990736 -0.13173707 0.057655212 2.3506891e-38
0.062836282 -0.13232954 0.05558854 2.3504729e-38
0.064545944 -0.13232954 0.05558854 2.3502923e-38
0.066463456 -0.13316862 0.052661475 2.341e-38
0.068399452 -0.1340401 0.049621459 2.3502185e-38
0.070119575 -0.1340401 0.049621459 2.3502178e-38
0.072065689 -0.13488953 0.046658393 2.3502173e-38
0.073791005 -0.13488953 0.046658393 2.3501453e-38
0.075916059 -0.13632594 0.041647729 2.3499653e-38
0.077895693 -0.13718925 0.038636204 2.3405661e-38
0.079635076 -0.13718925 0.038636204 2.3129069e-38
0.081374466 -0.13718925 0.038636204 2.3036861e-38
0.083632827 -0.13890342 0.032656547 2.2576238e-38
0.085382685 -0.13890342 0.032656547 2.2206028e-38
0.087409467 -0.13978253 0.029589947 2.2112762e-38
0.089439541 -0.14063846 0.026604231 2.257231e-38
0.091200024 -0.14063846 0.026604231 2.3124405e-38
0.093247503 -0.14149947 0.023600753 2.3308071e-38
0.095013246 -0.14149947 0.023600753 2.3215509e-38
0.096778989 -0.14149947 0.023600753 2.2847444e-38
0.098544747 -0.14149947 0.023600753 2.3032923e-38
0.10031049 -0.14149947 0.023600753 2.109935e-38
-0.059600193 -0.14845367 0.005611714 2.1567558e-38
-0.057802904 -0.14845367 0.005611714 2.175195e-38
-0.055850018 -0.14758603 0.0086199604 2.1935622e-38
-0.053908568 -0.14672346 0.011610564 2.2211847e-38
-0.051978443 -0.14586596 0.014583644 2.2579548e-38
-0.05005483 -0.14498411 0.017641123 2.2946889e-38
-0.048278634 -0.14498411 0.017641123 2.2945807e-38
-0.046371888 -0.14410757 0.020680245 2.285289e-38
-0.044601019 -0.14410757 0.020680245 2.322023e-38
-0.042830154 -0.14410757 0.020680245 2.3219509e-38
-0.040835973 -0.14239894 0.026604231 2.3033675e-38
-0.039075494 -0.14239894 0.026604231 2.1926965e-38
-0.037315015 -0.14239894 0.026604231 2.054295e-38
-0.035457686 -0.14153777 0.029589947 1.9160016e-38
-0.033702444 -0.14153777 0.029589947 1.8329892e-38
-0.031947199 -0.14153777 0.029589947 1.7868911e-38
-0.030191954 -0.14153777 0.029589947 1.6393781e-38
-0.028358746 -0.1406533 0.032656547 1.8147645e-38
-0.026539054 -0.13980253 0.035606321 1.8058666e-38
-0.024794359 -0.13980253 0.035606321 1.8890934e-38
-0.022988569 -0.13892864 0.038636204 2.2397606e-38
-0.021193746 -0.13806005 0.041647729 2.3508648e-38
-0.019459639 -0.13806005 0.041647729 2.3508673e-38
-0.017695289 -0.13747464 0.043677386 2.3509779e-38
-0.015886579 -0.13576023 0.049621459 2.3509795e-38
-0.014166456 -0.13576023 0.049621459 2.332504e-38
-0.012417017 -0.13488342 0.052661475 2.2865486e-38
-0.010702224 -0.13488342 0.052661475 2.2957668e-38
-0.008969469 -0.13403918 0.05558854 2.304877e-38
-0.0072507486 -0.1334431 0.057655212 2.295585e-38
-0.0055368468 -0.13258059 0.060645636 2.3324633e-38
-0.0038360525 -0.13258059 0.060645636 2.3509751e-38
-0.00213526 -0.13258059 0.060645636 2.3507599e-38
-0.00043446571 -0.13258059 0.060645636 2.3505085e-38
0.0012532994 -0.13172336 0.063617826 2.3504014e-38
0.002948883 -0.13172336 0.063617826 2.3319274e-38
0.0046204329 -0.13084482 0.066663802 2.2304773e-38
0.0062920786 -0.13028862 0.06859225 2.1105525e-38
0.0079445811 -0.12941907 0.071607053 2.1197017e-38
0.0095867589 -0.12855496 0.074603021 2.1751284e-38
0.011232126 -0.1279559 0.076680064 2.3508777e-38
0.012904806 -0.1279559 0.076680064 2.3509143e-38
0.014522912 -0.1271009 0.079644442 2.3509153e-38
0.016129198 -0.12622552 0.08267951 2.3509157e-38
0.017791359 -0.12622552 0.08267951 2.3049261e-38
0.01940728 -0.12566207 0.084633052 2.3050703e-38
0.020989662 -0.12479584 0.087636352 2.295887e-38
0.022643132 -0.12479584 0.087636352 2.295887e-38
0.024296602 -0.12479584 0.087636352 2.3509883e-38
0.025950072 -0.12479584 0.087636352 2.3509504e-38
0.027603542 -0.12479584 0.087636352 2.3415479e-38
0.029257014 -0.12479584 0.087636352 2.3229612e-38
0.030910484 -0.12479584 0.087636352 2.3228134e-38
0.032563955 -0.12479584 0.087636352 2.3319224e-38
0.034335904 -0.12566207 0.084633052 2.3411402e-38
0.036075134 -0.12622552 0.08267951 2.3504669e-38
0.037737295 -0.12622552 0.08267951 2.3319561e-38
0.039535154 -0.1271009 0.079644442 2.3044418e-38
0.04134037 -0.1279559 0.076680064 2.2952589e-38
0.043113198 -0.12855496 0.074603021 2.3044429e-38
0.044789519 -0.12855496 0.074603021 2.3413211e-38
0.046465844 -0.12855496 0.074603021 2.3506123e-38
0.048302379 -0.12941907 0.071607053 2.3321007e-38
0.049983952 -0.12941907 0.071607053 2.276855e-38
0.05166553 -0.12941907 0.071607053 2.3322089e-38
0.053524185 -0.13028862 0.06859225 2.3507925e-38
0.055511948 -0.13172336 0.063617826 2.3509377e-38
0.057578664 -0.1334431 0.057655212 2.3509022e-38
0.059284698 -0.1334431 0.057655212 2.350759e-38
0.060990736 -0.1334431 0.057655212 2.3506151e-38
0.062836282 -0.13403918 0.05558854 2.3503269e-38
0.064545944 -0.13403918 0.05558854 2.3408191e-38
0.066463456 -0.13488342 0.052661475 2.3407103e-38
0.068399452 -0.13576023 0.049621459 2.3499292e-38
0.070119575 -0.13576023 0.049621459 2.3500008e-38
0.072065689 -0.13661484 0.046658393 2.3500006e-38
0.074023597 -0.13747464 0.043677386 2.3499286e-38
0.075916059 -0.13806005 0.041647729 2.3497487e-38
0.077895693 -0.13892864 0.038636204 2.3496414e-38
0.079635076 -0.13892864 0.038636204 2.3496409e-38
0.081632107 -0.13980253 0.035606321 2.3312005e-38
0.083632827 -0.1406533 0.032656547 2.2667355e-38
0.085382685 -0.1406533 0.032656547 2.2206025e-38
0.087409467 -0.14153777 0.029589947 2.2389346e-38
0.089439541 -0.14239894 0.026604231 2.3033639e-38
0.091200024 -0.14239894 0.026604231 2.3494257e-38
0.093247503 -0.1432652 0.023600753 2.3494257e-38
0.095013246 -0.1432652 0.023600753 2.3494256e-38
0.096778989 -0.1432652 0.023600753 2.266305e-38
0.098544747 -0.1432652 0.023600753 2.3032923e-38
0.10031049 -0.1432652 0.023600753 2.1191547e-38
0.10207623 -0.1432652 0.023600753 1.3725891e-38
-0.055850018 -0.14937802 0.0086199604 1.9813682e-38
-0.053908568 -0.14851023 0.011610564 1.9260505e-38
-0.051978443 -0.14764751 0.014583644 1.9075751e-38
-0.05005483 -0.1467603 0.017641123 1.9258701e-38
-0.048278634 -0.1467603 0.017641123 1.8981749e-38
-0.046502437 -0.1467603 0.017641123 1.8796276e-38
-0.044601019 -0.14587842 0.020680245 1.824274e-38
-0.042830154 -0.14587842 0.020680245 1.8518602e-38
-0.040949196 -0.14503096 0.023600753 1.8610435e-38
-0.039075494 -0.14415942 0.026604231 1.8609713e-38
-0.037315015 -0.14415942 0.026604231 1.9069968e-38
-0.035457686 -0.14329304 0.029589947 2.0176314e-38
-0.033702444 -0.14329304 0.029589947 2.174364e-38
-0.031947199 -0.14329304 0.029589947 2.303438e-38
-0.030191954 -0.14329304 0.029589947 2.349681e-38
-0.028358746 -0.14240317 0.032656547 2.3503647e-38
-0.026539054 -0.14154722 0.035606321 2.3503622e-38
-0.024794359 -0.14154722 0.035606321 2.3501087e-38
-0.022988569 -0.14066802 0.038636204 2.3506122e-38
-0.021193746 -0.13979416 0.041647729 2.3508654e-38
-0.019459639 -0.13979416 0.041647729 2.304482e-38
-0.017695289 -0.13920517 0.043677386 2.2124321e-38
-0.015886579 -0.13748036 0.049621459 2.2585313e-38
-0.014166456 -0.13748036 0.049621459 2.2401642e-38
-0.012417017 -0.13659821 0.052661475 2.2771848e-38
-0.010702224 -0.13659821 0.052661475 2.3324652e-38
-0.008969469 -0.13574885 0.05558854 2.3416479e-38
-0.0072507486 -0.13514914 0.057655212 2.3046978e-38
-0.0055447128 -0.13514914 0.057655212 2.3046623e-38
-0.0038360525 -0.13428138 0.060645636 2.350653e-38
-0.00213526 -0.13428138 0.060645636 2.2028884e-38
-0.00043446571 -0.13428138 0.060645636 2.1751583e-38
0.0012532994 -0.13341893 0.063617826 2.2212212e-38
0.002948883 -0.13341893 0.063617826 2.3410769e-38
0.0046204329 -0.13253506 0.066663802 2.35073e-38
0.0062920786 -0.13197549 0.06859225 2.3508039e-38
0.0079445811 -0.13110064 0.071607053 2.3508773e-38
0.0096261557 -0.13110064 0.071607053 2.3508787e-38
0.011232126 -0.12962858 0.076680064 2.3508797e-38
0.012904806 -0.12962858 0.076680064 2.3509163e-38
0.014522912 -0.1287684 0.079644442 2.3509527e-38
0.016129198 -0.12788768 0.08267951 2.3417691e-38
0.017748544 -0.12732081 0.084633052 2.3234379e-38
0.01940728 -0.12732081 0.084633052 2.3142544e-38
0.020989662 -0.12644933 0.087636352 2.2867037e-38
0.022643132 -0.12644933 0.087636352 2.295887e-38
0.024296602 -0.12644933 0.087636352 2.3418045e-38
0.025950072 -0.12644933 0.087636352 2.3509504e-38
0.027603542 -0.12644933 0.087636352 2.3415479e-38
0.029257014 -0.12644933 0.087636352 2.3137416e-38
0.030910484 -0.12644933 0.087636352 2.3135938e-38
0.032563955 -0.12644933 0.087636352 2.3227028e-38
0.034335904 -0.12732081 0.084633052 2.3411758e-38
0.036075134 -0.12788768 0.08267951 2.3504307e-38
0.037737295 -0.12788768 0.08267951 2.3505029e-38
0.039535154 -0.1287684 0.079644442 2.3504673e-38
0.04134037 -0.12962858 0.076680064 2.3228457e-38
0.043013051 -0.12962858 0.076680064 2.3321016e-38
0.044789519 -0.13023128 0.074603021 2.3505407e-38
0.046465844 -0.13023128 0.074603021 2.3506123e-38
0.048302379 -0.13110064 0.071607053 2.3505396e-38
0.049983952 -0.13110064 0.071607053 2.3136611e-38
0.05166553 -0.13110064 0.071607053 2.3505756e-38
0.053524185 -0.13197549 0.06859225 2.3506479e-38
0.055511948 -0.13341893 0.063617826 2.3505404e-38
0.05739253 -0.13428138 0.060645636 2.3503968e-38
0.059284698 -0.13514914 0.057655212 2.3503612e-38
0.060990736 -0.13514914 0.057655212 2.3503613e-38
0.062836282 -0.13574885 0.05558854 2.3502171e-38
0.064545944 -0.13574885 0.05558854 2.3500009e-38
0.066463456 -0.13659821 0.052661475 2.3129423e-38
0.068399452 -0.13748036 0.049621459 2.3496761e-38
0.070119575 -0.13748036 0.049621459 2.3496041e-38
0.072065689 -0.13834016 0.046658393 2.3495318e-38
0.074023597 -0.13920517 0.043677386 2.3493523e-38
0.075916059 -0.13979416 0.041647729 2.3493525e-38
0.077895693 -0.14066802 0.038636204 2.349425e-38
0.079635076 -0.14066802 0.038636204 2.3496046e-38
0.081632107 -0.14154722 0.035606321 2.3496397e-38
0.083632827 -0.14240317 0.032656547 2.3036137e-38
0.085382685 -0.14240317 0.032656547 2.3035786e-38
0.087409467 -0.14329304 0.029589947 2.3403855e-38
0.089164704 -0.14329304 0.029589947 2.3496053e-38
0.091200024 -0.14415942 0.026604231 2.3494614e-38
0.093247503 -0.14503096 0.023600753 2.3492814e-38
0.095013246 -0.14503096 0.023600753 2.3492092e-38
0.096778989 -0.14503096 0.023600753 2.2478662e-38
0.098544747 -0.14503096 0.023600753 2.294073e-38
0.10031049 -0.14503096 0.023600753 2.1652169e-38
0.10207623 -0.14503096 0.023600753 1.4924437e-38
0.10384198 -0.14503096 0.023600753 1.0963302e-38
-0.05019689 -0.14942907 0.014583644 1.8337113e-38
-0.048415337 -0.14942907 0.014583644 1.8059804e-38
-0.046502437 -0.14853649 0.017641123 1.7506628e-38
-0.044726241 -0.14853649 0.017641123 1.8060876e-38
-0.042830154 -0.14764927 0.020680245 1.8060872e-38
-0.040949196 -0.14679669 0.023600753 1.8245619e-38
-0.039183449 -0.14679669 0.023600753 1.8522203e-38
-0.037315015 -0.1459199 0.026604231 1.9351961e-38
-0.035457686 -0.14504828 0.029589947 2.0459388e-38
-0.033702444 -0.14504828 0.029589947 2.1934518e-38
-0.031947199 -0.14504828 0.029589947 2.3040515e-38
-0.030191954 -0.14504828 0.029589947 2.3406799e-38
-0.028283749 -0.14329191 0.035606321 2.3501156e-38
-0.026539054 -0.14329191 0.035606321 2.3502572e-38
-0.024727952 -0.1424074 0.038636204 2.3501837e-38
-0.022988569 -0.1424074 0.038636204 2.3502548e-38
-0.021193746 -0.14152823 0.041647729 2.350435e-38
-0.019425835 -0.14093573 0.043677386 2.3504366e-38
-0.017650861 -0.14006548 0.046658393 2.350366e-38
-0.015886579 -0.13920046 0.049621459 2.3042333e-38
-0.014166456 -0.13920046 0.049621459 2.322745e-38
-0.012417017 -0.13831301 0.052661475 2.3506189e-38
-0.010702224 -0.13831301 0.052661475 2.3507625e-38
-0.0089874305 -0.13831301 0.052661475 2.3506545e-38
-0.0072598085 -0.13745852 0.05558854 2.2768985e-38
-0.0055447128 -0.13685517 0.057655212 2.2031069e-38
-0.0038360525 -0.1359822 0.060645636 2.1845605e-38
-0.00213526 -0.1359822 0.060645636 2.2949791e-38
-0.00043446571 -0.1359822 0.060645636 2.2764683e-38
0.0012532994 -0.13511451 0.063617826 2.2765774e-38
0.002948883 -0.13511451 0.063617826 2.350371e-38
0.0046204329 -0.13422529 0.066663802 2.3508044e-38
0.0062920786 -0.13366233 0.06859225 2.3509139e-38
0.0079445811 -0.13278224 0.071607053 2.3509151e-38
0.0096261557 -0.13278224 0.071607053 2.3508081e-38
0.011232126 -0.13130127 0.076680064 2.3509168e-38
0.012904806 -0.13130127 0.076680064 2.332478e-38
0.014522912 -0.13043587 0.079644442 2.3232944e-38
0.016129198 -0.12954985 0.08267951 2.341805e-38
0.017748544 -0.12897955 0.084633052 2.3234379e-38
0.01940728 -0.12897955 0.084633052 2.3142544e-38
0.020989662 -0.12810279 0.087636352 2.3142544e-38
0.022643132 -0.12810279 0.087636352 2.3142544e-38
0.024296602 -0.12810279 0.087636352 2.3418045e-38
0.025950072 -0.12810279 0.087636352 2.350986e-38
0.027603542 -0.12810279 0.087636352 2.3415836e-38
0.029257014 -0.12810279 0.087636352 2.3229611e-38
0.030910484 -0.12810279 0.087636352 2.3228134e-38
0.032563955 -0.12810279 0.087636352 2.3319224e-38
0.034412973 -0.12954985 0.08267951 2.3504314e-38
0.036075134 -0.12954985 0.08267951 2.3505027e-38
0.037737295 -0.12954985 0.08267951 2.3506109e-38
0.039667688 -0.13130127 0.076680064 2.3505753e-38
0.04134037 -0.13130127 0.076680064 2.3505404e-38
0.043013051 -0.13130127 0.076680064 2.3505407e-38
0.044789519 -0.1319076 0.074603021 2.3505764e-38
0.046465844 -0.1319076 0.074603021 2.3505763e-38
0.048302379 -0.13278224 0.071607053 2.3505397e-38
0.049983952 -0.13278224 0.071607053 2.3505393e-38
0.05166553 -0.13278224 0.071607053 2.3506115e-38
0.053524185 -0.13366233 0.06859225 2.3505039e-38
0.055327695 -0.13422529 0.066663802 2.3227011e-38
0.057207529 -0.13511451 0.063617826 2.2949348e-38
0.059093323 -0.1359822 0.060645636 2.2949348e-38
0.060990736 -0.13685517 0.057655212 2.331777e-38
0.062836282 -0.13745852 0.05558854 2.3317049e-38
0.064545944 -0.13745852 0.05558854 2.3223411e-38
0.066463456 -0.13831301 0.052661475 2.2761711e-38
0.068399452 -0.13920046 0.049621459 2.3037216e-38
0.070119575 -0.13920046 0.049621459 2.3404201e-38
0.072065689 -0.14006548 0.046658393 2.3311285e-38
0.074023597 -0.14093573 0.043677386 2.3125459e-38
0.075916059 -0.14152823 0.041647729 2.3400968e-38
0.077895693 -0.1424074 0.038636204 2.3494249e-38
0.079635076 -0.1424074 0.038636204 2.3496405e-38
0.081632107 -0.14329191 0.035606321 2.3496397e-38
0.083898976 -0.14504828 0.029589947 2.3404204e-38
0.085654214 -0.14504828 0.029589947 2.3496045e-38
0.087409467 -0.14504828 0.029589947 2.3497131e-38
0.089164704 -0.14504828 0.029589947 2.3496053e-38
0.091200024 -0.1459199 0.026604231 2.3217667e-38
0.093247503 -0.14679669 0.023600753 2.2848523e-38
0.095013246 -0.14679669 0.023600753 2.3031835e-38
0.096778989 -0.14679669 0.023600753 2.2847087e-38
0.098544747 -0.14679669 0.023600753 2.2940375e-38
0.10000242 -0.1459199 0.026604231 2.1744013e-38
0.10145143 -0.14504828 0.029589947 1.5477259e-38
0.10320666 -0.14504828 0.029589947 1.1607956e-38
0.10496192 -0.14504828 0.029589947 8.2918263e-39
-0.042830154 -0.14942016 0.020680245 2.2764314e-38
-0.040949196 -0.14856245 0.023600753 2.2857228e-38
-0.039183449 -0.14856245 0.023600753 2.3042338e-38
-0.037315015 -0.14768039 0.026604231 2.2951582e-38
-0.035457686 -0.14680351 0.029589947 2.2676074e-38
-0.033702444 -0.14680351 0.029589947 2.2215459e-38
-0.031947199 -0.14680351 0.029589947 2.184668e-38
-0.030191954 -0.14680351 0.029589947 2.2858332e-38
-0.028283749 -0.14503662 0.035606321 2.22126e-38
-0.026539054 -0.14503662 0.035606321 2.2673204e-38
-0.024727952 -0.14414679 0.038636204 2.3410755e-38
-0.022988569 -0.14414679 0.038636204 2.3318908e-38
-0.021193746 -0.14326234 0.041647729 2.322671e-38
-0.019425835 -0.14266627 0.043677386 2.3410751e-38
-0.017650861 -0.14179079 0.046658393 2.3226364e-38
-0.015886579 -0.14092059 0.049621459 2.3503322e-38
-0.014166456 -0.14092059 0.049621459 2.3502972e-38
-0.012417017 -0.14002781 0.052661475 2.341114e-38
-0.010702224 -0.14002781 0.052661475 2.3228191e-38
-0.0089874305 -0.14002781 0.052661475 2.3505142e-38
-0.0072598085 -0.13916816 0.05558854 2.3506948e-38
-0.005550148 -0.13916816 0.05558854 2.3508036e-38
-0.0038360525 -0.13768299 0.060645636 2.3508037e-38
-0.00213526 -0.13768299 0.060645636 2.35084e-38
-0.00043446571 -0.13768299 0.060645636 2.3509121e-38
0.0012532994 -0.13681011 0.063617826 2.3509129e-38
0.002948883 -0.13681011 0.063617826 2.3508776e-38
0.0046204329 -0.13591556 0.066663802 2.3508065e-38
0.0063106753 -0.13591556 0.066663802 2.3508793e-38
0.0079789395 -0.1353492 0.06859225 2.3509521e-38
0.0096261557 -0.1344638 0.071607053 2.3509527e-38
0.011263081 -0.13358392 0.074603021 2.3509527e-38
0.012904806 -0.13297392 0.076680064 2.341805e-38
0.014522912 -0.13210334 0.079644442 2.3233303e-38
0.016129198 -0.13121201 0.08267951 2.3234379e-38
0.017748544 -0.13063829 0.084633052 2.341805e-38
0.01940728 -0.13063829 0.084633052 2.3233662e-38
0.021066016 -0.13063829 0.084633052 2.3141467e-38
0.022643132 -0.12975626 0.087636352 2.341805e-38
0.024296602 -0.12975626 0.087636352 2.350988e-38
0.025950072 -0.12975626 0.087636352 2.3509862e-38
0.027506741 -0.1288798 0.090620697 2.3508032e-38
0.029154979 -0.1288798 0.090620697 2.3321806e-38
0.030910484 -0.12975626 0.087636352 2.3320329e-38
0.032563955 -0.12975626 0.087636352 2.3503615e-38
0.034335904 -0.13063829 0.084633052 2.3505034e-38
0.036075134 -0.13121201 0.08267951 2.3505748e-38
0.037867669 -0.13210334 0.079644442 2.350503e-38
0.039667688 -0.13297392 0.076680064 2.3504674e-38
0.04134037 -0.13297392 0.076680064 2.3504325e-38
0.043013051 -0.13297392 0.076680064 2.3412851e-38
0.044789519 -0.13358392 0.074603021 2.3320653e-38
0.046465844 -0.13358392 0.074603021 2.3412127e-38
0.048302379 -0.1344638 0.071607053 2.3412121e-38
0.049983952 -0.1344638 0.071607053 2.3504674e-38
0.05166553 -0.1344638 0.071607053 2.3504676e-38
0.053524185 -0.1353492 0.06859225 2.3502876e-38
0.055327695 -0.13591556 0.066663802 2.3133374e-38
0.057207529 -0.13681011 0.063617826 2.25802e-38
0.059093323 -0.13768299 0.060645636 2.25802e-38
0.060990736 -0.13856123 0.057655212 2.2764948e-38
0.062836282 -0.13916816 0.05558854 2.2672034e-38
0.064545944 -0.13916816 0.05558854 2.2394724e-38
0.066463456 -0.14002781 0.052661475 2.2762788e-38
0.068399452 -0.14092059 0.049621459 2.3407078e-38
0.070119575 -0.14092059 0.049621459 2.3500358e-38
0.072065689 -0.14179079 0.046658393 2.3499639e-38
0.074181952 -0.14326234 0.041647729 2.3497481e-38
0.075916059 -0.14326234 0.041647729 2.3496405e-38
0.077895693 -0.14414679 0.038636204 2.3496409e-38
0.079635076 -0.14414679 0.038636204 2.349749e-38
0.081632107 -0.14503662 0.035606321 2.3496042e-38
0.083898976 -0.14680351 0.029589947 2.3403126e-38
0.085654214 -0.14680351 0.029589947 2.3402773e-38
0.087409467 -0.14680351 0.029589947 2.3495333e-38
0.089439541 -0.14768039 0.026604231 2.3310226e-38
0.091200024 -0.14768039 0.026604231 2.2848888e-38
0.093247503 -0.14856245 0.023600753 2.2940364e-38
0.095013246 -0.14856245 0.023600753 2.3492462e-38
0.096778989 -0.14856245 0.023600753 2.2846739e-38
0.09824194 -0.14768039 0.026604231 2.2479048e-38
0.10000242 -0.14768039 0.026604231 2.1098293e-38
0.10145143 -0.14680351 0.029589947 1.5015929e-38
0.10320666 -0.14680351 0.029589947 1.1238821e-38
