# .PCD v0.7 - Point Cloud Data file format
VERSION 0.7
FIELDS x y z rgb
SIZE 4 4 4 4
TYPE F F F F
COUNT 1 1 1 1
WIDTH 935
HEIGHT 1
VIEWPOINT 0 0 0 1 0 0 0
POINTS 935
DATA ascii
0.067549109 -0.10765167 -0.072284959 2.3234372e-38
0.069354743 -0.10678484 -0.068376683 2.3234372e-38
0.070751809 -0.10433225 -0.057318948 2.3509879e-38
0.072740205 -0.10433225 -0.057318948 2.3507718e-38
0.074728608 -0.10433225 -0.057318948 2.3508445e-38
0.076717004 -0.10433225 -0.057318948 2.3509168e-38
0.0787054 -0.10433225 -0.057318948 2.2955641e-38
0.080433957 -0.10343169 -0.05325868 2.3417691e-38
0.082415231 -0.10343169 -0.05325868 2.3234379e-38
0.084396511 -0.10343169 -0.05325868 2.2774125e-38
0.0071554966 -0.098059073 -0.020362638 2.3508444e-38
0.0090790987 -0.098059073 -0.020362638 2.3508091e-38
0.011002699 -0.098059073 -0.020362638 2.3509168e-38
0.012912756 -0.097368345 -0.017272852 2.3509527e-38
0.014806304 -0.096470937 -0.01325848 2.3509527e-38
0.016694307 -0.095815286 -0.010325573 2.3509527e-38
0.018600311 -0.095815286 -0.010325573 2.3509883e-38
0.020506311 -0.095815286 -0.010325573 2.3417687e-38
0.022372421 -0.095137119 -0.0072919354 2.3233296e-38
0.024273105 -0.095137119 -0.0072919354 2.3418047e-38
0.026224319 -0.095815286 -0.010325573 2.3418047e-38
0.028130321 -0.095815286 -0.010325573 2.3234018e-38
0.030036323 -0.095815286 -0.010325573 2.3234018e-38
0.032006606 -0.096470937 -0.01325848 2.3325856e-38
0.033917747 -0.096470937 -0.01325848 2.3234379e-38
0.035828896 -0.096470937 -0.01325848 2.341805e-38
0.037933107 -0.098059073 -0.020362638 2.341805e-38
0.039767317 -0.097368345 -0.017272852 2.341805e-38
0.041685499 -0.097368345 -0.017272852 2.3509527e-38
0.043703906 -0.098059073 -0.020362638 2.3509886e-38
0.045627512 -0.098059073 -0.020362638 2.3509527e-38
0.04755111 -0.098059073 -0.020362638 2.3509527e-38
0.049474709 -0.098059073 -0.020362638 2.3509527e-38
0.051398307 -0.098059073 -0.020362638 2.3509524e-38
0.053321913 -0.098059073 -0.020362638 2.3509883e-38
0.055415049 -0.098941371 -0.024309419 2.3509521e-38
0.057345569 -0.098941371 -0.024309419 2.3509879e-38
0.059276097 -0.098941371 -0.024309419 2.3509879e-38
0.061206616 -0.098941371 -0.024309419 2.3509879e-38
0.063137136 -0.098941371 -0.024309419 2.3418043e-38
0.064863518 -0.098059073 -0.020362638 2.3418045e-38
0.068546288 -0.10541297 -0.05325868 2.332621e-38
0.070527561 -0.10541297 -0.05325868 2.3232936e-38
0.072508842 -0.10541297 -0.05325868 2.3508807e-38
0.074490122 -0.10541297 -0.05325868 2.3136784e-38
0.076471396 -0.10541297 -0.05325868 2.3508451e-38
0.078452677 -0.10541297 -0.05325868 2.3508809e-38
0.080433957 -0.10541297 -0.05325868 2.2956003e-38
0.082415231 -0.10541297 -0.05325868 2.3417333e-38
0.084396511 -0.10541297 -0.05325868 2.3234379e-38
0.086377792 -0.10541297 -0.05325868 2.2497178e-38
0.088647388 -0.10632066 -0.057318948 2.3049621e-38
0.090924017 -0.10720618 -0.061280154 2.3418043e-38
0.092919357 -0.10720618 -0.061280154 2.3418047e-38
0.094914697 -0.10720618 -0.061280154 2.3142544e-38
0.096910052 -0.10720618 -0.061280154 2.2774484e-38
0.099151574 -0.10789602 -0.064366005 2.2775202e-38
0.10147931 -0.10879262 -0.068376683 2.2499695e-38
0.1034871 -0.10879262 -0.068376683 2.2591531e-38
0.10515382 -0.10789602 -0.064366005 2.2866678e-38
0.10715459 -0.10789602 -0.064366005 2.2496467e-38
-0.039723679 -0.093881011 0.0067193285 2.3509879e-38
-0.037847564 -0.093881011 0.0067193285 2.350988e-38
-0.0040439609 -0.093218774 0.0096586719 2.3509886e-38
-0.00030203722 -0.093218774 0.0096586719 2.3509883e-38
0.0015689265 -0.093218774 0.0096586719 2.3509886e-38
0.0034398902 -0.093218774 0.0096586719 2.3509883e-38
0.0052845161 -0.095475003 -0.00035550445 2.3509527e-38
0.0071554966 -0.099982664 -0.020362638 2.3509527e-38
0.0090790987 -0.099982664 -0.020362638 2.3509527e-38
0.010976302 -0.097721294 -0.010325573 2.3509886e-38
0.012869006 -0.097037792 -0.0072919354 2.3509886e-38
0.014769689 -0.097037792 -0.0072919354 2.3509886e-38
0.016670372 -0.097037792 -0.0072919354 2.3509886e-38
0.018571056 -0.097037792 -0.0072919354 2.3509886e-38
0.020471739 -0.097037792 -0.0072919354 2.3509886e-38
0.022372421 -0.097037792 -0.0072919354 2.3509886e-38
0.024273105 -0.097037792 -0.0072919354 2.3509886e-38
0.026173789 -0.097037792 -0.0072919354 2.3509886e-38
0.028074471 -0.097037792 -0.0072919354 2.3509886e-38
0.029975155 -0.097037792 -0.0072919354 2.3509886e-38
0.031875841 -0.097037792 -0.0072919354 2.3509886e-38
0.033776522 -0.097037792 -0.0072919354 2.341805e-38
0.03575433 -0.097721294 -0.010325573 2.3509886e-38
0.037740037 -0.098382086 -0.01325848 2.341805e-38
0.039566338 -0.097721294 -0.010325573 2.341805e-38
0.041472338 -0.097721294 -0.010325573 2.341805e-38
0.043378338 -0.097721294 -0.010325573 2.341805e-38
0.045384616 -0.098382086 -0.01325848 2.3417691e-38
0.047295764 -0.098382086 -0.01325848 2.341769e-38
0.049358234 -0.099286526 -0.017272852 2.341769e-38
0.051276416 -0.099286526 -0.017272852 2.3509527e-38
0.053194605 -0.099286526 -0.017272852 2.3509883e-38
0.055245511 -0.099982664 -0.020362638 2.3509518e-38
0.05716911 -0.099982664 -0.020362638 2.3509876e-38
0.059092715 -0.099982664 -0.020362638 2.3509873e-38
0.061016314 -0.099982664 -0.020362638 2.3233648e-38
0.062939912 -0.099982664 -0.020362638 2.3141456e-38
0.064863518 -0.099982664 -0.020362638 2.3417691e-38
0.066787116 -0.099982664 -0.020362638 2.3509168e-38
0.070311852 -0.10651429 -0.049353026 2.3232585e-38
0.072286285 -0.10651429 -0.049353026 2.3509168e-38
0.074490122 -0.10739426 -0.05325868 2.3509168e-38
0.076471396 -0.10739426 -0.05325868 2.3417691e-38
0.078452677 -0.10739426 -0.05325868 2.3417333e-38
0.080433957 -0.10739426 -0.05325868 2.3416974e-38
0.082415231 -0.10739426 -0.05325868 2.3141467e-38
0.084396511 -0.10739426 -0.05325868 2.3141826e-38
0.086377792 -0.10739426 -0.05325868 2.3142544e-38
0.088647388 -0.10830905 -0.057318948 2.3418038e-38
0.090635784 -0.10830905 -0.057318948 2.350987e-38
0.092919357 -0.10920154 -0.061280154 2.3324775e-38
0.094914697 -0.10920154 -0.061280154 2.3232227e-38
0.096910052 -0.10920154 -0.061280154 2.3508809e-38
0.099151574 -0.10989676 -0.064366005 2.3508809e-38
0.10147931 -0.1108004 -0.068376683 2.3509527e-38
0.1034871 -0.1108004 -0.068376683 2.3048554e-38
0.10489141 -0.10920154 -0.061280154 2.3509527e-38
0.10688675 -0.10920154 -0.061280154 2.3509168e-38
0.10888211 -0.10920154 -0.061280154 2.2955999e-38
-0.041599803 -0.095757127 0.0067193285 2.3509886e-38
-0.039723679 -0.095757127 0.0067193285 2.3509886e-38
-0.037847564 -0.095757127 0.0067193285 2.3509886e-38
-0.035850339 -0.095089734 0.0096586719 2.3509886e-38
-0.033979371 -0.095089734 0.0096586719 2.3509886e-38
-0.0059535783 -0.095757127 0.0067193285 2.3509886e-38
-0.0040439609 -0.095089734 0.0096586719 2.3509886e-38
-0.0021730009 -0.095089734 0.0096586719 2.3509886e-38
-0.00030203722 -0.095089734 0.0096586719 2.3509886e-38
0.0015689265 -0.095089734 0.0096586719 2.3509886e-38
0.0034398902 -0.095089734 0.0096586719 2.3509886e-38
0.0052845161 -0.097363517 -0.00035550445 2.3509886e-38
0.0071730372 -0.097363517 -0.00035550445 2.3509886e-38
0.0090641845 -0.098043531 -0.0033503994 2.3509886e-38
0.010968322 -0.09893848 -0.0072919354 2.3509886e-38
0.012869006 -0.09893848 -0.0072919354 2.3509886e-38
0.014745502 -0.098043531 -0.0033503994 2.3509886e-38
0.016639274 -0.098043531 -0.0033503994 2.3509886e-38
0.018533047 -0.098043531 -0.0033503994 2.3509886e-38
0.020426817 -0.098043531 -0.0033503994 2.3509886e-38
0.022320591 -0.098043531 -0.0033503994 2.3509886e-38
0.024214363 -0.098043531 -0.0033503994 2.3509886e-38
0.026108136 -0.098043531 -0.0033503994 2.3509886e-38
0.028001908 -0.098043531 -0.0033503994 2.3509886e-38
0.02989568 -0.098043531 -0.0033503994 2.3509886e-38
0.031789452 -0.098043531 -0.0033503994 2.3509886e-38
0.033683226 -0.098043531 -0.0033503994 2.3509886e-38
0.035677206 -0.09893848 -0.0072919354 2.3509886e-38
0.037660331 -0.099627286 -0.010325573 2.3509886e-38
0.039566338 -0.099627286 -0.010325573 2.341805e-38
0.041472338 -0.099627286 -0.010325573 2.341805e-38
0.043378338 -0.099627286 -0.010325573 2.341805e-38
0.045384616 -0.10029322 -0.01325848 2.341805e-38
0.047295764 -0.10029322 -0.01325848 2.3509886e-38
0.049358234 -0.10120471 -0.017272852 2.3509886e-38
0.051276416 -0.10120471 -0.017272852 2.3509527e-38
0.053194605 -0.10120471 -0.017272852 2.3509886e-38
0.055245511 -0.10190627 -0.020362638 2.3325492e-38
0.05716911 -0.10190627 -0.020362638 2.3509879e-38
0.059092715 -0.10190627 -0.020362638 2.3509876e-38
0.061016314 -0.10190627 -0.020362638 2.3418039e-38
0.062939912 -0.10190627 -0.020362638 2.350988e-38
0.064863518 -0.10190627 -0.020362638 2.3509886e-38
0.067588158 -0.10530742 -0.035341881 2.3509168e-38
0.070145875 -0.10780637 -0.04634776 2.3416974e-38
0.072115034 -0.10780637 -0.04634776 2.323402e-38
0.074260712 -0.10848872 -0.049353026 2.3142544e-38
0.076471396 -0.10937552 -0.05325868 2.3142544e-38
0.078452677 -0.10937552 -0.05325868 2.3142544e-38
0.080433957 -0.10937552 -0.05325868 2.323402e-38
0.082415231 -0.10937552 -0.05325868 2.3141826e-38
0.084396511 -0.10937552 -0.05325868 2.3142185e-38
0.086377792 -0.10937552 -0.05325868 2.3142542e-38
0.088359065 -0.10937552 -0.05325868 2.3234004e-38
0.090056159 -0.10848872 -0.049353026 2.3417673e-38
0.092030592 -0.10848872 -0.049353026 2.3509876e-38
0.0943029 -0.10937552 -0.05325868 2.3509521e-38
0.096284188 -0.10937552 -0.05325868 2.3508809e-38
0.098265462 -0.10937552 -0.05325868 2.3508807e-38
0.10090073 -0.11119686 -0.061280154 2.3509156e-38
0.10315307 -0.11189754 -0.064366005 2.3509153e-38
0.10455457 -0.11029746 -0.057318948 2.3508081e-38
0.10654297 -0.11029746 -0.057318948 2.3509527e-38
0.10853136 -0.11029746 -0.057318948 2.3508804e-38
0.11051976 -0.11029746 -0.057318948 2.3509521e-38
-0.041742422 -0.098335579 0.0036498085 2.3509886e-38
-0.039592259 -0.096960694 0.0096586719 2.3509886e-38
-0.037721299 -0.096960694 0.0096586719 2.3509886e-38
-0.035850339 -0.096960694 0.0096586719 2.3509886e-38
-0.033819862 -0.09603554 0.013702013 2.3509886e-38
-0.031955987 -0.09603554 0.013702013 2.3509886e-38
-0.017377743 -0.099252045 -0.00035550445 2.3509886e-38
-0.015401436 -0.098335579 0.0036498085 2.3509886e-38
-0.013519937 -0.098335579 0.0036498085 2.3509886e-38
-0.011581929 -0.097633243 0.0067193285 2.3509886e-38
-0.0097058136 -0.097633243 0.0067193285 2.3509886e-38
-0.0078296978 -0.097633243 0.0067193285 2.3509886e-38
-0.0059535783 -0.097633243 0.0067193285 2.3509886e-38
-0.0040439609 -0.096960694 0.0096586719 2.3509886e-38
-0.0021730009 -0.096960694 0.0096586719 2.3509886e-38
-0.00030203722 -0.096960694 0.0096586719 2.3509886e-38
0.0015689265 -0.096960694 0.0096586719 2.3509886e-38
0.0034398902 -0.096960694 0.0096586719 2.3509886e-38
0.0053108521 -0.096960694 0.0096586719 2.3509886e-38
0.0071792398 -0.097633243 0.0067193285 2.3509886e-38
0.0090580471 -0.098335579 0.0036498085 2.3509886e-38
0.010939546 -0.098335579 0.0036498085 2.3509886e-38
0.012851728 -0.099937305 -0.0033503994 2.3509886e-38
0.014745502 -0.099937305 -0.0033503994 2.3509886e-38
0.016639274 -0.099937305 -0.0033503994 2.3509886e-38
0.018533047 -0.099937305 -0.0033503994 2.3509886e-38
0.020426817 -0.099937305 -0.0033503994 2.3509886e-38
0.022320591 -0.099937305 -0.0033503994 2.3509886e-38
0.024214363 -0.099937305 -0.0033503994 2.3509886e-38
0.026108136 -0.099937305 -0.0033503994 2.3509886e-38
0.028001908 -0.099937305 -0.0033503994 2.3509886e-38
0.02989568 -0.099937305 -0.0033503994 2.3509886e-38
0.031789452 -0.099937305 -0.0033503994 2.3509886e-38
0.033683226 -0.099937305 -0.0033503994 2.3509886e-38
0.035576999 -0.099937305 -0.0033503994 2.3509886e-38
0.03757789 -0.10083917 -0.0072919354 2.3509886e-38
0.03947857 -0.10083917 -0.0072919354 2.3509886e-38
0.041379258 -0.10083917 -0.0072919354 2.3509886e-38
0.043279938 -0.10083917 -0.0072919354 2.3509886e-38
0.045384616 -0.10220437 -0.01325848 2.3509527e-38
0.047295764 -0.10220437 -0.01325848 2.3509168e-38
0.049358234 -0.1031229 -0.017272852 2.3509168e-38
0.051276416 -0.1031229 -0.017272852 2.3509168e-38
0.053194605 -0.1031229 -0.017272852 2.3509168e-38
0.055245511 -0.10382988 -0.020362638 2.3416615e-38
0.05716911 -0.10382988 -0.020362638 2.3509168e-38
0.059092715 -0.10382988 -0.020362638 2.3509883e-38
0.061016314 -0.10382988 -0.020362638 2.350952e-38
0.062939912 -0.10382988 -0.020362638 2.3509879e-38
0.065067656 -0.10473295 -0.024309419 2.350988e-38
0.067372844 -0.10633601 -0.031315587 2.3509883e-38
0.069700763 -0.10793148 -0.038288496 2.3233299e-38
0.071655788 -0.10793148 -0.038288496 2.341805e-38
0.073850296 -0.10886435 -0.042365573 2.3234379e-38
0.076053359 -0.10977553 -0.04634776 2.3234379e-38
0.078209572 -0.11046316 -0.049353026 2.3234376e-38
0.080184005 -0.11046316 -0.049353026 2.3142534e-38
0.082158439 -0.11046316 -0.049353026 2.3050694e-38
0.084132865 -0.11046316 -0.049353026 2.3142532e-38
0.086377792 -0.11135681 -0.05325868 2.3142535e-38
0.088359065 -0.11135681 -0.05325868 2.3049261e-38
0.090056159 -0.11046316 -0.049353026 2.3417676e-38
0.092030592 -0.11046316 -0.049353026 2.3509859e-38
0.0943029 -0.11135681 -0.05325868 2.3509841e-38
0.096284188 -0.11135681 -0.05325868 2.3508389e-38
0.098265462 -0.11135681 -0.05325868 2.3508026e-38
0.10057778 -0.11228584 -0.057318948 2.3508397e-38
0.10256618 -0.11228584 -0.057318948 2.3509495e-38
0.10455457 -0.11228584 -0.057318948 2.3507351e-38
0.10619057 -0.11135681 -0.05325868 2.3509521e-38
0.10817186 -0.11135681 -0.05325868 2.3509521e-38
0.11015313 -0.11135681 -0.05325868 2.3509879e-38
0.11388578 -0.11571021 -0.072284959 2.3416603e-38
0.11590042 -0.11571021 -0.072284959 2.0272164e-39
-0.043623917 -0.10021709 0.0036498085 2.3509886e-38
-0.041599803 -0.099509358 0.0067193285 2.3509886e-38
-0.039592259 -0.098831654 0.0096586719 2.3509886e-38
-0.037721299 -0.098831654 0.0096586719 2.3509886e-38
-0.035683736 -0.097899407 0.013702013 2.3509886e-38
-0.033819862 -0.097899407 0.013702013 2.3509886e-38
-0.031955987 -0.097899407 0.013702013 2.3509886e-38
-0.030092118 -0.097899407 0.013702013 2.3509886e-38
-0.028125247 -0.097204864 0.016714431 2.3509886e-38
-0.026266655 -0.097204864 0.016714431 2.3509886e-38
-0.019342402 -0.10183108 -0.0033503994 2.3509886e-38
-0.017377743 -0.10114056 -0.00035550445 2.3509886e-38
-0.015401436 -0.10021709 0.0036498085 2.3509886e-38
-0.013519937 -0.10021709 0.0036498085 2.3509886e-38
-0.011581929 -0.099509358 0.0067193285 2.3509886e-38
-0.0097058136 -0.099509358 0.0067193285 2.3509886e-38
-0.0078296978 -0.099509358 0.0067193285 2.3509886e-38
-0.0059535783 -0.099509358 0.0067193285 2.3509886e-38
-0.0040439609 -0.098831654 0.0096586719 2.3509886e-38
-0.0021730009 -0.098831654 0.0096586719 2.3509886e-38
-0.00030203722 -0.098831654 0.0096586719 2.3509886e-38
0.0015689265 -0.098831654 0.0096586719 2.3509886e-38
0.0034398902 -0.098831654 0.0096586719 2.3509886e-38
0.0053108521 -0.098831654 0.0096586719 2.3509886e-38
0.0071792398 -0.099509358 0.0067193285 2.3509886e-38
0.0090553556 -0.099509358 0.0067193285 2.3509886e-38
0.010931473 -0.099509358 0.0067193285 2.3509886e-38
0.0128386 -0.10114056 -0.00035550445 2.3509886e-38
0.014727123 -0.10114056 -0.00035550445 2.3509886e-38
0.016639274 -0.10183108 -0.0033503994 2.3509886e-38
0.018504165 -0.10114056 -0.00035550445 2.3509886e-38
0.020392686 -0.10114056 -0.00035550445 2.3509886e-38
0.022281207 -0.10114056 -0.00035550445 2.3509886e-38
0.02416973 -0.10114056 -0.00035550445 2.3509886e-38
0.026058251 -0.10114056 -0.00035550445 2.3509886e-38
0.027946772 -0.10114056 -0.00035550445 2.3509886e-38
0.029835293 -0.10114056 -0.00035550445 2.3509886e-38
0.031789452 -0.10183108 -0.0033503994 2.3509886e-38
0.033683226 -0.10183108 -0.0033503994 2.3509886e-38
0.035576999 -0.10183108 -0.0033503994 2.3509886e-38
0.03757789 -0.10273984 -0.0072919354 2.3509883e-38
0.03947857 -0.10273984 -0.0072919354 2.3325847e-38
0.041379258 -0.10273984 -0.0072919354 2.3418043e-38
0.043279938 -0.10273984 -0.0072919354 2.3509523e-38
0.045384616 -0.1041155 -0.01325848 2.3509167e-38
0.047295764 -0.1041155 -0.01325848 2.3509168e-38
0.049358234 -0.10504107 -0.017272852 2.3509168e-38
0.051398307 -0.10575347 -0.020362638 2.3508809e-38
0.053321913 -0.10575347 -0.020362638 2.3509168e-38
0.055245511 -0.10575347 -0.020362638 2.3509527e-38
0.05716911 -0.10575347 -0.020362638 2.3509883e-38
0.059092715 -0.10575347 -0.020362638 2.3509879e-38
0.061016314 -0.10575347 -0.020362638 2.3509873e-38
0.063137136 -0.10666345 -0.024309419 2.350987e-38
0.065067656 -0.10666345 -0.024309419 2.3509869e-38
0.067372844 -0.10827883 -0.031315587 2.3509867e-38
0.069700763 -0.10988651 -0.038288496 2.3325478e-38
0.071655788 -0.10988651 -0.038288496 2.3509873e-38
0.073850296 -0.11082654 -0.042365573 2.3509876e-38
0.076053359 -0.11174469 -0.04634776 2.341804e-38
0.078022517 -0.11174469 -0.04634776 2.3234362e-38
0.079991676 -0.11174469 -0.04634776 2.3142517e-38
0.081960842 -0.11174469 -0.04634776 2.3050677e-38
0.083930001 -0.11174469 -0.04634776 2.314252e-38
0.086107299 -0.11243759 -0.049353026 2.314253e-38
0.088081725 -0.11243759 -0.049353026 2.332621e-38
0.090056159 -0.11243759 -0.049353026 2.3509874e-38
0.092030592 -0.11243759 -0.049353026 2.3509122e-38
0.0943029 -0.1133381 -0.05325868 2.2863364e-38
0.096284188 -0.1133381 -0.05325868 2.2216528e-38
0.098265462 -0.1133381 -0.05325868 2.2031409e-38
0.10057778 -0.11427425 -0.057318948 2.3135257e-38
0.10256618 -0.11427425 -0.057318948 2.3506224e-38
0.10455457 -0.11427425 -0.057318948 2.3509499e-38
0.10619057 -0.1133381 -0.05325868 2.3509876e-38
0.10817186 -0.1133381 -0.05325868 2.3509516e-38
0.11015313 -0.1133381 -0.05325868 2.3324404e-38
0.11315683 -0.11589904 -0.064366005 2.2310255e-38
0.1151576 -0.11589904 -0.064366005 2.2116077e-39
0.11715835 -0.11589904 -0.064366005 2.1190547e-39
-0.098642536 -0.10767709 -0.020362638 2.3324775e-38
-0.095469944 -0.10464053 -0.0072919354 2.341769e-38
-0.093569256 -0.10464053 -0.0072919354 2.3325497e-38
-0.043623917 -0.10209858 0.0036498085 2.3509886e-38
-0.041463226 -0.10070263 0.0096586719 2.3509886e-38
-0.039411485 -0.099763289 0.013702013 2.3509886e-38
-0.037547611 -0.099763289 0.013702013 2.3509886e-38
-0.035683736 -0.099763289 0.013702013 2.3509886e-38
-0.033819862 -0.099763289 0.013702013 2.3509886e-38
-0.031955987 -0.099763289 0.013702013 2.3509886e-38
-0.030092118 -0.099763289 0.013702013 2.3509886e-38
-0.028125247 -0.099063456 0.016714431 2.3509886e-38
-0.026266655 -0.099063456 0.016714431 2.3509886e-38
-0.024408063 -0.099063456 0.016714431 2.3509886e-38
-0.022549475 -0.099063456 0.016714431 2.3509886e-38
-0.021236176 -0.10372485 -0.0033503994 2.3509886e-38
-0.019164434 -0.10209858 0.0036498085 2.3509886e-38
-0.017282935 -0.10209858 0.0036498085 2.3509886e-38
-0.015401436 -0.10209858 0.0036498085 2.3509886e-38
-0.013519937 -0.10209858 0.0036498085 2.3509886e-38
-0.011527816 -0.10070263 0.0096586719 2.3509886e-38
-0.0096568521 -0.10070263 0.0096586719 2.3509886e-38
-0.0078296978 -0.10138547 0.0067193285 2.3509886e-38
-0.0059149284 -0.10070263 0.0096586719 2.3509886e-38
-0.0040439609 -0.10070263 0.0096586719 2.3509886e-38
-0.0021730009 -0.10070263 0.0096586719 2.3509886e-38
-0.00030203722 -0.10070263 0.0096586719 2.3509886e-38
0.0015689265 -0.10070263 0.0096586719 2.3509886e-38
0.0034398902 -0.10070263 0.0096586719 2.3509886e-38
0.0053108521 -0.10070263 0.0096586719 2.3509886e-38
0.0071818158 -0.10070263 0.0096586719 2.3509886e-38
0.0090527795 -0.10070263 0.0096586719 2.3509886e-38
0.010923743 -0.10070263 0.0096586719 2.3509886e-38
0.0128386 -0.10302909 -0.00035550445 2.3509886e-38
0.014727123 -0.10302909 -0.00035550445 2.3509886e-38
0.016615644 -0.10302909 -0.00035550445 2.3509886e-38
0.018504165 -0.10302909 -0.00035550445 2.3509886e-38
0.020392686 -0.10302909 -0.00035550445 2.3509886e-38
0.022281207 -0.10302909 -0.00035550445 2.3509886e-38
0.02416973 -0.10302909 -0.00035550445 2.3509886e-38
0.026058251 -0.10302909 -0.00035550445 2.3509886e-38
0.027946772 -0.10302909 -0.00035550445 2.3509886e-38
0.029835293 -0.10302909 -0.00035550445 2.3509886e-38
0.031723816 -0.10302909 -0.00035550445 2.3509886e-38
0.033683226 -0.10372485 -0.0033503994 2.3509886e-38
0.035576999 -0.10372485 -0.0033503994 2.3509886e-38
0.03757789 -0.10464053 -0.0072919354 2.3509883e-38
0.039566338 -0.10534529 -0.010325573 2.3509518e-38
0.041472338 -0.10534529 -0.010325573 2.3509876e-38
0.043378338 -0.10534529 -0.010325573 2.3509879e-38
0.045384616 -0.10602666 -0.01325848 2.3509879e-38
0.047440052 -0.10695927 -0.017272852 2.3509879e-38
0.049358234 -0.10695927 -0.017272852 2.3509516e-38
0.051398307 -0.10767709 -0.020362638 2.3509153e-38
0.053321913 -0.10767709 -0.020362638 2.3509507e-38
0.055415049 -0.10859399 -0.024309419 2.3509866e-38
0.057345569 -0.10859399 -0.024309419 2.350986e-38
0.059276097 -0.10859399 -0.024309419 2.350986e-38
0.061206616 -0.10859399 -0.024309419 2.3509859e-38
0.063137136 -0.10859399 -0.024309419 2.3509856e-38
0.065273277 -0.10951753 -0.02828481 2.3509853e-38
0.067372844 -0.11022164 -0.031315587 2.3509853e-38
0.069700763 -0.11184154 -0.038288496 2.3509856e-38
0.071655788 -0.11184154 -0.038288496 2.3509866e-38
0.073850296 -0.11278872 -0.042365573 2.350987e-38
0.076053359 -0.11371385 -0.04634776 2.3509869e-38
0.078022517 -0.11371385 -0.04634776 2.3418025e-38
0.079991676 -0.11371385 -0.04634776 2.3234344e-38
0.081960842 -0.11371385 -0.04634776 2.3050672e-38
0.083930001 -0.11371385 -0.04634776 2.3050682e-38
0.085899159 -0.11371385 -0.04634776 2.314253e-38
0.087868325 -0.11371385 -0.04634776 2.341805e-38
0.089837484 -0.11371385 -0.04634776 2.3509516e-38
0.091806643 -0.11371385 -0.04634776 2.350876e-38
0.094005026 -0.11441202 -0.049353026 2.3046663e-38
0.096600972 -0.11626263 -0.057318948 2.2031032e-38
0.098589383 -0.11626263 -0.057318948 2.1384208e-38
0.10024673 -0.11531936 -0.05325868 2.2212175e-38
0.10222802 -0.11531936 -0.05325868 2.2950491e-38
0.10455457 -0.11626263 -0.057318948 2.3509481e-38
0.10619057 -0.11531936 -0.05325868 2.350987e-38
0.10817186 -0.11531936 -0.05325868 2.3509149e-38
0.11015313 -0.11531936 -0.05325868 2.314001e-38
0.11287279 -0.1171829 -0.061280154 2.2033668e-38
0.11486813 -0.1171829 -0.061280154 3.041011e-39
0.11686347 -0.1171829 -0.061280154 1.9346663e-39
0.11915909 -0.11789979 -0.064366005 4.4239483e-39
-0.10910089 -0.11145501 -0.02828481 2.3508444e-38
-0.10674868 -0.11052449 -0.024309419 2.3140737e-38
-0.10441334 -0.10960068 -0.020362638 2.3325129e-38
-0.10248973 -0.10960068 -0.020362638 2.350988e-38
-0.10056613 -0.10960068 -0.020362638 2.3509883e-38
-0.098642536 -0.10960068 -0.020362638 2.31411e-38
-0.095469944 -0.1065412 -0.0072919354 2.3509886e-38
-0.093569256 -0.1065412 -0.0072919354 2.3509886e-38
-0.091668569 -0.1065412 -0.0072919354 2.3509527e-38
-0.089767896 -0.1065412 -0.0072919354 2.3509527e-38
-0.050594725 -0.10162716 0.013702013 2.3509886e-38
-0.048730858 -0.10162716 0.013702013 2.3509886e-38
-0.046866976 -0.10162716 0.013702013 2.3509886e-38
-0.045003109 -0.10162716 0.013702013 2.3509886e-38
-0.043139234 -0.10162716 0.013702013 2.3509886e-38
-0.041463226 -0.10257359 0.0096586719 2.3509886e-38
-0.039411485 -0.10162716 0.013702013 2.3509886e-38
-0.037547611 -0.10162716 0.013702013 2.3509886e-38
-0.035683736 -0.10162716 0.013702013 2.3509886e-38
-0.033701025 -0.10092205 0.016714431 2.3509886e-38
-0.031842433 -0.10092205 0.016714431 2.3509886e-38
-0.029983839 -0.10092205 0.016714431 2.3509886e-38
-0.028022835 -0.10022092 0.019709803 2.3509886e-38
-0.026169496 -0.10022092 0.019709803 2.3509886e-38
-0.024224767 -0.099523753 0.022688247 2.3509886e-38
-0.022259349 -0.098574698 0.026742794 2.3509886e-38
-0.02041834 -0.098574698 0.026742794 2.3509886e-38
-0.018908875 -0.10162716 0.013702013 2.3509886e-38
-0.017140703 -0.10257359 0.0096586719 2.3509886e-38
-0.015269743 -0.10257359 0.0096586719 2.3509886e-38
-0.013458045 -0.1032616 0.0067193285 2.3509886e-38
-0.011527816 -0.10257359 0.0096586719 2.3509886e-38
-0.0096568521 -0.10257359 0.0096586719 2.3509886e-38
-0.0077858884 -0.10257359 0.0096586719 2.3509886e-38
-0.0059149284 -0.10257359 0.0096586719 2.3509886e-38
-0.0040439609 -0.10257359 0.0096586719 2.3509886e-38
-0.0021730009 -0.10257359 0.0096586719 2.3509886e-38
-0.00030203722 -0.10257359 0.0096586719 2.3509886e-38
0.0015937388 -0.10162716 0.013702013 2.3509886e-38
0.0034576133 -0.10162716 0.013702013 2.3509886e-38
0.0053108521 -0.10257359 0.0096586719 2.3509886e-38
0.0071818158 -0.10257359 0.0096586719 2.3509886e-38
0.0090527795 -0.10257359 0.0096586719 2.3509886e-38
0.010923743 -0.10257359 0.0096586719 2.3509886e-38
0.012821045 -0.10398008 0.0036498085 2.3509886e-38
0.014727123 -0.1049176 -0.00035550445 2.3509886e-38
0.016615644 -0.1049176 -0.00035550445 2.3509886e-38
0.018533047 -0.10561861 -0.0033503994 2.3509886e-38
0.020392686 -0.1049176 -0.00035550445 2.3509886e-38
0.022281207 -0.1049176 -0.00035550445 2.3509886e-38
0.02416973 -0.1049176 -0.00035550445 2.3509886e-38
0.026058251 -0.1049176 -0.00035550445 2.3509886e-38
0.027946772 -0.1049176 -0.00035550445 2.3509886e-38
0.029835293 -0.1049176 -0.00035550445 2.3509886e-38
0.031723816 -0.1049176 -0.00035550445 2.3509886e-38
0.033683226 -0.10561861 -0.0033503994 2.3509886e-38
0.035576999 -0.10561861 -0.0033503994 2.3509886e-38
0.03757789 -0.1065412 -0.0072919354 2.3509883e-38
0.039566338 -0.1072513 -0.010325573 2.3509879e-38
0.041472338 -0.1072513 -0.010325573 2.3509876e-38
0.043378338 -0.1072513 -0.010325573 2.3509873e-38
0.04552187 -0.10887744 -0.017272852 2.3509869e-38
0.047440052 -0.10887744 -0.017272852 2.3509863e-38
0.049474709 -0.10960068 -0.020362638 2.3509853e-38
0.051554009 -0.11052449 -0.024309419 2.3509841e-38
0.053484529 -0.11052449 -0.024309419 2.3509832e-38
0.055585824 -0.11145501 -0.02828481 2.3049206e-38
0.05752331 -0.11145501 -0.02828481 2.3049209e-38
0.059460804 -0.11145501 -0.02828481 2.3141407e-38
0.061206616 -0.11052449 -0.024309419 2.3324365e-38
0.063137136 -0.11052449 -0.024309419 2.3139974e-38
0.065430038 -0.11216442 -0.031315587 2.3231809e-38
0.067588158 -0.11310686 -0.035341881 2.3509474e-38
0.069700763 -0.11379658 -0.038288496 2.3509846e-38
0.071655788 -0.11379658 -0.038288496 2.3509863e-38
0.073850296 -0.11475091 -0.042365573 2.350987e-38
0.075812474 -0.11475091 -0.042365573 2.3509869e-38
0.077774651 -0.11475091 -0.042365573 2.3509863e-38
0.079736829 -0.11475091 -0.042365573 2.3234353e-38
0.081699014 -0.11475091 -0.042365573 2.3050682e-38
0.083930001 -0.115683 -0.04634776 2.3050691e-38
0.085899159 -0.115683 -0.04634776 2.3142535e-38
0.087868325 -0.115683 -0.04634776 2.3141819e-38
0.089837484 -0.115683 -0.04634776 2.3509153e-38
0.091806643 -0.115683 -0.04634776 2.3509845e-38
0.094005026 -0.11638646 -0.049353026 2.350873e-38
0.096284188 -0.11730064 -0.05325868 2.3319973e-38
0.098265462 -0.11730064 -0.05325868 2.221216e-38
0.10024673 -0.11730064 -0.05325868 2.2118508e-38
0.10222802 -0.11730064 -0.05325868 2.2212173e-38
0.1042093 -0.11730064 -0.05325868 2.3046325e-38
0.10619057 -0.11730064 -0.05325868 2.3509144e-38
0.10817186 -0.11730064 -0.05325868 2.3509867e-38
0.11015313 -0.11730064 -0.05325868 2.3509153e-38
0.11250816 -0.11825104 -0.057318948 2.2679038e-38
0.11486813 -0.11917825 -0.061280154 4.3317527e-39
0.11715835 -0.11990054 -0.064366005 1.9346691e-39
0.11915909 -0.11990054 -0.064366005 3.8704214e-39
0.12115986 -0.11990054 -0.064366005 4.0548155e-39
-0.10910089 -0.11339252 -0.02828481 2.3326201e-38
-0.10674868 -0.11245503 -0.024309419 2.3418039e-38
-0.10368466 -0.10984896 -0.01325848 2.3509879e-38
-0.10147782 -0.10915731 -0.010325573 2.3509883e-38
-0.099571832 -0.10915731 -0.010325573 2.3509886e-38
-0.097370617 -0.1084419 -0.0072919354 2.3509168e-38
-0.095469944 -0.1084419 -0.0072919354 2.3324778e-38
-0.093569256 -0.1084419 -0.0072919354 2.3231506e-38
-0.091668569 -0.1084419 -0.0072919354 2.3139311e-38
-0.089767896 -0.1084419 -0.0072919354 2.3323703e-38
-0.087253027 -0.10680611 -0.00035550445 2.3508809e-38
-0.085364513 -0.10680611 -0.00035550445 2.3509168e-38
-0.058050223 -0.10349102 0.013702013 2.3417691e-38
-0.056186356 -0.10349102 0.013702013 2.3417333e-38
-0.054322474 -0.10349102 0.013702013 2.3509527e-38
-0.052458607 -0.10349102 0.013702013 2.3509527e-38
-0.050428353 -0.10278064 0.016714431 2.3509886e-38
-0.048569761 -0.10278064 0.016714431 2.3509886e-38
-0.046866976 -0.10349102 0.013702013 2.3509886e-38
-0.045003109 -0.10349102 0.013702013 2.3509886e-38
-0.043139234 -0.10349102 0.013702013 2.3509886e-38
-0.04127536 -0.10349102 0.013702013 2.3509886e-38
-0.039411485 -0.10349102 0.013702013 2.3509886e-38
-0.037547611 -0.10349102 0.013702013 2.3509886e-38
-0.035683736 -0.10349102 0.013702013 2.3509886e-38
-0.033701025 -0.10278064 0.016714431 2.3509886e-38
-0.031842433 -0.10278064 0.016714431 2.3509886e-38
-0.029983839 -0.10278064 0.016714431 2.3509886e-38
-0.028022835 -0.10207425 0.019709803 2.3509886e-38
-0.026072884 -0.10137187 0.022688247 2.3509886e-38
-0.024224767 -0.10137187 0.022688247 2.3509886e-38
-0.022259349 -0.10041572 0.026742794 2.3509886e-38
-0.02041834 -0.10041572 0.026742794 2.3509886e-38
-0.018756138 -0.10207425 0.019709803 2.3509886e-38
-0.017045001 -0.10349102 0.013702013 2.3509886e-38
-0.015181126 -0.10349102 0.013702013 2.3509886e-38
-0.013317252 -0.10349102 0.013702013 2.3509886e-38
-0.011453377 -0.10349102 0.013702013 2.3509886e-38
-0.0095895026 -0.10349102 0.013702013 2.3509886e-38
-0.0077858884 -0.10444455 0.0096586719 2.3509886e-38
-0.0059149284 -0.10444455 0.0096586719 2.3509886e-38
-0.0040439609 -0.10444455 0.0096586719 2.3509886e-38
-0.0021340083 -0.10349102 0.013702013 2.3509886e-38
-0.00027013384 -0.10349102 0.013702013 2.3509886e-38
0.0015937388 -0.10349102 0.013702013 2.3509886e-38
0.0034576133 -0.10349102 0.013702013 2.3509886e-38
0.0053214859 -0.10349102 0.013702013 2.3509886e-38
0.0071853604 -0.10349102 0.013702013 2.3509886e-38
0.0090492349 -0.10349102 0.013702013 2.3509886e-38
0.010923743 -0.10444455 0.0096586719 2.3509886e-38
0.012807591 -0.10513772 0.0067193285 2.3509886e-38
0.014702544 -0.10586159 0.0036498085 2.3509886e-38
0.016615644 -0.10680611 -0.00035550445 2.3509886e-38
0.018533047 -0.1075124 -0.0033503994 2.3509886e-38
0.020426817 -0.1075124 -0.0033503994 2.3509886e-38
0.022281207 -0.10680611 -0.00035550445 2.3509886e-38
0.02416973 -0.10680611 -0.00035550445 2.3509886e-38
0.026058251 -0.10680611 -0.00035550445 2.3509886e-38
0.027946772 -0.10680611 -0.00035550445 2.3509886e-38
0.029835293 -0.10680611 -0.00035550445 2.3509886e-38
0.031789452 -0.1075124 -0.0033503994 2.3509886e-38
0.033683226 -0.1075124 -0.0033503994 2.3509886e-38
0.035677206 -0.1084419 -0.0072919354 2.3509886e-38
0.037660331 -0.10915731 -0.010325573 2.3509883e-38
0.039651185 -0.10984896 -0.01325848 2.3509521e-38
0.041562326 -0.10984896 -0.01325848 2.3509517e-38
0.043603688 -0.11079563 -0.017272852 2.350987e-38
0.04552187 -0.11079563 -0.017272852 2.3509859e-38
0.04755111 -0.11152427 -0.020362638 2.3509842e-38
0.049623489 -0.11245503 -0.024309419 2.350982e-38
0.051554009 -0.11245503 -0.024309419 2.3234289e-38
0.053484529 -0.11245503 -0.024309419 2.3142441e-38
0.055585824 -0.11339252 -0.02828481 2.2498145e-38
0.05752331 -0.11339252 -0.02828481 2.2497791e-38
0.059460804 -0.11339252 -0.02828481 2.2772953e-38
0.061398298 -0.11339252 -0.02828481 2.2495298e-38
0.063487232 -0.11410724 -0.031315587 2.1941772e-38
0.065638289 -0.11505674 -0.035341881 2.1941056e-38
0.067588158 -0.11505674 -0.035341881 2.2863013e-38
0.069700763 -0.11575161 -0.038288496 2.3509839e-38
0.071655788 -0.11575161 -0.038288496 2.350951e-38
0.07361082 -0.11575161 -0.038288496 2.3509163e-38
0.075812474 -0.11671309 -0.042365573 2.3509876e-38
0.077774651 -0.11671309 -0.042365573 2.3509876e-38
0.079736829 -0.11671309 -0.042365573 2.3418045e-38
0.081699014 -0.11671309 -0.042365573 2.3142542e-38
0.083930001 -0.11765216 -0.04634776 2.3050708e-38
0.085899159 -0.11765216 -0.04634776 2.3142542e-38
0.087868325 -0.11765216 -0.04634776 2.3325846e-38
0.089837484 -0.11765216 -0.04634776 2.3508788e-38
0.091806643 -0.11765216 -0.04634776 2.3509497e-38
0.094005026 -0.11836089 -0.049353026 2.3509475e-38
0.096284188 -0.11928193 -0.05325868 2.3505836e-38
0.098265462 -0.11928193 -0.05325868 2.3039775e-38
0.10024673 -0.11928193 -0.05325868 2.2577669e-38
0.10222802 -0.11928193 -0.05325868 2.2027032e-38
0.1042093 -0.11928193 -0.05325868 2.2585333e-38
0.10619057 -0.11928193 -0.05325868 2.3325106e-38
0.10782603 -0.11836089 -0.049353026 2.3509866e-38
0.10980047 -0.11836089 -0.049353026 2.350987e-38
0.11250816 -0.12023942 -0.057318948 2.2679038e-38
0.11449655 -0.12023942 -0.057318948 5.0693177e-39
0.11715835 -0.12190129 -0.064366005 2.2109001e-39
0.11915909 -0.12190129 -0.064366005 4.0548155e-39
0.12115986 -0.12190129 -0.064366005 3.6860343e-39
-0.11878835 -0.11533 -0.02828481 2.1010081e-38
-0.11640128 -0.11438553 -0.024309419 2.2764681e-38
-0.11447076 -0.11438553 -0.024309419 2.3509818e-38
-0.11254024 -0.11438553 -0.024309419 2.3509837e-38
-0.1094181 -0.11176009 -0.01325848 2.3509844e-38
-0.10719583 -0.11106332 -0.010325573 2.3509849e-38
-0.10528984 -0.11106332 -0.010325573 2.350986e-38
-0.10338383 -0.11106332 -0.010325573 2.3509869e-38
-0.10117199 -0.11034258 -0.0072919354 2.3509879e-38
-0.099271305 -0.11034258 -0.0072919354 2.3416251e-38
-0.096987076 -0.10940616 -0.0033503994 2.3509168e-38
-0.095093302 -0.10940616 -0.0033503994 2.3509168e-38
-0.093199529 -0.10940616 -0.0033503994 2.3508451e-38
-0.091305755 -0.10940616 -0.0033503994 2.3508809e-38
-0.089411981 -0.10940616 -0.0033503994 2.3509168e-38
-0.086898394 -0.10774307 0.0036498085 2.3509168e-38
-0.084750481 -0.10701384 0.0067193285 2.3508805e-38
-0.082874365 -0.10701384 0.0067193285 2.332405e-38
-0.081253894 -0.10774307 0.0036498085 2.341804e-38
-0.079698943 -0.10869466 -0.00035550445 2.3234367e-38
-0.077490889 -0.10774307 0.0036498085 2.3234364e-38
-0.075609393 -0.10774307 0.0036498085 2.3234364e-38
-0.063641839 -0.10535492 0.013702013 2.3233648e-38
-0.061777972 -0.10535492 0.013702013 2.3325847e-38
-0.059914105 -0.10535492 0.013702013 2.3509883e-38
-0.058050223 -0.10535492 0.013702013 2.3509527e-38
-0.056186356 -0.10535492 0.013702013 2.3509527e-38
-0.054322474 -0.10535492 0.013702013 2.3509168e-38
-0.052286945 -0.10463922 0.016714431 2.3417333e-38
-0.050428353 -0.10463922 0.016714431 2.3509886e-38
-0.048569761 -0.10463922 0.016714431 2.3509886e-38
-0.046711169 -0.10463922 0.016714431 2.3509886e-38
-0.044852577 -0.10463922 0.016714431 2.3509886e-38
-0.042993985 -0.10463922 0.016714431 2.3509886e-38
-0.041135393 -0.10463922 0.016714431 2.3509886e-38
-0.039276801 -0.10463922 0.016714431 2.3509886e-38
-0.037418209 -0.10463922 0.016714431 2.3509886e-38
-0.035559617 -0.10463922 0.016714431 2.3509886e-38
-0.033701025 -0.10463922 0.016714431 2.3509886e-38
-0.031729519 -0.1039276 0.019709803 2.3509886e-38
-0.029876178 -0.1039276 0.019709803 2.3509886e-38
-0.027921004 -0.10322 0.022688247 2.3509886e-38
-0.026072884 -0.10322 0.022688247 2.3509886e-38
-0.024100361 -0.10225673 0.026742794 2.3509886e-38
-0.022259349 -0.10225673 0.026742794 2.3509886e-38
-0.02041834 -0.10225673 0.026742794 2.3509886e-38
-0.018680414 -0.10322 0.022688247 2.3509886e-38
-0.016902795 -0.1039276 0.019709803 2.3509886e-38
-0.015049456 -0.1039276 0.019709803 2.3509886e-38
-0.013256511 -0.10463922 0.016714431 2.3509886e-38
-0.011397919 -0.10463922 0.016714431 2.3509886e-38
-0.0095393267 -0.10463922 0.016714431 2.3509886e-38
-0.0077256281 -0.10535492 0.013702013 2.3509886e-38
-0.0058617573 -0.10535492 0.013702013 2.3509886e-38
-0.0039978828 -0.10535492 0.013702013 2.3509886e-38
-0.0021340083 -0.10535492 0.013702013 2.3509886e-38
-0.00027013384 -0.10535492 0.013702013 2.3509886e-38
0.0015937388 -0.10535492 0.013702013 2.3509886e-38
0.0034576133 -0.10535492 0.013702013 2.3509886e-38
0.0053214859 -0.10535492 0.013702013 2.3509886e-38
0.0071853604 -0.10535492 0.013702013 2.3509886e-38
0.0090492349 -0.10535492 0.013702013 2.3509886e-38
0.010923743 -0.10631551 0.0096586719 2.3509886e-38
0.012807591 -0.10701384 0.0067193285 2.3509886e-38
0.014702544 -0.10774307 0.0036498085 2.3509886e-38
0.016615644 -0.10869466 -0.00035550445 2.3509886e-38
0.018533047 -0.10940616 -0.0033503994 2.3509886e-38
0.020426817 -0.10940616 -0.0033503994 2.3509886e-38
0.022281207 -0.10869466 -0.00035550445 2.3509886e-38
0.02416973 -0.10869466 -0.00035550445 2.3509886e-38
0.026058251 -0.10869466 -0.00035550445 2.3509886e-38
0.028001908 -0.10940616 -0.0033503994 2.3509886e-38
0.02989568 -0.10940616 -0.0033503994 2.3509886e-38
0.031789452 -0.10940616 -0.0033503994 2.3509886e-38
0.033776522 -0.11034258 -0.0072919354 2.3509886e-38
0.03575433 -0.11106332 -0.010325573 2.3509886e-38
0.037740037 -0.11176009 -0.01325848 2.3509527e-38
0.039651185 -0.11176009 -0.01325848 2.3508444e-38
0.041685499 -0.1127138 -0.017272852 2.35088e-38
0.043703906 -0.11344786 -0.020362638 2.3509153e-38
0.045627512 -0.11344786 -0.020362638 2.3509856e-38
0.04755111 -0.11344786 -0.020362638 2.3417995e-38
0.049623489 -0.11438553 -0.024309419 2.314246e-38
0.051710837 -0.11533 -0.02828481 2.2866926e-38
0.05364833 -0.11533 -0.02828481 2.2683237e-38
0.055585824 -0.11533 -0.02828481 2.3050581e-38
0.057658821 -0.11605005 -0.031315587 2.3050592e-38
0.05960162 -0.11605005 -0.031315587 2.3141365e-38
0.061544426 -0.11605005 -0.031315587 2.249565e-38
0.063487232 -0.11605005 -0.031315587 2.1572626e-38
0.065638289 -0.11700659 -0.035341881 2.1479354e-38
0.067588158 -0.11700659 -0.035341881 2.2585696e-38
0.06953802 -0.11700659 -0.035341881 2.3509471e-38
0.071487881 -0.11700659 -0.035341881 2.3509153e-38
0.073437743 -0.11700659 -0.035341881 2.3508809e-38
0.075565852 -0.11770664 -0.038288496 2.3509521e-38
0.077520885 -0.11770664 -0.038288496 2.3509883e-38
0.079475909 -0.11770664 -0.038288496 2.3417691e-38
0.081699014 -0.11867525 -0.042365573 2.3141826e-38
0.083661191 -0.11867525 -0.042365573 2.3142185e-38
0.085899159 -0.11962132 -0.04634776 2.3142544e-38
0.087868325 -0.11962132 -0.04634776 2.3509876e-38
0.089837484 -0.11962132 -0.04634776 2.3509144e-38
0.091806643 -0.11962132 -0.04634776 2.3508063e-38
0.094005026 -0.12033533 -0.049353026 2.3508047e-38
0.096284188 -0.12126322 -0.05325868 2.3504056e-38
0.098265462 -0.12126322 -0.05325868 2.340641e-38
0.10024673 -0.12126322 -0.05325868 2.2577303e-38
0.10222802 -0.12126322 -0.05325868 2.1934466e-38
0.1042093 -0.12126322 -0.05325868 2.2677883e-38
0.10619057 -0.12126322 -0.05325868 2.34173e-38
0.10782603 -0.12033533 -0.049353026 2.3509863e-38
0.10980047 -0.12033533 -0.049353026 2.3416952e-38
0.1121344 -0.12126322 -0.05325868 2.1941472e-38
0.11449655 -0.12222783 -0.057318948 4.9771221e-39
0.11686347 -0.12316893 -0.061280154 2.3030985e-39
0.11885882 -0.12316893 -0.061280154 4.6079906e-39
0.12085416 -0.12316893 -0.061280154 4.4232434e-39
-0.11878835 -0.11726747 -0.02828481 1.9070705e-38
-0.11640128 -0.11631607 -0.024309419 1.962639e-38
-0.11403134 -0.11537148 -0.020362638 2.1200553e-38
-0.11176915 -0.114632 -0.017272852 2.3140267e-38
-0.10910184 -0.11296929 -0.010325573 2.3509796e-38
-0.10719583 -0.11296929 -0.010325573 2.3509814e-38
-0.10528984 -0.11296929 -0.010325573 2.350803e-38
-0.10307267 -0.11224325 -0.0072919354 2.3509129e-38
-0.10117199 -0.11224325 -0.0072919354 2.3509153e-38
-0.098584153 -0.11058317 -0.00035550445 2.3508451e-38
-0.096695639 -0.11058317 -0.00035550445 2.3508092e-38
-0.094807111 -0.11058317 -0.00035550445 2.3508092e-38
-0.092918597 -0.11058317 -0.00035550445 2.3508451e-38
-0.091030069 -0.11058317 -0.00035550445 2.3508809e-38
-0.088779889 -0.10962458 0.0036498085 2.3509524e-38
-0.086898394 -0.10962458 0.0036498085 2.3509876e-38
-0.084495373 -0.10818647 0.0096586719 2.350987e-38
-0.082624413 -0.10818647 0.0096586719 2.3418032e-38
-0.080753453 -0.10818647 0.0096586719 2.3326201e-38
-0.078882493 -0.10818647 0.0096586719 2.3418038e-38
-0.077246018 -0.10888995 0.0067193285 2.3418035e-38
-0.075369902 -0.10888995 0.0067193285 2.3234361e-38
-0.063641839 -0.10721879 0.013702013 2.341804e-38
-0.061777972 -0.10721879 0.013702013 2.3418045e-38
-0.059914105 -0.10721879 0.013702013 2.341805e-38
-0.058050223 -0.10721879 0.013702013 2.3509527e-38
-0.056004129 -0.10649781 0.016714431 2.3509527e-38
-0.054145537 -0.10649781 0.016714431 2.3509168e-38
-0.052116252 -0.10578094 0.019709803 2.3509527e-38
-0.050262921 -0.10578094 0.019709803 2.3509886e-38
-0.048409574 -0.10578094 0.019709803 2.3509886e-38
-0.046556242 -0.10578094 0.019709803 2.3509886e-38
-0.044702895 -0.10578094 0.019709803 2.3509886e-38
-0.042705946 -0.1050681 0.022688247 2.3509886e-38
-0.040857829 -0.1050681 0.022688247 2.3509886e-38
-0.039142877 -0.10578094 0.019709803 2.3509886e-38
-0.037289537 -0.10578094 0.019709803 2.3509886e-38
-0.035436191 -0.10578094 0.019709803 2.3509886e-38
-0.033465356 -0.1050681 0.022688247 2.3509886e-38
-0.031617239 -0.1050681 0.022688247 2.3509886e-38
-0.029769121 -0.1050681 0.022688247 2.3509886e-38
-0.027782379 -0.10409774 0.026742794 2.3509886e-38
-0.02594137 -0.10409774 0.026742794 2.3509886e-38
-0.024100361 -0.10409774 0.026742794 2.3509886e-38
-0.022174323 -0.10339431 0.029681899 2.3509886e-38
-0.02033847 -0.10339431 0.029681899 2.3509886e-38
-0.018577332 -0.10409774 0.026742794 2.3509886e-38
-0.016832294 -0.1050681 0.022688247 2.3509886e-38
-0.015049456 -0.10578094 0.019709803 2.3509886e-38
-0.013196113 -0.10578094 0.019709803 2.3509886e-38
-0.011397919 -0.10649781 0.016714431 2.3509886e-38
-0.0095393267 -0.10649781 0.016714431 2.3509886e-38
-0.0077256281 -0.10721879 0.013702013 2.3509886e-38
-0.0058617573 -0.10721879 0.013702013 2.3509886e-38
-0.0039978828 -0.10721879 0.013702013 2.3509886e-38
-0.0021340083 -0.10721879 0.013702013 2.3509886e-38
-0.00027013384 -0.10721879 0.013702013 2.3509886e-38
0.0015937388 -0.10721879 0.013702013 2.3509886e-38
0.0034576133 -0.10721879 0.013702013 2.3509886e-38
0.0053214859 -0.10721879 0.013702013 2.3509886e-38
0.0071853604 -0.10721879 0.013702013 2.3509886e-38
0.0090492349 -0.10721879 0.013702013 2.3509886e-38
0.010923743 -0.10818647 0.0096586719 2.3509886e-38
0.012807591 -0.10888995 0.0067193285 2.3509886e-38
0.014727123 -0.11058317 -0.00035550445 2.3509886e-38
0.016615644 -0.11058317 -0.00035550445 2.3509886e-38
0.018533047 -0.11129995 -0.0033503994 2.3509886e-38
0.020426817 -0.11129995 -0.0033503994 2.3509886e-38
0.022320591 -0.11129995 -0.0033503994 2.3509886e-38
0.024214363 -0.11129995 -0.0033503994 2.3509886e-38
0.026108136 -0.11129995 -0.0033503994 2.3509886e-38
0.028001908 -0.11129995 -0.0033503994 2.3509886e-38
0.02989568 -0.11129995 -0.0033503994 2.3509886e-38
0.031875841 -0.11224325 -0.0072919354 2.3509886e-38
0.03384833 -0.11296929 -0.010325573 2.3509886e-38
0.03575433 -0.11296929 -0.010325573 2.3509886e-38
0.037740037 -0.11367123 -0.01325848 2.3509527e-38
0.039767317 -0.114632 -0.017272852 2.3509165e-38
0.041685499 -0.114632 -0.017272852 2.3508802e-38
0.043703906 -0.11537148 -0.020362638 2.3508439e-38
0.045627512 -0.11537148 -0.020362638 2.3416589e-38
0.047692969 -0.11631607 -0.024309419 2.304922e-38
0.049623489 -0.11631607 -0.024309419 2.2866238e-38
0.051710837 -0.11726747 -0.02828481 2.2683255e-38
0.05364833 -0.11726747 -0.02828481 2.2591403e-38
0.055716015 -0.11799283 -0.031315587 2.2314456e-38
0.057658821 -0.11799283 -0.031315587 2.2958759e-38
0.05960162 -0.11799283 -0.031315587 2.3509797e-38
0.061544426 -0.11799283 -0.031315587 2.3509814e-38
0.063487232 -0.11799283 -0.031315587 2.3508738e-38
0.065430038 -0.11799283 -0.031315587 2.2677175e-38
0.067372844 -0.11799283 -0.031315587 2.23091e-38
0.06953802 -0.11895646 -0.035341881 2.3322549e-38
0.071487881 -0.11895646 -0.035341881 2.3509151e-38
0.073437743 -0.11895646 -0.035341881 2.3508092e-38
0.075565852 -0.11966167 -0.038288496 2.3508445e-38
0.077520885 -0.11966167 -0.038288496 2.3509527e-38
0.079475909 -0.11966167 -0.038288496 2.3509168e-38
0.081699014 -0.12063743 -0.042365573 2.3049632e-38
0.083661191 -0.12063743 -0.042365573 2.3049632e-38
0.085899159 -0.12159048 -0.04634776 2.341805e-38
0.087868325 -0.12159048 -0.04634776 2.3509873e-38
0.089837484 -0.12159048 -0.04634776 2.3509143e-38
0.091806643 -0.12159048 -0.04634776 2.3505181e-38
0.094005026 -0.12230973 -0.049353026 2.3506246e-38
0.096284188 -0.12324448 -0.05325868 2.3506218e-38
0.098265462 -0.12324448 -0.05325868 2.3314218e-38
0.10024673 -0.12324448 -0.05325868 2.1839387e-38
0.10222802 -0.12324448 -0.05325868 2.2119224e-38
0.1042093 -0.12324448 -0.05325868 2.3508728e-38
0.10619057 -0.12324448 -0.05325868 2.3509496e-38
0.10782603 -0.12230973 -0.049353026 2.3509862e-38
0.10980047 -0.12230973 -0.049353026 2.3509869e-38
0.1121344 -0.12324448 -0.05325868 2.1296103e-38
0.11449655 -0.12421621 -0.057318948 5.8068827e-39
0.11686347 -0.12516426 -0.061280154 3.3172476e-39
0.11885882 -0.12516426 -0.061280154 5.0689674e-39
0.12085416 -0.12516426 -0.061280154 4.6079906e-39
-0.11878835 -0.11920498 -0.02828481 1.8884489e-38
-0.11640128 -0.11824657 -0.024309419 1.8793366e-38
-0.11368733 -0.11655019 -0.017272852 1.8244861e-38
-0.11132924 -0.11558239 -0.01325848 1.9261897e-38
-0.10910184 -0.1148753 -0.010325573 2.0644845e-38
-0.10719583 -0.1148753 -0.010325573 2.1659376e-38
-0.10528984 -0.1148753 -0.010325573 2.3410399e-38
-0.10307267 -0.11414395 -0.0072919354 2.3509821e-38
-0.10077462 -0.11319371 -0.0033503994 2.3509123e-38
-0.098584153 -0.11247168 -0.00035550445 2.3508423e-38
-0.096305884 -0.11150609 0.0036498085 2.3508794e-38
-0.094131075 -0.11076607 0.0067193285 2.3508445e-38
-0.092254959 -0.11076607 0.0067193285 2.3508807e-38
-0.090378828 -0.11076607 0.0067193285 2.3509161e-38
-0.088237308 -0.11005743 0.0096586719 2.3325127e-38
-0.086366348 -0.11005743 0.0096586719 2.3325843e-38
-0.084495373 -0.11005743 0.0096586719 2.3418035e-38
-0.082280584 -0.10908265 0.013702013 2.3418038e-38
-0.080416717 -0.10908265 0.013702013 2.3141455e-38
-0.078882493 -0.11005743 0.0096586719 2.350988e-38
-0.077011533 -0.11005743 0.0096586719 2.350988e-38
-0.075140558 -0.11005743 0.0096586719 2.3418043e-38
-0.072961219 -0.10908265 0.013702013 2.3418045e-38
-0.071097337 -0.10908265 0.013702013 2.3418043e-38
-0.06923347 -0.10908265 0.013702013 2.3418043e-38
-0.067369588 -0.10908265 0.013702013 2.3326206e-38
-0.065505721 -0.10908265 0.013702013 2.3418045e-38
-0.063641839 -0.10908265 0.013702013 2.3418047e-38
-0.061579905 -0.1083564 0.016714431 2.341805e-38
-0.059721313 -0.1083564 0.016714431 2.341805e-38
-0.057862721 -0.1083564 0.016714431 2.3509527e-38
-0.056004129 -0.1083564 0.016714431 2.3509527e-38
-0.053969599 -0.10763429 0.019709803 2.3509527e-38
-0.052116252 -0.10763429 0.019709803 2.3509527e-38
-0.050262921 -0.10763429 0.019709803 2.3509886e-38
-0.048250295 -0.10691623 0.022688247 2.3509886e-38
-0.046402179 -0.10691623 0.022688247 2.3509886e-38
-0.044554062 -0.10691623 0.022688247 2.3509886e-38
-0.042705946 -0.10691623 0.022688247 2.3509886e-38
-0.040857829 -0.10691623 0.022688247 2.3509886e-38
-0.039009713 -0.10691623 0.022688247 2.3509886e-38
-0.037161596 -0.10691623 0.022688247 2.3509886e-38
-0.03531348 -0.10691623 0.022688247 2.3509886e-38
-0.033465356 -0.10691623 0.022688247 2.3509886e-38
-0.031464398 -0.10593875 0.026742794 2.3509886e-38
-0.029623387 -0.10593875 0.026742794 2.3509886e-38
-0.027782379 -0.10593875 0.026742794 2.3509886e-38
-0.02594137 -0.10593875 0.026742794 2.3509886e-38
-0.024100361 -0.10593875 0.026742794 2.3509886e-38
-0.022174323 -0.10523017 0.029681899 2.3509886e-38
-0.02033847 -0.10523017 0.029681899 2.3509886e-38
-0.018577332 -0.10593875 0.026742794 2.3509886e-38
-0.016832294 -0.10691623 0.022688247 2.3509886e-38
-0.014984177 -0.10691623 0.022688247 2.3509886e-38
-0.013196113 -0.10763429 0.019709803 2.3509886e-38
-0.011397919 -0.1083564 0.016714431 2.3509886e-38
-0.0095393267 -0.1083564 0.016714431 2.3509886e-38
-0.0077256281 -0.10908265 0.013702013 2.3509886e-38
-0.0058617573 -0.10908265 0.013702013 2.3509886e-38
-0.0039978828 -0.10908265 0.013702013 2.3509886e-38
-0.0021340083 -0.10908265 0.013702013 2.3509886e-38
-0.00027013384 -0.10908265 0.013702013 2.3509886e-38
0.0016122255 -0.1083564 0.016714431 2.3509886e-38
0.0034708176 -0.1083564 0.016714431 2.3509886e-38
0.0053214859 -0.10908265 0.013702013 2.3509886e-38
0.0071853604 -0.10908265 0.013702013 2.3509886e-38
0.0090492349 -0.10908265 0.013702013 2.3509886e-38
0.010923743 -0.11005743 0.0096586719 2.3509886e-38
0.012821045 -0.11150609 0.0036498085 2.3509886e-38
