# .PCD v0.7 - Point Cloud Data file format
VERSION 0.7
FIELDS x y z rgb
SIZE 4 4 4 4
TYPE F F F F
COUNT 1 1 1 1
WIDTH 943
HEIGHT 1
VIEWPOINT 0 0 0 1 0 0 0
POINTS 943
DATA ascii
0.0094193304 -0.12501357 0.0060225204 2.3509527e-38
0.011158713 -0.12501357 0.0060225204 2.3509527e-38
0.013001689 -0.12584494 0.0029926375 2.3509527e-38
0.014852409 -0.12665437 4.286319e-05 2.3509527e-38
0.016602278 -0.12665437 4.286319e-05 2.3509527e-38
0.018473122 -0.12749584 -0.0030237362 2.3509527e-38
0.020228367 -0.12749584 -0.0030237362 2.3509527e-38
0.021983612 -0.12749584 -0.0030237362 2.3509527e-38
0.023738857 -0.12749584 -0.0030237362 2.3509886e-38
0.025494102 -0.12749584 -0.0030237362 2.3509886e-38
0.027393308 -0.12831511 -0.006009452 2.3509886e-38
0.02915379 -0.12831511 -0.006009452 2.3509886e-38
0.030914269 -0.12831511 -0.006009452 2.3509886e-38
0.032674748 -0.12831511 -0.006009452 2.3509886e-38
0.034435228 -0.12831511 -0.006009452 2.3509883e-38
0.03619571 -0.12831511 -0.006009452 2.3509876e-38
0.037956189 -0.12831511 -0.006009452 2.3417679e-38
0.039716668 -0.12831511 -0.006009452 2.3507002e-38
0.041664097 -0.12913923 -0.0090129301 2.35088e-38
0.04342984 -0.12913923 -0.0090129301 2.3507704e-38
0.045195583 -0.12913923 -0.0090129301 1.9541085e-38
0.047158476 -0.12994061 -0.011933438 1.751559e-38
0.048929345 -0.12994061 -0.011933438 2.1849502e-38
0.05091602 -0.13077454 -0.01497256 2.3509816e-38
0.052692216 -0.13077454 -0.01497256 2.3509856e-38
0.054468405 -0.13077454 -0.01497256 2.3509168e-38
0.056477796 -0.13161351 -0.01803004 2.3508091e-38
0.058259357 -0.13161351 -0.01803004 2.350987e-38
0.06004091 -0.13161351 -0.01803004 2.3509865e-38
0.061822463 -0.13161351 -0.01803004 2.3416597e-38
0.063604027 -0.13161351 -0.01803004 2.3418031e-38
0.065638393 -0.13242932 -0.02100312 2.2682247e-38
0.067684725 -0.13324992 -0.023993723 2.2591127e-38
0.069476739 -0.13324992 -0.023993723 2.2957768e-38
0.071540385 -0.13407536 -0.02700197 2.3233639e-38
0.073616207 -0.13490568 -0.030027859 2.3509858e-38
0.075418785 -0.13490568 -0.030027859 2.3509851e-38
0.077221379 -0.13490568 -0.030027859 2.3509846e-38
0.079023972 -0.13490568 -0.030027859 2.3509853e-38
0.081117675 -0.13571201 -0.032966487 2.3509869e-38
0.082925424 -0.13571201 -0.032966487 2.3416974e-38
0.084733173 -0.13571201 -0.032966487 2.332478e-38
0.086540908 -0.13571201 -0.032966487 2.3324421e-38
0.088673398 -0.13655205 -0.036027901 2.3416974e-38
0.090486512 -0.13655205 -0.036027901 2.3417333e-38
0.092299625 -0.13655205 -0.036027901 2.3509883e-38
0.094112739 -0.13655205 -0.036027901 2.350988e-38
0.095925853 -0.13655205 -0.036027901 2.2774113e-38
0.097738966 -0.13655205 -0.036027901 2.0377026e-38
0.09955208 -0.13655205 -0.036027901 1.5214071e-38
0.10183057 -0.13763104 -0.039960138 7.8373418e-39
0.10365057 -0.13763104 -0.039960138 7.5603948e-39
-0.14205034 -0.13945107 -0.039960138 1.4466358e-38
-0.13977873 -0.13836516 -0.036027901 1.5202447e-38
-0.13728708 -0.13670824 -0.030027859 1.6767961e-38
-0.068691276 -0.11624713 0.044066377 2.3509527e-38
-0.063540697 -0.11542852 0.047030754 2.3509873e-38
-0.061873212 -0.11542852 0.047030754 2.3509866e-38
-0.060327873 -0.11624713 0.044066377 2.1390077e-38
-0.058655191 -0.11624713 0.044066377 1.3737835e-38
-0.056982514 -0.11624713 0.044066377 1.4844183e-38
-0.055309832 -0.11624713 0.044066377 2.2404227e-38
-0.053708166 -0.11682071 0.041989334 2.3509863e-38
-0.052031845 -0.11682071 0.041989334 2.2680108e-38
-0.050355524 -0.11682071 0.041989334 2.3233288e-38
-0.048853092 -0.11848058 0.035978563 2.3417323e-38
-0.047166228 -0.11848058 0.035978563 2.3509873e-38
-0.045528397 -0.11901312 0.034050114 2.350987e-38
-0.043910254 -0.11985429 0.031004138 2.3048893e-38
-0.042214669 -0.11985429 0.031004138 2.350987e-38
-0.040519089 -0.11985429 0.031004138 2.350987e-38
-0.038823508 -0.11985429 0.031004138 2.3417673e-38
-0.037177429 -0.12067504 0.028031953 2.350987e-38
-0.035476636 -0.12067504 0.028031953 2.1297531e-38
-0.033775844 -0.12067504 0.028031953 2.2957052e-38
-0.032075047 -0.12067504 0.028031953 2.3233636e-38
-0.030374255 -0.12067504 0.028031953 2.3049245e-38
-0.028697055 -0.12150083 0.025041528 2.2403876e-38
-0.026991017 -0.12150083 0.025041528 2.3141441e-38
-0.025284979 -0.12150083 0.025041528 2.0283373e-38
-0.023578944 -0.12150083 0.025041528 1.7978486e-38
-0.021874718 -0.12207155 0.022974856 2.350987e-38
-0.020162491 -0.12287988 0.020047791 2.350988e-38
-0.018447697 -0.12287988 0.020047791 2.3509886e-38
-0.016732905 -0.12287988 0.020047791 2.3509886e-38
-0.015018111 -0.12287988 0.020047791 2.3509886e-38
-0.013303318 -0.12287988 0.020047791 2.3509886e-38
-0.01155921 -0.12371938 0.017007776 2.3509886e-38
-0.0098390868 -0.12371938 0.017007776 2.3509886e-38
-0.0081189638 -0.12371938 0.017007776 2.3509886e-38
-0.0063546817 -0.12453763 0.01404471 2.3509886e-38
-0.0046293638 -0.12453763 0.01404471 2.3509886e-38
-0.0028491647 -0.12536083 0.011063702 2.3509886e-38
-0.0010776941 -0.12592132 0.009034045 2.3509886e-38
0.00065640797 -0.12592132 0.009034045 2.3509886e-38
0.002390512 -0.12592132 0.009034045 2.3509886e-38
0.0041246158 -0.12592132 0.009034045 2.3509886e-38
0.0058587198 -0.12592132 0.009034045 2.3509886e-38
0.007592822 -0.12592132 0.009034045 2.3509886e-38
0.0094193304 -0.12675296 0.0060225204 2.3509886e-38
0.011158713 -0.12675296 0.0060225204 2.3509886e-38
0.0128981 -0.12675296 0.0060225204 2.3509886e-38
0.014746387 -0.12758966 0.0029926375 2.3509886e-38
0.016602278 -0.12840421 4.286319e-05 2.3509886e-38
0.018473122 -0.12925108 -0.0030237362 2.3509886e-38
0.020228367 -0.12925108 -0.0030237362 2.3509886e-38
0.021983612 -0.12925108 -0.0030237362 2.3509886e-38
0.023738857 -0.12925108 -0.0030237362 2.3509886e-38
0.025494102 -0.12925108 -0.0030237362 2.3509886e-38
0.027393308 -0.13007559 -0.006009452 2.3509886e-38
0.02915379 -0.13007559 -0.006009452 2.3509886e-38
0.030914269 -0.13007559 -0.006009452 2.3509886e-38
0.032674748 -0.13007559 -0.006009452 2.3509886e-38
0.034435228 -0.13007559 -0.006009452 2.3509883e-38
0.03619571 -0.13007559 -0.006009452 2.3232932e-38
0.038132604 -0.13090499 -0.0090129301 2.3416234e-38
0.039898347 -0.13090499 -0.0090129301 2.3509859e-38
0.041664097 -0.13090499 -0.0090129301 2.276832e-38
0.04342984 -0.13090499 -0.0090129301 1.8987203e-38
0.045195583 -0.13090499 -0.0090129301 1.9909853e-38
0.047158476 -0.1317115 -0.011933438 2.267713e-38
0.048929345 -0.1317115 -0.011933438 2.350906e-38
0.05091602 -0.13255073 -0.01497256 2.3509108e-38
0.052692216 -0.13255073 -0.01497256 2.3322595e-38
0.054468405 -0.13255073 -0.01497256 2.3138237e-38
0.056477796 -0.13339506 -0.01803004 2.3508092e-38
0.058259357 -0.13339506 -0.01803004 2.3325835e-38
0.06004091 -0.13339506 -0.01803004 2.2865206e-38
0.061822463 -0.13339506 -0.01803004 2.3509144e-38
0.063604027 -0.13339506 -0.01803004 2.3509863e-38
0.06538558 -0.13339506 -0.01803004 2.2775162e-38
0.067425162 -0.13421609 -0.02100312 2.2683327e-38
0.06921193 -0.13421609 -0.02100312 2.305068e-38
0.071540385 -0.13587265 -0.02700197 2.3417673e-38
0.073616207 -0.13670824 -0.030027859 2.3509879e-38
0.075418785 -0.13670824 -0.030027859 2.3509521e-38
0.077221379 -0.13670824 -0.030027859 2.350916e-38
0.079023972 -0.13670824 -0.030027859 2.3416603e-38
0.081117675 -0.13751976 -0.032966487 2.3509876e-38
0.082925424 -0.13751976 -0.032966487 2.3509879e-38
0.084733173 -0.13751976 -0.032966487 2.341805e-38
0.086540908 -0.13751976 -0.032966487 2.341805e-38
0.088673398 -0.13836516 -0.036027901 2.3509527e-38
0.090486512 -0.13836516 -0.036027901 2.3233302e-38
0.092299625 -0.13836516 -0.036027901 2.3417327e-38
0.094112739 -0.13836516 -0.036027901 2.350988e-38
0.095925853 -0.13836516 -0.036027901 2.3234374e-38
0.097738966 -0.13836516 -0.036027901 2.0101158e-38
0.09955208 -0.13836516 -0.036027901 1.4845289e-38
0.10183057 -0.13945107 -0.039960138 6.7320732e-39
0.10365057 -0.13945107 -0.039960138 6.546603e-39
-0.14205034 -0.14127107 -0.039960138 1.4466722e-38
-0.13694488 -0.13766994 -0.02700197 1.6491727e-38
-0.063540697 -0.11709599 0.047030754 2.2957052e-38
-0.061873212 -0.11709599 0.047030754 2.3418022e-38
-0.060327873 -0.11791982 0.044066377 1.807103e-38
-0.058655191 -0.11791982 0.044066377 1.2355254e-38
-0.056982514 -0.11791982 0.044066377 1.3922577e-38
-0.055384487 -0.11849703 0.041989334 2.1482622e-38
-0.053708166 -0.11849703 0.041989334 2.3509856e-38
-0.052129023 -0.11932962 0.038993366 2.3509863e-38
-0.050447449 -0.11932962 0.038993366 2.3509869e-38
-0.048908882 -0.12070335 0.034050114 2.350987e-38
-0.047301419 -0.12154986 0.031004138 2.3141441e-38
-0.045605838 -0.12154986 0.031004138 2.3509863e-38
-0.043910254 -0.12154986 0.031004138 2.3509866e-38
-0.042214669 -0.12154986 0.031004138 2.3509863e-38
-0.040579017 -0.12237583 0.028031953 2.3049242e-38
-0.038878225 -0.12237583 0.028031953 2.3509863e-38
-0.037177429 -0.12237583 0.028031953 2.3509863e-38
-0.035476636 -0.12237583 0.028031953 1.6780295e-38
-0.033775844 -0.12237583 0.028031953 1.309247e-38
-0.032075047 -0.12237583 0.028031953 2.2312032e-38
-0.030374255 -0.12237583 0.028031953 2.3509859e-38
-0.028673459 -0.12237583 0.028031953 2.0099337e-38
-0.026991017 -0.1232069 0.025041528 2.0468119e-38
-0.025284979 -0.1232069 0.025041528 1.65959e-38
-0.023578944 -0.1232069 0.025041528 1.3461251e-38
-0.021874718 -0.12378122 0.022974856 2.3233634e-38
-0.020162491 -0.12459467 0.020047791 2.3509879e-38
-0.018447697 -0.12459467 0.020047791 2.3509886e-38
-0.016732905 -0.12459467 0.020047791 2.3509886e-38
-0.015018111 -0.12459467 0.020047791 2.3509886e-38
-0.013303318 -0.12459467 0.020047791 2.3509886e-38
-0.01155921 -0.12543948 0.017007776 2.3509886e-38
-0.0098390868 -0.12543948 0.017007776 2.3509886e-38
-0.0081189638 -0.12543948 0.017007776 2.3509886e-38
-0.0063546817 -0.12626295 0.01404471 2.3509886e-38
-0.0046293638 -0.12626295 0.01404471 2.3509886e-38
-0.0028491647 -0.12709136 0.011063702 2.3509886e-38
-0.0010776941 -0.12765543 0.009034045 2.3509886e-38
0.00065640797 -0.12765543 0.009034045 2.3509886e-38
0.002390512 -0.12765543 0.009034045 2.3509886e-38
0.0041246158 -0.12765543 0.009034045 2.3509886e-38
0.0058587198 -0.12765543 0.009034045 2.3509886e-38
0.007592822 -0.12765543 0.009034045 2.3509883e-38
0.0093269264 -0.12765543 0.009034045 2.3509883e-38
0.011158713 -0.12849234 0.0060225204 2.3509883e-38
0.0128981 -0.12849234 0.0060225204 2.3509883e-38
0.014746387 -0.12933435 0.0029926375 2.350988e-38
0.016602278 -0.13015409 4.286319e-05 2.350988e-38
0.018352147 -0.13015409 4.286319e-05 2.350988e-38
0.020228367 -0.13100632 -0.0030237362 2.350988e-38
0.021983612 -0.13100632 -0.0030237362 2.350988e-38
0.023738857 -0.13100632 -0.0030237362 2.350988e-38
0.025494102 -0.13100632 -0.0030237362 2.3509883e-38
0.027249347 -0.13100632 -0.0030237362 2.3509883e-38
0.029004592 -0.13100632 -0.0030237362 2.3509883e-38
0.030914269 -0.13183604 -0.006009452 2.3509883e-38
0.032674748 -0.13183604 -0.006009452 2.3509883e-38
0.034435228 -0.13183604 -0.006009452 2.3509883e-38
0.03619571 -0.13183604 -0.006009452 2.3509879e-38
0.038132604 -0.13267075 -0.0090129301 2.3508417e-38
0.039898347 -0.13267075 -0.0090129301 2.3509821e-38
0.041845877 -0.13348235 -0.011933438 2.138677e-38
0.04342984 -0.13267075 -0.0090129301 1.8527972e-38
0.045195583 -0.13267075 -0.0090129301 2.2859736e-38
0.047158476 -0.13348235 -0.011933438 2.3509821e-38
0.048929345 -0.13348235 -0.011933438 2.3509116e-38
0.05091602 -0.13432692 -0.01497256 2.3509844e-38
0.052692216 -0.13432692 -0.01497256 2.3509504e-38
0.054468405 -0.13432692 -0.01497256 2.3508451e-38
0.056477796 -0.13517661 -0.01803004 2.3508809e-38
0.058259357 -0.13517661 -0.01803004 2.3418021e-38
0.06004091 -0.13517661 -0.01803004 2.3050296e-38
0.061822463 -0.13517661 -0.01803004 2.3418005e-38
0.063604027 -0.13517661 -0.01803004 2.3234336e-38
0.06538558 -0.13517661 -0.01803004 2.2958836e-38
0.067425162 -0.13600285 -0.02100312 2.3050677e-38
0.06921193 -0.13600285 -0.02100312 2.3418028e-38
0.071540385 -0.13766994 -0.02700197 2.3509876e-38
0.073337674 -0.13766994 -0.02700197 2.3508809e-38
0.075418785 -0.13851084 -0.030027859 2.3507733e-38
0.077221379 -0.13851084 -0.030027859 2.3507016e-38
0.079023972 -0.13851084 -0.030027859 2.3507733e-38
0.080826566 -0.13851084 -0.030027859 2.3509879e-38
0.082925424 -0.13932751 -0.032966487 2.3418031e-38
0.084733173 -0.13932751 -0.032966487 2.3418031e-38
0.086540908 -0.13932751 -0.032966487 2.3418035e-38
0.088673398 -0.14017828 -0.036027901 2.3509883e-38
0.090486512 -0.14017828 -0.036027901 2.3325494e-38
0.092299625 -0.14017828 -0.036027901 2.3417324e-38
0.094112739 -0.14017828 -0.036027901 2.3509879e-38
0.095925853 -0.14017828 -0.036027901 2.3234374e-38
0.097738966 -0.14017828 -0.036027901 2.0102237e-38
0.09955208 -0.14017828 -0.036027901 1.521479e-38
0.10136519 -0.14017828 -0.036027901 6.8242689e-39
-0.14205034 -0.14309107 -0.039960138 1.5112455e-38
-0.13694488 -0.13946722 -0.02700197 1.5385027e-38
-0.063540697 -0.11876349 0.047030754 1.4198465e-38
-0.061873212 -0.11876349 0.047030754 1.4844187e-38
-0.060327873 -0.1195925 0.044066377 1.4936381e-38
-0.058655191 -0.1195925 0.044066377 1.5212245e-38
-0.056982514 -0.1195925 0.044066377 1.6502981e-38
-0.055384487 -0.12017335 0.041989334 1.8992266e-38
-0.053810596 -0.12101121 0.038993366 2.1573389e-38
-0.052226812 -0.12185432 0.035978563 2.2587188e-38
-0.050599124 -0.12239362 0.034050114 2.1388649e-38
-0.048997 -0.12324543 0.031004138 1.9452176e-38
-0.047301419 -0.12324543 0.031004138 1.8990821e-38
-0.045605838 -0.12324543 0.031004138 2.1203871e-38
-0.043980606 -0.12407662 0.028031953 2.1388262e-38
-0.04227981 -0.12407662 0.028031953 2.1387905e-38
-0.040579017 -0.12407662 0.028031953 2.0373753e-38
-0.038878225 -0.12407662 0.028031953 2.2309864e-38
-0.037177429 -0.12407662 0.028031953 2.1848886e-38
-0.035476636 -0.12407662 0.028031953 1.2076152e-38
-0.033775844 -0.12407662 0.028031953 1.5026412e-38
-0.032075047 -0.12407662 0.028031953 2.203328e-38
-0.030374255 -0.12407662 0.028031953 2.0926932e-38
-0.028673459 -0.12407662 0.028031953 8.5734411e-39
-0.026991017 -0.12491293 0.025041528 8.0202673e-39
-0.025284979 -0.12491293 0.025041528 1.8622765e-38
-0.023584379 -0.12549089 0.022974856 2.2772287e-38
-0.021874718 -0.12549089 0.022974856 2.3509863e-38
-0.020162491 -0.12630944 0.020047791 2.350988e-38
-0.018447697 -0.12630944 0.020047791 2.3509527e-38
-0.016732905 -0.12630944 0.020047791 2.3509527e-38
-0.015018111 -0.12630944 0.020047791 2.3509527e-38
-0.013303318 -0.12630944 0.020047791 2.3509527e-38
-0.01155921 -0.12715961 0.017007776 2.3509527e-38
-0.0098390868 -0.12715961 0.017007776 2.3509527e-38
-0.0081189638 -0.12715961 0.017007776 2.3509527e-38
-0.0063546817 -0.12798826 0.01404471 2.3509527e-38
-0.0046293638 -0.12798826 0.01404471 2.3509527e-38
-0.0028491647 -0.12882192 0.011063702 2.3509527e-38
-0.0010776941 -0.12938951 0.009034045 2.3509527e-38
0.00065640797 -0.12938951 0.009034045 2.3509527e-38
0.002390512 -0.12938951 0.009034045 2.3509527e-38
0.0041246158 -0.12938951 0.009034045 2.3509527e-38
0.0058587198 -0.12938951 0.009034045 2.3509527e-38
0.007592822 -0.12938951 0.009034045 2.3509521e-38
0.0093269264 -0.12938951 0.009034045 2.3509521e-38
0.011061032 -0.12938951 0.009034045 2.3509524e-38
0.0128981 -0.13023172 0.0060225204 2.3509527e-38
0.014637482 -0.13023172 0.0060225204 2.3509527e-38
0.016491082 -0.13107903 0.0029926375 2.3509527e-38
0.018352147 -0.13190396 4.286319e-05 2.3509527e-38
0.020102013 -0.13190396 4.286319e-05 2.3509886e-38
0.021851882 -0.13190396 4.286319e-05 2.3509886e-38
0.023601752 -0.13190396 4.286319e-05 2.350988e-38
0.025494102 -0.13276155 -0.0030237362 2.350988e-38
0.027249347 -0.13276155 -0.0030237362 2.3509879e-38
0.029004592 -0.13276155 -0.0030237362 2.3509876e-38
0.030914269 -0.13359652 -0.006009452 2.3509879e-38
0.032674748 -0.13359652 -0.006009452 2.3509879e-38
0.034435228 -0.13359652 -0.006009452 2.3509873e-38
0.03619571 -0.13359652 -0.006009452 2.3509137e-38
0.038132604 -0.13443647 -0.0090129301 1.9820204e-38
0.039898347 -0.13443647 -0.0090129301 1.9913082e-38
0.041845877 -0.13525321 -0.011933438 2.2217233e-38
0.043616746 -0.13525321 -0.011933438 2.3509775e-38
0.045387607 -0.13525321 -0.011933438 2.3509799e-38
0.047158476 -0.13525321 -0.011933438 2.3504807e-38
0.048929345 -0.13525321 -0.011933438 2.3508787e-38
0.05091602 -0.13610314 -0.01497256 2.3509135e-38
0.052692216 -0.13610314 -0.01497256 2.3507702e-38
0.054468405 -0.13610314 -0.01497256 2.3322627e-38
0.056477796 -0.13695817 -0.01803004 2.3139312e-38
0.058259357 -0.13695817 -0.01803004 2.3141069e-38
0.06004091 -0.13695817 -0.01803004 2.3509841e-38
0.061822463 -0.13695817 -0.01803004 2.3509844e-38
0.063604027 -0.13695817 -0.01803004 2.2865553e-38
0.06538558 -0.13695817 -0.01803004 2.3050676e-38
0.067425162 -0.13778962 -0.02100312 2.3142518e-38
0.06921193 -0.13778962 -0.02100312 2.3234357e-38
0.071268752 -0.13862596 -0.023993723 2.341804e-38
0.073337674 -0.13946722 -0.02700197 2.3508809e-38
0.075134948 -0.13946722 -0.02700197 2.3507016e-38
0.077221379 -0.14031343 -0.030027859 2.3508092e-38
0.079023972 -0.14031343 -0.030027859 2.3508809e-38
0.080826566 -0.14031343 -0.030027859 2.3509879e-38
0.082925424 -0.14113526 -0.032966487 2.314252e-38
0.084733173 -0.14113526 -0.032966487 2.2867009e-38
0.086540908 -0.14113526 -0.032966487 2.3234362e-38
0.088673398 -0.14199139 -0.036027901 2.3418047e-38
0.090486512 -0.14199139 -0.036027901 2.3509886e-38
0.092299625 -0.14199139 -0.036027901 2.3509883e-38
0.094112739 -0.14199139 -0.036027901 2.350988e-38
0.095925853 -0.14199139 -0.036027901 2.2958867e-38
0.097738966 -0.14199139 -0.036027901 1.991749e-38
0.09955208 -0.14199139 -0.036027901 1.5584652e-38
0.10136519 -0.14199139 -0.036027901 7.2870449e-39
-0.14205034 -0.14491107 -0.039960138 1.4744754e-38
-0.13694488 -0.14126451 -0.02700197 1.5661628e-38
-0.13236713 -0.13873972 -0.01803004 1.6949107e-38
-0.065345913 -0.12126519 0.044066377 1.4014438e-38
-0.063673228 -0.12126519 0.044066377 1.3183958e-38
-0.062000554 -0.12126519 0.044066377 1.6503001e-38
-0.060327873 -0.12126519 0.044066377 1.6594476e-38
-0.058655191 -0.12126519 0.044066377 1.5210823e-38
-0.057060812 -0.12184967 0.041989334 1.760683e-38
-0.055384487 -0.12184967 0.041989334 1.7606833e-38
-0.053913675 -0.12354116 0.035978563 1.7606117e-38
-0.052226812 -0.12354116 0.035978563 2.1109195e-38
-0.050599124 -0.12408386 0.034050114 2.2584327e-38
-0.048997 -0.12494104 0.031004138 1.4010474e-38
-0.047301419 -0.12494104 0.031004138 1.179666e-38
-0.045605838 -0.12494104 0.031004138 1.9633632e-38
-0.043980606 -0.12577744 0.028031953 2.2122557e-38
-0.04227981 -0.12577744 0.028031953 1.5115694e-38
-0.040579017 -0.12577744 0.028031953 1.3270708e-38
-0.038878225 -0.12577744 0.028031953 1.9540017e-38
-0.037177429 -0.12577744 0.028031953 2.0092838e-38
-0.035476636 -0.12577744 0.028031953 1.4837335e-38
-0.033775844 -0.12577744 0.028031953 1.6036242e-38
-0.032075047 -0.12577744 0.028031953 2.2397744e-38
-0.030374255 -0.12577744 0.028031953 2.1291762e-38
-0.028673459 -0.12577744 0.028031953 9.7680312e-39
-0.026991017 -0.12661897 0.025041528 7.1869151e-39
-0.025284979 -0.12661897 0.025041528 2.3508421e-38
-0.023584379 -0.12720053 0.022974856 2.3509503e-38
-0.021874718 -0.12720053 0.022974856 2.3509151e-38
-0.020165056 -0.12720053 0.022974856 2.3509524e-38
-0.018447697 -0.12802424 0.020047791 2.3509168e-38
-0.016732905 -0.12802424 0.020047791 2.3509168e-38
-0.015018111 -0.12802424 0.020047791 2.3509168e-38
-0.013303318 -0.12802424 0.020047791 2.3509168e-38
-0.01155921 -0.12887974 0.017007776 2.3509168e-38
-0.0098390868 -0.12887974 0.017007776 2.3509168e-38
-0.0081189638 -0.12887974 0.017007776 2.3509168e-38
-0.0063546817 -0.12971358 0.01404471 2.3509168e-38
-0.0045797094 -0.13055246 0.011063702 2.3509168e-38
-0.0028491647 -0.13055246 0.011063702 2.3509168e-38
-0.0011186202 -0.13055246 0.011063702 2.3509168e-38
0.00065640797 -0.13112362 0.009034045 2.3509168e-38
0.002390512 -0.13112362 0.009034045 2.3509168e-38
0.0041246158 -0.13112362 0.009034045 2.3509168e-38
0.0058587198 -0.13112362 0.009034045 2.3508809e-38
0.007592822 -0.13112362 0.009034045 2.3508804e-38
0.0093269264 -0.13112362 0.009034045 2.3508445e-38
0.011061032 -0.13112362 0.009034045 2.350737e-38
0.0128981 -0.13197111 0.0060225204 2.3507374e-38
0.014637482 -0.13197111 0.0060225204 2.3508092e-38
0.016491082 -0.13282375 0.0029926375 2.3508092e-38
0.018235777 -0.13282375 0.0029926375 2.3508092e-38
0.020102013 -0.13365383 4.286319e-05 2.3508809e-38
0.021851882 -0.13365383 4.286319e-05 2.3509168e-38
0.023601752 -0.13365383 4.286319e-05 2.2955996e-38
0.025494102 -0.13451682 -0.0030237362 2.3049259e-38
0.027249347 -0.13451682 -0.0030237362 2.304961e-38
0.029004592 -0.13451682 -0.0030237362 2.3509869e-38
0.030914269 -0.13535701 -0.006009452 2.3509869e-38
0.032674748 -0.13535701 -0.006009452 2.3141089e-38
0.034435228 -0.13535701 -0.006009452 2.3509853e-38
0.036366858 -0.13620223 -0.0090129301 2.3509092e-38
0.038132604 -0.13620223 -0.0090129301 2.0095675e-38
0.039898347 -0.13620223 -0.0090129301 1.8897488e-38
0.041845877 -0.13702409 -0.011933438 2.240129e-38
0.043616746 -0.13702409 -0.011933438 2.3509816e-38
0.045387607 -0.13702409 -0.011933438 2.3509834e-38
0.047158476 -0.13702409 -0.011933438 2.3508056e-38
0.048929345 -0.13702409 -0.011933438 2.350951e-38
0.05091602 -0.13787933 -0.01497256 2.3509507e-38
0.052692216 -0.13787933 -0.01497256 2.3509869e-38
0.054468405 -0.13787933 -0.01497256 2.3509517e-38
0.056244601 -0.13787933 -0.01497256 2.3509873e-38
0.058259357 -0.13873972 -0.01803004 2.350986e-38
0.06004091 -0.13873972 -0.01803004 2.3509856e-38
0.061822463 -0.13873972 -0.01803004 2.3509856e-38
0.063604027 -0.13873972 -0.01803004 2.3509859e-38
0.06538558 -0.13873972 -0.01803004 2.3418031e-38
0.067425162 -0.13957639 -0.02100312 2.3234362e-38
0.06921193 -0.13957639 -0.02100312 2.3234364e-38
0.071268752 -0.14041798 -0.023993723 2.3142532e-38
0.073337674 -0.14126451 -0.02700197 2.3234015e-38
0.075134948 -0.14126451 -0.02700197 2.3141466e-38
0.077221379 -0.14211603 -0.030027859 2.3232944e-38
0.079023972 -0.14211603 -0.030027859 2.3233302e-38
0.080826566 -0.14211603 -0.030027859 2.3418045e-38
0.082925424 -0.14294298 -0.032966487 2.3418043e-38
0.084733173 -0.14294298 -0.032966487 2.3234372e-38
0.086540908 -0.14294298 -0.032966487 2.3234376e-38
0.088673398 -0.14380451 -0.036027901 2.3234379e-38
0.090910524 -0.14491107 -0.039960138 2.341805e-38
0.092299625 -0.14380451 -0.036027901 2.341805e-38
0.094112739 -0.14380451 -0.036027901 2.3142544e-38
0.095925853 -0.14380451 -0.036027901 2.3142544e-38
0.097738966 -0.14380451 -0.036027901 2.0378471e-38
0.09955208 -0.14380451 -0.036027901 1.4570863e-38
-0.14205034 -0.14673109 -0.039960138 1.4744754e-38
-0.065345913 -0.12293784 0.044066377 1.7702266e-38
-0.063673228 -0.12293784 0.044066377 2.0651807e-38
-0.062000554 -0.12293784 0.044066377 2.1665962e-38
-0.060413454 -0.12352599 0.041989334 1.7146578e-38
-0.058737133 -0.12352599 0.041989334 1.336656e-38
-0.057060812 -0.12352599 0.041989334 1.2996699e-38
-0.055492174 -0.12437434 0.038993366 1.4286718e-38
-0.053810596 -0.12437434 0.038993366 1.4378197e-38
-0.052226812 -0.12522803 0.035978563 1.3640632e-38
-0.050599124 -0.1257741 0.034050114 1.3825023e-38
-0.048997 -0.12663661 0.031004138 1.4101227e-38
-0.047301419 -0.12663661 0.031004138 1.382424e-38
-0.045605838 -0.12663661 0.031004138 2.0738532e-38
-0.043980606 -0.12747823 0.028031953 2.0277557e-38
-0.04227981 -0.12747823 0.028031953 1.4099736e-38
-0.040519089 -0.12663661 0.031004138 1.5390123e-38
-0.038823508 -0.12663661 0.031004138 2.2304444e-38
-0.037127923 -0.12663661 0.031004138 2.0644569e-38
-0.035432339 -0.12663661 0.031004138 1.1609046e-38
-0.033775844 -0.12747823 0.028031953 1.8431169e-38
-0.032041173 -0.12663661 0.031004138 2.1566188e-38
-0.030345593 -0.12663661 0.031004138 2.0829346e-38
-0.028673459 -0.12747823 0.028031953 9.7665921e-39
-0.026991017 -0.128325 0.025041528 8.7538807e-39
-0.025284979 -0.128325 0.025041528 2.3509146e-38
-0.023578944 -0.128325 0.025041528 2.3506267e-38
-0.021874718 -0.1289102 0.022974856 2.3508794e-38
-0.020165056 -0.1289102 0.022974856 2.3509524e-38
-0.018455395 -0.1289102 0.022974856 2.3509886e-38
-0.016745735 -0.1289102 0.022974856 2.3509527e-38
-0.015018111 -0.12973903 0.020047791 2.3509527e-38
-0.013303318 -0.12973903 0.020047791 2.3509527e-38
-0.01155921 -0.13059987 0.017007776 2.3509527e-38
-0.0098390868 -0.13059987 0.017007776 2.3509527e-38
-0.0081189638 -0.13059987 0.017007776 2.3509527e-38
-0.0063546817 -0.1314389 0.01404471 2.3509527e-38
-0.0045797094 -0.13228302 0.011063702 2.3509527e-38
-0.0028491647 -0.13228302 0.011063702 2.3509527e-38
-0.0011186202 -0.13228302 0.011063702 2.3509524e-38
0.00065640797 -0.13285773 0.009034045 2.3509527e-38
0.002390512 -0.13285773 0.009034045 2.3509527e-38
0.0041246158 -0.13285773 0.009034045 2.3509527e-38
0.0058587198 -0.13285773 0.009034045 2.3509527e-38
0.007592822 -0.13285773 0.009034045 2.3507726e-38
0.0093269264 -0.13285773 0.009034045 2.3508446e-38
0.011158713 -0.13371049 0.0060225204 2.3508809e-38
0.0128981 -0.13371049 0.0060225204 2.3508809e-38
0.014637482 -0.13371049 0.0060225204 2.3508451e-38
0.016491082 -0.13456844 0.0029926375 2.3508451e-38
0.018235777 -0.13456844 0.0029926375 2.3508809e-38
0.020102013 -0.13540371 4.286319e-05 2.3508451e-38
0.021851882 -0.13540371 4.286319e-05 2.3509168e-38
0.023601752 -0.13540371 4.286319e-05 2.332478e-38
0.025494102 -0.13627206 -0.0030237362 2.350988e-38
0.027249347 -0.13627206 -0.0030237362 2.350987e-38
0.029004592 -0.13627206 -0.0030237362 2.350986e-38
0.030914269 -0.13711749 -0.006009452 2.3509846e-38
0.032674748 -0.13711749 -0.006009452 2.1203871e-38
0.034435228 -0.13711749 -0.006009452 2.0189699e-38
0.036366858 -0.13796796 -0.0090129301 2.2309446e-38
0.038132604 -0.13796796 -0.0090129301 2.3415068e-38
0.039898347 -0.13796796 -0.0090129301 2.35098e-38
0.041845877 -0.13879494 -0.011933438 2.3509821e-38
0.043616746 -0.13879494 -0.011933438 2.3509118e-38
0.045387607 -0.13879494 -0.011933438 2.3508054e-38
0.047158476 -0.13879494 -0.011933438 2.3508784e-38
0.048929345 -0.13879494 -0.011933438 2.3509873e-38
0.05091602 -0.13965552 -0.01497256 2.3509876e-38
0.052692216 -0.13965552 -0.01497256 2.3509876e-38
0.054468405 -0.13965552 -0.01497256 2.3509873e-38
0.056244601 -0.13965552 -0.01497256 2.350987e-38
0.058259357 -0.14052127 -0.01803004 2.350987e-38
0.06004091 -0.14052127 -0.01803004 2.3509869e-38
0.061822463 -0.14052127 -0.01803004 2.3509869e-38
0.063604027 -0.14052127 -0.01803004 2.350987e-38
0.065638393 -0.14136316 -0.02100312 2.3049975e-38
0.067684725 -0.14220999 -0.023993723 2.2958503e-38
0.069476739 -0.14220999 -0.023993723 2.3326206e-38
0.071540385 -0.1430618 -0.02700197 2.3418043e-38
0.073337674 -0.1430618 -0.02700197 2.350988e-38
0.075418785 -0.14391862 -0.030027859 2.350988e-38
0.077221379 -0.14391862 -0.030027859 2.3509521e-38
0.079023972 -0.14391862 -0.030027859 2.3509521e-38
0.081117675 -0.14475073 -0.032966487 2.3508804e-38
0.082925424 -0.14475073 -0.032966487 2.3324775e-38
0.084733173 -0.14475073 -0.032966487 2.3048907e-38
0.086860284 -0.14561762 -0.036027901 2.2864879e-38
0.088673398 -0.14561762 -0.036027901 2.2773763e-38
0.090910524 -0.14673109 -0.039960138 2.2866677e-38
0.092730537 -0.14673109 -0.039960138 2.2958873e-38
0.094550535 -0.14673109 -0.039960138 2.2958873e-38
0.096370548 -0.14673109 -0.039960138 2.2865958e-38
0.097738966 -0.14561762 -0.036027901 2.0100442e-38
0.09955208 -0.14561762 -0.036027901 1.3832935e-38
-0.14205034 -0.14855109 -0.039960138 1.4190501e-38
-0.067018598 -0.12461053 0.044066377 8.4823497e-39
-0.065345913 -0.12461053 0.044066377 2.0375586e-38
-0.063673228 -0.12461053 0.044066377 2.3509879e-38
-0.062000554 -0.12461053 0.044066377 2.3325483e-38
-0.060413454 -0.12520231 0.041989334 1.7515361e-38
-0.058737133 -0.12520231 0.041989334 1.3643144e-38
-0.057060812 -0.12520231 0.041989334 1.428779e-38
-0.055492174 -0.12605591 0.038993366 1.3919008e-38
-0.053810596 -0.12605591 0.038993366 1.4194876e-38
-0.052226812 -0.1269149 0.035978563 1.6868549e-38
-0.050599124 -0.12746434 0.034050114 1.6406852e-38
-0.048997 -0.12833218 0.031004138 1.4378532e-38
-0.047301419 -0.12833218 0.031004138 1.0966186e-38
-0.045605838 -0.12833218 0.031004138 2.0646713e-38
-0.043910254 -0.12833218 0.031004138 2.0462325e-38
-0.042214669 -0.12833218 0.031004138 1.4836958e-38
-0.040519089 -0.12833218 0.031004138 1.5482333e-38
-0.038823508 -0.12833218 0.031004138 2.0829325e-38
-0.037127923 -0.12833218 0.031004138 2.0460189e-38
-0.035432339 -0.12833218 0.031004138 1.2716838e-38
-0.033775844 -0.12917902 0.028031953 1.723407e-38
-0.032041173 -0.12833218 0.031004138 2.0461282e-38
-0.030345593 -0.12833218 0.031004138 1.9170906e-38
-0.028673459 -0.12917902 0.028031953 1.105877e-38
-0.026991017 -0.13003103 0.025041528 1.0966936e-38
-0.025284979 -0.13003103 0.025041528 2.2031491e-38
-0.023578944 -0.13003103 0.025041528 2.3509863e-38
-0.021874718 -0.13061987 0.022974856 2.3509869e-38
-0.020165056 -0.13061987 0.022974856 2.3418045e-38
-0.018455395 -0.13061987 0.022974856 2.3142544e-38
-0.016745735 -0.13061987 0.022974856 2.3142544e-38
-0.015018111 -0.13145383 0.020047791 2.3142544e-38
-0.013303318 -0.13145383 0.020047791 2.3142544e-38
-0.01155921 -0.13231997 0.017007776 2.3142541e-38
-0.0098390868 -0.13231997 0.017007776 2.3142541e-38
-0.0080799991 -0.13316421 0.01404471 2.3142541e-38
-0.0063102548 -0.13401355 0.011063702 2.3142541e-38
-0.0045797094 -0.13401355 0.011063702 2.3142541e-38
-0.0028117981 -0.13459183 0.009034045 2.3142541e-38
-0.0010776941 -0.13459183 0.009034045 2.3142538e-38
0.00065640797 -0.13459183 0.009034045 2.3142541e-38
0.002390512 -0.13459183 0.009034045 2.3142541e-38
0.0041246158 -0.13459183 0.009034045 2.3142541e-38
0.0058587198 -0.13459183 0.009034045 2.3142544e-38
0.007592822 -0.13459183 0.009034045 2.2774125e-38
0.0093269264 -0.13459183 0.009034045 2.3142544e-38
0.011061032 -0.13459183 0.009034045 2.3142544e-38
0.0128981 -0.13544987 0.0060225204 2.3142544e-38
0.014746387 -0.13631313 0.0029926375 2.3142538e-38
0.016491082 -0.13631313 0.0029926375 2.3050698e-38
0.018352147 -0.13715358 4.286319e-05 2.3326203e-38
0.020102013 -0.13715358 4.286319e-05 2.3418043e-38
0.021851882 -0.13715358 4.286319e-05 2.3417327e-38
0.023738857 -0.1380273 -0.0030237362 2.3508807e-38
0.025494102 -0.1380273 -0.0030237362 2.3508809e-38
0.027393308 -0.13887797 -0.006009452 2.3507715e-38
0.02915379 -0.13887797 -0.006009452 2.3506609e-38
0.030914269 -0.13887797 -0.006009452 2.350694e-38
0.032674748 -0.13887797 -0.006009452 2.1571158e-38
0.034601111 -0.13973372 -0.0090129301 2.0372967e-38
0.036366858 -0.13973372 -0.0090129301 2.2033578e-38
0.038304143 -0.14056583 -0.011933438 2.3509807e-38
0.040075012 -0.14056583 -0.011933438 2.3509824e-38
0.04203504 -0.1414317 -0.01497256 2.3509837e-38
0.043811236 -0.1414317 -0.01497256 2.3324739e-38
0.045587432 -0.1414317 -0.01497256 2.3509866e-38
0.047363628 -0.1414317 -0.01497256 2.3509876e-38
0.049139824 -0.1414317 -0.01497256 2.2957428e-38
0.05091602 -0.1414317 -0.01497256 2.3234379e-38
0.052692216 -0.1414317 -0.01497256 2.3234379e-38
0.054468405 -0.1414317 -0.01497256 2.3142541e-38
0.056477796 -0.14230286 -0.01803004 2.3142541e-38
0.058259357 -0.14230286 -0.01803004 2.3142541e-38
0.06004091 -0.14230286 -0.01803004 2.3142541e-38
0.061822463 -0.14230286 -0.01803004 2.3234376e-38
0.063604027 -0.14230286 -0.01803004 2.3234379e-38
0.065638393 -0.14314993 -0.02100312 2.3234379e-38
0.067684725 -0.14400201 -0.023993723 2.341805e-38
0.069476739 -0.14400201 -0.023993723 2.3509527e-38
0.071540385 -0.14485909 -0.02700197 2.3508809e-38
0.073337674 -0.14485909 -0.02700197 2.3507733e-38
0.075418785 -0.14572121 -0.030027859 2.3506654e-38
0.077221379 -0.14572121 -0.030027859 2.3505933e-38
0.079023972 -0.14572121 -0.030027859 2.3505572e-38
0.080826566 -0.14572121 -0.030027859 2.3507733e-38
0.082925424 -0.14655848 -0.032966487 2.3508092e-38
0.084733173 -0.14655848 -0.032966487 2.3508809e-38
0.086540908 -0.14655848 -0.032966487 2.3509527e-38
0.088673398 -0.14743073 -0.036027901 2.3142544e-38
0.090910524 -0.14855109 -0.039960138 2.2867037e-38
0.092299625 -0.14743073 -0.036027901 2.2499695e-38
0.094112739 -0.14743073 -0.036027901 2.2775199e-38
0.095925853 -0.14743073 -0.036027901 2.3418043e-38
0.097738966 -0.14743073 -0.036027901 2.0927318e-38
0.09955208 -0.14743073 -0.036027901 1.4936397e-38
-0.065345913 -0.12628321 0.044066377 2.3509883e-38
-0.0637661 -0.12687863 0.041989334 2.350988e-38
-0.062089775 -0.12687863 0.041989334 2.2587562e-38
-0.060413454 -0.12687863 0.041989334 1.9175601e-38
-0.058737133 -0.12687863 0.041989334 1.069324e-38
-0.057060812 -0.12687863 0.041989334 1.6316092e-38
-0.055492174 -0.12773751 0.038993366 1.8436948e-38
-0.053810596 -0.12773751 0.038993366 1.7883056e-38
-0.052226812 -0.12860174 0.035978563 2.1755269e-38
-0.050539952 -0.12860174 0.035978563 2.1477964e-38
-0.048997 -0.13002776 0.031004138 1.271901e-38
-0.047301419 -0.13002776 0.031004138 1.1151668e-38
-0.045605838 -0.13002776 0.031004138 1.8618788e-38
-0.043910254 -0.13002776 0.031004138 1.6405377e-38
-0.042214669 -0.13002776 0.031004138 1.2994141e-38
-0.040519089 -0.13002776 0.031004138 1.4745502e-38
-0.038823508 -0.13002776 0.031004138 1.7326984e-38
-0.037127923 -0.13002776 0.031004138 1.6220281e-38
-0.035432339 -0.13002776 0.031004138 9.4900024e-39
-0.033775844 -0.1308798 0.028031953 1.5206494e-38
-0.032041173 -0.13002776 0.031004138 2.1937856e-38
-0.030345593 -0.13002776 0.031004138 1.9725161e-38
-0.028673459 -0.1308798 0.028031953 1.613097e-38
-0.026991017 -0.13173707 0.025041528 1.4287058e-38
-0.025284979 -0.13173707 0.025041528 1.6223885e-38
-0.023578944 -0.13173707 0.025041528 2.2493906e-38
-0.021874718 -0.13232954 0.022974856 2.1758506e-38
-0.020162491 -0.13316862 0.020047791 2.3142538e-38
-0.018447697 -0.13316862 0.020047791 2.2867037e-38
-0.016732905 -0.13316862 0.020047791 2.2867037e-38
-0.015018111 -0.13316862 0.020047791 2.2867037e-38
-0.013279333 -0.1340401 0.017007776 2.2867034e-38
-0.01155921 -0.1340401 0.017007776 2.2867034e-38
-0.009805318 -0.13488953 0.01404471 2.2867034e-38
-0.0080799991 -0.13488953 0.01404471 2.2867034e-38
-0.0063102548 -0.13574408 0.011063702 2.2867034e-38
-0.0045797094 -0.13574408 0.011063702 2.2867034e-38
-0.0028117981 -0.13632594 0.009034045 2.2867032e-38
-0.0010776941 -0.13632594 0.009034045 2.2867032e-38
0.00065640797 -0.13632594 0.009034045 2.2867032e-38
0.002390512 -0.13632594 0.009034045 2.2867032e-38
0.0040730149 -0.13574408 0.011063702 2.2867032e-38
0.0058035594 -0.13574408 0.011063702 2.2867034e-38
0.007592822 -0.13632594 0.009034045 2.2775202e-38
0.0093269264 -0.13632594 0.009034045 2.2775202e-38
0.011061032 -0.13632594 0.009034045 2.2867037e-38
0.0128981 -0.13718925 0.0060225204 2.286703e-38
0.014746387 -0.13805781 0.0029926375 2.2775183e-38
0.016491082 -0.13805781 0.0029926375 2.295885e-38
0.018352147 -0.13890342 4.286319e-05 2.3234354e-38
0.020102013 -0.13890342 4.286319e-05 2.3509859e-38
0.021851882 -0.13890342 4.286319e-05 2.350986e-38
0.023738857 -0.13978253 -0.0030237362 2.3509496e-38
0.025494102 -0.13978253 -0.0030237362 2.3045997e-38
0.027249347 -0.13978253 -0.0030237362 2.1200637e-38
0.029004592 -0.13978253 -0.0030237362 2.138429e-38
0.030914269 -0.14063846 -0.006009452 2.3320738e-38
0.032674748 -0.14063846 -0.006009452 2.3506549e-38
0.034435228 -0.14063846 -0.006009452 2.3507632e-38
0.036366858 -0.14149947 -0.0090129301 2.3509809e-38
0.038304143 -0.14233668 -0.011933438 2.3324354e-38
0.040075012 -0.14233668 -0.011933438 2.3231809e-38
0.04203504 -0.14320792 -0.01497256 2.350841e-38
0.043811236 -0.14320792 -0.01497256 2.3509867e-38
0.045587432 -0.14320792 -0.01497256 2.3509879e-38
0.047363628 -0.14320792 -0.01497256 2.3509886e-38
0.049139824 -0.14320792 -0.01497256 2.341805e-38
0.05091602 -0.14320792 -0.01497256 2.3234379e-38
0.052692216 -0.14320792 -0.01497256 2.3142544e-38
0.054468405 -0.14320792 -0.01497256 2.3142544e-38
0.056477796 -0.14408441 -0.01803004 2.2958873e-38
0.058259357 -0.14408441 -0.01803004 2.2958873e-38
0.06004091 -0.14408441 -0.01803004 2.2958873e-38
0.061822463 -0.14408441 -0.01803004 2.3142544e-38
0.063604027 -0.14408441 -0.01803004 2.3234379e-38
0.065638393 -0.1449367 -0.02100312 2.3416974e-38
0.067684725 -0.14579402 -0.023993723 2.3508809e-38
0.069476739 -0.14579402 -0.023993723 2.3508809e-38
0.071540385 -0.14665638 -0.02700197 2.3508809e-38
0.073337674 -0.14665638 -0.02700197 2.3508451e-38
0.075418785 -0.14752381 -0.030027859 2.3508092e-38
0.077221379 -0.14752381 -0.030027859 2.3508451e-38
0.079023972 -0.14752381 -0.030027859 2.3508451e-38
0.080826566 -0.14752381 -0.030027859 2.350737e-38
0.082925424 -0.14836623 -0.032966487 2.3508807e-38
0.084733173 -0.14836623 -0.032966487 2.3509521e-38
0.086540908 -0.14836623 -0.032966487 2.350988e-38
0.088673398 -0.14924385 -0.036027901 2.3418045e-38
0.092299625 -0.14924385 -0.036027901 2.2775192e-38
0.094112739 -0.14924385 -0.036027901 2.3234367e-38
0.095925853 -0.14924385 -0.036027901 2.3509151e-38
0.097738966 -0.14924385 -0.036027901 2.1937503e-38
0.09955208 -0.14924385 -0.036027901 1.6776705e-38
0.10100287 -0.14836623 -0.032966487 3.5026955e-39
0.10281061 -0.14836623 -0.032966487 3.1360723e-39
-0.065345913 -0.1279559 0.044066377 2.1020604e-38
-0.0637661 -0.12855496 0.041989334 2.2679762e-38
-0.062089775 -0.12855496 0.041989334 2.3232933e-38
-0.060413454 -0.12855496 0.041989334 2.3140013e-38
-0.058737133 -0.12855496 0.041989334 1.5026432e-38
-0.057060812 -0.12855496 0.041989334 2.009647e-38
-0.055492174 -0.12941907 0.038993366 1.5763269e-38
-0.053810596 -0.12941907 0.038993366 1.4195584e-38
-0.052226812 -0.13028862 0.035978563 2.1110253e-38
-0.050539952 -0.13028862 0.035978563 2.3509499e-38
-0.048997 -0.13172336 0.031004138 1.179813e-38
-0.047301419 -0.13172336 0.031004138 1.3179986e-38
-0.045605838 -0.13172336 0.031004138 1.668342e-38
-0.043910254 -0.13172336 0.031004138 1.419414e-38
-0.042214669 -0.13172336 0.031004138 1.483951e-38
-0.040519089 -0.13172336 0.031004138 1.8526617e-38
-0.038823508 -0.13172336 0.031004138 1.9540413e-38
-0.037127923 -0.13172336 0.031004138 1.8802851e-38
-0.035432339 -0.13172336 0.031004138 1.502283e-38
-0.033775844 -0.13258059 0.028031953 1.4746962e-38
-0.032075047 -0.13258059 0.028031953 2.175455e-38
-0.030374255 -0.13258059 0.028031953 2.1570159e-38
-0.028697055 -0.1334431 0.025041528 2.2124771e-38
-0.026991017 -0.1334431 0.025041528 2.1387203e-38
-0.025284979 -0.1334431 0.025041528 1.9452174e-38
-0.023578944 -0.1334431 0.025041528 2.350986e-38
-0.021874718 -0.13403918 0.022974856 2.3326192e-38
-0.020162491 -0.13488342 0.020047791 2.3142538e-38
-0.018447697 -0.13488342 0.020047791 2.2958873e-38
-0.016732905 -0.13488342 0.020047791 2.2958873e-38
-0.014999456 -0.13576023 0.017007776 2.2958873e-38
-0.013279333 -0.13576023 0.017007776 2.2958873e-38
-0.01155921 -0.13576023 0.017007776 2.2958873e-38
-0.009805318 -0.13661484 0.01404471 2.2867034e-38
-0.0080799991 -0.13661484 0.01404471 2.2867034e-38
-0.0063102548 -0.13747464 0.011063702 2.2867034e-38
-0.0045797094 -0.13747464 0.011063702 2.2867034e-38
-0.0028117981 -0.13806005 0.009034045 2.2867032e-38
-0.0010776941 -0.13806005 0.009034045 2.2867032e-38
0.00065640797 -0.13806005 0.009034045 2.286703e-38
0.002390512 -0.13806005 0.009034045 2.286703e-38
0.0040730149 -0.13747464 0.011063702 2.286703e-38
0.0058035594 -0.13747464 0.011063702 2.2867032e-38
0.007592822 -0.13806005 0.009034045 2.295887e-38
0.0093269264 -0.13806005 0.009034045 2.3142538e-38
0.011061032 -0.13806005 0.009034045 2.3142534e-38
0.0128981 -0.13892864 0.0060225204 2.3142531e-38
0.014746387 -0.13980253 0.0029926375 2.3234364e-38
0.016491082 -0.13980253 0.0029926375 2.3418031e-38
0.018352147 -0.1406533 4.286319e-05 2.3418022e-38
0.020102013 -0.1406533 4.286319e-05 2.3418002e-38
0.021851882 -0.1406533 4.286319e-05 2.3509821e-38
0.023738857 -0.14153777 -0.0030237362 2.3233209e-38
0.025494102 -0.14153777 -0.0030237362 2.2771495e-38
0.027249347 -0.14153777 -0.0030237362 2.1018339e-38
0.029004592 -0.14153777 -0.0030237362 2.1293142e-38
0.030914269 -0.14239894 -0.006009452 2.3504779e-38
0.032674748 -0.14239894 -0.006009452 2.3506968e-38
0.034435228 -0.14239894 -0.006009452 2.3508421e-38
0.036366858 -0.1432652 -0.0090129301 2.3509495e-38
0.038132604 -0.1432652 -0.0090129301 2.3509496e-38
0.039898347 -0.1432652 -0.0090129301 2.3508784e-38
0.041845877 -0.14410757 -0.011933438 2.3509156e-38
0.043616746 -0.14410757 -0.011933438 2.3508086e-38
0.045587432 -0.14498411 -0.01497256 2.3046752e-38
0.047363628 -0.14498411 -0.01497256 2.3415539e-38
0.049139824 -0.14498411 -0.01497256 2.3509168e-38
0.05091602 -0.14498411 -0.01497256 2.3509527e-38
0.052692216 -0.14498411 -0.01497256 2.3417691e-38
0.054468405 -0.14498411 -0.01497256 2.3417691e-38
0.056477796 -0.14586596 -0.01803004 2.3417691e-38
0.058259357 -0.14586596 -0.01803004 2.3417691e-38
0.06004091 -0.14586596 -0.01803004 2.3417333e-38
0.061822463 -0.14586596 -0.01803004 2.3508809e-38
0.063604027 -0.14586596 -0.01803004 2.3508809e-38
0.065638393 -0.14672346 -0.02100312 2.3507733e-38
0.067684725 -0.14758603 -0.023993723 2.3507374e-38
0.069476739 -0.14758603 -0.023993723 2.3507733e-38
0.071540385 -0.14845367 -0.02700197 2.3140391e-38
0.073616207 -0.1493264 -0.030027859 2.2957796e-38
0.075418785 -0.1493264 -0.030027859 2.2683366e-38
0.077221379 -0.1493264 -0.030027859 2.2591531e-38
0.079023972 -0.1493264 -0.030027859 2.2591531e-38
-0.067018598 -0.12962858 0.044066377 1.9268535e-38
-0.065345913 -0.12962858 0.044066377 1.8531324e-38
-0.0637661 -0.13023128 0.041989334 1.7793038e-38
-0.062089775 -0.13023128 0.041989334 2.055926e-38
-0.060413454 -0.13023128 0.041989334 1.7423884e-38
-0.058737133 -0.13023128 0.041989334 9.8641953e-39
-0.057060812 -0.13023128 0.041989334 1.3366909e-38
-0.055384487 -0.13023128 0.041989334 1.3550574e-38
-0.053810596 -0.13110064 0.038993366 1.484095e-38
-0.052129023 -0.13110064 0.038993366 1.6592666e-38
-0.050539952 -0.13197549 0.035978563 2.2493542e-38
-0.048908882 -0.13253506 0.034050114 2.2677577e-38
-0.047301419 -0.13341893 0.031004138 2.3414791e-38
-0.045605838 -0.13341893 0.031004138 2.3509153e-38
-0.043910254 -0.13341893 0.031004138 2.3508793e-38
-0.042214669 -0.13341893 0.031004138 2.3509153e-38
-0.040519089 -0.13341893 0.031004138 2.3508797e-38
-0.038823508 -0.13341893 0.031004138 2.3413723e-38
-0.037127923 -0.13341893 0.031004138 2.3506999e-38
-0.035476636 -0.13428138 0.028031953 2.3508438e-38
-0.033775844 -0.13428138 0.028031953 2.3506998e-38
-0.032075047 -0.13428138 0.028031953 2.3509514e-38
-0.030374255 -0.13428138 0.028031953 2.3509873e-38
-0.028697055 -0.13514914 0.025041528 2.350987e-38
-0.026991017 -0.13514914 0.025041528 2.3509869e-38
-0.025284979 -0.13514914 0.025041528 2.3509865e-38
-0.023584379 -0.13574885 0.022974856 2.3325832e-38
-0.021877283 -0.13659821 0.020047791 2.304961e-38
-0.020162491 -0.13659821 0.020047791 2.3418045e-38
-0.018447697 -0.13659821 0.020047791 2.3234379e-38
-0.016732905 -0.13659821 0.020047791 2.3234379e-38
-0.015018111 -0.13659821 0.020047791 2.3234379e-38
-0.013279333 -0.13748036 0.017007776 2.3234379e-38
-0.01155921 -0.13748036 0.017007776 2.3142544e-38
-0.009805318 -0.13834016 0.01404471 2.3142544e-38
-0.0080799991 -0.13834016 0.01404471 2.3142544e-38
-0.0063102548 -0.13920517 0.011063702 2.3142544e-38
-0.0045797094 -0.13920517 0.011063702 2.3142541e-38
-0.0028491647 -0.13920517 0.011063702 2.3142541e-38
-0.0011186202 -0.13920517 0.011063702 2.3142538e-38
0.00061192428 -0.13920517 0.011063702 2.3142538e-38
0.0023424707 -0.13920517 0.011063702 2.3142537e-38
0.0040730149 -0.13920517 0.011063702 2.3142537e-38
0.0058035594 -0.13920517 0.011063702 2.3234374e-38
0.0075341039 -0.13920517 0.011063702 2.350952e-38
0.0093269264 -0.13979416 0.009034045 2.3509158e-38
0.011061032 -0.13979416 0.009034045 2.3509873e-38
0.0128981 -0.14066802 0.0060225204 2.3509866e-38
0.014746387 -0.14154722 0.0029926375 2.3509859e-38
0.016491082 -0.14154722 0.0029926375 2.3509848e-38
0.018352147 -0.14240317 4.286319e-05 2.3233603e-38
0.020228367 -0.14329304 -0.0030237362 2.2772248e-38
0.021983612 -0.14329304 -0.0030237362 2.1481849e-38
0.023738857 -0.14329304 -0.0030237362 2.1942456e-38
0.025494102 -0.14329304 -0.0030237362 2.3417218e-38
0.027249347 -0.14329304 -0.0030237362 2.313956e-38
0.029004592 -0.14329304 -0.0030237362 2.3506211e-38
0.030759837 -0.14329304 -0.0030237362 2.3508763e-38
0.032515083 -0.14329304 -0.0030237362 2.3505556e-38
0.034435228 -0.14415942 -0.006009452 2.3505927e-38
0.036366858 -0.14503096 -0.0090129301 2.3508077e-38
0.038132604 -0.14503096 -0.0090129301 2.3509156e-38
0.039898347 -0.14503096 -0.0090129301 2.3509163e-38
0.041845877 -0.14587842 -0.011933438 2.3508809e-38
0.043616746 -0.14587842 -0.011933438 2.3508092e-38
0.045387607 -0.14587842 -0.011933438 2.3507733e-38
0.047363628 -0.1467603 -0.01497256 2.3508451e-38
0.049139824 -0.1467603 -0.01497256 2.3508451e-38
0.05091602 -0.1467603 -0.01497256 2.3508809e-38
0.052692216 -0.1467603 -0.01497256 2.3509168e-38
0.054696243 -0.14764751 -0.01803004 2.3509168e-38
0.056477796 -0.14764751 -0.01803004 2.3509168e-38
0.058259357 -0.14764751 -0.01803004 2.3509168e-38
0.06004091 -0.14764751 -0.01803004 2.3508809e-38
0.061822463 -0.14764751 -0.01803004 2.3508451e-38
0.063604027 -0.14764751 -0.01803004 2.3508092e-38
0.065638393 -0.14851023 -0.02100312 2.3507733e-38
0.067684725 -0.14937802 -0.023993723 2.3507733e-38
0.069476739 -0.14937802 -0.023993723 2.3508809e-38
-0.13236713 -0.14942907 -0.01803004 1.6120085e-38
-0.13025589 -0.14853649 -0.01497256 1.6304836e-38
-0.067018598 -0.13130127 0.044066377 2.3509527e-38
-0.065442421 -0.1319076 0.041989334 2.0283041e-38
-0.0637661 -0.1319076 0.041989334 1.5672538e-38
-0.062089775 -0.1319076 0.041989334 1.5396304e-38
-0.060413454 -0.1319076 0.041989334 1.6594126e-38
-0.058737133 -0.1319076 0.041989334 1.6962903e-38
-0.057060812 -0.1319076 0.041989334 1.8990844e-38
-0.055384487 -0.1319076 0.041989334 1.9728407e-38
-0.053810596 -0.13278224 0.038993366 2.101842e-38
-0.052129023 -0.13278224 0.038993366 2.0649994e-38
-0.050447449 -0.13278224 0.038993366 2.2125124e-38
-0.048908882 -0.13422529 0.034050114 2.3508063e-38
-0.047301419 -0.13511451 0.031004138 2.3509873e-38
-0.045605838 -0.13511451 0.031004138 2.35088e-38
-0.043910254 -0.13511451 0.031004138 2.3323688e-38
-0.042214669 -0.13511451 0.031004138 2.3509521e-38
-0.040519089 -0.13511451 0.031004138 2.3509521e-38
-0.038823508 -0.13511451 0.031004138 2.3509165e-38
-0.037127923 -0.13511451 0.031004138 2.3509165e-38
-0.035432339 -0.13511451 0.031004138 2.3509165e-38
-0.033775844 -0.1359822 0.028031953 2.3509165e-38
-0.032075047 -0.1359822 0.028031953 2.3416245e-38
-0.030374255 -0.1359822 0.028031953 2.2771955e-38
-0.028697055 -0.13685517 0.025041528 2.221878e-38
-0.026991017 -0.13685517 0.025041528 2.3140736e-38
-0.025294039 -0.13745852 0.022974856 2.3509876e-38
-0.023584379 -0.13745852 0.022974856 2.2772669e-38
-0.021877283 -0.13831301 0.020047791 2.3509879e-38
-0.020162491 -0.13831301 0.020047791 2.3509527e-38
-0.018447697 -0.13831301 0.020047791 2.3509168e-38
-0.016732905 -0.13831301 0.020047791 2.3509168e-38
-0.015018111 -0.13831301 0.020047791 2.3509168e-38
-0.013279333 -0.13920046 0.017007776 2.3509527e-38
-0.01155921 -0.13920046 0.017007776 2.3509527e-38
-0.009805318 -0.14006548 0.01404471 2.3509527e-38
-0.0080799991 -0.14006548 0.01404471 2.3509886e-38
-0.0063546817 -0.14006548 0.01404471 2.3509886e-38
-0.0045797094 -0.14093573 0.011063702 2.3509886e-38
-0.0028491647 -0.14093573 0.011063702 2.3509527e-38
-0.0011186202 -0.14093573 0.011063702 2.3509883e-38
0.00061192428 -0.14093573 0.011063702 2.3509883e-38
0.0023424707 -0.14093573 0.011063702 2.350988e-38
0.0040730149 -0.14093573 0.011063702 2.3509521e-38
0.0058035594 -0.14093573 0.011063702 2.3508807e-38
0.0075341039 -0.14093573 0.011063702 2.3506657e-38
0.0093269264 -0.14152823 0.009034045 2.3506651e-38
0.011061032 -0.14152823 0.009034045 2.3507719e-38
0.0128981 -0.1424074 0.0060225204 2.3508063e-38
0.014852409 -0.14415304 4.286319e-05 2.3509115e-38
0.016602278 -0.14415304 4.286319e-05 2.3509088e-38
0.018473122 -0.14504828 -0.0030237362 2.3233201e-38
0.020228367 -0.14504828 -0.0030237362 2.2956608e-38
0.021983612 -0.14504828 -0.0030237362 2.1389651e-38
