# .PCD v0.7 - Point Cloud Data file format
VERSION 0.7
FIELDS x y z rgb
SIZE 4 4 4 4
TYPE F F F F
COUNT 1 1 1 1
WIDTH 949
HEIGHT 1
VIEWPOINT 0 0 0 1 0 0 0
POINTS 949
DATA ascii
-0.07763049 -0.13327946 -0.046098389 1.1802449e-38
-0.075576574 -0.13250901 -0.043159045 1.8071749e-38
-0.073468119 -0.13144915 -0.039115705 1.991638e-38
-0.07143259 -0.13065951 -0.036103286 2.1391156e-38
-0.069244064 -0.12909363 -0.03012947 2.0375935e-38
-0.067179121 -0.12803085 -0.026074924 2.1113501e-38
-0.065029338 -0.12646608 -0.02010528 2.1113504e-38
-0.062898539 -0.124891 -0.014096417 2.1020939e-38
-0.060453728 -0.12149437 -0.0011382475 2.1850317e-38
-0.058516666 -0.12070583 0.0018699989 2.2125808e-38
-0.056590945 -0.11992194 0.0048606023 2.1847768e-38
-0.054545127 -0.11834116 0.010891162 2.2122192e-38
-0.052768931 -0.11834116 0.010891162 2.2211507e-38
-0.05087284 -0.11754455 0.013930283 2.2395884e-38
-0.048991881 -0.11677901 0.016850792 2.2303666e-38
-0.047010861 -0.11520912 0.022839986 2.027679e-38
-0.045150772 -0.11440529 0.025906585 1.9540663e-38
-0.043206945 -0.11283787 0.031886242 2.2491306e-38
-0.041467562 -0.11283787 0.031886242 2.3508741e-38
-0.039582334 -0.11151646 0.036927424 2.2583923e-38
-0.037770778 -0.11073507 0.039908431 2.3228924e-38
-0.035970129 -0.1099584 0.042871498 2.350658e-38
-0.034250006 -0.1099584 0.042871498 2.3508008e-38
-0.032463253 -0.10916151 0.045911513 2.3507641e-38
-0.030748462 -0.10916151 0.045911513 2.3416164e-38
-0.029033666 -0.10916151 0.045911513 2.3508734e-38
-0.027318878 -0.10916151 0.045911513 2.3509123e-38
-0.025604082 -0.10916151 0.045911513 2.350879e-38
-0.023494555 -0.1012931 0.075929545 2.3508809e-38
-0.02183239 -0.1012931 0.075929545 2.3509168e-38
-0.020565914 -0.11204849 0.034897767 2.3509527e-38
-0.01885557 -0.11283787 0.031886242 2.3418047e-38
-0.017097706 -0.11204849 0.034897767 2.3418038e-38
-0.015328651 -0.1099584 0.042871498 2.3418035e-38
-0.013600534 -0.10916151 0.045911513 2.3418043e-38
-0.011883175 -0.10839428 0.048838578 2.3418045e-38
-0.010187557 -0.10419546 0.064857088 2.3509876e-38
-0.0085059814 -0.10419546 0.064857088 2.3509876e-38
-0.0068244059 -0.10419546 0.064857088 2.350988e-38
-0.0051428322 -0.10419546 0.064857088 2.3509883e-38
-0.0034612566 -0.10419546 0.064857088 2.3509886e-38
-0.0017320123 -0.10549118 0.059913836 2.3509527e-38
-6.3748099e-05 -0.1049857 0.061842285 2.3509527e-38
0.0015834682 -0.10419546 0.064857088 2.3509527e-38
0.0032650428 -0.10419546 0.064857088 2.3509168e-38
0.0049466174 -0.10419546 0.064857088 2.3509168e-38
0.006628193 -0.10419546 0.064857088 2.3509527e-38
0.0083097685 -0.10419546 0.064857088 2.3509527e-38
0.010057418 -0.1049857 0.061842285 2.3509527e-38
0.011862023 -0.10628961 0.05686786 2.3509527e-38
0.013557605 -0.10628961 0.05686786 2.3509527e-38
0.015471397 -0.10839428 0.048838578 2.3509886e-38
0.017121268 -0.10785256 0.05090525 2.3509527e-38
0.01873555 -0.1070687 0.053895675 2.3509886e-38
0.020436345 -0.1070687 0.053895675 2.3509886e-38
0.022137137 -0.1070687 0.053895675 2.3509886e-38
0.023837933 -0.1070687 0.053895675 2.3509886e-38
0.025538726 -0.1070687 0.053895675 2.3509883e-38
0.027122268 -0.10628961 0.05686786 2.350988e-38
0.028817849 -0.10628961 0.05686786 2.3509879e-38
0.030513434 -0.10628961 0.05686786 2.3509879e-38
0.032209016 -0.10628961 0.05686786 2.3509876e-38
0.033904597 -0.10628961 0.05686786 2.3509876e-38
0.03574349 -0.1070687 0.053895675 2.3509873e-38
0.037593715 -0.10785256 0.05090525 2.3509873e-38
0.039299749 -0.10785256 0.05090525 2.3509873e-38
0.04100579 -0.10785256 0.05090525 2.3509873e-38
0.042711824 -0.10785256 0.05090525 2.3509869e-38
0.044535629 -0.10839428 0.048838578 2.3418022e-38
0.046245292 -0.10839428 0.048838578 2.3418021e-38
0.047954954 -0.10839428 0.048838578 2.3326184e-38
0.049664609 -0.10839428 0.048838578 2.3509852e-38
0.051374272 -0.10839428 0.048838578 2.3417654e-38
0.053083934 -0.10839428 0.048838578 2.3417651e-38
0.054793596 -0.10839428 0.048838578 2.3325811e-38
0.056503259 -0.10839428 0.048838578 2.3417642e-38
0.05842077 -0.10916151 0.045911513 2.3509834e-38
0.060356766 -0.1099584 0.042871498 2.32336e-38
0.062076889 -0.1099584 0.042871498 2.3325067e-38
0.063797012 -0.1099584 0.042871498 2.350981e-38
0.065517135 -0.1099584 0.042871498 2.3509806e-38
0.067473635 -0.11073507 0.039908431 2.3509797e-38
0.069441997 -0.11151646 0.036927424 2.3417955e-38
0.071172543 -0.11151646 0.036927424 2.3326112e-38
0.072903082 -0.11151646 0.036927424 2.2681095e-38
0.074633628 -0.11151646 0.036927424 2.2865119e-38
0.076543882 -0.11204849 0.034897767 2.3325368e-38
0.07827799 -0.11204849 0.034897767 1.8622323e-38
0.080012098 -0.11204849 0.034897767 1.2350542e-38
0.081746191 -0.11204849 0.034897767 6.7259257e-39
0.083480299 -0.11204849 0.034897767 6.9092772e-39
0.085214406 -0.11204849 0.034897767 7.6482954e-39
-0.10086493 -0.14995177 -0.10217074 1.7699734e-38
-0.098656014 -0.14915876 -0.099165477 1.604238e-38
-0.096072182 -0.1470321 -0.091106214 1.4937839e-38
-0.093897566 -0.14625455 -0.088159598 1.5215869e-38
-0.091144949 -0.14334334 -0.077127136 1.6230384e-38
-0.088714764 -0.14148657 -0.07009057 1.7060147e-38
-0.086518556 -0.14042725 -0.066076197 1.6230384e-38
-0.084607407 -0.14042725 -0.066076197 1.5492455e-38
-0.082303971 -0.13885282 -0.060109653 1.2910251e-38
-0.080151036 -0.13781275 -0.056168117 1.1434757e-38
-0.07763049 -0.13515557 -0.046098389 1.0697189e-38
-0.075576574 -0.13437997 -0.043159045 1.7518942e-38
-0.073468119 -0.13331302 -0.039115705 1.9362852e-38
-0.07143259 -0.1325181 -0.036103286 2.0377007e-38
-0.069408566 -0.13172771 -0.033107914 2.0375936e-38
-0.06739594 -0.13094176 -0.03012947 2.1389372e-38
-0.065186091 -0.12909628 -0.023135819 2.1389375e-38
-0.062898539 -0.126711 -0.014096417 2.1113137e-38
-0.060599625 -0.12409012 -0.0041641369 2.1665569e-38
-0.058516666 -0.12249784 0.0018699989 2.1664832e-38
-0.056590945 -0.12170871 0.0048606023 2.1571184e-38
-0.054676466 -0.12092416 0.007833682 2.1937801e-38
-0.052768931 -0.12011738 0.010891162 2.2119311e-38
-0.05087284 -0.11931543 0.013930283 2.2026379e-38
-0.048991881 -0.11854477 0.016850792 2.2395496e-38
-0.047010861 -0.11696436 0.022839986 2.1105824e-38
-0.045049921 -0.11537679 0.028856359 1.9447378e-38
-0.04310926 -0.1137826 0.034897767 2.1476061e-38
-0.04137516 -0.1137826 0.034897767 2.3505127e-38
-0.039582334 -0.11324702 0.036927424 2.2951604e-38
-0.037770778 -0.11246039 0.039908431 2.2398405e-38
-0.035970129 -0.1116785 0.042871498 2.3136675e-38
-0.034178048 -0.11087631 0.045911513 2.3044834e-38
-0.032463253 -0.11087631 0.045911513 2.2307266e-38
-0.030689443 -0.11010392 0.048838578 2.2216149e-38
-0.028941734 -0.1095586 0.05090525 2.3415071e-38
-0.027003305 -0.10587703 0.064857088 2.3509823e-38
-0.025201945 -0.10375614 0.072894476 2.3509855e-38
-0.023494555 -0.10295527 0.075929545 2.3508809e-38
-0.02183239 -0.10295527 0.075929545 2.3508809e-38
-0.020199498 -0.10375614 0.072894476 2.3417691e-38
-0.018532015 -0.10375614 0.072894476 2.341805e-38
-0.016864533 -0.10375614 0.072894476 2.3418045e-38
-0.015197052 -0.10375614 0.072894476 2.3418045e-38
-0.013529567 -0.10375614 0.072894476 2.341805e-38
-0.011862084 -0.10375614 0.072894476 2.3509527e-38
-0.010192003 -0.10453837 0.069930099 2.350988e-38
-0.0085138604 -0.10508646 0.067853056 2.350988e-38
-0.0068244059 -0.10587703 0.064857088 2.3509527e-38
-0.0051428322 -0.10587703 0.064857088 2.3509527e-38
-0.0034612566 -0.10587703 0.064857088 2.3509168e-38
-0.0017506089 -0.10667257 0.061842285 2.3508809e-38
-9.8106451e-05 -0.10587703 0.064857088 2.3508809e-38
0.0015834682 -0.10587703 0.064857088 2.3508809e-38
0.0032650428 -0.10587703 0.064857088 2.3509168e-38
0.0049466174 -0.10587703 0.064857088 2.3509168e-38
0.006628193 -0.10587703 0.064857088 2.3509168e-38
0.0083097685 -0.10587703 0.064857088 2.3509527e-38
0.010057418 -0.10667257 0.061842285 2.3509527e-38
0.011789925 -0.10718144 0.059913836 2.3509527e-38
0.013480166 -0.10718144 0.059913836 2.3509527e-38
0.015471397 -0.11010392 0.048838578 2.3509527e-38
0.017034756 -0.10876949 0.053895675 2.3509523e-38
0.01873555 -0.10876949 0.053895675 2.350952e-38
0.020339938 -0.10798518 0.05686786 2.350952e-38
0.022035519 -0.10798518 0.05686786 2.3509518e-38
0.023731103 -0.10798518 0.05686786 2.3509874e-38
0.025426684 -0.10798518 0.05686786 2.3509872e-38
0.027002102 -0.10718144 0.059913836 2.3509869e-38
0.028692344 -0.10718144 0.059913836 2.3509867e-38
0.030513434 -0.10798518 0.05686786 2.3509866e-38
0.032209016 -0.10798518 0.05686786 2.3509863e-38
0.033904597 -0.10798518 0.05686786 2.3509863e-38
0.035600178 -0.10798518 0.05686786 2.350986e-38
0.037444286 -0.10876949 0.053895675 2.350986e-38
0.039145075 -0.10876949 0.053895675 2.350986e-38
0.040845871 -0.10876949 0.053895675 2.350986e-38
0.042711824 -0.1095586 0.05090525 2.3509856e-38
0.044417866 -0.1095586 0.05090525 2.3325807e-38
0.046245292 -0.11010392 0.048838578 2.332616e-38
0.047829941 -0.1095586 0.05090525 2.3326159e-38
0.049535975 -0.1095586 0.05090525 2.3325796e-38
0.051374272 -0.11010392 0.048838578 2.3233597e-38
0.053083934 -0.11010392 0.048838578 2.3233953e-38
0.054793596 -0.11010392 0.048838578 2.3141755e-38
0.056503259 -0.11010392 0.048838578 2.3325424e-38
0.05842077 -0.11087631 0.045911513 2.350981e-38
0.060135558 -0.11087631 0.045911513 2.3141382e-38
0.062076889 -0.1116785 0.042871498 2.3048821e-38
0.063797012 -0.1116785 0.042871498 2.3325759e-38
0.065517135 -0.1116785 0.042871498 2.3417946e-38
0.067473635 -0.11246039 0.039908431 2.3234266e-38
0.069198959 -0.11246039 0.039908431 2.3326097e-38
0.070924275 -0.11246039 0.039908431 2.3509762e-38
0.072649583 -0.11246039 0.039908431 2.3509765e-38
0.074374914 -0.11246039 0.039908431 2.3325354e-38
0.076364174 -0.11324702 0.036927424 2.3048043e-38
0.078094721 -0.11324702 0.036927424 1.9359514e-38
0.079825267 -0.11324702 0.036927424 1.3641269e-38
0.081276178 -0.11246039 0.039908431 7.3705707e-39
0.083001494 -0.11246039 0.039908431 7.278057e-39
0.08472681 -0.11246039 0.039908431 8.0170779e-39
-0.096072182 -0.14898713 -0.091106214 1.7333835e-38
-0.093897566 -0.14820443 -0.088159598 1.6873944e-38
-0.091144949 -0.14527388 -0.077127136 1.5953433e-38
-0.088714764 -0.14340474 -0.07009057 1.6230384e-38
-0.086518556 -0.14233841 -0.066076197 1.6322582e-38
-0.084607407 -0.14233841 -0.066076197 1.5769409e-38
-0.082303971 -0.14075352 -0.060109653 1.3372317e-38
-0.080151036 -0.13970654 -0.056168117 1.3187564e-38
-0.07763049 -0.13703169 -0.046098389 1.3463425e-38
-0.075576574 -0.13625093 -0.043159045 2.0192984e-38
-0.073468119 -0.13517688 -0.039115705 2.0468849e-38
-0.07143259 -0.13437669 -0.036103286 2.0099348e-38
-0.069408566 -0.13358103 -0.033107914 2.0559611e-38
-0.06739594 -0.13278987 -0.03012947 2.1480492e-38
-0.065338112 -0.13171287 -0.026074924 2.1203905e-38
-0.062898539 -0.12853102 -0.014096417 2.0466689e-38
-0.060453728 -0.12508895 -0.0011382475 2.0834731e-38
-0.058516666 -0.12428986 0.0018699989 2.0834356e-38
-0.056590945 -0.12349547 0.0048606023 2.1016934e-38
-0.054676466 -0.12270571 0.007833682 2.1752334e-38
-0.052768931 -0.12189357 0.010891162 2.2487378e-38
-0.05087284 -0.12108628 0.013930283 2.165688e-38
-0.048991881 -0.1203105 0.016850792 2.2394417e-38
-0.047010861 -0.11871959 0.022839986 2.1841947e-38
-0.045049921 -0.11712147 0.028856359 1.9722879e-38
-0.04310926 -0.11551671 0.034897767 2.0829967e-38
-0.04137516 -0.11551671 0.034897767 2.3503681e-38
-0.039496094 -0.11418571 0.039908431 2.3505841e-38
-0.037690252 -0.11339863 0.042871498 2.2213628e-38
-0.035892844 -0.1125911 0.045911513 2.28597e-38
-0.034108765 -0.11181359 0.048838578 2.2306165e-38
-0.032399103 -0.11181359 0.048838578 2.0738839e-38
-0.030647771 -0.11126463 0.05090525 2.1016145e-38
-0.028886681 -0.11047028 0.053895675 2.3137383e-38
-0.027003305 -0.10755859 0.064857088 2.3509809e-38
-0.025201945 -0.10542361 0.072894476 2.3509846e-38
-0.023494555 -0.10461743 0.075929545 2.3508809e-38
-0.02183239 -0.10461743 0.075929545 2.3508809e-38
-0.02017023 -0.10461743 0.075929545 2.3417333e-38
-0.018508069 -0.10461743 0.075929545 2.3234379e-38
-0.016845908 -0.10461743 0.075929545 2.3418043e-38
-0.015183747 -0.10461743 0.075929545 2.341804e-38
-0.013521586 -0.10461743 0.075929545 2.3509527e-38
-0.011859424 -0.10461743 0.075929545 2.3509527e-38
-0.010194603 -0.10542361 0.072894476 2.3509876e-38
-0.0085271206 -0.10542361 0.072894476 2.3509873e-38
-0.0068466421 -0.10621105 0.069930099 2.3509521e-38
-0.0051612165 -0.10676278 0.067853056 2.3509527e-38
-0.0034848955 -0.10676278 0.067853056 2.3509168e-38
-0.001779682 -0.10755859 0.064857088 2.3509168e-38
-9.8106451e-05 -0.10755859 0.064857088 2.3509168e-38
0.0015440714 -0.10676278 0.067853056 2.3509527e-38
0.0032203933 -0.10676278 0.067853056 2.3509527e-38
0.0048967153 -0.10676278 0.067853056 2.350988e-38
0.006628193 -0.10755859 0.064857088 2.3509876e-38
0.0083097685 -0.10755859 0.064857088 2.3509873e-38
0.0099913422 -0.10755859 0.064857088 2.3509873e-38
0.011744278 -0.10835941 0.061842285 2.350987e-38
0.013431139 -0.10835941 0.061842285 2.3509873e-38
0.015253188 -0.10968079 0.05686786 2.350987e-38
0.016948771 -0.10968079 0.05686786 2.3509144e-38
0.018644353 -0.10968079 0.05686786 2.3509142e-38
0.020339938 -0.10968079 0.05686786 2.3509142e-38
0.022035519 -0.10968079 0.05686786 2.3509496e-38
0.023731103 -0.10968079 0.05686786 2.3509493e-38
0.025311863 -0.10887168 0.059913836 2.350949e-38
0.027002102 -0.10887168 0.059913836 2.3509846e-38
0.028692344 -0.10887168 0.059913836 2.3509842e-38
0.030382587 -0.10887168 0.059913836 2.3232895e-38
0.032072827 -0.10887168 0.059913836 2.3233251e-38
0.033763073 -0.10887168 0.059913836 2.3233248e-38
0.035600178 -0.10968079 0.05686786 2.3233248e-38
0.037295766 -0.10968079 0.05686786 2.3233248e-38
0.039145075 -0.11047028 0.053895675 2.3233248e-38
0.040845871 -0.11047028 0.053895675 2.3233248e-38
0.042546667 -0.11047028 0.053895675 2.3233603e-38
0.044247456 -0.11047028 0.053895675 2.3326146e-38
0.0461239 -0.11126463 0.05090525 2.3234301e-38
0.047829941 -0.11126463 0.05090525 2.3234298e-38
0.049535975 -0.11126463 0.05090525 2.3142455e-38
0.051242009 -0.11126463 0.05090525 2.3142453e-38
0.05294805 -0.11126463 0.05090525 2.3234285e-38
0.054793596 -0.11181359 0.048838578 2.3142087e-38
0.056503259 -0.11181359 0.048838578 2.3233564e-38
0.058212914 -0.11181359 0.048838578 2.3509792e-38
0.060135558 -0.1125911 0.045911513 2.3417589e-38
0.061850354 -0.1125911 0.045911513 2.3233552e-38
0.06356515 -0.1125911 0.045911513 2.3325742e-38
0.065517135 -0.11339863 0.042871498 2.3325371e-38
0.067237258 -0.11339863 0.042871498 2.3049136e-38
0.068957381 -0.11339863 0.042871498 2.323388e-38
0.070677504 -0.11339863 0.042871498 2.3509747e-38
0.072649583 -0.11418571 0.039908431 2.3048396e-38
0.074374914 -0.11418571 0.039908431 2.3509734e-38
0.076364174 -0.11497755 0.036927424 2.3509364e-38
0.077825546 -0.11418571 0.039908431 1.8898163e-38
0.079550862 -0.11418571 0.039908431 1.3087728e-38
0.081276178 -0.11418571 0.039908431 7.831902e-39
0.083001494 -0.11418571 0.039908431 7.739391e-39
0.085016891 -0.11497755 0.036927424 6.8185348e-39
0.086747438 -0.11497755 0.036927424 7.0979929e-39
-0.093597546 -0.14907773 -0.084133305 1.733239e-38
-0.091144949 -0.14720438 -0.077127136 1.7149808e-38
-0.088934168 -0.14614908 -0.073180355 1.6966506e-38
-0.086796582 -0.14532293 -0.07009057 1.576869e-38
-0.084607407 -0.14424954 -0.066076197 1.5861248e-38
-0.082503423 -0.14346536 -0.063143291 1.604564e-38
-0.080403283 -0.1426542 -0.060109653 1.659845e-38
-0.07763049 -0.13890781 -0.046098389 1.7980659e-38
-0.075576574 -0.13812189 -0.043159045 1.963874e-38
-0.073468119 -0.13704078 -0.039115705 2.0375939e-38
-0.07143259 -0.13623528 -0.036103286 2.0650728e-38
-0.069408566 -0.13543437 -0.033107914 2.0742564e-38
-0.067555219 -0.13543437 -0.033107914 2.0834759e-38
-0.065338112 -0.13355388 -0.026074924 2.0926599e-38
-0.062898539 -0.13035102 -0.014096417 2.0834755e-38
-0.060453728 -0.12688623 -0.0011382475 2.0926211e-38
-0.058516666 -0.12608187 0.0018699989 2.1017671e-38
-0.056590945 -0.12528224 0.0048606023 2.1384643e-38
-0.054676466 -0.1244873 0.007833682 2.1751619e-38
-0.052768931 -0.12366976 0.010891162 2.3223867e-38
-0.05087284 -0.12285714 0.013930283 2.2485206e-38
-0.048878662 -0.12127317 0.01985427 2.1194439e-38
-0.047010861 -0.12047486 0.022839986 2.2302565e-38
-0.045049921 -0.11886616 0.028856359 2.0090583e-38
-0.04310926 -0.11725079 0.034897767 2.0183516e-38
-0.04137516 -0.11725079 0.034897767 2.1934553e-38
-0.039496094 -0.11591102 0.039908431 2.3505479e-38
-0.037690252 -0.11511876 0.042871498 2.2858268e-38
-0.035892844 -0.1143059 0.045911513 2.2674936e-38
-0.034108765 -0.11352326 0.048838578 2.3506499e-38
-0.032353811 -0.11297067 0.05090525 2.1567509e-38
-0.030587474 -0.11217107 0.053895675 1.8893833e-38
-0.028831964 -0.11137636 0.05686786 2.2213612e-38
-0.027003305 -0.10924016 0.064857088 2.3509796e-38
-0.025201945 -0.10709111 0.072894476 2.3509475e-38
-0.023494555 -0.1062796 0.075929545 2.3508446e-38
-0.02183239 -0.1062796 0.075929545 2.3508809e-38
-0.02017023 -0.1062796 0.075929545 2.3234379e-38
-0.018508069 -0.1062796 0.075929545 2.3234379e-38
-0.01683392 -0.10575725 0.077883087 2.3418028e-38
-0.015175184 -0.10575725 0.077883087 2.3326187e-38
-0.013516448 -0.10575725 0.077883087 2.3509156e-38
-0.011859424 -0.1062796 0.075929545 2.3509157e-38
-0.010197263 -0.1062796 0.075929545 2.350986e-38
-0.008535102 -0.1062796 0.075929545 2.3509856e-38
-0.0068596359 -0.10709111 0.072894476 2.3509863e-38
-0.0051739626 -0.10788374 0.069930099 2.3509869e-38
-0.0034848955 -0.1084391 0.067853056 2.3509873e-38
-0.0018085726 -0.1084391 0.067853056 2.3509873e-38
-0.0001322506 -0.1084391 0.067853056 2.350987e-38
0.0015440714 -0.1084391 0.067853056 2.3509866e-38
0.0032203933 -0.1084391 0.067853056 2.3509496e-38
0.0048967153 -0.1084391 0.067853056 2.3509849e-38
0.0065730363 -0.1084391 0.067853056 2.3509846e-38
0.0082493592 -0.1084391 0.067853056 2.3509844e-38
0.0099913422 -0.10924016 0.064857088 2.3509844e-38
0.011672918 -0.10924016 0.064857088 2.3509841e-38
0.013354493 -0.10924016 0.064857088 2.3509844e-38
0.015170408 -0.11056192 0.059913836 2.3509841e-38
0.016804861 -0.11004628 0.061842285 2.3509835e-38
0.018491721 -0.11004628 0.061842285 2.3509832e-38
0.020241136 -0.11056192 0.059913836 2.3509469e-38
0.021931378 -0.11056192 0.059913836 2.3508746e-38
0.023621621 -0.11056192 0.059913836 2.3509102e-38
0.025311863 -0.11056192 0.059913836 2.3508738e-38
0.027002102 -0.11056192 0.059913836 2.3509094e-38
0.028692344 -0.11056192 0.059913836 2.3509448e-38
0.030382587 -0.11056192 0.059913836 2.3509088e-38
0.032072827 -0.11056192 0.059913836 2.3509085e-38
0.033763073 -0.11056192 0.059913836 2.3416887e-38
0.035600178 -0.11137636 0.05686786 2.3509083e-38
0.037295766 -0.11137636 0.05686786 2.3509446e-38
0.039145075 -0.11217107 0.053895675 2.3509446e-38
0.040845871 -0.11217107 0.053895675 2.3509085e-38
0.042546667 -0.11217107 0.053895675 2.3325407e-38
0.044247456 -0.11217107 0.053895675 2.3417959e-38
0.0461239 -0.11297067 0.05090525 2.3142443e-38
0.047829941 -0.11297067 0.05090525 2.332611e-38
0.049535975 -0.11297067 0.05090525 2.3326104e-38
0.051242009 -0.11297067 0.05090525 2.3326097e-38
0.05294805 -0.11297067 0.05090525 2.3326093e-38
0.054654092 -0.11297067 0.05090525 2.3142419e-38
0.056503259 -0.11352326 0.048838578 2.3049863e-38
0.058212914 -0.11352326 0.048838578 2.3417931e-38
0.060135558 -0.1143059 0.045911513 2.3509765e-38
0.061850354 -0.1143059 0.045911513 2.3417567e-38
0.06356515 -0.1143059 0.045911513 2.3325724e-38
0.065517135 -0.11511876 0.042871498 2.332536e-38
0.067237258 -0.11511876 0.042871498 2.314132e-38
0.068957381 -0.11511876 0.042871498 2.3049475e-38
0.070677504 -0.11511876 0.042871498 2.3233139e-38
0.072397619 -0.11511876 0.042871498 2.3047663e-38
0.07411775 -0.11511876 0.042871498 2.3509717e-38
0.07610023 -0.11591102 0.039908431 2.3509355e-38
0.077825546 -0.11591102 0.039908431 1.9634281e-38
0.079550862 -0.11591102 0.039908431 1.5299695e-38
0.081276178 -0.11591102 0.039908431 7.3705595e-39
0.083001494 -0.11591102 0.039908431 7.1862159e-39
0.085016891 -0.11670811 0.036927424 7.9248823e-39
-0.091144949 -0.14913492 -0.077127136 1.8068516e-38
-0.088934168 -0.14807267 -0.073180355 1.8254718e-38
-0.086796582 -0.1472411 -0.07009057 1.650481e-38
-0.084607407 -0.14616071 -0.066076197 1.6228589e-38
-0.082503423 -0.14537133 -0.063143291 1.5676497e-38
-0.079959378 -0.14268802 -0.053173222 1.5952005e-38
-0.07763049 -0.14078392 -0.046098389 1.7057987e-38
-0.075576574 -0.13999285 -0.043159045 1.8900457e-38
-0.073468119 -0.13890465 -0.039115705 2.0189753e-38
-0.07143259 -0.13809387 -0.036103286 2.0650368e-38
-0.069408566 -0.13728772 -0.033107914 2.0834035e-38
-0.067555219 -0.13728772 -0.033107914 2.092623e-38
-0.065338112 -0.13539489 -0.026074924 2.0833677e-38
-0.06254907 -0.13028879 -0.0071027651 2.0649641e-38
-0.060453728 -0.12868352 -0.0011382475 2.0741459e-38
-0.058516666 -0.12787388 0.0018699989 2.0924758e-38
-0.056590945 -0.12706901 0.0048606023 2.1476122e-38
-0.054676466 -0.12626885 0.007833682 2.202713e-38
-0.052768931 -0.12544595 0.010891162 2.1471076e-38
-0.05087284 -0.12462802 0.013930283 2.2392294e-38
-0.048878662 -0.12303366 0.01985427 2.2760688e-38
-0.046900637 -0.12140475 0.025906585 2.2577357e-38
-0.044946328 -0.1197954 0.031886242 1.9905476e-38
-0.04310926 -0.11898489 0.034897767 1.9905492e-38
-0.041312881 -0.11843865 0.036927424 2.1933477e-38
-0.039496094 -0.11763634 0.039908431 2.3502599e-38
-0.037690252 -0.11683889 0.042871498 2.3504719e-38
-0.035818428 -0.11523293 0.048838578 2.2119966e-38
-0.034059845 -0.1146767 0.05090525 2.3133041e-38
-0.032288268 -0.11387186 0.053895675 2.2671342e-38
-0.03046613 -0.11225216 0.059913836 1.9998739e-38
-0.028740382 -0.11173315 0.061842285 1.9631049e-38
-0.027003305 -0.11092176 0.064857088 2.1751945e-38
-0.025246127 -0.10955642 0.069930099 2.3507666e-38
-0.023534464 -0.10875858 0.072894476 2.3508801e-38
-0.02183239 -0.10794173 0.075929545 2.3509168e-38
-0.02017023 -0.10794173 0.075929545 2.3234379e-38
-0.018492656 -0.10741599 0.077883087 2.3234364e-38
-0.01683392 -0.10741599 0.077883087 2.3234331e-38
-0.015175184 -0.10741599 0.077883087 2.3326161e-38
-0.013516448 -0.10741599 0.077883087 2.3509125e-38
-0.011857713 -0.10741599 0.077883087 2.3509485e-38
-0.010197263 -0.10794173 0.075929545 2.3509471e-38
-0.008535102 -0.10794173 0.075929545 2.3509824e-38
-0.0068729408 -0.10794173 0.075929545 2.3509472e-38
-0.005192155 -0.10875858 0.072894476 2.3509119e-38
-0.003501283 -0.10955642 0.069930099 2.3509122e-38
-0.0018286025 -0.10955642 0.069930099 2.3509122e-38
-0.00015592203 -0.10955642 0.069930099 2.3509116e-38
0.0015440714 -0.11011542 0.067853056 2.3509468e-38
0.0032203933 -0.11011542 0.067853056 2.3325424e-38
0.0048967153 -0.11011542 0.067853056 2.341797e-38
0.0065730363 -0.11011542 0.067853056 2.3509804e-38
0.0082493592 -0.11011542 0.067853056 2.3509802e-38
0.0099256821 -0.11011542 0.067853056 2.3417966e-38
0.011672918 -0.11092176 0.064857088 2.3325773e-38
0.013354493 -0.11092176 0.064857088 2.3325419e-38
0.015036067 -0.11092176 0.064857088 2.3417254e-38
0.016717643 -0.11092176 0.064857088 2.3509088e-38
0.018399218 -0.11092176 0.064857088 2.3508724e-38
0.020178583 -0.11173315 0.061842285 2.3508364e-38
0.021865444 -0.11173315 0.061842285 2.3508357e-38
0.023621621 -0.11225216 0.059913836 2.3508355e-38
0.025239164 -0.11173315 0.061842285 2.3509069e-38
0.026926028 -0.11173315 0.061842285 2.3509426e-38
0.028692344 -0.11225216 0.059913836 2.3509782e-38
0.030513434 -0.11307193 0.05686786 2.3509783e-38
0.032209016 -0.11307193 0.05686786 2.3509779e-38
0.033904597 -0.11307193 0.05686786 2.3509778e-38
0.035600178 -0.11307193 0.05686786 2.3509778e-38
0.037295766 -0.11307193 0.05686786 2.3509778e-38
0.039145075 -0.11387186 0.053895675 2.3509781e-38
0.040845871 -0.11387186 0.053895675 2.350942e-38
0.042546667 -0.11387186 0.053895675 2.3325748e-38
0.044247456 -0.11387186 0.053895675 2.3234273e-38
0.045948252 -0.11387186 0.053895675 2.2958759e-38
0.047649048 -0.11387186 0.053895675 2.3050583e-38
0.049349844 -0.11387186 0.053895675 2.3050576e-38
0.051050633 -0.11387186 0.053895675 2.323424e-38
0.05294805 -0.1146767 0.05090525 2.3234236e-38
0.054654092 -0.1146767 0.05090525 2.3234232e-38
0.056503259 -0.11523293 0.048838578 2.3234232e-38
0.058212914 -0.11523293 0.048838578 2.3326073e-38
0.060135558 -0.11602069 0.045911513 2.341755e-38
0.061850354 -0.11602069 0.045911513 2.3417553e-38
0.06356515 -0.11602069 0.045911513 2.3509385e-38
0.065517135 -0.11683889 0.042871498 2.3509021e-38
0.067237258 -0.11683889 0.042871498 2.3509373e-38
0.068709522 -0.11602069 0.045911513 2.3509363e-38
0.070424318 -0.11602069 0.045911513 2.3509359e-38
0.072397619 -0.11683889 0.042871498 2.3507914e-38
0.07411775 -0.11683889 0.042871498 2.350935e-38
0.07610023 -0.11763634 0.039908431 2.3508627e-38
0.077825546 -0.11763634 0.039908431 1.9910499e-38
0.079550862 -0.11763634 0.039908431 1.5852504e-38
0.080998242 -0.11683889 0.042871498 8.29215e-39
0.082718357 -0.11683889 0.042871498 8.2000048e-39
0.084438488 -0.11683889 0.042871498 8.5706077e-39
-0.088934168 -0.1499963 -0.073180355 1.8528057e-38
-0.086796582 -0.1491593 -0.07009057 1.8253279e-38
-0.084607407 -0.14807184 -0.066076197 1.7609717e-38
-0.082503423 -0.14727734 -0.063143291 1.6964712e-38
-0.079959378 -0.14457656 -0.053173222 1.6688125e-38
-0.077447534 -0.14186381 -0.043159045 1.7333132e-38
-0.075332001 -0.14076851 -0.039115705 1.862315e-38
-0.073468119 -0.14076851 -0.039115705 1.9820607e-38
-0.07143259 -0.13995247 -0.036103286 2.0464533e-38
-0.069408566 -0.13914107 -0.033107914 2.0740752e-38
-0.067555219 -0.13914107 -0.033107914 2.0648556e-38
-0.065338112 -0.13723589 -0.026074924 2.0556363e-38
-0.06254907 -0.13209651 -0.0071027651 2.0371969e-38
-0.060453728 -0.13048081 -0.0011382475 2.0371952e-38
-0.058516666 -0.1296659 0.0018699989 2.0739286e-38
-0.056590945 -0.12885578 0.0048606023 2.1199535e-38
-0.054676466 -0.1280504 0.007833682 2.1934937e-38
-0.052768931 -0.12722217 0.010891162 2.2024253e-38
-0.05087284 -0.12639888 0.013930283 2.2483775e-38
-0.048991881 -0.12560774 0.016850792 2.3313149e-38
-0.046900637 -0.12315463 0.025906585 2.1654327e-38
-0.044946328 -0.12153481 0.031886242 1.9627096e-38
-0.04310926 -0.120719 0.034897767 1.9075014e-38
-0.041312881 -0.12016918 0.036927424 2.1748368e-38
-0.039496094 -0.11936165 0.039908431 2.3501888e-38
-0.037607633 -0.11773549 0.045911513 2.3505816e-38
-0.035818428 -0.11694257 0.048838578 2.267064e-38
-0.034059845 -0.11638273 0.05090525 2.3038707e-38
-0.032223128 -0.11476754 0.05686786 2.3499321e-38
-0.03046613 -0.1139424 0.059913836 2.1471362e-38
-0.028740382 -0.11341999 0.061842285 1.8337797e-38
-0.027003305 -0.11260332 0.064857088 1.8985714e-38
-0.02527708 -0.11179174 0.067853056 2.3506941e-38
-0.023534464 -0.11042608 0.072894476 2.3509156e-38
-0.02183239 -0.1096039 0.075929545 2.3509527e-38
-0.02017023 -0.1096039 0.075929545 2.3234367e-38
-0.018492656 -0.1090747 0.077883087 2.3050666e-38
-0.01683392 -0.1090747 0.077883087 2.3142464e-38
-0.015175184 -0.1090747 0.077883087 2.3234284e-38
-0.013516448 -0.1090747 0.077883087 2.3509802e-38
-0.011857713 -0.1090747 0.077883087 2.3509444e-38
-0.010198975 -0.1090747 0.077883087 2.3417592e-38
-0.008535102 -0.1096039 0.075929545 2.3326112e-38
-0.0068729408 -0.1096039 0.075929545 2.3325762e-38
-0.0052107796 -0.1096039 0.075929545 2.3325407e-38
-0.0035246722 -0.11042608 0.072894476 2.332541e-38
-0.0018286025 -0.11122911 0.069930099 2.332541e-38
-0.00015592203 -0.11122911 0.069930099 2.3325762e-38
0.0015167585 -0.11122911 0.069930099 2.332611e-38
0.003189438 -0.11122911 0.069930099 2.2958035e-38
0.0048967153 -0.11179174 0.067853056 2.3142419e-38
0.0065730363 -0.11179174 0.067853056 2.3142413e-38
0.0082493592 -0.11179174 0.067853056 2.3142413e-38
0.0099256821 -0.11179174 0.067853056 2.3050582e-38
0.011672918 -0.11260332 0.064857088 2.2958035e-38
0.013354493 -0.11260332 0.064857088 2.2957684e-38
0.015036067 -0.11260332 0.064857088 2.3140999e-38
0.016717643 -0.11260332 0.064857088 2.332467e-38
0.018399218 -0.11260332 0.064857088 2.3416146e-38
0.020178583 -0.11341999 0.061842285 2.3416146e-38
0.021865444 -0.11341999 0.061842285 2.3416499e-38
0.023552304 -0.11341999 0.061842285 2.3416496e-38
0.025239164 -0.11341999 0.061842285 2.3509046e-38
0.026926028 -0.11341999 0.061842285 2.3509404e-38
0.028692344 -0.1139424 0.059913836 2.3509757e-38
0.030382587 -0.1139424 0.059913836 2.3509759e-38
0.032072827 -0.1139424 0.059913836 2.3509757e-38
0.033904597 -0.11476754 0.05686786 2.3509755e-38
0.035600178 -0.11476754 0.05686786 2.3509757e-38
0.037295766 -0.11476754 0.05686786 2.3509757e-38
0.039145075 -0.11557265 0.053895675 2.3509759e-38
0.040845871 -0.11557265 0.053895675 2.3509399e-38
0.042546667 -0.11557265 0.053895675 2.3325374e-38
0.044247456 -0.11557265 0.053895675 2.3234266e-38
0.045948252 -0.11557265 0.053895675 2.2958395e-38
0.047649048 -0.11557265 0.053895675 2.2958381e-38
0.049349844 -0.11557265 0.053895675 2.2958728e-38
0.051050633 -0.11557265 0.053895675 2.3142388e-38
0.05294805 -0.11638273 0.05090525 2.314238e-38
0.054654092 -0.11638273 0.05090525 2.3326049e-38
0.056503259 -0.11694257 0.048838578 2.3234214e-38
0.058212914 -0.11694257 0.048838578 2.3234221e-38
0.060135558 -0.11773549 0.045911513 2.3509731e-38
0.061850354 -0.11773549 0.045911513 2.3509377e-38
0.06356515 -0.11773549 0.045911513 2.3509018e-38
0.065279938 -0.11773549 0.045911513 2.3509373e-38
0.066994734 -0.11773549 0.045911513 2.3509727e-38
0.068709522 -0.11773549 0.045911513 2.350972e-38
0.070424318 -0.11773549 0.045911513 2.3509715e-38
0.072139114 -0.11773549 0.045911513 2.3507551e-38
0.07411775 -0.11855899 0.042871498 2.3508269e-38
0.07610023 -0.11936165 0.039908431 2.3506825e-38
0.077557996 -0.11855899 0.042871498 1.9817582e-38
0.079278111 -0.11855899 0.042871498 1.6404955e-38
0.080998242 -0.11855899 0.042871498 9.0297123e-39
0.082718357 -0.11855899 0.042871498 9.0297627e-39
0.084438488 -0.11855899 0.042871498 9.4003655e-39
-0.084607407 -0.14998297 -0.066076197 1.8436948e-38
-0.082503423 -0.14918335 -0.063143291 1.8069253e-38
-0.079959378 -0.14646508 -0.053173222 1.7609354e-38
-0.077447534 -0.14373477 -0.043159045 1.806925e-38
-0.075332001 -0.14263238 -0.039115705 1.8898648e-38
-0.073291183 -0.14181106 -0.036103286 1.9726966e-38
-0.07143259 -0.14181106 -0.036103286 2.0003544e-38
-0.069408566 -0.14099441 -0.033107914 2.0279402e-38
-0.067555219 -0.14099441 -0.033107914 2.0370876e-38
-0.065186091 -0.13827558 -0.023135819 2.0279046e-38
-0.06254907 -0.13390426 -0.0071027651 2.0187207e-38
-0.060453728 -0.1322781 -0.0011382475 2.0186837e-38
-0.058516666 -0.13145791 0.0018699989 2.0554529e-38
-0.056590945 -0.13064255 0.0048606023 2.1014065e-38
-0.054676466 -0.12983195 0.007833682 2.1657631e-38
-0.052768931 -0.12899835 0.010891162 2.2576348e-38
-0.05087284 -0.12816976 0.013930283 2.137743e-38
-0.048991881 -0.1273735 0.016850792 2.2391193e-38
-0.046900637 -0.1249045 0.025906585 2.0271395e-38
-0.044946328 -0.12327419 0.031886242 1.9534183e-38
-0.043043427 -0.12189974 0.036927424 1.8981744e-38
-0.041312881 -0.12189974 0.036927424 2.1747292e-38
-0.039496094 -0.12108697 0.039908431 2.3501172e-38
-0.037607633 -0.11945029 0.045911513 2.3500784e-38
-0.035818428 -0.11865224 0.048838578 2.3500053e-38
-0.034059845 -0.11808877 0.05090525 2.3499342e-38
-0.032223128 -0.11646311 0.05686786 2.3497535e-38
-0.03046613 -0.11563264 0.059913836 2.2298972e-38
-0.028740382 -0.11510687 0.061842285 1.8796978e-38
-0.026953405 -0.11346807 0.067853056 1.8523294e-38
-0.02527708 -0.11346807 0.067853056 2.3506216e-38
-0.023534464 -0.11209355 0.072894476 2.350951e-38
-0.02183239 -0.11126606 0.075929545 2.3509883e-38
-0.02017023 -0.11126606 0.075929545 2.3142517e-38
-0.018492656 -0.11073343 0.077883087 2.2866974e-38
-0.01683392 -0.11073343 0.077883087 2.2866928e-38
-0.015175184 -0.11073343 0.077883087 2.2958742e-38
-0.013516448 -0.11073343 0.077883087 2.3509409e-38
-0.011857713 -0.11073343 0.077883087 2.350905e-38
-0.010198975 -0.11073343 0.077883087 2.3509757e-38
-0.0085402392 -0.11073343 0.077883087 2.3326084e-38
-0.0068729408 -0.11126606 0.075929545 2.3509762e-38
-0.0052107796 -0.11126606 0.075929545 2.3326097e-38
-0.0035246722 -0.11209355 0.072894476 2.3509411e-38
-0.0018571885 -0.11209355 0.072894476 2.3326097e-38
-0.00015592203 -0.11290176 0.069930099 2.3509762e-38
0.0015167585 -0.11290176 0.069930099 2.3326081e-38
0.003189438 -0.11290176 0.069930099 2.3326066e-38
0.0048967153 -0.11346807 0.067853056 2.3142388e-38
0.0065730363 -0.11346807 0.067853056 2.3417893e-38
0.0082493592 -0.11346807 0.067853056 2.3142391e-38
0.0099256821 -0.11346807 0.067853056 2.3234235e-38
0.011672918 -0.11428489 0.064857088 2.3050215e-38
0.013354493 -0.11428489 0.064857088 2.3325018e-38
0.015036067 -0.11428489 0.064857088 2.3509057e-38
0.016717643 -0.11428489 0.064857088 2.3232475e-38
0.018399218 -0.11428489 0.064857088 2.332467e-38
0.020080792 -0.11428489 0.064857088 2.350906e-38
0.021762365 -0.11428489 0.064857088 2.3509778e-38
0.023552304 -0.11510687 0.061842285 2.3509772e-38
0.025239164 -0.11510687 0.061842285 2.3509769e-38
0.026926028 -0.11510687 0.061842285 2.3417567e-38
0.028692344 -0.11563264 0.059913836 2.3233173e-38
0.030382587 -0.11563264 0.059913836 2.341792e-38
0.032072827 -0.11563264 0.059913836 2.3325724e-38
0.033904597 -0.11646311 0.05686786 2.3233173e-38
0.035600178 -0.11646311 0.05686786 2.3325368e-38
0.037295766 -0.11646311 0.05686786 2.3417567e-38
0.039145075 -0.11727346 0.053895675 2.3509765e-38
0.040845871 -0.11727346 0.053895675 2.3417569e-38
0.042546667 -0.11727346 0.053895675 2.3141707e-38
0.044247456 -0.11727346 0.053895675 2.3417946e-38
0.045948252 -0.11727346 0.053895675 2.3142436e-38
0.047649048 -0.11727346 0.053895675 2.2958384e-38
0.049349844 -0.11727346 0.053895675 2.2866891e-38
0.051050633 -0.11727346 0.053895675 2.2958709e-38
0.05294805 -0.11808877 0.05090525 2.3234207e-38
0.054654092 -0.11808877 0.05090525 2.3142366e-38
0.056503259 -0.11865224 0.048838578 2.3234201e-38
0.058212914 -0.11865224 0.048838578 2.3417879e-38
0.060135558 -0.11945029 0.045911513 2.3509363e-38
0.061850354 -0.11945029 0.045911513 2.350901e-38
0.06356515 -0.11945029 0.045911513 2.3508654e-38
0.065279938 -0.11945029 0.045911513 2.3509007e-38
0.066994734 -0.11945029 0.045911513 2.3509362e-38
0.068709522 -0.11945029 0.045911513 2.3509357e-38
0.070424318 -0.11945029 0.045911513 2.3509352e-38
0.072139114 -0.11945029 0.045911513 2.3505752e-38
0.073853895 -0.11945029 0.045911513 2.3506829e-38
0.075837865 -0.12027912 0.042871498 2.3505386e-38
0.077557996 -0.12027912 0.042871498 1.963283e-38
0.079278111 -0.12027912 0.042871498 1.6036172e-38
0.080998242 -0.12027912 0.042871498 8.845321e-39
0.082718357 -0.12027912 0.042871498 9.214154e-39
0.084438488 -0.12027912 0.042871498 9.8613437e-39
-0.079959378 -0.14835359 -0.053173222 1.8252551e-38
-0.077447534 -0.14560573 -0.043159045 1.8437299e-38
-0.075332001 -0.14449625 -0.039115705 1.9081948e-38
-0.073291183 -0.14366965 -0.036103286 1.9634756e-38
-0.071261898 -0.14284773 -0.033107914 2.0094647e-38
-0.069244064 -0.14203046 -0.03012947 2.0093917e-38
-0.06739594 -0.14203046 -0.03012947 2.037014e-38
-0.065186091 -0.14011143 -0.023135819 2.0370508e-38
-0.06254907 -0.13571201 -0.0071027651 2.0462703e-38
-0.060599625 -0.13490568 -0.0041641369 2.0370857e-38
-0.058516666 -0.13324992 0.0018699989 2.0554163e-38
-0.056590945 -0.13242932 0.0048606023 2.0921505e-38
-0.054676466 -0.13161351 0.007833682 2.1380681e-38
-0.052768931 -0.13077454 0.010891162 2.1009022e-38
-0.050992735 -0.13077454 0.010891162 2.1099764e-38
-0.048991881 -0.12913923 0.016850792 2.2298998e-38
-0.046900637 -0.12665437 0.025906585 1.8704069e-38
-0.044946328 -0.12501357 0.031886242 1.8243444e-38
-0.043043427 -0.12363027 0.036927424 1.9811504e-38
-0.041312881 -0.12363027 0.036927424 2.2484138e-38
-0.039410375 -0.12199925 0.042871498 2.340646e-38
-0.037607633 -0.12116508 0.045911513 2.2761784e-38
-0.035818428 -0.12036191 0.048838578 2.3499342e-38
-0.034059845 -0.1197948 0.05090525 2.3498273e-38
-0.032223128 -0.11815868 0.05686786 2.3311352e-38
-0.03046613 -0.11732288 0.059913836 2.2574481e-38
-0.028740382 -0.11679374 0.061842285 1.9072126e-38
-0.026953405 -0.11514439 0.067853056 1.8153068e-38
-0.025246127 -0.11457445 0.069930099 2.3505851e-38
-0.023534464 -0.11376105 0.072894476 2.3509149e-38
-0.02183239 -0.11292823 0.075929545 2.3509879e-38
-0.02017023 -0.11292823 0.075929545 2.3050673e-38
-0.018492656 -0.11239217 0.077883087 2.2775125e-38
-0.01683392 -0.11239217 0.077883087 2.277507e-38
-0.015175184 -0.11239217 0.077883087 2.3050555e-38
-0.013516448 -0.11239217 0.077883087 2.3509024e-38
-0.011857713 -0.11239217 0.077883087 2.3508668e-38
-0.010198975 -0.11239217 0.077883087 2.3509736e-38
-0.0085402392 -0.11239217 0.077883087 2.34179e-38
-0.0068729408 -0.11292823 0.075929545 2.3509744e-38
-0.0052107796 -0.11292823 0.075929545 2.341791e-38
-0.0035246722 -0.11376105 0.072894476 2.3509748e-38
-0.0018571885 -0.11376105 0.072894476 2.341791e-38
-0.00015592203 -0.11457445 0.069930099 2.3509741e-38
0.0015167585 -0.11457445 0.069930099 2.3417896e-38
0.003189438 -0.11457445 0.069930099 2.3509722e-38
0.0048967153 -0.11514439 0.067853056 2.3417881e-38
0.0065730363 -0.11514439 0.067853056 2.3509719e-38
0.0082493592 -0.11514439 0.067853056 2.3326053e-38
0.0099256821 -0.11514439 0.067853056 2.3325709e-38
0.011672918 -0.11596648 0.064857088 2.3325724e-38
0.013354493 -0.11596648 0.064857088 2.3509415e-38
0.015036067 -0.11596648 0.064857088 2.3509793e-38
0.016717643 -0.11596648 0.064857088 2.3324691e-38
0.018399218 -0.11596648 0.064857088 2.3509088e-38
0.020080792 -0.11596648 0.064857088 2.350981e-38
0.021762365 -0.11596648 0.064857088 2.350981e-38
0.023443943 -0.11596648 0.064857088 2.3509804e-38
0.025239164 -0.11679374 0.061842285 2.3509797e-38
0.026926028 -0.11679374 0.061842285 2.3325396e-38
0.028612887 -0.11679374 0.061842285 2.3048807e-38
0.030382587 -0.11732288 0.059913836 2.3233198e-38
0.032072827 -0.11732288 0.059913836 2.3233198e-38
0.033763073 -0.11732288 0.059913836 2.3233201e-38
0.035600178 -0.11815868 0.05686786 2.3325396e-38
0.037295766 -0.11815868 0.05686786 2.3509792e-38
0.039145075 -0.11897425 0.053895675 2.3509796e-38
0.040845871 -0.11897425 0.053895675 2.3509797e-38
0.042546667 -0.11897425 0.053895675 2.35098e-38
0.044247456 -0.11897425 0.053895675 2.3509811e-38
0.045948252 -0.11897425 0.053895675 2.3509799e-38
0.047649048 -0.11897425 0.053895675 2.3325745e-38
0.049349844 -0.11897425 0.053895675 2.3050212e-38
0.051050633 -0.11897425 0.053895675 2.3142382e-38
0.05294805 -0.1197948 0.05090525 2.3142367e-38
0.054654092 -0.1197948 0.05090525 2.3142361e-38
0.056503259 -0.12036191 0.048838578 2.332603e-38
0.058212914 -0.12036191 0.048838578 2.350971e-38
0.060135558 -0.12116508 0.045911513 2.3509719e-38
0.061850354 -0.12116508 0.045911513 2.3509004e-38
0.06356515 -0.12116508 0.045911513 2.3508288e-38
0.065279938 -0.12116508 0.045911513 2.3508288e-38
0.066994734 -0.12116508 0.045911513 2.3507922e-38
0.068709522 -0.12116508 0.045911513 2.3507917e-38
0.070424318 -0.12116508 0.045911513 2.3507552e-38
0.072139114 -0.12116508 0.045911513 2.3504314e-38
0.073853895 -0.12116508 0.045911513 2.3505397e-38
0.075837865 -0.12199925 0.042871498 2.350539e-38
0.077283487 -0.12116508 0.045911513 1.9631396e-38
0.078998283 -0.12116508 0.045911513 1.5666671e-38
0.080998242 -0.12199925 0.042871498 8.4754595e-39
0.082718357 -0.12199925 0.042871498 8.9375671e-39
-0.077447534 -0.14747669 -0.043159045 1.8713153e-38
-0.075332001 -0.14636014 -0.039115705 1.8989738e-38
-0.073291183 -0.14552824 -0.036103286 1.9725858e-38
-0.071261898 -0.14470108 -0.033107914 2.009427e-38
-0.069244064 -0.14387859 -0.03012947 2.0093542e-38
-0.067179121 -0.14275892 -0.026074924 2.0277931e-38
-0.064873494 -0.14027832 -0.017092146 2.046197e-38
-0.06254907 -0.13751976 -0.0071027651 2.0462333e-38
-0.060599625 -0.13670824 -0.0041641369 2.0370489e-38
-0.058516666 -0.13504194 0.0018699989 2.0370124e-38
-0.056590945 -0.13421609 0.0048606023 2.0828584e-38
-0.054676466 -0.13339506 0.007833682 2.1104092e-38
-0.052768931 -0.13255073 0.010891162 2.146964e-38
-0.05087284 -0.1317115 0.013930283 2.2759286e-38
-0.048991881 -0.13090499 0.016850792 2.2667781e-38
-0.046900637 -0.12840421 0.025906585 1.6398103e-38
-0.044946328 -0.12675296 0.031886242 1.5293184e-38
-0.043043427 -0.12536083 0.036927424 2.0641268e-38
-0.041312881 -0.12536083 0.036927424 2.3498293e-38
-0.039410375 -0.12371938 0.042871498 2.340646e-38
-0.037528083 -0.12207155 0.048838578 2.2853261e-38
-0.035818428 -0.12207155 0.048838578 2.3313868e-38
-0.034059845 -0.12150083 0.05090525 2.3495393e-38
-0.032223128 -0.11985429 0.05686786 2.3496104e-38
-0.03046613 -0.11901312 0.059913836 2.3310966e-38
-0.028740382 -0.11848058 0.061842285 1.8702979e-38
-0.026953405 -0.11682071 0.067853056 1.7691724e-38
-0.025201945 -0.11542852 0.072894476 2.350693e-38
-0.023494555 -0.11459039 0.075929545 2.3509149e-38
-0.021810127 -0.11405091 0.077883087 2.3509879e-38
-0.020151392 -0.11405091 0.077883087 2.3234341e-38
-0.018492656 -0.11405091 0.077883087 2.2866954e-38
-0.016815489 -0.11322157 0.080886386 2.277506e-38
-0.015162019 -0.11322157 0.080886386 2.3050543e-38
-0.013516448 -0.11405091 0.077883087 2.3508654e-38
-0.011857713 -0.11405091 0.077883087 2.3508657e-38
-0.010198975 -0.11405091 0.077883087 2.3509367e-38
-0.0085402392 -0.11405091 0.077883087 2.3326052e-38
-0.0068729408 -0.11459039 0.075929545 2.3509731e-38
-0.0052107796 -0.11459039 0.075929545 2.3326065e-38
-0.0035246722 -0.11542852 0.072894476 2.3509021e-38
-0.0018571885 -0.11542852 0.072894476 2.3326065e-38
-0.00018970575 -0.11542852 0.072894476 2.3509729e-38
0.0014777761 -0.11542852 0.072894476 2.3326049e-38
0.0031452589 -0.11542852 0.072894476 2.3509712e-38
0.0048621185 -0.11624713 0.069930099 2.3417876e-38
0.0065730363 -0.11682071 0.067853056 2.3509716e-38
0.0082493592 -0.11682071 0.067853056 2.3234221e-38
0.0099256821 -0.11682071 0.067853056 2.3508669e-38
0.011602003 -0.11682071 0.067853056 2.3508692e-38
0.013278326 -0.11682071 0.067853056 2.3509077e-38
0.014954647 -0.11682071 0.067853056 2.3509817e-38
0.016717643 -0.11764805 0.064857088 2.3509113e-38
0.018399218 -0.11764805 0.064857088 2.3509844e-38
0.020080792 -0.11764805 0.064857088 2.3509844e-38
0.021762365 -0.11764805 0.064857088 2.3509841e-38
0.023443943 -0.11764805 0.064857088 2.3509838e-38
0.025239164 -0.11848058 0.061842285 2.3509832e-38
0.026926028 -0.11848058 0.061842285 2.3509464e-38
0.028612887 -0.11848058 0.061842285 2.3140679e-38
0.030299747 -0.11848058 0.061842285 2.3509458e-38
0.031986609 -0.11848058 0.061842285 2.3509461e-38
0.033763073 -0.11901312 0.059913836 2.3509464e-38
0.035600178 -0.11985429 0.05686786 2.3509828e-38
0.037295766 -0.11985429 0.05686786 2.3509834e-38
0.038991347 -0.11985429 0.05686786 2.3509838e-38
0.040845871 -0.12067504 0.053895675 2.3509841e-38
0.042546667 -0.12067504 0.053895675 2.3509841e-38
0.044247456 -0.12067504 0.053895675 2.3509838e-38
0.045948252 -0.12067504 0.053895675 2.3509821e-38
0.047649048 -0.12067504 0.053895675 2.3509432e-38
0.049349844 -0.12067504 0.053895675 2.3049863e-38
0.051050633 -0.12067504 0.053895675 2.3050194e-38
0.05294805 -0.12150083 0.05090525 2.3142368e-38
0.054654092 -0.12150083 0.05090525 2.332603e-38
0.056503259 -0.12207155 0.048838578 2.3326027e-38
0.058212914 -0.12207155 0.048838578 2.3509709e-38
0.060135558 -0.12287988 0.045911513 2.3509713e-38
0.061850354 -0.12287988 0.045911513 2.3508641e-38
0.06356515 -0.12287988 0.045911513 2.3507925e-38
0.065279938 -0.12287988 0.045911513 2.3507205e-38
0.066994734 -0.12287988 0.045911513 2.3415006e-38
0.068709522 -0.12287988 0.045911513 2.3323163e-38
0.070424318 -0.12287988 0.045911513 2.3506112e-38
0.072139114 -0.12287988 0.045911513 2.3503958e-38
0.073853895 -0.12287988 0.045911513 2.3505401e-38
0.075837865 -0.12371938 0.042871498 2.3505394e-38
0.077283487 -0.12287988 0.045911513 1.9722875e-38
0.078998283 -0.12287988 0.045911513 1.5481564e-38
0.080998242 -0.12371938 0.042871498 8.106677e-39
0.082718357 -0.12371938 0.042871498 8.6609774e-39
-0.077447534 -0.14934768 -0.043159045 1.8435476e-38
-0.075576574 -0.14934768 -0.043159045 1.8712417e-38
-0.073291183 -0.14738683 -0.036103286 1.9172311e-38
-0.07143259 -0.14738683 -0.036103286 1.9356691e-38
-0.069244064 -0.1457267 -0.03012947 1.9908777e-38
-0.067179121 -0.14459993 -0.026074924 2.000097e-38
-0.064873494 -0.1421036 -0.017092146 2.0092817e-38
-0.06254907 -0.13932751 -0.0071027651 1.9909148e-38
-0.060599625 -0.13851084 -0.0041641369 1.9817306e-38
-0.058656439 -0.13766994 -0.0011382475 2.0000617e-38
-0.056590945 -0.13600285 0.0048606023 2.036796e-38
-0.054804176 -0.13600285 0.0048606023 2.0643111e-38
-0.052768931 -0.13432692 0.010891162 2.183842e-38
-0.05087284 -0.13348235 0.013930283 2.1652935e-38
-0.048991881 -0.13267075 0.016850792 1.9994108e-38
-0.046794616 -0.12933435 0.028856359 1.455419e-38
-0.044946328 -0.12849234 0.031886242 1.4278676e-38
-0.043043427 -0.12709136 0.036927424 2.1930928e-38
-0.041312881 -0.12709136 0.036927424 2.3498653e-38
-0.039410375 -0.12543948 0.042871498 2.3222069e-38
-0.037528083 -0.12378122 0.048838578 2.285361e-38
-0.035818428 -0.12378122 0.048838578 2.2945433e-38
-0.034059845 -0.1232069 0.05090525 2.331171e-38
-0.032223128 -0.12154986 0.05686786 2.3496097e-38
-0.03046613 -0.12070335 0.059913836 2.3403152e-38
-0.028740382 -0.12016745 0.061842285 1.8887722e-38
-0.026953405 -0.11849703 0.067853056 1.7968665e-38
-0.025201945 -0.11709599 0.072894476 2.3508006e-38
-0.023494555 -0.11625256 0.075929545 2.3509149e-38
-0.021810127 -0.11570965 0.077883087 2.350988e-38
-0.020151392 -0.11570965 0.077883087 2.3234347e-38
-0.018492656 -0.11570965 0.077883087 2.277512e-38
-0.016815489 -0.11487503 0.080886386 2.2866897e-38
-0.015162019 -0.11487503 0.080886386 2.3142377e-38
-0.013516448 -0.11570965 0.077883087 2.3508299e-38
-0.011857713 -0.11570965 0.077883087 2.3508301e-38
-0.010198975 -0.11570965 0.077883087 2.3509007e-38
-0.0085402392 -0.11570965 0.077883087 2.3417886e-38
-0.0068729408 -0.11625256 0.075929545 2.3509013e-38
-0.0052107796 -0.11625256 0.075929545 2.3417181e-38
-0.0035246722 -0.11709599 0.072894476 2.3508305e-38
-0.0018571885 -0.11709599 0.072894476 2.3416825e-38
-0.00018970575 -0.11709599 0.072894476 2.3508655e-38
0.0014777761 -0.11709599 0.072894476 2.341753e-38
0.0031452589 -0.11709599 0.072894476 2.3509717e-38
0.0048621185 -0.11791982 0.069930099 2.3417882e-38
0.0065347981 -0.11791982 0.069930099 2.350901e-38
0.0082074795 -0.11791982 0.069930099 2.3324634e-38
0.0099256821 -0.11849703 0.067853056 2.3507253e-38
0.011602003 -0.11849703 0.067853056 2.3507998e-38
0.013278326 -0.11849703 0.067853056 2.3508386e-38
0.014954647 -0.11849703 0.067853056 2.3509132e-38
0.01663097 -0.11849703 0.067853056 2.3509157e-38
0.018307291 -0.11849703 0.067853056 2.3509527e-38
0.020080792 -0.11932962 0.064857088 2.3509524e-38
0.021762365 -0.11932962 0.064857088 2.3509879e-38
0.023443943 -0.11932962 0.064857088 2.3509876e-38
0.025239164 -0.12016745 0.061842285 2.350987e-38
0.026926028 -0.12016745 0.061842285 2.3509507e-38
0.028692344 -0.12070335 0.059913836 2.3509144e-38
0.030299747 -0.12016745 0.061842285 2.3509865e-38
0.031986609 -0.12016745 0.061842285 2.3509507e-38
0.033763073 -0.12070335 0.059913836 2.3509509e-38
0.035600178 -0.12154986 0.05686786 2.3509513e-38
0.037295766 -0.12154986 0.05686786 2.3509879e-38
0.038991347 -0.12154986 0.05686786 2.3509521e-38
0.040845871 -0.12237583 0.053895675 2.3509524e-38
0.042546667 -0.12237583 0.053895675 2.350952e-38
0.044247456 -0.12237583 0.053895675 2.3509863e-38
0.045948252 -0.12237583 0.053895675 2.3509841e-38
0.047649048 -0.12237583 0.053895675 2.3416533e-38
0.049349844 -0.12237583 0.053895675 2.3049158e-38
0.051050633 -0.12237583 0.053895675 2.3049844e-38
0.05294805 -0.1232069 0.05090525 2.3142375e-38
0.054654092 -0.1232069 0.05090525 2.3326032e-38
0.056503259 -0.12378122 0.048838578 2.3417867e-38
0.058212914 -0.12378122 0.048838578 2.3417868e-38
0.060135558 -0.12459467 0.045911513 2.3508993e-38
0.061850354 -0.12459467 0.045911513 2.3508281e-38
0.06356515 -0.12459467 0.045911513 2.3507205e-38
0.065279938 -0.12459467 0.045911513 2.3506486e-38
0.066994734 -0.12459467 0.045911513 2.3414285e-38
