# .PCD v0.7 - Point Cloud Data file format
VERSION 0.7
FIELDS x y z rgb
SIZE 4 4 4 4
TYPE F F F F
COUNT 1 1 1 1
WIDTH 944
HEIGHT 1
VIEWPOINT 0 0 0 1 0 0 0
POINTS 944
DATA ascii
0.02002541 -0.12125005 0.0029536299 2.3509886e-38
0.021833155 -0.12125005 0.0029536299 2.3509886e-38
0.023640901 -0.12125005 0.0029536299 2.3509886e-38
0.025448643 -0.12125005 0.0029536299 2.3509886e-38
0.027256388 -0.12125005 0.0029536299 2.3509886e-38
0.029064134 -0.12125005 0.0029536299 2.3509886e-38
0.030871879 -0.12125005 0.0029536299 2.3509886e-38
0.032821868 -0.12204717 -0.00010778382 2.3509886e-38
0.034634978 -0.12204717 -0.00010778382 2.3509886e-38
0.036448091 -0.12204717 -0.00010778382 2.3509886e-38
0.038261201 -0.12204717 -0.00010778382 2.3509886e-38
0.040284596 -0.123071 -0.0040400214 2.3509886e-38
0.042104606 -0.123071 -0.0040400214 2.341805e-38
0.044095319 -0.12385099 -0.0070357509 2.3417333e-38
0.045920577 -0.12385099 -0.0070357509 2.3233662e-38
0.047745835 -0.12385099 -0.0070357509 2.323402e-38
0.049571093 -0.12385099 -0.0070357509 2.3234379e-38
0.051396351 -0.12385099 -0.0070357509 2.3234379e-38
0.053419728 -0.12463553 -0.010048885 2.3234379e-38
0.055250268 -0.12463553 -0.010048885 2.3418047e-38
0.057080809 -0.12463553 -0.010048885 2.3509879e-38
0.059126552 -0.12542458 -0.013079423 2.3508795e-38
0.060962405 -0.12542458 -0.013079423 2.3509863e-38
0.062798262 -0.12542458 -0.013079423 2.3509848e-38
0.064858288 -0.12618984 -0.016018528 2.3321114e-38
0.066699296 -0.12618984 -0.016018528 2.3508723e-38
0.068540297 -0.12618984 -0.016018528 2.3507976e-38
0.070711873 -0.12724553 -0.020073075 2.3227766e-38
0.07280805 -0.12802102 -0.023051519 1.8896014e-38
0.074661396 -0.12802102 -0.023051519 1.6594388e-38
0.076514728 -0.12802102 -0.023051519 2.3509807e-38
0.078900017 -0.12958528 -0.02905931 2.3509846e-38
0.080763899 -0.12958528 -0.02905931 2.350949e-38
0.082627766 -0.12958528 -0.02905931 2.3508752e-38
0.084491648 -0.12958528 -0.02905931 2.3509797e-38
0.086355515 -0.12958528 -0.02905931 2.268143e-38
0.088219397 -0.12958528 -0.02905931 2.3509741e-38
0.090083264 -0.12958528 -0.02905931 2.3139873e-38
0.091947146 -0.12958528 -0.02905931 2.3507586e-38
0.093811013 -0.12958528 -0.02905931 2.3412172e-38
0.095674895 -0.12958528 -0.02905931 2.3225273e-38
0.097967662 -0.13063805 -0.03310265 2.2301525e-38
0.099838637 -0.13063805 -0.03310265 2.0271429e-38
0.1017096 -0.13063805 -0.03310265 2.1100116e-38
0.10390782 -0.13140334 -0.036041994 2.3501179e-38
0.10578393 -0.13140334 -0.036041994 2.350805e-38
0.10801256 -0.13220255 -0.039111514 2.3508425e-38
0.11036106 -0.13324542 -0.043116827 2.3507352e-38
0.11224958 -0.13324542 -0.043116827 2.35088e-38
0.1144978 -0.1340252 -0.046111722 2.3233299e-38
0.11639158 -0.1340252 -0.046111722 2.3142544e-38
0.11828535 -0.1340252 -0.046111722 2.2958873e-38
0.12017912 -0.1340252 -0.046111722 1.8073229e-38
0.1220729 -0.1340252 -0.046111722 1.5214084e-38
0.12396666 -0.1340252 -0.046111722 5.3480654e-39
0.12586042 -0.1340252 -0.046111722 5.3473437e-39
-0.12641558 -0.13695215 -0.050053257 1.097162e-38
-0.1245149 -0.13695215 -0.050053257 1.1428993e-38
-0.12261421 -0.13695215 -0.050053257 1.2255503e-38
-0.12003855 -0.13513394 -0.043116827 1.3357878e-38
-0.11815002 -0.13513394 -0.043116827 1.4922308e-38
-0.11559787 -0.13327946 -0.036041994 1.5657345e-38
-0.11307899 -0.13144915 -0.02905931 1.6486379e-38
-0.1109431 -0.13065951 -0.026046891 1.5381826e-38
-0.10881928 -0.12987436 -0.023051519 1.7319732e-38
-0.10635556 -0.12803085 -0.016018528 1.8150935e-38
-0.10426461 -0.12726043 -0.013079423 1.8704833e-38
-0.10084874 -0.12228753 0.0058922581 1.879668e-38
-0.098799445 -0.12149437 0.0089181475 1.8150592e-38
-0.097002156 -0.12149437 0.0089181475 1.787292e-38
-0.094970159 -0.12070583 0.011926394 1.8240612e-38
-0.092950054 -0.11992194 0.014916997 1.8976719e-38
-0.090941735 -0.11914261 0.017890077 1.9620631e-38
-0.088937707 -0.11834116 0.020947557 1.980536e-38
-0.086945705 -0.11754455 0.023986679 2.0173765e-38
-0.084972568 -0.11677901 0.026907187 2.0452139e-38
-0.082802542 -0.11520912 0.032896381 2.1468093e-38
-0.081047289 -0.11520912 0.032896381 1.9902941e-38
-0.07890702 -0.11363207 0.038912755 2.0181358e-38
-0.076973729 -0.11283787 0.041942637 1.9907331e-38
-0.075052179 -0.11204849 0.044954162 2.3506595e-38
-0.073318079 -0.11204849 0.044954162 2.3508793e-38
-0.071583979 -0.11204849 0.044954162 2.3508807e-38
-0.069849871 -0.11204849 0.044954162 2.3509527e-38
-0.068115763 -0.11204849 0.044954162 2.3509886e-38
-0.066381663 -0.11204849 0.044954162 2.3509886e-38
-0.064647563 -0.11204849 0.044954162 2.3509886e-38
-0.062913455 -0.11204849 0.044954162 2.3509886e-38
-0.061179355 -0.11204849 0.044954162 2.3509886e-38
-0.059445255 -0.11204849 0.044954162 2.3509886e-38
-0.057711147 -0.11204849 0.044954162 2.3509886e-38
-0.055977043 -0.11204849 0.044954162 2.3509883e-38
-0.054361742 -0.11283787 0.041942637 2.350988e-38
-0.052622359 -0.11283787 0.041942637 2.350988e-38
-0.050882977 -0.11283787 0.041942637 2.3509879e-38
-0.049143594 -0.11283787 0.041942637 2.3509879e-38
-0.047502488 -0.11363207 0.038912755 2.3509879e-38
-0.045848303 -0.11440529 0.03596298 2.3509879e-38
-0.044187151 -0.11520912 0.032896381 2.3418043e-38
-0.042431906 -0.11520912 0.032896381 2.2867026e-38
-0.040676661 -0.11520912 0.032896381 2.2130541e-38
-0.038992085 -0.11599173 0.029910665 2.3234376e-38
-0.037231605 -0.11599173 0.029910665 2.3418047e-38
-0.035471126 -0.11599173 0.029910665 2.3509527e-38
-0.033710647 -0.11599173 0.029910665 2.3509527e-38
-0.031950168 -0.11599173 0.029910665 2.2679772e-38
-0.030189686 -0.11599173 0.029910665 2.3141467e-38
-0.028468702 -0.11677901 0.026907187 2.3234379e-38
-0.026702955 -0.11677901 0.026907187 2.2958873e-38
-0.024937211 -0.11677901 0.026907187 2.2867037e-38
-0.023171466 -0.11677901 0.026907187 2.2958873e-38
-0.021423642 -0.11754455 0.023986679 2.3142544e-38
-0.019666096 -0.11834116 0.020947557 2.341805e-38
-0.0178899 -0.11834116 0.020947557 2.3509527e-38
-0.016113706 -0.11834116 0.020947557 2.3509527e-38
-0.01433751 -0.11834116 0.020947557 2.3509883e-38
-0.012561316 -0.11834116 0.020947557 2.350988e-38
-0.01078512 -0.11834116 0.020947557 2.3509883e-38
-0.0089901621 -0.11914261 0.017890077 2.3509883e-38
-0.0072086062 -0.11914261 0.017890077 2.3509883e-38
-0.0054270504 -0.11914261 0.017890077 2.3509883e-38
-0.0036454946 -0.11914261 0.017890077 2.3509883e-38
-0.0018639378 -0.11914261 0.017890077 2.3509886e-38
-8.2382001e-05 -0.11914261 0.017890077 2.3509886e-38
0.001748696 -0.11992194 0.014916997 2.3509886e-38
0.0035905205 -0.12070583 0.011926394 2.3509886e-38
0.0053825341 -0.12070583 0.011926394 2.3509886e-38
0.0072404761 -0.12149437 0.0089181475 2.3509886e-38
0.0090377629 -0.12149437 0.0089181475 2.3509886e-38
0.010911979 -0.12228753 0.0058922581 2.3509886e-38
0.01271457 -0.12228753 0.0058922581 2.3509886e-38
0.014517162 -0.12228753 0.0058922581 2.3509886e-38
0.016319755 -0.12228753 0.0058922581 2.3509886e-38
0.018122345 -0.12228753 0.0058922581 2.3509886e-38
0.02002541 -0.1230578 0.0029536299 2.3509886e-38
0.021833155 -0.1230578 0.0029536299 2.3509886e-38
0.023640901 -0.1230578 0.0029536299 2.3509886e-38
0.025448643 -0.1230578 0.0029536299 2.3509886e-38
0.027256388 -0.1230578 0.0029536299 2.3509886e-38
0.029064134 -0.1230578 0.0029536299 2.3509886e-38
0.030871879 -0.1230578 0.0029536299 2.3509886e-38
0.032821868 -0.12386028 -0.00010778382 2.3509886e-38
0.034634978 -0.12386028 -0.00010778382 2.3509886e-38
0.036448091 -0.12386028 -0.00010778382 2.3509886e-38
0.038261201 -0.12386028 -0.00010778382 2.3509886e-38
0.040074315 -0.12386028 -0.00010778382 2.3509886e-38
0.042104606 -0.124891 -0.0040400214 2.341805e-38
0.044095319 -0.12567626 -0.0070357509 2.3142544e-38
0.045920577 -0.12567626 -0.0070357509 2.3142544e-38
0.047745835 -0.12567626 -0.0070357509 2.3142544e-38
0.049571093 -0.12567626 -0.0070357509 2.3142544e-38
0.051396351 -0.12567626 -0.0070357509 2.3234379e-38
0.053419728 -0.12646608 -0.010048885 2.3418047e-38
0.055250268 -0.12646608 -0.010048885 2.3509879e-38
0.057080809 -0.12646608 -0.010048885 2.350987e-38
0.059126552 -0.12726043 -0.013079423 2.3509863e-38
0.060962405 -0.12726043 -0.013079423 2.3507332e-38
0.062798262 -0.12726043 -0.013079423 2.3509118e-38
0.064858288 -0.12803085 -0.016018528 2.3509821e-38
0.066699296 -0.12803085 -0.016018528 2.3509804e-38
0.068540297 -0.12803085 -0.016018528 2.0368648e-38
0.070381306 -0.12803085 -0.016018528 1.8339607e-38
0.072560005 -0.12909363 -0.020073075 1.8341415e-38
0.074408121 -0.12909363 -0.020073075 1.9636863e-38
0.076514728 -0.12987436 -0.023051519 2.3509828e-38
0.078900017 -0.13144915 -0.02905931 2.3509841e-38
0.080763899 -0.13144915 -0.02905931 2.3509834e-38
0.082627766 -0.13144915 -0.02905931 2.332541e-38
0.084491648 -0.13144915 -0.02905931 2.3509413e-38
0.086355515 -0.13144915 -0.02905931 2.2956929e-38
0.088219397 -0.13144915 -0.02905931 2.3509734e-38
0.090083264 -0.13144915 -0.02905931 2.3508662e-38
0.091947146 -0.13144915 -0.02905931 2.3509039e-38
0.093811013 -0.13144915 -0.02905931 2.3042321e-38
0.095674895 -0.13144915 -0.02905931 2.0920757e-38
0.097967662 -0.13250901 -0.03310265 2.1103717e-38
0.099838637 -0.13250901 -0.03310265 2.3038758e-38
0.1020317 -0.13327946 -0.036041994 2.350407e-38
0.10390782 -0.13327946 -0.036041994 2.3507687e-38
0.10613105 -0.13408406 -0.039111514 2.3507709e-38
0.10847255 -0.13513394 -0.043116827 2.3508441e-38
0.11036106 -0.13513394 -0.043116827 2.3508082e-38
0.11260403 -0.13591899 -0.046111722 2.3509527e-38
0.1144978 -0.13591899 -0.046111722 2.3050349e-38
0.11639158 -0.13591899 -0.046111722 2.2590813e-38
0.11828535 -0.13591899 -0.046111722 2.2775202e-38
0.12017912 -0.13591899 -0.046111722 1.8902988e-38
0.1220729 -0.13591899 -0.046111722 1.4845657e-38
0.12358072 -0.13513394 -0.043116827 4.702696e-39
0.12546924 -0.13513394 -0.043116827 4.79417e-39
-0.12482073 -0.13965334 -0.053086895 1.1982889e-38
-0.12261421 -0.13885282 -0.050053257 1.2809042e-38
-0.12003855 -0.13702248 -0.043116827 1.298982e-38
-0.1177673 -0.13596557 -0.039111514 1.501523e-38
-0.11559787 -0.13515557 -0.036041994 1.5381124e-38
-0.11307899 -0.13331302 -0.02905931 1.6026482e-38
-0.1109431 -0.1325181 -0.026046891 1.5382548e-38
-0.10881928 -0.13172771 -0.023051519 1.6490332e-38
-0.10670745 -0.13094176 -0.020073075 1.7137499e-38
-0.10451455 -0.12987186 -0.016018528 1.8982856e-38
-0.10084874 -0.12409012 0.0058922581 1.9352729e-38
-0.098799445 -0.12329166 0.0089181475 1.8799201e-38
-0.097002156 -0.12329166 0.0089181475 1.842862e-38
-0.094970159 -0.12249784 0.011926394 1.851901e-38
-0.092723288 -0.12092416 0.017890077 1.9439153e-38
-0.090713896 -0.12011738 0.020947557 2.0174898e-38
-0.088716574 -0.11931543 0.023986679 2.0173791e-38
-0.086738326 -0.11854477 0.026907187 1.9712071e-38
-0.084972568 -0.11854477 0.026907187 2.0450338e-38
-0.082802542 -0.11696436 0.032896381 2.2388243e-38
-0.080845661 -0.11615516 0.03596298 2.0639054e-38
-0.078713112 -0.11457725 0.041942637 2.0088428e-38
-0.076786287 -0.1137826 0.044954162 1.9077196e-38
-0.075052179 -0.1137826 0.044954162 2.3505867e-38
-0.073198862 -0.11324702 0.046983819 2.3509146e-38
-0.071468316 -0.11324702 0.046983819 2.3509165e-38
-0.06973777 -0.11324702 0.046983819 2.3509527e-38
-0.068007223 -0.11324702 0.046983819 2.3509527e-38
-0.066276684 -0.11324702 0.046983819 2.3509527e-38
-0.064546138 -0.11324702 0.046983819 2.3509886e-38
-0.062815599 -0.11324702 0.046983819 2.3509886e-38
-0.061179355 -0.1137826 0.044954162 2.3509886e-38
-0.059445255 -0.1137826 0.044954162 2.3509886e-38
-0.057711147 -0.1137826 0.044954162 2.3509886e-38
-0.055977043 -0.1137826 0.044954162 2.3509883e-38
-0.054361742 -0.11457725 0.041942637 2.350988e-38
-0.052622359 -0.11457725 0.041942637 2.350988e-38
-0.050882977 -0.11457725 0.041942637 2.3509879e-38
-0.049143594 -0.11457725 0.041942637 2.3509879e-38
-0.047502488 -0.11537679 0.038912755 2.3509876e-38
-0.045848303 -0.11615516 0.03596298 2.3509876e-38
-0.044187151 -0.11696436 0.032896381 2.341804e-38
-0.042431906 -0.11696436 0.032896381 2.3142534e-38
-0.040676661 -0.11696436 0.032896381 2.2406048e-38
-0.038992085 -0.11775221 0.029910665 2.3418043e-38
-0.037231605 -0.11775221 0.029910665 2.3048542e-38
-0.035471126 -0.11775221 0.029910665 2.3231857e-38
-0.033710647 -0.11775221 0.029910665 2.3509524e-38
-0.031950168 -0.11775221 0.029910665 2.3047468e-38
-0.030189686 -0.11775221 0.029910665 2.3509886e-38
-0.028468702 -0.11854477 0.026907187 2.341805e-38
-0.026702955 -0.11854477 0.026907187 2.3234379e-38
-0.024937211 -0.11854477 0.026907187 2.3142544e-38
-0.023171466 -0.11854477 0.026907187 2.3234379e-38
-0.021423642 -0.11931543 0.023986679 2.341805e-38
-0.019666096 -0.12011738 0.020947557 2.3509527e-38
-0.0178899 -0.12011738 0.020947557 2.3509168e-38
-0.016113706 -0.12011738 0.020947557 2.3509527e-38
-0.01433751 -0.12011738 0.020947557 2.350988e-38
-0.012561316 -0.12011738 0.020947557 2.3509879e-38
-0.01078512 -0.12011738 0.020947557 2.350988e-38
-0.0089901621 -0.12092416 0.017890077 2.350988e-38
-0.0072086062 -0.12092416 0.017890077 2.350988e-38
-0.0054270504 -0.12092416 0.017890077 2.350988e-38
-0.0036454946 -0.12092416 0.017890077 2.350988e-38
-0.0018639378 -0.12092416 0.017890077 2.3509883e-38
-8.2382001e-05 -0.12092416 0.017890077 2.3509883e-38
0.001748696 -0.12170871 0.014916997 2.3509883e-38
0.0035905205 -0.12249784 0.011926394 2.3509886e-38
0.0053825341 -0.12249784 0.011926394 2.3509886e-38
0.0072404761 -0.12329166 0.0089181475 2.3509886e-38
0.0090377629 -0.12329166 0.0089181475 2.3509886e-38
0.010911979 -0.12409012 0.0058922581 2.3509886e-38
0.01271457 -0.12409012 0.0058922581 2.3509886e-38
0.014517162 -0.12409012 0.0058922581 2.3509886e-38
0.016319755 -0.12409012 0.0058922581 2.3509886e-38
0.018122345 -0.12409012 0.0058922581 2.3509886e-38
0.019924939 -0.12409012 0.0058922581 2.3509886e-38
0.021727532 -0.12409012 0.0058922581 2.3509886e-38
0.023640901 -0.12486555 0.0029536299 2.3509886e-38
0.025448643 -0.12486555 0.0029536299 2.3509886e-38
0.027256388 -0.12486555 0.0029536299 2.3509886e-38
0.029064134 -0.12486555 0.0029536299 2.3509886e-38
0.030871879 -0.12486555 0.0029536299 2.3509886e-38
0.032679621 -0.12486555 0.0029536299 2.3509886e-38
0.034634978 -0.1256734 -0.00010778382 2.3509886e-38
0.036448091 -0.1256734 -0.00010778382 2.3509886e-38
0.038261201 -0.1256734 -0.00010778382 2.3509886e-38
0.040074315 -0.1256734 -0.00010778382 2.3509886e-38
0.042104606 -0.126711 -0.0040400214 2.341805e-38
0.044095319 -0.1275015 -0.0070357509 2.3142544e-38
0.045920577 -0.1275015 -0.0070357509 2.2958873e-38
0.047745835 -0.1275015 -0.0070357509 2.3142544e-38
0.049571093 -0.1275015 -0.0070357509 2.3142544e-38
0.051396351 -0.1275015 -0.0070357509 2.3234379e-38
0.053419728 -0.1282966 -0.010048885 2.350988e-38
0.055250268 -0.1282966 -0.010048885 2.3509873e-38
0.057290699 -0.12909628 -0.013079423 2.3509863e-38
0.059126552 -0.12909628 -0.013079423 2.3509851e-38
0.060962405 -0.12909628 -0.013079423 2.3414758e-38
0.062798262 -0.12909628 -0.013079423 2.3508022e-38
0.064858288 -0.12987186 -0.016018528 2.3509092e-38
0.066699296 -0.12987186 -0.016018528 2.3503676e-38
0.068540297 -0.12987186 -0.016018528 1.7048535e-38
0.070381306 -0.12987186 -0.016018528 1.6309885e-38
0.072560005 -0.13094176 -0.020073075 2.0552335e-38
0.074408121 -0.13094176 -0.020073075 2.3138872e-38
0.076514728 -0.13172771 -0.023051519 2.3509831e-38
0.078633301 -0.1325181 -0.026046891 2.3509098e-38
0.080491893 -0.1325181 -0.026046891 2.3509813e-38
0.082627766 -0.13331302 -0.02905931 2.3416865e-38
0.084491648 -0.13331302 -0.02905931 2.3509401e-38
0.086355515 -0.13331302 -0.02905931 2.3508305e-38
0.088219397 -0.13331302 -0.02905931 2.3231358e-38
0.090083264 -0.13331302 -0.02905931 2.3045181e-38
0.091947146 -0.13331302 -0.02905931 2.2951565e-38
0.093811013 -0.13331302 -0.02905931 2.2212578e-38
0.096096702 -0.13437997 -0.03310265 2.082894e-38
0.097967662 -0.13437997 -0.03310265 2.128921e-38
0.099838637 -0.13437997 -0.03310265 2.3503719e-38
0.1020317 -0.13515557 -0.036041994 2.3508054e-38
0.10390782 -0.13515557 -0.036041994 2.3507709e-38
0.10613105 -0.13596557 -0.039111514 2.3506644e-38
0.10847255 -0.13702248 -0.043116827 2.3508809e-38
0.11036106 -0.13702248 -0.043116827 2.332478e-38
0.11260403 -0.13781275 -0.046111722 2.341805e-38
0.1144978 -0.13781275 -0.046111722 2.2867037e-38
0.11639158 -0.13781275 -0.046111722 2.2591531e-38
0.11828535 -0.13781275 -0.046111722 2.2591531e-38
0.11980367 -0.13702248 -0.043116827 1.8443082e-38
0.12169219 -0.13702248 -0.043116827 1.5030043e-38
0.12358072 -0.13702248 -0.043116827 5.1636685e-39
0.12546924 -0.13702248 -0.043116827 5.3476997e-39
-0.1245149 -0.14075352 -0.050053257 1.1429359e-38
-0.12261421 -0.14075352 -0.050053257 1.1794893e-38
-0.12003855 -0.13891099 -0.043116827 1.3174214e-38
-0.1177673 -0.13784705 -0.039111514 1.510779e-38
-0.11559787 -0.13703169 -0.036041994 1.4920508e-38
-0.11307899 -0.13517688 -0.02905931 1.5289279e-38
-0.1109431 -0.13437669 -0.026046891 1.5013763e-38
-0.10881928 -0.13358103 -0.023051519 1.5937511e-38
-0.10696595 -0.13358103 -0.023051519 1.676943e-38
-0.10451455 -0.13171287 -0.016018528 1.9630015e-38
-0.10192543 -0.12932678 -0.0070357509 1.9261963e-38
-0.098799445 -0.12508895 0.0089181475 2.0461235e-38
-0.096762173 -0.12428986 0.011926394 2.1197003e-38
-0.094736822 -0.12349547 0.014916997 2.0180692e-38
-0.092723288 -0.12270571 0.017890077 1.9071461e-38
-0.090713896 -0.12189357 0.020947557 1.8977447e-38
-0.088716574 -0.12108628 0.023986679 1.9805025e-38
-0.086738326 -0.1203105 0.026907187 2.0265259e-38
-0.084972568 -0.1203105 0.026907187 2.0265953e-38
-0.082802542 -0.11871959 0.032896381 2.1557405e-38
-0.080845661 -0.11790501 0.03596298 2.0084082e-38
-0.078713112 -0.11631663 0.041942637 2.1192975e-38
-0.076786287 -0.11551671 0.044954162 2.0551244e-38
-0.075052179 -0.11551671 0.044954162 2.3507665e-38
-0.073198862 -0.11497755 0.046983819 2.3508421e-38
-0.071468316 -0.11497755 0.046983819 2.3509524e-38
-0.06973777 -0.11497755 0.046983819 2.3509527e-38
-0.068007223 -0.11497755 0.046983819 2.3509527e-38
-0.066276684 -0.11497755 0.046983819 2.3509527e-38
-0.064546138 -0.11497755 0.046983819 2.3509527e-38
-0.062815599 -0.11497755 0.046983819 2.3509886e-38
-0.061179355 -0.11551671 0.044954162 2.3509886e-38
-0.059445255 -0.11551671 0.044954162 2.3509886e-38
-0.057711147 -0.11551671 0.044954162 2.3509883e-38
-0.055977043 -0.11551671 0.044954162 2.3509883e-38
-0.054242939 -0.11551671 0.044954162 2.350988e-38
-0.052622359 -0.11631663 0.041942637 2.3509879e-38
-0.050882977 -0.11631663 0.041942637 2.3509879e-38
-0.049143594 -0.11631663 0.041942637 2.3509876e-38
-0.047502488 -0.11712147 0.038912755 2.3509876e-38
-0.045757793 -0.11712147 0.038912755 2.3509876e-38
-0.044187151 -0.11871959 0.032896381 2.3509876e-38
-0.042431906 -0.11871959 0.032896381 2.3142168e-38
-0.040676661 -0.11871959 0.032896381 2.3418038e-38
-0.038921416 -0.11871959 0.032896381 2.3509876e-38
-0.037231605 -0.11951269 0.029910665 1.5948035e-38
-0.035471126 -0.11951269 0.029910665 1.6131706e-38
-0.033710647 -0.11951269 0.029910665 2.3509161e-38
-0.031950168 -0.11951269 0.029910665 2.3509161e-38
-0.030189686 -0.11951269 0.029910665 2.3508439e-38
-0.028468702 -0.1203105 0.026907187 2.3509879e-38
-0.026702955 -0.1203105 0.026907187 2.3509879e-38
-0.024937211 -0.1203105 0.026907187 2.350988e-38
-0.023171466 -0.1203105 0.026907187 2.350988e-38
-0.021423642 -0.12108628 0.023986679 2.3509521e-38
-0.019652775 -0.12108628 0.023986679 2.3509521e-38
-0.017881908 -0.12108628 0.023986679 2.3508804e-38
-0.016113706 -0.12189357 0.020947557 2.3508804e-38
-0.01433751 -0.12189357 0.020947557 2.350952e-38
-0.012561316 -0.12189357 0.020947557 2.3509876e-38
-0.01078512 -0.12189357 0.020947557 2.3509879e-38
-0.0089901621 -0.12270571 0.017890077 2.3509879e-38
-0.0072086062 -0.12270571 0.017890077 2.3509879e-38
-0.0054270504 -0.12270571 0.017890077 2.350988e-38
-0.0036454946 -0.12270571 0.017890077 2.350988e-38
-0.0018639378 -0.12270571 0.017890077 2.350988e-38
-8.2382001e-05 -0.12270571 0.017890077 2.3509883e-38
0.0017985087 -0.12428986 0.011926394 2.3509883e-38
0.0035905205 -0.12428986 0.011926394 2.3509886e-38
0.0054431893 -0.12508895 0.0089181475 2.3509886e-38
0.0072404761 -0.12508895 0.0089181475 2.3509886e-38
0.0090377629 -0.12508895 0.0089181475 2.3509886e-38
0.01083505 -0.12508895 0.0089181475 2.3509886e-38
0.012632336 -0.12508895 0.0089181475 2.3509886e-38
0.014517162 -0.12589271 0.0058922581 2.3509886e-38
0.016319755 -0.12589271 0.0058922581 2.3509886e-38
0.018122345 -0.12589271 0.0058922581 2.3509886e-38
0.019924939 -0.12589271 0.0058922581 2.3509886e-38
0.021727532 -0.12589271 0.0058922581 2.3509886e-38
0.023640901 -0.1266733 0.0029536299 2.3509886e-38
0.025448643 -0.1266733 0.0029536299 2.3509886e-38
0.027256388 -0.1266733 0.0029536299 2.3509886e-38
0.029064134 -0.1266733 0.0029536299 2.3509886e-38
0.030871879 -0.1266733 0.0029536299 2.3509886e-38
0.032679621 -0.1266733 0.0029536299 2.3509886e-38
0.034487367 -0.1266733 0.0029536299 2.3509886e-38
0.036448091 -0.12748651 -0.00010778382 2.3509886e-38
0.038261201 -0.12748651 -0.00010778382 2.3509883e-38
0.040074315 -0.12748651 -0.00010778382 2.3509883e-38
0.042104606 -0.12853102 -0.0040400214 2.3418045e-38
0.044095319 -0.12932678 -0.0070357509 2.3142534e-38
0.045920577 -0.12932678 -0.0070357509 2.2958863e-38
0.047745835 -0.12932678 -0.0070357509 2.3142538e-38
0.049571093 -0.12932678 -0.0070357509 2.3234376e-38
0.051589187 -0.13012715 -0.010048885 2.341805e-38
0.053419728 -0.13012715 -0.010048885 2.350988e-38
0.055250268 -0.13012715 -0.010048885 2.3509869e-38
0.057080809 -0.13012715 -0.010048885 2.3509853e-38
0.058911357 -0.13012715 -0.010048885 2.3507313e-38
0.060962405 -0.13093217 -0.013079423 2.3509818e-38
0.063017279 -0.13171287 -0.016018528 2.3508721e-38
0.064858288 -0.13171287 -0.016018528 2.0369741e-38
0.066699296 -0.13171287 -0.016018528 1.9354147e-38
0.068540297 -0.13171287 -0.016018528 1.7878298e-38
0.070381306 -0.13171287 -0.016018528 2.0826763e-38
0.072560005 -0.13278987 -0.020073075 2.3509809e-38
0.074408121 -0.13278987 -0.020073075 2.3509825e-38
0.076514728 -0.13358103 -0.023051519 2.3509825e-38
0.078633301 -0.13437669 -0.026046891 2.2770439e-38
0.080491893 -0.13437669 -0.026046891 2.350979e-38
0.082350485 -0.13437669 -0.026046891 2.350797e-38
0.084491648 -0.13517688 -0.02905931 2.3509759e-38
0.086355515 -0.13517688 -0.02905931 2.3508679e-38
0.088219397 -0.13517688 -0.02905931 2.2952991e-38
0.090083264 -0.13517688 -0.02905931 2.2030333e-38
0.091947146 -0.13517688 -0.02905931 2.1752684e-38
0.094225742 -0.13625093 -0.03310265 2.3411503e-38
0.096096702 -0.13625093 -0.03310265 2.3508755e-38
0.097967662 -0.13625093 -0.03310265 2.3507688e-38
0.099838637 -0.13625093 -0.03310265 2.3508779e-38
0.1020317 -0.13703169 -0.036041994 2.350879e-38
0.10390782 -0.13703169 -0.036041994 2.3508079e-38
0.10613105 -0.13784705 -0.039111514 2.3508451e-38
0.10847255 -0.13891099 -0.043116827 2.3509168e-38
0.11036106 -0.13891099 -0.043116827 2.2864526e-38
0.11224958 -0.13891099 -0.043116827 2.2958514e-38
0.1144978 -0.13970654 -0.046111722 2.2683366e-38
0.11602663 -0.13891099 -0.043116827 2.2775202e-38
0.11791515 -0.13891099 -0.043116827 2.2683362e-38
0.11980367 -0.13891099 -0.043116827 1.7613316e-38
0.12169219 -0.13891099 -0.043116827 1.5767244e-38
0.12358072 -0.13891099 -0.043116827 6.2703706e-39
0.12546924 -0.13891099 -0.043116827 6.3614873e-39
-0.1245149 -0.1426542 -0.050053257 1.0876188e-38
-0.12192706 -0.14079951 -0.043116827 1.1518669e-38
-0.11964879 -0.13972856 -0.039111514 1.2529207e-38
-0.11747398 -0.13890781 -0.036041994 1.4186196e-38
-0.11532214 -0.13812189 -0.03310265 1.4737195e-38
-0.11307899 -0.13704078 -0.02905931 1.6027561e-38
-0.1109431 -0.13623528 -0.026046891 1.5107032e-38
-0.10881928 -0.13543437 -0.023051519 1.5476885e-38
-0.10696595 -0.13543437 -0.023051519 1.6032572e-38
-0.10426461 -0.13276802 -0.013079423 1.8432177e-38
-0.10192543 -0.13115202 -0.0070357509 1.8158117e-38
-0.098799445 -0.12688623 0.0089181475 1.9080441e-38
-0.096762173 -0.12608187 0.011926394 1.9816579e-38
-0.094736822 -0.12528224 0.014916997 2.0275046e-38
-0.092723288 -0.1244873 0.017890077 2.0271809e-38
-0.090713896 -0.12366976 0.020947557 1.9163292e-38
-0.088716574 -0.12285714 0.023986679 1.8976e-38
-0.086738326 -0.12207626 0.026907187 1.998905e-38
-0.084764563 -0.12127317 0.029910665 1.9989025e-38
-0.082802542 -0.12047486 0.032896381 2.0450355e-38
-0.080452494 -0.11805601 0.041942637 1.9714952e-38
-0.078713112 -0.11805601 0.041942637 1.9902964e-38
-0.076786287 -0.11725079 0.044954162 1.9353426e-38
-0.075052179 -0.11725079 0.044954162 2.3508744e-38
-0.073198862 -0.11670811 0.046983819 2.3509499e-38
-0.071468316 -0.11670811 0.046983819 2.3509523e-38
-0.06973777 -0.11670811 0.046983819 2.3509527e-38
-0.068007223 -0.11670811 0.046983819 2.3509527e-38
-0.066276684 -0.11670811 0.046983819 2.3509527e-38
-0.064546138 -0.11670811 0.046983819 2.3509527e-38
-0.062815599 -0.11670811 0.046983819 2.3509886e-38
-0.061179355 -0.11725079 0.044954162 2.3509886e-38
-0.059445255 -0.11725079 0.044954162 2.3509886e-38
-0.057711147 -0.11725079 0.044954162 2.3509883e-38
-0.055977043 -0.11725079 0.044954162 2.2956709e-38
-0.054242939 -0.11725079 0.044954162 2.3325847e-38
-0.052622359 -0.11805601 0.041942637 2.3509879e-38
-0.050882977 -0.11805601 0.041942637 2.323365e-38
-0.049143594 -0.11805601 0.041942637 2.3509876e-38
-0.047404207 -0.11805601 0.041942637 2.3509876e-38
-0.045757793 -0.11886616 0.038912755 2.3509876e-38
-0.044187151 -0.12047486 0.032896381 2.3326199e-38
-0.042431906 -0.12047486 0.032896381 2.3325478e-38
-0.040676661 -0.12047486 0.032896381 2.350987e-38
-0.038921416 -0.12047486 0.032896381 2.3138568e-38
-0.037231605 -0.12127317 0.029910665 1.6407568e-38
-0.035471126 -0.12127317 0.029910665 1.7696868e-38
-0.033710647 -0.12127317 0.029910665 2.3507353e-38
-0.031950168 -0.12127317 0.029910665 2.3508434e-38
-0.030234449 -0.12207626 0.026907187 2.3508793e-38
-0.028468702 -0.12207626 0.026907187 2.3509511e-38
-0.026736241 -0.12285714 0.023986679 2.350843e-38
-0.024937211 -0.12207626 0.026907187 2.3509873e-38
-0.023171466 -0.12207626 0.026907187 2.3509873e-38
-0.021423642 -0.12285714 0.023986679 2.3322243e-38
-0.019652775 -0.12285714 0.023986679 2.3508797e-38
-0.017881908 -0.12285714 0.023986679 2.3507718e-38
-0.01611104 -0.12285714 0.023986679 2.3507718e-38
-0.01433751 -0.12366976 0.020947557 2.3509517e-38
-0.012561316 -0.12366976 0.020947557 2.2863423e-38
-0.01078512 -0.12366976 0.020947557 2.3509876e-38
-0.0089901621 -0.1244873 0.017890077 2.34166e-38
-0.0072086062 -0.1244873 0.017890077 2.3324404e-38
-0.0054270504 -0.1244873 0.017890077 2.3509879e-38
-0.0036454946 -0.1244873 0.017890077 2.2310975e-38
-0.0018639378 -0.1244873 0.017890077 2.3509879e-38
-3.8073398e-05 -0.12528224 0.014916997 2.350988e-38
0.0017985087 -0.12608187 0.011926394 2.3509883e-38
0.0035905205 -0.12608187 0.011926394 2.3509886e-38
0.0054431893 -0.12688623 0.0089181475 2.3509886e-38
0.0072404761 -0.12688623 0.0089181475 2.3509886e-38
0.0090377629 -0.12688623 0.0089181475 2.3509886e-38
0.01083505 -0.12688623 0.0089181475 2.3509886e-38
0.012632336 -0.12688623 0.0089181475 2.3509886e-38
0.014429623 -0.12688623 0.0089181475 2.3509886e-38
0.016319755 -0.12769531 0.0058922581 2.3509886e-38
0.018122345 -0.12769531 0.0058922581 2.3509886e-38
0.019924939 -0.12769531 0.0058922581 2.3509886e-38
0.021727532 -0.12769531 0.0058922581 2.3509886e-38
0.023640901 -0.12848105 0.0029536299 2.3509886e-38
0.025448643 -0.12848105 0.0029536299 2.3509886e-38
0.027256388 -0.12848105 0.0029536299 2.3509886e-38
0.029064134 -0.12848105 0.0029536299 2.3417687e-38
0.030871879 -0.12848105 0.0029536299 2.3325492e-38
0.032679621 -0.12848105 0.0029536299 2.3509883e-38
0.034487367 -0.12848105 0.0029536299 2.3509883e-38
0.036295112 -0.12848105 0.0029536299 2.3509883e-38
0.038102854 -0.12848105 0.0029536299 2.350988e-38
0.040074315 -0.1292996 -0.00010778382 2.350988e-38
0.042104606 -0.13035102 -0.0040400214 2.341804e-38
0.043924611 -0.13035102 -0.0040400214 2.3234362e-38
0.045920577 -0.13115202 -0.0070357509 2.3142525e-38
0.047745835 -0.13115202 -0.0070357509 2.3418045e-38
0.049571093 -0.13115202 -0.0070357509 2.3509886e-38
0.051589187 -0.13195769 -0.010048885 2.3140387e-38
0.053419728 -0.13195769 -0.010048885 2.3509165e-38
0.055250268 -0.13195769 -0.010048885 2.3509507e-38
0.057080809 -0.13195769 -0.010048885 2.3507324e-38
0.058911357 -0.13195769 -0.010048885 2.3509094e-38
0.060962405 -0.13276802 -0.013079423 2.3509429e-38
0.063017279 -0.13355388 -0.016018528 2.3509416e-38
0.064858288 -0.13355388 -0.016018528 1.7788241e-38
0.066699296 -0.13355388 -0.016018528 1.373056e-38
0.068540297 -0.13355388 -0.016018528 2.0551969e-38
0.070381306 -0.13355388 -0.016018528 2.3509806e-38
0.072560005 -0.134638 -0.020073075 2.3506934e-38
0.074408121 -0.134638 -0.020073075 2.3509099e-38
0.076514728 -0.13543437 -0.023051519 2.3507651e-38
0.078633301 -0.13623528 -0.026046891 2.3507627e-38
0.080491893 -0.13623528 -0.026046891 2.3509053e-38
0.082350485 -0.13623528 -0.026046891 2.3509767e-38
0.084491648 -0.13704078 -0.02905931 2.3508689e-38
0.086355515 -0.13704078 -0.02905931 2.3506544e-38
0.088219397 -0.13704078 -0.02905931 2.3505118e-38
0.090083264 -0.13704078 -0.02905931 2.0831102e-38
0.091947146 -0.13704078 -0.02905931 2.2121855e-38
0.094225742 -0.13812189 -0.03310265 2.3505884e-38
0.096096702 -0.13812189 -0.03310265 2.3509497e-38
0.097967662 -0.13812189 -0.03310265 2.3509863e-38
0.099838637 -0.13812189 -0.03310265 2.350987e-38
0.1020317 -0.13890781 -0.036041994 2.3509876e-38
0.10390782 -0.13890781 -0.036041994 2.3509883e-38
0.10613105 -0.13972856 -0.039111514 2.3509168e-38
0.10847255 -0.14079951 -0.043116827 2.3416974e-38
0.11036106 -0.14079951 -0.043116827 2.3234379e-38
0.11224958 -0.14079951 -0.043116827 2.2405699e-38
0.1144978 -0.1416003 -0.046111722 2.2683361e-38
0.11602663 -0.14079951 -0.043116827 2.2683358e-38
0.11791515 -0.14079951 -0.043116827 2.2867027e-38
0.11980367 -0.14079951 -0.043116827 1.8719655e-38
0.12169219 -0.14079951 -0.043116827 1.6227852e-38
0.12266897 -0.13890781 -0.036041994 6.5465918e-39
0.12454509 -0.13890781 -0.036041994 7.2834407e-39
0.12642121 -0.13890781 -0.036041994 8.0210058e-39
-0.12601128 -0.14349405 -0.046111722 1.0418455e-38
-0.12411753 -0.14349405 -0.046111722 1.0784354e-38
-0.12192706 -0.14268802 -0.043116827 1.1519748e-38
-0.11964879 -0.14161004 -0.039111514 1.2529929e-38
-0.11719311 -0.13999285 -0.03310265 1.4370588e-38
-0.11494286 -0.13890465 -0.02905931 1.4737914e-38
-0.11307899 -0.13890465 -0.02905931 1.6027561e-38
-0.1109431 -0.13809387 -0.026046891 1.529178e-38
-0.10881928 -0.13728772 -0.023051519 1.5753826e-38
-0.10696595 -0.13728772 -0.023051519 1.5295359e-38
-0.10426461 -0.13460387 -0.013079423 1.6588613e-38
-0.10192543 -0.13297729 -0.0070357509 1.6591137e-38
-0.099046148 -0.1294979 0.0058922581 1.7606016e-38
-0.097243555 -0.1294979 0.0058922581 1.9079365e-38
-0.094736822 -0.12706901 0.014916997 2.0183922e-38
-0.092723288 -0.12626885 0.017890077 2.0365802e-38
-0.090713896 -0.12544595 0.020947557 1.8980344e-38
-0.088716574 -0.12462802 0.023986679 1.8516112e-38
-0.086738326 -0.12384202 0.026907187 1.9528446e-38
-0.084764563 -0.12303366 0.029910665 1.9897206e-38
-0.082595535 -0.12140475 0.03596298 2.0266341e-38
-0.080452494 -0.1197954 0.041942637 1.9438739e-38
-0.078520395 -0.11898489 0.044954162 1.9626029e-38
-0.076786287 -0.11898489 0.044954162 1.8985009e-38
-0.075052179 -0.11898489 0.044954162 2.3508748e-38
-0.073198862 -0.11843865 0.046983819 2.350986e-38
-0.071468316 -0.11843865 0.046983819 2.3418045e-38
-0.06973777 -0.11843865 0.046983819 2.3509886e-38
-0.068007223 -0.11843865 0.046983819 2.3509527e-38
-0.066276684 -0.11843865 0.046983819 2.3509527e-38
-0.064546138 -0.11843865 0.046983819 2.3509886e-38
-0.062815599 -0.11843865 0.046983819 2.3509886e-38
-0.061179355 -0.11898489 0.044954162 2.3509886e-38
-0.059445255 -0.11898489 0.044954162 2.3509886e-38
-0.057711147 -0.11898489 0.044954162 2.3509886e-38
-0.055977043 -0.11898489 0.044954162 2.3509883e-38
-0.054242939 -0.11898489 0.044954162 2.350988e-38
-0.052622359 -0.1197954 0.041942637 2.350988e-38
-0.050882977 -0.1197954 0.041942637 2.3141455e-38
-0.049143594 -0.1197954 0.041942637 2.1574129e-38
-0.047404207 -0.1197954 0.041942637 2.2680474e-38
-0.045757793 -0.12061088 0.038912755 2.3049256e-38
-0.044187151 -0.1222301 0.032896381 1.8162525e-38
-0.042431906 -0.1222301 0.032896381 1.7700824e-38
-0.040676661 -0.1222301 0.032896381 1.7054734e-38
-0.038921416 -0.1222301 0.032896381 1.8251119e-38
-0.037166171 -0.1222301 0.032896381 1.8434788e-38
-0.035410926 -0.1222301 0.032896381 2.0922272e-38
-0.033655681 -0.1222301 0.032896381 2.3506626e-38
-0.031950168 -0.12303366 0.029910665 2.3508067e-38
-0.030189686 -0.12303366 0.029910665 2.3508787e-38
-0.028468702 -0.12384202 0.026907187 2.3506625e-38
-0.026702955 -0.12384202 0.026907187 2.3507704e-38
-0.024937211 -0.12384202 0.026907187 2.2677226e-38
-0.023171466 -0.12384202 0.026907187 2.3509149e-38
-0.021405719 -0.12384202 0.026907187 2.3509149e-38
-0.019639973 -0.12384202 0.026907187 2.3508431e-38
-0.017874226 -0.12384202 0.026907187 2.3506632e-38
-0.01611104 -0.12462802 0.023986679 2.3508075e-38
-0.01433751 -0.12544595 0.020947557 2.1662719e-38
-0.012561316 -0.12544595 0.020947557 1.3274715e-38
-0.01078512 -0.12544595 0.020947557 2.0373778e-38
-0.0089901621 -0.12626885 0.017890077 2.2771228e-38
-0.0072086062 -0.12626885 0.017890077 1.5303382e-38
-0.0053983796 -0.12706901 0.014916997 1.3090689e-38
-0.0036454946 -0.12626885 0.017890077 1.6317536e-38
-0.0018639378 -0.12626885 0.017890077 2.3509879e-38
-3.8073398e-05 -0.12706901 0.014916997 2.350988e-38
0.0017985087 -0.12787388 0.011926394 2.350988e-38
0.0035905205 -0.12787388 0.011926394 2.3509883e-38
0.0054431893 -0.12868352 0.0089181475 2.3509886e-38
0.0072404761 -0.12868352 0.0089181475 2.3509886e-38
0.0090377629 -0.12868352 0.0089181475 2.3509886e-38
0.01083505 -0.12868352 0.0089181475 2.3509886e-38
0.012632336 -0.12868352 0.0089181475 2.3509886e-38
0.014429623 -0.12868352 0.0089181475 2.3509886e-38
0.016319755 -0.1294979 0.0058922581 2.3509886e-38
0.018122345 -0.1294979 0.0058922581 2.3509886e-38
0.019924939 -0.1294979 0.0058922581 2.3509886e-38
0.021727532 -0.1294979 0.0058922581 2.3509886e-38
0.023640901 -0.13028879 0.0029536299 2.3509886e-38
0.025448643 -0.13028879 0.0029536299 2.3509886e-38
0.027256388 -0.13028879 0.0029536299 2.3509886e-38
0.029064134 -0.13028879 0.0029536299 2.3509883e-38
0.030871879 -0.13028879 0.0029536299 2.3509883e-38
0.032679621 -0.13028879 0.0029536299 2.3325492e-38
0.034487367 -0.13028879 0.0029536299 2.3418043e-38
0.036295112 -0.13028879 0.0029536299 2.3418043e-38
0.038102854 -0.13028879 0.0029536299 2.3141456e-38
0.040074315 -0.13111271 -0.00010778382 2.3141456e-38
0.042104606 -0.13217102 -0.0040400214 2.3418039e-38
0.043924611 -0.13217102 -0.0040400214 2.3509866e-38
0.045744617 -0.13217102 -0.0040400214 2.2681182e-38
0.047745835 -0.13297729 -0.0070357509 2.3232932e-38
0.049571093 -0.13297729 -0.0070357509 2.3509527e-38
0.051589187 -0.13378824 -0.010048885 2.3508809e-38
0.053419728 -0.13378824 -0.010048885 2.3137499e-38
0.055250268 -0.13378824 -0.010048885 2.3506979e-38
0.057080809 -0.13378824 -0.010048885 2.3509834e-38
0.058911357 -0.13378824 -0.010048885 2.3507278e-38
0.060741898 -0.13378824 -0.010048885 1.7328702e-38
0.063017279 -0.13539489 -0.016018528 1.6775514e-38
0.064858288 -0.13539489 -0.016018528 2.0739203e-38
0.066699296 -0.13539489 -0.016018528 2.3227778e-38
0.068540297 -0.13539489 -0.016018528 2.3509425e-38
0.070381306 -0.13539489 -0.016018528 2.3509804e-38
0.072560005 -0.13648613 -0.020073075 2.3509453e-38
0.074408121 -0.13648613 -0.020073075 2.3507296e-38
0.076514728 -0.13728772 -0.023051519 2.3507648e-38
0.078633301 -0.13809387 -0.026046891 2.3508344e-38
0.080491893 -0.13809387 -0.026046891 2.3414695e-38
0.082350485 -0.13809387 -0.026046891 2.2307991e-38
0.084209077 -0.13809387 -0.026046891 2.1662272e-38
0.086067669 -0.13809387 -0.026046891 2.2398782e-38
0.088219397 -0.13890465 -0.02905931 2.3320754e-38
0.090083264 -0.13890465 -0.02905931 2.350696e-38
0.091947146 -0.13890465 -0.02905931 2.350913e-38
0.093811013 -0.13890465 -0.02905931 2.3509504e-38
0.095674895 -0.13890465 -0.02905931 2.350987e-38
0.097967662 -0.13999285 -0.03310265 2.350952e-38
0.099838637 -0.13999285 -0.03310265 2.3049624e-38
0.1017096 -0.13999285 -0.03310265 2.2958507e-38
0.10390782 -0.14078392 -0.036041994 2.3142544e-38
0.10578393 -0.14078392 -0.036041994 2.3417691e-38
0.10801256 -0.14161004 -0.039111514 2.3417691e-38
0.11036106 -0.14268802 -0.043116827 2.3234379e-38
0.11224958 -0.14268802 -0.043116827 2.23135e-38
0.1144978 -0.14349405 -0.046111722 2.2407846e-38
0.11602663 -0.14268802 -0.043116827 2.2131253e-38
0.11791515 -0.14268802 -0.043116827 2.2223084e-38
0.11980367 -0.14268802 -0.043116827 1.8165035e-38
0.12118305 -0.14161004 -0.039111514 1.604274e-38
0.12266897 -0.14078392 -0.036041994 5.6242739e-39
0.12454509 -0.14078392 -0.036041994 5.9919789e-39
-0.12717479 -0.14349155 -0.039111514 1.0695406e-38
-0.12529328 -0.14349155 -0.039111514 1.0418455e-38
-0.12381559 -0.14457656 -0.043116827 1.0877628e-38
-0.12192706 -0.14457656 -0.043116827 1.1981445e-38
-0.11964879 -0.14349155 -0.039111514 1.2530649e-38
-0.11719311 -0.14186381 -0.03310265 1.4463506e-38
-0.11494286 -0.14076851 -0.02905931 1.4553523e-38
-0.11307899 -0.14076851 -0.02905931 1.5382548e-38
-0.1109431 -0.13995247 -0.026046891 1.5107386e-38
-0.10881928 -0.13914107 -0.023051519 1.6030407e-38
-0.10696595 -0.13914107 -0.023051519 1.5294992e-38
-0.10426461 -0.13643973 -0.013079423 1.5666286e-38
-0.10192543 -0.13480256 -0.0070357509 1.6036154e-38
-0.099046148 -0.13130049 0.0058922581 1.668297e-38
-0.097243555 -0.13130049 0.0058922581 1.8156319e-38
-0.094970159 -0.1296659 0.011926394 1.9538904e-38
-0.092723288 -0.1280504 0.017890077 1.9904821e-38
-0.090713896 -0.12722217 0.020947557 1.8335335e-38
-0.088716574 -0.12639888 0.023986679 1.7871827e-38
-0.086738326 -0.12560774 0.026907187 1.9160754e-38
-0.084764563 -0.12479414 0.029910665 1.9805025e-38
-0.082595535 -0.12315463 0.03596298 2.0173802e-38
-0.080452494 -0.12153481 0.041942637 1.9253646e-38
-0.078520395 -0.120719 0.044954162 1.925726e-38
-0.076786287 -0.120719 0.044954162 1.8616593e-38
-0.075052179 -0.120719 0.044954162 2.350839e-38
-0.073198862 -0.12016918 0.046983819 2.3509863e-38
-0.071468316 -0.12016918 0.046983819 2.3234374e-38
-0.06973777 -0.12016918 0.046983819 2.341805e-38
-0.068007223 -0.12016918 0.046983819 2.3509886e-38
-0.066276684 -0.12016918 0.046983819 2.3509886e-38
-0.064647563 -0.120719 0.044954162 2.3509886e-38
-0.062913455 -0.120719 0.044954162 2.3509886e-38
-0.061179355 -0.120719 0.044954162 2.3509886e-38
-0.059445255 -0.120719 0.044954162 2.3509886e-38
-0.057711147 -0.120719 0.044954162 2.3509886e-38
-0.055977043 -0.120719 0.044954162 2.3509883e-38
-0.054242939 -0.120719 0.044954162 2.3233652e-38
-0.052622359 -0.12153481 0.041942637 2.350988e-38
-0.050882977 -0.12153481 0.041942637 2.3418042e-38
-0.049143594 -0.12153481 0.041942637 1.9084847e-38
-0.047404207 -0.12153481 0.041942637 2.0006803e-38
-0.045757793 -0.12235557 0.038912755 2.3418042e-38
-0.044187151 -0.12398534 0.032896381 1.9361071e-38
-0.042431906 -0.12398534 0.032896381 1.4934236e-38
-0.040676661 -0.12398534 0.032896381 1.7330601e-38
-0.038921416 -0.12398534 0.032896381 1.8711374e-38
-0.037166171 -0.12398534 0.032896381 1.8895047e-38
-0.035410926 -0.12398534 0.032896381 2.1751669e-38
-0.033655681 -0.12398534 0.032896381 2.3508425e-38
-0.031950168 -0.12479414 0.029910665 2.3508425e-38
-0.030189686 -0.12479414 0.029910665 2.313532e-38
-0.028468702 -0.12560774 0.026907187 2.3509142e-38
-0.026702955 -0.12560774 0.026907187 1.7881965e-38
-0.024937211 -0.12560774 0.026907187 1.6683422e-38
-0.023171466 -0.12560774 0.026907187 2.350554e-38
-0.021405719 -0.12560774 0.026907187 2.3508783e-38
-0.019639973 -0.12560774 0.026907187 2.3042044e-38
-0.017874226 -0.12560774 0.026907187 2.1749866e-38
-0.01611104 -0.12639888 0.023986679 2.2027893e-38
-0.014340175 -0.12639888 0.023986679 2.092479e-38
-0.012561316 -0.12722217 0.020947557 1.7054014e-38
-0.01078512 -0.12722217 0.020947557 2.1202817e-38
-0.0089901621 -0.1280504 0.017890077 1.548741e-38
-0.0072086062 -0.1280504 0.017890077 1.0140063e-38
-0.0053983796 -0.12885578 0.014916997 1.2353121e-38
-0.0036116112 -0.12885578 0.014916997 1.539558e-38
-0.0018248418 -0.12885578 0.014916997 2.3509158e-38
-3.8073398e-05 -0.12885578 0.014916997 2.350988e-38
0.0017985087 -0.1296659 0.011926394 2.350988e-38
0.0035905205 -0.1296659 0.011926394 2.3509883e-38
0.0054431893 -0.13048081 0.0089181475 2.3509886e-38
0.0072404761 -0.13048081 0.0089181475 2.3509886e-38
0.0090377629 -0.13048081 0.0089181475 2.3509886e-38
0.01083505 -0.13048081 0.0089181475 2.341805e-38
0.012632336 -0.13048081 0.0089181475 2.341805e-38
0.014517162 -0.13130049 0.0058922581 2.3509527e-38
0.016319755 -0.13130049 0.0058922581 2.3509527e-38
0.018122345 -0.13130049 0.0058922581 2.3509886e-38
0.019924939 -0.13130049 0.0058922581 2.3509886e-38
0.021727532 -0.13130049 0.0058922581 2.3509886e-38
0.023640901 -0.13209651 0.0029536299 2.3509886e-38
0.025448643 -0.13209651 0.0029536299 2.3509886e-38
0.027256388 -0.13209651 0.0029536299 2.3509886e-38
0.029064134 -0.13209651 0.0029536299 2.3509883e-38
0.030871879 -0.13209651 0.0029536299 2.3509883e-38
0.032821868 -0.13292582 -0.00010778382 2.3233652e-38
0.034634978 -0.13292582 -0.00010778382 2.3418043e-38
0.036448091 -0.13292582 -0.00010778382 2.350988e-38
0.038261201 -0.13292582 -0.00010778382 2.3509879e-38
0.040074315 -0.13292582 -0.00010778382 2.3509879e-38
0.041887429 -0.13292582 -0.00010778382 2.3509876e-38
0.043924611 -0.13399105 -0.0040400214 2.3509867e-38
0.045744617 -0.13399105 -0.0040400214 2.350987e-38
0.047564622 -0.13399105 -0.0040400214 2.3508801e-38
0.049571093 -0.13480256 -0.0070357509 2.3507006e-38
0.051589187 -0.13561879 -0.010048885 2.3508085e-38
0.053419728 -0.13561879 -0.010048885 2.3508432e-38
0.055250268 -0.13561879 -0.010048885 2.3506968e-38
0.057080809 -0.13561879 -0.010048885 2.3507656e-38
0.058911357 -0.13561879 -0.010048885 2.1477156e-38
0.060741898 -0.13561879 -0.010048885 1.6591123e-38
0.063017279 -0.13723589 -0.016018528 1.4932307e-38
0.064858288 -0.13723589 -0.016018528 1.9726479e-38
0.066699296 -0.13723589 -0.016018528 2.332212e-38
0.068540297 -0.13723589 -0.016018528 2.350689e-38
0.070381306 -0.13723589 -0.016018528 2.3507994e-38
0.072560005 -0.13833423 -0.020073075 2.3507283e-38
0.074408121 -0.13833423 -0.020073075 2.3411855e-38
0.076256238 -0.13833423 -0.020073075 2.3505843e-38
0.078368075 -0.13914107 -0.023051519 2.3507265e-38
0.080221407 -0.13914107 -0.023051519 2.3413988e-38
0.082350485 -0.13995247 -0.026046891 2.2583878e-38
0.084209077 -0.13995247 -0.026046891 2.2214755e-38
0.086067669 -0.13995247 -0.026046891 2.3228569e-38
0.088219397 -0.14076851 -0.02905931 2.3509132e-38
0.090083264 -0.14076851 -0.02905931 2.3509859e-38
0.091947146 -0.14076851 -0.02905931 2.3509869e-38
0.093811013 -0.14076851 -0.02905931 2.3509517e-38
0.095674895 -0.14076851 -0.02905931 2.341769e-38
0.097967662 -0.14186381 -0.03310265 2.2957796e-38
0.099838637 -0.14186381 -0.03310265 2.2683007e-38
0.1017096 -0.14186381 -0.03310265 2.27752e-38
0.10390782 -0.14266007 -0.036041994 2.2958873e-38
0.10578393 -0.14266007 -0.036041994 2.341805e-38
0.10766005 -0.14266007 -0.036041994 2.3325856e-38
0.10953616 -0.14266007 -0.036041994 2.3234379e-38
0.11177555 -0.14349155 -0.039111514 2.2498243e-38
0.1141381 -0.14457656 -0.043116827 2.2683347e-38
0.11602663 -0.14457656 -0.043116827 2.2407832e-38
0.11791515 -0.14457656 -0.043116827 2.2682977e-38
0.11980367 -0.14457656 -0.043116827 1.862529e-38
0.12118305 -0.14349155 -0.039111514 1.622569e-38
0.12306454 -0.14349155 -0.039111514 4.7005198e-39
0.12494605 -0.14349155 -0.039111514 4.7916378e-39
0.12682754 -0.14349155 -0.039111514 6.5433548e-39
-0.12685457 -0.14453618 -0.036041994 8.7592981e-39
-0.12497845 -0.14453618 -0.036041994 8.8518483e-39
-0.12381559 -0.14646508 -0.043116827 9.6798027e-39
-0.12192706 -0.14646508 -0.043116827 1.0967293e-38
-0.11964879 -0.14537306 -0.039111514 1.2346259e-38
-0.11719311 -0.14373477 -0.03310265 1.4371311e-38
-0.11494286 -0.14263238 -0.02905931 1.4184743e-38
-0.11307899 -0.14263238 -0.02905931 1.4552431e-38
-0.1109431 -0.14181106 -0.026046891 1.4462017e-38
-0.10881928 -0.14099441 -0.023051519 1.6215155e-38
-0.10670745 -0.14018236 -0.020073075 1.5848519e-38
-0.10426461 -0.13827558 -0.013079423 1.6218017e-38
-0.10167594 -0.13581105 -0.0040400214 1.6587523e-38
-0.099046148 -0.13310309 0.0058922581 1.6771926e-38
-0.097243555 -0.13310309 0.0058922581 1.7325473e-38
-0.094970159 -0.13145791 0.011926394 1.8431472e-38
-0.092723288 -0.12983195 0.017890077 1.870663e-38
-0.090713896 -0.12899835 0.020947557 1.7322256e-38
-0.088716574 -0.12816976 0.023986679 1.731973e-38
-0.086738326 -0.1273735 0.026907187 1.9161833e-38
-0.084557779 -0.12574057 0.032896381 1.9436607e-38
-0.082595535 -0.1249045 0.03596298 2.0081612e-38
-0.080452494 -0.12327419 0.041942637 1.9069263e-38
-0.078520395 -0.12245311 0.044954162 1.9072517e-38
-0.076786287 -0.12245311 0.044954162 1.8524047e-38
-0.075052179 -0.12245311 0.044954162 2.3508395e-38
-0.073198862 -0.12189974 0.046983819 2.3509863e-38
-0.071468316 -0.12189974 0.046983819 2.3142537e-38
-0.06973777 -0.12189974 0.046983819 2.3418047e-38
-0.068007223 -0.12189974 0.046983819 2.3509886e-38
-0.066276684 -0.12189974 0.046983819 2.3509886e-38
-0.064647563 -0.12245311 0.044954162 2.3509886e-38
-0.062913455 -0.12245311 0.044954162 2.3509886e-38
-0.061179355 -0.12245311 0.044954162 2.3509886e-38
-0.059445255 -0.12245311 0.044954162 2.3509886e-38
-0.057711147 -0.12245311 0.044954162 2.3509886e-38
-0.055977043 -0.12245311 0.044954162 2.31411e-38
-0.054242939 -0.12245311 0.044954162 2.3509883e-38
-0.052508835 -0.12245311 0.044954162 2.350988e-38
-0.050882977 -0.12327419 0.041942637 2.3233652e-38
-0.049143594 -0.12327419 0.041942637 1.7886305e-38
-0.047502488 -0.12410025 0.038912755 1.5212631e-38
-0.045757793 -0.12410025 0.038912755 1.6964349e-38
-0.044187151 -0.12574057 0.032896381 1.9913889e-38
-0.042431906 -0.12574057 0.032896381 2.3509873e-38
-0.040676661 -0.12574057 0.032896381 2.3509153e-38
-0.038921416 -0.12574057 0.032896381 1.9264192e-38
-0.037166171 -0.12574057 0.032896381 1.6681273e-38
-0.035410926 -0.12574057 0.032896381 1.7694343e-38
-0.033655681 -0.12574057 0.032896381 1.6772742e-38
-0.031950168 -0.12655462 0.029910665 1.6864938e-38
-0.030189686 -0.12655462 0.029910665 1.8986155e-38
-0.028468702 -0.1273735 0.026907187 1.6128807e-38
-0.026702955 -0.1273735 0.026907187 1.2072919e-38
-0.024937211 -0.1273735 0.026907187 1.5760744e-38
-0.023171466 -0.1273735 0.026907187 1.9909548e-38
-0.021405719 -0.1273735 0.026907187 1.5574914e-38
-0.019639973 -0.1273735 0.026907187 9.9495414e-39
-0.017874226 -0.1273735 0.026907187 1.2252634e-38
-0.016108481 -0.1273735 0.026907187 2.1104857e-38
-0.014340175 -0.12816976 0.023986679 1.9541132e-38
-0.012569308 -0.12816976 0.023986679 1.8990119e-38
-0.01078512 -0.12899835 0.020947557 2.0188663e-38
-0.0089901621 -0.12983195 0.017890077 1.4103754e-38
-0.0072086062 -0.12983195 0.017890077 1.3827887e-38
-0.0054270504 -0.12983195 0.017890077 1.6317171e-38
-0.0036116112 -0.13064255 0.014916997 1.7423881e-38
-0.0018248418 -0.13064255 0.014916997 2.3509876e-38
-3.8073398e-05 -0.13064255 0.014916997 2.3509879e-38
0.0017985087 -0.13145791 0.011926394 2.350988e-38
0.0035905205 -0.13145791 0.011926394 2.3509883e-38
0.0054431893 -0.1322781 0.0089181475 2.3509883e-38
0.0072404761 -0.1322781 0.0089181475 2.3509886e-38
0.0090377629 -0.1322781 0.0089181475 2.3509886e-38
0.01083505 -0.1322781 0.0089181475 2.341805e-38
0.012632336 -0.1322781 0.0089181475 2.341805e-38
0.014429623 -0.1322781 0.0089181475 2.3509527e-38
0.016319755 -0.13310309 0.0058922581 2.3509527e-38
0.018122345 -0.13310309 0.0058922581 2.3509886e-38
0.019924939 -0.13310309 0.0058922581 2.3509886e-38
0.021727532 -0.13310309 0.0058922581 2.3509886e-38
0.023640901 -0.13390426 0.0029536299 2.3509886e-38
0.025448643 -0.13390426 0.0029536299 2.3509886e-38
0.027256388 -0.13390426 0.0029536299 2.3509886e-38
