# .PCD v0.7 - Point Cloud Data file format
VERSION 0.7
FIELDS x y z rgb
SIZE 4 4 4 4
TYPE F F F F
COUNT 1 1 1 1
WIDTH 912
HEIGHT 1
VIEWPOINT 0 0 0 1 0 0 0
POINTS 912
DATA ascii
0.015832812 -0.083022356 -0.072867155 2.3509886e-38
0.017863858 -0.083858907 -0.076893449 2.3509886e-38
0.019813724 -0.083858907 -0.076893449 2.3509886e-38
0.021763589 -0.083858907 -0.076893449 2.304891e-38
0.023713451 -0.083858907 -0.076893449 2.3048907e-38
0.025663316 -0.083858907 -0.076893449 2.3325843e-38
0.027703594 -0.084471121 -0.079840064 2.3418038e-38
0.029563047 -0.083858907 -0.076893449 2.3509876e-38
0.031375252 -0.083022356 -0.072867155 2.3049975e-38
0.033318054 -0.083022356 -0.072867155 2.2589e-38
0.03526086 -0.083022356 -0.072867155 2.3234374e-38
0.037203666 -0.083022356 -0.072867155 2.2866311e-38
0.038857792 -0.081566691 -0.065860987 2.2497176e-38
0.040788312 -0.081566691 -0.065860987 2.268193e-38
0.042718831 -0.081566691 -0.065860987 2.3142544e-38
0.044649355 -0.081566691 -0.065860987 2.2497543e-38
0.046771556 -0.082392648 -0.069836378 2.2589378e-38
0.048709046 -0.082392648 -0.069836378 2.2867037e-38
0.050646536 -0.082392648 -0.069836378 1.6044217e-38
-0.069774903 -0.078478307 -0.041907068 2.3233652e-38
-0.06788639 -0.078478307 -0.041907068 2.350988e-38
-0.065997861 -0.078478307 -0.041907068 2.31411e-38
-0.064109348 -0.078478307 -0.041907068 2.3509883e-38
-0.062220819 -0.078478307 -0.041907068 2.3509883e-38
-0.060332306 -0.078478307 -0.041907068 2.3417687e-38
-0.058443777 -0.078478307 -0.041907068 2.3141103e-38
-0.056555264 -0.078478307 -0.041907068 2.3509886e-38
-0.054666735 -0.078478307 -0.041907068 2.2495734e-38
-0.052778222 -0.078478307 -0.041907068 2.3509886e-38
-0.05101309 -0.079105809 -0.044901963 2.3417691e-38
-0.049119323 -0.079105809 -0.044901963 2.3509886e-38
-0.047488492 -0.080567271 -0.051877137 2.3509886e-38
-0.045687906 -0.08118178 -0.054810043 2.3325497e-38
-0.043776762 -0.08118178 -0.054810043 2.3325138e-38
-0.041995831 -0.08202289 -0.058824416 2.3509527e-38
-0.040077645 -0.08202289 -0.058824416 2.3509527e-38
-0.038248852 -0.082670271 -0.061914202 2.3509886e-38
-0.036325254 -0.082670271 -0.061914202 2.3233302e-38
-0.034501992 -0.083497211 -0.065860987 2.341769e-38
-0.032571472 -0.083497211 -0.065860987 2.3509886e-38
-0.030728079 -0.084330142 -0.069836378 2.3509886e-38
-0.028790586 -0.084330142 -0.069836378 2.3509886e-38
-0.026853096 -0.084330142 -0.069836378 2.3509886e-38
-0.024966087 -0.084965169 -0.072867155 2.3509886e-38
-0.023023285 -0.084965169 -0.072867155 2.3509886e-38
-0.021080479 -0.084965169 -0.072867155 2.3509886e-38
-0.019137673 -0.084965169 -0.072867155 2.3509886e-38
-0.017194867 -0.084965169 -0.072867155 2.3509886e-38
-0.015252064 -0.084965169 -0.072867155 2.3325494e-38
-0.01330926 -0.084965169 -0.072867155 2.3141103e-38
-0.011384104 -0.085808769 -0.076893449 2.3509886e-38
-0.009434239 -0.085808769 -0.076893449 2.3509886e-38
-0.0074843755 -0.085808769 -0.076893449 2.3509886e-38
-0.0055345101 -0.085808769 -0.076893449 2.3509886e-38
-0.0035952358 -0.084965169 -0.072867155 2.3509886e-38
-0.0016524317 -0.084965169 -0.072867155 2.3509886e-38
0.00031508226 -0.085808769 -0.076893449 2.3509886e-38
0.0022649458 -0.085808769 -0.076893449 2.3509886e-38
0.0041759834 -0.084965169 -0.072867155 2.3509886e-38
0.0061187884 -0.084965169 -0.072867155 2.3509886e-38
0.0081145382 -0.085808769 -0.076893449 2.3509886e-38
0.010004398 -0.084965169 -0.072867155 2.3325494e-38
0.011947202 -0.084965169 -0.072867155 2.3509886e-38
0.013890007 -0.084965169 -0.072867155 2.3325494e-38
0.015832812 -0.084965169 -0.072867155 2.3141103e-38
0.017863858 -0.085808769 -0.076893449 2.3509886e-38
0.01971842 -0.084965169 -0.072867155 2.3509886e-38
0.021661226 -0.084965169 -0.072867155 2.3509886e-38
0.023713451 -0.085808769 -0.076893449 2.3509886e-38
0.025663316 -0.085808769 -0.076893449 2.350988e-38
0.027613182 -0.085808769 -0.076893449 2.3325846e-38
0.029432446 -0.084965169 -0.072867155 2.3509879e-38
0.031375252 -0.084965169 -0.072867155 2.3049261e-38
0.033318054 -0.084965169 -0.072867155 2.3418043e-38
0.03526086 -0.084965169 -0.072867155 2.3418047e-38
0.037203666 -0.084965169 -0.072867155 2.2773039e-38
0.039021593 -0.084330142 -0.069836378 2.3234379e-38
0.040788312 -0.083497211 -0.065860987 2.3234379e-38
0.042718831 -0.083497211 -0.065860987 2.3142544e-38
0.044649355 -0.083497211 -0.065860987 2.2958514e-38
0.046771556 -0.084330142 -0.069836378 2.3142544e-38
0.048709046 -0.084330142 -0.069836378 2.2958873e-38
0.050646536 -0.084330142 -0.069836378 2.2958873e-38
0.052371435 -0.083497211 -0.065860987 2.2313872e-38
0.054301959 -0.083497211 -0.065860987 2.2958873e-38
0.056459006 -0.084330142 -0.069836378 2.249826e-38
0.0583965 -0.084330142 -0.069836378 1.5399218e-38
-0.06788639 -0.08036682 -0.041907068 2.31411e-38
-0.065776654 -0.079520598 -0.037901755 2.3509886e-38
-0.063895158 -0.079520598 -0.037901755 2.3509886e-38
-0.062013656 -0.079520598 -0.037901755 2.3509886e-38
-0.060132153 -0.079520598 -0.037901755 2.3509886e-38
-0.058443777 -0.08036682 -0.041907068 2.3509886e-38
-0.056555264 -0.08036682 -0.041907068 2.3509886e-38
-0.054666735 -0.08036682 -0.041907068 2.3509886e-38
-0.052778222 -0.08036682 -0.041907068 2.3509886e-38
-0.05101309 -0.080999583 -0.044901963 2.3509886e-38
-0.049119323 -0.080999583 -0.044901963 2.3509886e-38
-0.047488492 -0.082473263 -0.051877137 2.3509527e-38
-0.045582488 -0.082473263 -0.051877137 2.3509527e-38
-0.043776762 -0.083092928 -0.054810043 2.3509527e-38
-0.041995831 -0.083941072 -0.058824416 2.3509527e-38
-0.040077645 -0.083941072 -0.058824416 2.3509527e-38
-0.038248852 -0.084593862 -0.061914202 2.3509886e-38
-0.036325254 -0.084593862 -0.061914202 2.3509886e-38
-0.034501992 -0.085427731 -0.065860987 2.3509886e-38
-0.032571472 -0.085427731 -0.065860987 2.3509886e-38
-0.030728079 -0.086267635 -0.069836378 2.3509886e-38
-0.028790586 -0.086267635 -0.069836378 2.3509886e-38
-0.026853096 -0.086267635 -0.069836378 2.3509886e-38
-0.024966087 -0.086907968 -0.072867155 2.3509886e-38
-0.023023285 -0.086907968 -0.072867155 2.3509886e-38
-0.021080479 -0.086907968 -0.072867155 2.3509886e-38
-0.019137673 -0.086907968 -0.072867155 2.3509886e-38
-0.017194867 -0.086907968 -0.072867155 2.3509886e-38
-0.015252064 -0.086907968 -0.072867155 2.3509886e-38
-0.01330926 -0.086907968 -0.072867155 2.3509886e-38
-0.011366454 -0.086907968 -0.072867155 2.3509886e-38
-0.0094236499 -0.086907968 -0.072867155 2.3509886e-38
-0.0074808458 -0.086907968 -0.072867155 2.3509886e-38
-0.0055380398 -0.086907968 -0.072867155 2.3509886e-38
-0.0035952358 -0.086907968 -0.072867155 2.3509886e-38
-0.0016524317 -0.086907968 -0.072867155 2.3509886e-38
0.00029037427 -0.086907968 -0.072867155 2.3509886e-38
0.0022331784 -0.086907968 -0.072867155 2.3509886e-38
0.0041759834 -0.086907968 -0.072867155 2.3509886e-38
0.0061187884 -0.086907968 -0.072867155 2.3509886e-38
0.0080615925 -0.086907968 -0.072867155 2.3509886e-38
0.010004398 -0.086907968 -0.072867155 2.3509886e-38
0.011947202 -0.086907968 -0.072867155 2.3509886e-38
0.013890007 -0.086907968 -0.072867155 2.3509886e-38
0.015832812 -0.086907968 -0.072867155 2.3509886e-38
0.017775618 -0.086907968 -0.072867155 2.3509886e-38
0.01971842 -0.086907968 -0.072867155 2.3509883e-38
0.021661226 -0.086907968 -0.072867155 2.3509886e-38
0.023713451 -0.087758631 -0.076893449 2.3509886e-38
0.025663316 -0.087758631 -0.076893449 2.3509527e-38
0.027613182 -0.087758631 -0.076893449 2.3509527e-38
0.029432446 -0.086907968 -0.072867155 2.3509527e-38
0.031375252 -0.086907968 -0.072867155 2.3509886e-38
0.033318054 -0.086907968 -0.072867155 2.3509886e-38
0.03526086 -0.086907968 -0.072867155 2.341805e-38
0.037203666 -0.086907968 -0.072867155 2.341805e-38
0.039021593 -0.086267635 -0.069836378 2.3234379e-38
0.040959083 -0.086267635 -0.069836378 2.3234379e-38
0.042718831 -0.085427731 -0.065860987 2.3234379e-38
0.044649355 -0.085427731 -0.065860987 2.3142544e-38
0.046579875 -0.085427731 -0.065860987 2.3142544e-38
0.048510395 -0.085427731 -0.065860987 2.3142544e-38
0.050440915 -0.085427731 -0.065860987 2.3142544e-38
0.052371435 -0.085427731 -0.065860987 2.2958873e-38
0.054301959 -0.085427731 -0.065860987 2.2958873e-38
0.056459006 -0.086267635 -0.069836378 2.2590096e-38
0.0583965 -0.086267635 -0.069836378 2.2867037e-38
0.060093518 -0.085427731 -0.065860987 1.9456543e-38
0.062024038 -0.085427731 -0.065860987 1.1713549e-38
0.063954554 -0.085427731 -0.065860987 5.7226311e-39
0.065158479 -0.083092928 -0.054810043 2.6808914e-39
-0.071663432 -0.082255349 -0.041907068 2.3509883e-38
-0.069774903 -0.082255349 -0.041907068 2.3509883e-38
-0.06788639 -0.082255349 -0.041907068 2.3233296e-38
-0.065997861 -0.082255349 -0.041907068 2.3509886e-38
-0.063895158 -0.081402093 -0.037901755 2.3509886e-38
-0.062013656 -0.081402093 -0.037901755 2.3509886e-38
-0.060132153 -0.081402093 -0.037901755 2.3509886e-38
-0.058443777 -0.082255349 -0.041907068 2.3509886e-38
-0.056555264 -0.082255349 -0.041907068 2.3509886e-38
-0.054666735 -0.082255349 -0.041907068 2.3509886e-38
-0.052778222 -0.082255349 -0.041907068 2.3509886e-38
-0.050889693 -0.082255349 -0.041907068 2.3509886e-38
-0.049001172 -0.082255349 -0.041907068 2.3509886e-38
-0.04722555 -0.082893357 -0.044901963 2.3509527e-38
-0.045473449 -0.083733007 -0.048843499 2.3509527e-38
-0.043776762 -0.085004061 -0.054810043 2.3509527e-38
-0.041995831 -0.085859254 -0.058824416 2.3509527e-38
-0.040077645 -0.085859254 -0.058824416 2.3509527e-38
-0.038248852 -0.086517468 -0.061914202 2.3509886e-38
-0.036325254 -0.086517468 -0.061914202 2.3509886e-38
-0.034501992 -0.087358251 -0.065860987 2.3509886e-38
-0.032665566 -0.088205129 -0.069836378 2.3509886e-38
-0.030728079 -0.088205129 -0.069836378 2.3509886e-38
-0.028790586 -0.088205129 -0.069836378 2.3509886e-38
-0.026853096 -0.088205129 -0.069836378 2.3509886e-38
-0.024966087 -0.088850766 -0.072867155 2.3509886e-38
-0.023023285 -0.088850766 -0.072867155 2.3509886e-38
-0.021080479 -0.088850766 -0.072867155 2.3509886e-38
-0.019137673 -0.088850766 -0.072867155 2.3509886e-38
-0.017194867 -0.088850766 -0.072867155 2.3509886e-38
-0.015252064 -0.088850766 -0.072867155 2.3509886e-38
-0.01330926 -0.088850766 -0.072867155 2.3509886e-38
-0.011366454 -0.088850766 -0.072867155 2.3509886e-38
-0.0094236499 -0.088850766 -0.072867155 2.3509886e-38
-0.0074808458 -0.088850766 -0.072867155 2.3509886e-38
-0.0055406978 -0.088205129 -0.069836378 2.3509886e-38
-0.003603206 -0.088205129 -0.069836378 2.3509886e-38
-0.0016657161 -0.088205129 -0.069836378 2.3509886e-38
0.00027177483 -0.088205129 -0.069836378 2.3509886e-38
0.0022092657 -0.088205129 -0.069836378 2.3509886e-38
0.0041467566 -0.088205129 -0.069836378 2.3509886e-38
0.0060842475 -0.088205129 -0.069836378 2.3509886e-38
0.0080217384 -0.088205129 -0.069836378 2.3509886e-38
0.0099592293 -0.088205129 -0.069836378 2.3509886e-38
0.011896719 -0.088205129 -0.069836378 2.3509886e-38
0.013834211 -0.088205129 -0.069836378 2.3509886e-38
0.015832812 -0.088850766 -0.072867155 2.3509883e-38
0.017775618 -0.088850766 -0.072867155 2.3509883e-38
0.01971842 -0.088850766 -0.072867155 2.3509883e-38
0.021661226 -0.088850766 -0.072867155 2.3509883e-38
0.023604032 -0.088850766 -0.072867155 2.3509886e-38
0.025663316 -0.089708492 -0.076893449 2.3509527e-38
0.02748964 -0.088850766 -0.072867155 2.3509168e-38
0.029432446 -0.088850766 -0.072867155 2.3509168e-38
0.031375252 -0.088850766 -0.072867155 2.3509527e-38
0.033318054 -0.088850766 -0.072867155 2.3509527e-38
0.03526086 -0.088850766 -0.072867155 2.3509886e-38
0.037084099 -0.088205129 -0.069836378 2.341805e-38
0.038857792 -0.087358251 -0.065860987 2.341805e-38
0.040788312 -0.087358251 -0.065860987 2.341805e-38
0.042718831 -0.087358251 -0.065860987 2.3234379e-38
0.044649355 -0.087358251 -0.065860987 2.3234376e-38
0.046579875 -0.087358251 -0.065860987 2.3142541e-38
0.048510395 -0.087358251 -0.065860987 2.3234376e-38
0.050440915 -0.087358251 -0.065860987 2.3142541e-38
0.052371435 -0.087358251 -0.065860987 2.3142538e-38
0.054521516 -0.088205129 -0.069836378 2.3142544e-38
0.056459006 -0.088205129 -0.069836378 2.3142544e-38
0.0583965 -0.088205129 -0.069836378 2.1668153e-38
0.060093518 -0.087358251 -0.065860987 2.1853618e-38
0.062024038 -0.087358251 -0.065860987 2.2591531e-38
0.063954554 -0.087358251 -0.065860987 2.0104428e-38
0.065158479 -0.085004061 -0.054810043 1.0148737e-38
0.06706962 -0.085004061 -0.054810043 2.7741632e-39
0.072803058 -0.085004061 -0.054810043 2.9567482e-39
-0.075632133 -0.084787115 -0.044901963 2.3509883e-38
-0.073551945 -0.084143862 -0.041907068 2.3417687e-38
-0.071663432 -0.084143862 -0.041907068 2.3509883e-38
-0.069774903 -0.084143862 -0.041907068 2.3509883e-38
-0.067483239 -0.082624316 -0.034832235 2.3417687e-38
-0.065607123 -0.082624316 -0.034832235 2.3509886e-38
-0.063731007 -0.082624316 -0.034832235 2.3509886e-38
-0.061854891 -0.082624316 -0.034832235 2.3509886e-38
-0.059978776 -0.082624316 -0.034832235 2.3509886e-38
-0.058250658 -0.083283588 -0.037901755 2.3509886e-38
-0.056369163 -0.083283588 -0.037901755 2.3509886e-38
-0.054666735 -0.084143862 -0.041907068 2.3509886e-38
-0.052778222 -0.084143862 -0.041907068 2.3509886e-38
-0.050889693 -0.084143862 -0.041907068 2.3509886e-38
-0.049001172 -0.084143862 -0.041907068 2.3509886e-38
-0.04722555 -0.084787115 -0.044901963 2.3509886e-38
-0.045331776 -0.084787115 -0.044901963 2.3509886e-38
-0.043438006 -0.084787115 -0.044901963 2.3509886e-38
-0.041865617 -0.08691521 -0.054810043 2.3509886e-38
-0.040077645 -0.087777436 -0.058824416 2.3509886e-38
-0.038248852 -0.088441074 -0.061914202 2.3509886e-38
-0.036325254 -0.088441074 -0.061914202 2.3509527e-38
-0.034501992 -0.089288771 -0.065860987 2.3509527e-38
-0.032571472 -0.089288771 -0.065860987 2.3509527e-38
-0.030728079 -0.090142623 -0.069836378 2.3509527e-38
-0.028790586 -0.090142623 -0.069836378 2.3509527e-38
-0.026853096 -0.090142623 -0.069836378 2.3509527e-38
-0.024966087 -0.09079358 -0.072867155 2.3509527e-38
-0.023023285 -0.09079358 -0.072867155 2.3509527e-38
-0.021080479 -0.09079358 -0.072867155 2.3509527e-38
-0.019137673 -0.09079358 -0.072867155 2.3509527e-38
-0.017194867 -0.09079358 -0.072867155 2.3509527e-38
-0.015252064 -0.09079358 -0.072867155 2.3509527e-38
-0.01330926 -0.09079358 -0.072867155 2.3509527e-38
-0.011366454 -0.09079358 -0.072867155 2.3509527e-38
-0.0094156796 -0.090142623 -0.069836378 2.3509527e-38
-0.0074781878 -0.090142623 -0.069836378 2.3509527e-38
-0.0055406978 -0.090142623 -0.069836378 2.3509527e-38
-0.0036136629 -0.089288771 -0.065860987 2.3509527e-38
-0.0016831411 -0.089288771 -0.065860987 2.3509527e-38
0.00027177483 -0.090142623 -0.069836378 2.3509527e-38
0.0022092657 -0.090142623 -0.069836378 2.3509527e-38
0.0041467566 -0.090142623 -0.069836378 2.3509527e-38
0.0060842475 -0.090142623 -0.069836378 2.3509527e-38
0.0080217384 -0.090142623 -0.069836378 2.3509527e-38
0.0099592293 -0.090142623 -0.069836378 2.3509883e-38
0.011896719 -0.090142623 -0.069836378 2.3509883e-38
0.013834211 -0.090142623 -0.069836378 2.3509883e-38
0.015771702 -0.090142623 -0.069836378 2.3509883e-38
0.017709192 -0.090142623 -0.069836378 2.3509883e-38
0.01971842 -0.09079358 -0.072867155 2.350988e-38
0.021661226 -0.09079358 -0.072867155 2.350988e-38
0.023604032 -0.09079358 -0.072867155 2.3509527e-38
0.025546838 -0.09079358 -0.072867155 2.3509168e-38
0.02748964 -0.09079358 -0.072867155 2.3509168e-38
0.029432446 -0.09079358 -0.072867155 2.3509527e-38
0.031271629 -0.090142623 -0.069836378 2.3509527e-38
0.033209119 -0.090142623 -0.069836378 2.3509527e-38
0.035146609 -0.090142623 -0.069836378 2.3509527e-38
0.037084099 -0.090142623 -0.069836378 2.3509886e-38
0.038857792 -0.089288771 -0.065860987 2.341805e-38
0.040788312 -0.089288771 -0.065860987 2.341805e-38
0.042718831 -0.089288771 -0.065860987 2.3418047e-38
0.044649355 -0.089288771 -0.065860987 2.3418045e-38
0.046579875 -0.089288771 -0.065860987 2.3234374e-38
0.048510395 -0.089288771 -0.065860987 2.3418043e-38
0.050440915 -0.089288771 -0.065860987 2.3234372e-38
0.052371435 -0.089288771 -0.065860987 2.3234369e-38
0.054301959 -0.089288771 -0.065860987 2.3234376e-38
0.056459006 -0.090142623 -0.069836378 2.3234379e-38
0.0583965 -0.090142623 -0.069836378 2.3142544e-38
0.060093518 -0.089288771 -0.065860987 2.2958873e-38
0.061778378 -0.088441074 -0.061914202 2.2775202e-38
0.063504241 -0.087777436 -0.058824416 2.20398e-38
0.065158479 -0.08691521 -0.054810043 1.8721849e-38
0.06706962 -0.08691521 -0.054810043 1.2084124e-38
0.068980768 -0.08691521 -0.054810043 5.5382342e-39
0.070891909 -0.08691521 -0.054810043 2.6805256e-39
-0.077785067 -0.087534383 -0.048843499 2.3509883e-38
-0.075632133 -0.086680889 -0.044901963 2.3509883e-38
-0.073551945 -0.086032391 -0.041907068 2.2864513e-38
-0.071663432 -0.086032391 -0.041907068 2.3509883e-38
-0.069539644 -0.085165098 -0.037901755 2.3509883e-38
-0.06731575 -0.083863959 -0.031892892 2.2864516e-38
-0.065444782 -0.083863959 -0.031892892 2.3509886e-38
-0.063573815 -0.083863959 -0.031892892 2.3509886e-38
-0.061702855 -0.083863959 -0.031892892 2.3509886e-38
-0.059831895 -0.083863959 -0.031892892 2.3509886e-38
-0.05810266 -0.084500432 -0.034832235 2.3509886e-38
-0.056226544 -0.084500432 -0.034832235 2.3509886e-38
-0.054487661 -0.085165098 -0.037901755 2.3509886e-38
-0.052606158 -0.085165098 -0.037901755 2.3509886e-38
-0.050724663 -0.085165098 -0.037901755 2.3509886e-38
-0.048843168 -0.085165098 -0.037901755 2.3509886e-38
-0.046845954 -0.084500432 -0.034832235 2.3509886e-38
-0.044969838 -0.084500432 -0.034832235 2.3509886e-38
-0.043093722 -0.084500432 -0.034832235 2.3509886e-38
-0.041447088 -0.086032391 -0.041907068 2.3509886e-38
-0.039954472 -0.088826358 -0.054810043 2.3509886e-38
-0.038248852 -0.090364665 -0.061914202 2.3509886e-38
-0.036325254 -0.090364665 -0.061914202 2.3509527e-38
-0.034501992 -0.091219291 -0.065860987 2.3509527e-38
-0.032571472 -0.091219291 -0.065860987 2.3509527e-38
-0.030640949 -0.091219291 -0.065860987 2.3509527e-38
-0.028710429 -0.091219291 -0.065860987 2.3509527e-38
-0.026853096 -0.092080101 -0.069836378 2.3509527e-38
-0.024915606 -0.092080101 -0.069836378 2.3509527e-38
-0.023023285 -0.092736378 -0.072867155 2.3509527e-38
-0.021080479 -0.092736378 -0.072867155 2.3509527e-38
-0.019137673 -0.092736378 -0.072867155 2.3509527e-38
-0.017194867 -0.092736378 -0.072867155 2.3509527e-38
-0.015252064 -0.092736378 -0.072867155 2.3509527e-38
-0.01329066 -0.092080101 -0.069836378 2.3509527e-38
-0.01135317 -0.092080101 -0.069836378 2.3509527e-38
-0.0094156796 -0.092080101 -0.069836378 2.3509527e-38
-0.0074747028 -0.091219291 -0.065860987 2.3509527e-38
-0.0055441828 -0.091219291 -0.065860987 2.3509527e-38
-0.0036240416 -0.090364665 -0.061914202 2.3509527e-38
-0.0017004414 -0.090364665 -0.061914202 2.3509527e-38
0.00024737883 -0.091219291 -0.065860987 2.3509527e-38
0.0021778997 -0.091219291 -0.065860987 2.3509527e-38
0.0041084206 -0.091219291 -0.065860987 2.3509527e-38
0.0060389414 -0.091219291 -0.065860987 2.3509527e-38
0.0080217384 -0.092080101 -0.069836378 2.3509527e-38
0.0099592293 -0.092080101 -0.069836378 2.3509883e-38
0.011896719 -0.092080101 -0.069836378 2.3509883e-38
0.013834211 -0.092080101 -0.069836378 2.3509883e-38
0.015771702 -0.092080101 -0.069836378 2.3509883e-38
0.017709192 -0.092080101 -0.069836378 2.350988e-38
0.019646682 -0.092080101 -0.069836378 2.350988e-38
0.021584172 -0.092080101 -0.069836378 2.350988e-38
0.023521665 -0.092080101 -0.069836378 2.3509527e-38
0.025546838 -0.092736378 -0.072867155 2.3509168e-38
0.02748964 -0.092736378 -0.072867155 2.3509168e-38
0.029432446 -0.092736378 -0.072867155 2.3509527e-38
0.031271629 -0.092080101 -0.069836378 2.3509527e-38
0.033209119 -0.092080101 -0.069836378 2.3509527e-38
0.035146609 -0.092080101 -0.069836378 2.3509527e-38
0.037084099 -0.092080101 -0.069836378 2.3509886e-38
0.039021593 -0.092080101 -0.069836378 2.3509886e-38
0.040959083 -0.092080101 -0.069836378 2.3509883e-38
0.042718831 -0.091219291 -0.065860987 2.3418047e-38
0.044649355 -0.091219291 -0.065860987 2.350988e-38
0.046579875 -0.091219291 -0.065860987 2.3418043e-38
0.048510395 -0.091219291 -0.065860987 2.3509879e-38
0.050440915 -0.091219291 -0.065860987 2.341804e-38
0.052371435 -0.091219291 -0.065860987 2.3509876e-38
0.054301959 -0.091219291 -0.065860987 2.3418045e-38
0.056232478 -0.091219291 -0.065860987 2.3325856e-38
0.058162998 -0.091219291 -0.065860987 2.3049991e-38
0.060093518 -0.091219291 -0.065860987 2.3142544e-38
0.061778378 -0.090364665 -0.061914202 2.2590454e-38
0.063504241 -0.089695618 -0.058824416 2.2314948e-38
0.065158479 -0.088826358 -0.054810043 2.2591531e-38
0.06706962 -0.088826358 -0.054810043 2.056468e-38
0.068980768 -0.088826358 -0.054810043 1.5954898e-38
0.073095158 -0.089695618 -0.058824416 3.4159313e-39
-0.077525906 -0.088574663 -0.044901963 2.3325492e-38
-0.075632133 -0.088574663 -0.044901963 2.3325492e-38
-0.073551945 -0.087920904 -0.041907068 2.3325494e-38
-0.071421154 -0.087046593 -0.037901755 2.3509886e-38
-0.06918671 -0.085734919 -0.031892892 2.3509886e-38
-0.06731575 -0.085734919 -0.031892892 2.3509886e-38
-0.065221466 -0.084852293 -0.027849551 2.3509886e-38
-0.063357599 -0.084852293 -0.027849551 2.3509886e-38
-0.061702855 -0.085734919 -0.031892892 2.3509886e-38
-0.059831895 -0.085734919 -0.031892892 2.3509886e-38
-0.057960935 -0.085734919 -0.031892892 2.3509886e-38
-0.056089967 -0.085734919 -0.031892892 2.3509886e-38
-0.054350421 -0.086376548 -0.034832235 2.3509886e-38
-0.052474305 -0.086376548 -0.034832235 2.3509886e-38
-0.050598189 -0.086376548 -0.034832235 2.3509886e-38
-0.048722066 -0.086376548 -0.034832235 2.3509886e-38
-0.046735153 -0.085734919 -0.031892892 2.3509886e-38
-0.044864189 -0.085734919 -0.031892892 2.3509886e-38
-0.043093722 -0.086376548 -0.034832235 2.3509886e-38
-0.041317169 -0.087046593 -0.037901755 2.3509886e-38
-0.039558567 -0.087920904 -0.041907068 2.3509886e-38
-0.037870716 -0.089435071 -0.048843499 2.3509886e-38
-0.036241278 -0.091613799 -0.058824416 2.3509527e-38
-0.034401648 -0.092288271 -0.061914202 2.3509527e-38
-0.032478049 -0.092288271 -0.061914202 2.3509527e-38
-0.030554451 -0.092288271 -0.061914202 2.3509527e-38
-0.028630849 -0.092288271 -0.061914202 2.3509527e-38
-0.026707247 -0.092288271 -0.061914202 2.3509527e-38
-0.024915606 -0.094017595 -0.069836378 2.3509527e-38
-0.022978112 -0.094017595 -0.069836378 2.3509527e-38
-0.021040622 -0.094017595 -0.069836378 2.3509527e-38
-0.019103132 -0.094017595 -0.069836378 2.3509527e-38
-0.017165642 -0.094017595 -0.069836378 2.3509527e-38
-0.015228151 -0.094017595 -0.069836378 2.3509527e-38
-0.01329066 -0.094017595 -0.069836378 2.3509527e-38
-0.01135317 -0.094017595 -0.069836378 2.3509527e-38
-0.0094052227 -0.093149811 -0.065860987 2.3509527e-38
-0.0074712439 -0.092288271 -0.061914202 2.3509527e-38
-0.0055476418 -0.092288271 -0.061914202 2.3509527e-38
-0.0036240416 -0.092288271 -0.061914202 2.3509527e-38
-0.0017004414 -0.092288271 -0.061914202 2.3509527e-38
0.00022315886 -0.092288271 -0.061914202 2.3509527e-38
0.00214676 -0.092288271 -0.061914202 2.3509527e-38
0.0041084206 -0.093149811 -0.065860987 2.3509527e-38
0.0060389414 -0.093149811 -0.065860987 2.3509883e-38
0.0080217384 -0.094017595 -0.069836378 2.3509883e-38
0.0099592293 -0.094017595 -0.069836378 2.3509883e-38
0.011896719 -0.094017595 -0.069836378 2.3509883e-38
0.013834211 -0.094017595 -0.069836378 2.350988e-38
0.015771702 -0.094017595 -0.069836378 2.350988e-38
0.017709192 -0.094017595 -0.069836378 2.350988e-38
0.019646682 -0.094017595 -0.069836378 2.350988e-38
0.021584172 -0.094017595 -0.069836378 2.3509879e-38
0.023521665 -0.094017595 -0.069836378 2.3509883e-38
0.025459155 -0.094017595 -0.069836378 2.3509527e-38
0.027396645 -0.094017595 -0.069836378 2.3509527e-38
0.029334139 -0.094017595 -0.069836378 2.3509527e-38
0.031271629 -0.094017595 -0.069836378 2.3509527e-38
0.033209119 -0.094017595 -0.069836378 2.3509527e-38
0.035146609 -0.094017595 -0.069836378 2.3509886e-38
0.037084099 -0.094017595 -0.069836378 2.3509886e-38
0.039021593 -0.094017595 -0.069836378 2.3509886e-38
0.040959083 -0.094017595 -0.069836378 2.3509883e-38
0.042896573 -0.094017595 -0.069836378 2.3509883e-38
0.044834062 -0.094017595 -0.069836378 2.3509883e-38
0.046579875 -0.093149811 -0.065860987 2.350988e-38
0.048510395 -0.093149811 -0.065860987 2.350988e-38
0.050440915 -0.093149811 -0.065860987 2.3509879e-38
0.052584026 -0.094017595 -0.069836378 2.3509879e-38
0.054301959 -0.093149811 -0.065860987 2.350988e-38
0.056232478 -0.093149811 -0.065860987 2.3509883e-38
0.058162998 -0.093149811 -0.065860987 2.2864516e-38
0.059854779 -0.092288271 -0.061914202 2.341805e-38
0.061778378 -0.092288271 -0.061914202 2.3234379e-38
0.063504241 -0.091613799 -0.058824416 2.3142544e-38
0.065422423 -0.091613799 -0.058824416 2.2958873e-38
0.06706962 -0.090737507 -0.054810043 2.2867037e-38
0.068980768 -0.090737507 -0.054810043 2.2222754e-38
0.071176969 -0.091613799 -0.058824416 1.5215893e-38
0.073095158 -0.091613799 -0.058824416 5.0743736e-39
-0.079217516 -0.089809433 -0.041907068 2.3048905e-38
-0.077328987 -0.089809433 -0.041907068 2.3509883e-38
-0.075440474 -0.089809433 -0.041907068 2.3509883e-38
-0.073302649 -0.088928089 -0.037901755 2.3509886e-38
-0.070813097 -0.086716175 -0.027849551 2.3141103e-38
-0.068949215 -0.086716175 -0.027849551 2.3048907e-38
-0.067085348 -0.086716175 -0.027849551 2.3509886e-38
-0.065221466 -0.086716175 -0.027849551 2.3509886e-38
-0.063357599 -0.086716175 -0.027849551 2.3509886e-38
-0.061493717 -0.086716175 -0.027849551 2.3509886e-38
-0.05962985 -0.086716175 -0.027849551 2.3509886e-38
-0.057765976 -0.086716175 -0.027849551 2.3509886e-38
-0.055902101 -0.086716175 -0.027849551 2.3509886e-38
-0.054219 -0.087605879 -0.031892892 2.3509886e-38
-0.05234804 -0.087605879 -0.031892892 2.3509886e-38
-0.05047708 -0.087605879 -0.031892892 2.3509886e-38
-0.048606113 -0.087605879 -0.031892892 2.3509886e-38
-0.046735153 -0.087605879 -0.031892892 2.3509886e-38
-0.044864189 -0.087605879 -0.031892892 2.3509886e-38
-0.042993225 -0.087605879 -0.031892892 2.3509886e-38
-0.041317169 -0.088928089 -0.037901755 2.3509886e-38
-0.039558567 -0.089809433 -0.041907068 2.3509886e-38
-0.037756689 -0.090468436 -0.044901963 2.3509886e-38
-0.036132183 -0.09264864 -0.054810043 2.3509527e-38
-0.034323096 -0.093531981 -0.058824416 2.3509527e-38
-0.032478049 -0.094211861 -0.061914202 2.3509527e-38
-0.030554451 -0.094211861 -0.061914202 2.3509527e-38
-0.028630849 -0.094211861 -0.061914202 2.3509527e-38
-0.026707247 -0.094211861 -0.061914202 2.3509527e-38
-0.024849385 -0.095080331 -0.065860987 2.3509527e-38
-0.022918865 -0.095080331 -0.065860987 2.3509527e-38
-0.020988345 -0.095080331 -0.065860987 2.3509527e-38
-0.019057825 -0.095080331 -0.065860987 2.3509527e-38
-0.017127305 -0.095080331 -0.065860987 2.3509527e-38
-0.015228151 -0.095955089 -0.069836378 2.3509527e-38
-0.01329066 -0.095955089 -0.069836378 2.3509527e-38
-0.011335745 -0.095080331 -0.065860987 2.3509527e-38
-0.0094052227 -0.095080331 -0.065860987 2.3509527e-38
-0.0074712439 -0.094211861 -0.061914202 2.3509527e-38
-0.0055476418 -0.094211861 -0.061914202 2.3509527e-38
-0.0036240416 -0.094211861 -0.061914202 2.3509527e-38
-0.0017004414 -0.094211861 -0.061914202 2.3509527e-38
0.00022315886 -0.094211861 -0.061914202 2.3509527e-38
0.00214676 -0.094211861 -0.061914202 2.3509527e-38
0.0040703602 -0.094211861 -0.061914202 2.3509527e-38
0.0059939614 -0.094211861 -0.061914202 2.3509883e-38
0.0079694614 -0.095080331 -0.065860987 2.3509883e-38
0.0098999823 -0.095080331 -0.065860987 2.3509883e-38
0.011896719 -0.095955089 -0.069836378 2.3509883e-38
0.013834211 -0.095955089 -0.069836378 2.350988e-38
0.015771702 -0.095955089 -0.069836378 2.350988e-38
0.017709192 -0.095955089 -0.069836378 2.350988e-38
0.019646682 -0.095955089 -0.069836378 2.350988e-38
0.021584172 -0.095955089 -0.069836378 2.3509879e-38
0.023521665 -0.095955089 -0.069836378 2.350988e-38
0.025459155 -0.095955089 -0.069836378 2.341805e-38
0.027396645 -0.095955089 -0.069836378 2.341805e-38
0.029334139 -0.095955089 -0.069836378 2.3509886e-38
0.031271629 -0.095955089 -0.069836378 2.3509886e-38
0.033209119 -0.095955089 -0.069836378 2.3509886e-38
0.035146609 -0.095955089 -0.069836378 2.3509886e-38
0.037084099 -0.095955089 -0.069836378 2.3509886e-38
0.038857792 -0.095080331 -0.065860987 2.3509886e-38
0.040788312 -0.095080331 -0.065860987 2.3509883e-38
0.042718831 -0.095080331 -0.065860987 2.3509883e-38
0.044649355 -0.095080331 -0.065860987 2.3509883e-38
0.046579875 -0.095080331 -0.065860987 2.3509883e-38
0.048510395 -0.095080331 -0.065860987 2.3509883e-38
0.050440915 -0.095080331 -0.065860987 2.3509883e-38
0.052371435 -0.095080331 -0.065860987 2.3509524e-38
0.054083977 -0.094211861 -0.061914202 2.3509524e-38
0.056007575 -0.094211861 -0.061914202 2.3509518e-38
0.057931174 -0.094211861 -0.061914202 2.3509879e-38
0.059667874 -0.093531981 -0.058824416 2.350988e-38
0.061586063 -0.093531981 -0.058824416 2.2772321e-38
0.063504241 -0.093531981 -0.058824416 2.221951e-38
0.065158479 -0.09264864 -0.054810043 2.3325856e-38
0.06706962 -0.09264864 -0.054810043 2.3234379e-38
0.068980768 -0.09264864 -0.054810043 2.2865961e-38
0.070891909 -0.09264864 -0.054810043 2.1668508e-38
-0.082994558 -0.091697961 -0.041907068 2.2496087e-38
-0.080828644 -0.090809584 -0.037901755 2.3509883e-38
-0.078947149 -0.090809584 -0.037901755 2.3509883e-38
-0.077065639 -0.090809584 -0.037901755 2.3233296e-38
-0.075184144 -0.090809584 -0.037901755 2.3417687e-38
-0.072676964 -0.088580042 -0.027849551 2.3509886e-38
-0.070630871 -0.087911904 -0.024837133 2.3509886e-38
-0.068772279 -0.087911904 -0.024837133 2.3509886e-38
-0.066913687 -0.087911904 -0.024837133 2.3509886e-38
-0.065221466 -0.088580042 -0.027849551 2.3509886e-38
-0.063357599 -0.088580042 -0.027849551 2.3509886e-38
-0.061337911 -0.087911904 -0.024837133 2.3509886e-38
-0.059479319 -0.087911904 -0.024837133 2.3509886e-38
-0.057765976 -0.088580042 -0.027849551 2.3509886e-38
-0.055902101 -0.088580042 -0.027849551 2.3509886e-38
-0.054038227 -0.088580042 -0.027849551 2.3509886e-38
-0.052174352 -0.088580042 -0.027849551 2.3509886e-38
-0.050310478 -0.088580042 -0.027849551 2.3509886e-38
-0.048446603 -0.088580042 -0.027849551 2.3509886e-38
-0.046735153 -0.089476839 -0.031892892 2.3509886e-38
-0.044864189 -0.089476839 -0.031892892 2.3509886e-38
-0.042993225 -0.089476839 -0.031892892 2.3509883e-38
-0.041217603 -0.090128779 -0.034832235 2.3509883e-38
-0.03943567 -0.090809584 -0.037901755 2.3509883e-38
-0.037670046 -0.091697961 -0.041907068 2.3509883e-38
-0.035862915 -0.09236221 -0.044901963 2.3509527e-38
-0.034221038 -0.094559789 -0.054810043 2.3509527e-38
-0.032404914 -0.095450163 -0.058824416 2.3509527e-38
-0.030486733 -0.095450163 -0.058824416 2.3509527e-38
-0.028568547 -0.095450163 -0.058824416 2.3509527e-38
-0.026650365 -0.095450163 -0.058824416 2.3509527e-38
-0.02473218 -0.095450163 -0.058824416 2.3509527e-38
-0.022813998 -0.095450163 -0.058824416 2.3509527e-38
-0.020936444 -0.096135467 -0.061914202 2.3509527e-38
-0.019012846 -0.096135467 -0.061914202 2.3509527e-38
-0.017089244 -0.096135467 -0.061914202 2.3509527e-38
-0.015196786 -0.097010851 -0.065860987 2.3509527e-38
-0.013266264 -0.097010851 -0.065860987 2.3509527e-38
-0.011335745 -0.097010851 -0.065860987 2.3509527e-38
-0.0094052227 -0.097010851 -0.065860987 2.3509527e-38
-0.0074712439 -0.096135467 -0.061914202 2.3509527e-38
-0.0055476418 -0.096135467 -0.061914202 2.3509527e-38
-0.0036240416 -0.096135467 -0.061914202 2.3509527e-38
-0.0017004414 -0.096135467 -0.061914202 2.3509527e-38
0.00022315886 -0.096135467 -0.061914202 2.3509527e-38
0.00214676 -0.096135467 -0.061914202 2.3509527e-38
0.0040703602 -0.096135467 -0.061914202 2.3509527e-38
0.0059939614 -0.096135467 -0.061914202 2.3509883e-38
0.0079694614 -0.097010851 -0.065860987 2.3509883e-38
0.0098999823 -0.097010851 -0.065860987 2.350988e-38
0.011896719 -0.097892582 -0.069836378 2.350988e-38
0.013834211 -0.097892582 -0.069836378 2.350988e-38
0.015691545 -0.097010851 -0.065860987 2.350988e-38
0.017622065 -0.097010851 -0.065860987 2.3509879e-38
0.019552585 -0.097010851 -0.065860987 2.3509879e-38
0.021483105 -0.097010851 -0.065860987 2.3509879e-38
0.023413625 -0.097010851 -0.065860987 2.3509879e-38
0.025344148 -0.097010851 -0.065860987 2.3418045e-38
0.027274668 -0.097010851 -0.065860987 2.3234374e-38
0.029205188 -0.097010851 -0.065860987 2.3418045e-38
0.031135708 -0.097010851 -0.065860987 2.3418045e-38
0.033066232 -0.097010851 -0.065860987 2.3418047e-38
0.034996752 -0.097010851 -0.065860987 2.3418047e-38
0.036927272 -0.097010851 -0.065860987 2.3509883e-38
0.038857792 -0.097010851 -0.065860987 2.3509883e-38
0.040788312 -0.097010851 -0.065860987 2.3509527e-38
0.042718831 -0.097010851 -0.065860987 2.3509527e-38
0.044649355 -0.097010851 -0.065860987 2.3509527e-38
0.046389572 -0.096135467 -0.061914202 2.3509168e-38
0.048313174 -0.096135467 -0.061914202 2.3509168e-38
0.050236776 -0.096135467 -0.061914202 2.3509168e-38
0.052160375 -0.096135467 -0.061914202 2.3508809e-38
0.054083977 -0.096135467 -0.061914202 2.3509168e-38
0.055831511 -0.095450163 -0.058824416 2.3509517e-38
0.057749692 -0.095450163 -0.058824416 2.3509153e-38
0.059667874 -0.095450163 -0.058824416 2.3508077e-38
0.061586063 -0.095450163 -0.058824416 2.3509521e-38
0.063504241 -0.095450163 -0.058824416 2.3509527e-38
0.065158479 -0.094559789 -0.054810043 2.3509168e-38
0.06706962 -0.094559789 -0.054810043 2.2864167e-38
0.068980768 -0.094559789 -0.054810043 2.3417691e-38
0.070891909 -0.094559789 -0.054810043 2.323402e-38
0.072803058 -0.094559789 -0.054810043 9.958584e-39
-0.082710139 -0.092691094 -0.037901755 2.3509879e-38
-0.080828644 -0.092691094 -0.037901755 2.3140736e-38
-0.078739934 -0.092004895 -0.034832235 2.3509879e-38
-0.076863818 -0.092004895 -0.034832235 2.350988e-38
-0.074348055 -0.089770496 -0.024837133 2.3418043e-38
-0.072489463 -0.089770496 -0.024837133 2.3509523e-38
-0.070449673 -0.089100882 -0.021841761 2.3509886e-38
-0.068596341 -0.089100882 -0.021841761 2.3509527e-38
-0.066913687 -0.089770496 -0.024837133 2.3048907e-38
-0.065055095 -0.089770496 -0.024837133 2.3509886e-38
-0.063196503 -0.089770496 -0.024837133 2.3509886e-38
-0.061337911 -0.089770496 -0.024837133 2.3509886e-38
-0.059479319 -0.089770496 -0.024837133 2.3509886e-38
-0.057765976 -0.090443924 -0.027849551 2.3509886e-38
-0.055902101 -0.090443924 -0.027849551 2.3509886e-38
-0.054038227 -0.090443924 -0.027849551 2.3509886e-38
-0.052174352 -0.090443924 -0.027849551 2.3509886e-38
-0.050310478 -0.090443924 -0.027849551 2.3509886e-38
-0.048446603 -0.090443924 -0.027849551 2.3509886e-38
-0.046582729 -0.090443924 -0.027849551 2.3509886e-38
-0.044718858 -0.090443924 -0.027849551 2.3509886e-38
-0.042854983 -0.090443924 -0.027849551 2.3509883e-38
-0.041217603 -0.092004895 -0.034832235 2.3509883e-38
-0.039341487 -0.092004895 -0.034832235 2.3509883e-38
-0.037670046 -0.093586475 -0.041907068 2.3509883e-38
-0.035781525 -0.093586475 -0.041907068 2.3509527e-38
-0.034146473 -0.095815286 -0.051877137 2.3509527e-38
-0.032309894 -0.096470937 -0.054810043 2.3509527e-38
-0.030398749 -0.096470937 -0.054810043 2.3509527e-38
-0.028487604 -0.096470937 -0.054810043 2.3509527e-38
-0.026576459 -0.096470937 -0.054810043 2.3509527e-38
-0.02473218 -0.097368345 -0.058824416 2.3509527e-38
-0.022813998 -0.097368345 -0.058824416 2.3509527e-38
-0.020895816 -0.097368345 -0.058824416 2.3509527e-38
-0.018977635 -0.097368345 -0.058824416 2.3509527e-38
-0.017059449 -0.097368345 -0.058824416 2.3509527e-38
-0.015165647 -0.098059073 -0.061914202 2.3509527e-38
-0.013242044 -0.098059073 -0.061914202 2.3509527e-38
-0.011318444 -0.098059073 -0.061914202 2.3509527e-38
-0.0093948441 -0.098059073 -0.061914202 2.3509527e-38
-0.0074712439 -0.098059073 -0.061914202 2.3509527e-38
-0.0055476418 -0.098059073 -0.061914202 2.3509527e-38
-0.0036240416 -0.098059073 -0.061914202 2.3509527e-38
-0.0017004414 -0.098059073 -0.061914202 2.3509527e-38
0.00022315886 -0.098059073 -0.061914202 2.3509527e-38
0.00214676 -0.098059073 -0.061914202 2.3509527e-38
0.0041084206 -0.098941371 -0.065860987 2.3509527e-38
0.0060389414 -0.098941371 -0.065860987 2.3509883e-38
0.0079694614 -0.098941371 -0.065860987 2.3509883e-38
0.0098999823 -0.098941371 -0.065860987 2.3509883e-38
0.011830502 -0.098941371 -0.065860987 2.350988e-38
0.013761024 -0.098941371 -0.065860987 2.3509883e-38
0.015691545 -0.098941371 -0.065860987 2.350988e-38
0.017622065 -0.098941371 -0.065860987 2.350988e-38
0.019459166 -0.098059073 -0.061914202 2.350988e-38
0.021382764 -0.098059073 -0.061914202 2.350988e-38
0.023413625 -0.098941371 -0.065860987 2.350988e-38
0.025344148 -0.098941371 -0.065860987 2.3418045e-38
0.027274668 -0.098941371 -0.065860987 2.3418045e-38
0.029205188 -0.098941371 -0.065860987 2.3418045e-38
0.031135708 -0.098941371 -0.065860987 2.3418045e-38
0.033066232 -0.098941371 -0.065860987 2.3418045e-38
0.034996752 -0.098941371 -0.065860987 2.3418047e-38
0.036771569 -0.098059073 -0.061914202 2.3509883e-38
0.038695171 -0.098059073 -0.061914202 2.3509883e-38
0.040788312 -0.098941371 -0.065860987 2.3509527e-38
0.042542372 -0.098059073 -0.061914202 2.3509527e-38
0.044465974 -0.098059073 -0.061914202 2.3509527e-38
0.046389572 -0.098059073 -0.061914202 2.3509168e-38
0.048313174 -0.098059073 -0.061914202 2.3509168e-38
0.050236776 -0.098059073 -0.061914202 2.3509168e-38
0.052160375 -0.098059073 -0.061914202 2.3509168e-38
0.053913329 -0.097368345 -0.058824416 2.3509527e-38
0.055831511 -0.097368345 -0.058824416 2.3508439e-38
0.057749692 -0.097368345 -0.058824416 2.3509873e-38
0.059667874 -0.097368345 -0.058824416 2.3509876e-38
0.061336193 -0.096470937 -0.054810043 2.3139658e-38
0.06324733 -0.096470937 -0.054810043 2.3509524e-38
0.065158479 -0.096470937 -0.054810043 2.3509527e-38
0.066871643 -0.095815286 -0.051877137 2.3416974e-38
0.068777643 -0.095815286 -0.051877137 2.3509527e-38
0.070683643 -0.095815286 -0.051877137 2.314075e-38
0.072589651 -0.095815286 -0.051877137 8.021031e-39
0.074269593 -0.095137119 -0.048843499 4.5186789e-39
-0.082710139 -0.094572589 -0.037901755 2.350987e-38
-0.080616064 -0.093881011 -0.034832235 2.3509509e-38
-0.078541525 -0.093218774 -0.031892892 2.3325478e-38
-0.076206647 -0.091629088 -0.024837133 2.3509873e-38
-0.074156366 -0.090954214 -0.021841761 2.2771953e-38
-0.072303019 -0.090954214 -0.021841761 2.3508441e-38
-0.070269518 -0.090283155 -0.018863317 2.3509883e-38
-0.068421401 -0.090283155 -0.018863317 2.2770881e-38
-0.066742994 -0.090954214 -0.021841761 2.3509168e-38
-0.064889662 -0.090954214 -0.021841761 2.3509886e-38
-0.063036315 -0.090954214 -0.021841761 2.3509886e-38
-0.061182983 -0.090954214 -0.021841761 2.3509886e-38
-0.059329636 -0.090954214 -0.021841761 2.3509886e-38
-0.057476297 -0.090954214 -0.021841761 2.3509886e-38
-0.055762134 -0.091629088 -0.024837133 2.3509886e-38
-0.053903542 -0.091629088 -0.024837133 2.3509886e-38
-0.05204495 -0.091629088 -0.024837133 2.3509886e-38
-0.050186358 -0.091629088 -0.024837133 2.3509886e-38
-0.048327763 -0.091629088 -0.024837133 2.3509886e-38
-0.046582729 -0.092307791 -0.027849551 2.3509886e-38
-0.044718858 -0.092307791 -0.027849551 2.3509886e-38
-0.042854983 -0.092307791 -0.027849551 2.3509886e-38
-0.041122261 -0.093218774 -0.031892892 2.3509886e-38
-0.039341487 -0.093881011 -0.034832235 2.3509886e-38
-0.037670046 -0.095475003 -0.041907068 2.3509886e-38
-0.035781525 -0.095475003 -0.041907068 2.3509886e-38
-0.034146473 -0.097721294 -0.051877137 2.3509886e-38
-0.032240473 -0.097721294 -0.051877137 2.3509886e-38
-0.030398749 -0.098382086 -0.054810043 2.3509886e-38
-0.028487604 -0.098382086 -0.054810043 2.3509886e-38
-0.026576459 -0.098382086 -0.054810043 2.3509886e-38
-0.024665318 -0.098382086 -0.054810043 2.3509886e-38
-0.02275417 -0.098382086 -0.054810043 2.3509886e-38
-0.020843025 -0.098382086 -0.054810043 2.3509886e-38
-0.018977635 -0.099286526 -0.058824416 2.3509886e-38
-0.017059449 -0.099286526 -0.058824416 2.3509886e-38
-0.015141268 -0.099286526 -0.058824416 2.3509886e-38
-0.013242044 -0.099982664 -0.061914202 2.3509886e-38
-0.011304901 -0.099286526 -0.058824416 2.3509886e-38
-0.0093867173 -0.099286526 -0.058824416 2.3509886e-38
-0.0074685337 -0.099286526 -0.058824416 2.3509886e-38
-0.0055503519 -0.099286526 -0.058824416 2.3509886e-38
-0.0036321683 -0.099286526 -0.058824416 2.3509886e-38
-0.0017139846 -0.099286526 -0.058824416 2.3509886e-38
0.00020419806 -0.099286526 -0.058824416 2.3509886e-38
0.00214676 -0.099982664 -0.061914202 2.3509886e-38
0.0040703602 -0.099982664 -0.061914202 2.3509886e-38
0.0059939614 -0.099982664 -0.061914202 2.3509886e-38
0.0079175616 -0.099982664 -0.061914202 2.3509886e-38
0.0098411618 -0.099982664 -0.061914202 2.3509886e-38
0.011830502 -0.10087189 -0.065860987 2.3509883e-38
0.013688364 -0.099982664 -0.061914202 2.3509886e-38
0.015611964 -0.099982664 -0.061914202 2.3509883e-38
0.017535564 -0.099982664 -0.061914202 2.3509883e-38
0.019459166 -0.099982664 -0.061914202 2.3509883e-38
0.021382764 -0.099982664 -0.061914202 2.3509883e-38
0.023306366 -0.099982664 -0.061914202 2.3509883e-38
0.02514058 -0.099286526 -0.058824416 2.3509883e-38
0.027058762 -0.099286526 -0.058824416 2.3509883e-38
0.028976947 -0.099286526 -0.058824416 2.3509883e-38
0.030895129 -0.099286526 -0.058824416 2.3509883e-38
0.032813314 -0.099286526 -0.058824416 2.3509883e-38
0.034731496 -0.099286526 -0.058824416 2.3509886e-38
0.036771569 -0.099982664 -0.061914202 2.3509886e-38
0.038695171 -0.099982664 -0.061914202 2.3509886e-38
0.040618774 -0.099982664 -0.061914202 2.3509886e-38
0.042542372 -0.099982664 -0.061914202 2.3509886e-38
0.044465974 -0.099982664 -0.061914202 2.3509886e-38
0.046240594 -0.099286526 -0.058824416 2.3509527e-38
0.048158776 -0.099286526 -0.058824416 2.3509527e-38
0.050076962 -0.099286526 -0.058824416 2.3509527e-38
0.051995143 -0.099286526 -0.058824416 2.3509527e-38
0.053691614 -0.098382086 -0.054810043 2.3509527e-38
0.055602759 -0.098382086 -0.054810043 2.3509883e-38
0.057513904 -0.098382086 -0.054810043 2.350988e-38
0.059425045 -0.098382086 -0.054810043 2.3509883e-38
0.060964812 -0.097037792 -0.048843499 2.3509883e-38
0.062865496 -0.097037792 -0.048843499 2.3509527e-38
0.064766176 -0.097037792 -0.048843499 2.3509886e-38
0.066666864 -0.097037792 -0.048843499 2.3509886e-38
0.068567544 -0.097037792 -0.048843499 2.3509886e-38
0.070468225 -0.097037792 -0.048843499 2.3509886e-38
0.072368912 -0.097037792 -0.048843499 9.5883483e-39
0.074269593 -0.097037792 -0.048843499 2.4896477e-39
-0.08249218 -0.095757127 -0.034832235 1.9452537e-38
-0.080412485 -0.095089734 -0.031892892 2.3140362e-38
-0.077863045 -0.092807561 -0.021841761 2.3324756e-38
-0.076009698 -0.092807561 -0.021841761 2.3324757e-38
-0.073965751 -0.092131287 -0.018863317 2.3509876e-38
-0.072117634 -0.092131287 -0.018863317 2.3509879e-38
-0.070269518 -0.092131287 -0.018863317 2.3231854e-38
-0.068421401 -0.092131287 -0.018863317 2.3509527e-38
-0.066573277 -0.092131287 -0.018863317 2.3509527e-38
-0.064725161 -0.092131287 -0.018863317 2.3509527e-38
-0.062877037 -0.092131287 -0.018863317 2.3509886e-38
-0.060819209 -0.091210663 -0.01480877 2.3509886e-38
-0.0589782 -0.091210663 -0.01480877 2.3509886e-38
-0.057332687 -0.092131287 -0.018863317 2.3509886e-38
-0.055484571 -0.092131287 -0.018863317 2.3509886e-38
-0.053769618 -0.092807561 -0.021841761 2.3509886e-38
-0.051916279 -0.092807561 -0.021841761 2.3509886e-38
-0.050062932 -0.092807561 -0.021841761 2.3509886e-38
-0.048209596 -0.092807561 -0.021841761 2.3509886e-38
-0.046469171 -0.09348768 -0.024837133 2.3509886e-38
-0.044718858 -0.094171658 -0.027849551 2.3509886e-38
-0.042854983 -0.094171658 -0.027849551 2.3509886e-38
-0.041122261 -0.095089734 -0.031892892 2.3509886e-38
-0.039251298 -0.095089734 -0.031892892 2.3509886e-38
-0.037554171 -0.096454084 -0.037901755 2.3509886e-38
-0.035672672 -0.096454084 -0.037901755 2.3509886e-38
-0.034146473 -0.099627286 -0.051877137 2.3509886e-38
-0.032240473 -0.099627286 -0.051877137 2.3509886e-38
-0.030334473 -0.099627286 -0.051877137 2.3509886e-38
-0.028428465 -0.099627286 -0.051877137 2.3509886e-38
-0.026522465 -0.099627286 -0.051877137 2.3509886e-38
-0.024616465 -0.099627286 -0.051877137 2.3509886e-38
-0.022710461 -0.099627286 -0.051877137 2.3509886e-38
-0.020804457 -0.099627286 -0.051877137 2.3509886e-38
-0.018931881 -0.10029322 -0.054810043 2.3509886e-38
-0.017020736 -0.10029322 -0.054810043 2.3509886e-38
-0.015109594 -0.10029322 -0.054810043 2.3509886e-38
-0.013198449 -0.10029322 -0.054810043 2.3509886e-38
-0.011304901 -0.10120471 -0.058824416 2.3509886e-38
-0.0093761599 -0.10029322 -0.054810043 2.3509886e-38
-0.0074650152 -0.10029322 -0.054810043 2.3509886e-38
-0.0055538705 -0.10029322 -0.054810043 2.3509886e-38
-0.0036427258 -0.10029322 -0.054810043 2.3509886e-38
-0.0017315811 -0.10029322 -0.054810043 2.3509886e-38
0.00020419806 -0.10120471 -0.058824416 2.3509886e-38
0.0021223817 -0.10120471 -0.058824416 2.3509886e-38
0.0040703602 -0.10190627 -0.061914202 2.3509886e-38
0.0059939614 -0.10190627 -0.061914202 2.3509886e-38
0.0078769308 -0.10120471 -0.058824416 2.3509886e-38
0.0097951135 -0.10120471 -0.058824416 2.3509886e-38
0.011764762 -0.10190627 -0.061914202 2.3509886e-38
0.013631481 -0.10120471 -0.058824416 2.3509886e-38
0.015549663 -0.10120471 -0.058824416 2.3509886e-38
0.017467845 -0.10120471 -0.058824416 2.3509886e-38
0.019386031 -0.10120471 -0.058824416 2.3509886e-38
0.021304213 -0.10120471 -0.058824416 2.3509886e-38
0.023222394 -0.10120471 -0.058824416 2.3509886e-38
0.02514058 -0.10120471 -0.058824416 2.3509886e-38
0.027058762 -0.10120471 -0.058824416 2.3509886e-38
0.028976947 -0.10120471 -0.058824416 2.3509886e-38
0.030895129 -0.10120471 -0.058824416 2.3509886e-38
0.032813314 -0.10120471 -0.058824416 2.3509886e-38
0.034731496 -0.10120471 -0.058824416 2.3509886e-38
0.036649678 -0.10120471 -0.058824416 2.3509886e-38
0.038567863 -0.10120471 -0.058824416 2.3509886e-38
0.040486045 -0.10120471 -0.058824416 2.3509886e-38
0.042224746 -0.10029322 -0.054810043 2.3509886e-38
0.044135891 -0.10029322 -0.054810043 2.3509886e-38
0.046047036 -0.10029322 -0.054810043 2.3509886e-38
0.04795818 -0.10029322 -0.054810043 2.3509886e-38
0.049869325 -0.10029322 -0.054810043 2.3509886e-38
0.05178047 -0.10029322 -0.054810043 2.3509886e-38
0.053529628 -0.099627286 -0.051877137 2.3509886e-38
0.055435631 -0.099627286 -0.051877137 2.3509886e-38
0.057341632 -0.099627286 -0.051877137 2.3509886e-38
0.059247639 -0.099627286 -0.051877137 2.3509886e-38
0.060964812 -0.09893848 -0.048843499 2.3509886e-38
0.062865496 -0.09893848 -0.048843499 2.3509886e-38
0.064766176 -0.09893848 -0.048843499 2.3509886e-38
0.066666864 -0.09893848 -0.048843499 2.3509886e-38
0.068567544 -0.09893848 -0.048843499 2.3509886e-38
0.070468225 -0.09893848 -0.048843499 2.2219147e-38
0.072368912 -0.09893848 -0.048843499 1.392154e-38
0.074269593 -0.09893848 -0.048843499 1.2262019e-38
0.077771403 -0.10370506 -0.069836378 1.6779605e-38
-0.08249218 -0.097633243 -0.034832235 1.6317888e-38
-0.079923831 -0.095346272 -0.024837133 1.8622779e-38
-0.077661984 -0.093979403 -0.018863317 2.3509869e-38
-0.075813867 -0.093979403 -0.018863317 2.2863779e-38
-0.073965751 -0.093979403 -0.018863317 2.3509516e-38
-0.072117634 -0.093979403 -0.018863317 2.3509879e-38
-0.070024259 -0.093051672 -0.01480877 2.3047463e-38
-0.068183243 -0.093051672 -0.01480877 2.3509524e-38
-0.066342235 -0.093051672 -0.01480877 2.3140384e-38
-0.064501226 -0.093051672 -0.01480877 2.3509527e-38
-0.062877037 -0.093979403 -0.018863317 2.3509886e-38
-0.060819209 -0.093051672 -0.01480877 2.3509886e-38
-0.0589782 -0.093051672 -0.01480877 2.3509886e-38
-0.057137191 -0.093051672 -0.01480877 2.3509886e-38
-0.055296183 -0.093051672 -0.01480877 2.3509886e-38
-0.053636454 -0.093979403 -0.018863317 2.3509886e-38
-0.051788338 -0.093979403 -0.018863317 2.3509886e-38
-0.050062932 -0.094660893 -0.021841761 2.3509886e-38
-0.048209596 -0.094660893 -0.021841761 2.3509886e-38
-0.046469171 -0.095346272 -0.024837133 2.3509886e-38
-0.044610579 -0.095346272 -0.024837133 2.3509886e-38
-0.042854983 -0.09603554 -0.027849551 2.3509886e-38
-0.041122261 -0.096960694 -0.031892892 2.3509886e-38
-0.039251298 -0.096960694 -0.031892892 2.3509886e-38
-0.037554171 -0.098335579 -0.037901755 2.3509886e-38
-0.035672672 -0.098335579 -0.037901755 2.3509886e-38
