# .PCD v0.7 - Point Cloud Data file format
VERSION 0.7
FIELDS x y z rgb
SIZE 4 4 4 4
TYPE F F F F
COUNT 1 1 1 1
WIDTH 929
HEIGHT 1
VIEWPOINT 0 0 0 1 0 0 0
POINTS 929
DATA ascii
0.086349703 -0.10205424 -0.019197039 2.3234376e-38
0.097070329 -0.10205424 -0.019197039 2.3046398e-38
-0.1086771 -0.11393218 -0.060160927 2.3509886e-38
-0.10589539 -0.11146177 -0.050132565 2.3509886e-38
-0.10405438 -0.11146177 -0.050132565 2.3509886e-38
-0.10221338 -0.11146177 -0.050132565 2.3509886e-38
-0.10072426 -0.11246057 -0.054187112 2.3509886e-38
-0.098531358 -0.11146177 -0.050132565 2.3509886e-38
-0.096445568 -0.11073773 -0.04719346 2.3509886e-38
-0.094116978 -0.10924892 -0.041149788 2.3509527e-38
-0.09229172 -0.10924892 -0.041149788 2.3509527e-38
-0.090466462 -0.10924892 -0.041149788 2.3509527e-38
-0.086740099 -0.1031086 -0.01622396 2.3509527e-38
-0.084958546 -0.1031086 -0.01622396 2.3509527e-38
-0.082954518 -0.10235542 -0.01316648 2.3509527e-38
-0.08117833 -0.10235542 -0.01316648 2.3509527e-38
-0.078989379 -0.1008873 -0.0072068498 2.3509527e-38
-0.077223636 -0.1008873 -0.0072068498 2.3509527e-38
-0.0750641 -0.099411905 -0.0012176558 2.3509527e-38
-0.073308863 -0.099411905 -0.0012176558 2.3509168e-38
-0.07155361 -0.099411905 -0.0012176558 2.3509168e-38
-0.069798373 -0.099411905 -0.0012176558 2.3509168e-38
-0.06804312 -0.099411905 -0.0012176558 2.3509168e-38
-0.066287883 -0.099411905 -0.0012176558 2.3509168e-38
-0.06453263 -0.099411905 -0.0012176558 2.3509168e-38
-0.062777393 -0.099411905 -0.0012176558 2.3509168e-38
-0.06102214 -0.099411905 -0.0012176558 2.3509168e-38
-0.059113659 -0.098656476 0.0018489435 2.3509527e-38
-0.057363793 -0.098656476 0.0018489435 2.3509527e-38
-0.055613928 -0.098656476 0.0018489435 2.341805e-38
-0.053864054 -0.098656476 0.0018489435 2.341805e-38
-0.052114189 -0.098656476 0.0018489435 2.3234379e-38
-0.050242782 -0.09792982 0.0047987178 2.3234379e-38
-0.048498083 -0.09792982 0.0047987178 2.3234376e-38
-0.046753388 -0.09792982 0.0047987178 2.3418047e-38
-0.045008693 -0.09792982 0.0047987178 2.3418045e-38
-0.043263994 -0.09792982 0.0047987178 2.350988e-38
-0.041421019 -0.097183421 0.0078286007 2.3509879e-38
-0.039681636 -0.097183421 0.0078286007 2.3509879e-38
-0.037942253 -0.097183421 0.0078286007 2.350988e-38
-0.03628521 -0.09792982 0.0047987178 2.3509527e-38
-0.034540512 -0.09792982 0.0047987178 2.3509886e-38
-0.032724101 -0.097183421 0.0078286007 2.3509886e-38
-0.030984715 -0.097183421 0.0078286007 2.3509886e-38
-0.029306427 -0.09792982 0.0047987178 2.3509886e-38
-0.027561732 -0.09792982 0.0047987178 2.3509886e-38
-0.025817033 -0.09792982 0.0047987178 2.3509886e-38
-0.024072338 -0.09792982 0.0047987178 2.3509886e-38
-0.022327639 -0.09792982 0.0047987178 2.3509886e-38
-0.020548414 -0.097183421 0.0078286007 2.3509886e-38
-0.018809028 -0.097183421 0.0078286007 2.3509886e-38
-0.017069645 -0.097183421 0.0078286007 2.3509886e-38
-0.015330262 -0.097183421 0.0078286007 2.3509886e-38
-0.013590879 -0.097183421 0.0078286007 2.3509886e-38
-0.011843574 -0.096441552 0.010840125 2.3509886e-38
-0.01010947 -0.096441552 0.010840125 2.3509886e-38
-0.0083753662 -0.096441552 0.010840125 2.3509886e-38
-0.0066412622 -0.096441552 0.010840125 2.3509883e-38
-0.0049071601 -0.096441552 0.010840125 2.3509886e-38
-0.0031730561 -0.096441552 0.010840125 2.3509883e-38
-0.0014389521 -0.096441552 0.010840125 2.3509886e-38
0.00029515196 -0.096441552 0.010840125 2.3509883e-38
0.002029255 -0.096441552 0.010840125 2.3509886e-38
0.0038029607 -0.097183421 0.0078286007 2.3509883e-38
0.0055423444 -0.097183421 0.0078286007 2.3509886e-38
0.0072817272 -0.097183421 0.0078286007 2.3509883e-38
0.0090211118 -0.097183421 0.0078286007 2.3509886e-38
0.010760496 -0.097183421 0.0078286007 2.3509883e-38
0.012499879 -0.097183421 0.0078286007 2.3509886e-38
0.014239264 -0.097183421 0.0078286007 2.3509883e-38
0.015978646 -0.097183421 0.0078286007 2.3509886e-38
0.017718032 -0.097183421 0.0078286007 2.3509883e-38
0.019545071 -0.09792982 0.0047987178 2.3509886e-38
0.021289766 -0.09792982 0.0047987178 2.3509883e-38
0.023130141 -0.098656476 0.0018489435 2.3509886e-38
0.024880011 -0.098656476 0.0018489435 2.3509883e-38
0.026629876 -0.098656476 0.0018489435 2.3509886e-38
0.028379746 -0.098656476 0.0018489435 2.3509883e-38
0.030129615 -0.098656476 0.0018489435 2.3509886e-38
0.032005835 -0.099411905 -0.0012176558 2.3509886e-38
0.03376108 -0.099411905 -0.0012176558 2.3509886e-38
0.035516325 -0.099411905 -0.0012176558 2.3509886e-38
0.03727157 -0.099411905 -0.0012176558 2.3509886e-38
0.039170776 -0.10014741 -0.0042033717 2.3509886e-38
0.040931258 -0.10014741 -0.0042033717 2.3509886e-38
0.042691737 -0.10014741 -0.0042033717 2.3509886e-38
0.044452216 -0.10014741 -0.0042033717 2.3509886e-38
0.046212696 -0.10014741 -0.0042033717 2.3509886e-38
0.047973178 -0.10014741 -0.0042033717 2.3509527e-38
0.049733657 -0.10014741 -0.0042033717 2.3509527e-38
0.051675815 -0.1008873 -0.0072068498 2.3509527e-38
0.053623345 -0.10160676 -0.010127358 2.3509527e-38
0.055588704 -0.10235542 -0.01316648 2.3509527e-38
0.0573649 -0.10235542 -0.01316648 2.3509527e-38
0.059347484 -0.1031086 -0.01622396 2.3509527e-38
0.061129045 -0.1031086 -0.01622396 2.3509527e-38
0.062693492 -0.10235542 -0.01316648 2.3509886e-38
0.064469688 -0.10235542 -0.01316648 2.3509886e-38
0.066245876 -0.10235542 -0.01316648 2.3509886e-38
0.068022072 -0.10235542 -0.01316648 2.3509886e-38
0.069798268 -0.10235542 -0.01316648 2.3509527e-38
0.071574464 -0.10235542 -0.01316648 2.3509886e-38
0.073350661 -0.10235542 -0.01316648 2.3509527e-38
0.075126849 -0.10235542 -0.01316648 2.3509886e-38
0.077163048 -0.1031086 -0.01622396 2.3509886e-38
0.078944601 -0.1031086 -0.01622396 2.341805e-38
0.080726154 -0.1031086 -0.01622396 2.3418047e-38
0.082776166 -0.10384102 -0.019197039 2.3234376e-38
0.084562935 -0.10384102 -0.019197039 2.3418045e-38
0.086349703 -0.10384102 -0.019197039 2.350988e-38
0.088136472 -0.10384102 -0.019197039 2.350988e-38
-0.10490327 -0.10116716 -0.0012176558 2.3509886e-38
-0.10314802 -0.10116716 -0.0012176558 2.3509886e-38
-0.10562485 -0.11257361 -0.04719346 2.3509886e-38
-0.10378899 -0.11257361 -0.04719346 2.3509886e-38
-0.10195314 -0.11257361 -0.04719346 2.3509886e-38
-0.10037237 -0.11330278 -0.050132565 2.3509886e-38
-0.09802372 -0.11182173 -0.044162922 2.3509886e-38
-0.094865553 -0.10786678 -0.028221779 2.3509527e-38
-0.092570998 -0.10636975 -0.022187643 2.3509527e-38
-0.090778984 -0.10636975 -0.022187643 2.3509527e-38
-0.088521667 -0.10489015 -0.01622396 2.3509527e-38
-0.086506911 -0.10413162 -0.01316648 2.3509527e-38
-0.084730707 -0.10413162 -0.01316648 2.3509527e-38
-0.082733385 -0.10337763 -0.010127358 2.3509527e-38
-0.080755137 -0.10265306 -0.0072068498 2.3509527e-38
-0.078781374 -0.10190789 -0.0042033717 2.3509527e-38
-0.077020891 -0.10190789 -0.0042033717 2.3509527e-38
-0.0750641 -0.10116716 -0.0012176558 2.3509527e-38
-0.073308863 -0.10116716 -0.0012176558 2.3509527e-38
-0.07155361 -0.10116716 -0.0012176558 2.3509527e-38
-0.069798373 -0.10116716 -0.0012176558 2.3509527e-38
-0.06804312 -0.10116716 -0.0012176558 2.3509527e-38
-0.066287883 -0.10116716 -0.0012176558 2.3509527e-38
-0.06453263 -0.10116716 -0.0012176558 2.3509168e-38
-0.062777393 -0.10116716 -0.0012176558 2.3509527e-38
-0.060863532 -0.10040633 0.0018489435 2.3509527e-38
-0.059113659 -0.10040633 0.0018489435 2.3509886e-38
-0.057363793 -0.10040633 0.0018489435 2.341805e-38
-0.055613928 -0.10040633 0.0018489435 2.3234379e-38
-0.053864054 -0.10040633 0.0018489435 2.3234379e-38
-0.051987477 -0.099674508 0.0047987178 2.3234379e-38
-0.05011794 -0.098922804 0.0078286007 2.3234379e-38
-0.048378553 -0.098922804 0.0078286007 2.3234379e-38
-0.04663917 -0.098922804 0.0078286007 2.341805e-38
-0.045008693 -0.099674508 0.0047987178 2.341805e-38
-0.043263994 -0.099674508 0.0047987178 2.3509886e-38
-0.041323338 -0.09817566 0.010840125 2.3509886e-38
-0.039589234 -0.09817566 0.010840125 2.3509527e-38
-0.037855126 -0.09817566 0.010840125 2.3509527e-38
-0.03620287 -0.098922804 0.0078286007 2.3509527e-38
-0.034463484 -0.098922804 0.0078286007 2.3509886e-38
-0.032724101 -0.098922804 0.0078286007 2.3509886e-38
-0.030984715 -0.098922804 0.0078286007 2.3509886e-38
-0.029245332 -0.098922804 0.0078286007 2.3509886e-38
-0.027505949 -0.098922804 0.0078286007 2.3509886e-38
-0.025766566 -0.098922804 0.0078286007 2.3509886e-38
-0.024027184 -0.098922804 0.0078286007 2.3509886e-38
-0.022287797 -0.098922804 0.0078286007 2.3509886e-38
-0.020548414 -0.098922804 0.0078286007 2.3509886e-38
-0.018809028 -0.098922804 0.0078286007 2.3509886e-38
-0.017069645 -0.098922804 0.0078286007 2.3509886e-38
-0.015330262 -0.098922804 0.0078286007 2.3509886e-38
-0.013590879 -0.098922804 0.0078286007 2.3509886e-38
-0.011843574 -0.09817566 0.010840125 2.3509886e-38
-0.01010947 -0.09817566 0.010840125 2.3509886e-38
-0.0083753662 -0.09817566 0.010840125 2.3509883e-38
-0.0066412622 -0.09817566 0.010840125 2.3509883e-38
-0.0049071601 -0.09817566 0.010840125 2.3509883e-38
-0.0031730561 -0.09817566 0.010840125 2.3509883e-38
-0.0014389521 -0.09817566 0.010840125 2.3509883e-38
0.00029515196 -0.09817566 0.010840125 2.3509883e-38
0.002029255 -0.09817566 0.010840125 2.3509883e-38
0.0038029607 -0.098922804 0.0078286007 2.3509883e-38
0.0055423444 -0.098922804 0.0078286007 2.3509883e-38
0.0072817272 -0.098922804 0.0078286007 2.3509883e-38
0.0090211118 -0.098922804 0.0078286007 2.3509883e-38
0.010760496 -0.098922804 0.0078286007 2.3509883e-38
0.012499879 -0.098922804 0.0078286007 2.3509883e-38
0.014310981 -0.099674508 0.0047987178 2.3509883e-38
0.016055677 -0.099674508 0.0047987178 2.3509883e-38
0.017800372 -0.099674508 0.0047987178 2.3509883e-38
0.019545071 -0.099674508 0.0047987178 2.3509883e-38
0.021474369 -0.10116716 -0.0012176558 2.350988e-38
0.02332646 -0.10190789 -0.0042033717 2.3509883e-38
0.025086939 -0.10190789 -0.0042033717 2.3509883e-38
0.026847418 -0.10190789 -0.0042033717 2.3509883e-38
0.028607897 -0.10190789 -0.0042033717 2.3509883e-38
0.030486867 -0.10265306 -0.0072068498 2.3509883e-38
0.03225261 -0.10265306 -0.0072068498 2.3509883e-38
0.033889338 -0.10190789 -0.0042033717 2.3509886e-38
0.035649817 -0.10190789 -0.0042033717 2.3509886e-38
0.037410296 -0.10190789 -0.0042033717 2.3509886e-38
0.039315596 -0.10265306 -0.0072068498 2.3509886e-38
0.041081339 -0.10265306 -0.0072068498 2.3509886e-38
0.042847086 -0.10265306 -0.0072068498 2.3509886e-38
0.044452216 -0.10190789 -0.0042033717 2.3509886e-38
0.046212696 -0.10190789 -0.0042033717 2.3509886e-38
0.048144326 -0.10265306 -0.0072068498 2.3509527e-38
0.050081611 -0.10337763 -0.010127358 2.3509527e-38
0.05185248 -0.10337763 -0.010127358 2.3509527e-38
0.053812508 -0.10413162 -0.01316648 2.3509527e-38
0.055588704 -0.10413162 -0.01316648 2.3509527e-38
0.0573649 -0.10413162 -0.01316648 2.3509527e-38
0.059347484 -0.10489015 -0.01622396 2.3509527e-38
0.061129045 -0.10489015 -0.01622396 2.3509527e-38
0.062693492 -0.10413162 -0.01316648 2.3509886e-38
0.064469688 -0.10413162 -0.01316648 2.3509886e-38
0.066245876 -0.10413162 -0.01316648 2.3509886e-38
0.067790285 -0.10337763 -0.010127358 2.3509886e-38
0.069561146 -0.10337763 -0.010127358 2.3509886e-38
0.071332015 -0.10337763 -0.010127358 2.3509886e-38
0.073102884 -0.10337763 -0.010127358 2.3509527e-38
0.075126849 -0.10413162 -0.01316648 2.341805e-38
0.076903053 -0.10413162 -0.01316648 2.341805e-38
0.078679241 -0.10413162 -0.01316648 2.341805e-38
0.080455445 -0.10413162 -0.01316648 2.3509886e-38
0.082507707 -0.10489015 -0.01622396 2.3509883e-38
0.084289275 -0.10489015 -0.01622396 2.350988e-38
0.086070828 -0.10489015 -0.01622396 2.350988e-38
0.087560214 -0.10413162 -0.01316648 2.3509521e-38
0.089336418 -0.10413162 -0.01316648 2.350988e-38
0.091415487 -0.10489015 -0.01622396 2.350988e-38
0.093496792 -0.10562779 -0.019197039 2.3233652e-38
-0.10900707 -0.1044188 -0.0072068498 2.350988e-38
-0.10694905 -0.10366838 -0.0042033717 2.3509886e-38
-0.10490327 -0.10292239 -0.0012176558 2.3509886e-38
-0.10314802 -0.10292239 -0.0012176558 2.3509886e-38
-0.10139278 -0.10292239 -0.0012176558 2.3509886e-38
-0.099637531 -0.10292239 -0.0012176558 2.3509886e-38
-0.098146655 -0.10366838 -0.0042033717 2.3509886e-38
-0.096386172 -0.10366838 -0.0042033717 2.3509886e-38
-0.096410833 -0.10891335 -0.025195889 2.3509886e-38
-0.094613545 -0.10891335 -0.025195889 2.3509886e-38
-0.09232717 -0.10741456 -0.019197039 2.3509886e-38
-0.090540402 -0.10741456 -0.019197039 2.3509527e-38
-0.088283099 -0.10590781 -0.01316648 2.3509886e-38
-0.086506911 -0.10590781 -0.01316648 2.3509886e-38
-0.084504254 -0.10514848 -0.010127358 2.3509886e-38
-0.082733385 -0.10514848 -0.010127358 2.3509886e-38
-0.080541857 -0.10366838 -0.0042033717 2.3509883e-38
-0.078781374 -0.10366838 -0.0042033717 2.3509883e-38
-0.077020891 -0.10366838 -0.0042033717 2.3509883e-38
-0.0750641 -0.10292239 -0.0012176558 2.350988e-38
-0.073308863 -0.10292239 -0.0012176558 2.350988e-38
-0.07155361 -0.10292239 -0.0012176558 2.350988e-38
-0.069798373 -0.10292239 -0.0012176558 2.3509879e-38
-0.06804312 -0.10292239 -0.0012176558 2.3509879e-38
-0.066113137 -0.10215621 0.0018489435 2.3509879e-38
-0.064363264 -0.10215621 0.0018489435 2.3509521e-38
-0.062613398 -0.10215621 0.0018489435 2.3509883e-38
-0.060863532 -0.10215621 0.0018489435 2.3509883e-38
-0.058966257 -0.10141921 0.0047987178 2.3509883e-38
-0.057221569 -0.10141921 0.0047987178 2.341805e-38
-0.055476867 -0.10141921 0.0047987178 2.3234379e-38
-0.053732172 -0.10141921 0.0047987178 2.3234379e-38
-0.051987477 -0.10141921 0.0047987178 2.3142544e-38
-0.05011794 -0.10066219 0.0078286007 2.3142544e-38
-0.048378553 -0.10066219 0.0078286007 2.3142544e-38
-0.04663917 -0.10066219 0.0078286007 2.3234379e-38
-0.045008693 -0.10141921 0.0047987178 2.341805e-38
-0.043160405 -0.10066219 0.0078286007 2.3509527e-38
-0.041323338 -0.099909768 0.010840125 2.3509527e-38
-0.039589234 -0.099909768 0.010840125 2.3509168e-38
-0.037855126 -0.099909768 0.010840125 2.3509527e-38
-0.03620287 -0.10066219 0.0078286007 2.3509527e-38
-0.034463484 -0.10066219 0.0078286007 2.3509886e-38
-0.032652818 -0.099909768 0.010840125 2.3509886e-38
-0.030918714 -0.099909768 0.010840125 2.3509886e-38
-0.02918461 -0.099909768 0.010840125 2.3509886e-38
-0.027450509 -0.099909768 0.010840125 2.3509886e-38
-0.025766566 -0.10066219 0.0078286007 2.3509886e-38
-0.024027184 -0.10066219 0.0078286007 2.3509886e-38
-0.022287797 -0.10066219 0.0078286007 2.3509886e-38
-0.020548414 -0.10066219 0.0078286007 2.3509886e-38
-0.018809028 -0.10066219 0.0078286007 2.3509886e-38
-0.017069645 -0.10066219 0.0078286007 2.3509886e-38
-0.015330262 -0.10066219 0.0078286007 2.3509886e-38
-0.013590879 -0.10066219 0.0078286007 2.3509886e-38
-0.011843574 -0.099909768 0.010840125 2.3509886e-38
-0.01010947 -0.099909768 0.010840125 2.3509886e-38
-0.0083753662 -0.099909768 0.010840125 2.3509883e-38
-0.0066412622 -0.099909768 0.010840125 2.3509883e-38
-0.0049071601 -0.099909768 0.010840125 2.3509883e-38
-0.0031730561 -0.099909768 0.010840125 2.3509883e-38
-0.0014389521 -0.099909768 0.010840125 2.3509883e-38
0.00032419246 -0.10066219 0.0078286007 2.3509883e-38
0.0020635761 -0.10066219 0.0078286007 2.3509883e-38
0.0038029607 -0.10066219 0.0078286007 2.3509883e-38
0.0055423444 -0.10066219 0.0078286007 2.3509883e-38
0.0073321955 -0.10141921 0.0047987178 2.3509883e-38
0.0090768924 -0.10141921 0.0047987178 2.3509883e-38
0.010821587 -0.10141921 0.0047987178 2.3509883e-38
0.012566284 -0.10141921 0.0047987178 2.3509883e-38
0.014310981 -0.10141921 0.0047987178 2.3509883e-38
0.016130671 -0.10215621 0.0018489435 2.3509883e-38
0.017963879 -0.10292239 -0.0012176558 2.3509883e-38
0.019719124 -0.10292239 -0.0012176558 2.350988e-38
0.021747746 -0.10514848 -0.010127358 2.3509879e-38
0.023518614 -0.10514848 -0.010127358 2.350988e-38
0.02528948 -0.10514848 -0.010127358 2.350988e-38
0.027060345 -0.10514848 -0.010127358 2.350988e-38
0.028831214 -0.10514848 -0.010127358 2.350988e-38
0.030602079 -0.10514848 -0.010127358 2.350988e-38
0.03225261 -0.1044188 -0.0072068498 2.350988e-38
0.033889338 -0.10366838 -0.0042033717 2.3509883e-38
0.035649817 -0.10366838 -0.0042033717 2.3509883e-38
0.03754985 -0.1044188 -0.0072068498 2.3509886e-38
0.039315596 -0.1044188 -0.0072068498 2.3509886e-38
0.041081339 -0.1044188 -0.0072068498 2.3509886e-38
0.042847086 -0.1044188 -0.0072068498 2.3509886e-38
0.044612832 -0.1044188 -0.0072068498 2.3509886e-38
0.046378579 -0.1044188 -0.0072068498 2.3509886e-38
0.048310746 -0.10514848 -0.010127358 2.3509527e-38
0.050260119 -0.10590781 -0.01316648 2.3509527e-38
0.052036315 -0.10590781 -0.01316648 2.3509527e-38
0.053812508 -0.10590781 -0.01316648 2.3509527e-38
0.055588704 -0.10590781 -0.01316648 2.3509527e-38
0.0573649 -0.10590781 -0.01316648 2.3509527e-38
0.059141096 -0.10590781 -0.01316648 2.3509886e-38
0.060917292 -0.10590781 -0.01316648 2.3509886e-38
0.062477674 -0.10514848 -0.010127358 2.3509527e-38
0.064036041 -0.1044188 -0.0072068498 2.3509527e-38
0.065801792 -0.1044188 -0.0072068498 2.341805e-38
0.067567535 -0.1044188 -0.0072068498 2.341805e-38
0.069333278 -0.1044188 -0.0072068498 2.341805e-38
0.071099028 -0.1044188 -0.0072068498 2.341805e-38
0.072864771 -0.1044188 -0.0072068498 2.341805e-38
0.074873738 -0.10514848 -0.010127358 2.341805e-38
0.076644607 -0.10514848 -0.010127358 2.341805e-38
0.078415476 -0.10514848 -0.010127358 2.3509886e-38
0.080186345 -0.10514848 -0.010127358 2.3509527e-38
0.082231633 -0.10590781 -0.01316648 2.3509165e-38
0.084007822 -0.10590781 -0.01316648 2.3509163e-38
0.085498936 -0.10514848 -0.010127358 2.3509521e-38
0.087269805 -0.10514848 -0.010127358 2.3509879e-38
0.089336418 -0.10590781 -0.01316648 2.3418043e-38
0.091112606 -0.10590781 -0.01316648 2.1577366e-38
0.09288881 -0.10590781 -0.01316648 2.2775196e-38
0.094353281 -0.10514848 -0.010127358 2.2591528e-38
0.09612415 -0.10514848 -0.010127358 2.2775202e-38
0.09821739 -0.10590781 -0.01316648 2.3234379e-38
0.10032327 -0.10667174 -0.01622396 2.3509168e-38
0.10210484 -0.10667174 -0.01622396 2.3508092e-38
0.10388639 -0.10667174 -0.01622396 2.3507016e-38
-0.11314984 -0.107684 -0.01316648 2.3233648e-38
-0.11106724 -0.10691936 -0.010127358 2.350988e-38
-0.10900707 -0.10618456 -0.0072068498 2.3509883e-38
-0.10694905 -0.10542886 -0.0042033717 2.3509886e-38
-0.10518857 -0.10542886 -0.0042033717 2.3509886e-38
-0.10342809 -0.10542886 -0.0042033717 2.3509886e-38
-0.10139278 -0.10467763 -0.0012176558 2.3509886e-38
-0.099637531 -0.10467763 -0.0012176558 2.3509886e-38
-0.097882293 -0.10467763 -0.0012176558 2.3509886e-38
-0.096127041 -0.10467763 -0.0012176558 2.3509886e-38
-0.09615501 -0.10995375 -0.022187643 2.3509886e-38
-0.094362997 -0.10995375 -0.022187643 2.3509886e-38
-0.09232717 -0.10920133 -0.019197039 2.341805e-38
-0.09030322 -0.10845329 -0.01622396 2.3509886e-38
-0.088283099 -0.107684 -0.01316648 2.3509886e-38
-0.086275123 -0.10691936 -0.010127358 2.3509886e-38
-0.084286623 -0.10618456 -0.0072068498 2.3509883e-38
-0.08252088 -0.10618456 -0.0072068498 2.3509883e-38
-0.080541857 -0.10542886 -0.0042033717 2.350988e-38
-0.07857459 -0.10467763 -0.0012176558 2.350988e-38
-0.076819353 -0.10467763 -0.0012176558 2.350988e-38
-0.0750641 -0.10467763 -0.0012176558 2.350988e-38
-0.0731126 -0.10390608 0.0018489435 2.350988e-38
-0.071362741 -0.10390608 0.0018489435 2.3509879e-38
-0.069612868 -0.10390608 0.0018489435 2.3509876e-38
-0.067863002 -0.10390608 0.0018489435 2.3509873e-38
-0.066113137 -0.10390608 0.0018489435 2.3509876e-38
-0.064200349 -0.10316391 0.0047987178 2.350988e-38
-0.062455654 -0.10316391 0.0047987178 2.350988e-38
-0.060863532 -0.10390608 0.0018489435 2.3509879e-38
-0.058966257 -0.10316391 0.0047987178 2.3418045e-38
-0.057075478 -0.10240157 0.0078286007 2.3234379e-38
-0.055336095 -0.10240157 0.0078286007 2.3234379e-38
-0.053596705 -0.10240157 0.0078286007 2.3142541e-38
-0.051857322 -0.10240157 0.0078286007 2.3142544e-38
-0.049993854 -0.10164386 0.010840125 2.3142544e-38
-0.04825975 -0.10164386 0.010840125 2.3142544e-38
-0.046525646 -0.10164386 0.010840125 2.3234379e-38
-0.044791542 -0.10164386 0.010840125 2.3234379e-38
-0.043057438 -0.10164386 0.010840125 2.3417691e-38
-0.041323338 -0.10164386 0.010840125 2.3509168e-38
-0.039589234 -0.10164386 0.010840125 2.3509168e-38
-0.037855126 -0.10164386 0.010840125 2.3509527e-38
-0.03620287 -0.10240157 0.0078286007 2.3509886e-38
-0.034463484 -0.10240157 0.0078286007 2.3509886e-38
-0.032652818 -0.10164386 0.010840125 2.3509883e-38
-0.030918714 -0.10164386 0.010840125 2.3509883e-38
-0.02918461 -0.10164386 0.010840125 2.3509883e-38
-0.027450509 -0.10164386 0.010840125 2.3509883e-38
-0.025766566 -0.10240157 0.0078286007 2.3509527e-38
-0.024027184 -0.10240157 0.0078286007 2.3509886e-38
-0.022287797 -0.10240157 0.0078286007 2.3509527e-38
-0.020548414 -0.10240157 0.0078286007 2.3509886e-38
-0.018809028 -0.10240157 0.0078286007 2.3509886e-38
-0.017069645 -0.10240157 0.0078286007 2.3509886e-38
-0.015330262 -0.10240157 0.0078286007 2.3509886e-38
-0.013590879 -0.10240157 0.0078286007 2.3509886e-38
-0.011851494 -0.10240157 0.0078286007 2.3509886e-38
-0.01011211 -0.10240157 0.0078286007 2.3509883e-38
-0.0083753662 -0.10164386 0.010840125 2.3509883e-38
-0.0066412622 -0.10164386 0.010840125 2.3509883e-38
-0.0049071601 -0.10164386 0.010840125 2.3509883e-38
-0.0031730561 -0.10164386 0.010840125 2.3509883e-38
-0.0014151912 -0.10240157 0.0078286007 2.3509883e-38
0.00032419246 -0.10240157 0.0078286007 2.3509883e-38
0.0020635761 -0.10240157 0.0078286007 2.3509883e-38
0.0038029607 -0.10240157 0.0078286007 2.3509883e-38
0.0055874996 -0.10316391 0.0047987178 2.3509883e-38
0.0073321955 -0.10316391 0.0047987178 2.3509883e-38
0.0090768924 -0.10316391 0.0047987178 2.3509883e-38
0.010821587 -0.10316391 0.0047987178 2.3509883e-38
0.012566284 -0.10316391 0.0047987178 2.3509883e-38
0.014310981 -0.10316391 0.0047987178 2.3509883e-38
0.016208634 -0.10467763 -0.0012176558 2.3509883e-38
0.018045019 -0.10542886 -0.0042033717 2.3509883e-38
0.019805498 -0.10542886 -0.0042033717 2.350988e-38
0.021747746 -0.10691936 -0.010127358 2.350988e-38
0.023518614 -0.10691936 -0.010127358 2.350988e-38
0.02528948 -0.10691936 -0.010127358 2.350988e-38
0.027060345 -0.10691936 -0.010127358 2.350988e-38
0.028831214 -0.10691936 -0.010127358 2.3509883e-38
0.030602079 -0.10691936 -0.010127358 2.3509883e-38
0.03225261 -0.10618456 -0.0072068498 2.3509886e-38
0.033889338 -0.10542886 -0.0042033717 2.3509527e-38
0.035649817 -0.10542886 -0.0042033717 2.3509886e-38
0.037410296 -0.10542886 -0.0042033717 2.3509527e-38
0.039170776 -0.10542886 -0.0042033717 2.3509886e-38
0.041081339 -0.10618456 -0.0072068498 2.3509527e-38
0.042847086 -0.10618456 -0.0072068498 2.3509886e-38
0.044612832 -0.10618456 -0.0072068498 2.3509883e-38
0.046378579 -0.10618456 -0.0072068498 2.3509883e-38
0.048310746 -0.10691936 -0.010127358 2.350988e-38
0.050260119 -0.107684 -0.01316648 2.3509883e-38
0.052036315 -0.107684 -0.01316648 2.3509527e-38
0.053812508 -0.107684 -0.01316648 2.3509527e-38
0.055588704 -0.107684 -0.01316648 2.3509886e-38
0.0573649 -0.107684 -0.01316648 2.3509886e-38
0.059141096 -0.107684 -0.01316648 2.3509886e-38
0.060706813 -0.10691936 -0.010127358 2.3509886e-38
0.062270295 -0.10618456 -0.0072068498 2.3509883e-38
0.064036041 -0.10618456 -0.0072068498 2.3509886e-38
0.065801792 -0.10618456 -0.0072068498 2.3509527e-38
0.067567535 -0.10618456 -0.0072068498 2.3417691e-38
0.069333278 -0.10618456 -0.0072068498 2.3509527e-38
0.071099028 -0.10618456 -0.0072068498 2.341805e-38
0.072864771 -0.10618456 -0.0072068498 2.341805e-38
0.074630521 -0.10618456 -0.0072068498 2.341805e-38
0.076396264 -0.10618456 -0.0072068498 2.341805e-38
0.078162007 -0.10618456 -0.0072068498 2.350988e-38
0.07992775 -0.10618456 -0.0072068498 2.3509873e-38
0.082231633 -0.107684 -0.01316648 2.3509866e-38
0.083728082 -0.10691936 -0.010127358 2.350986e-38
0.085498936 -0.10691936 -0.010127358 2.350986e-38
0.087269805 -0.10691936 -0.010127358 2.3509863e-38
0.089040674 -0.10691936 -0.010127358 2.3509869e-38
0.090811543 -0.10691936 -0.010127358 2.2958863e-38
0.092582412 -0.10691936 -0.010127358 2.2407847e-38
0.094353281 -0.10691936 -0.010127358 2.2591521e-38
0.09612415 -0.10691936 -0.010127358 2.2867032e-38
0.097895004 -0.10691936 -0.010127358 2.3234015e-38
0.099993579 -0.107684 -0.01316648 2.3508808e-38
0.10176978 -0.107684 -0.01316648 2.3507733e-38
0.10354597 -0.107684 -0.01316648 2.3508092e-38
-0.11492603 -0.10946019 -0.01316648 1.7608275e-38
-0.11283811 -0.10869022 -0.010127358 2.3417323e-38
-0.11106724 -0.10869022 -0.010127358 2.3232933e-38
-0.10900707 -0.10795029 -0.0072068498 2.3509883e-38
-0.10694905 -0.10718934 -0.0042033717 2.3509527e-38
-0.10490327 -0.1064329 -0.0012176558 2.3509527e-38
-0.10314802 -0.1064329 -0.0012176558 2.3509886e-38
-0.10139278 -0.1064329 -0.0012176558 2.3509886e-38
-0.099637531 -0.1064329 -0.0012176558 2.3509886e-38
-0.097882293 -0.1064329 -0.0012176558 2.3509886e-38
-0.096127041 -0.1064329 -0.0012176558 2.3509886e-38
-0.094371803 -0.1064329 -0.0012176558 2.3509886e-38
-0.094113939 -0.1109881 -0.019197039 2.341805e-38
-0.091835491 -0.10946019 -0.01316648 2.3234379e-38
-0.089816846 -0.10869022 -0.010127358 2.341805e-38
-0.087818108 -0.10795029 -0.0072068498 2.3418047e-38
-0.086052366 -0.10795029 -0.0072068498 2.3418045e-38
-0.084062807 -0.10718934 -0.0042033717 2.3418045e-38
-0.08208508 -0.1064329 -0.0012176558 2.3418047e-38
-0.080329843 -0.1064329 -0.0012176558 2.3418047e-38
-0.07857459 -0.1064329 -0.0012176558 2.3509886e-38
-0.076819353 -0.1064329 -0.0012176558 2.3509527e-38
-0.074862473 -0.10565595 0.0018489435 2.3509527e-38
-0.072923832 -0.1049086 0.0047987178 2.3509527e-38
-0.071179129 -0.1049086 0.0047987178 2.3509527e-38
-0.069434442 -0.1049086 0.0047987178 2.3509883e-38
-0.067689739 -0.1049086 0.0047987178 2.350988e-38
-0.065945044 -0.1049086 0.0047987178 2.350988e-38
-0.064033009 -0.10414095 0.0078286007 2.3418047e-38
-0.062293626 -0.10414095 0.0078286007 2.3418047e-38
-0.060710959 -0.1049086 0.0047987178 2.341804e-38
-0.058814861 -0.10414095 0.0078286007 2.3234372e-38
-0.057075478 -0.10414095 0.0078286007 2.3234379e-38
-0.055336095 -0.10414095 0.0078286007 2.3234379e-38
-0.053596705 -0.10414095 0.0078286007 2.3234369e-38
-0.051727958 -0.10337795 0.010840125 2.3234369e-38
-0.049993854 -0.10337795 0.010840125 2.3234379e-38
-0.04825975 -0.10337795 0.010840125 2.3234379e-38
-0.046525646 -0.10337795 0.010840125 2.3234374e-38
-0.044791542 -0.10337795 0.010840125 2.3234372e-38
-0.043057438 -0.10337795 0.010840125 2.3234379e-38
-0.041323338 -0.10337795 0.010840125 2.3417691e-38
-0.039589234 -0.10337795 0.010840125 2.341805e-38
-0.037855126 -0.10337795 0.010840125 2.341805e-38
-0.03620287 -0.10414095 0.0078286007 2.3509883e-38
-0.034463484 -0.10414095 0.0078286007 2.3509883e-38
-0.032724101 -0.10414095 0.0078286007 2.350988e-38
-0.030984715 -0.10414095 0.0078286007 2.350988e-38
-0.029245332 -0.10414095 0.0078286007 2.3509879e-38
-0.027505949 -0.10414095 0.0078286007 2.350988e-38
-0.025766566 -0.10414095 0.0078286007 2.3509524e-38
-0.024027184 -0.10414095 0.0078286007 2.3509527e-38
-0.022287797 -0.10414095 0.0078286007 2.3509168e-38
-0.020548414 -0.10414095 0.0078286007 2.3509527e-38
-0.018809028 -0.10414095 0.0078286007 2.3509168e-38
-0.017069645 -0.10414095 0.0078286007 2.3509527e-38
-0.015330262 -0.10414095 0.0078286007 2.3509886e-38
-0.013590879 -0.10414095 0.0078286007 2.3509886e-38
-0.011851494 -0.10414095 0.0078286007 2.3509883e-38
-0.01011211 -0.10414095 0.0078286007 2.350988e-38
-0.0083753662 -0.10337795 0.010840125 2.3509883e-38
-0.0066412622 -0.10337795 0.010840125 2.3509886e-38
-0.0048939576 -0.10414095 0.0078286007 2.3509886e-38
-0.0031545749 -0.10414095 0.0078286007 2.3509886e-38
-0.0014151912 -0.10414095 0.0078286007 2.3509886e-38
0.00035341084 -0.1049086 0.0047987178 2.3509886e-38
0.0020981068 -0.1049086 0.0047987178 2.3509886e-38
0.0038428036 -0.1049086 0.0047987178 2.3509886e-38
0.0055874996 -0.1049086 0.0047987178 2.3509886e-38
0.0073813284 -0.10565595 0.0018489435 2.3509886e-38
0.0091311978 -0.10565595 0.0018489435 2.3509886e-38
0.010942898 -0.1064329 -0.0012176558 2.3509886e-38
0.012698143 -0.1064329 -0.0012176558 2.3509886e-38
0.014453388 -0.1064329 -0.0012176558 2.3509886e-38
0.01628454 -0.10718934 -0.0042033717 2.3509886e-38
0.018126644 -0.10795029 -0.0072068498 2.3509886e-38
0.01997688 -0.10869022 -0.010127358 2.3418047e-38
0.021840997 -0.10946019 -0.01316648 2.3418047e-38
0.023617193 -0.10946019 -0.01316648 2.3509883e-38
0.02528948 -0.10869022 -0.010127358 2.3509883e-38
0.027060345 -0.10869022 -0.010127358 2.3509883e-38
0.028831214 -0.10869022 -0.010127358 2.3509527e-38
0.030602079 -0.10869022 -0.010127358 2.3509527e-38
0.03225261 -0.10795029 -0.0072068498 2.3509168e-38
0.033889338 -0.10718934 -0.0042033717 2.3508451e-38
0.035649817 -0.10718934 -0.0042033717 2.3508451e-38
0.037410296 -0.10718934 -0.0042033717 2.3508451e-38
0.039170776 -0.10718934 -0.0042033717 2.3509168e-38
0.040931258 -0.10718934 -0.0042033717 2.3509168e-38
0.042691737 -0.10718934 -0.0042033717 2.3509527e-38
0.044452216 -0.10718934 -0.0042033717 2.3509521e-38
0.046212696 -0.10718934 -0.0042033717 2.3509876e-38
0.048144326 -0.10795029 -0.0072068498 2.3418033e-38
0.050081611 -0.10869022 -0.010127358 2.3234372e-38
0.052036315 -0.10946019 -0.01316648 2.3417691e-38
0.053812508 -0.10946019 -0.01316648 2.3417333e-38
0.055588704 -0.10946019 -0.01316648 2.3325856e-38
0.0573649 -0.10946019 -0.01316648 2.350988e-38
0.059141096 -0.10946019 -0.01316648 2.3509886e-38
0.060706813 -0.10869022 -0.010127358 2.3509883e-38
0.062270295 -0.10795029 -0.0072068498 2.350987e-38
0.064036041 -0.10795029 -0.0072068498 2.3509876e-38
0.065801792 -0.10795029 -0.0072068498 2.3509168e-38
0.067567535 -0.10795029 -0.0072068498 2.3508809e-38
0.069098942 -0.10718934 -0.0042033717 2.3509168e-38
0.070859417 -0.10718934 -0.0042033717 2.3509527e-38
0.0726199 -0.10718934 -0.0042033717 2.3509886e-38
0.074380375 -0.10718934 -0.0042033717 2.3509883e-38
0.076140858 -0.10718934 -0.0042033717 2.350952e-38
0.078162007 -0.10795029 -0.0072068498 2.3509147e-38
0.07992775 -0.10795029 -0.0072068498 2.3509839e-38
0.081957214 -0.10869022 -0.010127358 2.3509825e-38
0.083728082 -0.10869022 -0.010127358 2.3509816e-38
0.085224994 -0.10795029 -0.0072068498 2.3509821e-38
0.086990736 -0.10795029 -0.0072068498 2.3509837e-38
0.088756479 -0.10795029 -0.0072068498 2.3509856e-38
0.090522222 -0.10795029 -0.0072068498 2.3509869e-38
0.09228798 -0.10795029 -0.0072068498 2.3509876e-38
0.094053723 -0.10795029 -0.0072068498 2.3326196e-38
0.095819466 -0.10795029 -0.0072068498 2.3234001e-38
0.097895004 -0.10869022 -0.010127358 2.3509872e-38
0.099993579 -0.10946019 -0.01316648 2.3509879e-38
0.10176978 -0.10946019 -0.01316648 2.3509168e-38
0.10354597 -0.10946019 -0.01316648 2.3508809e-38
0.10532217 -0.10946019 -0.01316648 2.3509527e-38
0.10709836 -0.10946019 -0.01316648 7.0065021e-39
-0.11637985 -0.11046107 -0.010127358 1.2721904e-38
-0.11460898 -0.11046107 -0.010127358 1.8438036e-38
-0.11253855 -0.10971604 -0.0072068498 2.3509158e-38
-0.11077281 -0.10971604 -0.0072068498 2.3048545e-38
-0.10900707 -0.10971604 -0.0072068498 2.3509883e-38
-0.10694905 -0.10894983 -0.0042033717 2.3509527e-38
-0.10490327 -0.10818814 -0.0012176558 2.3509527e-38
-0.10314802 -0.10818814 -0.0012176558 2.3509886e-38
-0.10139278 -0.10818814 -0.0012176558 2.3509886e-38
-0.099360622 -0.10740583 0.0018489435 2.3509886e-38
-0.097610764 -0.10740583 0.0018489435 2.3509886e-38
-0.096127041 -0.10818814 -0.0012176558 2.3509886e-38
-0.094371803 -0.10818814 -0.0012176558 2.3509886e-38
-0.092616551 -0.10818814 -0.0012176558 2.341805e-38
-0.090861313 -0.10818814 -0.0012176558 2.3234379e-38
-0.089344256 -0.10894983 -0.0042033717 2.3234379e-38
-0.087583773 -0.10894983 -0.0042033717 2.3234374e-38
-0.085595571 -0.10818814 -0.0012176558 2.3418045e-38
-0.083840333 -0.10818814 -0.0012176558 2.3418043e-38
-0.08186195 -0.10740583 0.0018489435 2.3418047e-38
-0.080112077 -0.10740583 0.0018489435 2.341805e-38
-0.078362204 -0.10740583 0.0018489435 2.3509527e-38
-0.076612346 -0.10740583 0.0018489435 2.3509527e-38
-0.074668534 -0.10665329 0.0047987178 2.3509168e-38
-0.072923832 -0.10665329 0.0047987178 2.3509168e-38
-0.071179129 -0.10665329 0.0047987178 2.3509168e-38
-0.069251157 -0.10588033 0.0078286007 2.3509527e-38
-0.067511775 -0.10588033 0.0078286007 2.3509883e-38
-0.065772392 -0.10588033 0.0078286007 2.3509883e-38
-0.064033009 -0.10588033 0.0078286007 2.341805e-38
-0.062293626 -0.10588033 0.0078286007 2.3418047e-38
-0.060554244 -0.10588033 0.0078286007 2.3418038e-38
-0.058814861 -0.10588033 0.0078286007 2.3418043e-38
-0.056930266 -0.10511206 0.010840125 2.3417691e-38
-0.055196166 -0.10511206 0.010840125 2.341805e-38
-0.053462066 -0.10511206 0.010840125 2.3418038e-38
-0.051727958 -0.10511206 0.010840125 2.3418038e-38
-0.049993854 -0.10511206 0.010840125 2.3417691e-38
-0.04825975 -0.10511206 0.010840125 2.3417691e-38
-0.046525646 -0.10511206 0.010840125 2.3418043e-38
-0.04471859 -0.10459428 0.012869783 2.341804e-38
-0.042988047 -0.10459428 0.012869783 2.341805e-38
-0.041323338 -0.10511206 0.010840125 2.341805e-38
-0.039589234 -0.10511206 0.010840125 2.341805e-38
-0.037855126 -0.10511206 0.010840125 2.3418047e-38
-0.03620287 -0.10588033 0.0078286007 2.3509883e-38
-0.034463484 -0.10588033 0.0078286007 2.3509883e-38
-0.032724101 -0.10588033 0.0078286007 2.350988e-38
-0.030984715 -0.10588033 0.0078286007 2.3509879e-38
-0.029245332 -0.10588033 0.0078286007 2.3509879e-38
-0.027505949 -0.10588033 0.0078286007 2.3509879e-38
-0.025766566 -0.10588033 0.0078286007 2.3509521e-38
-0.024027184 -0.10588033 0.0078286007 2.3509527e-38
-0.022327639 -0.10665329 0.0047987178 2.3509168e-38
-0.020582944 -0.10665329 0.0047987178 2.3509168e-38
-0.018838249 -0.10665329 0.0047987178 2.3509168e-38
-0.01709355 -0.10665329 0.0047987178 2.3509168e-38
-0.015348854 -0.10665329 0.0047987178 2.3509527e-38
-0.013604159 -0.10665329 0.0047987178 2.3509886e-38
-0.011859463 -0.10665329 0.0047987178 2.350988e-38
-0.010114766 -0.10665329 0.0047987178 2.350988e-38
-0.0083727269 -0.10588033 0.0078286007 2.3509883e-38
-0.0066333422 -0.10588033 0.0078286007 2.3509886e-38
-0.004880677 -0.10665329 0.0047987178 2.3509886e-38
-0.003135982 -0.10665329 0.0047987178 2.3509886e-38
-0.0013912851 -0.10665329 0.0047987178 2.3509886e-38
0.00038185623 -0.10740583 0.0018489435 2.3509886e-38
0.0021317247 -0.10740583 0.0018489435 2.3509886e-38
0.0038815932 -0.10740583 0.0018489435 2.3509886e-38
0.0056314608 -0.10740583 0.0018489435 2.3509886e-38
0.0074324077 -0.10818814 -0.0012176558 2.3509886e-38
0.0091876527 -0.10818814 -0.0012176558 2.3509886e-38
0.0110031 -0.10894983 -0.0042033717 2.3509886e-38
0.012763579 -0.10894983 -0.0042033717 2.3509886e-38
0.01452406 -0.10894983 -0.0042033717 2.3509886e-38
0.016360898 -0.10971604 -0.0072068498 2.3509886e-38
0.018126644 -0.10971604 -0.0072068498 2.3509886e-38
0.019892391 -0.10971604 -0.0072068498 2.341805e-38
0.021747746 -0.11046107 -0.010127358 2.341805e-38
0.023518614 -0.11046107 -0.010127358 2.3509886e-38
0.02528948 -0.11046107 -0.010127358 2.3509883e-38
0.026955374 -0.10971604 -0.0072068498 2.3509527e-38
0.02872112 -0.10971604 -0.0072068498 2.3509527e-38
0.030486867 -0.10971604 -0.0072068498 2.3509168e-38
0.032128859 -0.10894983 -0.0042033717 2.3508809e-38
0.033889338 -0.10894983 -0.0042033717 2.3508451e-38
0.035649817 -0.10894983 -0.0042033717 2.3508451e-38
0.037410296 -0.10894983 -0.0042033717 2.3508451e-38
0.039170776 -0.10894983 -0.0042033717 2.3508809e-38
0.040931258 -0.10894983 -0.0042033717 2.3509168e-38
0.042691737 -0.10894983 -0.0042033717 2.3509524e-38
0.044452216 -0.10894983 -0.0042033717 2.3509876e-38
0.046212696 -0.10894983 -0.0042033717 2.350987e-38
0.047973178 -0.10894983 -0.0042033717 2.3418031e-38
0.049910072 -0.10971604 -0.0072068498 2.3234369e-38
0.05185248 -0.11046107 -0.010127358 2.323402e-38
0.053623345 -0.11046107 -0.010127358 2.323402e-38
0.055394214 -0.11046107 -0.010127358 2.3233662e-38
0.057165075 -0.11046107 -0.010127358 2.3234015e-38
0.058935944 -0.11046107 -0.010127358 2.3325497e-38
0.060504545 -0.10971604 -0.0072068498 2.3325492e-38
0.062270295 -0.10971604 -0.0072068498 2.3509866e-38
0.063817501 -0.10894983 -0.0042033717 2.350987e-38
0.065577976 -0.10894983 -0.0042033717 2.3508809e-38
0.067338459 -0.10894983 -0.0042033717 2.3508451e-38
0.069098942 -0.10894983 -0.0042033717 2.3509168e-38
0.070859417 -0.10894983 -0.0042033717 2.3509527e-38
0.0726199 -0.10894983 -0.0042033717 2.3509883e-38
0.074380375 -0.10894983 -0.0042033717 2.3509883e-38
0.076140858 -0.10894983 -0.0042033717 2.3509527e-38
0.077901341 -0.10894983 -0.0042033717 2.3508798e-38
0.079661809 -0.10894983 -0.0042033717 2.3417286e-38
0.081693493 -0.10971604 -0.0072068498 2.350981e-38
0.083459251 -0.10971604 -0.0072068498 2.3326112e-38
0.085224994 -0.10971604 -0.0072068498 2.2956608e-38
0.086990736 -0.10971604 -0.0072068498 2.2956262e-38
0.088756479 -0.10971604 -0.0072068498 2.3232147e-38
0.090522222 -0.10971604 -0.0072068498 2.3508037e-38
0.09228798 -0.10971604 -0.0072068498 2.3508411e-38
0.094053723 -0.10971604 -0.0072068498 2.3509859e-38
0.095819466 -0.10971604 -0.0072068498 2.3509869e-38
0.097895004 -0.11046107 -0.010127358 2.3509513e-38
0.099665873 -0.11046107 -0.010127358 2.3325847e-38
0.10143674 -0.11046107 -0.010127358 2.3325856e-38
0.10320761 -0.11046107 -0.010127358 2.3509527e-38
0.10497848 -0.11046107 -0.010127358 2.3416245e-38
0.10674935 -0.11046107 -0.010127358 7.5582326e-39
0.1085202 -0.11046107 -0.010127358 5.0678744e-39
-0.11430431 -0.11148177 -0.0072068498 1.8806818e-38
-0.11253855 -0.11148177 -0.0072068498 2.3509879e-38
-0.11047 -0.11071031 -0.0042033717 2.3048545e-38
-0.10870954 -0.11071031 -0.0042033717 2.3509883e-38
-0.10665851 -0.10994337 -0.0012176558 2.3509527e-38
-0.10490327 -0.10994337 -0.0012176558 2.3509527e-38
-0.10286037 -0.10915567 0.0018489435 2.3509886e-38
-0.1011105 -0.10915567 0.0018489435 2.3509886e-38
-0.099360622 -0.10915567 0.0018489435 2.3509886e-38
-0.097610764 -0.10915567 0.0018489435 2.3509886e-38
-0.095860891 -0.10915567 0.0018489435 2.3509886e-38
-0.094111018 -0.10915567 0.0018489435 2.3509886e-38
-0.09236116 -0.10915567 0.0018489435 2.341805e-38
-0.090611286 -0.10915567 0.0018489435 2.341805e-38
-0.089106061 -0.10994337 -0.0012176558 2.341805e-38
-0.087350823 -0.10994337 -0.0012176558 2.3418045e-38
-0.085595571 -0.10994337 -0.0012176558 2.350988e-38
-0.083611809 -0.10915567 0.0018489435 2.3509879e-38
-0.08186195 -0.10915567 0.0018489435 2.3509883e-38
-0.079902612 -0.10839801 0.0047987178 2.3509886e-38
-0.078157924 -0.10839801 0.0047987178 2.3509527e-38
-0.076413222 -0.10839801 0.0047987178 2.3509527e-38
-0.074469306 -0.10761972 0.0078286007 2.3509527e-38
-0.072729923 -0.10761972 0.0078286007 2.3509527e-38
-0.07099054 -0.10761972 0.0078286007 2.3509527e-38
-0.069251157 -0.10761972 0.0078286007 2.3509886e-38
-0.06733489 -0.10684617 0.010840125 2.3509883e-38
-0.06560079 -0.10684617 0.010840125 2.3509883e-38
-0.063866682 -0.10684617 0.010840125 2.3509886e-38
-0.062132575 -0.10684617 0.010840125 2.3509883e-38
-0.060398474 -0.10684617 0.010840125 2.3509876e-38
-0.058664374 -0.10684617 0.010840125 2.350988e-38
-0.056930266 -0.10684617 0.010840125 2.3509527e-38
-0.055196166 -0.10684617 0.010840125 2.3509527e-38
-0.053462066 -0.10684617 0.010840125 2.3509873e-38
-0.051727958 -0.10684617 0.010840125 2.3509876e-38
-0.049993854 -0.10684617 0.010840125 2.3509168e-38
-0.04825975 -0.10684617 0.010840125 2.3509168e-38
-0.046525646 -0.10684617 0.010840125 2.3509879e-38
-0.04471859 -0.10632484 0.012869783 2.3509876e-38
-0.042988047 -0.10632484 0.012869783 2.3509527e-38
-0.041257501 -0.10632484 0.012869783 2.3509527e-38
-0.039589234 -0.10684617 0.010840125 2.3509886e-38
-0.037855126 -0.10684617 0.010840125 2.3509883e-38
-0.03620287 -0.10761972 0.0078286007 2.3509886e-38
-0.034463484 -0.10761972 0.0078286007 2.3509886e-38
-0.032795817 -0.10839801 0.0047987178 2.3509883e-38
-0.031051122 -0.10839801 0.0047987178 2.350988e-38
-0.029306427 -0.10839801 0.0047987178 2.3509879e-38
-0.027561732 -0.10839801 0.0047987178 2.3509879e-38
-0.025817033 -0.10839801 0.0047987178 2.350988e-38
-0.024072338 -0.10839801 0.0047987178 2.3509883e-38
-0.022366431 -0.10915567 0.0018489435 2.3509527e-38
-0.020616561 -0.10915567 0.0018489435 2.3509527e-38
-0.018866692 -0.10915567 0.0018489435 2.3509527e-38
-0.017116826 -0.10915567 0.0018489435 2.3509527e-38
-0.015366956 -0.10915567 0.0018489435 2.3509886e-38
-0.013617088 -0.10915567 0.0018489435 2.3509886e-38
-0.011867221 -0.10915567 0.0018489435 2.3509883e-38
-0.010117353 -0.10915567 0.0018489435 2.3509883e-38
-0.0083700707 -0.10839801 0.0047987178 2.3509886e-38
-0.0066253738 -0.10839801 0.0047987178 2.3509886e-38
-0.0048677484 -0.10915567 0.0018489435 2.3509886e-38
-0.0031178799 -0.10915567 0.0018489435 2.3509886e-38
-0.0013680113 -0.10915567 0.0018489435 2.3509886e-38
0.00038185623 -0.10915567 0.0018489435 2.3509886e-38
0.0021317247 -0.10915567 0.0018489435 2.3509886e-38
0.0038815932 -0.10915567 0.0018489435 2.3509886e-38
0.0056314608 -0.10915567 0.0018489435 2.3509886e-38
0.0074324077 -0.10994337 -0.0012176558 2.3509886e-38
0.0091876527 -0.10994337 -0.0012176558 2.3509886e-38
0.0110031 -0.11071031 -0.0042033717 2.3509886e-38
0.012763579 -0.11071031 -0.0042033717 2.3509886e-38
0.01452406 -0.11071031 -0.0042033717 2.3509886e-38
0.016360898 -0.11148177 -0.0072068498 2.3509886e-38
0.018126644 -0.11148177 -0.0072068498 2.3509886e-38
0.019892391 -0.11148177 -0.0072068498 2.3509527e-38
0.021565981 -0.11071031 -0.0042033717 2.3509527e-38
0.02332646 -0.11071031 -0.0042033717 2.3509886e-38
0.025086939 -0.11071031 -0.0042033717 2.3509886e-38
0.026847418 -0.11071031 -0.0042033717 2.3509883e-38
0.028607897 -0.11071031 -0.0042033717 2.3509883e-38
0.030368377 -0.11071031 -0.0042033717 2.3509527e-38
0.032005835 -0.10994337 -0.0012176558 2.3509527e-38
0.03376108 -0.10994337 -0.0012176558 2.3509168e-38
0.035516325 -0.10994337 -0.0012176558 2.3509168e-38
0.037410296 -0.11071031 -0.0042033717 2.3509168e-38
0.039026815 -0.10994337 -0.0012176558 2.3509527e-38
0.04078206 -0.10994337 -0.0012176558 2.3509883e-38
0.042691737 -0.11071031 -0.0042033717 2.3509874e-38
0.044452216 -0.11071031 -0.0042033717 2.3509869e-38
0.046212696 -0.11071031 -0.0042033717 2.3509867e-38
0.047973178 -0.11071031 -0.0042033717 2.3326198e-38
0.049910072 -0.11148177 -0.0072068498 2.3418043e-38
0.051675815 -0.11148177 -0.0072068498 2.341805e-38
0.053441565 -0.11148177 -0.0072068498 2.341805e-38
0.055207308 -0.11148177 -0.0072068498 2.3509886e-38
0.056973051 -0.11148177 -0.0072068498 2.3233302e-38
0.058738802 -0.11148177 -0.0072068498 2.3232944e-38
0.060504545 -0.11148177 -0.0072068498 2.3233296e-38
0.062057015 -0.11071031 -0.0042033717 2.3509866e-38
0.063817501 -0.11071031 -0.0042033717 2.350987e-38
0.065577976 -0.11071031 -0.0042033717 2.3509527e-38
0.067338459 -0.11071031 -0.0042033717 2.3509168e-38
0.069098942 -0.11071031 -0.0042033717 2.3509527e-38
0.070859417 -0.11071031 -0.0042033717 2.3509886e-38
0.0726199 -0.11071031 -0.0042033717 2.350988e-38
0.074380375 -0.11071031 -0.0042033717 2.3509886e-38
0.076140858 -0.11071031 -0.0042033717 2.3508451e-38
0.077901341 -0.11071031 -0.0042033717 2.3415898e-38
0.079661809 -0.11071031 -0.0042033717 2.3324404e-38
0.081693493 -0.11148177 -0.0072068498 2.3324721e-38
0.083459251 -0.11148177 -0.0072068498 2.2864062e-38
0.085224994 -0.11148177 -0.0072068498 2.2403415e-38
0.086990736 -0.11148177 -0.0072068498 2.2495596e-38
0.088756479 -0.11148177 -0.0072068498 2.2864026e-38
0.090522222 -0.11148177 -0.0072068498 2.2955168e-38
0.09228798 -0.11148177 -0.0072068498 2.3508368e-38
0.094053723 -0.11148177 -0.0072068498 2.3509846e-38
0.095819466 -0.11148177 -0.0072068498 2.3509511e-38
0.097895004 -0.11223195 -0.010127358 2.3509527e-38
0.099665873 -0.11223195 -0.010127358 2.3325138e-38
0.10143674 -0.11223195 -0.010127358 2.3233303e-38
0.10320761 -0.11223195 -0.010127358 2.341805e-38
0.10497848 -0.11223195 -0.010127358 2.3140737e-38
0.10674935 -0.11223195 -0.010127358 8.1121252e-39
0.1085202 -0.11223195 -0.010127358 5.898714e-39
0.11029107 -0.11223195 -0.010127358 6.912866e-39
-0.110169 -0.11169861 -0.0012176558 2.3417327e-38
-0.10841376 -0.11169861 -0.0012176558 2.3509883e-38
-0.10665851 -0.11169861 -0.0012176558 2.3509527e-38
-0.10461023 -0.11090554 0.0018489435 2.3509527e-38
-0.10258367 -0.11014269 0.0047987178 2.3509886e-38
-0.10083897 -0.11014269 0.0047987178 2.3509886e-38
-0.099094279 -0.11014269 0.0047987178 2.3509886e-38
-0.097349577 -0.11014269 0.0047987178 2.3509886e-38
-0.095604874 -0.11014269 0.0047987178 2.3509886e-38
-0.093602531 -0.1093591 0.0078286007 2.3509886e-38
-0.091863148 -0.1093591 0.0078286007 2.3509527e-38
-0.090370797 -0.11014269 0.0047987178 2.341805e-38
-0.088861413 -0.11090554 0.0018489435 2.3509886e-38
-0.087111555 -0.11090554 0.0018489435 2.350988e-38
-0.085361682 -0.11090554 0.0018489435 2.3509879e-38
-0.083611809 -0.11090554 0.0018489435 2.3509879e-38
-0.081647314 -0.11014269 0.0047987178 2.350988e-38
-0.079902612 -0.11014269 0.0047987178 2.3509883e-38
-0.078157924 -0.11014269 0.0047987178 2.3509527e-38
-0.076208703 -0.1093591 0.0078286007 2.3509527e-38
-0.074469306 -0.1093591 0.0078286007 2.3509527e-38
-0.072729923 -0.1093591 0.0078286007 2.3509527e-38
-0.070803098 -0.10858028 0.010840125 2.3509527e-38
-0.069068991 -0.10858028 0.010840125 2.3509886e-38
-0.06733489 -0.10858028 0.010840125 2.3509883e-38
-0.06560079 -0.10858028 0.010840125 2.3509883e-38
-0.063866682 -0.10858028 0.010840125 2.3509527e-38
-0.062132575 -0.10858028 0.010840125 2.3509527e-38
-0.060293496 -0.10805537 0.012869783 2.3509879e-38
-0.058562949 -0.10805537 0.012869783 2.350988e-38
-0.05683241 -0.10805537 0.012869783 2.3509168e-38
-0.055196166 -0.10858028 0.010840125 2.3509168e-38
-0.053371318 -0.10805537 0.012869783 2.3509876e-38
-0.051640771 -0.10805537 0.012869783 2.3509879e-38
-0.049993854 -0.10858028 0.010840125 2.3509168e-38
-0.04825975 -0.10858028 0.010840125 2.3509168e-38
-0.046525646 -0.10858028 0.010840125 2.350988e-38
-0.04471859 -0.10805537 0.012869783 2.3509879e-38
-0.042988047 -0.10805537 0.012869783 2.3509527e-38
-0.041257501 -0.10805537 0.012869783 2.3509168e-38
-0.039589234 -0.10858028 0.010840125 2.3509527e-38
-0.037855126 -0.10858028 0.010840125 2.3509527e-38
-0.03620287 -0.1093591 0.0078286007 2.3509527e-38
-0.034463484 -0.1093591 0.0078286007 2.3509527e-38
-0.032795817 -0.11014269 0.0047987178 2.3509886e-38
-0.03111577 -0.11090554 0.0018489435 2.3509883e-38
-0.029306427 -0.11014269 0.0047987178 2.350988e-38
-0.027561732 -0.11014269 0.0047987178 2.350988e-38
-0.025817033 -0.11014269 0.0047987178 2.350988e-38
-0.024072338 -0.11014269 0.0047987178 2.350988e-38
-0.022366431 -0.11090554 0.0018489435 2.3509883e-38
-0.020616561 -0.11090554 0.0018489435 2.3509527e-38
-0.018866692 -0.11090554 0.0018489435 2.3509527e-38
-0.017116826 -0.11090554 0.0018489435 2.3509527e-38
-0.015366956 -0.11090554 0.0018489435 2.3509886e-38
-0.013617088 -0.11090554 0.0018489435 2.3509886e-38
-0.011867221 -0.11090554 0.0018489435 2.3509886e-38
-0.010117353 -0.11090554 0.0018489435 2.3509886e-38
-0.0083674835 -0.11090554 0.0018489435 2.3509886e-38
-0.0066176159 -0.11090554 0.0018489435 2.3509886e-38
-0.0048677484 -0.11090554 0.0018489435 2.3509886e-38
-0.0031178799 -0.11090554 0.0018489435 2.3509886e-38
-0.0013438165 -0.11169861 -0.0012176558 2.3509886e-38
0.00041142851 -0.11169861 -0.0012176558 2.3509886e-38
0.0021666735 -0.11169861 -0.0012176558 2.3509886e-38
0.0038815932 -0.11090554 0.0018489435 2.3509886e-38
0.0056314608 -0.11090554 0.0018489435 2.3509886e-38
0.0074324077 -0.11169861 -0.0012176558 2.3509886e-38
0.0091876527 -0.11169861 -0.0012176558 2.3509886e-38
0.010942898 -0.11169861 -0.0012176558 2.3509886e-38
0.012698143 -0.11169861 -0.0012176558 2.3509886e-38
0.01452406 -0.11247079 -0.0042033717 2.3509886e-38
0.01628454 -0.11247079 -0.0042033717 2.3509886e-38
0.018045019 -0.11247079 -0.0042033717 2.3509886e-38
0.019805498 -0.11247079 -0.0042033717 2.3509527e-38
0.021565981 -0.11247079 -0.0042033717 2.3509527e-38
0.02332646 -0.11247079 -0.0042033717 2.3509527e-38
0.024984855 -0.11169861 -0.0012176558 2.3509886e-38
0.0267401 -0.11169861 -0.0012176558 2.350988e-38
