# .PCD v0.7 - Point Cloud Data file format
VERSION 0.7
FIELDS x y z rgb
SIZE 4 4 4 4
TYPE F F F F
COUNT 1 1 1 1
WIDTH 918
HEIGHT 1
VIEWPOINT 0 0 0 1 0 0 0
POINTS 918
DATA ascii
-0.076540835 -0.092379183 -0.036507167 2.3234367e-38
-0.053793736 -0.088710666 -0.020474114 2.3509886e-38
-0.051859751 -0.088038266 -0.017535485 2.31411e-38
-0.050057165 -0.088038266 -0.017535485 2.3509883e-38
-0.048135199 -0.087345913 -0.014509596 2.350988e-38
-0.04633791 -0.087345913 -0.014509596 2.3509879e-38
-0.044432499 -0.086657599 -0.01150135 2.3509876e-38
-0.042538241 -0.085973322 -0.0085107461 2.3509876e-38
-0.040555857 -0.084593475 -0.0024801865 2.3509873e-38
-0.03868641 -0.083898082 0.00055893511 2.3509873e-38
-0.036915548 -0.083898082 0.00055893511 2.3509872e-38
-0.035227269 -0.084593475 -0.0024801865 2.3509873e-38
-0.033451073 -0.084593475 -0.0024801865 2.3509873e-38
-0.031674884 -0.084593475 -0.0024801865 2.3509876e-38
-0.029898686 -0.084593475 -0.0024801865 2.350988e-38
-0.02818414 -0.085293055 -0.0055376664 2.3325492e-38
-0.026402587 -0.085293055 -0.0055376664 2.2680125e-38
-0.024570102 -0.084593475 -0.0024801865 2.2771967e-38
-0.022793906 -0.084593475 -0.0024801865 2.3325138e-38
-0.02101771 -0.084593475 -0.0024801865 2.3417333e-38
-0.019241514 -0.084593475 -0.0024801865 2.3325497e-38
-0.017436013 -0.083898082 0.00055893511 2.3509886e-38
-0.015665146 -0.083898082 0.00055893511 2.3509883e-38
-0.013876358 -0.08322984 0.0034794435 2.3233652e-38
-0.012110611 -0.08322984 0.0034794435 2.2403887e-38
-0.010336967 -0.082542613 0.0064829215 2.2957417e-38
-0.0085764863 -0.082542613 0.0064829215 2.3509876e-38
-0.0068160072 -0.082542613 0.0064829215 2.3509883e-38
-0.0050555263 -0.082542613 0.0064829215 2.3509886e-38
-0.0032950472 -0.082542613 0.0064829215 2.3509886e-38
-0.0015345672 -0.082542613 0.0064829215 2.3509886e-38
0.00022591278 -0.082542613 0.0064829215 2.3509886e-38
0.0019576 -0.081859455 0.0094686374 2.3509886e-38
0.003712845 -0.081859455 0.0094686374 2.3509886e-38
0.0054680901 -0.081859455 0.0094686374 2.3509886e-38
0.0071776323 -0.081157789 0.012535237 2.3509886e-38
0.0089274999 -0.081157789 0.012535237 2.3509886e-38
0.010623064 -0.080482855 0.015485011 2.3509886e-38
0.012367759 -0.080482855 0.015485011 2.3509886e-38
0.014046051 -0.079789579 0.018514894 2.3509886e-38
0.015785435 -0.079789579 0.018514894 2.3509886e-38
0.017524818 -0.079789579 0.018514894 2.3509886e-38
0.019264203 -0.079789579 0.018514894 2.3509886e-38
0.021091241 -0.080482855 0.015485011 2.3509886e-38
0.022835936 -0.080482855 0.015485011 2.3509886e-38
0.024775783 -0.081859455 0.0094686374 2.3509886e-38
0.026531028 -0.081859455 0.0094686374 2.3509886e-38
0.028393591 -0.082542613 0.0064829215 2.3509886e-38
0.030267293 -0.08322984 0.0034794435 2.3509886e-38
0.032033041 -0.08322984 0.0034794435 2.3509886e-38
0.033798784 -0.08322984 0.0034794435 2.3509886e-38
0.035689987 -0.083898082 0.00055893511 2.3509886e-38
0.037460849 -0.083898082 0.00055893511 2.341769e-38
0.039372928 -0.084593475 -0.0024801865 2.3048907e-38
0.041149125 -0.084593475 -0.0024801865 2.3233299e-38
0.042925313 -0.084593475 -0.0024801865 2.341769e-38
0.044701509 -0.084593475 -0.0024801865 2.341769e-38
0.046477705 -0.084593475 -0.0024801865 2.3509886e-38
0.048422769 -0.085293055 -0.0055376664 2.341805e-38
0.05037374 -0.085973322 -0.0085107461 2.2865961e-38
0.051985875 -0.085293055 -0.0055376664 2.249826e-38
0.053767435 -0.085293055 -0.0055376664 2.2958873e-38
0.055548988 -0.085293055 -0.0055376664 2.2958873e-38
0.057330541 -0.085293055 -0.0055376664 2.1945092e-38
-0.084827818 -0.097204864 -0.049474634 2.3324757e-38
-0.082969226 -0.097204864 -0.049474634 2.350987e-38
-0.08090318 -0.09651424 -0.046479262 2.3141808e-38
-0.078376688 -0.094215035 -0.036507167 2.3141808e-38
-0.076540835 -0.094215035 -0.036507167 2.3142174e-38
-0.07489308 -0.094892681 -0.039446272 2.3141816e-38
-0.073052071 -0.094892681 -0.039446272 2.3141819e-38
-0.053662345 -0.089840859 -0.017535485 2.3509886e-38
-0.051729769 -0.089143202 -0.014509596 2.3233299e-38
-0.049932487 -0.089143202 -0.014509596 2.3233296e-38
-0.048016526 -0.088449612 -0.01150135 2.3233652e-38
-0.046224512 -0.088449612 -0.01150135 2.3325129e-38
-0.044432499 -0.088449612 -0.01150135 2.3417323e-38
-0.042538241 -0.087760091 -0.0085107461 2.3509879e-38
-0.040555857 -0.086369663 -0.0024801865 2.3509876e-38
-0.038779661 -0.086369663 -0.0024801865 2.3508795e-38
-0.037003465 -0.086369663 -0.0024801865 2.3141092e-38
-0.035310365 -0.087074608 -0.0055376664 2.3141808e-38
-0.033528805 -0.087074608 -0.0055376664 2.3049256e-38
-0.031674884 -0.086369663 -0.0024801865 2.323365e-38
-0.029898686 -0.086369663 -0.0024801865 2.350988e-38
-0.02818414 -0.087074608 -0.0055376664 2.3509883e-38
-0.026402587 -0.087074608 -0.0055376664 2.3325494e-38
-0.024519479 -0.085668951 0.00055893511 2.3509886e-38
-0.022748614 -0.085668951 0.00055893511 2.3509527e-38
-0.020977745 -0.085668951 0.00055893511 2.3509527e-38
-0.01920688 -0.085668951 0.00055893511 2.3233302e-38
-0.017407849 -0.084995598 0.0034794435 2.2680125e-38
-0.015642105 -0.084995598 0.0034794435 2.3048905e-38
-0.013857925 -0.084303096 0.0064829215 2.350988e-38
-0.012097446 -0.084303096 0.0064829215 2.3509879e-38
-0.010336967 -0.084303096 0.0064829215 2.3509876e-38
-0.0085764863 -0.084303096 0.0064829215 2.3418039e-38
-0.0068160072 -0.084303096 0.0064829215 2.3233296e-38
-0.0050555263 -0.084303096 0.0064829215 2.3233299e-38
-0.0032950472 -0.084303096 0.0064829215 2.3325494e-38
-0.0015345672 -0.084303096 0.0064829215 2.3233299e-38
0.00022591278 -0.084303096 0.0064829215 2.3233299e-38
0.0019863928 -0.084303096 0.0064829215 2.3325494e-38
0.003712845 -0.083614707 0.0094686374 2.341769e-38
0.0054680901 -0.083614707 0.0094686374 2.3509886e-38
0.0071776323 -0.082907662 0.012535237 2.3509886e-38
0.0089274999 -0.082907662 0.012535237 2.3509886e-38
0.010623064 -0.082227543 0.015485011 2.3509886e-38
0.012367759 -0.082227543 0.015485011 2.3509886e-38
0.014046051 -0.081528962 0.018514894 2.3509886e-38
0.015785435 -0.081528962 0.018514894 2.3509886e-38
0.017524818 -0.081528962 0.018514894 2.3509886e-38
0.019264203 -0.081528962 0.018514894 2.3509886e-38
0.021003585 -0.081528962 0.018514894 2.3509886e-38
0.022835936 -0.082227543 0.015485011 2.3509886e-38
0.024676314 -0.082907662 0.012535237 2.3509886e-38
0.026426183 -0.082907662 0.012535237 2.3509886e-38
0.028286273 -0.083614707 0.0094686374 2.3509886e-38
0.03015407 -0.084303096 0.0064829215 2.3509886e-38
0.032033041 -0.084995598 0.0034794435 2.3509886e-38
0.033798784 -0.084995598 0.0034794435 2.3509886e-38
0.035689987 -0.085668951 0.00055893511 2.3233299e-38
0.037460849 -0.085668951 0.00055893511 2.3233299e-38
0.039372928 -0.086369663 -0.0024801865 2.3509886e-38
0.041149125 -0.086369663 -0.0024801865 2.3509886e-38
0.042925313 -0.086369663 -0.0024801865 2.3509886e-38
0.044701509 -0.086369663 -0.0024801865 2.3141103e-38
0.046477705 -0.086369663 -0.0024801865 2.2772321e-38
0.048422769 -0.087074608 -0.0055376664 2.2773039e-38
0.050204322 -0.087074608 -0.0055376664 2.3234379e-38
0.051985875 -0.087074608 -0.0055376664 2.2958514e-38
0.053767435 -0.087074608 -0.0055376664 2.2774125e-38
0.055548988 -0.087074608 -0.0055376664 2.3142544e-38
0.057330541 -0.087074608 -0.0055376664 2.3142544e-38
0.05891107 -0.086369663 -0.0024801865 2.2867037e-38
0.060687266 -0.086369663 -0.0024801865 2.2498619e-38
-0.084827818 -0.099063456 -0.049474634 2.3047814e-38
-0.082756527 -0.098367572 -0.046479262 2.3509873e-38
-0.080696903 -0.097675636 -0.043500818 2.3509876e-38
-0.078575097 -0.096733689 -0.039446272 2.3509879e-38
-0.076734088 -0.096733689 -0.039446272 2.3418043e-38
-0.074704982 -0.096050888 -0.036507167 2.3418045e-38
-0.07249295 -0.094646841 -0.030463494 2.3049624e-38
-0.070667692 -0.094646841 -0.030463494 2.2957428e-38
-0.068666466 -0.093950883 -0.027467765 2.3234379e-38
-0.066846468 -0.093950883 -0.027467765 2.3234379e-38
-0.064809285 -0.093037367 -0.023535527 2.3141466e-38
-0.062675305 -0.091643453 -0.017535485 2.3233662e-38
-0.060872711 -0.091643453 -0.017535485 2.3141466e-38
-0.058918916 -0.09094049 -0.014509596 2.2957431e-38
-0.057121627 -0.09094049 -0.014509596 2.3049626e-38
-0.055324338 -0.09094049 -0.014509596 2.341805e-38
-0.053527057 -0.09094049 -0.014509596 2.3509886e-38
-0.051729769 -0.09094049 -0.014509596 2.3509886e-38
-0.049932487 -0.09094049 -0.014509596 2.3509883e-38
-0.048016526 -0.090241626 -0.01150135 2.3509883e-38
-0.046224512 -0.090241626 -0.01150135 2.3509883e-38
-0.044325009 -0.089546859 -0.0085107461 2.350988e-38
-0.042538241 -0.089546859 -0.0085107461 2.350988e-38
-0.040655032 -0.088856161 -0.0055376664 2.3509879e-38
-0.038779661 -0.088145852 -0.0024801865 2.3509879e-38
-0.037003465 -0.088145852 -0.0024801865 2.3509879e-38
-0.035310365 -0.088856161 -0.0055376664 2.3509876e-38
-0.033528805 -0.088856161 -0.0055376664 2.3509876e-38
-0.031674884 -0.088145852 -0.0024801865 2.3509879e-38
-0.029898686 -0.088145852 -0.0024801865 2.350988e-38
-0.028061213 -0.08743982 0.00055893511 2.3509883e-38
-0.026290344 -0.08743982 0.00055893511 2.3509886e-38
-0.024470834 -0.08676134 0.0034794435 2.3509886e-38
-0.022705087 -0.08676134 0.0034794435 2.3509886e-38
-0.020939341 -0.08676134 0.0034794435 2.3509886e-38
-0.019173594 -0.08676134 0.0034794435 2.3509886e-38
-0.017378887 -0.086063579 0.0064829215 2.3509886e-38
-0.015618406 -0.086063579 0.0064829215 2.3509883e-38
-0.013857925 -0.086063579 0.0064829215 2.3141456e-38
-0.012097446 -0.086063579 0.0064829215 2.3049259e-38
-0.010336967 -0.086063579 0.0064829215 2.3049256e-38
-0.0085764863 -0.086063579 0.0064829215 2.2957064e-38
-0.0068160072 -0.086063579 0.0064829215 2.3509883e-38
-0.0050555263 -0.086063579 0.0064829215 2.3509886e-38
-0.0032950472 -0.086063579 0.0064829215 2.3509886e-38
-0.0015345672 -0.086063579 0.0064829215 2.3509886e-38
0.00022591278 -0.086063579 0.0064829215 2.3509886e-38
0.0019863928 -0.086063579 0.0064829215 2.341769e-38
0.003712845 -0.085369945 0.0094686374 2.3325494e-38
0.0054680901 -0.085369945 0.0094686374 2.341769e-38
0.0071776323 -0.08465752 0.012535237 2.3509886e-38
0.0089274999 -0.08465752 0.012535237 2.3509886e-38
0.010623064 -0.083972245 0.015485011 2.3509886e-38
0.012367759 -0.083972245 0.015485011 2.3509886e-38
0.014046051 -0.083268344 0.018514894 2.3509886e-38
0.015785435 -0.083268344 0.018514894 2.3509886e-38
0.017524818 -0.083268344 0.018514894 2.3509886e-38
0.019264203 -0.083268344 0.018514894 2.3509886e-38
0.021003585 -0.083268344 0.018514894 2.3509886e-38
0.022835936 -0.083972245 0.015485011 2.3509886e-38
0.024580633 -0.083972245 0.015485011 2.3509886e-38
0.026325328 -0.083972245 0.015485011 2.3509886e-38
0.028070027 -0.083972245 0.015485011 2.3509886e-38
0.030041518 -0.085369945 0.0094686374 2.3509886e-38
0.031796761 -0.085369945 0.0094686374 2.3509886e-38
0.03367503 -0.086063579 0.0064829215 2.3509886e-38
0.035564527 -0.08676134 0.0034794435 2.3509886e-38
0.037330277 -0.08676134 0.0034794435 2.3509886e-38
0.039231718 -0.08743982 0.00055893511 2.3509886e-38
0.041149125 -0.088145852 -0.0024801865 2.3509886e-38
0.042925313 -0.088145852 -0.0024801865 2.3509886e-38
0.044701509 -0.088145852 -0.0024801865 2.3509886e-38
0.046477705 -0.088145852 -0.0024801865 2.3509886e-38
0.048422769 -0.088856161 -0.0055376664 2.3509883e-38
0.050204322 -0.088856161 -0.0055376664 2.3418047e-38
0.051985875 -0.088856161 -0.0055376664 2.3142537e-38
0.053767435 -0.088856161 -0.0055376664 2.3050703e-38
0.055548988 -0.088856161 -0.0055376664 2.3234376e-38
0.057330541 -0.088856161 -0.0055376664 2.3234379e-38
0.05891107 -0.088145852 -0.0024801865 2.3142544e-38
0.060687266 -0.088145852 -0.0024801865 2.3142544e-38
0.062675215 -0.088856161 -0.0055376664 2.3142544e-38
0.064456768 -0.088856161 -0.0055376664 2.2037285e-38
0.066454656 -0.089546859 -0.0085107461 2.2958873e-38
-0.10368075 -0.1065412 -0.073481001 2.3049245e-38
-0.10178006 -0.1065412 -0.073481001 2.3417676e-38
-0.099879377 -0.1065412 -0.073481001 2.3509876e-38
-0.097978704 -0.1065412 -0.073481001 2.3509521e-38
-0.096078016 -0.1065412 -0.073481001 2.3508441e-38
-0.088774763 -0.10162716 -0.052487053 2.3232211e-38
-0.08668641 -0.10092205 -0.049474634 2.3509158e-38
-0.084827818 -0.10092205 -0.049474634 2.3509879e-38
-0.082756527 -0.10022092 -0.046479262 2.2495367e-38
-0.080696903 -0.099523753 -0.043500818 2.2680477e-38
-0.078575097 -0.098574698 -0.039446272 2.3049261e-38
-0.076540835 -0.097886756 -0.036507167 2.3418045e-38
-0.074511044 -0.097177386 -0.033476628 2.3418045e-38
-0.07249295 -0.096472099 -0.030463494 2.3418047e-38
-0.070486479 -0.095770895 -0.027467765 2.3418047e-38
-0.068666466 -0.095770895 -0.027467765 2.3142542e-38
-0.066846468 -0.095770895 -0.027467765 2.2958151e-38
-0.064809285 -0.094850481 -0.023535527 2.341805e-38
-0.062675305 -0.093446046 -0.017535485 2.341805e-38
-0.060716204 -0.092737779 -0.014509596 2.341805e-38
-0.058918916 -0.092737779 -0.014509596 2.341805e-38
-0.057121627 -0.092737779 -0.014509596 2.341805e-38
-0.055324338 -0.092737779 -0.014509596 2.341805e-38
-0.053527057 -0.092737779 -0.014509596 2.341769e-38
-0.051729769 -0.092737779 -0.014509596 2.3233299e-38
-0.049808532 -0.09203364 -0.01150135 2.3509883e-38
-0.048016526 -0.09203364 -0.01150135 2.3417687e-38
-0.046111777 -0.091333628 -0.0085107461 2.3417327e-38
-0.044325009 -0.091333628 -0.0085107461 2.3325131e-38
-0.042436585 -0.090637714 -0.0055376664 2.3325131e-38
-0.040655032 -0.090637714 -0.0055376664 2.3417324e-38
-0.038779661 -0.089922056 -0.0024801865 2.3509523e-38
-0.037003465 -0.089922056 -0.0024801865 2.350988e-38
-0.035227269 -0.089922056 -0.0024801865 2.3325846e-38
-0.03337381 -0.089210689 0.00055893511 2.3325843e-38
-0.031602941 -0.089210689 0.00055893511 2.3325846e-38
-0.029832082 -0.089210689 0.00055893511 2.3325847e-38
-0.028002324 -0.088527083 0.0034794435 2.3325492e-38
-0.026236581 -0.088527083 0.0034794435 2.3141103e-38
-0.024470834 -0.088527083 0.0034794435 2.304891e-38
-0.022660324 -0.087824062 0.0064829215 2.304891e-38
-0.020899845 -0.087824062 0.0064829215 2.2772323e-38
-0.019139366 -0.087824062 0.0064829215 2.3417691e-38
-0.017378887 -0.087824062 0.0064829215 2.3509886e-38
-0.015618406 -0.087824062 0.0064829215 2.3509883e-38
-0.013857925 -0.087824062 0.0064829215 2.350988e-38
-0.012097446 -0.087824062 0.0064829215 2.3509879e-38
-0.010336967 -0.087824062 0.0064829215 2.3509879e-38
-0.0085764863 -0.087824062 0.0064829215 2.3509879e-38
-0.0068160072 -0.087824062 0.0064829215 2.2772318e-38
-0.0050555263 -0.087824062 0.0064829215 2.2956712e-38
-0.0032950472 -0.087824062 0.0064829215 2.3325494e-38
-0.0015528891 -0.087125197 0.0094686374 2.3509886e-38
0.00020235498 -0.087125197 0.0094686374 2.3509886e-38
0.0019576 -0.087125197 0.0094686374 2.3509886e-38
0.003712845 -0.087125197 0.0094686374 2.3509886e-38
0.0054680901 -0.087125197 0.0094686374 2.3509886e-38
0.0071776323 -0.086407393 0.012535237 2.3509886e-38
0.0089274999 -0.086407393 0.012535237 2.3509886e-38
0.010623064 -0.085716933 0.015485011 2.3509886e-38
0.012367759 -0.085716933 0.015485011 2.3509886e-38
0.014046051 -0.085007742 0.018514894 2.3509886e-38
0.015785435 -0.085007742 0.018514894 2.3509886e-38
0.017524818 -0.085007742 0.018514894 2.3509886e-38
0.01918236 -0.084302828 0.021526419 2.3509886e-38
0.020916462 -0.084302828 0.021526419 2.3509886e-38
0.02274297 -0.085007742 0.018514894 2.3509886e-38
0.024482353 -0.085007742 0.018514894 2.3509886e-38
0.026221739 -0.085007742 0.018514894 2.3509886e-38
0.027961122 -0.085007742 0.018514894 2.3509886e-38
0.029814722 -0.085716933 0.015485011 2.3509886e-38
0.031559415 -0.085716933 0.015485011 2.3509886e-38
0.033425651 -0.086407393 0.012535237 2.3509886e-38
0.035435513 -0.087824062 0.0064829215 2.3509886e-38
0.037195988 -0.087824062 0.0064829215 2.3509886e-38
0.03909602 -0.088527083 0.0034794435 2.3509886e-38
0.041002586 -0.089210689 0.00055893511 2.3233299e-38
0.042773448 -0.089210689 0.00055893511 2.3048907e-38
0.044544317 -0.089210689 0.00055893511 2.2956712e-38
0.046315186 -0.089210689 0.00055893511 2.3141103e-38
0.048253901 -0.089922056 -0.0024801865 2.3417687e-38
0.050030097 -0.089922056 -0.0024801865 2.3509879e-38
0.051806293 -0.089922056 -0.0024801865 2.341804e-38
0.053582489 -0.089922056 -0.0024801865 2.3509879e-38
0.055358678 -0.089922056 -0.0024801865 2.2957782e-38
0.057134874 -0.089922056 -0.0024801865 2.2773037e-38
0.05891107 -0.089922056 -0.0024801865 2.2865955e-38
0.060687266 -0.089922056 -0.0024801865 2.3142544e-38
0.062675215 -0.090637714 -0.0055376664 2.3050708e-38
0.064456768 -0.090637714 -0.0055376664 2.3050708e-38
0.066238321 -0.090637714 -0.0055376664 2.249826e-38
0.068019882 -0.090637714 -0.0055376664 2.2958873e-38
0.069801435 -0.090637714 -0.0055376664 2.2958873e-38
0.071814962 -0.091333628 -0.0085107461 2.1115699e-38
0.07360173 -0.091333628 -0.0085107461 1.7427517e-38
-0.10333175 -0.1075124 -0.069539465 2.3509876e-38
-0.10143798 -0.1075124 -0.069539465 2.3509866e-38
-0.099544205 -0.1075124 -0.069539465 2.3325832e-38
-0.097650431 -0.1075124 -0.069539465 2.3509521e-38
-0.095512487 -0.10680611 -0.06654457 2.3324055e-38
-0.093623973 -0.10680611 -0.06654457 2.3509524e-38
-0.091735445 -0.10680611 -0.06654457 2.3509524e-38
-0.088774763 -0.10349102 -0.052487053 2.3139661e-38
-0.08668641 -0.10278064 -0.049474634 2.2864153e-38
-0.084827818 -0.10278064 -0.049474634 2.350988e-38
-0.082756527 -0.10207425 -0.046479262 2.350952e-38
-0.080696903 -0.10137187 -0.043500818 2.350988e-38
-0.078575097 -0.10041572 -0.039446272 2.3509883e-38
-0.076540835 -0.099722609 -0.036507167 2.332621e-38
-0.074511044 -0.099007934 -0.033476628 2.3049624e-38
-0.07249295 -0.098297372 -0.030463494 2.3234015e-38
-0.070486479 -0.097590908 -0.027467765 2.3418047e-38
-0.068666466 -0.097590908 -0.027467765 2.3418047e-38
-0.066622391 -0.096663594 -0.023535527 2.332621e-38
-0.064640202 -0.095941633 -0.020474114 2.2956709e-38
-0.062513493 -0.094535068 -0.014509596 2.3048905e-38
-0.060716204 -0.094535068 -0.014509596 2.3233296e-38
-0.058918916 -0.094535068 -0.014509596 2.3509883e-38
-0.056976579 -0.093825653 -0.01150135 2.3509883e-38
-0.055184565 -0.093825653 -0.01150135 2.3509883e-38
-0.053392559 -0.093825653 -0.01150135 2.3509886e-38
-0.051600546 -0.093825653 -0.01150135 2.3509886e-38
-0.049808532 -0.093825653 -0.01150135 2.3509886e-38
-0.047898546 -0.093120396 -0.0085107461 2.3509886e-38
-0.046111777 -0.093120396 -0.0085107461 2.3509886e-38
-0.044218145 -0.092419267 -0.0055376664 2.3509886e-38
-0.042436585 -0.092419267 -0.0055376664 2.3509886e-38
-0.040555857 -0.091698244 -0.0024801865 2.3509883e-38
-0.038779661 -0.091698244 -0.0024801865 2.3509886e-38
-0.037003465 -0.091698244 -0.0024801865 2.3509883e-38
-0.035065308 -0.090292826 0.0034794435 2.3509879e-38
-0.033299565 -0.090292826 0.0034794435 2.3509879e-38
-0.031533815 -0.090292826 0.0034794435 2.350988e-38
-0.029768074 -0.090292826 0.0034794435 2.350988e-38
-0.027941765 -0.089584544 0.0064829215 2.3509883e-38
-0.026181286 -0.089584544 0.0064829215 2.3509886e-38
-0.024420807 -0.089584544 0.0064829215 2.3509886e-38
-0.022660324 -0.089584544 0.0064829215 2.3509886e-38
-0.020899845 -0.089584544 0.0064829215 2.3509886e-38
-0.019139366 -0.089584544 0.0064829215 2.3417691e-38
-0.017378887 -0.089584544 0.0064829215 2.3233299e-38
-0.015618406 -0.089584544 0.0064829215 2.3417687e-38
-0.013857925 -0.089584544 0.0064829215 2.350988e-38
-0.012097446 -0.089584544 0.0064829215 2.3509879e-38
-0.010336967 -0.089584544 0.0064829215 2.3325846e-38
-0.0085764863 -0.089584544 0.0064829215 2.3233652e-38
-0.0068160072 -0.089584544 0.0064829215 2.3509883e-38
-0.0050633792 -0.088880435 0.0094686374 2.3509886e-38
-0.0033081342 -0.088880435 0.0094686374 2.3509886e-38
-0.0015528891 -0.088880435 0.0094686374 2.3509886e-38
0.00020235498 -0.088880435 0.0094686374 2.3509886e-38
0.0019576 -0.088880435 0.0094686374 2.3509886e-38
0.003712845 -0.088880435 0.0094686374 2.3325494e-38
0.0054277647 -0.088157266 0.012535237 2.3233299e-38
0.0071776323 -0.088157266 0.012535237 2.3509886e-38
0.008878367 -0.087461635 0.015485011 2.3509886e-38
0.010623064 -0.087461635 0.015485011 2.3509886e-38
0.012367759 -0.087461635 0.015485011 2.3509886e-38
0.014046051 -0.086747125 0.018514894 2.3509886e-38
0.015785435 -0.086747125 0.018514894 2.3509886e-38
0.017524818 -0.086747125 0.018514894 2.3509886e-38
0.01918236 -0.086036935 0.021526419 2.3509886e-38
0.020916462 -0.086036935 0.021526419 2.3509886e-38
0.02274297 -0.086747125 0.018514894 2.3509886e-38
0.024482353 -0.086747125 0.018514894 2.3509886e-38
0.026221739 -0.086747125 0.018514894 2.3509886e-38
0.027961122 -0.086747125 0.018514894 2.3509886e-38
0.029814722 -0.087461635 0.015485011 2.3509886e-38
0.031559415 -0.087461635 0.015485011 2.3509886e-38
0.033304118 -0.087461635 0.015485011 2.3509886e-38
0.035307251 -0.088880435 0.0094686374 2.2956712e-38
0.037062496 -0.088880435 0.0094686374 2.3141103e-38
0.038956471 -0.089584544 0.0064829215 2.341769e-38
0.040861771 -0.090292826 0.0034794435 2.3509886e-38
0.042627513 -0.090292826 0.0034794435 2.3509886e-38
0.044393256 -0.090292826 0.0034794435 2.3509886e-38
0.046159007 -0.090292826 0.0034794435 2.3509886e-38
0.048086055 -0.090981558 0.00055893511 2.3509883e-38
0.049856916 -0.090981558 0.00055893511 2.2496085e-38
0.051627785 -0.090981558 0.00055893511 2.3233648e-38
0.053582489 -0.091698244 -0.0024801865 2.3509879e-38
0.055358678 -0.091698244 -0.0024801865 2.3509879e-38
0.057134874 -0.091698244 -0.0024801865 2.3509883e-38
0.05891107 -0.091698244 -0.0024801865 2.341805e-38
0.060687266 -0.091698244 -0.0024801865 2.3234379e-38
0.062675215 -0.092419267 -0.0055376664 2.3142544e-38
0.064456768 -0.092419267 -0.0055376664 2.3142544e-38
0.066238321 -0.092419267 -0.0055376664 2.286632e-38
0.068019882 -0.092419267 -0.0055376664 2.2129483e-38
0.069801435 -0.092419267 -0.0055376664 2.2958873e-38
0.071344435 -0.091698244 -0.0024801865 2.2867037e-38
0.073120631 -0.091698244 -0.0024801865 2.2683007e-38
0.074896827 -0.091698244 -0.0024801865 2.2775202e-38
0.076673023 -0.091698244 -0.0024801865 2.2591531e-38
0.08642938 -0.10349102 -0.052487053 1.8722209e-38
0.088021256 -0.10278064 -0.049474634 1.6693542e-38
0.089604117 -0.10207425 -0.046479262 1.4756713e-38
0.091457464 -0.10207425 -0.046479262 1.2635847e-38
0.093310796 -0.10207425 -0.046479262 1.0329878e-38
-0.1049551 -0.10869466 -0.06654457 2.350988e-38
-0.10306657 -0.10869466 -0.06654457 2.3509874e-38
-0.10117806 -0.10869466 -0.06654457 2.2127292e-38
-0.098948933 -0.10774307 -0.062539257 2.3509869e-38
-0.097067438 -0.10774307 -0.062539257 2.3509521e-38
-0.094935678 -0.10701384 -0.059469737 2.3509168e-38
-0.092825077 -0.10631551 -0.056530394 2.3047468e-38
-0.09063863 -0.10535492 -0.052487053 2.323258e-38
-0.088545002 -0.10463922 -0.049474634 2.3509527e-38
-0.08668641 -0.10463922 -0.049474634 2.3509527e-38
-0.084609859 -0.1039276 -0.046479262 2.3509527e-38
-0.08254502 -0.10322 -0.043500818 2.3232936e-38
-0.080416106 -0.10225673 -0.039446272 2.2956712e-38
-0.078376688 -0.10155846 -0.036507167 2.31411e-38
-0.076341577 -0.10083848 -0.033476628 2.3418047e-38
-0.074318208 -0.10012263 -0.030463494 2.3418047e-38
-0.07249295 -0.10012263 -0.030463494 2.3418047e-38
-0.070486479 -0.099410906 -0.027467765 2.3418047e-38
-0.068435505 -0.098476708 -0.023535527 2.3418047e-38
-0.066622391 -0.098476708 -0.023535527 2.3418047e-38
-0.064640202 -0.097749382 -0.020474114 2.3509883e-38
-0.062513493 -0.096332356 -0.014509596 2.3509883e-38
-0.060716204 -0.096332356 -0.014509596 2.3417687e-38
-0.058768593 -0.095617667 -0.01150135 2.3417687e-38
-0.056976579 -0.095617667 -0.01150135 2.3417687e-38
-0.055184565 -0.095617667 -0.01150135 2.3417687e-38
-0.053392559 -0.095617667 -0.01150135 2.3509886e-38
-0.051600546 -0.095617667 -0.01150135 2.3509886e-38
-0.049685314 -0.094907165 -0.0085107461 2.341769e-38
-0.047781259 -0.094200835 -0.0055376664 2.3509886e-38
-0.045999698 -0.094200835 -0.0055376664 2.3509886e-38
-0.044108249 -0.093474448 -0.0024801865 2.3509886e-38
-0.042332053 -0.093474448 -0.0024801865 2.3509886e-38
-0.040457278 -0.092752427 0.00055893511 2.3509886e-38
-0.03868641 -0.092752427 0.00055893511 2.3509886e-38
-0.036915548 -0.092752427 0.00055893511 2.3509886e-38
-0.035065308 -0.092058569 0.0034794435 2.350988e-38
-0.033299565 -0.092058569 0.0034794435 2.3509879e-38
-0.031533815 -0.092058569 0.0034794435 2.350988e-38
-0.029702244 -0.091345012 0.0064829215 2.3325492e-38
-0.027941765 -0.091345012 0.0064829215 2.341769e-38
-0.026181286 -0.091345012 0.0064829215 2.3509886e-38
-0.024420807 -0.091345012 0.0064829215 2.3417691e-38
-0.022660324 -0.091345012 0.0064829215 2.3233302e-38
-0.020899845 -0.091345012 0.0064829215 2.3509886e-38
-0.019139366 -0.091345012 0.0064829215 2.3509886e-38
-0.017378887 -0.091345012 0.0064829215 2.3509886e-38
-0.015618406 -0.091345012 0.0064829215 2.3509886e-38
-0.013857925 -0.091345012 0.0064829215 2.3509883e-38
-0.012097446 -0.091345012 0.0064829215 2.3325847e-38
-0.010329114 -0.090635687 0.0094686374 2.350988e-38
-0.0085738692 -0.090635687 0.0094686374 2.350988e-38
-0.0068186242 -0.090635687 0.0094686374 2.3509883e-38
-0.0050633792 -0.090635687 0.0094686374 2.341769e-38
-0.0033081342 -0.090635687 0.0094686374 2.3325494e-38
-0.0015898105 -0.089206338 0.015485011 2.341769e-38
0.00015488639 -0.089206338 0.015485011 2.3509886e-38
0.0019576 -0.090635687 0.0094686374 2.3509886e-38
0.0036778962 -0.089907125 0.012535237 2.3509886e-38
0.0053889751 -0.089206338 0.015485011 2.3509886e-38
0.0071336711 -0.089206338 0.015485011 2.3509886e-38
0.008878367 -0.089206338 0.015485011 2.3509886e-38
0.010567283 -0.088486508 0.018514894 2.3509886e-38
0.012306668 -0.088486508 0.018514894 2.3509886e-38
0.014046051 -0.088486508 0.018514894 2.3509886e-38
0.015785435 -0.088486508 0.018514894 2.3509886e-38
0.017524818 -0.088486508 0.018514894 2.3509886e-38
0.01918236 -0.087771028 0.021526419 2.3509886e-38
0.020916462 -0.087771028 0.021526419 2.3509886e-38
0.02274297 -0.088486508 0.018514894 2.3509886e-38
0.024482353 -0.088486508 0.018514894 2.3509886e-38
0.026221739 -0.088486508 0.018514894 2.3509886e-38
0.027961122 -0.088486508 0.018514894 2.3509886e-38
0.029700505 -0.088486508 0.018514894 2.3509886e-38
0.031439885 -0.088486508 0.018514894 2.3509886e-38
0.033304118 -0.089206338 0.015485011 2.3509886e-38
0.035175525 -0.089907125 0.012535237 2.3509886e-38
0.03692539 -0.089907125 0.012535237 2.3509886e-38
0.038956471 -0.091345012 0.0064829215 2.3509886e-38
0.040861771 -0.092058569 0.0034794435 2.341769e-38
0.042627513 -0.092058569 0.0034794435 2.3509886e-38
0.044237912 -0.091345012 0.0064829215 2.3509886e-38
0.045998387 -0.091345012 0.0064829215 2.3325494e-38
0.04792475 -0.092058569 0.0034794435 2.3048905e-38
0.0496905 -0.092058569 0.0034794435 2.3325129e-38
0.051456243 -0.092058569 0.0034794435 2.350988e-38
0.053221986 -0.092058569 0.0034794435 2.350988e-38
0.055169515 -0.092752427 0.00055893511 2.3417327e-38
0.057134874 -0.093474448 -0.0024801865 2.314074e-38
0.05891107 -0.093474448 -0.0024801865 2.341769e-38
0.060687266 -0.093474448 -0.0024801865 2.341805e-38
0.062463462 -0.093474448 -0.0024801865 2.3050349e-38
0.064239658 -0.093474448 -0.0024801865 2.268157e-38
0.066015854 -0.093474448 -0.0024801865 2.3142544e-38
0.067792043 -0.093474448 -0.0024801865 2.2774125e-38
0.069568239 -0.093474448 -0.0024801865 2.2867037e-38
0.071107313 -0.092752427 0.00055893511 2.2774843e-38
0.072878182 -0.092752427 0.00055893511 2.2406783e-38
0.074649051 -0.092752427 0.00055893511 2.2867037e-38
0.076673023 -0.093474448 -0.0024801865 2.2314948e-38
0.082701646 -0.10535492 -0.052487053 2.2499695e-38
0.084565513 -0.10535492 -0.052487053 2.2591531e-38
0.08642938 -0.10535492 -0.052487053 2.2591531e-38
0.088021256 -0.10463922 -0.049474634 2.2775202e-38
0.089604117 -0.1039276 -0.046479262 2.2591531e-38
0.091457464 -0.1039276 -0.046479262 2.2683366e-38
0.093310796 -0.1039276 -0.046479262 2.2867037e-38
0.095164143 -0.1039276 -0.046479262 2.2958873e-38
0.097017474 -0.1039276 -0.046479262 2.2867037e-38
-0.10684361 -0.11058317 -0.06654457 2.3509866e-38
-0.1049551 -0.11058317 -0.06654457 2.3509863e-38
-0.10306657 -0.11058317 -0.06654457 2.3509869e-38
-0.10083043 -0.10962458 -0.062539257 2.3509879e-38
-0.098948933 -0.10962458 -0.062539257 2.3509883e-38
-0.096811794 -0.10888995 -0.059469737 2.3509527e-38
-0.094696037 -0.10818647 -0.056530394 2.3509527e-38
-0.092502512 -0.10721879 -0.052487053 2.3509527e-38
-0.090403594 -0.10649781 -0.049474634 2.3509886e-38
-0.088545002 -0.10649781 -0.049474634 2.3509886e-38
-0.086463206 -0.10578094 -0.046479262 2.3509886e-38
-0.084393136 -0.1050681 -0.043500818 2.3509886e-38
-0.082048409 -0.10339431 -0.036507167 2.3509886e-38
-0.080212556 -0.10339431 -0.036507167 2.3509886e-38
-0.078172125 -0.10266902 -0.033476628 2.3509886e-38
-0.076143466 -0.10194789 -0.030463494 2.341805e-38
-0.074126489 -0.10123092 -0.027467765 2.341805e-38
-0.072306491 -0.10123092 -0.027467765 2.3418047e-38
-0.070248611 -0.10028981 -0.023535527 2.3418047e-38
-0.068435505 -0.10028981 -0.023535527 2.3418045e-38
-0.066447943 -0.099557132 -0.020474114 2.3418045e-38
-0.064477898 -0.098853827 -0.017535485 2.3509883e-38
-0.062513493 -0.098129645 -0.014509596 2.3509883e-38
-0.060716204 -0.098129645 -0.014509596 2.3509883e-38
-0.058768593 -0.09740968 -0.01150135 2.3509883e-38
-0.056976579 -0.09740968 -0.01150135 2.3509883e-38
-0.055045612 -0.096693933 -0.0085107461 2.3509883e-38
-0.053258844 -0.096693933 -0.0085107461 2.3509886e-38
-0.051472075 -0.096693933 -0.0085107461 2.3509886e-38
-0.049562812 -0.095982388 -0.0055376664 2.3509886e-38
-0.047781259 -0.095982388 -0.0055376664 2.3509886e-38
-0.045999698 -0.095982388 -0.0055376664 2.3509886e-38
-0.044108249 -0.095250636 -0.0024801865 2.3509886e-38
-0.042332053 -0.095250636 -0.0024801865 2.3509886e-38
-0.040457278 -0.094523281 0.00055893511 2.3509886e-38
-0.03868641 -0.094523281 0.00055893511 2.3509886e-38
-0.036915548 -0.094523281 0.00055893511 2.3509886e-38
-0.035065308 -0.093824327 0.0034794435 2.3509883e-38
-0.033299565 -0.093824327 0.0034794435 2.350988e-38
-0.031533815 -0.093824327 0.0034794435 2.3509883e-38
-0.029702244 -0.093105495 0.0064829215 2.3509883e-38
-0.027941765 -0.093105495 0.0064829215 2.3509886e-38
-0.026181286 -0.093105495 0.0064829215 2.3509886e-38
-0.024420807 -0.093105495 0.0064829215 2.3509886e-38
-0.022660324 -0.093105495 0.0064829215 2.3509886e-38
-0.020899845 -0.093105495 0.0064829215 2.3509886e-38
-0.019139366 -0.093105495 0.0064829215 2.3509886e-38
-0.017378887 -0.093105495 0.0064829215 2.3509886e-38
-0.015618406 -0.093105495 0.0064829215 2.3509886e-38
-0.013857925 -0.093105495 0.0064829215 2.3509883e-38
-0.012097446 -0.093105495 0.0064829215 2.350988e-38
-0.010329114 -0.092390925 0.0094686374 2.350988e-38
-0.0085738692 -0.092390925 0.0094686374 2.350988e-38
-0.0068186242 -0.092390925 0.0094686374 2.3509883e-38
-0.0050633792 -0.092390925 0.0094686374 2.3509886e-38
-0.0033081342 -0.092390925 0.0094686374 2.3509886e-38
-0.0015898105 -0.090951025 0.015485011 2.3509886e-38
0.00015488639 -0.090951025 0.015485011 2.3509886e-38
0.0019576 -0.092390925 0.0094686374 2.3509886e-38
0.0036778962 -0.091656998 0.012535237 2.3509886e-38
0.0053889751 -0.090951025 0.015485011 2.3509886e-38
0.0071336711 -0.090951025 0.015485011 2.3509886e-38
0.008878367 -0.090951025 0.015485011 2.3509886e-38
0.010567283 -0.09022589 0.018514894 2.3509886e-38
0.012306668 -0.09022589 0.018514894 2.3509886e-38
0.014046051 -0.09022589 0.018514894 2.3509886e-38
0.015785435 -0.09022589 0.018514894 2.3509886e-38
0.017524818 -0.09022589 0.018514894 2.3509886e-38
0.01918236 -0.089505136 0.021526419 2.3509886e-38
0.020916462 -0.089505136 0.021526419 2.3509886e-38
0.022650566 -0.089505136 0.021526419 2.3509886e-38
0.024384672 -0.089505136 0.021526419 2.3509886e-38
0.026118772 -0.089505136 0.021526419 2.3509886e-38
0.027852876 -0.089505136 0.021526419 2.3509886e-38
0.02958698 -0.089505136 0.021526419 2.3509886e-38
0.031439885 -0.09022589 0.018514894 2.3509886e-38
0.033179276 -0.09022589 0.018514894 2.3509886e-38
0.035048813 -0.090951025 0.015485011 2.3509886e-38
0.036793508 -0.090951025 0.015485011 2.3509886e-38
0.038956471 -0.093105495 0.0064829215 2.3509886e-38
0.040716946 -0.093105495 0.0064829215 2.3509886e-38
0.042477429 -0.093105495 0.0064829215 2.3509886e-38
0.044237912 -0.093105495 0.0064829215 2.3509886e-38
0.045998387 -0.093105495 0.0064829215 2.3509886e-38
0.04775887 -0.093105495 0.0064829215 2.3509886e-38
0.049519353 -0.093105495 0.0064829215 2.3509527e-38
0.051279828 -0.093105495 0.0064829215 2.3509168e-38
0.053040311 -0.093105495 0.0064829215 2.3509168e-38
0.054987736 -0.093824327 0.0034794435 2.3509527e-38
0.056940384 -0.094523281 0.00055893511 2.3509527e-38
0.05891107 -0.095250636 -0.0024801865 2.3509886e-38
0.060687266 -0.095250636 -0.0024801865 2.341805e-38
0.062463462 -0.095250636 -0.0024801865 2.3234379e-38
0.064239658 -0.095250636 -0.0024801865 2.3234379e-38
0.066015854 -0.095250636 -0.0024801865 2.3142544e-38
0.067792043 -0.095250636 -0.0024801865 2.3142544e-38
0.069568239 -0.095250636 -0.0024801865 2.2958873e-38
0.071107313 -0.094523281 0.00055893511 2.2958873e-38
0.072878182 -0.094523281 0.00055893511 2.2867037e-38
0.074896827 -0.095250636 -0.0024801865 2.2867037e-38
0.076673023 -0.095250636 -0.0024801865 2.2958873e-38
0.083178617 -0.10339431 -0.036507167 2.3234379e-38
0.085274719 -0.10409774 -0.039446272 2.3234379e-38
0.088956736 -0.10409774 -0.039446272 2.3234379e-38
0.090797745 -0.10409774 -0.039446272 2.3234379e-38
0.093310796 -0.10578094 -0.046479262 2.3234379e-38
0.095455624 -0.10649781 -0.049474634 2.3234379e-38
0.097017474 -0.10578094 -0.046479262 2.3142544e-38
0.098870821 -0.10578094 -0.046479262 2.3142544e-38
0.1010314 -0.10649781 -0.049474634 2.3234379e-38
0.10288999 -0.10649781 -0.049474634 2.3234379e-38
0.10846577 -0.10649781 -0.049474634 2.3050708e-38
0.11032436 -0.10649781 -0.049474634 2.3141466e-38
0.11252362 -0.10721879 -0.052487053 2.3508077e-38
0.11438749 -0.10721879 -0.052487053 2.3509507e-38
-0.1127067 -0.1083564 -0.049474634 2.350988e-38
-0.11084811 -0.1083564 -0.049474634 2.3509883e-38
-0.10927738 -0.10908265 -0.052487053 2.350988e-38
-0.10779277 -0.11005743 -0.056530394 2.350987e-38
-0.10592181 -0.11005743 -0.056530394 2.3509866e-38
-0.10405085 -0.11005743 -0.056530394 2.3509866e-38
-0.10217989 -0.11005743 -0.056530394 2.350987e-38
-0.10030892 -0.11005743 -0.056530394 2.3509879e-38
-0.098094128 -0.10908265 -0.052487053 2.3509527e-38
-0.096230261 -0.10908265 -0.052487053 2.3509527e-38
-0.094366379 -0.10908265 -0.052487053 2.3509886e-38
-0.092262186 -0.1083564 -0.049474634 2.3509886e-38
-0.090403594 -0.1083564 -0.049474634 2.3509886e-38
-0.088316537 -0.10763429 -0.046479262 2.3509886e-38
-0.086241268 -0.10691623 -0.043500818 2.3509886e-38
-0.083884262 -0.10523017 -0.036507167 2.3509886e-38
-0.081833206 -0.10449956 -0.033476628 2.3509886e-38
-0.080002658 -0.10449956 -0.033476628 2.3509886e-38
-0.077968724 -0.10377313 -0.030463494 2.3509886e-38
-0.075946502 -0.10305093 -0.027467765 2.341805e-38
-0.074126489 -0.10305093 -0.027467765 2.341805e-38
-0.072061725 -0.10210292 -0.023535527 2.3418047e-38
-0.070248611 -0.10210292 -0.023535527 2.3418047e-38
-0.068255685 -0.10136487 -0.020474114 2.3418045e-38
-0.066280492 -0.10065642 -0.017535485 2.3418045e-38
-0.064477898 -0.10065642 -0.017535485 2.3509883e-38
-0.062513493 -0.099926919 -0.014509596 2.3509883e-38
-0.060560606 -0.099201679 -0.01150135 2.3509883e-38
-0.058768593 -0.099201679 -0.01150135 2.3509883e-38
-0.056832381 -0.098480701 -0.0085107461 2.3509883e-38
-0.054907478 -0.097763941 -0.0055376664 2.3509883e-38
-0.052989222 -0.09702684 -0.0024801865 2.3509886e-38
-0.051213026 -0.09702684 -0.0024801865 2.3509886e-38
-0.04943683 -0.09702684 -0.0024801865 2.3509886e-38
-0.047660641 -0.09702684 -0.0024801865 2.3509886e-38
-0.045884445 -0.09702684 -0.0024801865 2.3509886e-38
-0.044108249 -0.09702684 -0.0024801865 2.3509886e-38
-0.042332053 -0.09702684 -0.0024801865 2.3509886e-38
-0.040555857 -0.09702684 -0.0024801865 2.3509886e-38
-0.038779661 -0.09702684 -0.0024801865 2.3509527e-38
-0.037003465 -0.09702684 -0.0024801865 2.3509886e-38
-0.035065308 -0.09559007 0.0034794435 2.3509883e-38
-0.033299565 -0.09559007 0.0034794435 2.350988e-38
-0.031533815 -0.09559007 0.0034794435 2.3509883e-38
-0.029702244 -0.094865978 0.0064829215 2.3509883e-38
-0.027941765 -0.094865978 0.0064829215 2.3509886e-38
-0.026181286 -0.094865978 0.0064829215 2.3509886e-38
-0.024420807 -0.094865978 0.0064829215 2.3509886e-38
-0.022660324 -0.094865978 0.0064829215 2.3509886e-38
-0.020899845 -0.094865978 0.0064829215 2.3509886e-38
-0.019139366 -0.094865978 0.0064829215 2.3509886e-38
-0.017378887 -0.094865978 0.0064829215 2.3509886e-38
-0.015618406 -0.094865978 0.0064829215 2.3509886e-38
-0.013857925 -0.094865978 0.0064829215 2.3509883e-38
-0.012097446 -0.094865978 0.0064829215 2.3509883e-38
-0.010336967 -0.094865978 0.0064829215 2.3509883e-38
-0.0085764863 -0.094865978 0.0064829215 2.3509883e-38
-0.0068186242 -0.094146177 0.0094686374 2.3509886e-38
-0.0050714444 -0.093406871 0.012535237 2.3509886e-38
-0.0033215769 -0.093406871 0.012535237 2.3509886e-38
-0.0015717084 -0.093406871 0.012535237 2.3509886e-38
0.00017816015 -0.093406871 0.012535237 2.3509886e-38
0.0019280277 -0.093406871 0.012535237 2.3509886e-38
0.0036778962 -0.093406871 0.012535237 2.3509886e-38
0.0054277647 -0.093406871 0.012535237 2.3509886e-38
0.0071776323 -0.093406871 0.012535237 2.3509886e-38
0.0093779769 -0.099926919 -0.014509596 2.3509886e-38
0.010623064 -0.092695728 0.015485011 2.3509886e-38
0.012367759 -0.092695728 0.015485011 2.3509886e-38
0.014046051 -0.091965273 0.018514894 2.3509886e-38
0.015785435 -0.091965273 0.018514894 2.3509886e-38
0.017524818 -0.091965273 0.018514894 2.3509886e-38
0.01918236 -0.091239244 0.021526419 2.3509886e-38
0.020916462 -0.091239244 0.021526419 2.3509886e-38
0.022650566 -0.091239244 0.021526419 2.3509886e-38
0.024384672 -0.091239244 0.021526419 2.3509886e-38
0.026118772 -0.091239244 0.021526419 2.3509886e-38
0.027852876 -0.091239244 0.021526419 2.3509886e-38
0.02958698 -0.091239244 0.021526419 2.3509886e-38
0.031439885 -0.091965273 0.018514894 2.3509886e-38
0.033179276 -0.091965273 0.018514894 2.3509886e-38
0.035048813 -0.092695728 0.015485011 2.3509886e-38
0.036793508 -0.092695728 0.015485011 2.3509886e-38
0.038956471 -0.094865978 0.0064829215 2.3509886e-38
0.040716946 -0.094865978 0.0064829215 2.3509886e-38
0.042328231 -0.094146177 0.0094686374 2.3509886e-38
0.044083476 -0.094146177 0.0094686374 2.3509886e-38
0.045838721 -0.094146177 0.0094686374 2.3509886e-38
0.047593966 -0.094146177 0.0094686374 2.3509886e-38
0.049174465 -0.093406871 0.012535237 2.3509168e-38
0.050924338 -0.093406871 0.012535237 2.3509168e-38
0.052674204 -0.093406871 0.012535237 2.3509168e-38
0.054614946 -0.094146177 0.0094686374 2.3509168e-38
0.056561269 -0.094865978 0.0064829215 2.3509527e-38
0.058519222 -0.09559007 0.0034794435 2.3509527e-38
0.060482115 -0.09629415 0.00055893511 2.3509527e-38
0.062463462 -0.09702684 -0.0024801865 2.341805e-38
0.064239658 -0.09702684 -0.0024801865 2.341805e-38
0.066015854 -0.09702684 -0.0024801865 2.3234379e-38
0.068019882 -0.097763941 -0.0055376664 2.3234379e-38
0.069568239 -0.09702684 -0.0024801865 2.3142544e-38
0.071344435 -0.09702684 -0.0024801865 2.3142541e-38
0.073120631 -0.09702684 -0.0024801865 2.295887e-38
0.074896827 -0.09702684 -0.0024801865 2.295887e-38
0.076673023 -0.09702684 -0.0024801865 2.3142541e-38
0.08501447 -0.10523017 -0.036507167 2.3509168e-38
0.086850323 -0.10523017 -0.036507167 2.3509168e-38
0.088686191 -0.10523017 -0.036507167 2.3509527e-38
0.090522043 -0.10523017 -0.036507167 2.3509527e-38
0.093026184 -0.10691623 -0.043500818 2.3509886e-38
0.0948743 -0.10691623 -0.043500818 2.341805e-38
0.096722417 -0.10691623 -0.043500818 2.341805e-38
0.098570548 -0.10691623 -0.043500818 2.3233662e-38
0.10041866 -0.10691623 -0.043500818 2.3141466e-38
0.1025775 -0.10763429 -0.046479262 2.2958154e-38
0.1041149 -0.10691623 -0.043500818 2.3142544e-38
0.10596301 -0.10691623 -0.043500818 2.3142544e-38
0.10781113 -0.10691623 -0.043500818 2.3050349e-38
0.10999086 -0.10763429 -0.046479262 2.3233652e-38
0.11218295 -0.1083564 -0.049474634 2.3509149e-38
0.11404154 -0.1083564 -0.049474634 2.3509495e-38
0.11590014 -0.1083564 -0.049474634 2.3506607e-38
0.11775871 -0.1083564 -0.049474634 8.6634787e-39
-0.1127067 -0.11021499 -0.049474634 2.3141444e-38
-0.11084811 -0.11021499 -0.049474634 2.3509869e-38
-0.10927738 -0.11094652 -0.052487053 2.3509873e-38
-0.10741349 -0.11094652 -0.052487053 2.350988e-38
-0.10554963 -0.11094652 -0.052487053 2.3509883e-38
-0.10368574 -0.11094652 -0.052487053 2.3509883e-38
-0.10182188 -0.11094652 -0.052487053 2.350988e-38
-0.099957995 -0.11094652 -0.052487053 2.3509873e-38
-0.097837962 -0.11021499 -0.049474634 2.3509873e-38
-0.09572991 -0.10948761 -0.046479262 2.3509883e-38
-0.093876563 -0.10948761 -0.046479262 2.341805e-38
-0.092023231 -0.10948761 -0.046479262 2.341805e-38
-0.089937501 -0.10876434 -0.043500818 2.341805e-38
-0.087555967 -0.10706602 -0.036507167 2.341805e-38
-0.085494287 -0.10633011 -0.033476628 2.341805e-38
-0.083444498 -0.10559841 -0.030463494 2.341805e-38
-0.081406511 -0.10487093 -0.027467765 2.341805e-38
-0.079586513 -0.10487093 -0.027467765 2.341805e-38
-0.0777665 -0.10487093 -0.027467765 2.341805e-38
-0.075946502 -0.10487093 -0.027467765 2.341805e-38
-0.073874839 -0.10391603 -0.023535527 2.341805e-38
-0.072061725 -0.10391603 -0.023535527 2.3418047e-38
-0.070063435 -0.10317262 -0.020474114 2.3418047e-38
-0.068255685 -0.10317262 -0.020474114 2.3418045e-38
-0.066280492 -0.10245901 -0.017535485 2.3418045e-38
-0.064310782 -0.10172421 -0.014509596 2.3509883e-38
-0.06235262 -0.10099369 -0.01150135 2.3509527e-38
-0.060560606 -0.10099369 -0.01150135 2.3509527e-38
-0.058768593 -0.10099369 -0.01150135 2.3509527e-38
-0.056832381 -0.10026747 -0.0085107461 2.3509527e-38
-0.054907478 -0.099545494 -0.0055376664 2.3509527e-38
-0.052989222 -0.098803028 -0.0024801865 2.3509886e-38
-0.051213026 -0.098803028 -0.0024801865 2.3509886e-38
-0.04943683 -0.098803028 -0.0024801865 2.3509886e-38
-0.047660641 -0.098803028 -0.0024801865 2.3509886e-38
-0.045884445 -0.098803028 -0.0024801865 2.341805e-38
-0.044108249 -0.098803028 -0.0024801865 2.341805e-38
-0.042332053 -0.098803028 -0.0024801865 2.341805e-38
-0.040555857 -0.098803028 -0.0024801865 2.341805e-38
-0.038779661 -0.098803028 -0.0024801865 2.341805e-38
-0.037003465 -0.098803028 -0.0024801865 2.341805e-38
-0.035144679 -0.098065019 0.00055893511 2.3509886e-38
-0.033299565 -0.097355813 0.0034794435 2.3509883e-38
-0.031533815 -0.097355813 0.0034794435 2.3509886e-38
-0.029702244 -0.096626461 0.0064829215 2.3509886e-38
-0.027941765 -0.096626461 0.0064829215 2.3509886e-38
-0.026181286 -0.096626461 0.0064829215 2.3509886e-38
-0.024420807 -0.096626461 0.0064829215 2.3509886e-38
-0.022660324 -0.096626461 0.0064829215 2.3509886e-38
-0.020899845 -0.096626461 0.0064829215 2.3509886e-38
-0.019139366 -0.096626461 0.0064829215 2.3509886e-38
-0.017378887 -0.096626461 0.0064829215 2.3509886e-38
-0.015618406 -0.096626461 0.0064829215 2.3509886e-38
-0.013876358 -0.097355813 0.0034794435 2.3509886e-38
-0.012110611 -0.097355813 0.0034794435 2.3509883e-38
-0.010336967 -0.096626461 0.0064829215 2.3509883e-38
-0.0085764863 -0.096626461 0.0064829215 2.3509883e-38
-0.0068186242 -0.095901415 0.0094686374 2.3509886e-38
-0.0050714444 -0.095156729 0.012535237 2.3509886e-38
-0.0033215769 -0.095156729 0.012535237 2.3509886e-38
-0.0015717084 -0.095156729 0.012535237 2.3509886e-38
0.0021309815 -0.10026747 -0.0085107461 2.3509886e-38
0.0039518336 -0.10099369 -0.01150135 2.3509886e-38
0.0057438454 -0.10099369 -0.01150135 2.3509886e-38
0.0075358581 -0.10099369 -0.01150135 2.3509886e-38
0.0093278699 -0.10099369 -0.01150135 2.3509886e-38
0.011119882 -0.10099369 -0.01150135 2.3509886e-38
0.012791647 -0.099545494 -0.0055376664 2.3509886e-38
0.014573203 -0.099545494 -0.0055376664 2.3509886e-38
0.016282389 -0.098803028 -0.0024801865 2.3509886e-38
0.018058583 -0.098803028 -0.0024801865 2.3509886e-38
0.019834779 -0.098803028 -0.0024801865 2.3509886e-38
0.021003585 -0.093704656 0.018514894 2.3509886e-38
0.022650566 -0.092973351 0.021526419 2.3509886e-38
0.024384672 -0.092973351 0.021526419 2.3509886e-38
0.026118772 -0.092973351 0.021526419 2.3509886e-38
0.027852876 -0.092973351 0.021526419 2.3509886e-38
0.02958698 -0.092973351 0.021526419 2.3509886e-38
0.031439885 -0.093704656 0.018514894 2.3509886e-38
0.033179276 -0.093704656 0.018514894 2.3509886e-38
0.035048813 -0.094440416 0.015485011 2.3509886e-38
0.036793508 -0.094440416 0.015485011 2.3509886e-38
0.038956471 -0.096626461 0.0064829215 2.3509886e-38
0.040572986 -0.095901415 0.0094686374 2.3509886e-38
0.042328231 -0.095901415 0.0094686374 2.3509886e-38
0.044083476 -0.095901415 0.0094686374 2.3509886e-38
0.045674734 -0.095156729 0.012535237 2.3509886e-38
0.0474246 -0.095156729 0.012535237 2.3509886e-38
0.04900638 -0.094440416 0.015485011 2.3508809e-38
0.050751075 -0.094440416 0.015485011 2.3508809e-38
0.05249577 -0.094440416 0.015485011 2.3509168e-38
0.054240465 -0.094440416 0.015485011 2.3509168e-38
0.056370191 -0.095901415 0.0094686374 2.3509168e-38
0.058125436 -0.095901415 0.0094686374 2.3509527e-38
0.059880681 -0.095901415 0.0094686374 2.3509527e-38
0.062050715 -0.097355813 0.0034794435 2.341805e-38
0.063816465 -0.097355813 0.0034794435 2.341805e-38
0.065582208 -0.097355813 0.0034794435 2.3234376e-38
0.067565583 -0.098065019 0.00055893511 2.3234374e-38
0.069336452 -0.098065019 0.00055893511 2.3234374e-38
0.071107313 -0.098065019 0.00055893511 2.3234372e-38
0.072878182 -0.098065019 0.00055893511 2.3142537e-38
0.074649051 -0.098065019 0.00055893511 2.3142534e-38
0.076419912 -0.098065019 0.00055893511 2.3418043e-38
0.08501447 -0.10706602 -0.036507167 2.3508807e-38
0.086850323 -0.10706602 -0.036507167 2.3508807e-38
0.088686191 -0.10706602 -0.036507167 2.3509168e-38
0.090522043 -0.10706602 -0.036507167 2.3509168e-38
0.092638753 -0.10777976 -0.039446272 2.3509168e-38
0.094479762 -0.10777976 -0.039446272 2.3509527e-38
0.096722417 -0.10876434 -0.043500818 2.3509527e-38
0.098570548 -0.10876434 -0.043500818 2.3509886e-38
0.10041866 -0.10876434 -0.043500818 2.341769e-38
0.10226678 -0.10876434 -0.043500818 2.3234015e-38
0.1041149 -0.10876434 -0.043500818 2.3418045e-38
0.10596301 -0.10876434 -0.043500818 2.3418045e-38
0.10781113 -0.10876434 -0.043500818 2.3418043e-38
0.10965925 -0.10876434 -0.043500818 2.3509869e-38
0.1118442 -0.10948761 -0.046479262 2.3509133e-38
0.11369754 -0.10948761 -0.046479262 2.350768e-38
0.11555088 -0.10948761 -0.046479262 2.3320401e-38
0.11811524 -0.11094652 -0.052487053 1.0506301e-38
-0.13621026 -0.1145183 -0.059469737 1.2722986e-38
-0.13350774 -0.11281042 -0.052487053 1.2814102e-38
-0.13129263 -0.11207359 -0.049474634 1.3274362e-38
-0.12943403 -0.11207359 -0.049474634 1.3458033e-38
-0.12014107 -0.11207359 -0.049474634 2.3417679e-38
-0.11828247 -0.11207359 -0.049474634 2.2956346e-38
-0.11611665 -0.11134095 -0.046479262 2.2679758e-38
-0.1142633 -0.11134095 -0.046479262 2.3509873e-38
-0.1127067 -0.11207359 -0.049474634 2.3509869e-38
-0.11084811 -0.11207359 -0.049474634 2.350987e-38
-0.10898951 -0.11207359 -0.049474634 2.3509876e-38
-0.10713092 -0.11207359 -0.049474634 2.3509527e-38
-0.10499661 -0.11134095 -0.046479262 2.3509527e-38
-0.10314327 -0.11134095 -0.046479262 2.3509527e-38
-0.10155515 -0.11207359 -0.049474634 2.3509883e-38
-0.099436589 -0.11134095 -0.046479262 2.3509876e-38
-0.097329967 -0.11061247 -0.043500818 2.3509873e-38
-0.09548185 -0.11061247 -0.043500818 2.350988e-38
-0.093633734 -0.11061247 -0.043500818 2.3418047e-38
-0.091462158 -0.10962076 -0.039446272 2.3418047e-38
-0.089621149 -0.10962076 -0.039446272 2.341805e-38
-0.087324835 -0.10816063 -0.033476628 2.341805e-38
-0.085269757 -0.10742365 -0.030463494 2.341805e-38
-0.083226524 -0.10669093 -0.027467765 2.341805e-38
-0.081127293 -0.10572915 -0.023535527 2.341805e-38
-0.07931418 -0.10572915 -0.023535527 2.341805e-38
-0.077501066 -0.10572915 -0.023535527 2.341805e-38
-0.075687952 -0.10572915 -0.023535527 2.341805e-38
-0.073874839 -0.10572915 -0.023535527 2.341805e-38
-0.072061725 -0.10572915 -0.023535527 2.3418047e-38
