# .PCD v0.7 - Point Cloud Data file format
VERSION 0.7
FIELDS x y z rgb
SIZE 4 4 4 4
TYPE F F F F
COUNT 1 1 1 1
WIDTH 945
HEIGHT 1
VIEWPOINT 0 0 0 1 0 0 0
POINTS 945
DATA ascii
0.042378377 -0.12202574 -0.019596763 2.3509527e-38
0.044380616 -0.12280498 -0.022609897 2.3509168e-38
0.046394479 -0.12358873 -0.025640436 2.3509883e-38
0.048413273 -0.12434883 -0.028579541 2.3418045e-38
0.050513756 -0.1253974 -0.032634087 2.3234372e-38
0.052754652 -0.12694232 -0.038607903 2.3142537e-38
0.054613244 -0.12694232 -0.038607903 2.2958867e-38
0.056680467 -0.12772138 -0.041620322 2.3142538e-38
0.058831457 -0.12876706 -0.045663662 2.3418043e-38
0.060702424 -0.12876706 -0.045663662 2.3324757e-38
0.062573381 -0.12876706 -0.045663662 2.3138556e-38
0.064902641 -0.13032107 -0.051672526 2.350804e-38
0.067096658 -0.13135691 -0.055677839 2.3505857e-38
0.069224097 -0.13213144 -0.058672734 2.2580278e-38
0.071439229 -0.13315077 -0.06261427 2.1103331e-38
0.073592551 -0.13393532 -0.065647908 1.9719665e-38
0.075747959 -0.13469382 -0.068580814 1.9626026e-38
0.077659108 -0.13469382 -0.068580814 2.2576297e-38
0.079925694 -0.13573201 -0.072595187 2.2300452e-38
0.082122885 -0.13653107 -0.075684972 1.9443477e-38
0.084775724 -0.13857989 -0.083607145 1.9446001e-38
0.087375186 -0.14040495 -0.090664215 2.1384632e-38
0.08960662 -0.141167 -0.093610831 2.1293889e-38
0.092345901 -0.14325126 -0.10167009 2.0189e-38
0.09461277 -0.14402847 -0.10467536 1.9913163e-38
0.096980952 -0.14503856 -0.10858101 1.9360366e-38
0.099378698 -0.14608859 -0.11264128 1.9637669e-38
0.10178033 -0.14711304 -0.11660249 1.8532035e-38
0.10377567 -0.14711304 -0.11660249 1.8163959e-38
0.10577103 -0.14711304 -0.11660249 1.1249284e-38
0.10776637 -0.14711304 -0.11660249 8.3901512e-39
0.10976171 -0.14711304 -0.11660249 5.8086764e-39
0.11175705 -0.14711304 -0.11660249 4.2420668e-39
-0.10691113 -0.11736105 0.005329065 1.0600693e-38
-0.10512958 -0.11736105 0.005329065 1.0507418e-38
-0.10334801 -0.11736105 0.005329065 1.2809048e-38
-0.10156646 -0.11736105 0.005329065 1.787364e-38
-0.099784903 -0.11736105 0.005329065 2.3402814e-38
-0.09800335 -0.11736105 0.005329065 2.2943238e-38
-0.096221797 -0.11736105 0.005329065 2.3035419e-38
-0.094207041 -0.11656497 0.0083865449 2.321909e-38
-0.092430837 -0.11656497 0.0083865449 2.3496042e-38
-0.090654649 -0.11656497 0.0083865449 2.3217666e-38
-0.088662647 -0.11577369 0.011425667 2.3495329e-38
-0.086891778 -0.11577369 0.011425667 2.3127966e-38
-0.085120909 -0.11577369 0.011425667 2.3036837e-38
-0.08335004 -0.11577369 0.011425667 2.2762046e-38
-0.081200071 -0.11423124 0.017349653 2.2578745e-38
-0.079253741 -0.11345388 0.020335369 2.23029e-38
-0.077498503 -0.11345388 0.020335369 2.2211437e-38
-0.075743251 -0.11345388 0.020335369 2.2119966e-38
-0.073988013 -0.11345388 0.020335369 2.202813e-38
-0.07223276 -0.11345388 0.020335369 2.2767129e-38
-0.070313528 -0.11265542 0.023401968 2.2860043e-38
-0.068563662 -0.11265542 0.023401968 2.3136278e-38
-0.066813789 -0.11265542 0.023401968 2.3412874e-38
-0.064921699 -0.11188738 0.026351742 2.350652e-38
-0.063176997 -0.11188738 0.026351742 2.3507971e-38
-0.061432302 -0.11188738 0.026351742 2.3509064e-38
-0.059557453 -0.11109848 0.029381625 2.3509436e-38
-0.05781807 -0.11109848 0.029381625 2.350981e-38
-0.05595988 -0.11031438 0.03239315 2.3509818e-38
-0.054225776 -0.11031438 0.03239315 2.3509825e-38
-0.052491672 -0.11031438 0.03239315 2.3509832e-38
-0.050757568 -0.11031438 0.03239315 2.3509835e-38
-0.048957631 -0.10978593 0.034422807 2.3418001e-38
-0.047227085 -0.10978593 0.034422807 2.3418001e-38
-0.045555256 -0.11031438 0.03239315 2.3509837e-38
-0.043765996 -0.10978593 0.034422807 2.3509835e-38
-0.042035453 -0.10978593 0.034422807 2.3509838e-38
-0.04016421 -0.10823826 0.040366881 2.3509845e-38
-0.03837746 -0.10744675 0.043406896 2.3509849e-38
-0.036662668 -0.10744675 0.043406896 2.3509855e-38
-0.03489399 -0.10668461 0.046333961 2.350986e-38
-0.033184327 -0.10668461 0.046333961 2.3509869e-38
-0.031518288 -0.10744675 0.043406896 2.350987e-38
-0.029803496 -0.10744675 0.043406896 2.3509872e-38
-0.028088704 -0.10744675 0.043406896 2.3509874e-38
-0.026345683 -0.10668461 0.046333961 2.3509518e-38
-0.024636023 -0.10668461 0.046333961 2.350952e-38
-0.022895329 -0.10536788 0.051391058 2.3509161e-38
-0.021194534 -0.10536788 0.051391058 2.3509164e-38
-0.019485924 -0.10459404 0.054363243 2.3508805e-38
-0.017790342 -0.10459404 0.054363243 2.3509161e-38
-0.016094757 -0.10459404 0.054363243 2.3509879e-38
-0.014399175 -0.10459404 0.054363243 2.3509879e-38
-0.012703594 -0.10459404 0.054363243 2.3509883e-38
-0.01098977 -0.10536788 0.051391058 2.3509527e-38
-0.0092490762 -0.10668461 0.046333961 2.3509527e-38
-0.0075111892 -0.10744675 0.043406896 2.3509168e-38
-0.0057963962 -0.10744675 0.043406896 2.3509168e-38
-0.0040816031 -0.10744675 0.043406896 2.3417691e-38
-0.0023668103 -0.10744675 0.043406896 2.3509527e-38
-0.0006013813 -0.10823826 0.040366881 2.341805e-38
0.0011187417 -0.10823826 0.040366881 2.3418047e-38
0.0029996426 -0.11031438 0.03239315 2.3418045e-38
0.0047997478 -0.11109848 0.029381625 2.3418047e-38
0.0065391324 -0.11109848 0.029381625 2.3418047e-38
0.0083555449 -0.11188738 0.026351742 2.341805e-38
0.010180406 -0.11265542 0.023401968 2.341805e-38
0.012018992 -0.11345388 0.020335369 2.3234376e-38
0.013774237 -0.11345388 0.020335369 2.3142544e-38
0.01562633 -0.11423124 0.017349653 2.3234379e-38
0.017386809 -0.11423124 0.017349653 2.3142544e-38
0.019255243 -0.11501329 0.014346175 2.3234379e-38
0.021131083 -0.11577369 0.011425667 2.3050708e-38
0.022901949 -0.11577369 0.011425667 2.3142185e-38
0.024798036 -0.11656497 0.0083865449 2.3050708e-38
0.026705571 -0.11736105 0.005329065 2.3234379e-38
0.028620053 -0.11813517 0.0023559853 2.2866671e-38
0.030545775 -0.11891381 -0.0006346181 2.2313137e-38
0.032482836 -0.11969708 -0.0036428645 2.2221302e-38
0.034431327 -0.12048493 -0.0066687539 2.2958151e-38
0.036385912 -0.12125005 -0.0096073821 2.3142544e-38
0.038357373 -0.12204717 -0.012668796 2.3234379e-38
0.040387664 -0.123071 -0.016601034 2.3142185e-38
0.042207669 -0.123071 -0.016601034 2.3509886e-38
0.044203635 -0.12385099 -0.019596763 2.3509886e-38
0.046211157 -0.12463553 -0.022609897 2.350988e-38
0.048413273 -0.12618984 -0.028579541 2.341804e-38
0.050513756 -0.12724553 -0.032634087 2.3234367e-38
0.052754652 -0.12880091 -0.038607903 2.3234367e-38
0.054613244 -0.12880091 -0.038607903 2.3234369e-38
0.056680467 -0.12958528 -0.041620322 2.341804e-38
0.058831457 -0.13063805 -0.045663662 2.3233285e-38
0.060702424 -0.13063805 -0.045663662 2.3509146e-38
0.062573381 -0.13063805 -0.045663662 2.3507698e-38
0.064902641 -0.13220255 -0.051672526 2.3503719e-38
0.067096658 -0.13324542 -0.055677839 2.2856525e-38
0.069224097 -0.1340252 -0.058672734 2.1564684e-38
0.071686558 -0.13584132 -0.065647908 1.9995899e-38
0.073836826 -0.13660498 -0.068580814 1.9442353e-38
0.075747959 -0.13660498 -0.068580814 1.9534549e-38
0.077659108 -0.13660498 -0.068580814 2.1471029e-38
0.079925694 -0.13765021 -0.072595187 2.1286668e-38
0.082122885 -0.13845469 -0.075684972 1.9813353e-38
0.084775724 -0.14051737 -0.083607145 2.0092109e-38
0.087375186 -0.14235483 -0.090664215 2.147793e-38
0.08960662 -0.14312203 -0.093610831 2.1848519e-38
0.091958381 -0.14418359 -0.097687908 2.0743627e-38
0.094315059 -0.14522041 -0.10167009 1.8808262e-38
0.096587203 -0.1460029 -0.10467536 1.862388e-38
0.098962225 -0.14701982 -0.10858101 1.9361801e-38
0.10136709 -0.148077 -0.11264128 1.8624588e-38
0.10335549 -0.148077 -0.11264128 1.8256151e-38
0.10534389 -0.148077 -0.11264128 1.1341482e-38
0.10733228 -0.148077 -0.11264128 8.2979598e-39
0.10932068 -0.148077 -0.11264128 5.7161291e-39
0.11130907 -0.148077 -0.11264128 5.4406128e-39
-0.10637131 -0.11754455 0.011425667 9.9553232e-39
-0.10460045 -0.11754455 0.011425667 1.0415222e-38
-0.10334801 -0.11914261 0.005329065 1.3085635e-38
-0.10156646 -0.11914261 0.005329065 1.7688177e-38
-0.099784903 -0.11914261 0.005329065 2.3124082e-38
-0.097759433 -0.11834116 0.0083865449 2.2664506e-38
-0.09598323 -0.11834116 0.0083865449 2.2849234e-38
-0.094207041 -0.11834116 0.0083865449 2.3217656e-38
-0.092430837 -0.11834116 0.0083865449 2.3494609e-38
-0.090654649 -0.11834116 0.0083865449 2.3307349e-38
-0.088662647 -0.11754455 0.011425667 2.3492814e-38
-0.086891778 -0.11754455 0.011425667 2.3494953e-38
-0.085120909 -0.11754455 0.011425667 2.3496021e-38
-0.08335004 -0.11754455 0.011425667 2.3497095e-38
-0.081200071 -0.11599173 0.017349653 2.3497462e-38
-0.079253741 -0.11520912 0.020335369 2.3498199e-38
-0.077498503 -0.11520912 0.020335369 2.3499288e-38
-0.075743251 -0.11520912 0.020335369 2.3499653e-38
-0.073813267 -0.11440529 0.023401968 2.3500728e-38
-0.072063394 -0.11440529 0.023401968 2.304009e-38
-0.070313528 -0.11440529 0.023401968 2.2948971e-38
-0.068563662 -0.11440529 0.023401968 2.3225208e-38
-0.066666387 -0.11363207 0.026351742 2.3317414e-38
-0.064921699 -0.11363207 0.026351742 2.3502176e-38
-0.063176997 -0.11363207 0.026351742 2.3503266e-38
-0.061296836 -0.11283787 0.029381625 2.341216e-38
-0.059428088 -0.11204849 0.03239315 2.3412172e-38
-0.057693984 -0.11204849 0.03239315 2.3506534e-38
-0.05595988 -0.11204849 0.03239315 2.3506544e-38
-0.054225776 -0.11204849 0.03239315 2.3507268e-38
-0.052491672 -0.11204849 0.03239315 2.350835e-38
-0.050757568 -0.11204849 0.03239315 2.3509071e-38
-0.048957631 -0.11151646 0.034422807 2.3509434e-38
-0.047227085 -0.11151646 0.034422807 2.3417239e-38
-0.045496538 -0.11151646 0.034422807 2.3417239e-38
-0.043765996 -0.11151646 0.034422807 2.3416161e-38
-0.041959666 -0.11073507 0.037403814 2.3507638e-38
-0.040092252 -0.10916151 0.043406896 2.3508364e-38
-0.03837746 -0.10916151 0.043406896 2.3509448e-38
-0.036662668 -0.10916151 0.043406896 2.3509818e-38
-0.03489399 -0.10839428 0.046333961 2.3509825e-38
-0.033184327 -0.10839428 0.046333961 2.3509837e-38
-0.031474665 -0.10839428 0.046333961 2.3509844e-38
-0.029765006 -0.10839428 0.046333961 2.3509848e-38
-0.028055344 -0.10839428 0.046333961 2.3509851e-38
-0.026325755 -0.10785256 0.048400633 2.3509853e-38
-0.024619717 -0.10785256 0.048400633 2.3509856e-38
-0.022895329 -0.1070687 0.051391058 2.3509856e-38
-0.021181505 -0.10628961 0.054363243 2.3509856e-38
-0.019485924 -0.10628961 0.054363243 2.3509856e-38
-0.017790342 -0.10628961 0.054363243 2.3509856e-38
-0.016094757 -0.10628961 0.054363243 2.350986e-38
-0.014399175 -0.10628961 0.054363243 2.3509863e-38
-0.012703594 -0.10628961 0.054363243 2.3509869e-38
-0.01100801 -0.10628961 0.054363243 2.3509879e-38
-0.0092653818 -0.10785256 0.048400633 2.3509527e-38
-0.0075394157 -0.10839428 0.046333961 2.3509168e-38
-0.0058297552 -0.10839428 0.046333961 2.3417333e-38
-0.0040816031 -0.10916151 0.043406896 2.3325138e-38
-0.0023668103 -0.10916151 0.043406896 2.3417691e-38
-0.0006013813 -0.1099584 0.040366881 2.341805e-38
0.0011187417 -0.1099584 0.040366881 2.341805e-38
0.0029996426 -0.11204849 0.03239315 2.341805e-38
0.0047997478 -0.11283787 0.029381625 2.341805e-38
0.0065391324 -0.11283787 0.029381625 2.341805e-38
0.0083555449 -0.11363207 0.026351742 2.3418047e-38
0.010100242 -0.11363207 0.026351742 2.3418045e-38
0.011930276 -0.11440529 0.023401968 2.30507e-38
0.013774237 -0.11520912 0.020335369 2.3050703e-38
0.01562633 -0.11599173 0.017349653 2.3142542e-38
0.017386809 -0.11599173 0.017349653 2.3142544e-38
0.019255243 -0.11677901 0.014346175 2.3142185e-38
0.021131083 -0.11754455 0.011425667 2.3234379e-38
0.022901949 -0.11754455 0.011425667 2.3234379e-38
0.024798036 -0.11834116 0.0083865449 2.3234379e-38
0.026574232 -0.11834116 0.0083865449 2.2958151e-38
0.028487127 -0.11914261 0.005329065 2.3142541e-38
0.030406822 -0.11992194 0.0023559853 2.3234376e-38
0.032482836 -0.12149437 -0.0036428645 2.3142541e-38
0.034431327 -0.12228753 -0.0066687539 2.3234379e-38
0.036233917 -0.12228753 -0.0066687539 2.2958873e-38
0.038357373 -0.12386028 -0.012668796 2.2957796e-38
0.040387664 -0.124891 -0.016601034 2.2865602e-38
0.042207669 -0.124891 -0.016601034 2.341805e-38
0.044203635 -0.12567626 -0.019596763 2.3418047e-38
0.046211157 -0.12646608 -0.022609897 2.3418045e-38
0.048230331 -0.12726043 -0.025640436 2.3418043e-38
0.050513756 -0.12909363 -0.032634087 2.3234369e-38
0.052754652 -0.13065951 -0.038607903 2.341804e-38
0.054613244 -0.13065951 -0.038607903 2.3509873e-38
0.056680467 -0.13144915 -0.041620322 2.350987e-38
0.058831457 -0.13250901 -0.045663662 2.3509865e-38
0.060702424 -0.13250901 -0.045663662 2.3507335e-38
0.062573381 -0.13250901 -0.045663662 2.3507688e-38
0.064668529 -0.13327946 -0.048603006 2.3504789e-38
0.067096658 -0.13513394 -0.055677839 2.2671046e-38
0.068985172 -0.13513394 -0.055677839 1.9995915e-38
0.071439229 -0.13695215 -0.06261427 1.8335298e-38
0.073592551 -0.13774733 -0.065647908 2.0455789e-38
0.075747959 -0.13851611 -0.068580814 2.1563576e-38
0.077659108 -0.13851611 -0.068580814 2.0550158e-38
0.079925694 -0.13956837 -0.072595187 1.9444925e-38
0.082122885 -0.14037828 -0.075684972 2.1105548e-38
0.084775724 -0.14245488 -0.083607145 2.2213348e-38
0.087375186 -0.14430468 -0.090664215 2.1294277e-38
0.08960662 -0.14507706 -0.093610831 2.0927658e-38
0.091958381 -0.14614578 -0.097687908 1.9914597e-38
0.094315059 -0.1471896 -0.10167009 1.8993019e-38
0.096587203 -0.14797734 -0.10467536 1.8256177e-38
0.098962225 -0.14900111 -0.10858101 1.8808622e-38
0.10094351 -0.14900111 -0.10858101 1.8347995e-38
-0.10637131 -0.11931543 0.011425667 9.7709305e-39
-0.10460045 -0.11931543 0.011425667 1.0507417e-38
-0.10308801 -0.12011738 0.0083865449 1.3546256e-38
-0.10156646 -0.12092416 0.005329065 1.7778946e-38
-0.099784903 -0.12092416 0.005329065 2.2846791e-38
-0.097759433 -0.12011738 0.0083865449 2.2202462e-38
-0.09598323 -0.12011738 0.0083865449 2.247903e-38
-0.094207041 -0.12011738 0.0083865449 2.3215509e-38
-0.092430837 -0.12011738 0.0083865449 2.3493544e-38
-0.090654649 -0.12011738 0.0083865449 2.3398119e-38
-0.08887846 -0.12011738 0.0083865449 2.349103e-38
-0.086891778 -0.11931543 0.011425667 2.3399173e-38
-0.085120909 -0.11931543 0.011425667 2.321621e-38
-0.08335004 -0.11931543 0.011425667 2.3309479e-38
-0.081200071 -0.11775221 0.017349653 2.3310203e-38
-0.079253741 -0.11696436 0.020335369 2.3494253e-38
-0.077498503 -0.11696436 0.020335369 2.3495699e-38
-0.075743251 -0.11696436 0.020335369 2.3496779e-38
-0.073813267 -0.11615516 0.023401968 2.3498207e-38
-0.072063394 -0.11615516 0.023401968 2.3497465e-38
-0.070313528 -0.11615516 0.023401968 2.3498178e-38
-0.068563662 -0.11615516 0.023401968 2.3498188e-38
-0.066666387 -0.11537679 0.026351742 2.3498913e-38
-0.064921699 -0.11537679 0.026351742 2.3498925e-38
-0.063176997 -0.11537679 0.026351742 2.3407456e-38
-0.061296836 -0.11457725 0.029381625 2.3224154e-38
-0.059428088 -0.1137826 0.03239315 2.3224518e-38
-0.057693984 -0.1137826 0.03239315 2.3501828e-38
-0.05595988 -0.1137826 0.03239315 2.350291e-38
-0.054225776 -0.1137826 0.03239315 2.350363e-38
-0.05241872 -0.11324702 0.034422807 2.3504712e-38
-0.050688177 -0.11324702 0.034422807 2.3505791e-38
-0.048957631 -0.11324702 0.034422807 2.3506151e-38
-0.047227085 -0.11324702 0.034422807 2.3505791e-38
-0.045496538 -0.11324702 0.034422807 2.350615e-38
-0.043684982 -0.11246039 0.037403814 2.3231003e-38
-0.041884333 -0.1116785 0.040366881 2.3231722e-38
-0.040092252 -0.11087631 0.043406896 2.3415758e-38
-0.03837746 -0.11087631 0.043406896 2.3508318e-38
-0.036603648 -0.11010392 0.046333961 2.3509406e-38
-0.03489399 -0.11010392 0.046333961 2.3509775e-38
-0.033149902 -0.1095586 0.048400633 2.3509785e-38
-0.031443864 -0.1095586 0.048400633 2.3509797e-38
-0.02973783 -0.1095586 0.048400633 2.3509809e-38
-0.028031789 -0.1095586 0.048400633 2.3509813e-38
-0.026296917 -0.10876949 0.051391058 2.3509816e-38
-0.024596121 -0.10876949 0.051391058 2.3509818e-38
-0.022895329 -0.10876949 0.051391058 2.3509816e-38
-0.021181505 -0.10798518 0.054363243 2.3509813e-38
-0.019485924 -0.10798518 0.054363243 2.3509811e-38
-0.017790342 -0.10798518 0.054363243 2.3509816e-38
-0.016094757 -0.10798518 0.054363243 2.3509832e-38
-0.014399175 -0.10798518 0.054363243 2.3509839e-38
-0.012703594 -0.10798518 0.054363243 2.3509846e-38
-0.01100801 -0.10798518 0.054363243 2.3509859e-38
-0.0092889769 -0.10876949 0.051391058 2.3509879e-38
-0.0075593451 -0.1095586 0.048400633 2.3509527e-38
-0.0058533084 -0.1095586 0.048400633 2.3417333e-38
-0.0041472707 -0.1095586 0.048400633 2.323402e-38
-0.0024412342 -0.1095586 0.048400633 2.3234379e-38
-0.0006520173 -0.11087631 0.043406896 2.3234379e-38
0.0011187417 -0.1116785 0.040366881 2.3234379e-38
0.0028986109 -0.11246039 0.037403814 2.341805e-38
0.004733745 -0.1137826 0.03239315 2.341805e-38
0.006467849 -0.1137826 0.03239315 2.3509527e-38
0.0082785152 -0.11457725 0.029381625 2.3509883e-38
0.010100242 -0.11537679 0.026351742 2.3509876e-38
0.011930276 -0.11615516 0.023401968 2.3233648e-38
0.013774237 -0.11696436 0.020335369 2.3142171e-38
0.01562633 -0.11775221 0.017349653 2.3234012e-38
0.017386809 -0.11775221 0.017349653 2.3326213e-38
0.019255243 -0.11854477 0.014346175 2.3325856e-38
0.02102099 -0.11854477 0.014346175 2.341805e-38
0.022901949 -0.11931543 0.011425667 2.341805e-38
0.024798036 -0.12011738 0.0083865449 2.341805e-38
0.026574232 -0.12011738 0.0083865449 2.3418047e-38
0.028487127 -0.12092416 0.005329065 2.3234372e-38
0.030406822 -0.12170871 0.0023559853 2.3418043e-38
0.032337788 -0.12249784 -0.0006346181 2.2866307e-38
0.034431327 -0.12409012 -0.0066687539 2.2957428e-38
0.036233917 -0.12409012 -0.0066687539 2.3142542e-38
0.038193658 -0.12486555 -0.0096073821 2.341805e-38
0.040170487 -0.1256734 -0.012668796 2.3234379e-38
0.042207669 -0.126711 -0.016601034 2.3418047e-38
0.044203635 -0.1275015 -0.019596763 2.3234374e-38
0.046211157 -0.1282966 -0.022609897 2.3234376e-38
0.048230331 -0.12909628 -0.025640436 2.3234379e-38
0.050513756 -0.13094176 -0.032634087 2.341805e-38
0.052754652 -0.1325181 -0.038607903 2.3509883e-38
0.054613244 -0.1325181 -0.038607903 2.3509879e-38
0.056680467 -0.13331302 -0.041620322 2.3509869e-38
0.058831457 -0.13437997 -0.045663662 2.3509856e-38
0.060702424 -0.13437997 -0.045663662 2.3505159e-38
0.062573381 -0.13437997 -0.045663662 2.3505144e-38
0.064668529 -0.13515557 -0.048603006 2.350189e-38
0.066784151 -0.13596557 -0.051672526 2.1932032e-38
0.068985172 -0.13702248 -0.055677839 1.8704811e-38
0.071117871 -0.13781275 -0.058672734 1.7873604e-38
0.073592551 -0.13965334 -0.065647908 2.2207515e-38
0.075747959 -0.14042725 -0.068580814 2.2487341e-38
0.077659108 -0.14042725 -0.068580814 2.0829277e-38
0.079925694 -0.14148657 -0.072595187 1.9815162e-38
0.082122885 -0.14230187 -0.075684972 2.2305548e-38
0.084775724 -0.14439236 -0.083607145 2.3044566e-38
0.086997502 -0.1451921 -0.086637922 2.1386851e-38
0.08960662 -0.1470321 -0.093610831 2.0558888e-38
0.091958381 -0.14810793 -0.097687908 1.8531673e-38
0.094315059 -0.14915876 -0.10167009 1.917741e-38
0.096587203 -0.14995177 -0.10467536 1.8439845e-38
-0.10486422 -0.12189357 0.0083865449 1.0231186e-38
-0.10308801 -0.12189357 0.0083865449 1.3362222e-38
-0.10156646 -0.12270571 0.005329065 1.731869e-38
-0.099535622 -0.12189357 0.0083865449 2.2293617e-38
-0.097759433 -0.12189357 0.0083865449 2.1464896e-38
-0.09598323 -0.12189357 0.0083865449 2.1649625e-38
-0.094207041 -0.12189357 0.0083865449 2.2477944e-38
-0.092430837 -0.12189357 0.0083865449 2.349102e-38
-0.090654649 -0.12189357 0.0083865449 2.2936422e-38
-0.088662647 -0.12108628 0.011425667 2.312117e-38
-0.086891778 -0.12108628 0.011425667 2.3492093e-38
-0.085120909 -0.12108628 0.011425667 2.3492082e-38
-0.08335004 -0.12108628 0.011425667 2.3492438e-38
-0.081200071 -0.11951269 0.017349653 2.3492804e-38
-0.079253741 -0.11871959 0.020335369 2.3493534e-38
-0.077498503 -0.11871959 0.020335369 2.3494258e-38
-0.075743251 -0.11871959 0.020335369 2.3495337e-38
-0.073813267 -0.11790501 0.023401968 2.3496409e-38
-0.072063394 -0.11790501 0.023401968 2.3496397e-38
-0.070313528 -0.11790501 0.023401968 2.3404917e-38
-0.068563662 -0.11790501 0.023401968 2.3496761e-38
-0.066666387 -0.11712147 0.026351742 2.3313098e-38
-0.064921699 -0.11712147 0.026351742 2.3313466e-38
-0.063176997 -0.11712147 0.026351742 2.3313831e-38
-0.061296836 -0.11631663 0.029381625 2.3222357e-38
-0.059428088 -0.11551671 0.03239315 2.3130881e-38
-0.057693984 -0.11551671 0.03239315 2.3407466e-38
-0.05595988 -0.11551671 0.03239315 2.3408898e-38
-0.054149266 -0.11497755 0.034422807 2.3501811e-38
-0.05241872 -0.11497755 0.034422807 2.3503606e-38
-0.050688177 -0.11497755 0.034422807 2.3503968e-38
-0.048860937 -0.11418571 0.037403814 2.3504325e-38
-0.047135621 -0.11418571 0.037403814 2.3504325e-38
-0.045410298 -0.11418571 0.037403814 2.3504683e-38
-0.043604456 -0.11339863 0.040366881 2.3507198e-38
-0.041884333 -0.11339863 0.040366881 2.3415721e-38
-0.040092252 -0.1125911 0.043406896 2.350792e-38
-0.03837746 -0.1125911 0.043406896 2.3508281e-38
-0.036603648 -0.11181359 0.046333961 2.3508647e-38
-0.03489399 -0.11181359 0.046333961 2.3509013e-38
-0.033149902 -0.11126463 0.048400633 2.3508305e-38
-0.031443864 -0.11126463 0.048400633 2.3508675e-38
-0.029698506 -0.11047028 0.051391058 2.3232459e-38
-0.02799771 -0.11047028 0.051391058 2.3140628e-38
-0.026296917 -0.11047028 0.051391058 2.3140275e-38
-0.024572672 -0.10968079 0.054363243 2.2956963e-38
-0.02287709 -0.10968079 0.054363243 2.295696e-38
-0.021168154 -0.10887168 0.057409219 2.2957316e-38
-0.019477913 -0.10887168 0.057409219 2.2865835e-38
-0.017787671 -0.10887168 0.057409219 2.2865483e-38
-0.016097428 -0.10887168 0.057409219 2.3325043e-38
-0.014412258 -0.10835941 0.059337668 2.3325054e-38
-0.012725398 -0.10835941 0.059337668 2.3417614e-38
-0.011038536 -0.10835941 0.059337668 2.3417991e-38
-0.0093124267 -0.10968079 0.054363243 2.3326185e-38
-0.007616845 -0.10968079 0.054363243 2.3509883e-38
-0.0058873892 -0.11047028 0.051391058 2.3417691e-38
-0.0041865949 -0.11047028 0.051391058 2.323402e-38
-0.0024858008 -0.11047028 0.051391058 2.3234379e-38
-0.00070077204 -0.11181359 0.046333961 2.3234379e-38
0.0010088885 -0.11181359 0.046333961 2.3234379e-38
0.0027775688 -0.1125911 0.043406896 2.341805e-38
0.004733745 -0.11551671 0.03239315 2.3509168e-38
0.006467849 -0.11551671 0.03239315 2.3509168e-38
0.0082785152 -0.11631663 0.029381625 2.3509879e-38
0.010100242 -0.11712147 0.026351742 2.350987e-38
0.011844939 -0.11712147 0.026351742 2.3416952e-38
0.013680143 -0.11790501 0.023401968 2.3233639e-38
0.01552948 -0.11871959 0.020335369 2.332548e-38
0.017386809 -0.11951269 0.017349653 2.3417323e-38
0.019255243 -0.1203105 0.014346175 2.3509523e-38
0.02102099 -0.1203105 0.014346175 2.3509883e-38
0.022901949 -0.12108628 0.011425667 2.3509883e-38
0.024798036 -0.12189357 0.0083865449 2.350988e-38
0.026574232 -0.12189357 0.0083865449 2.3325843e-38
0.028487127 -0.12270571 0.005329065 1.9638374e-38
0.030406822 -0.12349547 0.0023559853 1.5766158e-38
0.032337788 -0.12428986 -0.0006346181 1.5397019e-38
0.034280121 -0.12508895 -0.0036428645 1.880826e-38
0.036233917 -0.12589271 -0.0066687539 2.2680122e-38
0.038193658 -0.1266733 -0.0096073821 2.3509886e-38
0.040170487 -0.12748651 -0.012668796 2.3141466e-38
0.042207669 -0.12853102 -0.016601034 2.3234374e-38
0.044203635 -0.12932678 -0.019596763 2.3234374e-38
0.046211157 -0.13012715 -0.022609897 2.3234379e-38
0.048230331 -0.13093217 -0.025640436 2.341805e-38
0.050513756 -0.13278987 -0.032634087 2.3417691e-38
0.052557711 -0.13358103 -0.035612531 2.3509527e-38
0.054613244 -0.13437669 -0.038607903 2.3509521e-38
0.056680467 -0.13517688 -0.041620322 2.3509863e-38
0.058831457 -0.13625093 -0.045663662 2.3506963e-38
0.060702424 -0.13625093 -0.045663662 2.3507302e-38
0.062792413 -0.13703169 -0.048603006 2.3504762e-38
0.064902641 -0.13784705 -0.051672526 2.073564e-38
0.066784151 -0.13784705 -0.051672526 1.9166868e-38
0.068985172 -0.13891099 -0.055677839 1.9072511e-38
0.071117871 -0.13970654 -0.058672734 1.9164347e-38
0.073592551 -0.14155935 -0.065647908 2.2392636e-38
0.075747959 -0.14233841 -0.068580814 2.0091708e-38
0.077659108 -0.14233841 -0.068580814 2.1569019e-38
0.079925694 -0.14340474 -0.072595187 2.2214064e-38
0.082122885 -0.14422549 -0.075684972 2.3136765e-38
0.084775724 -0.14632986 -0.083607145 2.2031507e-38
0.086997502 -0.14713491 -0.086637922 2.0834407e-38
0.089325048 -0.14820443 -0.090664215 2.1295746e-38
-0.10564715 -0.12608187 -0.0006346181 9.678009e-39
-0.10360084 -0.12528224 0.0023559853 1.2901238e-38
-0.10156646 -0.1244873 0.005329065 1.7043531e-38
-0.099535622 -0.12366976 0.0083865449 2.1742588e-38
-0.097759433 -0.12366976 0.0083865449 2.1742906e-38
-0.09598323 -0.12366976 0.0083865449 2.201983e-38
-0.094207041 -0.12366976 0.0083865449 2.2018388e-38
-0.092430837 -0.12366976 0.0083865449 2.2939271e-38
-0.090433516 -0.12285714 0.011425667 2.2845651e-38
-0.088662647 -0.12285714 0.011425667 2.3121519e-38
-0.086891778 -0.12285714 0.011425667 2.3491367e-38
-0.085120909 -0.12285714 0.011425667 2.3399162e-38
-0.08335004 -0.12285714 0.011425667 2.3307682e-38
-0.081200071 -0.12127317 0.017349653 2.3492797e-38
-0.079439588 -0.12127317 0.017349653 2.3493528e-38
-0.077498503 -0.12047486 0.020335369 2.349389e-38
-0.075743251 -0.12047486 0.020335369 2.3401691e-38
-0.073813267 -0.11965488 0.023401968 2.3402776e-38
-0.072063394 -0.11965488 0.023401968 2.2944327e-38
-0.070313528 -0.11965488 0.023401968 2.3222004e-38
-0.068563662 -0.11965488 0.023401968 2.2945066e-38
-0.066666387 -0.11886616 0.026351742 2.2668846e-38
-0.064921699 -0.11886616 0.026351742 2.3222746e-38
-0.063176997 -0.11886616 0.026351742 2.340714e-38
-0.061296836 -0.11805601 0.029381625 2.2578095e-38
-0.059428088 -0.11725079 0.03239315 2.230186e-38
-0.057693984 -0.11725079 0.03239315 2.3501112e-38
-0.055879809 -0.11670811 0.034422807 2.3501821e-38
-0.054149266 -0.11670811 0.034422807 2.3502526e-38
-0.05241872 -0.11670811 0.034422807 2.3502518e-38
-0.050688177 -0.11670811 0.034422807 2.3501793e-38
-0.048860937 -0.11591102 0.037403814 2.350179e-38
-0.047135621 -0.11591102 0.037403814 2.3502511e-38
-0.045324579 -0.11511876 0.040366881 2.3503227e-38
-0.043604456 -0.11511876 0.040366881 2.3506102e-38
-0.041884333 -0.11511876 0.040366881 2.3507899e-38
-0.040092252 -0.1143059 0.043406896 2.3508619e-38
-0.03837746 -0.1143059 0.043406896 2.3508619e-38
-0.036603648 -0.11352326 0.046333961 2.3508617e-38
-0.03489399 -0.11352326 0.046333961 2.3508982e-38
-0.033149902 -0.11297067 0.048400633 2.3509713e-38
-0.031443864 -0.11297067 0.048400633 2.3509724e-38
-0.029698506 -0.11217107 0.051391058 2.3509736e-38
-0.02799771 -0.11217107 0.051391058 2.3508661e-38
-0.026268255 -0.11137636 0.054363243 2.3232438e-38
-0.024572672 -0.11137636 0.054363243 2.3232082e-38
-0.02287709 -0.11137636 0.054363243 2.314132e-38
-0.021168154 -0.11056192 0.057409219 2.3233513e-38
-0.019472841 -0.11004628 0.059337668 2.3142389e-38
-0.017785979 -0.11004628 0.059337668 2.3049841e-38
-0.01609912 -0.11004628 0.059337668 2.3232812e-38
-0.014420187 -0.10924016 0.062352471 2.3325019e-38
-0.012738612 -0.10924016 0.062352471 2.323355e-38
-0.011057038 -0.10924016 0.062352471 2.3326124e-38
-0.0093516754 -0.11004628 0.059337668 2.3509839e-38
-0.007616845 -0.11137636 0.054363243 2.3509873e-38
-0.0059212623 -0.11137636 0.054363243 2.3417691e-38
-0.0041865949 -0.11217107 0.051391058 2.323402e-38
-0.0024858008 -0.11217107 0.051391058 2.3142544e-38
-0.00073519745 -0.11297067 0.048400633 2.3142544e-38
0.0010088885 -0.11352326 0.046333961 2.2773763e-38
0.002718549 -0.11352326 0.046333961 2.3233662e-38
0.0046892613 -0.11670811 0.034422807 2.3509168e-38
0.0064198077 -0.11670811 0.034422807 2.277125e-38
0.008201953 -0.11725079 0.03239315 2.3509876e-38
0.0100179 -0.11805601 0.029381625 2.3139999e-38
0.011844939 -0.11886616 0.026351742 2.3509859e-38
0.013680143 -0.11965488 0.023401968 2.2032928e-38
0.01552948 -0.12047486 0.020335369 2.3509866e-38
0.017386809 -0.12127317 0.017349653 2.3508068e-38
0.019255243 -0.12207626 0.014346175 2.3509514e-38
0.02102099 -0.12207626 0.014346175 2.3509517e-38
0.022901949 -0.12285714 0.011425667 2.3508437e-38
0.024798036 -0.12366976 0.0083865449 2.3509873e-38
0.026574232 -0.12366976 0.0083865449 2.3139647e-38
0.028487127 -0.1244873 0.005329065 1.5487408e-38
0.030406822 -0.12528224 0.0023559853 1.4934954e-38
0.032337788 -0.12608187 -0.0006346181 1.6410084e-38
0.034280121 -0.12688623 -0.0036428645 1.723949e-38
0.03607741 -0.12688623 -0.0036428645 2.3509879e-38
0.03803651 -0.12769531 -0.0066687539 2.3509883e-38
0.040001404 -0.12848105 -0.0096073821 2.2680122e-38
0.041983597 -0.1292996 -0.012668796 2.3142535e-38
0.044203635 -0.13115202 -0.019596763 2.3234374e-38
0.046211157 -0.13195769 -0.022609897 2.3234379e-38
0.048230331 -0.13276802 -0.025640436 2.3325497e-38
0.050254282 -0.13355388 -0.028579541 2.3416256e-38
0.05209529 -0.13355388 -0.028579541 2.3508092e-38
0.054209996 -0.134638 -0.032634087 2.3508442e-38
0.056680467 -0.13704078 -0.041620322 2.3509139e-38
0.058831457 -0.13812189 -0.045663662 2.3509106e-38
0.060702424 -0.13812189 -0.045663662 2.3509804e-38
0.063021146 -0.13972856 -0.051672526 2.3135233e-38
0.064902641 -0.13972856 -0.051672526 1.8523645e-38
0.067096658 -0.14079951 -0.055677839 1.7876837e-38
0.068985172 -0.14079951 -0.055677839 2.073311e-38
0.0708737 -0.14079951 -0.055677839 2.183803e-38
0.073339902 -0.1426542 -0.06261427 2.1655448e-38
0.075747959 -0.14424954 -0.068580814 2.0370831e-38
0.078275673 -0.14614908 -0.075684972 2.1386804e-38
0.080199279 -0.14614908 -0.075684972 2.2677217e-38
0.082479261 -0.14720438 -0.079631753 2.184676e-38
0.085054703 -0.14907773 -0.086637922 2.1478345e-38
0.086997502 -0.14907773 -0.086637922 2.1018448e-38
-0.10717437 -0.12706901 0.0023559853 9.8634764e-39
-0.10538761 -0.12706901 0.0023559853 1.0507767e-38
-0.10360084 -0.12706901 0.0023559853 1.3639519e-38
-0.10131183 -0.12544595 0.0083865449 1.7136797e-38
-0.099535622 -0.12544595 0.0083865449 2.1467431e-38
-0.097759433 -0.12544595 0.0083865449 2.1282998e-38
-0.09598323 -0.12544595 0.0083865449 2.183615e-38
-0.094207041 -0.12544595 0.0083865449 2.1835069e-38
-0.092204385 -0.12462802 0.011425667 2.2571559e-38
-0.090433516 -0.12462802 0.011425667 2.2569059e-38
-0.088662647 -0.12462802 0.011425667 2.302932e-38
-0.086891778 -0.12462802 0.011425667 2.2845637e-38
-0.085120909 -0.12462802 0.011425667 2.2938184e-38
-0.083158024 -0.12384202 0.014346175 2.3307682e-38
-0.081200071 -0.12303366 0.017349653 2.3493157e-38
-0.079439588 -0.12303366 0.017349653 2.3492805e-38
-0.077498503 -0.1222301 0.020335369 2.3308773e-38
-0.075743251 -0.1222301 0.020335369 2.3217655e-38
-0.073988013 -0.1222301 0.020335369 2.312763e-38
-0.072063394 -0.12140475 0.023401968 2.3502565e-38
-0.070313528 -0.12140475 0.023401968 2.350763e-38
-0.068563662 -0.12140475 0.023401968 2.3509081e-38
-0.066813789 -0.12140475 0.023401968 2.3508365e-38
-0.064921699 -0.12061088 0.026351742 2.3509451e-38
-0.063176997 -0.12061088 0.026351742 2.350729e-38
-0.061296836 -0.1197954 0.029381625 2.3225656e-38
-0.059428088 -0.11898489 0.03239315 2.2212209e-38
-0.057693984 -0.11898489 0.03239315 2.1843411e-38
-0.055879809 -0.11843865 0.034422807 2.2212175e-38
-0.054149266 -0.11843865 0.034422807 2.2673139e-38
-0.05241872 -0.11843865 0.034422807 2.3225939e-38
-0.050688177 -0.11843865 0.034422807 2.3502522e-38
-0.048860937 -0.11763634 0.037403814 2.3502881e-38
-0.047135621 -0.11763634 0.037403814 2.3503238e-38
-0.045324579 -0.11683889 0.040366881 2.3503595e-38
-0.043604456 -0.11683889 0.040366881 2.3136242e-38
-0.041884333 -0.11683889 0.040366881 2.3138036e-38
-0.040092252 -0.11602069 0.043406896 2.3506097e-38
-0.03837746 -0.11602069 0.043406896 2.3507529e-38
-0.036603648 -0.11523293 0.046333961 2.3507526e-38
-0.03489399 -0.11523293 0.046333961 2.3507889e-38
-0.033149902 -0.1146767 0.048400633 2.3507899e-38
-0.031443864 -0.1146767 0.048400633 2.3507907e-38
-0.029698506 -0.11387186 0.051391058 2.3507921e-38
-0.02799771 -0.11387186 0.051391058 2.3507569e-38
-0.026268255 -0.11307193 0.054363243 2.3507575e-38
-0.024572672 -0.11307193 0.054363243 2.3416098e-38
-0.022858396 -0.11225216 0.057409219 2.3416811e-38
-0.021168154 -0.11225216 0.057409219 2.3417164e-38
-0.019472841 -0.11173315 0.059337668 2.3417879e-38
-0.017783336 -0.11092176 0.062352471 2.350972e-38
-0.016101763 -0.11092176 0.062352471 2.341646e-38
-0.014420187 -0.11092176 0.062352471 2.3416828e-38
-0.012738612 -0.11092176 0.062352471 2.341755e-38
-0.011057038 -0.11092176 0.062352471 2.3509772e-38
-0.0093516754 -0.11173315 0.059337668 2.3509824e-38
-0.0076462179 -0.11225216 0.057409219 2.3509863e-38
-0.0059559755 -0.11225216 0.057409219 2.341805e-38
-0.0042256787 -0.11307193 0.054363243 2.323402e-38
-0.0024858008 -0.11387186 0.051391058 2.3050708e-38
-0.00073519745 -0.1146767 0.048400633 2.3142541e-38
0.0010088885 -0.11523293 0.046333961 2.3234379e-38
0.002718549 -0.11523293 0.046333961 2.2957078e-38
0.004623929 -0.11763634 0.037403814 2.3509168e-38
0.0064198077 -0.11843865 0.034422807 2.3509168e-38
0.008201953 -0.11898489 0.03239315 2.3509869e-38
0.0100179 -0.1197954 0.029381625 1.8990468e-38
0.011844939 -0.12061088 0.026351742 1.6592656e-38
0.013680143 -0.12140475 0.023401968 1.8159626e-38
0.01552948 -0.1222301 0.020335369 2.3509859e-38
0.017386809 -0.12303366 0.017349653 2.3506623e-38
0.019255243 -0.12384202 0.014346175 2.3506267e-38
0.021131083 -0.12462802 0.011425667 1.7883056e-38
0.023021843 -0.12544595 0.0083865449 1.8989403e-38
0.024924017 -0.12626885 0.005329065 1.8989403e-38
0.026705571 -0.12626885 0.005329065 1.668451e-38
0.028487127 -0.12626885 0.005329065 1.4656922e-38
0.030406822 -0.12706901 0.0023559853 1.51179e-38
0.032337788 -0.12787388 -0.0006346181 1.8438022e-38
0.034280121 -0.12868352 -0.0036428645 2.0650365e-38
0.03607741 -0.12868352 -0.0036428645 2.313965e-38
0.037874695 -0.12868352 -0.0036428645 2.3509521e-38
0.039839104 -0.1294979 -0.0066687539 2.350988e-38
0.041809149 -0.13028879 -0.0096073821 2.341804e-38
0.044027675 -0.13217102 -0.016601034 2.30507e-38
0.046211157 -0.13378824 -0.022609897 2.3049273e-38
0.048041705 -0.13378824 -0.022609897 2.3509168e-38
0.050066192 -0.13460387 -0.025640436 2.3508451e-38
0.051902045 -0.13460387 -0.025640436 2.3508451e-38
0.054209996 -0.13648613 -0.032634087 2.3507356e-38
0.056471836 -0.13809387 -0.038607903 2.3507688e-38
0.058544341 -0.13890465 -0.041620322 2.33211e-38
0.060916301 -0.14078392 -0.048603006 2.2214005e-38
0.063021146 -0.14161004 -0.051672526 2.1567896e-38
0.064902641 -0.14161004 -0.051672526 1.7048867e-38
0.066784151 -0.14161004 -0.051672526 1.7324383e-38
0.068985172 -0.14268802 -0.055677839 2.2485911e-38
0.0708737 -0.14268802 -0.055677839 2.2945471e-38
0.073011644 -0.14349405 -0.058672734 2.3223509e-38
0.075747959 -0.14616071 -0.068580814 2.2491708e-38
0.078275673 -0.14807267 -0.075684972 2.2217657e-38
0.080548741 -0.14913492 -0.079631753 2.2308446e-38
0.082479261 -0.14913492 -0.079631753 2.0924808e-38
-0.10664041 -0.12722217 0.0083865449 9.9556707e-39
-0.10486422 -0.12722217 0.0083865449 1.0969823e-38
-0.10308801 -0.12722217 0.0083865449 1.4285244e-38
-0.10131183 -0.12722217 0.0083865449 1.7229709e-38
-0.099535622 -0.12722217 0.0083865449 2.1099365e-38
-0.097759433 -0.12722217 0.0083865449 2.0823093e-38
-0.09598323 -0.12722217 0.0083865449 2.1560996e-38
-0.094207041 -0.12722217 0.0083865449 2.165175e-38
-0.092204385 -0.12639888 0.011425667 2.2019462e-38
-0.090433516 -0.12639888 0.011425667 2.2016965e-38
-0.088662647 -0.12639888 0.011425667 2.2753452e-38
-0.086891778 -0.12639888 0.011425667 2.2384302e-38
-0.085120909 -0.12639888 0.011425667 2.2753439e-38
-0.083158024 -0.12560774 0.014346175 2.3399525e-38
-0.081200071 -0.12479414 0.017349653 2.349316e-38
-0.079439588 -0.12479414 0.017349653 2.3400252e-38
-0.077498503 -0.12398534 0.020335369 2.2939634e-38
-0.075743251 -0.12398534 0.020335369 2.2941065e-38
-0.073988013 -0.12398534 0.020335369 2.266774e-38
-0.072063394 -0.12315463 0.023401968 2.2489159e-38
-0.070313528 -0.12315463 0.023401968 2.3508022e-38
-0.068563662 -0.12315463 0.023401968 2.3509837e-38
-0.066813789 -0.12315463 0.023401968 2.3509483e-38
-0.064921699 -0.12235557 0.026351742 2.3509848e-38
-0.063036226 -0.12153481 0.029381625 2.3509488e-38
-0.061162196 -0.120719 0.03239315 2.2862308e-38
-0.059428088 -0.120719 0.03239315 2.2032173e-38
-0.057693984 -0.120719 0.03239315 2.147934e-38
-0.055879809 -0.12016918 0.034422807 2.1663354e-38
-0.054149266 -0.12016918 0.034422807 2.1940281e-38
-0.05241872 -0.12016918 0.034422807 2.2308694e-38
-0.050688177 -0.12016918 0.034422807 2.2860782e-38
-0.048860937 -0.11936165 0.037403814 2.2952253e-38
-0.047135621 -0.11936165 0.037403814 2.2766424e-38
-0.045324579 -0.11855899 0.040366881 2.2397995e-38
-0.043604456 -0.11855899 0.040366881 2.2674933e-38
-0.041807048 -0.11773549 0.043406896 2.2675282e-38
-0.040092252 -0.11773549 0.043406896 2.313589e-38
-0.038313307 -0.11694257 0.046333961 2.3320633e-38
-0.036603648 -0.11694257 0.046333961 2.3505376e-38
-0.03489399 -0.11694257 0.046333961 2.3505373e-38
-0.033149902 -0.11638273 0.048400633 2.350538e-38
-0.031443864 -0.11638273 0.048400633 2.3413549e-38
-0.029698506 -0.11557265 0.051391058 2.3505399e-38
-0.02799771 -0.11557265 0.051391058 2.3506127e-38
-0.026268255 -0.11476754 0.054363243 2.3507213e-38
-0.024572672 -0.11476754 0.054363243 2.3507572e-38
-0.022858396 -0.1139424 0.057409219 2.3507565e-38
-0.021168154 -0.1139424 0.057409219 2.350792e-38
-0.019472841 -0.11341999 0.059337668 2.3508993e-38
-0.017783336 -0.11260332 0.062352471 2.3509715e-38
-0.016101763 -0.11260332 0.062352471 2.350828e-38
-0.014420187 -0.11260332 0.062352471 2.332425e-38
-0.012738612 -0.11260332 0.062352471 2.3325691e-38
-0.011057038 -0.11260332 0.062352471 2.3509754e-38
-0.0093516754 -0.11341999 0.059337668 2.3509811e-38
-0.0076462179 -0.1139424 0.057409219 2.3509859e-38
-0.0059559755 -0.1139424 0.057409219 2.3509527e-38
-0.0042256787 -0.11476754 0.054363243 2.323402e-38
-0.0025300963 -0.11476754 0.054363243 2.2866674e-38
-0.00073519745 -0.11638273 0.048400633 2.2774111e-38
0.00097084022 -0.11638273 0.048400633 2.3418047e-38
0.0026768779 -0.11638273 0.048400633 2.3509886e-38
0.004623929 -0.11936165 0.037403814 2.3507733e-38
0.0064198077 -0.12016918 0.034422807 2.3415532e-38
0.008201953 -0.120719 0.03239315 2.3231107e-38
0.0100179 -0.12153481 0.029381625 1.7514964e-38
0.011757283 -0.12153481 0.029381625 1.3456558e-38
0.013589634 -0.12235557 0.026351742 1.7513169e-38
0.015430011 -0.12315463 0.023401968 2.1661618e-38
0.017284725 -0.12398534 0.020335369 2.3229309e-38
0.019255243 -0.12560774 0.014346175 2.0186499e-38
0.02102099 -0.12560774 0.014346175 1.705185e-38
0.023021843 -0.12722217 0.0083865449 1.6314288e-38
0.024924017 -0.1280504 0.005329065 1.5485604e-38
0.026705571 -0.1280504 0.005329065 1.4194862e-38
0.028487127 -0.1280504 0.005329065 1.548632e-38
0.030406822 -0.12885578 0.0023559853 1.5578515e-38
0.03219359 -0.12885578 0.0023559853 1.6685582e-38
0.034129802 -0.1296659 -0.0006346181 2.1663795e-38
0.03607741 -0.13048081 -0.0036428645 2.3508791e-38
0.037874695 -0.13048081 -0.0036428645 2.3508441e-38
0.039839104 -0.13130049 -0.0066687539 2.3509518e-38
0.041809149 -0.13209651 -0.0096073821 2.3418043e-38
0.044027675 -0.13399105 -0.016601034 2.2958507e-38
0.046211157 -0.13561879 -0.022609897 2.3049273e-38
0.048041705 -0.13561879 -0.022609897 2.3509168e-38
0.050066192 -0.13643973 -0.025640436 2.3508809e-38
0.051902045 -0.13643973 -0.025640436 2.3508086e-38
0.053936299 -0.13723589 -0.028579541 2.3507702e-38
0.056471836 -0.13995247 -0.038607903 2.3508756e-38
0.058544341 -0.14076851 -0.041620322 2.3507641e-38
0.060916301 -0.14266007 -0.048603006 1.9909465e-38
0.063021146 -0.14349155 -0.051672526 2.0461546e-38
0.064902641 -0.14349155 -0.051672526 1.7787154e-38
0.066784151 -0.14349155 -0.051672526 1.8431098e-38
0.068985172 -0.14457656 -0.055677839 2.276359e-38
0.0708737 -0.14457656 -0.055677839 2.1932773e-38
0.073011644 -0.14538784 -0.058672734 2.2579955e-38
0.07524059 -0.14645557 -0.06261427 2.3229647e-38
-0.10664041 -0.12899835 0.0083865449 9.863831e-39
-0.10486422 -0.12899835 0.0083865449 1.0970179e-38
-0.10308801 -0.12899835 0.0083865449 1.3640595e-38
-0.10131183 -0.12899835 0.0083865449 1.732155e-38
-0.099535622 -0.12899835 0.0083865449 2.1006816e-38
-0.097759433 -0.12899835 0.0083865449 2.063835e-38
-0.09598323 -0.12899835 0.0083865449 2.1560642e-38
-0.094207041 -0.12899835 0.0083865449 2.1651397e-38
-0.092204385 -0.12816976 0.011425667 2.1834717e-38
-0.090433516 -0.12816976 0.011425667 2.1832219e-38
-0.088662647 -0.12816976 0.011425667 2.2753102e-38
-0.086891778 -0.12816976 0.011425667 2.2568342e-38
-0.085120909 -0.12816976 0.011425667 2.2753088e-38
-0.083158024 -0.1273735 0.014346175 2.3122586e-38
-0.081200071 -0.12655462 0.017349653 2.3491369e-38
-0.079439588 -0.12655462 0.017349653 2.3123312e-38
-0.077498503 -0.12574057 0.020335369 2.2755246e-38
-0.075743251 -0.12574057 0.020335369 2.2664478e-38
-0.073988013 -0.12574057 0.020335369 2.2299677e-38
-0.072063394 -0.1249045 0.023401968 2.1845237e-38
-0.070313528 -0.1249045 0.023401968 2.3231445e-38
-0.068563662 -0.1249045 0.023401968 2.3508765e-38
-0.066666387 -0.12410025 0.026351742 2.2862688e-38
-0.064921699 -0.12410025 0.026351742 2.295561e-38
-0.063036226 -0.12327419 0.029381625 2.3509149e-38
-0.061162196 -0.12245311 0.03239315 2.350986e-38
-0.059428088 -0.12245311 0.03239315 2.3325458e-38
-0.057693984 -0.12245311 0.03239315 2.2588594e-38
-0.055879809 -0.12189974 0.034422807 2.2404544e-38
-0.054149266 -0.12189974 0.034422807 2.2311972e-38
-0.05241872 -0.12189974 0.034422807 2.2495633e-38
-0.050586253 -0.12108697 0.037403814 2.2771497e-38
-0.048860937 -0.12108697 0.037403814 2.2586385e-38
-0.047135621 -0.12108697 0.037403814 2.230836e-38
-0.045324579 -0.12027912 0.040366881 2.2030327e-38
-0.043521836 -0.11945029 0.043406896 2.3135222e-38
-0.041807048 -0.11945029 0.043406896 2.3041932e-38
-0.040092252 -0.11945029 0.043406896 2.2858245e-38
-0.038313307 -0.11865224 0.046333961 2.3134821e-38
-0.036603648 -0.11865224 0.046333961 2.3319917e-38
-0.03489399 -0.11865224 0.046333961 2.3503581e-38
-0.033149902 -0.11808877 0.048400633 2.3503584e-38
-0.031443864 -0.11808877 0.048400633 2.350395e-38
-0.029698506 -0.11727346 0.051391058 2.3411402e-38
-0.02799771 -0.11727346 0.051391058 2.3504327e-38
-0.026268255 -0.11646311 0.054363243 2.3506136e-38
-0.024572672 -0.11646311 0.054363243 2.3506494e-38
-0.022858396 -0.11563264 0.057409219 2.3506127e-38
-0.021168154 -0.11563264 0.057409219 2.350648e-38
-0.019472841 -0.11510687 0.059337668 2.3507195e-38
-0.017785979 -0.11510687 0.059337668 2.3508989e-38
-0.016101763 -0.11428489 0.062352471 2.3507191e-38
-0.014420187 -0.11428489 0.062352471 2.332316e-38
-0.012738612 -0.11428489 0.062352471 2.3232762e-38
-0.011057038 -0.11428489 0.062352471 2.3509745e-38
-0.0093516754 -0.11510687 0.059337668 2.3509811e-38
-0.0076462179 -0.11563264 0.057409219 2.3509859e-38
-0.0059559755 -0.11563264 0.057409219 2.3509168e-38
-0.0042256787 -0.11646311 0.054363243 2.3417333e-38
-0.0025300963 -0.11646311 0.054363243 2.3234379e-38
-0.00073519745 -0.11808877 0.048400633 2.2590076e-38
0.00097084022 -0.11808877 0.048400633 2.3509879e-38
0.0026768779 -0.11808877 0.048400633 2.3509883e-38
0.004623929 -0.12108697 0.037403814 2.3507374e-38
0.0064198077 -0.12189974 0.034422807 1.908161e-38
0.008201953 -0.12245311 0.03239315 1.8621312e-38
0.009936057 -0.12245311 0.03239315 1.9450698e-38
0.011757283 -0.12327419 0.029381625 1.9265236e-38
0.013589634 -0.12410025 0.026351742 1.8342927e-38
0.015430011 -0.1249045 0.023401968 1.3456204e-38
0.017284725 -0.12574057 0.020335369 1.4746948e-38
0.019255243 -0.1273735 0.014346175 1.2165118e-38
0.02102099 -0.1273735 0.014346175 1.4009392e-38
0.023021843 -0.12899835 0.0083865449 1.4193786e-38
0.024924017 -0.12983195 0.005329065 1.34573e-38
0.026705571 -0.12983195 0.005329065 1.2811928e-38
0.028487127 -0.12983195 0.005329065 1.3089232e-38
0.030406822 -0.13064255 0.0023559853 1.207508e-38
0.03219359 -0.13064255 0.0023559853 8.2957794e-39
0.034129802 -0.13145791 -0.0006346181 1.4011558e-38
0.03607741 -0.1322781 -0.0036428645 2.350879e-38
0.037874695 -0.1322781 -0.0036428645 2.3508801e-38
0.039839104 -0.13310309 -0.0066687539 2.3509521e-38
0.041809149 -0.13390426 -0.0096073821 2.3233296e-38
0.044027675 -0.13581105 -0.016601034 2.341805e-38
0.046211157 -0.13744931 -0.022609897 2.3509886e-38
0.048041705 -0.13744931 -0.022609897 2.3509524e-38
0.050066192 -0.13827558 -0.025640436 2.3508437e-38
0.051902045 -0.13827558 -0.025640436 2.3507342e-38
0.053936299 -0.1390769 -0.028579541 2.350732e-38
0.056471836 -0.14181106 -0.038607903 2.3506939e-38
0.058544341 -0.14263238 -0.041620322 2.166084e-38
0.060916301 -0.14453618 -0.048603006 1.6958849e-38
0.063021146 -0.14537306 -0.051672526 1.8802393e-38
0.064902641 -0.14537306 -0.051672526 2.0829623e-38
0.066784151 -0.14537306 -0.051672526 2.2027467e-38
0.068665646 -0.14537306 -0.051672526 2.3504775e-38
0.0708737 -0.14646508 -0.055677839 2.3502995e-38
0.072762214 -0.14646508 -0.055677839 2.3506246e-38
0.074905418 -0.1472816 -0.058672734 2.2215146e-38
-0.10691113 -0.13161351 0.005329065 1.0140418e-38
-0.10512958 -0.13161351 0.005329065 1.0693592e-38
-0.10334801 -0.13161351 0.005329065 1.234878e-38
-0.10156646 -0.13161351 0.005329065 1.6951702e-38
-0.099535622 -0.13077454 0.0083865449 2.0913201e-38
-0.097759433 -0.13077454 0.0083865449 2.0729841e-38
-0.09598323 -0.13077454 0.0083865449 2.1467744e-38
-0.094207041 -0.13077454 0.0083865449 2.1466299e-38
-0.092204385 -0.12994061 0.011425667 2.164998e-38
-0.090433516 -0.12994061 0.011425667 2.1831873e-38
-0.088662647 -0.12994061 0.011425667 2.2752397e-38
-0.086891778 -0.12994061 0.011425667 2.2660191e-38
-0.085120909 -0.12994061 0.011425667 2.23836e-38
-0.083158024 -0.12913923 0.014346175 2.2383954e-38
-0.081200071 -0.12831511 0.017349653 2.2753455e-38
-0.079439588 -0.12831511 0.017349653 2.2754178e-38
-0.077498503 -0.12749584 0.020335369 2.2754891e-38
-0.075743251 -0.12749584 0.020335369 2.2664482e-38
-0.073988013 -0.12749584 0.020335369 2.2207118e-38
-0.072063394 -0.12665437 0.023401968 2.2397318e-38
-0.070313528 -0.12665437 0.023401968 2.3507656e-38
-0.068563662 -0.12665437 0.023401968 2.3509834e-38
-0.066666387 -0.12584494 0.026351742 2.3138906e-38
-0.064921699 -0.12584494 0.026351742 2.313892e-38
-0.063036226 -0.12501357 0.029381625 2.3509149e-38
-0.061162196 -0.12418722 0.03239315 2.3509869e-38
-0.059428088 -0.12418722 0.03239315 2.3509863e-38
-0.057610355 -0.12363027 0.034422807 2.3418014e-38
-0.055879809 -0.12363027 0.034422807 2.3050656e-38
-0.054149266 -0.12363027 0.034422807 2.2774417e-38
-0.052311573 -0.12281232 0.037403814 2.2958082e-38
-0.050586253 -0.12281232 0.037403814 2.3326146e-38
-0.048764825 -0.12199925 0.040366881 2.3509461e-38
-0.047044702 -0.12199925 0.040366881 2.3232161e-38
-0.045324579 -0.12199925 0.040366881 2.3230353e-38
-0.043521836 -0.12116508 0.043406896 2.3506202e-38
-0.041807048 -0.12116508 0.043406896 2.3502941e-38
-0.040092252 -0.12116508 0.043406896 2.3040864e-38
-0.038313307 -0.12036191 0.046333961 2.3041566e-38
-0.036603648 -0.12036191 0.046333961 2.3318133e-38
-0.03489399 -0.12036191 0.046333961 2.3410318e-38
-0.033184327 -0.12036191 0.046333961 2.3502871e-38
-0.031443864 -0.1197948 0.048400633 2.3503954e-38
-0.029698506 -0.11897425 0.051391058 2.3502162e-38
-0.02799771 -0.11897425 0.051391058 2.350325e-38
-0.026268255 -0.11815868 0.054363243 2.3504341e-38
-0.024572672 -0.11815868 0.054363243 2.3504699e-38
-0.022858396 -0.11732288 0.057409219 2.3503972e-38
-0.021168154 -0.11732288 0.057409219 2.3228457e-38
-0.019472841 -0.11679374 0.059337668 2.34132e-38
-0.017785979 -0.11679374 0.059337668 2.3506113e-38
-0.016101763 -0.11596648 0.062352471 2.3505397e-38
-0.014420187 -0.11596648 0.062352471 2.3228806e-38
-0.012738612 -0.11596648 0.062352471 2.3138769e-38
-0.011057038 -0.11596648 0.062352471 2.3509741e-38
-0.0093516754 -0.11679374 0.059337668 2.3509814e-38
-0.0076462179 -0.11732288 0.057409219 2.3509866e-38
-0.0059212623 -0.11815868 0.054363243 2.3508809e-38
-0.0042256787 -0.11815868 0.054363243 2.3416974e-38
-0.0025300963 -0.11815868 0.054363243 2.3234379e-38
-0.00078500644 -0.11897425 0.051391058 2.314253e-38
0.00097084022 -0.1197948 0.048400633 2.3141452e-38
0.0026768779 -0.1197948 0.048400633 2.3509879e-38
0.0045589879 -0.12199925 0.040366881 2.3508446e-38
