# .PCD v0.7 - Point Cloud Data file format
VERSION 0.7
FIELDS x y z rgb
SIZE 4 4 4 4
TYPE F F F F
COUNT 1 1 1 1
WIDTH 944
HEIGHT 1
VIEWPOINT 0 0 0 1 0 0 0
POINTS 944
DATA ascii
0.048935521 -0.096441552 0.012591392 2.3509883e-38
0.050867628 -0.097183421 0.0095798671 5.5306504e-39
-0.058849014 -0.099674508 0.0065499842 1.0233348e-38
-0.058949426 -0.11033095 -0.036402792 2.3509518e-38
-0.05712942 -0.11033095 -0.036402792 2.350988e-38
-0.055309415 -0.11033095 -0.036402792 2.2587564e-38
-0.053489406 -0.11033095 -0.036402792 2.3509883e-38
-0.0516694 -0.11033095 -0.036402792 2.3325492e-38
-0.049714949 -0.10935538 -0.032470554 2.3509886e-38
-0.047802534 -0.10859586 -0.02940914 2.3233299e-38
-0.045904625 -0.10786678 -0.026470512 2.3509886e-38
-0.044102032 -0.10786678 -0.026470512 2.3509886e-38
-0.042379305 -0.10859586 -0.02940914 2.341805e-38
-0.040649392 -0.10935538 -0.032470554 2.341805e-38
-0.038763814 -0.10859586 -0.02940914 2.3509886e-38
-0.036956068 -0.10859586 -0.02940914 2.3509886e-38
-0.035148323 -0.10859586 -0.02940914 2.3509883e-38
-0.033469334 -0.11033095 -0.036402792 2.3509883e-38
-0.031649325 -0.11033095 -0.036402792 2.3509883e-38
-0.029873965 -0.11107419 -0.039398521 2.3509883e-38
-0.028048703 -0.11107419 -0.039398521 2.3325494e-38
-0.026223445 -0.11107419 -0.039398521 2.341805e-38
-0.024398187 -0.11107419 -0.039398521 2.2865961e-38
-0.022572925 -0.11107419 -0.039398521 2.1575584e-38
-0.020747667 -0.11107419 -0.039398521 1.6321877e-38
-0.018935615 -0.11182173 -0.042411655 1.4478328e-38
-0.017105073 -0.11182173 -0.042411655 1.3832958e-38
0.0024639717 -0.10337763 -0.0083760917 2.3509886e-38
0.0042348388 -0.10337763 -0.0083760917 2.3509527e-38
0.0060057058 -0.10337763 -0.0083760917 2.3509527e-38
0.0077125649 -0.10265306 -0.0054555833 2.3509527e-38
0.0094783101 -0.10265306 -0.0054555833 2.3509527e-38
0.011244057 -0.10265306 -0.0054555833 2.3509527e-38
0.013009803 -0.10265306 -0.0054555833 2.3509527e-38
0.014775548 -0.10265306 -0.0054555833 2.3509886e-38
0.016541295 -0.10265306 -0.0054555833 2.3509886e-38
0.01830704 -0.10265306 -0.0054555833 2.3509886e-38
0.020072786 -0.10265306 -0.0054555833 2.3509886e-38
0.021730578 -0.10190789 -0.0024521053 2.3509886e-38
0.023491057 -0.10190789 -0.0024521053 2.3509886e-38
0.025370026 -0.10265306 -0.0054555833 2.3509886e-38
0.027135769 -0.10265306 -0.0054555833 2.3509886e-38
0.029026972 -0.10337763 -0.0083760917 2.3509886e-38
0.030797837 -0.10337763 -0.0083760917 2.3509886e-38
0.032433007 -0.10265306 -0.0054555833 2.3509886e-38
0.034053933 -0.10190789 -0.0024521053 2.3509886e-38
0.035511982 -0.10040633 0.00360021 2.3509886e-38
0.036952559 -0.098922804 0.0095798671 2.3509886e-38
0.038691945 -0.098922804 0.0095798671 2.3509886e-38
0.040431328 -0.098922804 0.0095798671 2.341805e-38
0.041999105 -0.09817566 0.012591392 2.3234379e-38
0.043733209 -0.09817566 0.012591392 2.3234379e-38
0.045467313 -0.09817566 0.012591392 2.2773039e-38
0.047201417 -0.09817566 0.012591392 2.3418047e-38
0.048935521 -0.09817566 0.012591392 2.3509883e-38
-0.068214513 -0.1044188 -0.0054555833 8.9429593e-39
-0.066138983 -0.10292239 0.00053361058 7.6522233e-39
-0.064383745 -0.10292239 0.00053361058 6.9146582e-39
-0.062480636 -0.10215621 0.00360021 7.0068567e-39
-0.06073077 -0.10215621 0.00360021 1.3829333e-38
-0.058849014 -0.10141921 0.0065499842 1.7793389e-38
-0.057104319 -0.10141921 0.0065499842 2.3417323e-38
-0.05712942 -0.11215095 -0.036402792 2.350988e-38
-0.055309415 -0.11215095 -0.036402792 2.350952e-38
-0.053489406 -0.11215095 -0.036402792 2.3509883e-38
-0.051528063 -0.11116849 -0.032470554 2.3509523e-38
-0.049714949 -0.11116849 -0.032470554 2.3509886e-38
-0.047802534 -0.11040358 -0.02940914 2.2772321e-38
-0.045904625 -0.10966937 -0.026470512 2.3509886e-38
-0.044102032 -0.10966937 -0.026470512 2.3325494e-38
-0.042299442 -0.10966937 -0.026470512 2.341805e-38
-0.040571555 -0.11040358 -0.02940914 2.341805e-38
-0.038763814 -0.11040358 -0.02940914 2.3509886e-38
-0.036956068 -0.11040358 -0.02940914 2.3509886e-38
-0.035148323 -0.11040358 -0.02940914 2.3509886e-38
-0.033340581 -0.11040358 -0.02940914 2.3509886e-38
-0.031583827 -0.11116849 -0.032470554 2.3509886e-38
-0.029770715 -0.11116849 -0.032470554 2.3509886e-38
-0.027957601 -0.11116849 -0.032470554 2.3509886e-38
-0.026144488 -0.11116849 -0.032470554 2.341805e-38
-0.024369298 -0.11215095 -0.036402792 2.2958514e-38
-0.02254929 -0.11215095 -0.036402792 2.0008981e-38
-0.020729283 -0.11215095 -0.036402792 1.5676871e-38
-0.018909277 -0.11215095 -0.036402792 1.4940386e-38
-0.01708927 -0.11215095 -0.036402792 1.4848554e-38
0.0042348388 -0.10514848 -0.0083760917 2.3509527e-38
0.0060057058 -0.10514848 -0.0083760917 2.3509527e-38
0.0077125649 -0.1044188 -0.0054555833 2.3509527e-38
0.0094783101 -0.1044188 -0.0054555833 2.3509527e-38
0.011244057 -0.1044188 -0.0054555833 2.3509527e-38
0.013009803 -0.1044188 -0.0054555833 2.3509527e-38
0.014775548 -0.1044188 -0.0054555833 2.3509886e-38
0.016541295 -0.1044188 -0.0054555833 2.3509886e-38
0.01830704 -0.1044188 -0.0054555833 2.3509886e-38
0.020072786 -0.1044188 -0.0054555833 2.3509886e-38
0.021838533 -0.1044188 -0.0054555833 2.3509886e-38
0.023604279 -0.1044188 -0.0054555833 2.3509886e-38
0.025485238 -0.10514848 -0.0083760917 2.3509886e-38
0.027256103 -0.10514848 -0.0083760917 2.3509886e-38
0.029026972 -0.10514848 -0.0083760917 2.3509886e-38
0.030797837 -0.10514848 -0.0083760917 2.3509886e-38
0.032433007 -0.1044188 -0.0054555833 2.3509886e-38
0.034053933 -0.10366838 -0.0024521053 2.3509886e-38
0.035665218 -0.10292239 0.00053361058 2.3509886e-38
0.037261847 -0.10215621 0.00360021 2.3509886e-38
0.038691945 -0.10066219 0.0095798671 2.3509886e-38
0.040431328 -0.10066219 0.0095798671 2.341805e-38
0.041999105 -0.099909768 0.012591392 2.3234379e-38
0.043733209 -0.099909768 0.012591392 2.3142544e-38
0.045467313 -0.099909768 0.012591392 2.3234379e-38
0.047201417 -0.099909768 0.012591392 2.2035472e-38
-0.068053901 -0.10542886 -0.0024521053 1.0509212e-38
-0.065980375 -0.10390608 0.00360021 7.8355411e-39
-0.064083099 -0.10316391 0.0065499842 5.8994329e-39
-0.062338412 -0.10316391 0.0065499842 7.6518701e-39
-0.060593709 -0.10316391 0.0065499842 1.9545108e-38
-0.058713548 -0.10240157 0.0095798671 2.350988e-38
-0.056844801 -0.10164386 0.012591392 2.3509523e-38
-0.055110697 -0.10164386 0.012591392 2.3325131e-38
-0.053376593 -0.10164386 0.012591392 2.3509883e-38
-0.053341173 -0.1129816 -0.032470554 2.3509883e-38
-0.051528063 -0.1129816 -0.032470554 2.3048545e-38
-0.049714949 -0.1129816 -0.032470554 2.3509883e-38
-0.047707215 -0.11147197 -0.026470512 2.2587927e-38
-0.045904625 -0.11147197 -0.026470512 2.350988e-38
-0.044014491 -0.11071064 -0.023444623 2.31411e-38
-0.042217206 -0.11071064 -0.023444623 2.3509527e-38
-0.040496849 -0.11147197 -0.026470512 2.3509527e-38
-0.038694255 -0.11147197 -0.026470512 2.3509527e-38
-0.036891662 -0.11147197 -0.026470512 2.3509527e-38
-0.035089072 -0.11147197 -0.026470512 2.3509527e-38
-0.033286482 -0.11147197 -0.026470512 2.3509527e-38
-0.031532835 -0.11221133 -0.02940914 2.3509527e-38
-0.029770715 -0.1129816 -0.032470554 2.3509886e-38
-0.027957601 -0.1129816 -0.032470554 2.3509886e-38
-0.026144488 -0.1129816 -0.032470554 2.3233662e-38
-0.024369298 -0.11397095 -0.036402792 2.3234379e-38
-0.022210393 -0.10316391 0.0065499842 1.954728e-38
-0.020465696 -0.10316391 0.0065499842 1.6967244e-38
-0.01889204 -0.1129816 -0.032470554 1.687577e-38
-0.017078929 -0.1129816 -0.032470554 1.7797371e-38
0.00060481811 -0.10542886 -0.0024521053 2.3509527e-38
0.0023652981 -0.10542886 -0.0024521053 2.3509527e-38
0.0042348388 -0.10691936 -0.0083760917 2.3509883e-38
0.0060057058 -0.10691936 -0.0083760917 2.3509883e-38
0.0077125649 -0.10618456 -0.0054555833 2.3509883e-38
0.0094783101 -0.10618456 -0.0054555833 2.3509527e-38
0.011244057 -0.10618456 -0.0054555833 2.3509527e-38
0.013009803 -0.10618456 -0.0054555833 2.3509527e-38
0.014775548 -0.10618456 -0.0054555833 2.3509883e-38
0.016541295 -0.10618456 -0.0054555833 2.3509883e-38
0.01830704 -0.10618456 -0.0054555833 2.3509883e-38
0.020072786 -0.10618456 -0.0054555833 2.3509883e-38
0.021838533 -0.10618456 -0.0054555833 2.3509883e-38
0.023604279 -0.10618456 -0.0054555833 2.3509883e-38
0.025485238 -0.10691936 -0.0083760917 2.3509883e-38
0.027135769 -0.10618456 -0.0054555833 2.3509883e-38
0.028772498 -0.10542886 -0.0024521053 2.3509883e-38
0.030532977 -0.10542886 -0.0024521053 2.3509886e-38
0.032154728 -0.10467763 0.00053361058 2.3509886e-38
0.033762112 -0.10390608 0.00360021 2.3509886e-38
0.035364579 -0.10316391 0.0065499842 2.3509886e-38
0.037109274 -0.10316391 0.0065499842 2.3509886e-38
0.038691945 -0.10240157 0.0095798671 2.3509886e-38
0.040431328 -0.10240157 0.0095798671 2.341805e-38
0.041999105 -0.10164386 0.012591392 2.3234379e-38
0.043733209 -0.10164386 0.012591392 2.3050349e-38
0.045344539 -0.1011332 0.014621049 2.3234376e-38
0.047075085 -0.1011332 0.014621049 1.5305188e-38
-0.067894235 -0.1064329 0.00053361058 8.6631494e-39
-0.065980375 -0.10565595 0.00360021 8.5709566e-39
-0.064083099 -0.1049086 0.0065499842 6.4515361e-39
-0.062192321 -0.10414095 0.0095798671 8.1117763e-39
-0.060452938 -0.10414095 0.0095798671 2.3509527e-38
-0.058578908 -0.10337795 0.012591392 2.2495018e-38
-0.056757614 -0.10286374 0.014621049 2.3509886e-38
-0.055027068 -0.10286374 0.014621049 2.3509886e-38
-0.053296521 -0.10286374 0.014621049 2.3509886e-38
-0.051642489 -0.10337795 0.012591392 2.3509883e-38
-0.051528063 -0.11479472 -0.032470554 2.350988e-38
-0.04961028 -0.11401908 -0.02940914 2.3509879e-38
-0.047609068 -0.11250792 -0.023444623 2.3509876e-38
-0.045719478 -0.11174576 -0.020436376 2.3509873e-38
-0.043927465 -0.11174576 -0.020436376 2.3509876e-38
-0.042135455 -0.11174576 -0.020436376 2.3509165e-38
-0.040419921 -0.11250792 -0.023444623 2.3508809e-38
-0.038622633 -0.11250792 -0.023444623 2.3508451e-38
-0.036825344 -0.11250792 -0.023444623 2.3508451e-38
-0.035028059 -0.11250792 -0.023444623 2.3508451e-38
-0.033230774 -0.11250792 -0.023444623 2.3508809e-38
-0.031483889 -0.11327456 -0.026470512 2.3509168e-38
-0.029681293 -0.11327456 -0.026470512 2.3509168e-38
-0.02744448 -0.1049086 0.0065499842 2.3509527e-38
-0.025665255 -0.10414095 0.0095798671 2.3509883e-38
-0.02389683 -0.10337795 0.012591392 2.350988e-38
-0.022123192 -0.10210848 0.017602056 2.3418045e-38
-0.020397874 -0.10210848 0.017602056 2.3418047e-38
-0.018659567 -0.10135777 0.020565122 2.3234379e-38
-0.016939444 -0.10135777 0.020565122 2.3234379e-38
-0.0011949237 -0.1064329 0.00053361058 2.3509168e-38
0.00056032138 -0.1064329 0.00053361058 2.3509527e-38
0.0023155655 -0.1064329 0.00053361058 2.3509524e-38
0.0040708105 -0.1064329 0.00053361058 2.3509521e-38
0.0059468183 -0.10795029 -0.0054555833 2.3509521e-38
0.0076467372 -0.10718934 -0.0024521053 2.3509521e-38
0.0094072185 -0.10718934 -0.0024521053 2.3509524e-38
0.011167698 -0.10718934 -0.0024521053 2.3509527e-38
0.012928179 -0.10718934 -0.0024521053 2.3509883e-38
0.014775548 -0.10795029 -0.0054555833 2.350988e-38
0.016541295 -0.10795029 -0.0054555833 2.3509879e-38
0.01830704 -0.10795029 -0.0054555833 2.3509879e-38
0.020072786 -0.10795029 -0.0054555833 2.3509879e-38
0.021838533 -0.10795029 -0.0054555833 2.350988e-38
0.023604279 -0.10795029 -0.0054555833 2.350988e-38
0.025370026 -0.10795029 -0.0054555833 2.350988e-38
0.027012018 -0.10718934 -0.0024521053 2.350988e-38
0.02864424 -0.1064329 0.00053361058 2.350988e-38
0.030399485 -0.1064329 0.00053361058 2.3509883e-38
0.032012243 -0.10565595 0.00360021 2.3509883e-38
0.033619884 -0.1049086 0.0065499842 2.3509883e-38
0.035364579 -0.1049086 0.0065499842 2.3509886e-38
0.037109274 -0.1049086 0.0065499842 2.3509886e-38
0.038691945 -0.10414095 0.0095798671 2.3509886e-38
0.040431328 -0.10414095 0.0095798671 2.3509886e-38
0.041999105 -0.10337795 0.012591392 2.2957078e-38
0.043733209 -0.10337795 0.012591392 2.341805e-38
0.045344539 -0.10286374 0.014621049 2.3049975e-38
0.047075085 -0.10286374 0.014621049 1.4199192e-38
-0.067894235 -0.10818814 0.00053361058 8.5702405e-39
-0.065980375 -0.10740583 0.00360021 9.40072e-39
-0.064083099 -0.10665329 0.0065499842 6.3593433e-39
-0.062192321 -0.10588033 0.0095798671 1.1430103e-38
-0.060452938 -0.10588033 0.0095798671 2.332478e-38
-0.058578908 -0.10511206 0.012591392 2.3509527e-38
-0.056757614 -0.10459428 0.014621049 2.314075e-38
-0.054904241 -0.10383381 0.017602056 2.3325856e-38
-0.053178921 -0.10383381 0.017602056 2.3325856e-38
-0.051565979 -0.10459428 0.014621049 2.3417691e-38
-0.049835432 -0.10459428 0.014621049 2.3417687e-38
-0.048174281 -0.10511206 0.012591392 2.350952e-38
-0.047120295 -0.11046107 -0.0083760917 2.3509874e-38
-0.045349427 -0.11046107 -0.0083760917 2.3509516e-38
-0.043666482 -0.11123641 -0.011415213 2.3509516e-38
-0.041890286 -0.11123641 -0.011415213 2.3509163e-38
-0.04011409 -0.11123641 -0.011415213 2.3508809e-38
-0.038480639 -0.11277486 -0.017445773 2.3508809e-38
-0.036693871 -0.11277486 -0.017445773 2.3508451e-38
-0.034907103 -0.11277486 -0.017445773 2.3508809e-38
-0.033230774 -0.11430521 -0.023444623 2.3508809e-38
-0.031483889 -0.11507715 -0.026470512 2.3508809e-38
-0.029636199 -0.11430521 -0.023444623 2.3509168e-38
-0.027299149 -0.10383381 0.017602056 2.3509524e-38
-0.025573829 -0.10383381 0.017602056 2.3509879e-38
-0.023848509 -0.10383381 0.017602056 2.3509876e-38
-0.022123192 -0.10383381 0.017602056 2.3509876e-38
-0.020397874 -0.10383381 0.017602056 2.3509879e-38
-0.018659567 -0.1030779 0.020565122 2.3418045e-38
-0.016939444 -0.1030779 0.020565122 2.3509886e-38
-0.015219321 -0.1030779 0.020565122 2.3509883e-38
-0.0083206464 -0.10383381 0.017602056 2.3509883e-38
-0.006618707 -0.1030779 0.020565122 2.3509527e-38
-0.004898584 -0.1030779 0.020565122 2.3509527e-38
-0.0011949237 -0.10818814 0.00053361058 2.3509527e-38
0.00056032138 -0.10818814 0.00053361058 2.3509527e-38
0.0023155655 -0.10818814 0.00053361058 2.3509883e-38
0.0040708105 -0.10818814 0.00053361058 2.350988e-38
0.0059468183 -0.10971604 -0.0054555833 2.350988e-38
0.0075813006 -0.10818814 0.00053361058 2.350988e-38
0.0093365461 -0.10818814 0.00053361058 2.3509883e-38
0.011167698 -0.10894983 -0.0024521053 2.3509527e-38
0.012302646 -0.1030779 0.020565122 2.3509527e-38
0.014022769 -0.1030779 0.020565122 2.350988e-38
0.016449139 -0.10894983 -0.0024521053 2.3509879e-38
0.018209619 -0.10894983 -0.0024521053 2.350988e-38
0.019868014 -0.10818814 0.00053361058 2.350988e-38
0.021623259 -0.10818814 0.00053361058 2.350988e-38
0.023378504 -0.10818814 0.00053361058 2.350988e-38
0.025133749 -0.10818814 0.00053361058 2.350988e-38
0.026888995 -0.10818814 0.00053361058 2.350988e-38
0.02851251 -0.10740583 0.00360021 2.3509883e-38
0.030262379 -0.10740583 0.00360021 2.3509883e-38
0.031875189 -0.10665329 0.0065499842 2.3509886e-38
0.033619884 -0.10665329 0.0065499842 2.3509886e-38
0.035364579 -0.10665329 0.0065499842 2.3509886e-38
0.036952559 -0.10588033 0.0095798671 2.3509886e-38
0.038691945 -0.10588033 0.0095798671 2.3509886e-38
0.040265001 -0.10511206 0.012591392 2.3509527e-38
0.041999105 -0.10511206 0.012591392 2.3325856e-38
0.043733209 -0.10511206 0.012591392 2.341805e-38
0.045467313 -0.10511206 0.012591392 2.3142168e-38
-0.067894235 -0.10994337 0.00053361058 8.2936508e-39
-0.065980375 -0.10915567 0.00360021 7.6490003e-39
-0.064230502 -0.10915567 0.00360021 8.4798399e-39
-0.062192321 -0.10761972 0.0095798671 1.4288165e-38
-0.060452938 -0.10761972 0.0095798671 2.1019885e-38
-0.058578908 -0.10684617 0.012591392 2.3509527e-38
-0.056757614 -0.10632484 0.014621049 2.3509527e-38
-0.054904241 -0.10555913 0.017602056 2.341805e-38
-0.053178921 -0.10555913 0.017602056 2.341805e-38
-0.051565979 -0.10632484 0.014621049 2.3509527e-38
-0.049835432 -0.10632484 0.014621049 2.3509527e-38
-0.048174281 -0.10684617 0.012591392 2.3509527e-38
-0.04644018 -0.10684617 0.012591392 2.3509527e-38
-0.044706076 -0.10684617 0.012591392 2.3509527e-38
-0.043232087 -0.10915567 0.00360021 2.3509521e-38
-0.041482218 -0.10915567 0.00360021 2.3509876e-38
-0.039962579 -0.11148177 -0.0054555833 2.3509876e-38
-0.037580922 -0.104798 0.020565122 2.3509879e-38
-0.035860799 -0.104798 0.020565122 2.3509521e-38
-0.034140676 -0.104798 0.020565122 2.3509524e-38
-0.032420553 -0.104798 0.020565122 2.3509527e-38
-0.030700428 -0.104798 0.020565122 2.3509883e-38
-0.028980305 -0.104798 0.020565122 2.3509883e-38
-0.027299149 -0.10555913 0.017602056 2.3509879e-38
-0.025573829 -0.10555913 0.017602056 2.3509876e-38
-0.023848509 -0.10555913 0.017602056 2.3509876e-38
-0.022123192 -0.10555913 0.017602056 2.341804e-38
-0.02037969 -0.104798 0.020565122 2.3418043e-38
-0.018659567 -0.104798 0.020565122 2.3234374e-38
-0.016939444 -0.104798 0.020565122 2.341805e-38
-0.015216656 -0.10401715 0.023605138 2.341805e-38
-0.013501864 -0.10401715 0.023605138 2.3418045e-38
-0.01178707 -0.10401715 0.023605138 2.350988e-38
-0.010072278 -0.10401715 0.023605138 2.3509883e-38
-0.0083388295 -0.104798 0.020565122 2.3509886e-38
-0.006618707 -0.104798 0.020565122 2.3509886e-38
-0.004898584 -0.104798 0.020565122 2.3509527e-38
-0.003178461 -0.104798 0.020565122 2.3509886e-38
-0.001458338 -0.104798 0.020565122 2.3509886e-38
0.00047065737 -0.10839801 0.0065499842 2.3509886e-38
0.0023155655 -0.10994337 0.00053361058 2.3509883e-38
0.0040708105 -0.10994337 0.00053361058 2.350988e-38
0.0058260555 -0.10994337 0.00053361058 2.350988e-38
0.0075813006 -0.10994337 0.00053361058 2.3509883e-38
0.0093365461 -0.10994337 0.00053361058 2.3509886e-38
0.011167698 -0.11071031 -0.0024521053 2.3509527e-38
0.012220029 -0.10401715 0.023605138 2.3509527e-38
0.013850141 -0.1032653 0.026532203 2.3509886e-38
0.015559802 -0.1032653 0.026532203 2.3509886e-38
0.017364407 -0.10401715 0.023605138 2.3509886e-38
0.019079199 -0.10401715 0.023605138 2.3509886e-38
0.021116911 -0.10632484 0.014621049 2.3509886e-38
0.02220781 -0.10196631 0.031589299 2.3509886e-38
0.023908602 -0.10196631 0.031589299 2.3509886e-38
0.026641103 -0.10839801 0.0065499842 2.3509886e-38
0.028385798 -0.10839801 0.0065499842 2.3509527e-38
0.030262379 -0.10915567 0.00360021 2.3509527e-38
0.031875189 -0.10839801 0.0065499842 2.3509527e-38
0.033619884 -0.10839801 0.0065499842 2.3509527e-38
0.035364579 -0.10839801 0.0065499842 2.3509527e-38
0.036952559 -0.10761972 0.0095798671 2.3509527e-38
0.038530897 -0.10684617 0.012591392 2.3509527e-38
0.040265001 -0.10684617 0.012591392 2.3509527e-38
0.041999105 -0.10684617 0.012591392 2.3509527e-38
0.043733209 -0.10684617 0.012591392 2.3509527e-38
-0.063931704 -0.1093591 0.0095798671 2.2125145e-38
-0.062192321 -0.1093591 0.0095798671 2.3509879e-38
-0.060452938 -0.1093591 0.0095798671 2.3509879e-38
-0.058578908 -0.10858028 0.012591392 2.3509883e-38
-0.056757614 -0.10805537 0.014621049 2.2495734e-38
-0.054782152 -0.10651813 0.020565122 2.3509886e-38
-0.053062029 -0.10651813 0.020565122 2.3509527e-38
-0.051565979 -0.10805537 0.014621049 2.3509527e-38
-0.049835432 -0.10805537 0.014621049 2.3509527e-38
-0.04810489 -0.10805537 0.014621049 2.3509168e-38
-0.04627765 -0.10728444 0.017602056 2.3509527e-38
-0.044552334 -0.10728444 0.017602056 2.3509168e-38
-0.042971969 -0.10858028 0.012591392 2.3509524e-38
-0.041237868 -0.10858028 0.012591392 2.3509874e-38
-0.039301045 -0.10651813 0.020565122 2.3418036e-38
-0.037580922 -0.10651813 0.020565122 2.3418042e-38
-0.035860799 -0.10651813 0.020565122 2.3418043e-38
-0.034140676 -0.10651813 0.020565122 2.3417687e-38
-0.032420553 -0.10651813 0.020565122 2.3417687e-38
-0.030700428 -0.10651813 0.020565122 2.3417687e-38
-0.028980305 -0.10651813 0.020565122 2.332621e-38
-0.027260182 -0.10651813 0.020565122 2.3418047e-38
-0.025540059 -0.10651813 0.020565122 2.3418047e-38
-0.023819936 -0.10651813 0.020565122 2.3418047e-38
-0.022099813 -0.10651813 0.020565122 2.3418047e-38
-0.020361034 -0.10573195 0.023605138 2.3234379e-38
-0.018646242 -0.10573195 0.023605138 2.3234379e-38
-0.01693145 -0.10573195 0.023605138 2.3234379e-38
-0.015216656 -0.10573195 0.023605138 2.3234379e-38
-0.013504429 -0.10497494 0.026532203 2.3234379e-38
-0.011794768 -0.10497494 0.026532203 2.3234379e-38
-0.010085108 -0.10497494 0.026532203 2.341805e-38
-0.00838813 -0.10444047 0.028598875 2.3234379e-38
-0.0066820928 -0.10444047 0.028598875 2.341805e-38
-0.0049279002 -0.10573195 0.023605138 2.3234379e-38
-0.0032131071 -0.10573195 0.023605138 2.341805e-38
-0.001458338 -0.10651813 0.020565122 2.3234379e-38
0.00047065737 -0.11014269 0.0065499842 2.341805e-38
0.0022153533 -0.11014269 0.0065499842 2.3234376e-38
0.0034990753 -0.1036671 0.031589299 2.3418047e-38
0.0051998696 -0.1036671 0.031589299 2.3234379e-38
0.006900664 -0.1036671 0.031589299 2.341805e-38
0.0085311066 -0.10289843 0.034561485 2.3234379e-38
0.010226689 -0.10289843 0.034561485 2.341805e-38
0.011922272 -0.10289843 0.034561485 2.3417691e-38
0.01370384 -0.1036671 0.031589299 2.3509527e-38
0.015404634 -0.1036671 0.031589299 2.3509527e-38
0.017105429 -0.1036671 0.031589299 2.3509527e-38
0.018806221 -0.1036671 0.031589299 2.3509527e-38
0.020614503 -0.10444047 0.028598875 2.3509527e-38
0.02220781 -0.1036671 0.031589299 2.3509527e-38
0.023908602 -0.1036671 0.031589299 2.3509527e-38
0.025609398 -0.1036671 0.031589299 2.3509527e-38
0.027310191 -0.1036671 0.031589299 2.3508809e-38
0.029995026 -0.1093591 0.0095798671 2.3417333e-38
0.031875189 -0.11014269 0.0065499842 2.3508809e-38
0.033328589 -0.10858028 0.012591392 2.3417333e-38
0.035062689 -0.10858028 0.012591392 2.3508809e-38
0.036796793 -0.10858028 0.012591392 2.3417333e-38
0.038422357 -0.10805537 0.014621049 2.3508809e-38
0.040152904 -0.10805537 0.014621049 2.3417333e-38
0.041371506 -0.10573195 0.023605138 2.3508809e-38
0.043086298 -0.10573195 0.023605138 2.3509886e-38
-0.063931704 -0.11109848 0.0095798671 2.350843e-38
-0.062192321 -0.11109848 0.0095798671 2.3509507e-38
-0.060313009 -0.11031438 0.012591392 2.3140365e-38
-0.05848816 -0.10978593 0.014621049 2.332548e-38
-0.056371689 -0.10744675 0.023605138 2.3509876e-38
-0.05453629 -0.10668461 0.026532203 2.3509523e-38
-0.052826628 -0.10668461 0.026532203 2.3509168e-38
-0.051341906 -0.10823826 0.020565122 2.3509168e-38
-0.049512517 -0.10744675 0.023605138 2.3508809e-38
-0.047524743 -0.10536788 0.031589299 2.3508809e-38
-0.04582395 -0.10536788 0.031589299 2.3508809e-38
-0.044214912 -0.1061465 0.028598875 2.3508809e-38
-0.042653345 -0.10744675 0.023605138 2.3509167e-38
-0.040938549 -0.10744675 0.023605138 2.3509883e-38
-0.039149344 -0.10668461 0.026532203 2.3418047e-38
-0.037439682 -0.10668461 0.026532203 2.3418047e-38
-0.035730019 -0.10668461 0.026532203 2.341805e-38
-0.034020361 -0.10668461 0.026532203 2.341805e-38
-0.032310702 -0.10668461 0.026532203 2.341805e-38
-0.030601038 -0.10668461 0.026532203 2.341805e-38
-0.028934998 -0.10744675 0.023605138 2.3234379e-38
-0.027220206 -0.10744675 0.023605138 2.3234379e-38
-0.025505414 -0.10744675 0.023605138 2.3234379e-38
-0.02379062 -0.10744675 0.023605138 2.3234379e-38
-0.022075828 -0.10744675 0.023605138 2.3234379e-38
-0.020361034 -0.10744675 0.023605138 2.323402e-38
-0.018646242 -0.10744675 0.023605138 2.323402e-38
-0.01693145 -0.10744675 0.023605138 2.323402e-38
-0.015214091 -0.10668461 0.026532203 2.323402e-38
-0.013504429 -0.10668461 0.026532203 2.3234379e-38
-0.011800203 -0.1061465 0.028598875 2.3142544e-38
-0.010094168 -0.1061465 0.028598875 2.3234379e-38
-0.0084064808 -0.10536788 0.031589299 2.3142544e-38
-0.0067056878 -0.10536788 0.031589299 2.3234379e-38
-0.0049279002 -0.10744675 0.023605138 2.3142544e-38
-0.0033041001 -0.10536788 0.031589299 2.3234379e-38
-0.0016824449 -0.10380094 0.037607461 2.3142544e-38
7.7974983e-06 -0.10380094 0.037607461 2.3234379e-38
0.001698039 -0.10380094 0.037607461 2.3142544e-38
0.0033882814 -0.10380094 0.037607461 2.3234379e-38
0.0050785239 -0.10380094 0.037607461 2.3142544e-38
0.0068355235 -0.10459404 0.034561485 2.3234379e-38
0.0084590092 -0.10380094 0.037607461 2.3142544e-38
0.01014925 -0.10380094 0.037607461 2.3234379e-38
0.011839492 -0.10380094 0.037607461 2.3234379e-38
0.013617855 -0.10459404 0.034561485 2.3509168e-38
0.015313437 -0.10459404 0.034561485 2.3509168e-38
0.017009022 -0.10459404 0.034561485 2.3509168e-38
0.018704602 -0.10459404 0.034561485 2.3509168e-38
0.020507017 -0.10536788 0.031589299 2.3509168e-38
0.02220781 -0.10536788 0.031589299 2.3509168e-38
0.023791352 -0.10459404 0.034561485 2.3509168e-38
0.025486933 -0.10459404 0.034561485 2.3509168e-38
0.027310191 -0.10536788 0.031589299 2.3509168e-38
0.029995026 -0.11109848 0.0095798671 2.3509527e-38
0.031875189 -0.11188738 0.0065499842 2.3509168e-38
0.033328589 -0.11031438 0.012591392 2.3509527e-38
0.035062689 -0.11031438 0.012591392 2.3509168e-38
0.036796793 -0.11031438 0.012591392 2.3509527e-38
0.038422357 -0.10978593 0.014621049 2.3509168e-38
0.039215747 -0.10536788 0.031589299 2.3509527e-38
0.040747177 -0.10459404 0.034561485 2.3508809e-38
0.042442758 -0.10459404 0.034561485 2.350952e-38
0.044138342 -0.10459404 0.034561485 2.350987e-38
-0.064221404 -0.10549118 0.037607461 1.1799939e-38
-0.063230857 -0.10916151 0.023605138 2.3509499e-38
-0.061516061 -0.10916151 0.023605138 2.3509856e-38
-0.059801273 -0.10916151 0.023605138 2.3233265e-38
-0.057955608 -0.10839428 0.026532203 2.3509856e-38
-0.056157172 -0.10785256 0.028598875 2.3509859e-38
-0.054451134 -0.10785256 0.028598875 2.3509869e-38
-0.052745096 -0.10785256 0.028598875 2.3509876e-38
-0.051116966 -0.10839428 0.026532203 2.3509521e-38
-0.049333025 -0.10785256 0.028598875 2.3509524e-38
-0.047423124 -0.10628961 0.034561485 2.3509524e-38
-0.045727544 -0.10628961 0.034561485 2.3509521e-38
-0.044123158 -0.1070687 0.031589299 2.3509879e-38
-0.042568661 -0.10839428 0.026532203 2.3509879e-38
-0.040859003 -0.10839428 0.026532203 2.3509879e-38
-0.039096802 -0.10785256 0.028598875 2.3418045e-38
-0.037390761 -0.10785256 0.028598875 2.3418045e-38
-0.035684727 -0.10785256 0.028598875 2.3418045e-38
-0.033978689 -0.10785256 0.028598875 2.3418047e-38
-0.032272652 -0.10785256 0.028598875 2.341805e-38
-0.030566612 -0.10785256 0.028598875 2.341805e-38
-0.028860575 -0.10785256 0.028598875 2.341805e-38
-0.027181717 -0.10839428 0.026532203 2.341805e-38
-0.025472054 -0.10839428 0.026532203 2.3417691e-38
-0.023762394 -0.10839428 0.026532203 2.3417691e-38
-0.022052733 -0.10839428 0.026532203 2.3417691e-38
-0.020343073 -0.10839428 0.026532203 2.3417691e-38
-0.018633412 -0.10839428 0.026532203 2.3417333e-38
-0.016923752 -0.10839428 0.026532203 2.3417333e-38
-0.015212279 -0.10785256 0.028598875 2.323402e-38
-0.013506241 -0.10785256 0.028598875 2.323402e-38
-0.011808069 -0.1070687 0.031589299 2.3234379e-38
-0.010107275 -0.1070687 0.031589299 2.3234379e-38
-0.0084247217 -0.10628961 0.034561485 2.3234379e-38
-0.0067291376 -0.10628961 0.034561485 2.3234379e-38
-0.0050335559 -0.10628961 0.034561485 2.3234379e-38
-0.0033379733 -0.10628961 0.034561485 2.3234376e-38
-0.0016824449 -0.10549118 0.037607461 2.3234376e-38
-2.0943116e-05 -0.1049857 0.03953591 2.3142539e-38
0.0016659177 -0.1049857 0.03953591 2.3142539e-38
0.0033527794 -0.1049857 0.03953591 2.3142542e-38
0.0050785239 -0.10549118 0.037607461 2.3142544e-38
0.0068355235 -0.10628961 0.034561485 2.3142544e-38
0.0084590092 -0.10549118 0.037607461 2.3142185e-38
0.01014925 -0.10549118 0.037607461 2.3142185e-38
0.011839492 -0.10549118 0.037607461 2.3325497e-38
0.013617855 -0.10628961 0.034561485 2.3509527e-38
0.015313437 -0.10628961 0.034561485 2.3509168e-38
0.017009022 -0.10628961 0.034561485 2.3509168e-38
0.018704602 -0.10628961 0.034561485 2.3509527e-38
0.020400187 -0.10628961 0.034561485 2.3509527e-38
0.022095768 -0.10628961 0.034561485 2.3509527e-38
0.023791352 -0.10628961 0.034561485 2.3509527e-38
0.025486933 -0.10628961 0.034561485 2.3509527e-38
0.027182518 -0.10628961 0.034561485 2.3509524e-38
0.028878098 -0.10628961 0.034561485 2.3509524e-38
0.030063273 -0.10341014 0.045546681 2.3509524e-38
0.032029413 -0.1049857 0.03953591 2.3509524e-38
0.033716273 -0.1049857 0.03953591 2.3509524e-38
0.035403132 -0.1049857 0.03953591 2.3509524e-38
0.037193123 -0.10549118 0.037607461 2.3509524e-38
0.038883366 -0.10549118 0.037607461 2.3509521e-38
0.040573608 -0.10549118 0.037607461 2.3509876e-38
0.042263847 -0.10549118 0.037607461 2.3509869e-38
0.043837439 -0.1049857 0.03953591 2.350986e-38
0.045524299 -0.1049857 0.03953591 1.7700822e-38
-0.064221404 -0.10718144 0.037607461 1.438069e-38
-0.062531158 -0.10718144 0.037607461 2.3509845e-38
-0.06084092 -0.10718144 0.037607461 2.3509841e-38
-0.059430301 -0.10876949 0.031589299 2.3509834e-38
-0.057863206 -0.1095586 0.028598875 2.3509837e-38
-0.056028713 -0.10876949 0.031589299 2.3141772e-38
-0.05432792 -0.10876949 0.031589299 2.3509846e-38
-0.052627124 -0.10876949 0.031589299 2.3509853e-38
-0.050926331 -0.10876949 0.031589299 2.3509859e-38
-0.049225539 -0.10876949 0.031589299 2.350986e-38
-0.047423124 -0.10798518 0.034561485 2.350986e-38
-0.045727544 -0.10798518 0.034561485 2.3509859e-38
-0.044031959 -0.10798518 0.034561485 2.3509853e-38
-0.042422362 -0.10876949 0.031589299 2.3509856e-38
-0.040721565 -0.10876949 0.031589299 2.3509863e-38
-0.039020777 -0.10876949 0.031589299 2.3509866e-38
-0.037319981 -0.10876949 0.031589299 2.3509866e-38
-0.035619184 -0.10876949 0.031589299 2.3509866e-38
-0.033918392 -0.10876949 0.031589299 2.3509866e-38
-0.032217599 -0.10876949 0.031589299 2.3509866e-38
-0.030467296 -0.10798518 0.034561485 2.350987e-38
-0.028771712 -0.10798518 0.034561485 2.3509873e-38
-0.027154541 -0.1095586 0.028598875 2.3509879e-38
-0.025448499 -0.1095586 0.028598875 2.350988e-38
-0.023742465 -0.1095586 0.028598875 2.3509886e-38
-0.022012832 -0.10876949 0.031589299 2.3509886e-38
-0.020312039 -0.10876949 0.031589299 2.3509886e-38
-0.018611245 -0.10876949 0.031589299 2.3509886e-38
-0.016910451 -0.10876949 0.031589299 2.3509886e-38
-0.015209656 -0.10876949 0.031589299 2.3509886e-38
-0.013508864 -0.10876949 0.031589299 2.3509527e-38
-0.011808069 -0.10876949 0.031589299 2.341805e-38
-0.010120304 -0.10798518 0.034561485 2.341805e-38
-0.0084247217 -0.10798518 0.034561485 2.3418047e-38
-0.0067291376 -0.10798518 0.034561485 2.3418043e-38
-0.0050629289 -0.10718144 0.037607461 2.3418038e-38
-0.0033726864 -0.10718144 0.037607461 2.3418035e-38
-0.0016824449 -0.10718144 0.037607461 2.3418035e-38
-2.0943116e-05 -0.10667257 0.03953591 2.3326201e-38
0.0016659177 -0.10667257 0.03953591 2.3326203e-38
0.0033527794 -0.10667257 0.03953591 2.3326206e-38
0.0050396393 -0.10667257 0.03953591 2.3326208e-38
0.0067687663 -0.10718144 0.037607461 2.332621e-38
0.0084133614 -0.10667257 0.03953591 2.332621e-38
0.010100223 -0.10667257 0.03953591 2.332621e-38
0.011839492 -0.10718144 0.037607461 2.3417687e-38
0.013529735 -0.10718144 0.037607461 2.3509518e-38
0.015219977 -0.10718144 0.037607461 2.3509157e-38
0.017009022 -0.10798518 0.034561485 2.3509157e-38
0.018704602 -0.10798518 0.034561485 2.3509513e-38
0.020400187 -0.10798518 0.034561485 2.3509513e-38
0.022095768 -0.10798518 0.034561485 2.3509513e-38
0.023671186 -0.10718144 0.037607461 2.350951e-38
0.025361428 -0.10718144 0.037607461 2.350951e-38
0.026839325 -0.10587703 0.042550713 2.3509869e-38
0.028386952 -0.10508646 0.045546681 2.3509869e-38
0.030063273 -0.10508646 0.045546681 2.3509866e-38
0.031884048 -0.10587703 0.042550713 2.3509866e-38
0.033565622 -0.10587703 0.042550713 2.3509866e-38
0.035247199 -0.10587703 0.042550713 2.3509866e-38
0.037089996 -0.10667257 0.03953591 2.3509866e-38
0.038776856 -0.10667257 0.03953591 2.350986e-38
0.040463716 -0.10667257 0.03953591 2.3509855e-38
0.042150579 -0.10667257 0.03953591 2.3509849e-38
0.043837439 -0.10667257 0.03953591 2.3509845e-38
0.045336649 -0.10587703 0.042550713 1.7332029e-38
0.047018223 -0.10587703 0.042550713 1.1706684e-38
-0.064221404 -0.10887168 0.037607461 1.4196649e-38
-0.062531158 -0.10887168 0.037607461 2.3509837e-38
-0.06084092 -0.10887168 0.037607461 2.3417263e-38
-0.059292205 -0.10968079 0.034561485 2.350981e-38
-0.057729512 -0.11047028 0.031589299 2.2956991e-38
-0.055901039 -0.10968079 0.034561485 2.3509809e-38
-0.054205455 -0.10968079 0.034561485 2.3417617e-38
-0.052509874 -0.10968079 0.034561485 2.3417263e-38
-0.05081429 -0.10968079 0.034561485 2.3416912e-38
-0.049118709 -0.10968079 0.034561485 2.3416912e-38
-0.047318984 -0.10887168 0.037607461 2.3416912e-38
-0.045628741 -0.10887168 0.037607461 2.3417265e-38
-0.043938499 -0.10887168 0.037607461 2.3417263e-38
-0.042336375 -0.10968079 0.034561485 2.323395e-38
-0.040640794 -0.10968079 0.034561485 2.3509831e-38
-0.038945213 -0.10968079 0.034561485 2.3417997e-38
-0.037249628 -0.10968079 0.034561485 2.3509831e-38
-0.035554044 -0.10968079 0.034561485 2.3417995e-38
-0.033858463 -0.10968079 0.034561485 2.3417993e-38
-0.032162882 -0.10968079 0.034561485 2.3417993e-38
-0.030467296 -0.10968079 0.034561485 2.3417997e-38
-0.028771712 -0.10968079 0.034561485 2.3418002e-38
-0.027115216 -0.11047028 0.031589299 2.3509848e-38
-0.02541442 -0.11047028 0.031589299 2.3509853e-38
-0.023713628 -0.11047028 0.031589299 2.3509859e-38
-0.021989383 -0.10968079 0.034561485 2.3509859e-38
-0.0202938 -0.10968079 0.034561485 2.3509856e-38
-0.018598216 -0.10968079 0.034561485 2.3509856e-38
-0.016902635 -0.10968079 0.034561485 2.3509853e-38
-0.015207052 -0.10968079 0.034561485 2.3509859e-38
-0.013514139 -0.10887168 0.037607461 2.350987e-38
-0.011823896 -0.10887168 0.037607461 2.3509873e-38
-0.010133656 -0.10887168 0.037607461 2.3509869e-38
-0.0084552467 -0.10835941 0.03953591 2.350986e-38
-0.0067683863 -0.10835941 0.03953591 2.3509853e-38
-0.0050815255 -0.10835941 0.03953591 2.3509851e-38
-0.0033946647 -0.10835941 0.03953591 2.3509848e-38
-0.0017078039 -0.10835941 0.03953591 2.3509848e-38
-2.0943116e-05 -0.10835941 0.03953591 2.3509849e-38
0.0016157008 -0.10755859 0.042550713 2.3509855e-38
0.0032972763 -0.10755859 0.042550713 2.3509858e-38
0.0049788519 -0.10755859 0.042550713 2.3509859e-38
0.006726501 -0.10835941 0.03953591 2.3509859e-38
0.0084133614 -0.10835941 0.03953591 2.3509859e-38
0.010100223 -0.10835941 0.03953591 2.3509859e-38
0.011787083 -0.10835941 0.03953591 2.3509858e-38
0.013529735 -0.10887168 0.037607461 2.3509493e-38
0.015219977 -0.10887168 0.037607461 2.3509493e-38
0.01691022 -0.10887168 0.037607461 2.3509135e-38
0.018600462 -0.10887168 0.037607461 2.350949e-38
0.020290704 -0.10887168 0.037607461 2.350949e-38
0.021908248 -0.10835941 0.03953591 2.350949e-38
0.023595111 -0.10835941 0.03953591 2.3509488e-38
0.025281971 -0.10835941 0.03953591 2.3509846e-38
0.026839325 -0.10755859 0.042550713 2.3509125e-38
0.028386952 -0.10676278 0.045546681 2.3509483e-38
0.030063273 -0.10676278 0.045546681 2.3509482e-38
0.031884048 -0.10755859 0.042550713 2.3509482e-38
0.033565622 -0.10755859 0.042550713 2.3509482e-38
0.035247199 -0.10755859 0.042550713 2.3509482e-38
0.036928773 -0.10755859 0.042550713 2.3509479e-38
0.038610347 -0.10755859 0.042550713 2.3509476e-38
0.040291924 -0.10755859 0.042550713 2.3509468e-38
0.041973498 -0.10755859 0.042550713 2.3509825e-38
0.043655071 -0.10755859 0.042550713 2.3509102e-38
0.045336649 -0.10755859 0.042550713 1.6962869e-38
0.047018223 -0.10755859 0.042550713 1.1614117e-38
-0.064221404 -0.11056192 0.037607461 1.4841651e-38
-0.062531158 -0.11056192 0.037607461 2.3509818e-38
-0.06084092 -0.11056192 0.037607461 2.2587842e-38
-0.059292205 -0.11137636 0.034561485 2.3326112e-38
-0.057596624 -0.11137636 0.034561485 2.2957682e-38
-0.055901039 -0.11137636 0.034561485 2.2865486e-38
-0.054205455 -0.11137636 0.034561485 2.3509783e-38
-0.052509874 -0.11137636 0.034561485 2.3509789e-38
-0.05081429 -0.11137636 0.034561485 2.3325759e-38
-0.049009226 -0.11056192 0.037607461 2.3141371e-38
-0.047318984 -0.11056192 0.037607461 2.304917e-38
-0.045628741 -0.11056192 0.037607461 2.3049525e-38
-0.043938499 -0.11056192 0.037607461 2.3234268e-38
-0.042336375 -0.11137636 0.034561485 2.3417942e-38
-0.040640794 -0.11137636 0.034561485 2.3417949e-38
-0.038867772 -0.11056192 0.037607461 2.3509786e-38
-0.037177533 -0.11056192 0.037607461 2.3509783e-38
-0.035554044 -0.11137636 0.034561485 2.3509779e-38
-0.033858463 -0.11137636 0.034561485 2.3509776e-38
-0.032162882 -0.11137636 0.034561485 2.3509776e-38
-0.030467296 -0.11137636 0.034561485 2.3509783e-38
-0.028771712 -0.11137636 0.034561485 2.350979e-38
-0.027076131 -0.11137636 0.034561485 2.3509796e-38
-0.025380546 -0.11137636 0.034561485 2.3509804e-38
-0.023684965 -0.11137636 0.034561485 2.3509809e-38
-0.021989383 -0.11137636 0.034561485 2.350981e-38
-0.020275107 -0.11056192 0.037607461 2.3509807e-38
-0.018584864 -0.11056192 0.037607461 2.3509802e-38
-0.016894624 -0.11056192 0.037607461 2.3509797e-38
-0.015204381 -0.11056192 0.037607461 2.3509806e-38
-0.013514139 -0.11056192 0.037607461 2.3509831e-38
-0.011823896 -0.11056192 0.037607461 2.3509837e-38
-0.010133656 -0.11056192 0.037607461 2.350983e-38
-0.0084552467 -0.11004628 0.03953591 2.3509821e-38
-0.0067683863 -0.11004628 0.03953591 2.3509813e-38
-0.0050815255 -0.11004628 0.03953591 2.350981e-38
-0.0033946647 -0.11004628 0.03953591 2.3509809e-38
-0.0017078039 -0.11004628 0.03953591 2.3509809e-38
-2.0943116e-05 -0.11004628 0.03953591 2.3509818e-38
0.0016157008 -0.10924016 0.042550713 2.350982e-38
0.0032972763 -0.10924016 0.042550713 2.3509461e-38
0.0049788519 -0.10924016 0.042550713 2.3509464e-38
0.006726501 -0.11004628 0.03953591 2.3509823e-38
0.0083420016 -0.10924016 0.042550713 2.3509821e-38
0.010023577 -0.10924016 0.042550713 2.350982e-38
0.011787083 -0.11004628 0.03953591 2.350982e-38
0.013473945 -0.11004628 0.03953591 2.3509818e-38
0.015160805 -0.11004628 0.03953591 2.3509461e-38
0.016847666 -0.11004628 0.03953591 2.3508742e-38
0.018600462 -0.11056192 0.037607461 2.332507e-38
0.020290704 -0.11056192 0.037607461 2.3416547e-38
0.021908248 -0.11004628 0.03953591 2.3417263e-38
0.023595111 -0.11004628 0.03953591 2.3509458e-38
0.025281971 -0.11004628 0.03953591 2.3509818e-38
0.026839325 -0.10924016 0.042550713 2.3509457e-38
0.028520899 -0.10924016 0.042550713 2.3509816e-38
0.030202476 -0.10924016 0.042550713 2.3509454e-38
0.031884048 -0.10924016 0.042550713 2.3417617e-38
0.033565622 -0.10924016 0.042550713 2.350945e-38
0.035247199 -0.10924016 0.042550713 2.3325419e-38
0.036928773 -0.10924016 0.042550713 2.3417254e-38
0.038610347 -0.10924016 0.042550713 2.3417251e-38
0.040291924 -0.10924016 0.042550713 2.35098e-38
0.041973498 -0.10924016 0.042550713 2.3509796e-38
0.043473847 -0.1084391 0.045546681 2.3232493e-38
0.045150168 -0.1084391 0.045546681 1.7055048e-38
0.046826493 -0.1084391 0.045546681 1.3365823e-38
0.048502814 -0.1084391 0.045546681 8.8478966e-39
-0.065911651 -0.11225216 0.037607461 9.7701892e-39
-0.064221404 -0.11225216 0.037607461 1.4933481e-38
-0.062531158 -0.11225216 0.037607461 2.3509814e-38
-0.06084092 -0.11225216 0.037607461 2.3140999e-38
-0.059292205 -0.11307193 0.034561485 2.3509764e-38
-0.057596624 -0.11307193 0.034561485 2.3233527e-38
-0.055770192 -0.11225216 0.037607461 2.3417916e-38
-0.05407995 -0.11225216 0.037607461 2.3509757e-38
-0.052389707 -0.11225216 0.037607461 2.3509761e-38
-0.050699469 -0.11225216 0.037607461 2.3509762e-38
-0.049009226 -0.11225216 0.037607461 2.3417567e-38
-0.047318984 -0.11225216 0.037607461 2.3233529e-38
-0.045628741 -0.11225216 0.037607461 2.3233883e-38
-0.043938499 -0.11225216 0.037607461 2.3417909e-38
-0.042248257 -0.11225216 0.037607461 2.3509745e-38
-0.040558014 -0.11225216 0.037607461 2.3232808e-38
-0.038867772 -0.11225216 0.037607461 2.3325004e-38
-0.037177533 -0.11225216 0.037607461 2.3325357e-38
-0.035487287 -0.11225216 0.037607461 2.3325712e-38
-0.033797048 -0.11225216 0.037607461 2.3234232e-38
-0.032106802 -0.11225216 0.037607461 2.3326069e-38
-0.030416561 -0.11225216 0.037607461 2.3326073e-38
-0.028726319 -0.11225216 0.037607461 2.3325723e-38
-0.027076131 -0.11307193 0.034561485 2.3509768e-38
-0.025345834 -0.11225216 0.037607461 2.3509775e-38
-0.023655592 -0.11225216 0.037607461 2.3509783e-38
-0.021965349 -0.11225216 0.037607461 2.3509783e-38
-0.020275107 -0.11225216 0.037607461 2.3509781e-38
-0.018584864 -0.11225216 0.037607461 2.3417938e-38
-0.016894624 -0.11225216 0.037607461 2.3326097e-38
-0.01520269 -0.11173315 0.03953591 2.3325742e-38
-0.01351583 -0.11173315 0.03953591 2.3417239e-38
-0.011828968 -0.11173315 0.03953591 2.3416884e-38
-0.010142108 -0.11173315 0.03953591 2.3417239e-38
-0.0084552467 -0.11173315 0.03953591 2.3417589e-38
-0.0067683863 -0.11173315 0.03953591 2.3325745e-38
-0.0050815255 -0.11173315 0.03953591 2.3325742e-38
-0.0033946647 -0.11173315 0.03953591 2.3325742e-38
-0.0017078039 -0.11173315 0.03953591 2.3325745e-38
-6.5873843e-05 -0.11092176 0.042550713 2.3417589e-38
0.0016157008 -0.11092176 0.042550713 2.332504e-38
0.0032972763 -0.11092176 0.042550713 2.3232848e-38
0.0049788519 -0.11092176 0.042550713 2.3325043e-38
0.0066604256 -0.11092176 0.042550713 2.3417592e-38
0.0083420016 -0.11092176 0.042550713 2.3417586e-38
0.010023577 -0.11092176 0.042550713 2.3233547e-38
0.011705151 -0.11092176 0.042550713 2.3141354e-38
0.013386726 -0.11092176 0.042550713 2.350979e-38
0.015068302 -0.11092176 0.042550713 2.3509795e-38
0.016749876 -0.11092176 0.042550713 2.3509434e-38
0.018534528 -0.11173315 0.03953591 2.3325762e-38
0.020221388 -0.11173315 0.03953591 2.3417239e-38
0.021908248 -0.11173315 0.03953591 2.3417955e-38
0.023595111 -0.11173315 0.03953591 2.3509795e-38
0.025281971 -0.11173315 0.03953591 2.3509793e-38
0.026839325 -0.11092176 0.042550713 2.3509792e-38
0.028520899 -0.11092176 0.042550713 2.3509789e-38
0.030202476 -0.11092176 0.042550713 2.3509788e-38
0.031884048 -0.11092176 0.042550713 2.3417952e-38
0.033565622 -0.11092176 0.042550713 2.3509785e-38
0.035247199 -0.11092176 0.042550713 2.3326112e-38
0.036928773 -0.11092176 0.042550713 2.3417589e-38
0.03844488 -0.11011542 0.045546681 2.3417944e-38
0.040121201 -0.11011542 0.045546681 2.3049511e-38
0.041797526 -0.11011542 0.045546681 2.3232824e-38
0.043348208 -0.10955642 0.047623724 2.3048082e-38
0.045020886 -0.10955642 0.047623724 1.6871e-38
0.046693567 -0.10955642 0.047623724 1.2904475e-38
-0.067601889 -0.1139424 0.037607461 1.0138268e-38
-0.065911651 -0.1139424 0.037607461 8.8475154e-39
-0.064221404 -0.1139424 0.037607461 1.4195194e-38
-0.062531158 -0.1139424 0.037607461 2.3509804e-38
-0.06084092 -0.1139424 0.037607461 2.3509049e-38
-0.059292205 -0.11476754 0.034561485 2.3325354e-38
-0.057596624 -0.11476754 0.034561485 2.3048396e-38
-0.055770192 -0.1139424 0.037607461 2.350973e-38
-0.05407995 -0.1139424 0.037607461 2.3509733e-38
-0.052389707 -0.1139424 0.037607461 2.3509738e-38
-0.050699469 -0.1139424 0.037607461 2.3509741e-38
-0.049009226 -0.1139424 0.037607461 2.3509741e-38
-0.047318984 -0.1139424 0.037607461 2.3326062e-38
-0.045628741 -0.1139424 0.037607461 2.3326055e-38
-0.043938499 -0.1139424 0.037607461 2.3326048e-38
-0.042248257 -0.1139424 0.037607461 2.350972e-38
-0.040558014 -0.1139424 0.037607461 2.3509015e-38
-0.038867772 -0.1139424 0.037607461 2.3509018e-38
-0.037177533 -0.1139424 0.037607461 2.350937e-38
-0.035487287 -0.1139424 0.037607461 2.3509724e-38
-0.033797048 -0.1139424 0.037607461 2.3509722e-38
-0.032106802 -0.1139424 0.037607461 2.3509724e-38
-0.030416561 -0.1139424 0.037607461 2.3417897e-38
-0.028726319 -0.1139424 0.037607461 2.3417907e-38
-0.027036076 -0.1139424 0.037607461 2.3509397e-38
-0.025345834 -0.1139424 0.037607461 2.3509411e-38
-0.023636995 -0.11341999 0.03953591 2.350906e-38
-0.021950135 -0.11341999 0.03953591 2.3509062e-38
-0.020263273 -0.11341999 0.03953591 2.3416865e-38
-0.018576412 -0.11341999 0.03953591 2.3325022e-38
-0.016889552 -0.11341999 0.03953591 2.3049866e-38
-0.01520269 -0.11341999 0.03953591 2.3049863e-38
-0.01351583 -0.11341999 0.03953591 2.3417214e-38
-0.011828968 -0.11341999 0.03953591 2.3417569e-38
-0.010142108 -0.11341999 0.03953591 2.3417564e-38
-0.0084552467 -0.11341999 0.03953591 2.3509752e-38
-0.0067683863 -0.11341999 0.03953591 2.3509747e-38
-0.0050815255 -0.11341999 0.03953591 2.3509745e-38
-0.0033946647 -0.11341999 0.03953591 2.3509747e-38
-0.0017474485 -0.11260332 0.042550713 2.3509752e-38
-6.5873843e-05 -0.11260332 0.042550713 2.3509761e-38
0.0016157008 -0.11260332 0.042550713 2.3509765e-38
0.0032972763 -0.11260332 0.042550713 2.3509409e-38
0.0049788519 -0.11260332 0.042550713 2.3509765e-38
0.0066604256 -0.11260332 0.042550713 2.3509758e-38
0.0083420016 -0.11260332 0.042550713 2.3509747e-38
0.010023577 -0.11260332 0.042550713 2.3234226e-38
0.011705151 -0.11260332 0.042550713 2.3049841e-38
0.013386726 -0.11260332 0.042550713 2.3509759e-38
0.015068302 -0.11260332 0.042550713 2.3417934e-38
0.016749876 -0.11260332 0.042550713 2.3509409e-38
0.018534528 -0.11341999 0.03953591 2.3326097e-38
0.020221388 -0.11341999 0.03953591 2.3509409e-38
0.021908248 -0.11341999 0.03953591 2.3326094e-38
0.023595111 -0.11341999 0.03953591 2.3509769e-38
0.025281971 -0.11341999 0.03953591 2.3509768e-38
0.026839325 -0.11260332 0.042550713 2.3509767e-38
0.028520899 -0.11260332 0.042550713 2.3417928e-38
0.030202476 -0.11260332 0.042550713 2.3509764e-38
0.031884048 -0.11260332 0.042550713 2.3326091e-38
0.033565622 -0.11260332 0.042550713 2.3509762e-38
0.035247199 -0.11260332 0.042550713 2.3326091e-38
0.036928773 -0.11260332 0.042550713 2.3509759e-38
0.03844488 -0.11179174 0.045546681 2.3509757e-38
0.040121201 -0.11179174 0.045546681 2.3233161e-38
0.041797526 -0.11179174 0.045546681 2.3417555e-38
0.043348208 -0.11122911 0.047623724 2.3416848e-38
0.045020886 -0.11122911 0.047623724 1.7515639e-38
0.046693567 -0.11122911 0.047623724 1.3180693e-38
0.048171338 -0.11042608 0.050588101 7.6486233e-39
-0.065911651 -0.11563264 0.037607461 7.5556976e-39
-0.064221404 -0.11563264 0.037607461 1.3180323e-38
-0.062531158 -0.11563264 0.037607461 2.3509078e-38
-0.06084092 -0.11563264 0.037607461 2.3509041e-38
-0.059150681 -0.11563264 0.037607461 2.3416462e-38
-0.057596624 -0.11646311 0.034561485 2.3047663e-38
-0.055901039 -0.11646311 0.034561485 2.3509719e-38
-0.054205455 -0.11646311 0.034561485 2.3509001e-38
-0.052509874 -0.11646311 0.034561485 2.3509724e-38
-0.05081429 -0.11646311 0.034561485 2.3509731e-38
-0.049009226 -0.11563264 0.037607461 2.3509731e-38
-0.047318984 -0.11563264 0.037607461 2.350972e-38
-0.045628741 -0.11563264 0.037607461 2.3509713e-38
-0.043938499 -0.11563264 0.037607461 2.3509706e-38
-0.042248257 -0.11563264 0.037607461 2.350971e-38
-0.040558014 -0.11563264 0.037607461 2.3509729e-38
-0.038867772 -0.11563264 0.037607461 2.3509731e-38
-0.037177533 -0.11563264 0.037607461 2.3509727e-38
-0.035487287 -0.11563264 0.037607461 2.3509723e-38
-0.033797048 -0.11563264 0.037607461 2.350972e-38
-0.032106802 -0.11563264 0.037607461 2.3509724e-38
-0.030384438 -0.11510687 0.03953591 2.3509737e-38
-0.028697578 -0.11510687 0.03953591 2.3509751e-38
-0.027036076 -0.11563264 0.037607461 2.3416853e-38
-0.025323855 -0.11510687 0.03953591 2.3416866e-38
-0.023636995 -0.11510687 0.03953591 2.3416161e-38
-0.021950135 -0.11510687 0.03953591 2.3324689e-38
-0.020263273 -0.11510687 0.03953591 2.3324689e-38
-0.018563198 -0.11428489 0.042550713 2.3325043e-38
-0.016881622 -0.11428489 0.042550713 2.3233917e-38
-0.015200047 -0.11428489 0.042550713 2.3325745e-38
-0.013518473 -0.11428489 0.042550713 2.3417569e-38
-0.011836898 -0.11428489 0.042550713 2.341792e-38
-0.010155322 -0.11428489 0.042550713 2.3509748e-38
-0.0084552467 -0.11510687 0.03953591 2.3509743e-38
-0.0067683863 -0.11510687 0.03953591 2.350974e-38
-0.0050815255 -0.11510687 0.03953591 2.3509741e-38
-0.0033946647 -0.11510687 0.03953591 2.3509747e-38
-0.0017474485 -0.11428489 0.042550713 2.3509754e-38
-6.5873843e-05 -0.11428489 0.042550713 2.3509762e-38
0.0016157008 -0.11428489 0.042550713 2.3509767e-38
0.0032972763 -0.11428489 0.042550713 2.3509409e-38
0.0049788519 -0.11428489 0.042550713 2.3509759e-38
0.0066604256 -0.11428489 0.042550713 2.3509751e-38
0.0083420016 -0.11428489 0.042550713 2.3509738e-38
0.010023577 -0.11428489 0.042550713 2.3509723e-38
0.011705151 -0.11428489 0.042550713 2.3326051e-38
0.013386726 -0.11428489 0.042550713 2.3509738e-38
0.015068302 -0.11428489 0.042550713 2.3417913e-38
0.016749876 -0.11428489 0.042550713 2.3509748e-38
0.018534528 -0.11510687 0.03953591 2.3417913e-38
0.020221388 -0.11510687 0.03953591 2.3509748e-38
0.021908248 -0.11510687 0.03953591 2.3417913e-38
0.023476174 -0.11428489 0.042550713 2.3509748e-38
0.025157752 -0.11428489 0.042550713 2.3417913e-38
0.026839325 -0.11428489 0.042550713 2.3509745e-38
