# .PCD v0.7 - Point Cloud Data file format
VERSION 0.7
FIELDS x y z rgb
SIZE 4 4 4 4
TYPE F F F F
COUNT 1 1 1 1
WIDTH 935
HEIGHT 1
VIEWPOINT 0 0 0 1 0 0 0
POINTS 935
DATA ascii
-0.0043995827 -0.11277486 -0.0077343732 3.7814375e-39
-0.0026364084 -0.11353777 -0.010724977 4.8867089e-39
-0.00082604401 -0.11277486 -0.0077343732 5.2522656e-39
0.00096072443 -0.11277486 -0.0077343732 4.8820524e-39
0.0027474929 -0.11277486 -0.0077343732 5.0646598e-39
0.0045342613 -0.11277486 -0.0077343732 6.5397815e-39
0.0063210297 -0.11277486 -0.0077343732 8.0141717e-39
0.0081077982 -0.11277486 -0.0077343732 6.725965e-39
0.0098945666 -0.11277486 -0.0077343732 3.1347047e-39
0.011681336 -0.11277486 -0.0077343732 1.1378544e-42
0.035457756 -0.11761098 -0.026691392 1.3640285e-38
0.037277766 -0.11761098 -0.026691392 1.5392717e-38
0.039390981 -0.11991702 -0.035730794 1.3643144e-38
0.04132732 -0.12066682 -0.038669899 1.2446399e-38
0.09194544 -0.14899619 -0.14971764 7.2838177e-39
0.09337455 -0.14696725 -0.14176436 7.6529533e-39
0.09507902 -0.14592977 -0.13769765 8.5738264e-39
0.097093657 -0.14592977 -0.13769765 8.7585708e-39
-0.023968028 -0.11379795 -0.0047612935 1.7332764e-38
-0.011546658 -0.11456163 -0.0077343732 2.4928847e-39
-0.0097598899 -0.11456163 -0.0077343732 2.8623805e-39
-0.0079731215 -0.11456163 -0.0077343732 2.3095585e-39
-0.006186353 -0.11456163 -0.0077343732 2.6779753e-39
-0.0043995827 -0.11456163 -0.0077343732 3.8750765e-39
-0.0026128143 -0.11456163 -0.0077343732 4.979629e-39
-0.00082604401 -0.11456163 -0.0077343732 3.2264813e-39
0.00097375549 -0.11379795 -0.0047612935 5.1608001e-39
0.0027553122 -0.11379795 -0.0047612935 4.5132811e-39
0.0045342613 -0.11456163 -0.0077343732 7.5553739e-39
0.0063210297 -0.11456163 -0.0077343732 7.7401113e-39
0.0081077982 -0.11456163 -0.0077343732 1.2259864e-38
0.0098945666 -0.11456163 -0.0077343732 1.38301e-38
0.011681336 -0.11456163 -0.0077343732 4.7974546e-39
0.013468105 -0.11456163 -0.0077343732 7.4268819e-43
0.035457756 -0.11943097 -0.026691392 1.1981116e-38
0.037277766 -0.11943097 -0.026691392 1.345624e-38
0.039194942 -0.12020047 -0.029687122 1.3366189e-38
0.04132732 -0.12250783 -0.038669899 1.3091042e-38
0.048858419 -0.1235493 -0.042724445 1.1154952e-38
0.050706536 -0.1235493 -0.042724445 1.0970173e-38
0.09337455 -0.14898901 -0.14176436 8.3905184e-39
0.09507902 -0.14794444 -0.13769765 8.8504133e-39
0.097093657 -0.14794444 -0.13769765 8.5741824e-39
-0.025749585 -0.1155795 -0.0047612935 1.2723702e-38
-0.023968028 -0.1155795 -0.0047612935 2.3509876e-38
-0.022186471 -0.1155795 -0.0047612935 2.2587562e-38
-0.020404914 -0.1155795 -0.0047612935 2.3509883e-38
-0.018623361 -0.1155795 -0.0047612935 2.341805e-38
-0.016841805 -0.1155795 -0.0047612935 9.5901546e-39
-0.015060248 -0.1155795 -0.0047612935 5.3506003e-39
-0.013278695 -0.1155795 -0.0047612935 4.982178e-39
-0.011497134 -0.1155795 -0.0047612935 2.2173853e-39
-0.0097155813 -0.1155795 -0.0047612935 1.6652835e-39
-0.0079340246 -0.1155795 -0.0047612935 3.6939391e-39
-0.0061524678 -0.1155795 -0.0047612935 3.9701602e-39
-0.0043995827 -0.1163484 -0.0077343732 4.0609153e-39
-0.0026128143 -0.1163484 -0.0077343732 4.4279e-39
-0.00082604401 -0.1163484 -0.0077343732 7.2841708e-39
0.00097375549 -0.1155795 -0.0047612935 1.9175975e-38
0.0027553122 -0.1155795 -0.0047612935 1.9081986e-38
0.0045342613 -0.1163484 -0.0077343732 1.9266377e-38
0.0063210297 -0.1163484 -0.0077343732 2.323186e-38
0.0081077982 -0.1163484 -0.0077343732 2.3509527e-38
0.0098945666 -0.1163484 -0.0077343732 2.3142544e-38
0.011681336 -0.1163484 -0.0077343732 9.5916077e-39
0.013468105 -0.1163484 -0.0077343732 1.8230893e-42
0.015283713 -0.1171218 -0.010724977 1.5709411e-39
0.033719163 -0.12202574 -0.029687122 5.715392e-39
0.035544425 -0.12202574 -0.029687122 6.6330393e-39
0.037369683 -0.12202574 -0.029687122 6.5411996e-39
0.039194942 -0.12202574 -0.029687122 1.1153128e-38
0.041226834 -0.12358873 -0.035730794 1.3183234e-38
0.043062687 -0.12358873 -0.035730794 1.2907021e-38
0.047127798 -0.12616767 -0.04570289 1.3921187e-38
0.048858419 -0.1253974 -0.042724445 1.6502652e-38
0.050706536 -0.1253974 -0.042724445 1.0878332e-38
-0.027141234 -0.11423124 0.0072592944 1.0787956e-38
-0.025749585 -0.11736105 -0.0047612935 1.6411893e-38
-0.023968028 -0.11736105 -0.0047612935 2.3326208e-38
-0.022186471 -0.11736105 -0.0047612935 2.3418045e-38
-0.020404914 -0.11736105 -0.0047612935 2.2865955e-38
-0.018623361 -0.11736105 -0.0047612935 2.286632e-38
-0.016841805 -0.11736105 -0.0047612935 1.8073594e-38
-0.015060248 -0.11736105 -0.0047612935 1.641444e-38
-0.013278695 -0.11736105 -0.0047612935 1.1160731e-38
-0.01144621 -0.11656497 -0.0017038137 6.552026e-39
-0.0096700136 -0.11656497 -0.0017038137 3.9705442e-39
-0.0078938175 -0.11656497 -0.0017038137 1.297224e-39
-0.0061176214 -0.11656497 -0.0017038137 2.9560181e-39
-0.004370911 -0.11736105 -0.0047612935 3.1400464e-39
-0.0025893562 -0.11736105 -0.0047612935 2.769822e-39
-0.00082604401 -0.11813517 -0.0077343732 7.0090231e-39
0.00096072443 -0.11813517 -0.0077343732 2.341805e-38
0.0027474929 -0.11813517 -0.0077343732 2.3509886e-38
0.0045342613 -0.11813517 -0.0077343732 2.2771967e-38
0.0063210297 -0.11813517 -0.0077343732 2.341805e-38
0.0081077982 -0.11813517 -0.0077343732 2.2773763e-38
0.0098945666 -0.11813517 -0.0077343732 2.3142544e-38
0.011681336 -0.11813517 -0.0077343732 1.0605383e-38
0.013468105 -0.11813517 -0.0077343732 3.3219392e-39
0.015283713 -0.11891381 -0.010724977 7.3785497e-39
0.017075725 -0.11891381 -0.010724977 1.0790137e-38
0.018867739 -0.11891381 -0.010724977 1.0328796e-38
0.033719163 -0.12385099 -0.029687122 4.1484138e-39
0.035544425 -0.12385099 -0.029687122 4.88203e-39
0.037369683 -0.12385099 -0.029687122 8.5691335e-39
0.039390981 -0.12542458 -0.035730794 1.2443502e-38
0.041123219 -0.12463553 -0.032700256 1.4565802e-38
0.042953759 -0.12463553 -0.032700256 1.3275078e-38
0.044784307 -0.12463553 -0.032700256 1.1708479e-38
0.047010303 -0.12724553 -0.042724445 1.401337e-38
0.048858419 -0.12724553 -0.042724445 1.5487773e-38
0.050706536 -0.12724553 -0.042724445 1.1522978e-38
-0.028901713 -0.11599173 0.0072592944 1.4660173e-38
-0.027141234 -0.11599173 0.0072592944 2.2404609e-38
-0.025562519 -0.11754455 0.001335308 2.3418047e-38
-0.023879575 -0.11834116 -0.0017038137 2.3418047e-38
-0.022103379 -0.11834116 -0.0017038137 2.3142539e-38
-0.020404914 -0.11914261 -0.0047612935 2.3142544e-38
-0.018623361 -0.11914261 -0.0047612935 2.2958873e-38
-0.016774794 -0.11834116 -0.0017038137 2.2407501e-38
-0.014998602 -0.11834116 -0.0017038137 2.2591531e-38
-0.013222406 -0.11834116 -0.0017038137 2.2499695e-38
-0.011395587 -0.11754455 0.001335308 1.9366863e-38
-0.0096247215 -0.11754455 0.001335308 7.3821468e-39
-0.0078538526 -0.11754455 0.001335308 3.3258936e-39
-0.0060829874 -0.11754455 0.001335308 2.5879628e-39
-0.0043414291 -0.11834116 -0.0017038137 2.8634623e-39
-0.002565233 -0.11834116 -0.0017038137 4.5219019e-39
-0.00080780126 -0.11914261 -0.0047612935 8.4852321e-39
0.00097375549 -0.11914261 -0.0047612935 2.2958504e-38
0.0027553122 -0.11914261 -0.0047612935 2.3418047e-38
0.0045368671 -0.11914261 -0.0047612935 2.341805e-38
0.0063210297 -0.11992194 -0.0077343732 2.3050708e-38
0.0081077982 -0.11992194 -0.0077343732 2.3142544e-38
0.0098945666 -0.11992194 -0.0077343732 2.277374e-38
0.011681336 -0.11992194 -0.0077343732 1.30932e-38
0.013468105 -0.11992194 -0.0077343732 1.3553848e-38
0.015283713 -0.12070583 -0.010724977 1.7149489e-38
0.017075725 -0.12070583 -0.010724977 1.6783219e-38
0.018867739 -0.12070583 -0.010724977 1.549248e-38
0.02789373 -0.12149437 -0.013733223 1.9724084e-38
0.029691016 -0.12149437 -0.013733223 1.1520836e-38
0.031488303 -0.12149437 -0.013733223 8.6663528e-39
0.033719163 -0.12567626 -0.029687122 4.4257069e-39
0.035544425 -0.12567626 -0.029687122 6.5411814e-39
0.037369683 -0.12567626 -0.029687122 1.7326994e-38
0.039390981 -0.12726043 -0.035730794 1.640683e-38
0.041123219 -0.12646608 -0.032700256 1.5302646e-38
0.042953759 -0.12646608 -0.032700256 1.3091041e-38
0.044784307 -0.12646608 -0.032700256 1.558105e-38
0.046850346 -0.12803085 -0.038669899 1.3367276e-38
0.048691355 -0.12803085 -0.038669899 1.4842039e-38
0.050532371 -0.12803085 -0.038669899 1.3642759e-38
-0.030554874 -0.11696436 0.01024501 1.465981e-38
-0.028799629 -0.11696436 0.01024501 1.6780675e-38
-0.027044384 -0.11696436 0.01024501 2.3141816e-38
-0.025472911 -0.11854477 0.0042558163 2.3234379e-38
-0.023879575 -0.12011738 -0.0017038137 2.3050347e-38
-0.022103379 -0.12011738 -0.0017038137 2.3234376e-38
-0.020327182 -0.12011738 -0.0017038137 2.2129106e-38
-0.01855099 -0.12011738 -0.0017038137 2.2591169e-38
-0.016774794 -0.12011738 -0.0017038137 2.2867037e-38
-0.014998602 -0.12011738 -0.0017038137 2.2591531e-38
-0.013222406 -0.12011738 -0.0017038137 2.2131994e-38
-0.011395587 -0.11931543 0.001335308 2.2316024e-38
-0.0096247215 -0.11931543 0.001335308 1.8629298e-38
-0.0078538526 -0.11931543 0.001335308 9.7788702e-39
-0.0060829874 -0.11931543 0.001335308 3.3244517e-39
-0.0043414291 -0.12011738 -0.0017038137 1.4794517e-39
-0.002565233 -0.12011738 -0.0017038137 6.9186281e-39
-0.00078903697 -0.12011738 -0.0017038137 1.2725508e-38
0.00098715723 -0.12011738 -0.0017038137 2.3050696e-38
0.0027633533 -0.12011738 -0.0017038137 2.3326201e-38
0.0045368671 -0.12092416 -0.0047612935 2.3418045e-38
0.0063184239 -0.12092416 -0.0047612935 2.2498619e-38
0.0080999788 -0.12092416 -0.0047612935 2.3142538e-38
0.0098815355 -0.12092416 -0.0047612935 2.3050302e-38
0.011681336 -0.12170871 -0.0077343732 1.5949442e-38
0.013468105 -0.12170871 -0.0077343732 1.7699766e-38
0.015254874 -0.12170871 -0.0077343732 1.8253681e-38
0.017041642 -0.12170871 -0.0077343732 1.6782504e-38
0.018828411 -0.12170871 -0.0077343732 1.5032581e-38
0.020615179 -0.12170871 -0.0077343732 1.4846745e-38
0.022401949 -0.12170871 -0.0077343732 1.0510654e-38
0.026035788 -0.12249784 -0.010724977 1.7234421e-38
0.027827799 -0.12249784 -0.010724977 2.0828975e-38
0.029691016 -0.12329166 -0.013733223 1.6590134e-38
0.031488303 -0.12329166 -0.013733223 9.4950204e-39
0.033367824 -0.12409012 -0.016759112 3.7788942e-39
0.035719268 -0.12909628 -0.035730794 7.0025126e-39
0.037555121 -0.12909628 -0.035730794 1.6957846e-38
0.039390981 -0.12909628 -0.035730794 1.5484513e-38
0.041226834 -0.12909628 -0.035730794 1.3458014e-38
0.043062687 -0.12909628 -0.035730794 1.1430801e-38
0.044898547 -0.12909628 -0.035730794 1.2721904e-38
0.046850346 -0.12987186 -0.038669899 1.216837e-38
0.048691355 -0.12987186 -0.038669899 1.6317169e-38
0.050532371 -0.12987186 -0.038669899 1.5486674e-38
-0.03044465 -0.11790501 0.01331161 2.2219852e-38
-0.028694784 -0.11790501 0.01331161 2.3509879e-38
-0.026944915 -0.11790501 0.01331161 2.3418047e-38
-0.025380755 -0.11951269 0.0072592944 2.3142544e-38
-0.023791654 -0.12108628 0.001335308 2.3234379e-38
-0.022103379 -0.12189357 -0.0017038137 2.332621e-38
-0.020327182 -0.12189357 -0.0017038137 2.3234374e-38
-0.01855099 -0.12189357 -0.0017038137 2.3142544e-38
-0.016774794 -0.12189357 -0.0017038137 2.2222031e-38
-0.014998602 -0.12189357 -0.0017038137 2.2867037e-38
-0.013166452 -0.12108628 0.001335308 2.2499336e-38
-0.011395587 -0.12108628 0.001335308 2.240786e-38
-0.0095811952 -0.1203105 0.0042558163 2.2131277e-38
-0.0078154486 -0.1203105 0.0042558163 2.139408e-38
-0.0060829874 -0.12108628 0.001335308 1.6414792e-38
-0.0043414291 -0.12189357 -0.0017038137 1.7244186e-38
-0.002565233 -0.12189357 -0.0017038137 2.3142541e-38
-0.00078903697 -0.12189357 -0.0017038137 2.2866307e-38
0.00098715723 -0.12189357 -0.0017038137 2.3418035e-38
0.0027633533 -0.12189357 -0.0017038137 2.2219485e-38
0.0045395475 -0.12189357 -0.0017038137 2.3509873e-38
0.0063157436 -0.12189357 -0.0017038137 2.3142544e-38
0.0080919378 -0.12189357 -0.0017038137 1.8256879e-38
0.0098815355 -0.12270571 -0.0047612935 1.797772e-38
0.011681336 -0.12349547 -0.0077343732 1.9266301e-38
0.013444647 -0.12270571 -0.0047612935 2.3508445e-38
0.015226203 -0.12270571 -0.0047612935 2.2492521e-38
0.017007759 -0.12270571 -0.0047612935 1.8902287e-38
0.018789316 -0.12270571 -0.0047612935 1.392551e-38
0.02057087 -0.12270571 -0.0047612935 1.6414775e-38
0.022352427 -0.12270571 -0.0047612935 2.0375936e-38
0.024188718 -0.12349547 -0.0077343732 1.56682e-38
0.026035788 -0.12428986 -0.010724977 1.2715045e-38
0.027827799 -0.12428986 -0.010724977 1.6217737e-38
0.029691016 -0.12508895 -0.013733223 1.9722962e-38
0.031488303 -0.12508895 -0.013733223 1.7145451e-38
0.033367824 -0.12589271 -0.016759112 7.5578332e-39
0.035255432 -0.1266733 -0.019697741 8.1074169e-39
0.037555121 -0.13093217 -0.035730794 9.6743908e-39
0.039390981 -0.13093217 -0.035730794 1.0505596e-38
0.041226834 -0.13093217 -0.035730794 9.7694745e-39
0.043062687 -0.13093217 -0.035730794 8.0195624e-39
0.044898547 -0.13093217 -0.035730794 2.9491671e-39
0.046850346 -0.13171287 -0.038669899 5.6224803e-39
0.048691355 -0.13171287 -0.038669899 1.0507767e-38
0.050532371 -0.13171287 -0.038669899 1.1614106e-38
0.052373379 -0.13171287 -0.038669899 4.4224797e-39
-0.03370849 -0.11805601 0.019291267 2.3509869e-38
-0.031969108 -0.11805601 0.019291267 2.3140365e-38
-0.030338628 -0.11886616 0.016261384 2.350987e-38
-0.028593929 -0.11886616 0.016261384 2.3509879e-38
-0.026849234 -0.11886616 0.016261384 2.3141819e-38
-0.025289143 -0.12047486 0.01024501 2.2497178e-38
-0.023707161 -0.12207626 0.0042558163 2.341805e-38
-0.022020789 -0.12285714 0.001335308 2.350988e-38
-0.020327182 -0.12366976 -0.0017038137 2.3509879e-38
-0.01855099 -0.12366976 -0.0017038137 2.3234012e-38
-0.016774794 -0.12366976 -0.0017038137 2.3234379e-38
-0.014937321 -0.12285714 0.001335308 2.3142544e-38
-0.013166452 -0.12285714 0.001335308 2.2775202e-38
-0.011346942 -0.12207626 0.0042558163 2.2958873e-38
-0.0095811952 -0.12207626 0.0042558163 2.2958873e-38
-0.0078154486 -0.12207626 0.0042558163 2.2958873e-38
-0.0060497019 -0.12207626 0.0042558163 2.2958873e-38
-0.0043121204 -0.12285714 0.001335308 2.1207156e-38
-0.0025412533 -0.12285714 0.001335308 2.2957428e-38
-0.00077038817 -0.12285714 0.001335308 2.3509873e-38
0.0010004789 -0.12285714 0.001335308 2.3509866e-38
0.0027713459 -0.12285714 0.001335308 2.350986e-38
0.0045422129 -0.12285714 0.001335308 2.3509866e-38
0.0063130781 -0.12285714 0.001335308 2.3509886e-38
0.0080919378 -0.12366976 -0.0017038137 2.065108e-38
0.0098681338 -0.12366976 -0.0017038137 1.3734904e-38
0.011663091 -0.1244873 -0.0047612935 2.0094244e-38
0.013444647 -0.1244873 -0.0047612935 2.3507719e-38
0.015226203 -0.1244873 -0.0047612935 2.3506298e-38
0.017007759 -0.1244873 -0.0047612935 1.8346593e-38
0.018789316 -0.1244873 -0.0047612935 1.6690294e-38
0.02057087 -0.1244873 -0.0047612935 1.7889164e-38
0.022352427 -0.1244873 -0.0047612935 1.7149078e-38
0.024188718 -0.12528224 -0.0077343732 2.0184003e-38
0.026035788 -0.12608187 -0.010724977 1.1698393e-38
0.027827799 -0.12608187 -0.010724977 1.3635521e-38
0.029691016 -0.12688623 -0.013733223 2.0182836e-38
0.031488303 -0.12688623 -0.013733223 1.7511707e-38
0.033367824 -0.12769531 -0.016759112 1.0321184e-38
0.035255432 -0.12848105 -0.019697741 8.0148611e-39
0.037369683 -0.13115202 -0.029687122 8.2910963e-39
0.039292678 -0.13195769 -0.032700256 8.937916e-39
0.041123219 -0.13195769 -0.032700256 9.123752e-39
0.042953759 -0.13195769 -0.032700256 8.4794658e-39
0.044784307 -0.13195769 -0.032700256 3.5016249e-39
0.046850346 -0.13355388 -0.038669899 1.7499079e-39
0.048691355 -0.13355388 -0.038669899 1.3804051e-39
0.050532371 -0.13355388 -0.038669899 7.0036141e-39
0.052373379 -0.13355388 -0.038669899 4.7905574e-39
-0.037057891 -0.11898489 0.022302791 2.3508788e-38
-0.035323791 -0.11898489 0.022302791 2.3509866e-38
-0.033589683 -0.11898489 0.022302791 2.3509502e-38
-0.031855583 -0.11898489 0.022302791 2.3509504e-38
-0.030229723 -0.1197954 0.019291267 2.350987e-38
-0.02849034 -0.1197954 0.019291267 2.3048896e-38
-0.026849234 -0.12061088 0.016261384 2.3417687e-38
-0.025195049 -0.12140475 0.01331161 2.341805e-38
-0.023620272 -0.12303366 0.0072592944 2.2588295e-38
-0.021941418 -0.12384202 0.0042558163 2.3417324e-38
-0.020175671 -0.12384202 0.0042558163 2.3509518e-38
-0.018409925 -0.12384202 0.0042558163 2.3509879e-38
-0.016644182 -0.12384202 0.0042558163 2.350988e-38
-0.014878431 -0.12384202 0.0042558163 2.3418047e-38
-0.013112688 -0.12384202 0.0042558163 2.3234379e-38
-0.011346942 -0.12384202 0.0042558163 2.3142544e-38
-0.0095364321 -0.12303366 0.0072592944 2.3049991e-38
-0.007775953 -0.12303366 0.0072592944 2.3234379e-38
-0.006015474 -0.12303366 0.0072592944 2.2681212e-38
-0.0042839572 -0.12384202 0.0042558163 2.341805e-38
-0.0025182124 -0.12384202 0.0042558163 1.2631154e-38
-0.0007524658 -0.12384202 0.0042558163 1.0601404e-38
0.0010132808 -0.12384202 0.0042558163 4.4242888e-39
0.0027713459 -0.12462802 0.001335308 1.1614821e-38
0.0045422129 -0.12462802 0.001335308 2.350986e-38
0.0063130781 -0.12462802 0.001335308 2.3509517e-38
0.0080839451 -0.12462802 0.001335308 2.3509139e-38
0.0098681338 -0.12544595 -0.0017038137 1.5760694e-38
0.011644328 -0.12544595 -0.0017038137 2.092221e-38
0.013444647 -0.12626885 -0.0047612935 2.3507708e-38
0.015226203 -0.12626885 -0.0047612935 2.3507016e-38
0.017007759 -0.12626885 -0.0047612935 1.9727724e-38
0.018789316 -0.12626885 -0.0047612935 1.7333144e-38
0.020615179 -0.12706901 -0.0077343732 1.7611134e-38
0.022401949 -0.12706901 -0.0077343732 1.8531288e-38
0.024188718 -0.12706901 -0.0077343732 1.9354245e-38
0.026035788 -0.12787388 -0.010724977 8.9328867e-39
0.02789373 -0.12868352 -0.013733223 1.0500151e-38
0.029691016 -0.12868352 -0.013733223 1.9905163e-38
0.031488303 -0.12868352 -0.013733223 1.8983955e-38
0.033447687 -0.13028879 -0.019697741 1.3176726e-38
0.035255432 -0.13028879 -0.019697741 8.0137793e-39
0.037369683 -0.13297729 -0.029687122 4.3263282e-39
0.039194942 -0.13297729 -0.029687122 4.3281401e-39
0.041123219 -0.13378824 -0.032700256 7.4638789e-39
0.042953759 -0.13378824 -0.032700256 9.1244821e-39
0.044784307 -0.13378824 -0.032700256 4.3313897e-39
0.0467344 -0.13460387 -0.035730794 1.4733252e-39
0.04857026 -0.13460387 -0.035730794 3.6734198e-40
0.050532371 -0.13539489 -0.038669899 3.7764181e-39
0.052373379 -0.13539489 -0.038669899 3.9604478e-39
-0.040666029 -0.12153481 0.019291267 2.2677593e-38
-0.038926639 -0.12153481 0.019291267 2.3509153e-38
-0.037057891 -0.120719 0.022302791 2.3509507e-38
-0.035323791 -0.120719 0.022302791 2.3509503e-38
-0.033589683 -0.120719 0.022302791 2.3415863e-38
-0.031855583 -0.120719 0.022302791 2.3508783e-38
-0.030229723 -0.12153481 0.019291267 2.3509866e-38
-0.02849034 -0.12153481 0.019291267 2.2864505e-38
-0.026849234 -0.12235557 0.016261384 2.2956709e-38
-0.025104539 -0.12235557 0.016261384 2.3509527e-38
-0.023533897 -0.12398534 0.01024501 2.3325138e-38
-0.021859793 -0.12479414 0.0072592944 2.3509164e-38
-0.020099314 -0.12479414 0.0072592944 2.3509879e-38
-0.018338831 -0.12479414 0.0072592944 2.3509879e-38
-0.016578352 -0.12479414 0.0072592944 2.3417323e-38
-0.014817873 -0.12479414 0.0072592944 2.3417323e-38
-0.013112688 -0.12560774 0.0042558163 2.350988e-38
-0.011296915 -0.12479414 0.0072592944 2.3509886e-38
-0.0095364321 -0.12479414 0.0072592944 2.3325856e-38
-0.007775953 -0.12479414 0.0072592944 2.3232944e-38
-0.006015474 -0.12479414 0.0072592944 2.3509527e-38
-0.0042549949 -0.12479414 0.0072592944 2.3509527e-38
-0.002494514 -0.12479414 0.0072592944 1.0969838e-38
-0.0007524658 -0.12560774 0.0042558163 2.8562554e-39
0.0010132808 -0.12560774 0.0042558163 5.5101298e-40
0.0027790274 -0.12560774 0.0042558163 1.1960138e-39
0.0045422129 -0.12639888 0.001335308 2.0280128e-38
0.0063130781 -0.12639888 0.001335308 2.3509859e-38
0.0080839451 -0.12639888 0.001335308 2.3505892e-38
0.0098681338 -0.12722217 -0.0017038137 1.5758201e-38
0.011644328 -0.12722217 -0.0017038137 1.8615542e-38
0.013444647 -0.1280504 -0.0047612935 2.3132421e-38
0.015226203 -0.1280504 -0.0047612935 2.350807e-38
0.017007759 -0.1280504 -0.0047612935 2.3413382e-38
0.018789316 -0.1280504 -0.0047612935 1.4011945e-38
0.020615179 -0.12885578 -0.0077343732 1.3921878e-38
0.022401949 -0.12885578 -0.0077343732 1.8346181e-38
0.024188718 -0.12885578 -0.0077343732 1.9263478e-38
0.026035788 -0.1296659 -0.010724977 8.1974727e-39
0.02789373 -0.13048081 -0.013733223 8.6569739e-39
0.029691016 -0.13048081 -0.013733223 1.8060192e-38
0.031565234 -0.13130049 -0.016759112 1.7967642e-38
0.033447687 -0.13209651 -0.019697741 1.3912125e-38
0.035255432 -0.13209651 -0.019697741 1.0133916e-38
0.037369683 -0.13480256 -0.029687122 4.141937e-39
0.039194942 -0.13480256 -0.029687122 4.973155e-39
0.0410202 -0.13480256 -0.029687122 9.3074398e-39
0.042845458 -0.13480256 -0.029687122 9.4939891e-39
0.044670716 -0.13480256 -0.029687122 3.3176007e-39
0.046614848 -0.13561879 -0.032700256 1.01271e-39
0.048445389 -0.13561879 -0.032700256 1.4729721e-39
0.050532371 -0.13723589 -0.038669899 2.2087449e-39
-0.042693727 -0.1249045 0.01331161 1.1982903e-38
-0.0408068 -0.12410025 0.016261384 1.0875833e-38
-0.038926639 -0.12327419 0.019291267 1.3272555e-38
-0.037057891 -0.12245311 0.022302791 1.4102669e-38
-0.035323791 -0.12245311 0.022302791 2.009574e-38
-0.033589683 -0.12245311 0.022302791 2.3509856e-38
-0.031855583 -0.12245311 0.022302791 2.3509859e-38
-0.030121477 -0.12245311 0.022302791 2.3509143e-38
-0.02849034 -0.12327419 0.019291267 2.3509873e-38
-0.026750954 -0.12327419 0.019291267 2.3417324e-38
-0.025011571 -0.12327419 0.019291267 2.3509527e-38
-0.023533897 -0.12574057 0.01024501 2.3509527e-38
-0.021778652 -0.12574057 0.01024501 2.3509527e-38
-0.020023407 -0.12574057 0.01024501 2.3509524e-38
-0.018268162 -0.12574057 0.01024501 2.3509879e-38
-0.016512917 -0.12574057 0.01024501 2.3417679e-38
-0.014757672 -0.12574057 0.01024501 2.3417679e-38
-0.013057394 -0.12655462 0.0072592944 2.3509876e-38
-0.011296915 -0.12655462 0.0072592944 2.350988e-38
-0.0095364321 -0.12655462 0.0072592944 2.3509883e-38
-0.007775953 -0.12655462 0.0072592944 2.3509168e-38
-0.006015474 -0.12655462 0.0072592944 2.3416974e-38
-0.0042549949 -0.12655462 0.0072592944 2.2862724e-38
-0.002494514 -0.12655462 0.0072592944 7.6507981e-39
-0.00073403306 -0.12655462 0.0072592944 1.1045413e-39
0.001026446 -0.12655462 0.0072592944 1.4725965e-39
0.0027790274 -0.1273735 0.0042558163 6.4284847e-40
0.0045447722 -0.1273735 0.0042558163 1.5761463e-38
0.0063105188 -0.1273735 0.0042558163 1.9171611e-38
0.0080839451 -0.12816976 0.001335308 1.9630433e-38
0.0098681338 -0.12899835 -0.0017038137 9.5800428e-39
0.011644328 -0.12899835 -0.0017038137 8.8413932e-39
0.013420524 -0.12899835 -0.0017038137 1.8892852e-38
0.015226203 -0.12983195 -0.0047612935 2.3509126e-38
0.017007759 -0.12983195 -0.0047612935 2.156838e-38
0.018789316 -0.12983195 -0.0047612935 1.373356e-38
0.02057087 -0.12983195 -0.0047612935 1.4565819e-38
0.022352427 -0.12983195 -0.0047612935 1.8253633e-38
0.024243774 -0.13145791 -0.010724977 1.7698662e-38
0.026096443 -0.1322781 -0.013733223 5.3415634e-39
0.02789373 -0.1322781 -0.013733223 4.8784132e-39
0.029691016 -0.1322781 -0.013733223 1.1237381e-38
0.031565234 -0.13310309 -0.016759112 1.3540816e-38
0.033447687 -0.13390426 -0.019697741 1.3541179e-38
0.035343997 -0.13473894 -0.022759154 1.1055149e-38
0.037369683 -0.13662781 -0.029687122 4.4192427e-39
0.039194942 -0.13662781 -0.029687122 6.2638966e-39
0.0410202 -0.13662781 -0.029687122 9.7687809e-39
0.042845458 -0.13662781 -0.029687122 8.1110574e-39
0.044670716 -0.13662781 -0.029687122 1.6580822e-39
0.046495982 -0.13662781 -0.029687122 8.2831873e-40
0.04832124 -0.13662781 -0.029687122 3.0410167e-39
0.050532371 -0.1390769 -0.038669899 4.3296087e-39
-0.044443592 -0.12665437 0.01331161 1.0231906e-38
-0.042693727 -0.12665437 0.01331161 1.0691445e-38
-0.0408068 -0.12584494 0.016261384 6.726667e-39
-0.038926639 -0.12501357 0.019291267 7.0025294e-39
-0.037057891 -0.12418722 0.022302791 7.0025238e-39
-0.035323791 -0.12418722 0.022302791 1.308779e-38
-0.033589683 -0.12418722 0.022302791 2.1201003e-38
-0.031855583 -0.12418722 0.022302791 2.3509856e-38
-0.030121477 -0.12418722 0.022302791 2.3508418e-38
-0.02849034 -0.12501357 0.019291267 2.3509869e-38
-0.026750954 -0.12501357 0.019291267 2.3509876e-38
-0.025011571 -0.12501357 0.019291267 2.3509883e-38
-0.02344518 -0.12665437 0.01331161 2.2771605e-38
-0.02169531 -0.12665437 0.01331161 2.3509168e-38
-0.019945445 -0.12665437 0.01331161 2.3508091e-38
-0.018268162 -0.12749584 0.01024501 2.3508444e-38
-0.016512917 -0.12749584 0.01024501 2.3509879e-38
-0.014757672 -0.12749584 0.01024501 2.3509873e-38
-0.013057394 -0.12831511 0.0072592944 2.3234004e-38
-0.011296915 -0.12831511 0.0072592944 2.3233648e-38
-0.0095364321 -0.12831511 0.0072592944 2.350988e-38
-0.007775953 -0.12831511 0.0072592944 2.3509886e-38
-0.006015474 -0.12831511 0.0072592944 2.3509527e-38
-0.0042549949 -0.12831511 0.0072592944 2.3509168e-38
-0.002494514 -0.12831511 0.0072592944 9.3099664e-39
-0.00073403306 -0.12831511 0.0072592944 1.1963852e-39
0.001026446 -0.12831511 0.0072592944 1.3800492e-39
0.0027790274 -0.12913923 0.0042558163 2.3023586e-39
0.0045447722 -0.12913923 0.0042558163 1.2073641e-38
0.0063105188 -0.12913923 0.0042558163 2.0644934e-38
0.0080762636 -0.12913923 0.0042558163 1.7323744e-38
0.0098548122 -0.12994061 0.001335308 1.1422544e-38
0.011644328 -0.13077454 -0.0017038137 6.7212818e-39
0.013420524 -0.13077454 -0.0017038137 1.2532796e-38
0.015196719 -0.13077454 -0.0017038137 2.138429e-38
0.016972914 -0.13077454 -0.0017038137 2.165984e-38
0.01874911 -0.13077454 -0.0017038137 1.5945528e-38
0.02057087 -0.13161351 -0.0047612935 1.5209045e-38
0.022352427 -0.13161351 -0.0047612935 1.4565822e-38
0.024188718 -0.13242932 -0.0077343732 1.2446022e-38
0.026096443 -0.13407536 -0.013733223 1.7498967e-39
0.02789373 -0.13407536 -0.013733223 2.7597368e-39
0.029691016 -0.13407536 -0.013733223 5.5219988e-39
0.031565234 -0.13490568 -0.016759112 9.5760519e-39
0.033447687 -0.13571201 -0.019697741 1.2895446e-38
0.035255432 -0.13571201 -0.019697741 1.059417e-38
0.037277766 -0.13763104 -0.026691392 3.5894793e-39
0.039097771 -0.13763104 -0.026691392 4.7887665e-39
0.0410202 -0.13845308 -0.029687122 7.2795017e-39
0.042845458 -0.13845308 -0.029687122 6.8203186e-39
0.044670716 -0.13845308 -0.029687122 2.8577016e-39
0.046495982 -0.13845308 -0.029687122 2.5811119e-39
0.04832124 -0.13845308 -0.029687122 4.7927336e-39
0.050532371 -0.14091791 -0.038669899 6.9118094e-39
-0.046193466 -0.12840421 0.01331161 9.0340843e-39
-0.044443592 -0.12840421 0.01331161 8.7560555e-39
-0.042551503 -0.12758966 0.016261384 9.1241163e-39
-0.0408068 -0.12758966 0.016261384 6.0802172e-39
-0.038926639 -0.12675296 0.019291267 5.5266777e-39
-0.037057891 -0.12592132 0.022302791 6.4489857e-39
-0.035323791 -0.12592132 0.022302791 7.5556864e-39
-0.033589683 -0.12592132 0.022302791 1.1243512e-38
-0.031855583 -0.12592132 0.022302791 1.8158903e-38
-0.030121477 -0.12592132 0.022302791 2.3509855e-38
-0.028387373 -0.12592132 0.022302791 2.3509866e-38
-0.026653273 -0.12592132 0.022302791 2.3324041e-38
-0.024919169 -0.12592132 0.022302791 2.3509521e-38
-0.023359844 -0.12758966 0.016261384 2.3232583e-38
-0.02169531 -0.12840421 0.01331161 2.3508809e-38
-0.019945445 -0.12840421 0.01331161 2.3416615e-38
-0.018195575 -0.12840421 0.01331161 2.3509527e-38
-0.016445706 -0.12840421 0.01331161 2.350988e-38
-0.014757672 -0.12925108 0.01024501 2.3509876e-38
-0.013002427 -0.12925108 0.01024501 2.3418038e-38
-0.011296915 -0.13007559 0.0072592944 2.3325843e-38
-0.0095364321 -0.13007559 0.0072592944 2.3326208e-38
-0.007775953 -0.13007559 0.0072592944 2.2495736e-38
-0.006015474 -0.13007559 0.0072592944 2.2864164e-38
-0.0042549949 -0.13007559 0.0072592944 2.3140033e-38
-0.002494514 -0.13007559 0.0072592944 1.1891089e-38
-0.00073403306 -0.13007559 0.0072592944 3.7782286e-39
0.001026446 -0.13007559 0.0072592944 3.6734198e-40
0.0027790274 -0.13090499 0.0042558163 3.6734198e-40
0.0045447722 -0.13090499 0.0042558163 3.130313e-39
0.0063105188 -0.13090499 0.0042558163 1.363735e-38
0.0080762636 -0.13090499 0.0042558163 1.953572e-38
0.0098548122 -0.1317115 0.001335308 1.5202931e-38
0.011644328 -0.13255073 -0.0017038137 1.3775366e-39
0.013420524 -0.13255073 -0.0017038137 5.7106948e-39
0.015196719 -0.13255073 -0.0017038137 1.4377789e-38
0.016972914 -0.13255073 -0.0017038137 1.5299046e-38
0.01874911 -0.13255073 -0.0017038137 1.5760044e-38
0.02057087 -0.13339506 -0.0047612935 1.4471125e-38
0.022352427 -0.13339506 -0.0047612935 1.0048253e-38
0.024188718 -0.13421609 -0.0077343732 6.4558353e-39
0.026096443 -0.13587265 -0.013733223 1.0761972e-42
0.02789373 -0.13587265 -0.013733223 2.02542e-39
0.029691016 -0.13587265 -0.013733223 2.8504947e-39
0.031565234 -0.13670824 -0.016759112 6.5328885e-39
0.033367824 -0.13670824 -0.016759112 1.1143013e-38
0.035255432 -0.13751976 -0.019697741 1.0133189e-38
0.037063174 -0.13751976 -0.019697741 3.7745866e-39
0.038870916 -0.13751976 -0.019697741 4.2359529e-39
0.040783331 -0.13836516 -0.022759154 4.6058284e-39
0.042845458 -0.14027832 -0.029687122 4.700538e-39
0.044670716 -0.14027832 -0.029687122 3.1342885e-39
0.046614848 -0.14111041 -0.032700256 3.4108712e-39
-0.049862564 -0.13100632 0.01024501 9.2191958e-39
-0.048107326 -0.13100632 0.01024501 8.8504147e-39
-0.046193466 -0.13015409 0.01331161 9.7716494e-39
-0.044443592 -0.13015409 0.01331161 7.8340992e-39
-0.042551503 -0.12933435 0.016261384 7.0950936e-39
-0.0408068 -0.12933435 0.016261384 5.6192391e-39
-0.038926639 -0.12849234 0.019291267 4.9738599e-39
-0.037057891 -0.12765543 0.022302791 8.0155884e-39
-0.035323791 -0.12765543 0.022302791 7.2783765e-39
-0.033589683 -0.12765543 0.022302791 6.2653021e-39
-0.031855583 -0.12765543 0.022302791 1.1705206e-38
-0.030121477 -0.12765543 0.022302791 2.1570864e-38
-0.028387373 -0.12765543 0.022302791 2.3509863e-38
-0.026653273 -0.12765543 0.022302791 2.286306e-38
-0.024919169 -0.12765543 0.022302791 2.3509161e-38
-0.023272188 -0.12849234 0.019291267 2.3509527e-38
-0.021615146 -0.12933435 0.016261384 2.3416974e-38
-0.019870447 -0.12933435 0.016261384 2.3509168e-38
-0.018125752 -0.12933435 0.016261384 2.3509527e-38
-0.016445706 -0.13015409 0.01331161 2.2496453e-38
-0.01469584 -0.13015409 0.01331161 2.2496801e-38
-0.013002427 -0.13100632 0.01024501 2.3234367e-38
-0.011247182 -0.13100632 0.01024501 2.341804e-38
-0.0094919372 -0.13100632 0.01024501 2.3142537e-38
-0.0077366922 -0.13100632 0.01024501 2.341805e-38
-0.0059814472 -0.13100632 0.01024501 2.2680136e-38
-0.0042549949 -0.13183604 0.0072592944 2.3417691e-38
-0.002494514 -0.13183604 0.0072592944 1.0233013e-38
-0.00073403306 -0.13183604 0.0072592944 8.3887373e-39
0.001026446 -0.13183604 0.0072592944 3.6735039e-40
0.0027869251 -0.13183604 0.0072592944 1.1967481e-39
0.0045447722 -0.13267075 0.0042558163 7.3468397e-40
0.0063105188 -0.13267075 0.0042558163 5.9833286e-39
0.0080839451 -0.13348235 0.001335308 1.6769857e-38
0.0098548122 -0.13348235 0.001335308 1.6772403e-38
0.011644328 -0.13432692 -0.0017038137 1.0101905e-39
0.013420524 -0.13432692 -0.0017038137 9.1835496e-40
0.015196719 -0.13432692 -0.0017038137 8.0166786e-39
0.016972914 -0.13432692 -0.0017038137 1.133498e-38
0.01874911 -0.13432692 -0.0017038137 1.0321555e-38
0.02057087 -0.13517661 -0.0047612935 1.1520864e-38
0.022352427 -0.13517661 -0.0047612935 6.7292244e-39
0.024188718 -0.13600285 -0.0077343732 1.8471608e-39
0.026096443 -0.13766994 -0.013733223 1.4349296e-42
0.02789373 -0.13766994 -0.013733223 3.5873241e-43
0.029691016 -0.13766994 -0.013733223 1.0101905e-39
0.031565234 -0.13851084 -0.016759112 3.6752135e-39
0.033367824 -0.13851084 -0.016759112 9.1140046e-39
0.035255432 -0.13932751 -0.019697741 8.1048847e-39
0.037063174 -0.13932751 -0.019697741 3.1295815e-39
0.038870916 -0.13932751 -0.019697741 3.221801e-39
0.040783331 -0.14017828 -0.022759154 1.5640887e-39
-0.049693197 -0.13190396 0.01331161 8.5731062e-39
-0.047943331 -0.13190396 0.01331161 8.2043237e-39
-0.046193466 -0.13190396 0.01331161 9.3099523e-39
-0.044443592 -0.13190396 0.01331161 7.2805695e-39
-0.042551503 -0.13107903 0.016261384 7.1872921e-39
-0.0408068 -0.13107903 0.016261384 7.3709574e-39
-0.038926639 -0.13023172 0.019291267 5.7110718e-39
-0.037057891 -0.12938951 0.022302791 8.7538807e-39
-0.035323791 -0.12938951 0.022302791 9.3992459e-39
-0.033589683 -0.12938951 0.022302791 9.7683843e-39
-0.031855583 -0.12938951 0.022302791 1.0782896e-38
-0.030121477 -0.12938951 0.022302791 1.7329868e-38
-0.028387373 -0.12938951 0.022302791 2.3509863e-38
-0.026653273 -0.12938951 0.022302791 2.3509869e-38
-0.024919169 -0.12938951 0.022302791 2.3508074e-38
-0.023272188 -0.13023172 0.019291267 2.3508444e-38
-0.021615146 -0.13107903 0.016261384 2.3324421e-38
-0.019870447 -0.13107903 0.016261384 2.3509168e-38
-0.018125752 -0.13107903 0.016261384 2.2956359e-38
-0.016445706 -0.13190396 0.01331161 2.019084e-38
-0.01469584 -0.13190396 0.01331161 2.0099715e-38
-0.013002427 -0.13276155 0.01024501 2.2865581e-38
-0.011247182 -0.13276155 0.01024501 2.3418038e-38
-0.0094919372 -0.13276155 0.01024501 2.3142174e-38
-0.0077366922 -0.13276155 0.01024501 2.2404254e-38
-0.0059814472 -0.13276155 0.01024501 2.341805e-38
-0.0042262021 -0.13276155 0.01024501 2.3417333e-38
-0.0024709571 -0.13276155 0.01024501 1.0970575e-38
-0.00071571209 -0.13276155 0.01024501 4.9774962e-39
0.0010395329 -0.13276155 0.01024501 5.5210319e-40
0.0027869251 -0.13359652 0.0072592944 9.1841101e-41
0.0045447722 -0.13443647 0.0042558163 1.0105492e-39
0.0063105188 -0.13443647 0.0042558163 3.1274361e-39
0.0080762636 -0.13443647 0.0042558163 1.4835558e-38
0.0098548122 -0.13525321 0.001335308 1.4376756e-38
0.011644328 -0.13610314 -0.0017038137 1.0101961e-39
0.013420524 -0.13610314 -0.0017038137 1.0102031e-39
0.015196719 -0.13610314 -0.0017038137 6.4284847e-40
0.016972914 -0.13610314 -0.0017038137 9.1835496e-40
0.01874911 -0.13610314 -0.0017038137 1.564432e-39
0.02057087 -0.13695817 -0.0047612935 4.5918449e-40
0.022352427 -0.13695817 -0.0047612935 1.9618179e-44
0.024188718 -0.13778962 -0.0077343732 3.7554799e-43
0.026096443 -0.13946722 -0.013733223 5.5677792e-40
0.02789373 -0.13946722 -0.013733223 7.1746481e-43
0.029691016 -0.13946722 -0.013733223 2.0246857e-39
0.031565234 -0.14031343 -0.016759112 2.7557823e-39
0.033367824 -0.14031343 -0.016759112 8.0098304e-39
0.035255432 -0.14113526 -0.019697741 6.1709485e-39
0.037063174 -0.14113526 -0.019697741 1.6555501e-39
0.038870916 -0.14113526 -0.019697741 1.2874906e-39
0.040783331 -0.14199139 -0.022759154 3.6734198e-40
-0.047943331 -0.13365383 0.01331161 9.5865364e-39
-0.046193466 -0.13365383 0.01331161 1.0415221e-38
-0.044443592 -0.13365383 0.01331161 7.649352e-39
-0.042693727 -0.13365383 0.01331161 6.2657001e-39
-0.0408068 -0.13282375 0.016261384 6.8188739e-39
-0.039062105 -0.13282375 0.016261384 5.8043604e-39
-0.037187256 -0.13197111 0.019291267 7.6482702e-39
-0.035447873 -0.13197111 0.019291267 1.0044634e-38
-0.03370849 -0.13197111 0.019291267 1.0321218e-38
-0.031855583 -0.13112362 0.022302791 9.3070643e-39
-0.030121477 -0.13112362 0.022302791 1.1796702e-38
-0.02849034 -0.13197111 0.019291267 2.0556363e-38
-0.026653273 -0.13112362 0.022302791 2.3509504e-38
-0.024919169 -0.13112362 0.022302791 2.3507704e-38
-0.023359844 -0.13282375 0.016261384 2.350915e-38
-0.02169531 -0.13365383 0.01331161 2.3508441e-38
-0.019945445 -0.13365383 0.01331161 2.3509527e-38
-0.018195575 -0.13365383 0.01331161 2.2956346e-38
-0.016445706 -0.13365383 0.01331161 1.926852e-38
-0.01469584 -0.13365383 0.01331161 1.9729854e-38
-0.013002427 -0.13451682 0.01024501 2.3141089e-38
-0.011247182 -0.13451682 0.01024501 2.3509873e-38
-0.0094919372 -0.13451682 0.01024501 2.3509873e-38
-0.0077366922 -0.13451682 0.01024501 2.3325483e-38
-0.0059814472 -0.13451682 0.01024501 2.3509518e-38
-0.0042262021 -0.13451682 0.01024501 2.2956346e-38
-0.0024709571 -0.13451682 0.01024501 1.0509939e-38
-0.00071571209 -0.13451682 0.01024501 5.8990812e-39
0.0010395329 -0.13451682 0.01024501 2.7550649e-40
0.0027869251 -0.13535701 0.0072592944 4.5953902e-40
0.0045447722 -0.13620223 0.0042558163 3.6734198e-40
0.0063105188 -0.13620223 0.0042558163 7.3468397e-40
0.0080762636 -0.13620223 0.0042558163 1.2902346e-38
0.0098548122 -0.13702409 0.001335308 1.2995628e-38
0.011644328 -0.13787933 -0.0017038137 2.0257927e-39
0.013420524 -0.13787933 -0.0017038137 9.1944657e-40
0.015196719 -0.13787933 -0.0017038137 3.6734619e-40
0.016972914 -0.13787933 -0.0017038137 2.7550649e-40
0.01874911 -0.13787933 -0.0017038137 8.2867326e-40
0.020525305 -0.13787933 -0.0017038137 9.1841101e-41
0.022301501 -0.13787933 -0.0017038137 7.0064923e-45
0.024133984 -0.13873972 -0.0047612935 1.84757e-40
0.026035788 -0.14041798 -0.010724977 3.5873241e-43
0.027827799 -0.14041798 -0.010724977 9.1835496e-41
0.029619811 -0.14041798 -0.010724977 1.2882081e-39
0.031565234 -0.14211603 -0.016759112 2.2076406e-39
0.033367824 -0.14211603 -0.016759112 5.2500936e-39
0.035255432 -0.14294298 -0.019697741 4.2388214e-39
0.037063174 -0.14294298 -0.019697741 1.1056133e-39
0.038870916 -0.14294298 -0.019697741 2.7550649e-40
0.040678665 -0.14294298 -0.019697741 9.1835496e-41
-0.047943331 -0.13540371 0.01331161 9.4936177e-39
-0.046193466 -0.13540371 0.01331161 9.4932646e-39
-0.044443592 -0.13540371 0.01331161 7.8337433e-39
-0.042693727 -0.13540371 0.01331161 7.5568018e-39
-0.0408068 -0.13456844 0.016261384 8.01778e-39
-0.039062105 -0.13456844 0.016261384 5.8043688e-39
-0.03731741 -0.13456844 0.016261384 6.1735073e-39
-0.035572715 -0.13456844 0.016261384 8.1088966e-39
-0.03382802 -0.13456844 0.016261384 9.8609681e-39
-0.031969108 -0.13371049 0.019291267 1.0045357e-38
-0.030229723 -0.13371049 0.019291267 9.1226744e-39
-0.02849034 -0.13371049 0.019291267 1.5945503e-38
-0.026750954 -0.13371049 0.019291267 2.3509143e-38
-0.025104539 -0.13456844 0.016261384 2.350806e-38
-0.02344518 -0.13540371 0.01331161 2.3508781e-38
-0.02169531 -0.13540371 0.01331161 2.3509513e-38
-0.019945445 -0.13540371 0.01331161 2.3232211e-38
-0.018195575 -0.13540371 0.01331161 2.194147e-38
-0.016445706 -0.13540371 0.01331161 1.8714623e-38
-0.01469584 -0.13540371 0.01331161 1.8253642e-38
-0.012945971 -0.13540371 0.01331161 2.0742924e-38
-0.011196101 -0.13540371 0.01331161 2.0927671e-38
-0.0094919372 -0.13627206 0.01024501 2.0190106e-38
-0.0077366922 -0.13627206 0.01024501 2.3509509e-38
-0.0059814472 -0.13627206 0.01024501 2.3509873e-38
-0.0042262021 -0.13627206 0.01024501 2.3324404e-38
-0.0024709571 -0.13627206 0.01024501 8.2043208e-39
-0.00071571209 -0.13627206 0.01024501 4.055163e-39
0.0010395329 -0.13627206 0.01024501 2.7550649e-40
0.0027869251 -0.13711749 0.0072592944 5.5173184e-40
0.0045447722 -0.13796796 0.0042558163 6.4393028e-40
0.0063130781 -0.13879494 0.001335308 5.5101578e-40
0.0080839451 -0.13879494 0.001335308 1.235098e-38
0.0098548122 -0.13879494 0.001335308 1.2997073e-38
0.011644328 -0.13965552 -0.0017038137 2.4874897e-39
0.013420524 -0.13965552 -0.0017038137 2.7551349e-40
0.015196719 -0.13965552 -0.0017038137 9.1842503e-41
0.016938278 -0.13879494 0.001335308 7.0064923e-45
0.018709145 -0.13879494 0.001335308 5.6051939e-45
0.020525305 -0.13965552 -0.0017038137 5.6051939e-45
0.022301501 -0.13965552 -0.0017038137 2.8025969e-45
0.024133984 -0.14052127 -0.0047612935 7.3684617e-40
0.026035788 -0.14220999 -0.010724977 9.1835496e-41
0.027827799 -0.14220999 -0.010724977 5.5137171e-40
0.029619811 -0.14220999 -0.010724977 1.473321e-39
0.031565234 -0.14391862 -0.016759112 1.9335761e-39
0.033367824 -0.14391862 -0.016759112 4.1473502e-39
0.035255432 -0.14475073 -0.019697741 3.4108712e-39
0.037063174 -0.14475073 -0.019697741 5.5352691e-40
0.038870916 -0.14475073 -0.019697741 3.5873241e-43
0.040678665 -0.14475073 -0.019697741 9.2552961e-41
-0.047943331 -0.13715358 0.01331161 9.3103055e-39
-0.046193466 -0.13715358 0.01331161 8.7567786e-39
-0.044443592 -0.13715358 0.01331161 7.650431e-39
-0.042693727 -0.13715358 0.01331161 7.8344677e-39
-0.0408068 -0.13631313 0.016261384 8.018859e-39
-0.039062105 -0.13631313 0.016261384 5.8050877e-39
-0.03731741 -0.13631313 0.016261384 5.6206936e-39
-0.035572715 -0.13631313 0.016261384 5.1593553e-39
-0.03382802 -0.13631313 0.016261384 8.0174157e-39
-0.032083325 -0.13631313 0.016261384 1.0046075e-38
-0.030229723 -0.13544987 0.019291267 7.6486233e-39
-0.02849034 -0.13544987 0.019291267 1.0691075e-38
-0.026750954 -0.13544987 0.019291267 2.1754904e-38
-0.025104539 -0.13631313 0.016261384 2.2953804e-38
-0.02344518 -0.13715358 0.01331161 2.3509863e-38
-0.02169531 -0.13715358 0.01331161 2.3324041e-38
-0.019945445 -0.13715358 0.01331161 2.1664886e-38
-0.018195575 -0.13715358 0.01331161 2.1203905e-38
-0.016445706 -0.13715358 0.01331161 1.9359992e-38
-0.01469584 -0.13715358 0.01331161 1.8438033e-38
-0.012945971 -0.13715358 0.01331161 2.0281946e-38
-0.011196101 -0.13715358 0.01331161 2.0466693e-38
-0.0094919372 -0.1380273 0.01024501 1.9452541e-38
-0.0077366922 -0.1380273 0.01024501 2.0374141e-38
-0.0059814472 -0.1380273 0.01024501 2.2771228e-38
-0.0042262021 -0.1380273 0.01024501 2.3509876e-38
-0.0024709571 -0.1380273 0.01024501 6.6369951e-39
-0.00071571209 -0.1380273 0.01024501 4.1473586e-39
0.0010395329 -0.1380273 0.01024501 9.2051156e-40
0.0027869251 -0.13887797 0.0072592944 7.361231e-40
0.0045447722 -0.13973372 0.0042558163 3.6734198e-40
0.0063130781 -0.14056583 0.001335308 1.4718931e-39
0.0080839451 -0.14056583 0.001335308 9.4007172e-39
0.0098681338 -0.1414317 -0.0017038137 9.7705816e-39
0.011644328 -0.1414317 -0.0017038137 2.3030957e-39
0.013420524 -0.1414317 -0.0017038137 4.5918589e-40
0.015167411 -0.14056583 0.001335308 3.6806926e-40
0.016938278 -0.14056583 0.001335308 3.6842939e-40
0.018709145 -0.14056583 0.001335308 2.7623376e-40
0.020480011 -0.14056583 0.001335308 5.6051939e-45
0.022250878 -0.14056583 0.001335308 9.2198432e-41
0.024077695 -0.1414317 -0.0017038137 5.5245491e-40
0.026035788 -0.14400201 -0.010724977 9.1835496e-41
0.027827799 -0.14400201 -0.010724977 6.4356594e-40
0.037063174 -0.14655848 -0.019697741 1.8438846e-40
0.038870916 -0.14655848 -0.019697741 9.1835496e-41
-0.047943331 -0.13890342 0.01331161 9.4946967e-39
-0.046193466 -0.13890342 0.01331161 8.941167e-39
-0.044443592 -0.13890342 0.01331161 7.5582354e-39
-0.042693727 -0.13890342 0.01331161 6.9128674e-39
-0.040943861 -0.13890342 0.01331161 6.8203158e-39
-0.039193988 -0.13890342 0.01331161 5.6217754e-39
-0.037444122 -0.13890342 0.01331161 6.266063e-39
-0.035572715 -0.13805781 0.016261384 5.8054408e-39
-0.03382802 -0.13805781 0.016261384 6.8195913e-39
-0.032083325 -0.13805781 0.016261384 8.1099672e-39
-0.030121477 -0.13632594 0.022302791 8.6631354e-39
-0.028387373 -0.13632594 0.022302791 9.401055e-39
-0.026750954 -0.13718925 0.019291267 1.7422431e-38
-0.025104539 -0.13805781 0.016261384 1.9450013e-38
-0.02344518 -0.13890342 0.01331161 2.2677582e-38
-0.02169531 -0.13890342 0.01331161 2.1387933e-38
-0.019945445 -0.13890342 0.01331161 1.8806821e-38
-0.018195575 -0.13890342 0.01331161 1.899121e-38
-0.016445706 -0.13890342 0.01331161 1.7792666e-38
-0.01469584 -0.13890342 0.01331161 1.5672164e-38
-0.012945971 -0.13890342 0.01331161 1.6133142e-38
-0.011196101 -0.13890342 0.01331161 1.6225694e-38
-0.0094462354 -0.13890342 0.01331161 1.5395933e-38
-0.0077366922 -0.13978253 0.01024501 2.0281946e-38
-0.0059814472 -0.13978253 0.01024501 2.2402445e-38
-0.0042262021 -0.13978253 0.01024501 2.2494643e-38
-0.0024709571 -0.13978253 0.01024501 2.9491727e-39
-0.00071571209 -0.13978253 0.01024501 1.3814897e-39
0.0010395329 -0.13978253 0.01024501 2.7550649e-40
0.0027869251 -0.14063846 0.0072592944 2.7550649e-40
0.004547406 -0.14063846 0.0072592944 2.7550649e-40
0.0063130781 -0.14233668 0.001335308 1.1041896e-39
0.0080839451 -0.14233668 0.001335308 2.9481022e-39
0.0098681338 -0.14320792 -0.0017038137 2.3949312e-39
0.011644328 -0.14320792 -0.0017038137 2.7550929e-40
0.013396545 -0.14233668 0.001335308 9.1841101e-41
0.015167411 -0.14233668 0.001335308 9.1841101e-41
0.016938278 -0.14233668 0.001335308 5.6051939e-45
0.018709145 -0.14233668 0.001335308 1.8403813e-40
0.020480011 -0.14233668 0.001335308 2.8025969e-45
0.022250878 -0.14233668 0.001335308 1.8439406e-40
0.024077695 -0.14320792 -0.0017038137 9.1835496e-41
0.025853891 -0.14320792 -0.0017038137 9.1835496e-41
0.027762255 -0.1449367 -0.0077343732 7.361203e-40
-0.04429619 -0.13980253 0.016261384 7.5589542e-39
-0.042405412 -0.13892864 0.019291267 6.6366406e-39
-0.037187256 -0.13892864 0.019291267 6.0827508e-39
-0.035447873 -0.13892864 0.019291267 7.742628e-39
-0.033509612 -0.13747464 0.024332449 7.0050616e-39
-0.031855583 -0.13806005 0.022302791 6.1745779e-39
-0.030121477 -0.13806005 0.022302791 1.0231183e-38
-0.028387373 -0.13806005 0.022302791 1.0508124e-38
-0.026750954 -0.13892864 0.019291267 1.391936e-38
-0.025104539 -0.13980253 0.016261384 1.5394127e-38
-0.02344518 -0.1406533 0.01331161 1.6593033e-38
-0.02169531 -0.1406533 0.01331161 1.9728412e-38
-0.019870447 -0.13980253 0.016261384 1.7331691e-38
-0.018125752 -0.13980253 0.016261384 1.8161449e-38
-0.016445706 -0.1406533 0.01331161 1.7608275e-38
-0.01469584 -0.1406533 0.01331161 1.511899e-38
-0.012945971 -0.1406533 0.01331161 1.4934599e-38
-0.011196101 -0.1406533 0.01331161 1.5211186e-38
-0.0094462354 -0.1406533 0.01331161 1.5303382e-38
-0.0076963659 -0.1406533 0.01331161 1.7239493e-38
-0.0059464965 -0.1406533 0.01331161 1.8714623e-38
-0.0042262021 -0.14153777 0.01024501 1.8345843e-38
-0.0024467614 -0.1406533 0.01331161 3.6770072e-40
-0.00069689192 -0.1406533 0.01331161 2.7550649e-40
0.0010395329 -0.14153777 0.01024501 2.7550649e-40
0.0027869251 -0.14239894 0.0072592944 2.7550649e-40
0.004547406 -0.14239894 0.0072592944 4.5953621e-40
0.0063130781 -0.14410757 0.001335308 8.2759987e-40
0.0080839451 -0.14410757 0.001335308 3.6734198e-40
0.0098681338 -0.14498411 -0.0017038137 3.6734198e-40
0.011644328 -0.14498411 -0.0017038137 2.7550649e-40
0.013396545 -0.14410757 0.001335308 1.836752e-40
0.015167411 -0.14410757 0.001335308 2.7587083e-40
0.016938278 -0.14410757 0.001335308 2.8025969e-45
0.018670741 -0.1432652 0.0042558163 9.2198432e-41
0.020436486 -0.1432652 0.0042558163 2.8025969e-45
0.022250878 -0.14410757 0.001335308 2.7658969e-40
0.024021745 -0.14410757 0.001335308 9.1835496e-41
0.025792612 -0.14410757 0.001335308 4.6025928e-40
0.027697096 -0.14586596 -0.0047612935 2.2112532e-39
-0.042551503 -0.14154722 0.016261384 7.5585969e-39
-0.040666029 -0.14066802 0.019291267 7.8351838e-39
-0.038926639 -0.14066802 0.019291267 6.9132303e-39
-0.037187256 -0.14066802 0.019291267 5.3459046e-39
-0.035447873 -0.14066802 0.019291267 5.1615105e-39
-0.033509612 -0.13920517 0.024332449 6.9132275e-39
-0.031779073 -0.13920517 0.024332449 6.8206703e-39
-0.030048525 -0.13920517 0.024332449 1.078508e-38
-0.028317982 -0.13920517 0.024332449 1.0324455e-38
-0.026653273 -0.13979416 0.022302791 1.1338605e-38
-0.025011571 -0.14066802 0.019291267 1.3734968e-38
-0.02344518 -0.14240317 0.01331161 1.419667e-38
-0.021615146 -0.14154722 0.016261384 1.3459469e-38
-0.019870447 -0.14154722 0.016261384 1.1892149e-38
-0.018125752 -0.14154722 0.016261384 1.2998494e-38
-0.016445706 -0.14240317 0.01331161 1.2814102e-38
-0.01469584 -0.14240317 0.01331161 1.1246774e-38
-0.012945971 -0.14240317 0.01331161 1.1062383e-38
-0.011196101 -0.14240317 0.01331161 1.1615556e-38
-0.0094462354 -0.14240317 0.01331161 1.2721904e-38
-0.0076963659 -0.14240317 0.01331161 1.3367276e-38
-0.0059464965 -0.14240317 0.01331161 1.392045e-38
-0.0042262021 -0.14329304 0.01024501 1.355167e-38
-0.0024467614 -0.14240317 0.01331161 3.6770072e-40
-0.00069689192 -0.14240317 0.01331161 8.2831593e-40
0.001026446 -0.14415942 0.0072592944 9.2051156e-40
0.0027869251 -0.14415942 0.0072592944 3.6734198e-40
0.004547406 -0.14415942 0.0072592944 3.6734198e-40
0.0063130781 -0.14587842 0.001335308 3.6734198e-40
0.0080762636 -0.14503096 0.0042558163 7.361231e-40
0.0098420102 -0.14503096 0.0042558163 5.5173465e-40
0.011644328 -0.1467603 -0.0017038137 9.2051717e-40
0.013396545 -0.14587842 0.001335308 1.836752e-40
0.015167411 -0.14587842 0.001335308 8.2904461e-40
0.016938278 -0.14587842 0.001335308 1.8439406e-40
0.018670741 -0.14503096 0.0042558163 2.8025969e-45
0.020436486 -0.14503096 0.0042558163 2.8025969e-45
0.022250878 -0.14587842 0.001335308 3.6878532e-40
0.024021745 -0.14587842 0.001335308 1.8367239e-40
0.025792612 -0.14587842 0.001335308 1.9353894e-39
0.027697096 -0.14764751 -0.0047612935 3.5941904e-39
