# .PCD v0.7 - Point Cloud Data file format
VERSION 0.7
FIELDS x y z rgb
SIZE 4 4 4 4
TYPE F F F F
COUNT 1 1 1 1
WIDTH 930
HEIGHT 1
VIEWPOINT 0 0 0 1 0 0 0
POINTS 930
DATA ascii
-0.021365393 -0.11221133 -0.0015171058 2.3417333e-38
-0.019539617 -0.11147197 0.0014215223 2.2957078e-38
-0.017723761 -0.11071064 0.0044474117 2.268157e-38
-0.01591856 -0.10995375 0.0074556582 2.2958514e-38
-0.014126549 -0.10995375 0.0074556582 2.2867037e-38
-0.012331898 -0.11071064 0.0044474117 2.2591531e-38
-0.010542524 -0.10995375 0.0074556582 2.1579186e-38
-0.0087505123 -0.10995375 0.0074556582 2.2499695e-38
-0.0069584996 -0.10995375 0.0074556582 2.2775202e-38
-0.0051427521 -0.11071064 0.0044474117 2.2683365e-38
-0.003316286 -0.11147197 0.0014215223 2.3142541e-38
-0.0015481785 -0.11071064 0.0044474117 2.3234374e-38
0.0002491083 -0.11071064 0.0044474117 2.2681917e-38
0.0020914907 -0.11147197 0.0014215223 2.30507e-38
0.0038940823 -0.11147197 0.0014215223 2.2589368e-38
0.0056966757 -0.11147197 0.0014215223 2.3142544e-38
0.0074992673 -0.11147197 0.0014215223 2.2958873e-38
0.009301859 -0.11147197 0.0014215223 1.9456174e-38
0.022568643 -0.11624531 -0.017550159 1.401302e-38
0.0244045 -0.11624531 -0.017550159 1.5395957e-38
0.026240356 -0.11624531 -0.017550159 1.7977435e-38
0.028192159 -0.1169848 -0.020489264 1.8254383e-38
0.030033167 -0.1169848 -0.020489264 1.8899752e-38
0.03187418 -0.1169848 -0.020489264 1.8715364e-38
0.033715189 -0.1169848 -0.020489264 1.7977799e-38
0.037880741 -0.11950795 -0.030517627 1.7608298e-38
0.039739333 -0.11950795 -0.030517627 1.8345863e-38
0.041753735 -0.12026589 -0.033530045 1.8530254e-38
0.043833833 -0.12128322 -0.037573386 1.7516102e-38
0.045704797 -0.12128322 -0.037573386 1.8254382e-38
0.047743253 -0.12202276 -0.040512729 1.5859439e-38
0.049619373 -0.12202276 -0.040512729 1.5491729e-38
0.051495489 -0.12202276 -0.040512729 1.0787959e-38
0.053371605 -0.12202276 -0.040512729 1.0510655e-38
0.055444162 -0.12279506 -0.043582249 6.3600565e-39
-0.035980627 -0.11579098 -0.0085107572 2.35088e-38
-0.034081332 -0.11479472 -0.0045785196 2.3509165e-38
-0.032211863 -0.11401908 -0.0015171058 2.3509527e-38
-0.030404117 -0.11401908 -0.0015171058 2.3508809e-38
-0.028641999 -0.11479472 -0.0045785196 2.3509168e-38
-0.02678863 -0.11401908 -0.0015171058 2.3509527e-38
-0.024980884 -0.11401908 -0.0015171058 2.3509168e-38
-0.023173138 -0.11401908 -0.0015171058 2.3509527e-38
-0.021365393 -0.11401908 -0.0015171058 2.3509527e-38
-0.019539617 -0.11327456 0.0014215223 2.3509883e-38
-0.017723761 -0.11250792 0.0044474117 2.3233652e-38
-0.01591856 -0.11174576 0.0074556582 2.3141455e-38
-0.014126549 -0.11174576 0.0074556582 2.3418045e-38
-0.012334536 -0.11174576 0.0074556582 2.3234379e-38
-0.010542524 -0.11174576 0.0074556582 2.3142544e-38
-0.0087505123 -0.11174576 0.0074556582 2.3234379e-38
-0.0069584996 -0.11174576 0.0074556582 2.3234379e-38
-0.0051427521 -0.11250792 0.0044474117 2.3142542e-38
-0.0033454653 -0.11250792 0.0044474117 2.3050703e-38
-0.0015481785 -0.11250792 0.0044474117 2.2496447e-38
0.0002491083 -0.11250792 0.0044474117 2.1666686e-38
0.0020463951 -0.11250792 0.0044474117 2.3326208e-38
0.0038940823 -0.11327456 0.0014215223 2.3234376e-38
0.0056966757 -0.11327456 0.0014215223 2.2681564e-38
0.0074992673 -0.11327456 0.0014215223 2.2405343e-38
0.009301859 -0.11327456 0.0014215223 2.3142544e-38
0.011104451 -0.11327456 0.0014215223 1.8809362e-38
0.012981753 -0.11401908 -0.0015171058 1.2079083e-38
0.014789498 -0.11401908 -0.0015171058 1.253862e-38
0.018896934 -0.11808117 -0.017550159 1.3548802e-38
0.02073279 -0.11808117 -0.017550159 1.2904154e-38
0.022568643 -0.11808117 -0.017550159 1.3642798e-38
0.0244045 -0.11808117 -0.017550159 1.5762942e-38
0.026240356 -0.11808117 -0.017550159 1.6962204e-38
0.028192159 -0.11882581 -0.020489264 1.7423903e-38
0.030033167 -0.11882581 -0.020489264 1.8253664e-38
0.03187418 -0.11882581 -0.020489264 1.9636599e-38
0.033715189 -0.11882581 -0.020489264 1.9913185e-38
0.035744585 -0.11985306 -0.024543811 2.0281968e-38
0.037736312 -0.12060766 -0.027522255 2.0096856e-38
0.039589655 -0.12060766 -0.027522255 1.935929e-38
0.041597925 -0.12136655 -0.030517627 1.9450767e-38
0.04361761 -0.12212978 -0.033530045 1.8805397e-38
0.045704797 -0.12315418 -0.037573386 1.6778886e-38
0.047743253 -0.12389888 -0.040512729 1.6044551e-38
0.049619373 -0.12389888 -0.040512729 1.4109882e-38
0.051495489 -0.12389888 -0.040512729 8.1153706e-39
0.053371605 -0.12389888 -0.040512729 2.4900009e-39
0.055444162 -0.12467657 -0.043582249 2.1197806e-39
0.057325657 -0.12467657 -0.043582249 3.4079985e-39
0.059477527 -0.12569134 -0.047587562 2.5775134e-39
-0.037800632 -0.11761098 -0.0085107572 1.9634785e-38
-0.035894446 -0.11660783 -0.0045785196 2.3508805e-38
-0.034081332 -0.11660783 -0.0045785196 2.240138e-38
-0.032211863 -0.11582683 -0.0015171058 1.9635874e-38
-0.030404117 -0.11582683 -0.0015171058 1.8346217e-38
-0.028596371 -0.11582683 -0.0015171058 1.9175978e-38
-0.02678863 -0.11582683 -0.0015171058 2.1941847e-38
-0.024980884 -0.11582683 -0.0015171058 2.3509527e-38
-0.0231448 -0.11507715 0.0014215223 2.3509524e-38
-0.021342207 -0.11507715 0.0014215223 2.2586842e-38
-0.019539617 -0.11507715 0.0014215223 2.3509876e-38
-0.017723761 -0.11430521 0.0044474117 2.350987e-38
-0.01591856 -0.11353777 0.0074556582 2.3509869e-38
-0.014126549 -0.11353777 0.0074556582 2.350951e-38
-0.012334536 -0.11353777 0.0074556582 2.3417327e-38
-0.01055039 -0.11277486 0.010446262 2.3417691e-38
-0.0087636216 -0.11277486 0.010446262 2.341769e-38
-0.0069768522 -0.11277486 0.010446262 2.341769e-38
-0.0051664878 -0.11353777 0.0074556582 2.3418047e-38
-0.0033454653 -0.11430521 0.0044474117 2.332621e-38
-0.0015481785 -0.11430521 0.0044474117 2.2496447e-38
0.0002491083 -0.11430521 0.0044474117 2.1482295e-38
0.0020463951 -0.11430521 0.0044474117 2.1851078e-38
0.003843681 -0.11430521 0.0044474117 2.2773034e-38
0.0056409677 -0.11430521 0.0044474117 2.3234379e-38
0.0074382545 -0.11430521 0.0044474117 2.3234379e-38
0.0092355413 -0.11430521 0.0044474117 2.3142544e-38
0.011104451 -0.11507715 0.0014215223 2.2404983e-38
0.012907044 -0.11507715 0.0014215223 1.8808996e-38
0.014709636 -0.11507715 0.0014215223 1.5304123e-38
0.016597241 -0.11582683 -0.0015171058 1.530124e-38
0.01849892 -0.11660783 -0.0045785196 1.7328823e-38
0.020634487 -0.11914389 -0.014519621 1.889687e-38
0.022465032 -0.11914389 -0.014519621 1.9635514e-38
0.024295572 -0.11914389 -0.014519621 1.9727354e-38
0.026240356 -0.11991702 -0.017550159 1.935929e-38
0.028192159 -0.12066682 -0.020489264 1.9452207e-38
0.030033167 -0.12066682 -0.020489264 2.0374882e-38
0.03187418 -0.12066682 -0.020489264 1.8715361e-38
0.033715189 -0.12066682 -0.020489264 1.8991948e-38
0.035556197 -0.12066682 -0.020489264 1.8806838e-38
0.037592702 -0.12170117 -0.024543811 1.6224639e-38
0.039589655 -0.12246101 -0.027522255 1.1430466e-38
0.041597925 -0.12322514 -0.030517627 7.926669e-39
0.04361761 -0.12399365 -0.033530045 5.8972861e-39
0.045867138 -0.12577499 -0.040512729 4.0551686e-39
0.047575761 -0.12502514 -0.037573386 2.3988786e-39
0.049446721 -0.12502514 -0.037573386 1.9396984e-39
0.051317688 -0.12502514 -0.037573386 2.3985255e-39
0.053371605 -0.12577499 -0.040512729 2.489282e-39
0.055444162 -0.12655805 -0.043582249 3.1328564e-39
0.057325657 -0.12655805 -0.043582249 4.3299576e-39
0.059477527 -0.12757985 -0.047587562 3.8682522e-39
-0.039620642 -0.11943097 -0.0085107572 1.8345488e-38
-0.037800632 -0.11943097 -0.0085107572 1.8622075e-38
-0.035894446 -0.11842094 -0.0045785196 1.9268168e-38
-0.034081332 -0.11842094 -0.0045785196 1.8161823e-38
-0.032211863 -0.11763458 -0.0015171058 1.484278e-38
-0.030404117 -0.11763458 -0.0015171058 1.3459846e-38
-0.028596371 -0.11763458 -0.0015171058 1.2998865e-38
-0.02678863 -0.11763458 -0.0015171058 1.428996e-38
-0.024980884 -0.11763458 -0.0015171058 2.0834768e-38
-0.0231448 -0.11687975 0.0014215223 2.3509517e-38
-0.021342207 -0.11687975 0.0014215223 2.3508431e-38
-0.019539617 -0.11687975 0.0014215223 2.3509863e-38
-0.017723761 -0.1161025 0.0044474117 2.3509499e-38
-0.01591856 -0.11532979 0.0074556582 2.3506977e-38
-0.014126549 -0.11532979 0.0074556582 2.3509863e-38
-0.012337158 -0.11456163 0.010446262 2.3509161e-38
-0.01055039 -0.11456163 0.010446262 2.3417691e-38
-0.0087636216 -0.11456163 0.010446262 2.341769e-38
-0.0069768522 -0.11456163 0.010446262 2.3509886e-38
-0.0051900828 -0.11456163 0.010446262 2.3509883e-38
-0.0033744751 -0.11532979 0.0074556582 2.3509883e-38
-0.0015824623 -0.11532979 0.0074556582 2.2865229e-38
0.00020954944 -0.11532979 0.0074556582 2.1851078e-38
0.0020463951 -0.1161025 0.0044474117 2.0191556e-38
0.003843681 -0.1161025 0.0044474117 2.2496447e-38
0.0056409677 -0.1161025 0.0044474117 2.3234379e-38
0.0074382545 -0.1161025 0.0044474117 2.3234379e-38
0.0092355413 -0.1161025 0.0044474117 2.2773765e-38
0.011104451 -0.11687975 0.0014215223 2.3234379e-38
0.012907044 -0.11687975 0.0014215223 2.3234379e-38
0.014709636 -0.11687975 0.0014215223 2.0006819e-38
0.016597241 -0.11763458 -0.0015171058 1.8068548e-38
0.01849892 -0.11842094 -0.0045785196 1.9358927e-38
0.02043958 -0.11943097 -0.0085107572 2.0373442e-38
0.022465032 -0.12097444 -0.014519621 2.0374521e-38
0.024295572 -0.12097444 -0.014519621 1.982099e-38
0.026240356 -0.12175287 -0.017550159 1.9176339e-38
0.028192159 -0.12250783 -0.020489264 1.8992311e-38
0.030033167 -0.12250783 -0.020489264 1.9268898e-38
0.03187418 -0.12250783 -0.020489264 1.963768e-38
0.033715189 -0.12250783 -0.020489264 1.7701928e-38
0.035556197 -0.12250783 -0.020489264 1.5027536e-38
0.037592702 -0.1235493 -0.024543811 1.0602144e-38
0.039440822 -0.1235493 -0.024543811 5.2544376e-39
0.041288938 -0.1235493 -0.024543811 2.4874869e-39
0.04361761 -0.12585752 -0.033530045 2.3952913e-39
0.045867138 -0.12765111 -0.040512729 2.948821e-39
0.047575761 -0.1268961 -0.037573386 3.5952638e-39
0.049446721 -0.1268961 -0.037573386 1.93646e-39
0.051317688 -0.1268961 -0.037573386 3.5030682e-39
0.053188648 -0.1268961 -0.037573386 4.3317527e-39
-0.039620642 -0.121251 -0.0085107572 1.7332776e-38
-0.037800632 -0.121251 -0.0085107572 1.4659824e-38
-0.035980627 -0.121251 -0.0085107572 1.4567628e-38
-0.034081332 -0.12023406 -0.0045785196 1.4936055e-38
-0.032211863 -0.11944233 -0.0015171058 1.2722997e-38
-0.030404117 -0.11944233 -0.0015171058 1.1893236e-38
-0.028641999 -0.12023406 -0.0045785196 8.9426104e-39
-0.02678863 -0.11944233 -0.0015171058 8.0199324e-39
-0.024980884 -0.11944233 -0.0015171058 1.0416653e-38
-0.023173138 -0.11944233 -0.0015171058 1.1521557e-38
-0.021365393 -0.11944233 -0.0015171058 1.2443145e-38
-0.019539617 -0.11868234 0.0014215223 1.7420266e-38
-0.017723761 -0.11789979 0.0044474117 2.3412256e-38
-0.015910696 -0.1163484 0.010446262 2.3509129e-38
-0.014123927 -0.1163484 0.010446262 2.3507338e-38
-0.012337158 -0.1163484 0.010446262 2.3509517e-38
-0.01055039 -0.1163484 0.010446262 2.3509886e-38
-0.0087636216 -0.1163484 0.010446262 2.341769e-38
-0.0069768522 -0.1163484 0.010446262 2.341769e-38
-0.0051900828 -0.1163484 0.010446262 2.3509883e-38
-0.0033744751 -0.1171218 0.0074556582 2.3509883e-38
-0.001616546 -0.1163484 0.010446262 2.3049621e-38
0.00017022341 -0.1163484 0.010446262 2.221986e-38
0.0020015622 -0.1171218 0.0074556582 1.9730578e-38
0.0037935739 -0.1171218 0.0074556582 2.332621e-38
0.0055855857 -0.1171218 0.0074556582 2.3234379e-38
0.0073775994 -0.1171218 0.0074556582 2.2865955e-38
0.0092355413 -0.11789979 0.0044474117 2.3234379e-38
0.011104451 -0.11868234 0.0014215223 2.3234379e-38
0.012907044 -0.11868234 0.0014215223 2.3234379e-38
0.014709636 -0.11868234 0.0014215223 2.341805e-38
0.016597241 -0.11944233 -0.0015171058 2.2680128e-38
0.018404987 -0.11944233 -0.0015171058 2.2403541e-38
0.02043958 -0.121251 -0.0085107572 2.1850011e-38
0.022465032 -0.12280498 -0.014519621 1.9638035e-38
0.024295572 -0.12280498 -0.014519621 1.576582e-38
0.026240356 -0.12358873 -0.017550159 1.134115e-38
0.028192159 -0.12434883 -0.020489264 7.7455231e-39
0.030033167 -0.12434883 -0.020489264 5.2562411e-39
0.03187418 -0.12434883 -0.020489264 3.9655023e-39
0.033715189 -0.12434883 -0.020489264 2.305981e-39
0.035419635 -0.12358873 -0.017550159 1.9361194e-39
0.037255492 -0.12358873 -0.017550159 2.3052579e-39
0.039238214 -0.12434883 -0.020489264 2.212342e-39
0.041079223 -0.12434883 -0.020489264 2.67296e-39
0.043296333 -0.12616767 -0.027522255 4.0548127e-39
0.045704797 -0.12876706 -0.037573386 4.9771221e-39
0.047575761 -0.12876706 -0.037573386 5.3444613e-39
0.049446721 -0.12876706 -0.037573386 4.7909245e-39
0.051317688 -0.12876706 -0.037573386 6.7266768e-39
0.053188648 -0.12876706 -0.037573386 7.1876564e-39
-0.04084466 -0.11736105 0.013419341 1.3461275e-38
-0.039773405 -0.12463553 -0.014519621 1.6320066e-38
-0.037942864 -0.12463553 -0.014519621 1.5213718e-38
-0.035980627 -0.123071 -0.0085107572 1.6596653e-38
-0.034081332 -0.12204717 -0.0045785196 1.5582501e-38
-0.032211863 -0.12125005 -0.0015171058 1.1248586e-38
-0.030404117 -0.12125005 -0.0015171058 1.1063829e-38
-0.028641999 -0.12204717 -0.0045785196 8.2050439e-39
-0.026828885 -0.12204717 -0.0045785196 9.7712836e-39
-0.024980884 -0.12125005 -0.0015171058 8.7564072e-39
-0.023173138 -0.12125005 -0.0015171058 7.5567766e-39
-0.021365393 -0.12125005 -0.0015171058 7.1869067e-39
-0.019539617 -0.12048493 0.0014215223 1.1518657e-38
-0.017723761 -0.11969708 0.0044474117 2.0830051e-38
-0.015910696 -0.11813517 0.010446262 2.3509121e-38
-0.014123927 -0.11813517 0.010446262 2.350913e-38
-0.012337158 -0.11813517 0.010446262 2.3509514e-38
-0.010558209 -0.11736105 0.013419341 2.3509527e-38
-0.0087766526 -0.11736105 0.013419341 2.3325494e-38
-0.0069950968 -0.11736105 0.013419341 2.3048905e-38
-0.005213541 -0.11736105 0.013419341 2.3233296e-38
-0.0034033144 -0.11813517 0.010446262 2.3417687e-38
-0.001616546 -0.11813517 0.010446262 2.3141456e-38
0.00017022341 -0.11813517 0.010446262 2.2588282e-38
0.0019569919 -0.11813517 0.010446262 2.102132e-38
0.0037437612 -0.11813517 0.010446262 2.332621e-38
0.0055855857 -0.11891381 0.0074556582 2.3234018e-38
0.0073775994 -0.11891381 0.0074556582 2.341805e-38
0.0092355413 -0.11969708 0.0044474117 2.3234379e-38
0.011032828 -0.11969708 0.0044474117 2.3050349e-38
0.012907044 -0.12048493 0.0014215223 2.3050349e-38
0.014709636 -0.12048493 0.0014215223 2.20362e-38
0.016512226 -0.12048493 0.0014215223 2.2036197e-38
0.018404987 -0.12125005 -0.0015171058 2.0468872e-38
0.020312034 -0.12204717 -0.0045785196 1.8901549e-38
0.022362012 -0.12385099 -0.011506487 1.5951649e-38
0.024295572 -0.12463553 -0.014519621 1.0788695e-38
0.026126117 -0.12463553 -0.014519621 6.4555032e-39
0.028076213 -0.12542458 -0.017550159 4.1502565e-39
0.029912069 -0.12542458 -0.017550159 2.6751264e-39
0.031747922 -0.12542458 -0.017550159 3.5970827e-39
0.033583779 -0.12542458 -0.017550159 1.8457217e-39
0.035278827 -0.12463553 -0.014519621 2.1215897e-39
0.037109368 -0.12463553 -0.014519621 3.9647792e-39
0.038939912 -0.12463553 -0.014519621 4.6094284e-39
0.040770452 -0.12463553 -0.014519621 4.0562546e-39
0.042600997 -0.12463553 -0.014519621 3.4105222e-39
0.045704797 -0.13063805 -0.037573386 2.9480994e-39
0.047575761 -0.13063805 -0.037573386 3.683135e-39
0.049446721 -0.13063805 -0.037573386 6.2631707e-39
0.051317688 -0.13063805 -0.037573386 8.3833143e-39
0.053188648 -0.13063805 -0.037573386 8.659904e-39
-0.042626217 -0.11914261 0.013419341 1.3737854e-38
-0.04084466 -0.11914261 0.013419341 1.4659818e-38
-0.038908109 -0.11754455 0.019515943 1.8163978e-38
-0.03713724 -0.11754455 0.019515943 2.0192282e-38
-0.03582735 -0.1230578 -0.0015171058 2.0929847e-38
-0.034019604 -0.1230578 -0.0015171058 1.6688848e-38
-0.032211863 -0.1230578 -0.0015171058 9.0358878e-39
-0.030404117 -0.1230578 -0.0015171058 8.9433292e-39
-0.028641999 -0.12386028 -0.0045785196 8.7585736e-39
-0.026828885 -0.12386028 -0.0045785196 9.5868896e-39
-0.024980884 -0.1230578 -0.0015171058 9.1244681e-39
-0.023173138 -0.1230578 -0.0015171058 1.0782902e-38
-0.021365393 -0.1230578 -0.0015171058 1.0690341e-38
-0.019539617 -0.12228753 0.0014215223 8.6605906e-39
-0.017723761 -0.12149437 0.0044474117 1.1148787e-38
-0.01591856 -0.12070583 0.0074556582 1.8615911e-38
-0.014123927 -0.11992194 0.010446262 2.3504809e-38
-0.012337158 -0.11992194 0.010446262 2.3509154e-38
-0.010558209 -0.11914261 0.013419341 2.3509527e-38
-0.0087766526 -0.11914261 0.013419341 2.3509883e-38
-0.0069950968 -0.11914261 0.013419341 2.3417687e-38
-0.005213541 -0.11914261 0.013419341 2.3325492e-38
-0.0034033144 -0.11992194 0.010446262 2.3509883e-38
-0.0016504293 -0.11914261 0.013419341 2.350988e-38
0.00013112742 -0.11914261 0.013419341 2.3325847e-38
0.0019569919 -0.11992194 0.010446262 2.3234015e-38
0.0037437612 -0.11992194 0.010446262 2.2957428e-38
0.0055855857 -0.12070583 0.0074556582 2.341805e-38
0.0073775994 -0.12070583 0.0074556582 2.341805e-38
0.0092355413 -0.12149437 0.0044474117 2.2312784e-38
0.011032828 -0.12149437 0.0044474117 2.3234379e-38
0.012907044 -0.12228753 0.0014215223 2.2865961e-38
0.014709636 -0.12228753 0.0014215223 1.4476159e-38
0.016512226 -0.12228753 0.0014215223 8.9451369e-39
0.018404987 -0.1230578 -0.0015171058 4.8885292e-39
0.020312034 -0.12386028 -0.0045785196 2.4921659e-39
0.022362012 -0.12567626 -0.011506487 2.215579e-39
0.024295572 -0.12646608 -0.014519621 1.2010725e-39
0.026126117 -0.12646608 -0.014519621 1.4769392e-39
0.028076213 -0.12726043 -0.017550159 2.6751264e-39
0.029912069 -0.12726043 -0.017550159 3.0439089e-39
0.031747922 -0.12726043 -0.017550159 3.6889182e-39
0.033448286 -0.12646608 -0.014519621 2.2137881e-39
0.035278827 -0.12646608 -0.014519621 2.2127063e-39
0.037109368 -0.12646608 -0.014519621 3.0428229e-39
0.038939912 -0.12646608 -0.014519621 3.0421041e-39
0.040614605 -0.12567626 -0.011506487 2.8573513e-39
0.042439863 -0.12567626 -0.011506487 3.1328564e-39
0.044265121 -0.12567626 -0.011506487 3.3154427e-39
0.047575761 -0.13250901 -0.037573386 6.1702563e-39
0.049446721 -0.13250901 -0.037573386 1.0316897e-38
0.051317688 -0.13250901 -0.037573386 1.1054827e-38
-0.042626217 -0.12092416 0.013419341 1.3091765e-38
-0.04084466 -0.12092416 0.013419341 1.4936045e-38
-0.038908109 -0.11931543 0.019515943 2.1666689e-38
-0.03713724 -0.11931543 0.019515943 2.332621e-38
-0.035762943 -0.12409012 0.0014215223 1.8532038e-38
-0.033960354 -0.12409012 0.0014215223 1.3922256e-38
-0.032157764 -0.12409012 0.0014215223 8.3897995e-39
-0.030404117 -0.12486555 -0.0015171058 8.4823511e-39
-0.028641999 -0.1256734 -0.0045785196 9.5883343e-39
-0.026828885 -0.1256734 -0.0045785196 1.0324457e-38
-0.024980884 -0.12486555 -0.0015171058 9.2173854e-39
-0.023173138 -0.12486555 -0.0015171058 9.4928877e-39
-0.021365393 -0.12486555 -0.0015171058 1.0875098e-38
-0.019539617 -0.12409012 0.0014215223 9.7673053e-39
-0.017723761 -0.12329166 0.0044474117 8.1074183e-39
-0.01591856 -0.12249784 0.0074556582 1.3362208e-38
-0.014123927 -0.12170871 0.010446262 2.1844933e-38
-0.012337158 -0.12170871 0.010446262 2.3230767e-38
-0.010558209 -0.12092416 0.013419341 2.3509523e-38
-0.0087766526 -0.12092416 0.013419341 2.3509883e-38
-0.0069950968 -0.12092416 0.013419341 2.3509883e-38
-0.005213541 -0.12092416 0.013419341 2.3509883e-38
-0.0034319852 -0.12092416 0.013419341 2.3509883e-38
-0.0016504293 -0.12092416 0.013419341 2.3509883e-38
0.00013112742 -0.12092416 0.013419341 2.3509883e-38
0.0019126832 -0.12092416 0.013419341 2.3509883e-38
0.0037437612 -0.12170871 0.010446262 2.3509883e-38
0.0055305297 -0.12170871 0.010446262 2.341805e-38
0.0073172981 -0.12170871 0.010446262 2.341805e-38
0.0091696111 -0.12249784 0.0074556582 2.221951e-38
0.011032828 -0.12329166 0.0044474117 2.341805e-38
0.012830115 -0.12329166 0.0044474117 2.221951e-38
0.014709636 -0.12409012 0.0014215223 1.0603939e-38
0.016597241 -0.12486555 -0.0015171058 8.4841587e-39
0.018404987 -0.12486555 -0.0015171058 2.6758341e-39
0.020312034 -0.1256734 -0.0045785196 5.5497865e-40
0.022259589 -0.126711 -0.0085107572 2.3066956e-39
0.024187271 -0.1275015 -0.011506487 2.9520692e-39
0.026012529 -0.1275015 -0.011506487 3.043546e-39
0.027956657 -0.1282966 -0.014519621 3.1357444e-39
0.029912069 -0.12909628 -0.017550159 2.3981794e-39
0.031617742 -0.1282966 -0.014519621 2.489296e-39
0.033448286 -0.1282966 -0.014519621 2.1205135e-39
0.035138827 -0.1275015 -0.011506487 2.8577156e-39
0.036964085 -0.1275015 -0.011506487 3.594559e-39
0.038789347 -0.1275015 -0.011506487 3.2250562e-39
0.040614605 -0.1275015 -0.011506487 2.9484679e-39
0.042439863 -0.1275015 -0.011506487 3.2246918e-39
-0.042626217 -0.12270571 0.013419341 1.272298e-38
-0.04084466 -0.12270571 0.013419341 1.5118996e-38
-0.038985372 -0.12189357 0.016476821 2.3509521e-38
-0.037209179 -0.12189357 0.016476821 2.3416245e-38
-0.035762943 -0.12589271 0.0014215223 1.216946e-38
-0.033960354 -0.12589271 0.0014215223 9.8645695e-39
-0.032157764 -0.12589271 0.0014215223 9.6801782e-39
-0.030404117 -0.1266733 -0.0015171058 1.0233349e-38
-0.028641999 -0.12748651 -0.0045785196 1.0693606e-38
-0.026828885 -0.12748651 -0.0045785196 9.863845e-39
-0.024980884 -0.1266733 -0.0015171058 1.1891427e-38
-0.023173138 -0.1266733 -0.0015171058 1.0323376e-38
-0.021342207 -0.12589271 0.0014215223 9.1244709e-39
-0.019539617 -0.12589271 0.0014215223 1.050704e-38
-0.017723761 -0.12508895 0.0044474117 9.7683927e-39
-0.01591856 -0.12428986 0.0074556582 1.0597792e-38
-0.014126549 -0.12428986 0.0074556582 1.5761111e-38
-0.012337158 -0.12349547 0.010446262 2.1848555e-38
-0.01056625 -0.12189357 0.016476821 2.2587566e-38
-0.0087900544 -0.12189357 0.016476821 2.3509523e-38
-0.0070138602 -0.12189357 0.016476821 2.3509883e-38
-0.005213541 -0.12270571 0.013419341 2.3233296e-38
-0.0034319852 -0.12270571 0.013419341 2.3233296e-38
-0.0016852738 -0.12189357 0.016476821 2.3325492e-38
9.0921298e-05 -0.12189357 0.016476821 2.3417687e-38
0.0019126832 -0.12270571 0.013419341 2.2864513e-38
0.0036942391 -0.12270571 0.013419341 2.3509883e-38
0.0055305297 -0.12349547 0.010446262 2.2865235e-38
0.0073172981 -0.12349547 0.010446262 2.3234018e-38
0.0091696111 -0.12428986 0.0074556582 2.341805e-38
0.010961623 -0.12428986 0.0074556582 2.341805e-38
0.012830115 -0.12508895 0.0044474117 2.1666336e-38
0.014709636 -0.12589271 0.0014215223 1.2815555e-38
0.016597241 -0.1266733 -0.0015171058 1.0696135e-38
0.018404987 -0.1266733 -0.0015171058 4.7034191e-39
0.020312034 -0.12748651 -0.0045785196 2.4907267e-39
0.022259589 -0.12853102 -0.0085107572 3.8736612e-39
0.024187271 -0.12932678 -0.011506487 3.2272142e-39
0.026012529 -0.12932678 -0.011506487 2.304902e-39
0.027956657 -0.13012715 -0.014519621 3.0417509e-39
0.029787201 -0.13012715 -0.014519621 3.3183378e-39
0.031617742 -0.13012715 -0.014519621 2.7648039e-39
0.033448286 -0.13012715 -0.014519621 2.0272361e-39
0.035138827 -0.12932678 -0.011506487 2.0261571e-39
0.036964085 -0.12932678 -0.011506487 1.8414029e-39
0.038789347 -0.12932678 -0.011506487 1.1949531e-39
0.040614605 -0.12932678 -0.011506487 1.195309e-39
0.042439863 -0.12932678 -0.011506487 1.6555683e-39
-0.042712227 -0.12528224 0.010446262 1.3275434e-38
-0.040925458 -0.12528224 0.010446262 1.6869271e-38
-0.03913869 -0.12528224 0.010446262 2.3506642e-38
-0.037635095 -0.12848105 -0.0015171058 2.3508802e-38
-0.03582735 -0.12848105 -0.0015171058 1.1152787e-38
-0.034019604 -0.12848105 -0.0015171058 9.3095978e-39
-0.032211863 -0.12848105 -0.0015171058 1.0600337e-38
-0.030404117 -0.12848105 -0.0015171058 1.0416664e-38
-0.028641999 -0.1292996 -0.0045785196 1.050886e-38
-0.026828885 -0.1292996 -0.0045785196 1.0047882e-38
-0.024980884 -0.12848105 -0.0015171058 1.050886e-38
-0.023173138 -0.12848105 -0.0015171058 1.050886e-38
-0.021342207 -0.12769531 0.0014215223 9.771292e-39
-0.019539617 -0.12769531 0.0014215223 9.402148e-39
-0.017723761 -0.12688623 0.0044474117 9.3099523e-39
-0.01591856 -0.12608187 0.0074556582 9.4936205e-39
-0.014126549 -0.12608187 0.0074556582 9.1255611e-39
-0.012337158 -0.12528224 0.010446262 1.6409735e-38
-0.01056625 -0.12366976 0.016476821 2.350988e-38
-0.0087900544 -0.12366976 0.016476821 2.286415e-38
-0.0070138602 -0.12366976 0.016476821 2.3325129e-38
-0.0052376641 -0.12366976 0.016476821 2.350988e-38
-0.003461469 -0.12366976 0.016476821 2.350988e-38
-0.0016852738 -0.12366976 0.016476821 2.2680122e-38
9.0921298e-05 -0.12366976 0.016476821 2.3509883e-38
0.0018671164 -0.12366976 0.016476821 2.3509886e-38
0.0036942391 -0.1244873 0.013419341 2.3141103e-38
0.0054757958 -0.1244873 0.013419341 2.3509886e-38
0.0073172981 -0.12528224 0.010446262 2.3509886e-38
0.0091696111 -0.12608187 0.0074556582 2.341805e-38
0.010961623 -0.12608187 0.0074556582 2.3049626e-38
0.012830115 -0.12688623 0.0044474117 2.2773039e-38
0.014709636 -0.12769531 0.0014215223 1.3092498e-38
0.016512226 -0.12769531 0.0014215223 1.0879803e-38
0.018404987 -0.12848105 -0.0015171058 5.3480654e-39
0.020312034 -0.1292996 -0.0045785196 3.9644149e-39
0.022259589 -0.13035102 -0.0085107572 2.5811245e-39
0.024187271 -0.13115202 -0.011506487 4.1477328e-39
0.026012529 -0.13115202 -0.011506487 3.4101677e-39
0.027956657 -0.13195769 -0.014519621 2.2105483e-39
0.029787201 -0.13195769 -0.014519621 3.316177e-39
0.031617742 -0.13195769 -0.014519621 1.8403267e-39
0.033448286 -0.13195769 -0.014519621 4.1452174e-39
0.035138827 -0.13115202 -0.011506487 1.3786297e-39
0.036964085 -0.13115202 -0.011506487 2.7615613e-39
0.038789347 -0.13115202 -0.011506487 2.0236347e-39
0.040614605 -0.13115202 -0.011506487 7.3468677e-40
0.042439863 -0.13115202 -0.011506487 1.0101975e-39
-0.041250587 -0.13028879 -0.0015171058 1.8066376e-38
-0.039442837 -0.13028879 -0.0015171058 2.350592e-38
-0.037635095 -0.13028879 -0.0015171058 2.3506643e-38
-0.035894446 -0.13111271 -0.0045785196 1.198111e-38
-0.034081332 -0.13111271 -0.0045785196 1.0783289e-38
-0.032268222 -0.13111271 -0.0045785196 1.1891078e-38
-0.030455109 -0.13111271 -0.0045785196 1.161521e-38
-0.028641999 -0.13111271 -0.0045785196 1.1523738e-38
-0.026828885 -0.13111271 -0.0045785196 1.0417393e-38
-0.024980884 -0.13028879 -0.0015171058 1.0602144e-38
-0.023173138 -0.13028879 -0.0015171058 1.0509949e-38
-0.021342207 -0.1294979 0.0014215223 9.8645793e-39
-0.019539617 -0.1294979 0.0014215223 9.4036011e-39
-0.017723761 -0.12868352 0.0044474117 9.3114055e-39
-0.015926473 -0.12868352 0.0044474117 9.3110454e-39
-0.014126549 -0.12787388 0.0074556582 9.0344557e-39
-0.012337158 -0.12706901 0.010446262 1.253824e-38
-0.010558209 -0.12626885 0.013419341 2.3140736e-38
-0.0087766526 -0.12626885 0.013419341 2.350988e-38
-0.0069950968 -0.12626885 0.013419341 2.350988e-38
-0.005213541 -0.12626885 0.013419341 2.286415e-38
-0.003461469 -0.12544595 0.016476821 2.350988e-38
-0.0016852738 -0.12544595 0.016476821 2.3509883e-38
9.0921298e-05 -0.12544595 0.016476821 2.3509883e-38
0.0018671164 -0.12544595 0.016476821 2.3509886e-38
0.0036433125 -0.12544595 0.016476821 2.3325494e-38
0.0054757958 -0.12626885 0.013419341 2.3325494e-38
0.0073172981 -0.12706901 0.010446262 2.3141103e-38
0.0091696111 -0.12787388 0.0074556582 2.2219866e-38
0.010961623 -0.12787388 0.0074556582 2.1851083e-38
0.012753635 -0.12787388 0.0074556582 2.212767e-38
0.014627402 -0.12868352 0.0044474117 1.4291041e-38
0.016512226 -0.1294979 0.0014215223 1.1340062e-38
0.01831482 -0.1294979 0.0014215223 6.4529752e-39
0.020212729 -0.13028879 -0.0015171058 4.2402829e-39
0.022125144 -0.13111271 -0.0045785196 1.0123569e-39
0.024187271 -0.13297729 -0.011506487 1.6577291e-39
0.026012529 -0.13297729 -0.011506487 2.0257941e-39
0.027956657 -0.13378824 -0.014519621 1.0105632e-39
0.029663049 -0.13297729 -0.011506487 8.2652927e-40
0.031488307 -0.13297729 -0.011506487 3.3147379e-39
0.033448286 -0.13378824 -0.014519621 8.2007433e-39
0.035278827 -0.13378824 -0.014519621 6.1724395e-39
0.036964085 -0.13297729 -0.011506487 4.697308e-39
0.038789347 -0.13297729 -0.011506487 2.0229117e-39
0.040614605 -0.13297729 -0.011506487 1.0101919e-39
-0.044960007 -0.13292582 -0.0045785196 1.0971263e-38
-0.043058328 -0.13209651 -0.0015171058 1.5948388e-38
-0.041250587 -0.13209651 -0.0015171058 2.0646775e-38
-0.039442837 -0.13209651 -0.0015171058 2.3506284e-38
-0.037635095 -0.13209651 -0.0015171058 2.2675083e-38
-0.035894446 -0.13292582 -0.0045785196 1.2349893e-38
-0.034081332 -0.13292582 -0.0045785196 1.1520854e-38
-0.032268222 -0.13292582 -0.0045785196 1.2352056e-38
-0.030455109 -0.13292582 -0.0045785196 1.1983637e-38
-0.028641999 -0.13292582 -0.0045785196 1.1984719e-38
-0.026828885 -0.13292582 -0.0045785196 1.0602865e-38
-0.024980884 -0.13209651 -0.0015171058 1.0694704e-38
-0.023173138 -0.13209651 -0.0015171058 1.0142612e-38
-0.021342207 -0.13130049 0.0014215223 9.6812782e-39
-0.019539617 -0.13130049 0.0014215223 9.3124957e-39
-0.017723761 -0.13048081 0.0044474117 9.2203001e-39
-0.015926473 -0.13048081 0.0044474117 9.1281058e-39
-0.014126549 -0.1296659 0.0074556582 9.0351829e-39
-0.012337158 -0.12885578 0.010446262 1.069433e-38
-0.01055039 -0.12885578 0.010446262 2.1572687e-38
-0.0087505123 -0.1296659 0.0074556582 2.3509879e-38
-0.0069584996 -0.1296659 0.0074556582 2.3509879e-38
-0.0033744751 -0.1296659 0.0074556582 2.3140737e-38
-0.0016852738 -0.12722217 0.016476821 2.3509883e-38
9.0921298e-05 -0.12722217 0.016476821 2.2587566e-38
0.0018671164 -0.12722217 0.016476821 2.3509886e-38
0.0036433125 -0.12722217 0.016476821 2.2864516e-38
0.0054757958 -0.1280504 0.013419341 2.2126951e-38
0.0073172981 -0.12885578 0.010446262 2.1665973e-38
0.0091040665 -0.12885578 0.010446262 2.1573775e-38
0.010890835 -0.12885578 0.010446262 2.1020601e-38
0.012677605 -0.12885578 0.010446262 2.0836928e-38
0.014545648 -0.1296659 0.0074556582 1.4566907e-38
0.016424689 -0.13048081 0.0044474117 1.1431895e-38
0.01831482 -0.13130049 0.0014215223 6.0834696e-39
0.02011741 -0.13130049 0.0014215223 3.5941904e-39
0.022125144 -0.13292582 -0.0045785196 3.6734479e-40
0.024187271 -0.13480256 -0.011506487 7.3468957e-40
0.026012529 -0.13480256 -0.011506487 1.3789842e-39
0.027956657 -0.13561879 -0.014519621 9.1836337e-40
0.029663049 -0.13480256 -0.011506487 9.1836337e-40
0.031488307 -0.13480256 -0.011506487 3.9597444e-39
0.033448286 -0.13561879 -0.014519621 9.3982061e-39
0.035278827 -0.13561879 -0.014519621 7.923076e-39
0.036964085 -0.13480256 -0.011506487 5.0653674e-39
0.038789347 -0.13480256 -0.011506487 1.5619335e-39
0.040614605 -0.13480256 -0.011506487 9.1835496e-40
-0.046900667 -0.13581105 -0.0085107572 1.0877991e-38
-0.044960007 -0.13473894 -0.0045785196 1.0233701e-38
-0.043058328 -0.13390426 -0.0015171058 1.6778151e-38
-0.041250587 -0.13390426 -0.0015171058 2.2583965e-38
-0.039442837 -0.13390426 -0.0015171058 2.3506644e-38
-0.037635095 -0.13390426 -0.0015171058 2.110848e-38
-0.035894446 -0.13473894 -0.0045785196 1.2627201e-38
-0.034081332 -0.13473894 -0.0045785196 1.1706687e-38
-0.032268222 -0.13473894 -0.0045785196 1.2168028e-38
-0.030455109 -0.13473894 -0.0045785196 1.152374e-38
-0.028641999 -0.13473894 -0.0045785196 1.1524102e-38
-0.026828885 -0.13473894 -0.0045785196 1.0787979e-38
-0.024980884 -0.13390426 -0.0015171058 1.060359e-38
-0.023173138 -0.13390426 -0.0015171058 1.0142975e-38
-0.021342207 -0.13310309 0.0014215223 9.7741927e-39
-0.019521046 -0.1322781 0.0044474117 9.6819985e-39
-0.017723761 -0.1322781 0.0044474117 9.5898029e-39
-0.015926473 -0.1322781 0.0044474117 9.5894469e-39
-0.014126549 -0.13145791 0.0074556582 9.7727508e-39
-0.012337158 -0.13064255 0.010446262 9.4035913e-39
-0.01055039 -0.13064255 0.010446262 1.5948754e-38
-0.0087636216 -0.13064255 0.010446262 1.9636582e-38
-0.0069768522 -0.13064255 0.010446262 2.3509879e-38
-2.6944093e-05 -0.12655462 0.025439929 2.3509883e-38
0.0019126832 -0.12983195 0.013419341 2.2864516e-38
0.0036942391 -0.12983195 0.013419341 2.1204995e-38
0.0054757958 -0.12983195 0.013419341 2.0098647e-38
0.0073172981 -0.13064255 0.010446262 1.9914256e-38
0.0090389075 -0.12983195 0.013419341 2.0744014e-38
0.010820462 -0.12983195 0.013419341 1.9638022e-38
0.012602019 -0.12983195 0.013419341 1.8255448e-38
0.014545648 -0.13145791 0.0074556582 1.2815546e-38
0.016337659 -0.13145791 0.0074556582 1.0694327e-38
0.018221974 -0.1322781 0.0044474117 3.9629701e-39
0.020019263 -0.1322781 0.0044474117 2.2105343e-39
0.021816548 -0.1322781 0.0044474117 5.5101578e-40
0.024187271 -0.13662781 -0.011506487 1.1953062e-39
0.026126117 -0.13744931 -0.014519621 1.0101989e-39
0.027956657 -0.13744931 -0.014519621 1.1020344e-39
0.029787201 -0.13744931 -0.014519621 2.3924144e-39
0.031617742 -0.13744931 -0.014519621 5.3415984e-39
0.033448286 -0.13744931 -0.014519621 8.2929348e-39
0.035278827 -0.13744931 -0.014519621 6.8178047e-39
0.036964085 -0.13662781 -0.011506487 4.6054655e-39
0.038789347 -0.13662781 -0.011506487 2.3005747e-39
0.040770452 -0.13744931 -0.014519621 7.3468397e-40
-0.046900667 -0.13763104 -0.0085107572 1.1154581e-38
-0.044960007 -0.13655205 -0.0045785196 1.0325899e-38
-0.043146893 -0.13655205 -0.0045785196 1.6686322e-38
-0.041333783 -0.13655205 -0.0045785196 2.1110638e-38
-0.039520673 -0.13655205 -0.0045785196 2.1663815e-38
-0.03770756 -0.13655205 -0.0045785196 1.8990142e-38
-0.035894446 -0.13655205 -0.0045785196 1.3182536e-38
-0.034081332 -0.13655205 -0.0045785196 1.2630085e-38
-0.032268222 -0.13655205 -0.0045785196 1.2446413e-38
-0.030455109 -0.13655205 -0.0045785196 1.1524819e-38
-0.028641999 -0.13655205 -0.0045785196 1.106492e-38
-0.026828885 -0.13655205 -0.0045785196 1.1248954e-38
-0.024947394 -0.13490568 0.0014215223 1.0880893e-38
-0.0231448 -0.13490568 0.0014215223 1.0604307e-38
-0.021318335 -0.13407536 0.0044474117 1.0419559e-38
-0.019521046 -0.13407536 0.0044474117 1.0418843e-38
-0.017723761 -0.13407536 0.0044474117 1.0418843e-38
-0.015926473 -0.13407536 0.0044474117 1.0603235e-38
-0.014126549 -0.13324992 0.0074556582 1.0971647e-38
-0.012337158 -0.13242932 0.010446262 1.0970914e-38
-0.01055039 -0.13242932 0.010446262 1.3736056e-38
-0.0087636216 -0.13242932 0.010446262 1.6225341e-38
-0.0069768522 -0.13242932 0.010446262 2.2863429e-38
-0.0052616429 -0.12994061 0.019515943 2.3509521e-38
-0.0035189399 -0.12913923 0.022436451 2.3509161e-38
-0.0018214509 -0.12749584 0.028425645 2.3509523e-38
-2.6944093e-05 -0.12831511 0.025439929 2.3048189e-38
0.0017335359 -0.12831511 0.025439929 2.2310624e-38
0.0034940159 -0.12831511 0.025439929 1.9913537e-38
0.0054757958 -0.13161351 0.013419341 1.89923e-38
0.0072573507 -0.13161351 0.013419341 1.8623517e-38
0.008971897 -0.13077454 0.016476821 1.8900101e-38
0.010748093 -0.13077454 0.016476821 1.7333132e-38
0.012602019 -0.13161351 0.013419341 1.6042393e-38
0.014464374 -0.13242932 0.010446262 1.1709197e-38
0.016337659 -0.13324992 0.0074556582 9.3113915e-39
0.018221974 -0.13407536 0.0044474117 2.304525e-39
0.020019263 -0.13407536 0.0044474117 1.4736853e-39
0.021816548 -0.13407536 0.0044474117 5.5137171e-40
0.02382822 -0.13571201 -0.0015171058 9.187165e-40
0.029787201 -0.13927986 -0.014519621 1.3789786e-39
0.031617742 -0.13927986 -0.014519621 5.3426746e-39
-0.046900667 -0.13945107 -0.0085107572 1.1246779e-38
-0.044960007 -0.13836516 -0.0045785196 1.0325543e-38
-0.043146893 -0.13836516 -0.0045785196 1.5580696e-38
-0.041333783 -0.13836516 -0.0045785196 1.7056194e-38
-0.039620642 -0.13945107 -0.0085107572 1.806999e-38
-0.037800632 -0.13945107 -0.0085107572 1.6502665e-38
-0.035980627 -0.13945107 -0.0085107572 1.3460928e-38
-0.034081332 -0.13836516 -0.0045785196 1.3093224e-38
-0.032268222 -0.13836516 -0.0045785196 1.2816637e-38
-0.030455109 -0.13836516 -0.0045785196 1.1802845e-38
-0.028596371 -0.13751976 -0.0015171058 1.1249672e-38
-0.02678863 -0.13751976 -0.0015171058 1.1249672e-38
-0.024947394 -0.13670824 0.0014215223 1.106528e-38
-0.0231448 -0.13670824 0.0014215223 1.0972725e-38
-0.021318335 -0.13587265 0.0044474117 1.0880172e-38
-0.019521046 -0.13587265 0.0044474117 1.0879451e-38
-0.017710574 -0.13504194 0.0074556582 1.0787256e-38
-0.01591856 -0.13504194 0.0074556582 1.1431906e-38
-0.014126549 -0.13504194 0.0074556582 1.2076911e-38
-0.012337158 -0.13421609 0.010446262 1.3736061e-38
-0.010558209 -0.13339506 0.013419341 1.6501925e-38
-0.0087900544 -0.13255073 0.016476821 1.7239493e-38
-0.0070138602 -0.13255073 0.016476821 2.1203905e-38
-0.0052616429 -0.1317115 0.019515943 2.1756724e-38
-0.0035189399 -0.13090499 0.022436451 2.1387941e-38
-0.0018214509 -0.12925108 0.028425645 2.0835493e-38
-6.6205859e-05 -0.12925108 0.028425645 1.9452559e-38
0.0016890392 -0.12925108 0.028425645 1.8069625e-38
0.0034940159 -0.13007559 0.025439929 1.4566191e-38
0.0053635566 -0.1317115 0.019515943 1.4290323e-38
0.0072573507 -0.13339506 0.013419341 1.3737146e-38
0.008971897 -0.13255073 0.016476821 1.281519e-38
0.010748093 -0.13255073 0.016476821 1.1340416e-38
0.012602019 -0.13339506 0.013419341 1.1248219e-38
0.014464374 -0.13421609 0.010446262 8.5745453e-39
0.016251143 -0.13421609 0.010446262 7.4681977e-39
0.018129673 -0.13504194 0.0074556582 1.8435455e-39
0.020019263 -0.13587265 0.0044474117 1.4747629e-39
0.021816548 -0.13587265 0.0044474117 2.7550649e-40
0.023722596 -0.13670824 0.0014215223 3.6734198e-40
-0.046900667 -0.14127107 -0.0085107572 1.0509214e-38
-0.044960007 -0.14017828 -0.0045785196 1.0325543e-38
-0.043146893 -0.14017828 -0.0045785196 1.4935689e-38
-0.041440647 -0.14127107 -0.0085107572 1.5121528e-38
-0.039620642 -0.14127107 -0.0085107572 1.622896e-38
-0.037800632 -0.14127107 -0.0085107572 1.5030773e-38
-0.035980627 -0.14127107 -0.0085107572 1.3279056e-38
-0.034081332 -0.14017828 -0.0045785196 1.2726601e-38
-0.032268222 -0.14017828 -0.0045785196 1.2542208e-38
-0.030455109 -0.14017828 -0.0045785196 1.2172707e-38
-0.028596371 -0.13932751 -0.0015171058 1.1619889e-38
-0.02678863 -0.13932751 -0.0015171058 1.1803199e-38
-0.024947394 -0.13851084 0.0014215223 1.180248e-38
-0.0231448 -0.13851084 0.0014215223 1.1986151e-38
-0.021318335 -0.13766994 0.0044474117 1.1893236e-38
-0.019521046 -0.13766994 0.0044474117 1.1523735e-38
-0.017710574 -0.13683395 0.0074556582 1.1339344e-38
-0.01591856 -0.13683395 0.0074556582 1.2260577e-38
-0.014126549 -0.13683395 0.0074556582 1.3274366e-38
-0.012337158 -0.13600285 0.010446262 1.3736056e-38
-0.010558209 -0.13517661 0.013419341 1.8161446e-38
-0.0087900544 -0.13432692 0.016476821 1.7884862e-38
-0.0070138602 -0.13432692 0.016476821 1.899121e-38
-0.0053319409 -0.13100632 0.028425645 1.9083051e-38
-0.0035766959 -0.13100632 0.028425645 2.0097203e-38
-0.0018214509 -0.13100632 0.028425645 1.9729146e-38
-6.6205859e-05 -0.13100632 0.028425645 1.7608646e-38
0.0016890392 -0.13100632 0.028425645 1.6871081e-38
0.0034940159 -0.13183604 0.025439929 1.161593e-38
0.0053097894 -0.13267075 0.022436451 1.1800322e-38
0.0072573507 -0.13517661 0.013419341 1.216946e-38
0.0090389075 -0.13517661 0.013419341 1.1432255e-38
0.010820462 -0.13517661 0.013419341 1.0879437e-38
0.012602019 -0.13517661 0.013419341 1.1524805e-38
0.014464374 -0.13600285 0.010446262 9.0355235e-39
0.016251143 -0.13600285 0.010446262 7.0994124e-39
0.018129673 -0.13683395 0.0074556582 1.1988921e-39
0.019921683 -0.13683395 0.0074556582 1.2910877e-39
0.021816548 -0.13766994 0.0044474117 9.1835496e-41
0.023722596 -0.13851084 0.0014215223 2.7550649e-40
-0.045080662 -0.14309107 -0.0085107572 1.0694682e-38
-0.043260656 -0.14309107 -0.0085107572 1.5212632e-38
-0.041440647 -0.14309107 -0.0085107572 1.6319717e-38
-0.039696805 -0.14392884 -0.011506487 1.7243118e-38
-0.037800632 -0.14309107 -0.0085107572 1.5491398e-38
-0.035980627 -0.14309107 -0.0085107572 1.3648201e-38
-0.034081332 -0.14199139 -0.0045785196 1.2634405e-38
-0.032268222 -0.14199139 -0.0045785196 1.2450014e-38
-0.030455109 -0.14199139 -0.0045785196 1.2542208e-38
-0.028641999 -0.14199139 -0.0045785196 1.244965e-38
-0.026828885 -0.14199139 -0.0045785196 1.2817353e-38
-0.024947394 -0.14031343 0.0014215223 1.2908827e-38
-0.0231448 -0.14031343 0.0014215223 1.3092498e-38
-0.021318335 -0.13946722 0.0044474117 1.3091417e-38
-0.019521046 -0.13946722 0.0044474117 1.2537161e-38
-0.017710574 -0.13862596 0.0074556582 1.2352408e-38
-0.01591856 -0.13862596 0.0074556582 1.3365837e-38
-0.014126549 -0.13862596 0.0074556582 1.4564377e-38
-0.012337158 -0.13778962 0.010446262 1.4842043e-38
-0.010558209 -0.13695817 0.013419341 1.9544381e-38
-0.0087900544 -0.13610314 0.016476821 1.8161086e-38
-0.0070138602 -0.13610314 0.016476821 1.7700471e-38
-0.0053319409 -0.13276155 0.028425645 1.7516079e-38
-0.0035766959 -0.13276155 0.028425645 1.862243e-38
-0.0018214509 -0.13276155 0.028425645 1.8068899e-38
-6.6205859e-05 -0.13276155 0.028425645 1.54885e-38
0.0016890392 -0.13276155 0.028425645 1.54885e-38
0.0034940159 -0.13359652 0.025439929 8.5738306e-39
0.0053097894 -0.13443647 0.022436451 8.8504175e-39
0.0072573507 -0.13695817 0.013419341 1.0509936e-38
0.0090389075 -0.13695817 0.013419341 1.1156024e-38
0.010820462 -0.13695817 0.013419341 1.1709198e-38
0.012602019 -0.13695817 0.013419341 1.1985785e-38
0.014383574 -0.13695817 0.013419341 8.390154e-39
0.01616513 -0.13695817 0.013419341 8.0217247e-39
0.018037912 -0.13778962 0.010446262 7.3755383e-40
0.019921683 -0.13862596 0.0074556582 7.3755383e-40
0.021816548 -0.13946722 0.0044474117 8.2867186e-40
0.023722596 -0.14031343 0.0014215223 2.7550649e-40
-0.043347321 -0.14575411 -0.011506487 1.4843129e-38
-0.041522063 -0.14575411 -0.011506487 1.7424269e-38
-0.039696805 -0.14575411 -0.011506487 1.9085234e-38
-0.037871543 -0.14575411 -0.011506487 2.019158e-38
-0.035980627 -0.14491107 -0.0085107572 1.7611174e-38
-0.034160621 -0.14491107 -0.0085107572 1.3923346e-38
-0.032340616 -0.14491107 -0.0085107572 1.2264904e-38
-0.030455109 -0.14380451 -0.0045785196 1.2449295e-38
-0.028641999 -0.14380451 -0.0045785196 1.2818078e-38
-0.026828885 -0.14380451 -0.0045785196 1.3554564e-38
-0.024980884 -0.14294298 -0.0015171058 1.3738236e-38
-0.0231448 -0.14211603 0.0014215223 1.3921906e-38
-0.021318335 -0.14126451 0.0044474117 1.3644234e-38
-0.019521046 -0.14126451 0.0044474117 1.2905943e-38
-0.017723761 -0.14126451 0.0044474117 1.2444957e-38
-0.01591856 -0.14041798 0.0074556582 1.3273636e-38
-0.014123927 -0.13957639 0.010446262 1.4288145e-38
-0.012337158 -0.13957639 0.010446262 1.4748766e-38
-0.010558209 -0.13873972 0.013419341 1.723913e-38
-0.0087766526 -0.13873972 0.013419341 1.8160007e-38
-0.0070138602 -0.13787933 0.016476821 1.696254e-38
-0.0053083831 -0.13535701 0.025439929 1.7423518e-38
-0.0035479032 -0.13535701 0.025439929 1.8253998e-38
-0.0017874232 -0.13535701 0.025439929 1.7516077e-38
-6.6205859e-05 -0.13451682 0.028425645 1.6225338e-38
0.0016890392 -0.13451682 0.028425645 1.5303382e-38
0.0034940159 -0.13535701 0.025439929 8.2043208e-39
0.0053097894 -0.13620223 0.022436451 7.5600304e-39
0.0070755361 -0.13620223 0.022436451 1.0971269e-38
0.0089052906 -0.13702409 0.019515943 1.1709197e-38
0.010676156 -0.13702409 0.019515943 1.0602851e-38
0.012524287 -0.13787933 0.016476821 1.1524807e-38
0.014383574 -0.13873972 0.013419341 7.7440658e-39
0.01616513 -0.13873972 0.013419341 6.1756541e-39
0.018037912 -0.13957639 0.010446262 1.1038196e-39
0.019921683 -0.14041798 0.0074556582 1.1960138e-39
0.021920003 -0.14211603 0.0014215223 6.4284847e-40
0.023722596 -0.14211603 0.0014215223 5.5101298e-40
-0.039773405 -0.14843257 -0.014519621 2.3509168e-38
-0.037942864 -0.14843257 -0.014519621 2.2772332e-38
-0.036046281 -0.14757936 -0.011506487 2.3142185e-38
-0.034160621 -0.14673109 -0.0085107572 2.2404625e-38
-0.032340616 -0.14673109 -0.0085107572 1.171065e-38
-0.030455109 -0.14561762 -0.0045785196 1.171173e-38
-0.028641999 -0.14561762 -0.0045785196 1.475383e-38
-0.02678863 -0.14475073 -0.0015171058 1.4477246e-38
-0.024947394 -0.14391862 0.0014215223 1.3554211e-38
-0.0231448 -0.14391862 0.0014215223 1.3185065e-38
-0.021342207 -0.14391862 0.0014215223 1.3921187e-38
-0.019521046 -0.1430618 0.0044474117 1.3828982e-38
-0.017710574 -0.14220999 0.0074556582 1.2906298e-38
-0.015910696 -0.14136316 0.010446262 1.2721541e-38
-0.014123927 -0.14136316 0.010446262 1.355058e-38
-0.012337158 -0.14136316 0.010446262 1.5301942e-38
-0.010558209 -0.14052127 0.013419341 1.7699029e-38
-0.0087766526 -0.14052127 0.013419341 1.7791224e-38
-0.0070138602 -0.13965552 0.016476821 1.6223896e-38
-0.0052376641 -0.13965552 0.016476821 1.6317171e-38
-0.0035189399 -0.13796796 0.022436451 1.7423517e-38
-0.0017531943 -0.13796796 0.022436451 1.6686671e-38
-6.6205859e-05 -0.13627206 0.028425645 1.5395932e-38
0.0016890392 -0.13627206 0.028425645 1.419739e-38
0.0034940159 -0.13711749 0.025439929 7.9277312e-39
0.0053097894 -0.13796796 0.022436451 7.5600276e-39
0.0070755361 -0.13796796 0.022436451 1.0971269e-38
0.0089052906 -0.13879494 0.019515943 1.1709197e-38
0.010676156 -0.13879494 0.019515943 1.0695046e-38
0.012524287 -0.13965552 0.016476821 1.1616647e-38
0.014383574 -0.14052127 0.013419341 8.1128497e-39
0.01616513 -0.14052127 0.013419341 6.4511647e-39
0.018037912 -0.14136316 0.010446262 1.2874906e-39
0.02011741 -0.14391862 0.0014215223 1.4718791e-39
0.021920003 -0.14391862 0.0014215223 1.7484632e-39
0.02382822 -0.14475073 -0.0015171058 2.1172457e-39
0.025635965 -0.14475073 -0.0015171058 3.8689654e-39
-0.034160621 -0.14855109 -0.0085107572 2.3234379e-38
-0.032340616 -0.14855109 -0.0085107572 1.3647114e-38
-0.030520607 -0.14855109 -0.0085107572 1.3740033e-38
-0.028641999 -0.14743073 -0.0045785196 1.5953092e-38
-0.02678863 -0.14655848 -0.0015171058 1.5860899e-38
-0.024947394 -0.14572121 0.0014215223 1.4108466e-38
-0.0231448 -0.14572121 0.0014215223 1.3462015e-38
-0.021342207 -0.14572121 0.0014215223 1.4107022e-38
-0.019521046 -0.14485909 0.0044474117 1.3921906e-38
-0.017710574 -0.14400201 0.0074556582 1.2354212e-38
-0.015910696 -0.14314993 0.010446262 1.2077979e-38
-0.014123927 -0.14314993 0.010446262 1.3183964e-38
-0.012337158 -0.14314993 0.010446262 1.5118274e-38
-0.010558209 -0.14230286 0.013419341 1.7606836e-38
-0.0087766526 -0.14230286 0.013419341 1.7146578e-38
-0.0070138602 -0.1414317 0.016476821 1.511863e-38
-0.0052376641 -0.1414317 0.016476821 1.5210826e-38
-0.0034907768 -0.14056583 0.019515943 1.6501562e-38
-0.0017199097 -0.14056583 0.019515943 1.6133498e-38
-2.6944093e-05 -0.13887797 0.025439929 1.5027151e-38
0.0017335359 -0.13887797 0.025439929 1.3367273e-38
0.0034940159 -0.13887797 0.025439929 7.9277312e-39
0.0052544968 -0.13887797 0.025439929 7.6522261e-39
0.0070755361 -0.13973372 0.022436451 1.0509935e-38
0.0088412827 -0.13973372 0.022436451 1.1155304e-38
0.010607027 -0.13973372 0.022436451 9.9567623e-39
0.012602019 -0.14230286 0.013419341 1.0510299e-38
0.014383574 -0.14230286 0.013419341 6.8221109e-39
0.01616513 -0.14230286 0.013419341 5.8057953e-39
0.017946687 -0.14230286 0.013419341 9.1871369e-40
0.020212729 -0.14655848 -0.0015171058 8.2651947e-40
0.022020474 -0.14655848 -0.0015171058 1.6562703e-39
0.02382822 -0.14655848 -0.0015171058 2.3016397e-39
0.025635965 -0.14655848 -0.0015171058 3.4079901e-39
0.027719609 -0.14855109 -0.0085107572 2.6711439e-39
-0.028641999 -0.14924385 -0.0045785196 1.5953448e-38
-0.02678863 -0.14836623 -0.0015171058 1.6506269e-38
-0.024980884 -0.14836623 -0.0015171058 1.5215533e-38
-0.0231448 -0.14752381 0.0014215223 1.4108828e-38
-0.021342207 -0.14752381 0.0014215223 1.3463097e-38
-0.019521046 -0.14665638 0.0044474117 1.2171632e-38
-0.017710574 -0.14579402 0.0074556582 1.0696498e-38
-0.015910696 -0.1449367 0.010446262 1.1341502e-38
-0.014123927 -0.1449367 0.010446262 1.3092493e-38
-0.012339764 -0.14408441 0.013419341 1.4934605e-38
-0.010558209 -0.14408441 0.013419341 1.7607559e-38
-0.0087766526 -0.14408441 0.013419341 1.7515363e-38
-0.0070138602 -0.14320792 0.016476821 1.5026079e-38
-0.0052376641 -0.14320792 0.016476821 1.4472905e-38
-0.0034907768 -0.14233668 0.019515943 1.5579608e-38
-0.0017531943 -0.14149947 0.022436451 1.5211186e-38
-2.6944093e-05 -0.14063846 0.025439929 1.4197034e-38
0.0017335359 -0.14063846 0.025439929 1.3090686e-38
0.0034940159 -0.14063846 0.025439929 8.3887121e-39
0.0052544968 -0.14063846 0.025439929 7.8362614e-39
0.0070149759 -0.14063846 0.025439929 9.6801754e-39
0.0088412827 -0.14149947 0.022436451 1.0048958e-38
0.010607027 -0.14149947 0.022436451 8.481635e-39
0.014138521 -0.14149947 0.022436451 3.9640491e-39
0.015904266 -0.14149947 0.022436451 4.2381137e-39
0.023938257 -0.14924385 -0.0045785196 1.5640775e-39
0.025751367 -0.14924385 -0.0045785196 1.4726007e-39
-0.0231448 -0.1493264 0.0014215223 1.4477613e-38
-0.021342207 -0.1493264 0.0014215223 1.2449309e-38
-0.019539617 -0.1493264 0.0014215223 1.069759e-38
-0.017723761 -0.14845367 0.0044474117 9.9603818e-39
