# .PCD v0.7 - Point Cloud Data file format
VERSION 0.7
FIELDS x y z rgb
SIZE 4 4 4 4
TYPE F F F F
COUNT 1 1 1 1
WIDTH 933
HEIGHT 1
VIEWPOINT 0 0 0 1 0 0 0
POINTS 933
DATA ascii
-0.066115268 -0.1143087 -0.00065871701 2.3508801e-38
-0.064107195 -0.11330278 0.0033958293 2.3509521e-38
-0.062266186 -0.11330278 0.0033958293 2.3509164e-38
-0.060319535 -0.11257361 0.0063349344 2.3509883e-38
-0.058483679 -0.11257361 0.0063349344 2.3509883e-38
-0.056647826 -0.11257361 0.0063349344 2.3141103e-38
-0.054811969 -0.11257361 0.0063349344 2.2772321e-38
-0.052976113 -0.11257361 0.0063349344 2.341769e-38
-0.05122013 -0.11330278 0.0033958293 2.3048542e-38
-0.049379122 -0.11330278 0.0033958293 2.3417324e-38
-0.047538113 -0.11330278 0.0033958293 2.3325131e-38
-0.045785967 -0.1143087 -0.00065871701 2.3509886e-38
-0.043937851 -0.1143087 -0.00065871701 2.3233662e-38
-0.042089731 -0.1143087 -0.00065871701 2.2681214e-38
-0.040241614 -0.1143087 -0.00065871701 2.3142544e-38
-0.03833307 -0.11330278 0.0033958293 2.2313872e-38
-0.036492061 -0.11330278 0.0033958293 2.0193378e-38
-0.034651052 -0.11330278 0.0033958293 1.6874332e-38
-0.03281004 -0.11330278 0.0033958293 1.2725529e-38
-0.030969033 -0.11330278 0.0033958293 5.81121e-39
-0.029128024 -0.11330278 0.0033958293 5.7179339e-39
-0.027287014 -0.11330278 0.0033958293 6.6402433e-39
-0.025446005 -0.11330278 0.0033958293 6.6398804e-39
0.01366105 -0.11653815 -0.0096449517 2.3044215e-38
0.015201927 -0.1143087 -0.00065871701 2.3509153e-38
0.017050046 -0.1143087 -0.00065871701 2.3508074e-38
0.019015662 -0.11504765 -0.0036371611 2.3508437e-38
0.020869002 -0.11504765 -0.0036371611 2.3509879e-38
0.022722345 -0.11504765 -0.0036371611 2.3231854e-38
0.024442516 -0.1143087 -0.00065871701 2.3417327e-38
0.026290637 -0.1143087 -0.00065871701 2.3509527e-38
0.028138753 -0.1143087 -0.00065871701 2.3509527e-38
0.054293178 -0.12174667 -0.0306389 1.4102329e-38
0.056193866 -0.12174667 -0.0306389 2.3507722e-38
0.058094546 -0.12174667 -0.0306389 2.3508802e-38
0.060226604 -0.1224993 -0.033672538 2.3509521e-38
0.062361438 -0.12322696 -0.036605444 2.3509883e-38
0.064592846 -0.12422292 -0.040619817 2.3418047e-38
0.066511028 -0.12422292 -0.040619817 2.3234018e-38
0.068429209 -0.12422292 -0.040619817 2.2681567e-38
0.07000602 -0.12322696 -0.036605444 2.2404628e-38
0.071917169 -0.12322696 -0.036605444 2.2589378e-38
0.073828317 -0.12322696 -0.036605444 2.3142544e-38
0.075474627 -0.1224993 -0.033672538 2.1760698e-38
0.077380635 -0.1224993 -0.033672538 2.2958873e-38
0.079286627 -0.1224993 -0.033672538 1.318686e-38
0.081192635 -0.1224993 -0.033672538 6.1799911e-39
-0.071937181 -0.11764936 -0.0066325329 1.0692161e-38
-0.070078589 -0.11764936 -0.0066325329 1.0599968e-38
-0.068219997 -0.11764936 -0.0066325329 1.9359273e-38
-0.066115268 -0.1161568 -0.00065871701 2.35088e-38
-0.064107195 -0.11514379 0.0033958293 2.3509879e-38
-0.062155392 -0.11440946 0.0063349344 2.3509521e-38
-0.060319535 -0.11440946 0.0063349344 2.3139658e-38
-0.058483679 -0.11440946 0.0063349344 2.3508801e-38
-0.056647826 -0.11440946 0.0063349344 2.3509883e-38
-0.054811969 -0.11440946 0.0063349344 2.3509883e-38
-0.052976113 -0.11440946 0.0063349344 2.3509883e-38
-0.05122013 -0.11514379 0.0033958293 2.350988e-38
-0.049379122 -0.11514379 0.0033958293 2.350988e-38
-0.047538113 -0.11514379 0.0033958293 2.3509883e-38
-0.045697104 -0.11514379 0.0033958293 2.3509886e-38
-0.043856096 -0.11514379 0.0033958293 2.341805e-38
-0.042015087 -0.11514379 0.0033958293 2.2312433e-38
-0.040174078 -0.11514379 0.0033958293 2.3142544e-38
-0.03833307 -0.11514379 0.0033958293 2.3142544e-38
-0.036492061 -0.11514379 0.0033958293 2.2774843e-38
-0.034651052 -0.11514379 0.0033958293 1.8902636e-38
-0.03281004 -0.11514379 0.0033958293 1.567471e-38
-0.030969033 -0.11514379 0.0033958293 8.7603911e-39
-0.029128024 -0.11514379 0.0033958293 7.6540422e-39
-0.027287014 -0.11514379 0.0033958293 8.3919603e-39
-0.025446005 -0.11514379 0.0033958293 8.5759886e-39
0.011602302 -0.11690097 -0.0036371611 2.3507365e-38
0.013455641 -0.11690097 -0.0036371611 2.3508807e-38
0.015201927 -0.1161568 -0.00065871701 2.3508807e-38
0.017050046 -0.1161568 -0.00065871701 2.3139661e-38
0.019015662 -0.11690097 -0.0036371611 2.323186e-38
0.020869002 -0.11690097 -0.0036371611 2.3509886e-38
0.022722345 -0.11690097 -0.0036371611 2.3509527e-38
0.024442516 -0.1161568 -0.00065871701 2.341805e-38
0.026290637 -0.1161568 -0.00065871701 2.3049991e-38
0.028138753 -0.1161568 -0.00065871701 2.2496825e-38
0.030135706 -0.11690097 -0.0036371611 2.3417691e-38
0.031989045 -0.11690097 -0.0036371611 2.3325497e-38
0.052392498 -0.12364738 -0.0306389 5.8976364e-39
0.054293178 -0.12364738 -0.0306389 1.3549155e-38
0.056193866 -0.12364738 -0.0306389 2.3508807e-38
0.058094546 -0.12364738 -0.0306389 2.3414453e-38
0.060226604 -0.12440531 -0.033672538 2.3139308e-38
0.062361438 -0.12513812 -0.036605444 2.2402825e-38
0.064592846 -0.12614109 -0.040619817 2.341805e-38
0.066511028 -0.12614109 -0.040619817 2.341805e-38
0.068429209 -0.12614109 -0.040619817 2.3234379e-38
0.07000602 -0.12513812 -0.036605444 2.3142544e-38
0.071917169 -0.12513812 -0.036605444 2.3142544e-38
0.07356862 -0.12440531 -0.033672538 2.3142544e-38
0.075474627 -0.12440531 -0.033672538 2.2221676e-38
0.077380635 -0.12440531 -0.033672538 2.2958873e-38
0.079286627 -0.12440531 -0.033672538 2.0655425e-38
-0.069630221 -0.1169848 0.0033958293 1.1613765e-38
-0.067789212 -0.1169848 0.0033958293 1.5946959e-38
-0.065948196 -0.1169848 0.0033958293 2.2217694e-38
-0.063991249 -0.11624531 0.0063349344 2.3509513e-38
-0.062155392 -0.11624531 0.0063349344 2.3509876e-38
-0.060319535 -0.11624531 0.0063349344 2.3509161e-38
-0.058483679 -0.11624531 0.0063349344 2.3509527e-38
-0.056647826 -0.11624531 0.0063349344 2.3509527e-38
-0.054718982 -0.11548282 0.0093654729 2.3417327e-38
-0.052888442 -0.11548282 0.0093654729 2.2956349e-38
-0.05114026 -0.11624531 0.0063349344 2.3509524e-38
-0.049379122 -0.1169848 0.0033958293 2.3509524e-38
-0.047538113 -0.1169848 0.0033958293 2.3508444e-38
-0.045697104 -0.1169848 0.0033958293 2.3324775e-38
-0.043856096 -0.1169848 0.0033958293 2.3509886e-38
-0.042015087 -0.1169848 0.0033958293 2.341805e-38
-0.040174078 -0.1169848 0.0033958293 2.3234379e-38
-0.03833307 -0.1169848 0.0033958293 2.2404625e-38
-0.036492061 -0.1169848 0.0033958293 2.3142544e-38
-0.034651052 -0.1169848 0.0033958293 2.2589736e-38
-0.03281004 -0.1169848 0.0033958293 2.3234379e-38
-0.030969033 -0.1169848 0.0033958293 2.1022048e-38
-0.029109988 -0.11624531 0.0063349344 2.0745459e-38
-0.027260847 -0.11548282 0.0093654729 2.1851083e-38
-0.025430305 -0.11548282 0.0093654729 2.2127667e-38
0.0062055541 -0.12026589 -0.0096449517 2.3508809e-38
0.0080694286 -0.12026589 -0.0096449517 2.341409e-38
0.0098408693 -0.11950795 -0.0066325329 2.3506646e-38
0.011602302 -0.11875431 -0.0036371611 2.3508809e-38
0.013455641 -0.11875431 -0.0036371611 2.3509168e-38
0.015308985 -0.11875431 -0.0036371611 2.2770526e-38
0.017162323 -0.11875431 -0.0036371611 2.3509527e-38
0.019015662 -0.11875431 -0.0036371611 2.3509527e-38
0.020869002 -0.11875431 -0.0036371611 2.2864882e-38
0.022722345 -0.11875431 -0.0036371611 2.3049991e-38
0.024442516 -0.11800493 -0.00065871701 2.3142544e-38
0.026290637 -0.11800493 -0.00065871701 2.3142544e-38
0.028138753 -0.11800493 -0.00065871701 2.3142544e-38
0.029986873 -0.11800493 -0.00065871701 2.3417691e-38
0.03183499 -0.11800493 -0.00065871701 2.3140391e-38
0.033842385 -0.11875431 -0.0036371611 2.3232585e-38
0.05022575 -0.12455635 -0.026697364 3.3172378e-39
0.052119523 -0.12455635 -0.026697364 2.8551807e-39
0.05401329 -0.12455635 -0.026697364 1.0322308e-38
0.056193866 -0.12554805 -0.0306389 2.3506643e-38
0.058094546 -0.12554805 -0.0306389 2.3508807e-38
0.060226604 -0.12631132 -0.033672538 2.3509168e-38
0.062132601 -0.12631132 -0.033672538 2.3509527e-38
0.06427259 -0.12704925 -0.036605444 2.341805e-38
0.066183738 -0.12704925 -0.036605444 2.3049991e-38
0.068094887 -0.12704925 -0.036605444 2.2865602e-38
0.07000602 -0.12704925 -0.036605444 2.286632e-38
0.071917169 -0.12704925 -0.036605444 2.3142544e-38
0.07356862 -0.12631132 -0.033672538 2.2313152e-38
0.0748448 -0.12455635 -0.026697364 2.3142544e-38
0.076738559 -0.12455635 -0.026697364 2.3142544e-38
0.078632332 -0.12455635 -0.026697364 2.2314226e-38
0.081192635 -0.12631132 -0.033672538 2.0746901e-38
-0.065948196 -0.11882581 0.0033958293 1.8253633e-38
-0.063991249 -0.11808117 0.0063349344 2.350986e-38
-0.062155392 -0.11808117 0.0063349344 2.3048169e-38
-0.060319535 -0.11808117 0.0063349344 2.3509879e-38
-0.058483679 -0.11808117 0.0063349344 2.3232227e-38
-0.056647826 -0.11808117 0.0063349344 2.3509168e-38
-0.054718982 -0.11731337 0.0093654729 2.3324775e-38
-0.052888442 -0.11731337 0.0093654729 2.3509883e-38
-0.05114026 -0.11808117 0.0063349344 2.3509168e-38
-0.049379122 -0.11882581 0.0033958293 2.3509168e-38
-0.047538113 -0.11882581 0.0033958293 2.3509168e-38
-0.045697104 -0.11882581 0.0033958293 2.3509527e-38
-0.043856096 -0.11882581 0.0033958293 2.3509527e-38
-0.042015087 -0.11882581 0.0033958293 2.3509886e-38
-0.040174078 -0.11882581 0.0033958293 2.3509883e-38
-0.03833307 -0.11882581 0.0033958293 2.3418047e-38
-0.036492061 -0.11882581 0.0033958293 2.332621e-38
-0.034617554 -0.11808117 0.0063349344 2.3418047e-38
-0.032781698 -0.11808117 0.0063349344 2.3509883e-38
-0.030945843 -0.11808117 0.0063349344 2.3509527e-38
-0.029109988 -0.11808117 0.0063349344 2.3509527e-38
-0.027260847 -0.11731337 0.0093654729 2.3324055e-38
-0.025422381 -0.11654995 0.012378607 2.3509168e-38
-0.023597121 -0.11654995 0.012378607 2.2587216e-38
-0.021771863 -0.11654995 0.012378607 2.240499e-38
-0.019946603 -0.11654995 0.012378607 2.2958873e-38
0.0024778068 -0.12212978 -0.0096449517 2.3509521e-38
0.0043416796 -0.12212978 -0.0096449517 2.3508804e-38
0.0062055541 -0.12212978 -0.0096449517 2.3508444e-38
0.0079822792 -0.12136655 -0.0066325329 2.3509158e-38
0.0098408693 -0.12136655 -0.0066325329 2.3509879e-38
0.011699461 -0.12136655 -0.0066325329 2.3509883e-38
0.013558053 -0.12136655 -0.0066325329 2.2771602e-38
0.015308985 -0.12060766 -0.0036371611 2.3509527e-38
0.017162323 -0.12060766 -0.0036371611 2.3048554e-38
0.019015662 -0.12060766 -0.0036371611 2.3234379e-38
0.020869002 -0.12060766 -0.0036371611 2.3142544e-38
0.022722345 -0.12060766 -0.0036371611 2.2683362e-38
0.024442516 -0.11985306 -0.00065871701 2.2775197e-38
0.026290637 -0.11985306 -0.00065871701 2.2314933e-38
0.028138753 -0.11985306 -0.00065871701 2.3234374e-38
0.029986873 -0.11985306 -0.00065871701 2.3325492e-38
0.03183499 -0.11985306 -0.00065871701 2.3509165e-38
0.033683106 -0.11985306 -0.00065871701 2.1569822e-38
0.050023578 -0.12569134 -0.023702469 3.5952666e-39
0.051912107 -0.12569134 -0.023702469 1.6566361e-39
0.053800628 -0.12569134 -0.023702469 7.187655e-39
0.055689149 -0.12569134 -0.023702469 2.2215899e-38
0.05757767 -0.12569134 -0.023702469 2.3509158e-38
0.059995234 -0.12744872 -0.0306389 2.3415884e-38
0.061895911 -0.12744872 -0.0306389 2.3325129e-38
0.064038612 -0.12821732 -0.033672538 2.3326208e-38
0.066183738 -0.12896039 -0.036605444 2.3234376e-38
0.068094887 -0.12896039 -0.036605444 2.2866674e-38
0.07000602 -0.12896039 -0.036605444 2.3234379e-38
0.071917169 -0.12896039 -0.036605444 2.2865958e-38
0.07356862 -0.12821732 -0.033672538 2.3234379e-38
0.0748448 -0.12645011 -0.026697364 2.341805e-38
0.076738559 -0.12645011 -0.026697364 2.3326213e-38
0.079286627 -0.12821732 -0.033672538 2.341769e-38
0.081192635 -0.12821732 -0.033672538 2.3509886e-38
-0.063991249 -0.11991702 0.0063349344 2.3509133e-38
-0.062041152 -0.11914389 0.0093654729 2.3509862e-38
-0.060210608 -0.11914389 0.0093654729 2.3509879e-38
-0.058380067 -0.11914389 0.0093654729 2.3140033e-38
-0.056549523 -0.11914389 0.0093654729 2.3509168e-38
-0.054718982 -0.11914389 0.0093654729 2.3233299e-38
-0.052888442 -0.11914389 0.0093654729 2.3509883e-38
-0.051057898 -0.11914389 0.0093654729 2.3509168e-38
-0.0493044 -0.11991702 0.0063349344 2.3509168e-38
-0.047468547 -0.11991702 0.0063349344 2.3509168e-38
-0.04563269 -0.11991702 0.0063349344 2.3509527e-38
-0.043796834 -0.11991702 0.0063349344 2.3509527e-38
-0.041960981 -0.11991702 0.0063349344 2.3509883e-38
-0.04012512 -0.11991702 0.0063349344 2.350988e-38
-0.03833307 -0.12066682 0.0033958293 2.3509879e-38
-0.036453411 -0.11991702 0.0063349344 2.3509879e-38
-0.034617554 -0.11991702 0.0063349344 2.3325846e-38
-0.032781698 -0.11991702 0.0063349344 2.3047463e-38
-0.030945843 -0.11991702 0.0063349344 2.3509521e-38
-0.029109988 -0.11991702 0.0063349344 2.3509165e-38
-0.027247641 -0.11837523 0.012378607 2.2493576e-38
-0.025422381 -0.11837523 0.012378607 2.3508809e-38
-0.023597121 -0.11837523 0.012378607 2.3509168e-38
-0.021771863 -0.11837523 0.012378607 2.323402e-38
-0.019946603 -0.11837523 0.012378607 2.2958873e-38
0.0021691311 -0.12066682 0.0033958293 2.3509521e-38
0.00401014 -0.12066682 0.0033958293 2.3508809e-38
0.005961339 -0.12170117 -0.00065871701 2.3508807e-38
0.0078956233 -0.12246101 -0.0036371611 2.3509876e-38
0.0097489627 -0.12246101 -0.0036371611 2.2311328e-38
0.011699461 -0.12322514 -0.0066325329 2.3509879e-38
0.013455641 -0.12246101 -0.0036371611 2.3509879e-38
0.015308985 -0.12246101 -0.0036371611 2.3416245e-38
0.017162323 -0.12246101 -0.0036371611 2.3232933e-38
0.018898163 -0.12170117 -0.00065871701 2.350988e-38
0.020746283 -0.12170117 -0.00065871701 2.2128743e-38
0.0225944 -0.12170117 -0.00065871701 1.6783193e-38
0.024442516 -0.12170117 -0.00065871701 7.8409361e-39
0.026290637 -0.12170117 -0.00065871701 6.9182582e-39
0.028138753 -0.12170117 -0.00065871701 4.7966825e-39
0.029986873 -0.12170117 -0.00065871701 8.9433278e-39
0.03183499 -0.12170117 -0.00065871701 1.4011931e-38
0.033683106 -0.12170117 -0.00065871701 1.6683806e-38
0.035695724 -0.12246101 -0.0036371611 1.0510305e-38
0.037719753 -0.12322514 -0.0066325329 4.0663411e-39
0.050023578 -0.12757985 -0.023702469 2.2123322e-39
0.051912107 -0.12757985 -0.023702469 3.5016277e-39
0.053800628 -0.12757985 -0.023702469 4.5143377e-39
0.055689149 -0.12757985 -0.023702469 1.8712462e-38
0.05757767 -0.12757985 -0.023702469 2.3322243e-38
0.059995234 -0.12934943 -0.0306389 2.3508434e-38
0.061895911 -0.12934943 -0.0306389 2.3509874e-38
0.064038612 -0.13012333 -0.033672538 2.3509879e-38
0.065944619 -0.13012333 -0.033672538 2.3234374e-38
0.068094887 -0.13087155 -0.036605444 2.3234374e-38
0.07000602 -0.13087155 -0.036605444 2.3234376e-38
0.071917169 -0.13087155 -0.036605444 2.2866311e-38
0.07356862 -0.13012333 -0.033672538 2.3141819e-38
0.075200699 -0.12934943 -0.0306389 2.3234015e-38
0.077101387 -0.12934943 -0.0306389 2.3509523e-38
0.07900206 -0.12934943 -0.0306389 2.3509883e-38
0.080902748 -0.12934943 -0.0306389 2.3509524e-38
-0.063991249 -0.12175287 0.0063349344 2.1296441e-38
-0.062041152 -0.12097444 0.0093654729 2.2587188e-38
-0.060210608 -0.12097444 0.0093654729 2.3509876e-38
-0.058277048 -0.12020047 0.012378607 2.3140033e-38
-0.05645179 -0.12020047 0.012378607 2.3509168e-38
-0.054626528 -0.12020047 0.012378607 2.3416971e-38
-0.05280127 -0.12020047 0.012378607 2.3325129e-38
-0.051057898 -0.12097444 0.0093654729 2.3509527e-38
-0.0493044 -0.12175287 0.0063349344 2.3509527e-38
-0.047468547 -0.12175287 0.0063349344 2.3509527e-38
-0.04563269 -0.12175287 0.0063349344 2.3509527e-38
-0.043796834 -0.12175287 0.0063349344 2.3509527e-38
-0.041905183 -0.12097444 0.0093654729 2.3509883e-38
-0.040074643 -0.12097444 0.0093654729 2.3509883e-38
-0.038289268 -0.12175287 0.0063349344 2.350988e-38
-0.036453411 -0.12175287 0.0063349344 2.350988e-38
-0.034583017 -0.12097444 0.0093654729 2.350988e-38
-0.032752473 -0.12097444 0.0093654729 2.332405e-38
-0.030921932 -0.12097444 0.0093654729 2.3508441e-38
-0.02909139 -0.12097444 0.0093654729 2.3509521e-38
-0.027247641 -0.12020047 0.012378607 2.3508807e-38
-0.025422381 -0.12020047 0.012378607 2.3508807e-38
-0.023597121 -0.12020047 0.012378607 2.3506649e-38
-0.021769222 -0.12097444 0.0093654729 2.3509168e-38
-0.019938679 -0.12097444 0.0093654729 2.2587566e-38
-0.018108137 -0.12097444 0.0093654729 2.2678672e-38
-0.016277594 -0.12097444 0.0093654729 2.3509495e-38
0.0021691311 -0.12250783 0.0033958293 2.341805e-38
0.00401014 -0.12250783 0.0033958293 2.2495385e-38
0.005961339 -0.1235493 -0.00065871701 2.3509168e-38
0.0078956233 -0.12431435 -0.0036371611 2.350952e-38
0.0097489627 -0.12431435 -0.0036371611 2.3507712e-38
0.011699461 -0.12508373 -0.0066325329 2.3509153e-38
0.013455641 -0.12431435 -0.0036371611 2.3321876e-38
0.015308985 -0.12431435 -0.0036371611 2.3507344e-38
0.017050046 -0.1235493 -0.00065871701 2.3509863e-38
0.018898163 -0.1235493 -0.00065871701 2.3416586e-38
0.020746283 -0.1235493 -0.00065871701 2.2219485e-38
0.0225944 -0.1235493 -0.00065871701 1.1618791e-38
0.024442516 -0.1235493 -0.00065871701 1.4349296e-42
0.026290637 -0.1235493 -0.00065871701 1.793662e-42
0.028138753 -0.1235493 -0.00065871701 4.9817982e-39
0.029986873 -0.1235493 -0.00065871701 1.134222e-38
0.03183499 -0.1235493 -0.00065871701 1.7240946e-38
0.033683106 -0.1235493 -0.00065871701 2.1941844e-38
0.035695724 -0.12431435 -0.0036371611 2.037704e-38
0.037719753 -0.12508373 -0.0066325329 1.4483008e-38
0.039755285 -0.12585752 -0.0096449517 6.6489006e-39
0.041619159 -0.12585752 -0.0096449517 9.3096665e-40
0.050023578 -0.1294684 -0.023702469 2.2126923e-39
0.051634707 -0.12843956 -0.019697156 2.0272164e-39
0.053516209 -0.12843956 -0.019697156 4.7916434e-39
0.055397704 -0.12843956 -0.019697156 1.668488e-38
0.057279207 -0.12843956 -0.019697156 2.2493204e-38
0.059694611 -0.13023765 -0.026697364 2.3509517e-38
0.061895911 -0.1312501 -0.0306389 2.3508798e-38
0.063796602 -0.1312501 -0.0306389 2.3418042e-38
0.065944619 -0.13202934 -0.033672538 2.2680838e-38
0.067850612 -0.13202934 -0.033672538 2.2774116e-38
0.06975662 -0.13202934 -0.033672538 2.3234376e-38
0.071662627 -0.13202934 -0.033672538 2.3234376e-38
0.073300011 -0.1312501 -0.0306389 2.3418047e-38
0.075200699 -0.1312501 -0.0306389 2.332621e-38
0.077101387 -0.1312501 -0.0306389 2.3509883e-38
0.07900206 -0.1312501 -0.0306389 2.3509883e-38
0.080902748 -0.1312501 -0.0306389 2.3509524e-38
-0.063991249 -0.12358873 0.0063349344 1.8438019e-38
-0.062041152 -0.12280498 0.0093654729 1.9821319e-38
-0.060210608 -0.12280498 0.0093654729 2.3324404e-38
-0.058277048 -0.12202574 0.012378607 2.3232585e-38
-0.05645179 -0.12202574 0.012378607 2.3509168e-38
-0.054626528 -0.12202574 0.012378607 2.3417327e-38
-0.05280127 -0.12202574 0.012378607 2.3232933e-38
-0.050976012 -0.12202574 0.012378607 2.3509527e-38
-0.049227353 -0.12280498 0.0093654729 2.3509527e-38
-0.047396813 -0.12280498 0.0093654729 2.3509527e-38
-0.045566272 -0.12280498 0.0093654729 2.3509886e-38
-0.043735728 -0.12280498 0.0093654729 2.3509886e-38
-0.041905183 -0.12280498 0.0093654729 2.3509886e-38
-0.040074643 -0.12280498 0.0093654729 2.3509886e-38
-0.038244102 -0.12280498 0.0093654729 2.3509886e-38
-0.036413562 -0.12280498 0.0093654729 2.2219147e-38
-0.034583017 -0.12280498 0.0093654729 2.3509883e-38
-0.032752473 -0.12280498 0.0093654729 2.3509524e-38
-0.030921932 -0.12280498 0.0093654729 2.3509521e-38
-0.02909139 -0.12280498 0.0093654729 2.3508442e-38
-0.027247641 -0.12202574 0.012378607 2.3507002e-38
-0.025422381 -0.12202574 0.012378607 2.332189e-38
-0.023597121 -0.12202574 0.012378607 2.3506635e-38
-0.021769222 -0.12280498 0.0093654729 2.3509151e-38
-0.019930709 -0.12358873 0.0063349344 2.3509504e-38
-0.018108137 -0.12280498 0.0093654729 2.3509146e-38
-0.016277594 -0.12280498 0.0093654729 2.2952706e-38
-0.0088769235 -0.12434883 0.0033958293 1.5578201e-38
-0.0071697878 -0.12202574 0.012378607 1.1615598e-38
-0.0053445278 -0.12202574 0.012378607 6.1789135e-39
-0.001633256 -0.12280498 0.0093654729 2.2775164e-38
0.00019728648 -0.12280498 0.0093654729 2.2407138e-38
0.0020995613 -0.12358873 0.0063349344 2.2867037e-38
0.00401014 -0.12434883 0.0033958293 2.3142544e-38
0.005961339 -0.1253974 -0.00065871701 2.2864167e-38
0.0078956233 -0.12616767 -0.0036371611 2.3506286e-38
0.0097489627 -0.12616767 -0.0036371611 7.8312167e-39
0.011602302 -0.12616767 -0.0036371611 1.3178195e-38
0.013455641 -0.12616767 -0.0036371611 2.350878e-38
0.015308985 -0.12616767 -0.0036371611 2.3509129e-38
0.017050046 -0.1253974 -0.00065871701 2.3509125e-38
0.018898163 -0.1253974 -0.00065871701 2.3044904e-38
0.020746283 -0.1253974 -0.00065871701 1.6777407e-38
0.0225944 -0.1253974 -0.00065871701 1.2078318e-38
0.024442516 -0.1253974 -0.00065871701 1.2921597e-39
0.026102249 -0.12434883 0.0033958293 3.8754507e-39
0.027943257 -0.12434883 0.0033958293 2.2130551e-38
0.029986873 -0.1253974 -0.00065871701 2.2867037e-38
0.03183499 -0.1253974 -0.00065871701 2.2867037e-38
0.033842385 -0.12616767 -0.0036371611 2.2958873e-38
0.035695724 -0.12616767 -0.0036371611 2.1854334e-38
0.037719753 -0.12694232 -0.0066325329 2.1211846e-38
0.039755285 -0.12772138 -0.0096449517 1.4298614e-38
0.041619159 -0.12772138 -0.0096449517 1.0609348e-38
0.043483034 -0.12772138 -0.0096449517 8.026426e-39
0.045605667 -0.12876706 -0.013688292 8.8543832e-39
0.047476627 -0.12876706 -0.013688292 9.1288093e-39
0.049546003 -0.12952723 -0.016627636 1.5673229e-39
0.051422127 -0.12952723 -0.016627636 5.5280664e-40
0.053516209 -0.13032107 -0.019697156 3.962603e-39
0.055397704 -0.13032107 -0.019697156 1.3366557e-38
0.057279207 -0.13032107 -0.019697156 1.9728056e-38
0.059466191 -0.13135691 -0.023702469 2.350952e-38
0.06158838 -0.13213144 -0.026697364 2.3416603e-38
0.063482158 -0.13213144 -0.026697364 2.350988e-38
0.06569729 -0.13315077 -0.0306389 2.31411e-38
0.067850612 -0.13393532 -0.033672538 2.3418047e-38
0.06975662 -0.13393532 -0.033672538 2.2774116e-38
0.071662627 -0.13393532 -0.033672538 2.3050703e-38
0.072951026 -0.13213144 -0.026697364 2.3418047e-38
0.0748448 -0.13213144 -0.026697364 2.2957428e-38
0.077101387 -0.13315077 -0.0306389 2.3417327e-38
0.07900206 -0.13315077 -0.0306389 2.314074e-38
0.080902748 -0.13315077 -0.0306389 2.3508444e-38
0.079886056 -0.1253974 -0.00065871701 1.1523012e-38
0.081734173 -0.1253974 -0.00065871701 6.7281202e-39
0.083582304 -0.1253974 -0.00065871701 7.0047071e-39
-0.061927564 -0.12385099 0.012378607 1.7793015e-38
-0.060102306 -0.12385099 0.012378607 2.3416597e-38
-0.058174625 -0.123071 0.015374336 2.3509168e-38
-0.056354616 -0.123071 0.015374336 2.3509168e-38
-0.05453461 -0.123071 0.015374336 2.3416245e-38
-0.052714605 -0.123071 0.015374336 2.3509879e-38
-0.050976012 -0.12385099 0.012378607 2.3509883e-38
-0.049150754 -0.12385099 0.012378607 2.3509886e-38
-0.047325492 -0.12385099 0.012378607 2.3509886e-38
-0.04550023 -0.12385099 0.012378607 2.3509886e-38
-0.043674972 -0.12385099 0.012378607 2.3509886e-38
-0.041849714 -0.12385099 0.012378607 2.341805e-38
-0.040024456 -0.12385099 0.012378607 2.341805e-38
-0.038199198 -0.12385099 0.012378607 2.3509527e-38
-0.036373936 -0.12385099 0.012378607 2.3509886e-38
-0.034548678 -0.12385099 0.012378607 2.3232583e-38
-0.032723419 -0.12385099 0.012378607 2.3509524e-38
-0.030921932 -0.12463553 0.0093654729 2.3508081e-38
-0.02909139 -0.12463553 0.0093654729 1.8805023e-38
-0.027247641 -0.12385099 0.012378607 1.2443159e-38
-0.025422381 -0.12385099 0.012378607 1.3456948e-38
-0.023597121 -0.12385099 0.012378607 2.0463086e-38
-0.021769222 -0.12463553 0.0093654729 2.2398093e-38
-0.019930709 -0.12542458 0.0063349344 2.3509123e-38
-0.018108137 -0.12463553 0.0093654729 2.3506621e-38
-0.016277594 -0.12463553 0.0093654729 1.428379e-38
-0.014447051 -0.12463553 0.0093654729 1.1889513e-38
-0.012519842 -0.12724553 -0.00065871701 1.9911623e-38
-0.010717932 -0.12618984 0.0033958293 2.3507341e-38
-0.0089554237 -0.12463553 0.0093654729 1.3825405e-38
-0.0071697878 -0.12385099 0.012378607 4.4239847e-39
-0.0053445278 -0.12385099 0.012378607 4.2428052e-39
-0.0034637984 -0.12463553 0.0093654729 6.4604722e-39
-0.001633256 -0.12463553 0.0093654729 2.0475288e-38
0.00019728648 -0.12463553 0.0093654729 2.2499695e-38
0.0020995613 -0.12542458 0.0063349344 2.2591172e-38
0.00401014 -0.12618984 0.0033958293 2.2131277e-38
0.005961339 -0.12724553 -0.00065871701 2.3234379e-38
0.0078956233 -0.12802102 -0.0036371611 2.3508451e-38
0.0097489627 -0.12802102 -0.0036371611 6.1695402e-39
0.011602302 -0.12802102 -0.0036371611 8.7502821e-39
0.013455641 -0.12802102 -0.0036371611 2.2763641e-38
0.015308985 -0.12802102 -0.0036371611 2.3505511e-38
0.017050046 -0.12724553 -0.00065871701 2.3509102e-38
0.018898163 -0.12724553 -0.00065871701 2.350802e-38
0.020746283 -0.12724553 -0.00065871701 1.8711335e-38
0.0225944 -0.12724553 -0.00065871701 1.3827503e-38
0.024442516 -0.12724553 -0.00065871701 1.4754678e-39
0.026102249 -0.12618984 0.0033958293 3.505229e-39
0.027943257 -0.12618984 0.0033958293 2.2867037e-38
0.029986873 -0.12724553 -0.00065871701 2.1855053e-38
0.03183499 -0.12724553 -0.00065871701 2.2132353e-38
0.033842385 -0.12802102 -0.0036371611 2.2040159e-38
0.035695724 -0.12802102 -0.0036371611 2.2499695e-38
0.037719753 -0.12880091 -0.0066325329 2.1210407e-38
0.039578345 -0.12880091 -0.0066325329 1.7798447e-38
0.041619159 -0.12958528 -0.0096449517 1.2265986e-38
0.043483034 -0.12958528 -0.0096449517 9.3153628e-39
0.045346908 -0.12958528 -0.0096449517 9.1295282e-39
0.047210775 -0.12958528 -0.0096449517 5.8097638e-39
0.049347594 -0.13063805 -0.013688292 2.4896351e-39
0.051422127 -0.13140334 -0.016627636 1.198176e-39
0.053516209 -0.13220255 -0.019697156 2.6736621e-39
0.055397704 -0.13220255 -0.019697156 1.097019e-38
0.057279207 -0.13220255 -0.019697156 1.6778517e-38
0.059466191 -0.13324542 -0.023702469 2.3509879e-38
0.06158838 -0.1340252 -0.026697364 2.3508441e-38
0.063482158 -0.1340252 -0.026697364 2.3509524e-38
0.065375932 -0.1340252 -0.026697364 2.3232936e-38
0.067597963 -0.13505147 -0.0306389 2.3509886e-38
0.069498651 -0.13505147 -0.0306389 2.3418047e-38
0.071399339 -0.13505147 -0.0306389 2.3050703e-38
0.072951026 -0.1340252 -0.026697364 2.3418047e-38
0.0748448 -0.1340252 -0.026697364 2.3141819e-38
0.076738559 -0.1340252 -0.026697364 2.3509883e-38
0.078632332 -0.1340252 -0.026697364 2.3509883e-38
0.078896634 -0.12958528 -0.0096449517 2.3508804e-38
0.079886056 -0.12724553 -0.00065871701 1.1707403e-38
0.081734173 -0.12724553 -0.00065871701 7.4656852e-39
0.083582304 -0.12724553 -0.00065871701 7.3734896e-39
0.085430421 -0.12724553 -0.00065871701 6.4522522e-39
-0.061927564 -0.12567626 0.012378607 1.7239844e-38
-0.060102306 -0.12567626 0.012378607 2.3509873e-38
-0.058174625 -0.124891 0.015374336 2.3509524e-38
-0.056354616 -0.124891 0.015374336 2.3508807e-38
-0.054413956 -0.12386028 0.019306574 2.3232211e-38
-0.052600842 -0.12386028 0.019306574 2.3509879e-38
-0.050894596 -0.124891 0.015374336 2.350988e-38
-0.049150754 -0.12567626 0.012378607 2.3509883e-38
-0.047325492 -0.12567626 0.012378607 2.3509883e-38
-0.045434576 -0.124891 0.015374336 2.3509886e-38
-0.04361457 -0.124891 0.015374336 2.341805e-38
-0.041849714 -0.12567626 0.012378607 2.341805e-38
-0.040024456 -0.12567626 0.012378607 2.341805e-38
-0.038199198 -0.12567626 0.012378607 2.341805e-38
-0.036373936 -0.12567626 0.012378607 2.3508809e-38
-0.034548678 -0.12567626 0.012378607 1.9821347e-38
-0.032723419 -0.12567626 0.012378607 1.8529164e-38
-0.030898158 -0.12567626 0.012378607 1.5209395e-38
-0.02909139 -0.12646608 0.0093654729 9.8616842e-39
-0.027247641 -0.12567626 0.012378607 1.6559088e-39
-0.025422381 -0.12567626 0.012378607 3.6834868e-39
-0.023597121 -0.12567626 0.012378607 1.2718642e-38
-0.021769222 -0.12646608 0.0093654729 1.7971609e-38
-0.019930709 -0.12726043 0.0063349344 1.7325876e-38
-0.018094853 -0.12726043 0.0063349344 1.7693234e-38
-0.016277594 -0.12646608 0.0093654729 1.3729523e-38
-0.014447051 -0.12646608 0.0093654729 1.1980993e-38
-0.012519842 -0.12909363 -0.00065871701 1.4562481e-38
-0.010717932 -0.12803085 0.0033958293 2.0370156e-38
-0.0089554237 -0.12646608 0.0093654729 1.7513214e-38
-0.0071248822 -0.12646608 0.0093654729 8.1117945e-39
-0.0052943388 -0.12646608 0.0093654729 3.9665729e-39
-0.0034637984 -0.12646608 0.0093654729 2.7722981e-39
-0.001633256 -0.12646608 0.0093654729 1.0425623e-38
0.00019728648 -0.12646608 0.0093654729 8.8558378e-39
0.0020995613 -0.12726043 0.0063349344 5.8126827e-39
0.00401014 -0.12803085 0.0033958293 6.2743629e-39
0.0058511486 -0.12803085 0.0033958293 5.9019735e-39
0.0078094555 -0.12909363 -0.00065871701 7.3699065e-39
0.0097489627 -0.12987436 -0.0036371611 3.7710231e-39
0.011602302 -0.12987436 -0.0036371611 5.5216372e-39
0.013455641 -0.12987436 -0.0036371611 1.5017402e-38
0.015308985 -0.12987436 -0.0036371611 2.1471431e-38
0.017162323 -0.12987436 -0.0036371611 2.3504044e-38
0.018898163 -0.12909363 -0.00065871701 2.3039824e-38
0.020746283 -0.12909363 -0.00065871701 1.9815508e-38
0.0225944 -0.12909363 -0.00065871701 1.5023158e-38
0.024442516 -0.12909363 -0.00065871701 2.0264794e-39
0.026290637 -0.12909363 -0.00065871701 9.6808943e-39
0.028138753 -0.12909363 -0.00065871701 2.2867037e-38
0.029986873 -0.12909363 -0.00065871701 2.2131636e-38
0.03183499 -0.12909363 -0.00065871701 1.9367216e-38
0.033842385 -0.12987436 -0.0036371611 1.4758152e-38
0.035695724 -0.12987436 -0.0036371611 1.4664514e-38
0.037719753 -0.13065951 -0.0066325329 1.4846747e-38
0.039578345 -0.13065951 -0.0066325329 1.8994109e-38
0.041619159 -0.13144915 -0.0096449517 1.890191e-38
0.043483034 -0.13144915 -0.0096449517 4.426835e-39
0.045346908 -0.13144915 -0.0096449517 4.7034163e-39
0.047210775 -0.13144915 -0.0096449517 1.0234431e-38
0.049347594 -0.13250901 -0.013688292 5.0714729e-39
0.051422127 -0.13327946 -0.016627636 3.5873241e-43
0.053516209 -0.13408406 -0.019697156 2.0286528e-39
0.055397704 -0.13408406 -0.019697156 1.0510291e-38
0.057279207 -0.13408406 -0.019697156 1.5027521e-38
0.059466191 -0.13513394 -0.023702469 2.3509521e-38
0.06158838 -0.13591899 -0.026697364 2.3509524e-38
0.063482158 -0.13591899 -0.026697364 2.3508444e-38
0.065375932 -0.13591899 -0.026697364 2.3139664e-38
0.067269705 -0.13591899 -0.026697364 2.3324775e-38
0.069163479 -0.13591899 -0.026697364 2.2404254e-38
0.071057253 -0.13591899 -0.026697364 1.9270682e-38
0.072951026 -0.13591899 -0.026697364 1.9914972e-38
0.0748448 -0.13591899 -0.026697364 2.0652537e-38
0.076738559 -0.13591899 -0.026697364 2.2864153e-38
0.077412046 -0.13250901 -0.013688292 2.3509883e-38
0.078896634 -0.13144915 -0.0096449517 2.2863074e-38
0.079886056 -0.12909363 -0.00065871701 1.0324469e-38
0.081734173 -0.12909363 -0.00065871701 7.5578808e-39
0.083582304 -0.12909363 -0.00065871701 7.6500765e-39
0.085430421 -0.12909363 -0.00065871701 6.5444478e-39
-0.061927564 -0.1275015 0.012378607 1.604238e-38
-0.060102306 -0.1275015 0.012378607 2.2864499e-38
-0.058174625 -0.126711 0.015374336 2.3509518e-38
-0.056354616 -0.126711 0.015374336 2.3509521e-38
-0.054413956 -0.1256734 0.019306574 2.35088e-38
-0.052600842 -0.1256734 0.019306574 2.3509879e-38
-0.050894596 -0.126711 0.015374336 2.3509879e-38
-0.04907459 -0.126711 0.015374336 2.3509879e-38
-0.047254581 -0.126711 0.015374336 2.3418047e-38
-0.045434576 -0.126711 0.015374336 2.341805e-38
-0.04361457 -0.126711 0.015374336 2.341805e-38
-0.041794565 -0.126711 0.015374336 2.341805e-38
-0.039974555 -0.126711 0.015374336 2.3417691e-38
-0.038199198 -0.1275015 0.012378607 2.3417691e-38
-0.036373936 -0.1275015 0.012378607 2.3509168e-38
-0.034548678 -0.1275015 0.012378607 1.806963e-38
-0.032723419 -0.1275015 0.012378607 1.5763295e-38
-0.030898158 -0.1275015 0.012378607 1.1337179e-38
-0.029072899 -0.1275015 0.012378607 9.8616814e-39
-0.027247641 -0.1275015 0.012378607 3.4076202e-39
-0.025422381 -0.1275015 0.012378607 5.6195894e-39
-0.023597121 -0.1275015 0.012378607 1.3271813e-38
-0.021769222 -0.1282966 0.0093654729 1.5297936e-38
-0.019922979 -0.12987186 0.0033958293 1.6404627e-38
-0.018094853 -0.12909628 0.0063349344 1.6403901e-38
-0.016258996 -0.12909628 0.0063349344 9.5814217e-39
-0.01442314 -0.12909628 0.0063349344 7.6453163e-39
-0.012558942 -0.12987186 0.0033958293 1.1518623e-38
-0.010717932 -0.12987186 0.0033958293 1.981733e-38
-0.0089554237 -0.1282966 0.0093654729 1.8344736e-38
-0.0071697878 -0.1275015 0.012378607 1.7978488e-38
-0.0053445278 -0.1275015 0.012378607 1.1250377e-38
-0.0034637984 -0.1282966 0.0093654729 4.7066491e-39
-0.001633256 -0.1282966 0.0093654729 6.1828651e-39
0.00019728648 -0.1282966 0.0093654729 9.5015561e-39
0.0020278289 -0.1282966 0.0093654729 6.6434972e-39
0.0039354181 -0.12909628 0.0063349344 2.4014248e-39
0.0058511486 -0.12987186 0.0033958293 5.071145e-39
0.0078094555 -0.13094176 -0.00065871701 1.0320538e-38
0.0096575739 -0.13094176 -0.00065871701 4.4167652e-39
0.011602302 -0.13172771 -0.0036371611 3.678089e-39
0.013353811 -0.13094176 -0.00065871701 1.2989095e-38
0.015201927 -0.13094176 -0.00065871701 1.6768365e-38
0.017162323 -0.13172771 -0.0036371611 2.054837e-38
0.018898163 -0.13094176 -0.00065871701 2.3499349e-38
0.020746283 -0.13094176 -0.00065871701 2.0458347e-38
0.0225944 -0.13094176 -0.00065871701 1.6219532e-38
0.024442516 -0.13094176 -0.00065871701 3.3146902e-39
0.026102249 -0.12987186 0.0033958293 1.2260931e-38
0.027943257 -0.12987186 0.0033958293 2.1021691e-38
0.029986873 -0.13094176 -0.00065871701 2.0563239e-38
0.03183499 -0.13094176 -0.00065871701 1.4664517e-38
0.033842385 -0.13172771 -0.0036371611 1.1715333e-38
0.035695724 -0.13172771 -0.0036371611 1.2451453e-38
0.037549064 -0.13172771 -0.0036371611 1.1985799e-38
0.039578345 -0.1325181 -0.0066325329 1.9913543e-38
0.041619159 -0.13331302 -0.0096449517 1.954476e-38
0.043483034 -0.13331302 -0.0096449517 4.7941756e-39
0.045346908 -0.13331302 -0.0096449517 4.240999e-39
0.047210775 -0.13331302 -0.0096449517 5.3480626e-39
0.049347594 -0.13437997 -0.013688292 5.9012336e-39
0.051422127 -0.13515557 -0.016627636 2.7765888e-40
0.053516209 -0.13596557 -0.019697156 7.1746481e-43
0.055397704 -0.13596557 -0.019697156 9.3121103e-39
0.057279207 -0.13596557 -0.019697156 1.2354568e-38
0.059466191 -0.13702248 -0.023702469 2.286415e-38
0.06158838 -0.13781275 -0.026697364 2.3231857e-38
0.063482158 -0.13781275 -0.026697364 2.175673e-38
0.065375932 -0.13781275 -0.026697364 2.2585774e-38
0.067269705 -0.13781275 -0.026697364 2.323186e-38
0.069163479 -0.13781275 -0.026697364 2.0929124e-38
0.071057253 -0.13781275 -0.026697364 1.6873595e-38
0.072685845 -0.13702248 -0.023702469 1.8624233e-38
0.074574359 -0.13702248 -0.023702469 1.9638385e-38
0.076738559 -0.13781275 -0.026697364 2.1204632e-38
0.077412046 -0.13437997 -0.013688292 2.2587566e-38
0.078896634 -0.13331302 -0.0096449517 2.2494292e-38
0.080175899 -0.13172771 -0.0036371611 1.0232273e-38
0.082029231 -0.13172771 -0.0036371611 7.281294e-39
0.083882578 -0.13172771 -0.0036371611 7.9266634e-39
0.08573591 -0.13172771 -0.0036371611 7.0976216e-39
-0.061814636 -0.12853102 0.015374336 1.4566893e-38
-0.059994631 -0.12853102 0.015374336 2.1020587e-38
-0.058040179 -0.12748651 0.019306574 2.2955619e-38
-0.056227069 -0.12748651 0.019306574 2.3509876e-38
-0.054320022 -0.1266733 0.022367988 2.350952e-38
-0.052512277 -0.1266733 0.022367988 2.3416603e-38
-0.050894596 -0.12853102 0.015374336 2.3509876e-38
-0.04907459 -0.12853102 0.015374336 2.3509876e-38
-0.047254581 -0.12853102 0.015374336 2.3418045e-38
-0.045434576 -0.12853102 0.015374336 2.341805e-38
-0.04361457 -0.12853102 0.015374336 2.341805e-38
-0.041794565 -0.12853102 0.015374336 2.341805e-38
-0.039974555 -0.12853102 0.015374336 2.3417691e-38
-0.03815455 -0.12853102 0.015374336 2.3509168e-38
-0.036334541 -0.12853102 0.015374336 2.3140033e-38
-0.034514535 -0.12853102 0.015374336 1.5303404e-38
-0.03269453 -0.12853102 0.015374336 1.35506e-38
-0.030898158 -0.12932678 0.012378607 1.0323025e-38
-0.029072899 -0.12932678 0.012378607 1.0138268e-38
-0.027247641 -0.12932678 0.012378607 1.3793261e-39
-0.025422381 -0.12932678 0.012378607 3.315056e-39
-0.023597121 -0.12932678 0.012378607 1.1981074e-38
-0.021769222 -0.13012715 0.0093654729 1.3271074e-38
-0.019922979 -0.13171287 0.0033958293 1.1704089e-38
-0.018094853 -0.13093217 0.0063349344 1.2810062e-38
-0.016258996 -0.13093217 0.0063349344 9.398108e-39
-0.01442314 -0.13093217 0.0063349344 5.2482551e-39
-0.012558942 -0.13171287 0.0033958293 3.3132525e-39
-0.010751428 -0.13093217 0.0063349344 1.3917165e-38
-0.0089554237 -0.13012715 0.0093654729 2.046594e-38
-0.0071697878 -0.12932678 0.012378607 1.9084462e-38
-0.0053445278 -0.12932678 0.012378607 1.9086642e-38
-0.0035192699 -0.12932678 0.012378607 1.3924075e-38
-0.0016940099 -0.12932678 0.012378607 2.4929002e-39
0.00013124826 -0.12932678 0.012378607 4.1531249e-39
0.0019565083 -0.12932678 0.012378607 1.2266338e-38
0.0039354181 -0.13093217 0.0063349344 1.1527708e-38
0.0058511486 -0.13171287 0.0033958293 1.1615959e-38
0.0078094555 -0.13278987 -0.00065871701 1.2257376e-38
0.0096575739 -0.13278987 -0.00065871701 8.842887e-39
0.011602302 -0.13358103 -0.0036371611 4.3245458e-39
0.013353811 -0.13278987 -0.00065871701 9.4863842e-39
0.015201927 -0.13278987 -0.00065871701 1.1789801e-38
0.017050046 -0.13278987 -0.00065871701 1.5293217e-38
0.018898163 -0.13278987 -0.00065871701 2.0364332e-38
0.020746283 -0.13278987 -0.00065871701 1.9443106e-38
0.0225944 -0.13278987 -0.00065871701 1.612589e-38
0.024442516 -0.13278987 -0.00065871701 3.8660591e-39
0.026102249 -0.13171287 0.0033958293 9.216312e-39
0.027943257 -0.13171287 0.0033958293 1.8254019e-38
0.029986873 -0.13278987 -0.00065871701 1.6965805e-38
0.031989045 -0.13358103 -0.0036371611 8.8547475e-39
0.033842385 -0.13358103 -0.0036371611 1.1990474e-38
0.035695724 -0.13358103 -0.0036371611 1.5953444e-38
0.037549064 -0.13358103 -0.0036371611 1.5210484e-38
0.039402407 -0.13358103 -0.0036371611 1.7606131e-38
0.041436933 -0.13437669 -0.0066325329 1.6593058e-38
0.043483034 -0.13517688 -0.0096449517 2.948821e-39
0.045346908 -0.13517688 -0.0096449517 4.8860054e-39
0.047210775 -0.13517688 -0.0096449517 4.4257434e-39
0.049347594 -0.13625093 -0.013688292 3.5963428e-39
0.051634707 -0.13784705 -0.019697156 7.1746481e-43
0.053800628 -0.13891099 -0.023702469 7.1746481e-43
0.055689149 -0.13891099 -0.023702469 9.3128292e-39
0.05757767 -0.13891099 -0.023702469 1.0418459e-38
0.059694611 -0.13970654 -0.026697364 2.0467427e-38
0.06158838 -0.13970654 -0.026697364 1.9821342e-38
0.063482158 -0.13970654 -0.026697364 1.7423535e-38
0.065375932 -0.13970654 -0.026697364 1.8897949e-38
0.067269705 -0.13970654 -0.026697364 1.9820621e-38
0.069163479 -0.13970654 -0.026697364 1.7056908e-38
0.071057253 -0.13970654 -0.026697364 1.3277966e-38
0.072685845 -0.13891099 -0.023702469 1.595056e-38
0.074574359 -0.13891099 -0.023702469 1.6227147e-38
0.076462887 -0.13891099 -0.023702469 1.576509e-38
0.077412046 -0.13625093 -0.013688292 1.659485e-38
0.079283006 -0.13625093 -0.013688292 1.7423532e-38
0.079886056 -0.13278987 -0.00065871701 6.2678609e-39
0.081734173 -0.13278987 -0.00065871701 6.9125114e-39
0.083882578 -0.13358103 -0.0036371611 8.1110546e-39
-0.061814636 -0.13035102 0.015374336 1.4013722e-38
-0.059853293 -0.1292996 0.019306574 1.6963979e-38
-0.058040179 -0.1292996 0.019306574 2.350987e-38
-0.056127764 -0.12848105 0.022367988 2.313965e-38
-0.054320022 -0.12848105 0.022367988 2.3509161e-38
-0.052512277 -0.12848105 0.022367988 2.350952e-38
-0.050894596 -0.13035102 0.015374336 2.3509876e-38
-0.04907459 -0.13035102 0.015374336 2.3509876e-38
-0.047254581 -0.13035102 0.015374336 2.350988e-38
-0.045434576 -0.13035102 0.015374336 2.3325492e-38
-0.04361457 -0.13035102 0.015374336 2.304927e-38
-0.041794565 -0.13035102 0.015374336 2.2035123e-38
-0.039974555 -0.13035102 0.015374336 2.1665268e-38
-0.03815455 -0.13035102 0.015374336 2.2310638e-38
-0.036334541 -0.13035102 0.015374336 2.0650753e-38
-0.034514535 -0.13035102 0.015374336 1.3643883e-38
-0.03269453 -0.13035102 0.015374336 1.1061318e-38
-0.030874522 -0.13035102 0.015374336 1.0323025e-38
-0.029072899 -0.13115202 0.012378607 7.9255732e-39
-0.027247641 -0.13115202 0.012378607 1.564432e-39
-0.025422381 -0.13115202 0.012378607 2.6704082e-39
-0.023597121 -0.13115202 0.012378607 9.7701794e-39
-0.021769222 -0.13195769 0.0093654729 1.0507369e-38
-0.019922979 -0.13355388 0.0033958293 1.0691746e-38
-0.018094853 -0.13276802 0.0063349344 1.2166502e-38
-0.016258996 -0.13276802 0.0063349344 8.7541904e-39
-0.01442314 -0.13276802 0.0063349344 5.34225e-39
-0.012558942 -0.13355388 0.0033958293 2.4845806e-39
-0.010751428 -0.13276802 0.0063349344 4.8830809e-39
-0.0089554237 -0.13195769 0.0093654729 1.7884111e-38
-0.0071697878 -0.13115202 0.012378607 1.8069955e-38
-0.0053445278 -0.13115202 0.012378607 1.8992651e-38
-0.0035192699 -0.13115202 0.012378607 1.6319717e-38
-0.0016940099 -0.13115202 0.012378607 4.98002e-39
0.00013124826 -0.13115202 0.012378607 3.4130432e-39
0.0019565083 -0.13115202 0.012378607 1.2540048e-38
0.0039354181 -0.13276802 0.0063349344 1.484351e-38
0.0058511486 -0.13355388 0.0033958293 1.428855e-38
0.0078094555 -0.134638 -0.00065871701 1.4194573e-38
0.0096575739 -0.134638 -0.00065871701 6.1724647e-39
0.01150569 -0.134638 -0.00065871701 3.8653767e-39
0.013353811 -0.134638 -0.00065871701 5.9847594e-39
0.015201927 -0.134638 -0.00065871701 6.9967169e-39
0.017050046 -0.134638 -0.00065871701 1.0868548e-38
0.018898163 -0.134638 -0.00065871701 1.6860542e-38
0.020746283 -0.134638 -0.00065871701 1.9073604e-38
0.0225944 -0.134638 -0.00065871701 1.483371e-38
0.024442516 -0.134638 -0.00065871701 3.4958473e-39
0.026290637 -0.134638 -0.00065871701 9.5822092e-39
0.028138753 -0.134638 -0.00065871701 1.6961112e-38
0.029986873 -0.134638 -0.00065871701 1.5580345e-38
0.031989045 -0.13543437 -0.0036371611 1.1710287e-38
0.033842385 -0.13543437 -0.0036371611 1.3279761e-38
0.035695724 -0.13543437 -0.0036371611 1.6597006e-38
0.037549064 -0.13543437 -0.0036371611 1.4563673e-38
0.039402407 -0.13543437 -0.0036371611 1.4562594e-38
0.041436933 -0.13623528 -0.0066325329 1.3180019e-38
0.043295525 -0.13623528 -0.0066325329 5.3441067e-39
0.045154117 -0.13623528 -0.0066325329 6.8210347e-39
0.047012709 -0.13623528 -0.0066325329 5.2547852e-39
0.048871301 -0.13623528 -0.0066325329 1.2910919e-39
0.052119523 -0.1416003 -0.026697364 7.1746481e-43
0.053800628 -0.14079951 -0.023702469 7.1746481e-43
0.055397704 -0.13972856 -0.019697156 7.1008558e-39
0.057279207 -0.13972856 -0.019697156 1.0787605e-38
0.059694611 -0.1416003 -0.026697364 1.7701558e-38
0.06158838 -0.1416003 -0.026697364 1.8991581e-38
0.063482158 -0.1416003 -0.026697364 1.7054752e-38
0.065375932 -0.1416003 -0.026697364 1.8068185e-38
0.067269705 -0.1416003 -0.026697364 1.8345491e-38
0.069163479 -0.1416003 -0.026697364 1.595056e-38
0.071057253 -0.1416003 -0.026697364 1.3093572e-38
0.072685845 -0.14079951 -0.023702469 1.6042753e-38
0.074574359 -0.14079951 -0.023702469 1.6503731e-38
0.076462887 -0.14079951 -0.023702469 1.3828979e-38
0.078632332 -0.1416003 -0.026697364 1.4935326e-38
0.080526106 -0.1416003 -0.026697364 1.4104487e-38
0.079886056 -0.134638 -0.00065871701 8.8493357e-39
0.081734173 -0.134638 -0.00065871701 7.742628e-39
0.083582304 -0.134638 -0.00065871701 8.8489756e-39
-0.061666403 -0.13111271 0.019306574 1.4290674e-38
-0.059853293 -0.13111271 0.019306574 1.6042026e-38
-0.05793551 -0.13028879 0.022367988 2.3140365e-38
-0.056127764 -0.13028879 0.022367988 2.350843e-38
-0.054229856 -0.1294979 0.025306616 2.3509161e-38
-0.052427262 -0.1294979 0.025306616 2.1664168e-38
-0.050787732 -0.13111271 0.019306574 1.917668e-38
-0.048974622 -0.13111271 0.019306574 1.9545822e-38
-0.047254581 -0.13217102 0.015374336 1.9360715e-38
-0.045434576 -0.13217102 0.015374336 1.871571e-38
-0.04361457 -0.13217102 0.015374336 1.8070346e-38
-0.041794565 -0.13217102 0.015374336 1.6687775e-38
-0.039974555 -0.13217102 0.015374336 1.6133884e-38
-0.03815455 -0.13217102 0.015374336 1.6779256e-38
-0.036334541 -0.13217102 0.015374336 1.687073e-38
-0.034514535 -0.13217102 0.015374336 1.1247154e-38
-0.03269453 -0.13217102 0.015374336 9.4947107e-39
-0.030874522 -0.13217102 0.015374336 8.5723873e-39
-0.029072899 -0.13297729 0.012378607 6.5433576e-39
-0.027247641 -0.13297729 0.012378607 9.1907243e-40
-0.025422381 -0.13297729 0.012378607 1.4725965e-39
-0.023597121 -0.13297729 0.012378607 7.55785e-39
-0.021769222 -0.13378824 0.0093654729 7.189778e-39
-0.019930709 -0.13460387 0.0063349344 7.9280464e-39
-0.018081971 -0.13539489 0.0033958293 9.2184055e-39
-0.01624096 -0.13539489 0.0033958293 6.8205989e-39
-0.01439995 -0.13539489 0.0033958293 4.5139341e-39
-0.012558942 -0.13539489 0.0033958293 3.6845434e-39
-0.010717932 -0.13539489 0.0033958293 7.5574843e-39
-0.0089554237 -0.13378824 0.0093654729 1.7699732e-38
-0.0071697878 -0.13297729 0.012378607 1.6871063e-38
-0.0053445278 -0.13297729 0.012378607 9.4961471e-39
-0.0034637984 -0.13378824 0.0093654729 6.4537053e-39
-0.001633256 -0.13378824 0.0093654729 8.4820092e-39
0.00013124826 -0.13297729 0.012378607 1.1063829e-38
0.0019565083 -0.13297729 0.012378607 1.0970914e-38
0.0039354181 -0.13460387 0.0063349344 9.2174162e-39
0.0058511486 -0.13539489 0.0033958293 8.9401287e-39
0.0078094555 -0.13648613 -0.00065871701 1.0508194e-38
0.0096575739 -0.13648613 -0.00065871701 4.331436e-39
0.01150569 -0.13648613 -0.00065871701 1.471177e-39
0.013353811 -0.13648613 -0.00065871701 3.7738733e-39
0.015201927 -0.13648613 -0.00065871701 5.8921798e-39
0.017050046 -0.13648613 -0.00065871701 7.365135e-39
0.018898163 -0.13648613 -0.00065871701 1.2988693e-38
0.020746283 -0.13648613 -0.00065871701 2.0271797e-38
0.0225944 -0.13648613 -0.00065871701 1.6492515e-38
0.024442516 -0.13648613 -0.00065871701 2.2958874e-39
0.026290637 -0.13648613 -0.00065871701 5.3401284e-39
0.028138753 -0.13648613 -0.00065871701 1.3271125e-38
0.029986873 -0.13648613 -0.00065871701 1.2904504e-38
0.031989045 -0.13728772 -0.0036371611 9.034806e-39
0.033683106 -0.13648613 -0.00065871701 1.2354919e-38
0.035531227 -0.13648613 -0.00065871701 1.8439115e-38
0.037379343 -0.13648613 -0.00065871701 1.6129914e-38
0.039227463 -0.13648613 -0.00065871701 1.022832e-38
0.041436933 -0.13809387 -0.0066325329 7.0025491e-39
0.043295525 -0.13809387 -0.0066325329 1.8406728e-39
0.045154117 -0.13809387 -0.0066325329 4.6079766e-39
0.047012709 -0.13809387 -0.0066325329 5.1615105e-39
0.051912107 -0.14268802 -0.023702469 3.5873241e-43
0.053800628 -0.14268802 -0.023702469 5.5388704e-40
0.055397704 -0.14161004 -0.019697156 7.6529505e-39
0.057279207 -0.14161004 -0.019697156 9.6812572e-39
0.059694611 -0.14349405 -0.026697364 1.4013733e-38
0.06158838 -0.14349405 -0.026697364 1.4105568e-38
0.063482158 -0.14349405 -0.026697364 1.2813751e-38
0.065375932 -0.14349405 -0.026697364 1.4196688e-38
0.067269705 -0.14349405 -0.026697364 1.4474351e-38
0.069163479 -0.14349405 -0.026697364 1.0971993e-38
0.071057253 -0.14349405 -0.026697364 8.8525727e-39
0.072685845 -0.14268802 -0.023702469 1.1525167e-38
0.074574359 -0.14268802 -0.023702469 1.2078341e-38
0.076462887 -0.14268802 -0.023702469 1.0141154e-38
0.078632332 -0.14349405 -0.026697364 1.0970914e-38
0.080526106 -0.14349405 -0.026697364 1.0324466e-38
0.08241988 -0.14349405 -0.026697364 6.8210319e-39
-0.061666403 -0.13292582 0.019306574 1.3829698e-38
-0.059853293 -0.13292582 0.019306574 1.4013722e-38
-0.05793551 -0.13209651 0.022367988 2.0374496e-38
-0.056127764 -0.13209651 0.022367988 2.350915e-38
-0.054229856 -0.13130049 0.025306616 2.3509163e-38
-0.052427262 -0.13130049 0.025306616 1.9818821e-38
-0.050787732 -0.13292582 0.019306574 1.7700471e-38
-0.048974622 -0.13292582 0.019306574 1.8070332e-38
-0.047161508 -0.13292582 0.019306574 1.8161452e-38
-0.045434576 -0.13399105 0.015374336 1.7424608e-38
-0.04361457 -0.13399105 0.015374336 1.6687409e-38
-0.041794565 -0.13399105 0.015374336 1.5304477e-38
-0.039974555 -0.13399105 0.015374336 1.4750948e-38
-0.03815455 -0.13399105 0.015374336 1.5488513e-38
-0.036334541 -0.13399105 0.015374336 1.4658752e-38
-0.034514535 -0.13399105 0.015374336 1.0140803e-38
-0.03269453 -0.13399105 0.015374336 8.8493385e-39
-0.030874522 -0.13399105 0.015374336 7.5582354e-39
-0.029072899 -0.13480256 0.012378607 5.6224803e-39
-0.027247641 -0.13480256 0.012378607 6.4284847e-40
-0.025422381 -0.13480256 0.012378607 1.1041783e-39
-0.023597121 -0.13480256 0.012378607 6.1756499e-39
-0.021771863 -0.13480256 0.012378607 6.4536773e-39
-0.019930709 -0.13643973 0.0063349344 7.4688858e-39
-0.018094853 -0.13643973 0.0063349344 7.9305352e-39
-0.01624096 -0.13723589 0.0033958293 5.9937025e-39
-0.01439995 -0.13723589 0.0033958293 3.6863342e-39
-0.012558942 -0.13723589 0.0033958293 4.3302841e-39
-0.010717932 -0.13723589 0.0033958293 9.2170168e-39
