# .PCD v0.7 - Point Cloud Data file format
VERSION 0.7
FIELDS x y z rgb
SIZE 4 4 4 4
TYPE F F F F
COUNT 1 1 1 1
WIDTH 567
HEIGHT 1
VIEWPOINT 0 0 0 1 0 0 0
POINTS 567
DATA ascii
-0.0023079598 -0.1130126 -0.031448573 5.3473437e-39
-0.00054508541 -0.11223195 -0.028409451 5.1633084e-39
0.0012257816 -0.11223195 -0.028409451 3.8725654e-39
0.0029966477 -0.11223195 -0.028409451 3.7803726e-39
-0.0040868195 -0.11400281 -0.028409451 5.6217726e-39
-0.0023159524 -0.11400281 -0.028409451 4.8860054e-39
-0.00055788737 -0.11324753 -0.025488943 4.2417122e-39
0.0012078593 -0.11324753 -0.025488943 3.7818131e-39
0.0029736049 -0.11324753 -0.025488943 3.4133991e-39
0.0047393506 -0.11324753 -0.025488943 2.7683982e-39
-0.0040893788 -0.11501329 -0.025488943 6.2678469e-39
-0.002323634 -0.11501329 -0.025488943 5.1629413e-39
-0.00055788737 -0.11501329 -0.025488943 4.0576755e-39
0.0012078593 -0.11501329 -0.025488943 2.9534972e-39
0.0029499074 -0.11423124 -0.022485465 2.0319192e-39
0.0047103874 -0.11423124 -0.022485465 1.2028956e-39
0.0064708674 -0.11423124 -0.022485465 7.4301329e-40
-0.0040920125 -0.11599173 -0.022485465 8.2050257e-39
-0.0023315316 -0.11599173 -0.022485465 1.0234055e-38
-0.00057105254 -0.11599173 -0.022485465 1.1894307e-38
0.0011894275 -0.11599173 -0.022485465 1.189612e-38
0.0029263496 -0.11520912 -0.019499749 1.1528798e-38
0.0046815947 -0.11520912 -0.019499749 1.0699776e-38
0.0064368397 -0.11520912 -0.019499749 8.395259e-39
-0.0040920125 -0.11775221 -0.022485465 1.0326245e-38
-0.0023315316 -0.11775221 -0.022485465 1.4106272e-38
-0.00058413949 -0.11696436 -0.019499749 1.8347646e-38
0.0011711055 -0.11696436 -0.019499749 2.0838744e-38
0.0029263496 -0.11696436 -0.019499749 2.1945454e-38
0.0046520224 -0.11615516 -0.01643315 2.0656169e-38
0.0064018909 -0.11615516 -0.01643315 1.7061637e-38
0.0081517594 -0.11615516 -0.01643315 1.3558206e-38
-0.0076208701 -0.1203105 -0.025488943 2.277374e-38
-0.0058524916 -0.11951269 -0.022485465 2.2957414e-38
-0.0040946295 -0.11871959 -0.019499749 2.3509873e-38
-0.0023393845 -0.11871959 -0.019499749 2.3233652e-38
-0.00058413949 -0.11871959 -0.019499749 2.2772688e-38
0.0011711055 -0.11871959 -0.019499749 2.3049632e-38
0.0029021548 -0.11790501 -0.01643315 2.2958873e-38
0.0046520224 -0.11790501 -0.01643315 2.2867037e-38
0.0063682729 -0.11712147 -0.013483375 2.2775202e-38
0.0081129698 -0.11712147 -0.013483375 2.2591531e-38
-0.014770809 -0.1244873 -0.034506053 4.6528574e-40
-0.012989254 -0.1244873 -0.034506053 3.7309011e-40
-0.011207699 -0.1244873 -0.034506053 2.677262e-39
-0.0076129725 -0.12127317 -0.022485465 2.2957425e-38
-0.0058498746 -0.12047486 -0.019499749 2.341805e-38
-0.0040999046 -0.11886616 -0.013483375 2.3325856e-38
-0.0023552077 -0.11886616 -0.013483375 2.3325497e-38
-0.00062379148 -0.11805601 -0.010453492 2.3417333e-38
0.0011155913 -0.11805601 -0.010453492 2.3509168e-38
0.0028788811 -0.11886616 -0.013483375 2.3509527e-38
0.0045943586 -0.11805601 -0.010453492 2.3509886e-38
0.0063337423 -0.11805601 -0.010453492 2.3418042e-38
0.0080731269 -0.11805601 -0.010453492 2.3049978e-38
0.0098125106 -0.11805601 -0.010453492 2.2681567e-38
-0.021946557 -0.12706901 -0.037479132 9.9545959e-39
-0.02011548 -0.12626885 -0.034506053 2.7550649e-40
-0.018333923 -0.12626885 -0.034506053 7.1746481e-43
-0.016552366 -0.12626885 -0.034506053 1.4349296e-42
-0.014741327 -0.12544595 -0.031448573 1.4349296e-42
-0.012965131 -0.12544595 -0.031448573 5.0747127e-39
-0.011188935 -0.12544595 -0.031448573 9.4071912e-39
-0.0093339933 -0.12061088 -0.013483375 2.2774481e-38
-0.0075892964 -0.12061088 -0.013483375 2.341805e-38
-0.0058445996 -0.12061088 -0.013483375 2.341805e-38
-0.0041025607 -0.1197954 -0.010453492 2.3141826e-38
-0.0023631761 -0.1197954 -0.010453492 2.3049632e-38
-0.00063699391 -0.11898489 -0.0074419677 2.3140391e-38
0.0010971101 -0.11898489 -0.0074419677 2.3047838e-38
0.0028312141 -0.11898489 -0.0074419677 2.3323336e-38
0.0045169983 -0.11763634 -0.0024313033 2.3508437e-38
0.0062423162 -0.11763634 -0.0024313033 2.3509869e-38
0.0080335252 -0.11898489 -0.0074419677 2.3509869e-38
0.0097676283 -0.11898489 -0.0074419677 2.3509873e-38
-0.021946557 -0.12885578 -0.037479132 8.7560527e-39
-0.02011548 -0.1280504 -0.034506053 2.7550649e-40
-0.018333923 -0.1280504 -0.034506053 1.0148652e-39
-0.01651752 -0.12722217 -0.031448573 2.7874209e-40
-0.014712018 -0.12639888 -0.028409451 1.0761972e-42
-0.012941151 -0.12639888 -0.028409451 1.4109531e-38
-0.011078688 -0.12235557 -0.013483375 1.7335662e-38
-0.0093207126 -0.12153481 -0.010453492 2.3142544e-38
-0.007581328 -0.12153481 -0.010453492 2.3417691e-38
-0.0058419434 -0.12153481 -0.010453492 2.3048914e-38
-0.0041052001 -0.120719 -0.0074419677 2.3142185e-38
-0.0023764344 -0.12016918 -0.0054123104 2.3234379e-38
-0.0006458899 -0.12016918 -0.0054123104 2.3509886e-38
0.0010846546 -0.12016918 -0.0054123104 2.3509165e-38
0.0027916795 -0.11936165 -0.0024313033 2.3508804e-38
0.0045169983 -0.11936165 -0.0024313033 2.3508802e-38
0.0062423162 -0.11936165 -0.0024313033 2.3508086e-38
0.0079676351 -0.11936165 -0.0024313033 2.3508444e-38
0.0097373798 -0.12016918 -0.0054123104 2.3508802e-38
-0.023678593 -0.12983195 -0.034506053 8.4791015e-39
-0.021897033 -0.12983195 -0.034506053 7.926292e-39
-0.02011548 -0.12983195 -0.034506053 1.8428224e-39
-0.018333923 -0.12983195 -0.034506053 3.5873241e-43
-0.01651752 -0.12899835 -0.031448573 1.4391335e-42
-0.014712018 -0.12816976 -0.028409451 1.7549568e-39
-0.012941151 -0.12816976 -0.028409451 2.0746901e-38
-0.011078688 -0.12410025 -0.013483375 2.2589737e-38
-0.0093207126 -0.12327419 -0.010453492 2.3234379e-38
-0.0075734081 -0.12245311 -0.0074419677 2.2956003e-38
-0.0058393041 -0.12245311 -0.0074419677 2.3509527e-38
-0.0041095922 -0.12108697 -0.0024313033 2.2958154e-38
-0.0023842743 -0.12108697 -0.0024313033 2.3234015e-38
-0.00065895636 -0.12108697 -0.0024313033 2.3509879e-38
0.0010663616 -0.12108697 -0.0024313033 2.3509517e-38
0.0027683014 -0.12027912 0.00053176284 2.3508804e-38
0.0044884244 -0.12027912 0.00053176284 2.3508092e-38
0.0062085474 -0.12027912 0.00053176284 2.3506657e-38
0.0079286704 -0.12027912 0.00053176284 2.3506657e-38
0.0096487934 -0.12027912 0.00053176284 2.3508451e-38
0.011418271 -0.12108697 -0.0024313033 2.3509876e-38
0.01319847 -0.12189974 -0.0054123104 2.3142525e-38
-0.023678593 -0.13161351 -0.034506053 7.7411791e-39
-0.021897033 -0.13161351 -0.034506053 7.0965342e-39
-0.02011548 -0.13161351 -0.034506053 2.1194121e-39
-0.018333923 -0.13161351 -0.034506053 3.5873241e-43
-0.01651752 -0.13077454 -0.031448573 1.8583039e-40
-0.014712018 -0.12994061 -0.028409451 4.7041379e-39
-0.012941151 -0.12994061 -0.028409451 2.2405343e-38
-0.011060095 -0.12501357 -0.010453492 2.3234379e-38
-0.0093075102 -0.12418722 -0.0074419677 2.3417691e-38
-0.0075734081 -0.12418722 -0.0074419677 2.2310277e-38
-0.0058375252 -0.12363027 -0.0054123104 2.3509527e-38
-0.0041095922 -0.12281232 -0.0024313033 2.3509876e-38
-0.0023920676 -0.12199925 0.00053176284 2.3509869e-38
-0.00067194458 -0.12199925 0.00053176284 2.3418031e-38
0.0010481784 -0.12199925 0.00053176284 2.3509153e-38
0.0027443161 -0.12116508 0.0035717785 2.3508807e-38
0.0044591082 -0.12116508 0.0035717785 2.3508092e-38
0.0062085474 -0.12199925 0.00053176284 2.3507733e-38
0.0079286704 -0.12199925 0.00053176284 2.3507733e-38
0.0096487934 -0.12199925 0.00053176284 2.3414822e-38
0.011368916 -0.12199925 0.00053176284 2.3324775e-38
0.013143589 -0.12281232 -0.0024313033 2.3234364e-38
-0.023678593 -0.13339506 -0.034506053 8.0177716e-39
-0.021897033 -0.13339506 -0.034506053 6.5422856e-39
-0.02011548 -0.13339506 -0.034506053 1.2889339e-39
-0.018293716 -0.13255073 -0.031448573 7.3756224e-40
-0.01651752 -0.13255073 -0.031448573 3.5041528e-39
-0.014712018 -0.1317115 -0.028409451 1.0050766e-38
-0.012941151 -0.1317115 -0.028409451 2.3234379e-38
-0.011041614 -0.12592132 -0.0074419677 2.3141467e-38
-0.0092986142 -0.12536083 -0.0054123104 2.3509527e-38
-0.0075680697 -0.12536083 -0.0054123104 2.2770174e-38
-0.0058323136 -0.12371938 0.00053176284 2.3509168e-38
-0.0041121906 -0.12371938 0.00053176284 2.3509876e-38
-0.0023920676 -0.12371938 0.00053176284 2.3509867e-38
-0.00067194458 -0.12371938 0.00053176284 2.350987e-38
0.0010481784 -0.12371938 0.00053176284 2.3509876e-38
0.0027443161 -0.12287988 0.0035717785 2.3509524e-38
0.0044591082 -0.12287988 0.0035717785 2.3508809e-38
0.0061739013 -0.12287988 0.0035717785 2.3231151e-38
0.0078886943 -0.12287988 0.0035717785 2.267906e-38
0.0096034873 -0.12287988 0.0035717785 2.3509168e-38
0.011368916 -0.12371938 0.00053176284 2.2956715e-38
0.013089039 -0.12371938 0.00053176284 2.3418045e-38
0.015030663 -0.12675296 -0.010453492 2.2682272e-38
0.016770046 -0.12675296 -0.010453492 2.2590795e-38
0.018581148 -0.12758966 -0.013483375 2.3142538e-38
0.020325843 -0.12758966 -0.013483375 2.2958873e-38
0.022070538 -0.12758966 -0.013483375 1.512189e-38
0.023900572 -0.12840421 -0.01643315 7.1901885e-39
-0.025460146 -0.13517661 -0.034506053 1.1243903e-38
-0.023678593 -0.13517661 -0.034506053 7.187655e-39
-0.021897033 -0.13517661 -0.034506053 5.5281351e-39
-0.020069912 -0.13432692 -0.031448573 8.279558e-40
-0.018293716 -0.13432692 -0.031448573 9.1835496e-41
-0.016482886 -0.13348235 -0.028409451 5.5324539e-39
-0.014683855 -0.13267075 -0.025488943 1.3369805e-38
-0.012775718 -0.12765543 -0.0074419677 2.3234379e-38
-0.011029159 -0.12709136 -0.0054123104 2.3325497e-38
-0.0092855478 -0.12626295 -0.0024313033 2.3509527e-38
-0.0075524366 -0.12543948 0.00053176284 2.3508451e-38
-0.0058323136 -0.12543948 0.00053176284 2.350773e-38
-0.004114856 -0.12459467 0.0035717785 2.3507728e-38
-0.002400062 -0.12459467 0.0035717785 2.3508448e-38
-0.00068526994 -0.12459467 0.0035717785 2.3509168e-38
0.0010295231 -0.12459467 0.0035717785 2.3509167e-38
0.0027443161 -0.12459467 0.0035717785 2.3233652e-38
0.0044308817 -0.12378122 0.0064988434 2.341804e-38
0.0061405422 -0.12378122 0.0064988434 2.3234364e-38
0.0078502037 -0.12378122 0.0064988434 2.3142528e-38
0.0095598642 -0.12378122 0.0064988434 2.2129814e-38
0.01131828 -0.12459467 0.0035717785 2.3234374e-38
0.013033072 -0.12459467 0.0035717785 2.1113165e-38
0.014929014 -0.12709136 -0.0054123104 2.3509527e-38
0.016770046 -0.12849234 -0.010453492 2.1018811e-38
0.018509429 -0.12849234 -0.010453492 2.064966e-38
0.020325843 -0.12933435 -0.013483375 2.3046375e-38
0.022070538 -0.12933435 -0.013483375 1.7606836e-38
0.023815237 -0.12933435 -0.013483375 1.1891441e-38
-0.023678593 -0.13695817 -0.034506053 5.6206936e-39
-0.021897033 -0.13695817 -0.034506053 4.4221504e-39
-0.020069912 -0.13610314 -0.031448573 7.361203e-40
-0.018253751 -0.13525321 -0.028409451 1.0137862e-39
-0.016482886 -0.13525321 -0.028409451 7.007221e-39
-0.01449025 -0.12882192 -0.0054123104 1.3737862e-38
-0.012736184 -0.12798826 -0.0024313033 2.3234015e-38
-0.010992683 -0.12715961 0.00053176284 2.3509886e-38
-0.0092725595 -0.12715961 0.00053176284 2.28638e-38
-0.0075524366 -0.12715961 0.00053176284 2.1479789e-38
-0.0058296481 -0.12630944 0.0035717785 1.6961485e-38
-0.004114856 -0.12630944 0.0035717785 1.6591976e-38
-0.0024077604 -0.12549089 0.0064988434 1.6223191e-38
-0.00069809984 -0.12549089 0.0064988434 1.5302317e-38
0.0010295231 -0.12630944 0.0035717785 1.4473272e-38
0.0027212212 -0.12549089 0.0064988434 1.4566898e-38
0.0044109523 -0.12491293 0.0085655153 1.6595914e-38
0.0061169891 -0.12491293 0.0085655153 1.9823829e-38
0.0077837026 -0.12407662 0.01155594 2.222235e-38
0.0094844969 -0.12407662 0.01155594 2.3418028e-38
0.011269526 -0.12549089 0.0064988434 2.2773025e-38
0.012979186 -0.12549089 0.0064988434 2.3509527e-38
0.014929014 -0.12882192 -0.0054123104 2.3509168e-38
0.016704042 -0.12938951 -0.0074419677 2.3506298e-38
0.018509429 -0.13023172 -0.010453492 2.0278723e-38
0.020248812 -0.13023172 -0.010453492 2.0278346e-38
0.021988198 -0.13023172 -0.010453492 1.954186e-38
0.023815237 -0.13107903 -0.013483375 1.5302314e-38
-0.023678593 -0.13873972 -0.034506053 5.8987252e-39
-0.021846108 -0.13787933 -0.031448573 3.5941904e-39
-0.020069912 -0.13787933 -0.031448573 1.1059818e-39
-0.018253751 -0.13702409 -0.028409451 3.5873241e-43
-0.016482886 -0.13702409 -0.028409451 7.6529421e-39
-0.014432929 -0.12887974 0.00053176284 1.2724062e-38
-0.01268882 -0.12802424 0.0035717785 2.3418043e-38
-0.010974026 -0.12802424 0.0035717785 2.3418047e-38
-0.0092592342 -0.12802424 0.0035717785 2.1389752e-38
-0.0075444421 -0.12802424 0.0035717785 1.5211574e-38
-0.0058270833 -0.12720053 0.0064988434 1.3736078e-38
-0.0041174209 -0.12720053 0.0064988434 1.4565456e-38
-0.0024131956 -0.12661897 0.0085655153 1.1429359e-38
-0.00070715975 -0.12661897 0.0085655153 1.189034e-38
0.00099887792 -0.12661897 0.0085655153 1.4471817e-38
0.0027049156 -0.12661897 0.0085655153 1.3826448e-38
0.0044109523 -0.12661897 0.0085655153 1.2996685e-38
0.0060829083 -0.12577744 0.01155594 1.5855105e-38
0.0077837026 -0.12577744 0.01155594 1.9542927e-38
0.0094844969 -0.12577744 0.01155594 2.3322951e-38
0.011185291 -0.12577744 0.01155594 2.3509507e-38
0.012886084 -0.12577744 0.01155594 2.3509156e-38
0.014647176 -0.12661897 0.0085655153 2.3507e-38
0.016704042 -0.13112362 -0.0074419677 2.3508807e-38
0.018438146 -0.13112362 -0.0074419677 1.9542234e-38
0.02017225 -0.13112362 -0.0074419677 1.9265287e-38
0.021906354 -0.13112362 -0.0074419677 1.9357842e-38
-0.021846108 -0.13965552 -0.031448573 5.0700408e-39
-0.020069912 -0.13965552 -0.031448573 2.7622395e-40
-0.018293716 -0.13965552 -0.031448573 7.1746481e-43
-0.016118407 -0.12973903 0.0035717785 9.1280694e-39
-0.014403612 -0.12973903 0.0035717785 1.3276873e-38
-0.012665725 -0.1289102 0.0064988434 1.8071411e-38
-0.010956065 -0.1289102 0.0064988434 1.6042756e-38
-0.0092373444 -0.128325 0.0085655153 1.4751668e-38
-0.0075313086 -0.128325 0.0085655153 1.1247526e-38
-0.0058270833 -0.1289102 0.0064988434 9.5879938e-39
-0.0041174209 -0.1289102 0.0064988434 1.0232258e-38
-0.0024131956 -0.128325 0.0085655153 1.1614818e-38
-0.00070715975 -0.128325 0.0085655153 1.3550211e-38
0.00099887792 -0.128325 0.0085655153 1.5393408e-38
0.0027049156 -0.128325 0.0085655153 1.4932074e-38
0.0044109523 -0.128325 0.0085655153 1.4470375e-38
0.0060829083 -0.12747823 0.01155594 1.5761114e-38
0.0077837026 -0.12747823 0.01155594 1.6406481e-38
0.0094844969 -0.12747823 0.01155594 1.6590509e-38
0.011185291 -0.12747823 0.01155594 1.7328434e-38
0.012886084 -0.12747823 0.01155594 2.1109537e-38
0.014586878 -0.12747823 0.01155594 2.350951e-38
0.016287673 -0.12747823 0.01155594 2.3509517e-38
0.01817745 -0.12973903 0.0035717785 1.9450038e-38
0.020044863 -0.1314389 -0.0024313033 1.8252224e-38
0.021770179 -0.1314389 -0.0024313033 1.6961841e-38
0.023495499 -0.1314389 -0.0024313033 1.5026081e-38
-0.019547991 -0.13145383 0.0035717785 7.371993e-40
-0.017833199 -0.13145383 0.0035717785 9.2194229e-41
-0.016118407 -0.13145383 0.0035717785 9.0358738e-39
-0.014403612 -0.13145383 0.0035717785 1.2631503e-38
-0.012665725 -0.13061987 0.0064988434 1.5028237e-38
-0.010956065 -0.13061987 0.0064988434 1.4566907e-38
-0.0092373444 -0.13003103 0.0085655153 1.4106297e-38
-0.0075313086 -0.13003103 0.0085655153 1.1340079e-38
-0.0058252709 -0.13003103 0.0085655153 7.9284724e-39
-0.0041192332 -0.13003103 0.0085655153 7.3749119e-39
-0.0024210615 -0.12917902 0.01155594 1.1984682e-38
-0.00072026718 -0.12917902 0.01155594 1.4195944e-38
0.00098052714 -0.12917902 0.01155594 1.5671077e-38
0.0026813205 -0.12917902 0.01155594 1.5946947e-38
0.0043821149 -0.12917902 0.01155594 1.5393055e-38
0.0060829083 -0.12917902 0.01155594 1.613062e-38
0.0077837026 -0.12917902 0.01155594 1.5208661e-38
0.0094844969 -0.12917902 0.01155594 1.6037698e-38
0.011185291 -0.12917902 0.01155594 1.4932427e-38
0.012886084 -0.12917902 0.01155594 1.8435864e-38
0.014526949 -0.12833218 0.014528126 2.3414794e-38
0.016222533 -0.12833218 0.014528126 2.3046378e-38
0.017988466 -0.12917902 0.01155594 1.9081612e-38
0.019765288 -0.13003103 0.0085655153 1.7515014e-38
0.021689653 -0.13231997 0.00053176284 1.5210124e-38
0.023409776 -0.13231997 0.00053176284 1.355167e-38
-0.019547991 -0.13316862 0.0035717785 2.8576974e-39
-0.017833199 -0.13316862 0.0035717785 1.9360942e-39
-0.016118407 -0.13316862 0.0035717785 8.3897855e-39
-0.014403612 -0.13316862 0.0035717785 1.1524437e-38
-0.012665725 -0.13232954 0.0064988434 1.4198832e-38
-0.010956065 -0.13232954 0.0064988434 1.5027522e-38
-0.0092373444 -0.13173707 0.0085655153 1.2169826e-38
-0.0075313086 -0.13173707 0.0085655153 9.3110538e-39
-0.0058252709 -0.13173707 0.0085655153 5.9001672e-39
-0.0041192332 -0.13173707 0.0085655153 7.0990467e-39
-0.0024210615 -0.1308798 0.01155594 1.0971971e-38
-0.00072026718 -0.1308798 0.01155594 1.1431517e-38
0.00098052714 -0.1308798 0.01155594 1.272154e-38
0.0026813205 -0.1308798 0.01155594 1.4011201e-38
0.0043821149 -0.1308798 0.01155594 1.3642418e-38
0.0060829083 -0.1308798 0.01155594 1.5301221e-38
0.0077837026 -0.1308798 0.01155594 1.5485969e-38
0.0094844969 -0.1308798 0.01155594 1.511754e-38
0.011185291 -0.1308798 0.01155594 1.3826801e-38
0.012831367 -0.13002776 0.014528126 1.4656562e-38
0.014526949 -0.13002776 0.014528126 1.8712814e-38
0.016222533 -0.13002776 0.014528126 1.9266354e-38
0.017918114 -0.13002776 0.014528126 1.7606481e-38
0.019765288 -0.13173707 0.0085655153 1.6224273e-38
0.021607038 -0.13316862 0.0035717785 1.4195969e-38
0.023409776 -0.1340401 0.00053176284 1.2260931e-38
-0.019547991 -0.13488342 0.0035717785 4.6086913e-39
-0.017833199 -0.13488342 0.0035717785 2.5807406e-39
-0.016118407 -0.13488342 0.0035717785 8.1124769e-39
-0.014432929 -0.13576023 0.00053176284 1.1523717e-38
-0.01268882 -0.13488342 0.0035717785 1.3737135e-38
-0.010974026 -0.13488342 0.0035717785 1.3274726e-38
-0.0092373444 -0.1334431 0.0085655153 8.3890863e-39
-0.0075313086 -0.1334431 0.0085655153 7.7433623e-39
-0.0058252709 -0.1334431 0.0085655153 7.6522401e-39
-0.0041174209 -0.13403918 0.0064988434 7.7451378e-39
-0.0024210615 -0.13258059 0.01155594 9.9581846e-39
-0.00072026718 -0.13258059 0.01155594 8.6667297e-39
0.00098052714 -0.13258059 0.01155594 8.5741768e-39
0.0026813205 -0.13258059 0.01155594 1.0140426e-38
0.0043821149 -0.13258059 0.01155594 1.0969827e-38
0.0060829083 -0.13258059 0.01155594 1.281266e-38
0.0077837026 -0.13258059 0.01155594 1.318144e-38
0.0094402013 -0.13172336 0.014528126 1.391936e-38
0.011135784 -0.13172336 0.014528126 1.5763269e-38
0.012831367 -0.13172336 0.014528126 1.5302291e-38
0.014526949 -0.13172336 0.014528126 1.6408642e-38
0.016222533 -0.13172336 0.014528126 1.7422439e-38
0.017918114 -0.13172336 0.014528126 1.6315741e-38
0.019689262 -0.13258059 0.01155594 1.4380357e-38
0.021390054 -0.13258059 0.01155594 1.2905946e-38
0.023409776 -0.13576023 0.00053176284 1.060213e-38
-0.019547991 -0.13659821 0.0035717785 4.700168e-39
-0.017833199 -0.13659821 0.0035717785 2.7651318e-39
-0.016118407 -0.13659821 0.0035717785 8.0202813e-39
-0.014403612 -0.13659821 0.0035717785 1.1431521e-38
-0.01268882 -0.13659821 0.0035717785 1.428923e-38
-0.010956065 -0.13574885 0.0064988434 1.3459117e-38
-0.0092373444 -0.13514914 0.0085655153 9.0337326e-39
-0.0075313086 -0.13514914 0.0085655153 9.5865532e-39
-0.0058252709 -0.13514914 0.0085655153 1.1154952e-38
-0.0041192332 -0.13514914 0.0085655153 9.7738018e-39
-0.0024131956 -0.13514914 0.0085655153 1.0511721e-38
-0.00072026718 -0.13428138 0.01155594 9.6819621e-39
0.00098052714 -0.13428138 0.01155594 8.2983115e-39
0.0026813205 -0.13428138 0.01155594 9.3117474e-39
0.0043821149 -0.13428138 0.01155594 1.115566e-38
0.0060829083 -0.13428138 0.01155594 1.1431168e-38
0.0077446187 -0.13341893 0.014528126 1.0969827e-38
0.0094402013 -0.13341893 0.014528126 1.1154214e-38
0.011135784 -0.13341893 0.014528126 1.5671077e-38
0.012831367 -0.13341893 0.014528126 1.5578881e-38
0.014526949 -0.13341893 0.014528126 1.3458382e-38
0.016222533 -0.13341893 0.014528126 1.3642418e-38
0.017918114 -0.13341893 0.014528126 1.2075098e-38
0.019613698 -0.13341893 0.014528126 1.0785084e-38
0.021390054 -0.13428138 0.01155594 9.4947079e-39
-0.019547991 -0.13831301 0.0035717785 5.438089e-39
-0.017833199 -0.13831301 0.0035717785 5.253695e-39
-0.016118407 -0.13831301 0.0035717785 8.1117595e-39
-0.014403612 -0.13831301 0.0035717785 9.9556749e-39
-0.01268882 -0.13831301 0.0035717785 1.45651e-38
-0.010956065 -0.13745852 0.0064988434 1.4288516e-38
-0.0092373444 -0.13685517 0.0085655153 9.5861847e-39
-0.0075313086 -0.13685517 0.0085655153 9.3096006e-39
-0.0058252709 -0.13685517 0.0085655153 1.1431895e-38
-0.0041192332 -0.13685517 0.0085655153 1.1894301e-38
-0.0024131956 -0.13685517 0.0085655153 9.8670736e-39
-0.00072026718 -0.1359822 0.01155594 1.0881231e-38
0.00098052714 -0.1359822 0.01155594 1.0051115e-38
0.0026813205 -0.1359822 0.01155594 1.0511015e-38
0.0043821149 -0.1359822 0.01155594 1.2077981e-38
0.0060829083 -0.1359822 0.01155594 1.1063108e-38
0.0077446187 -0.13511451 0.014528126 1.1340051e-38
0.0094402013 -0.13511451 0.014528126 1.1615912e-38
0.011135784 -0.13511451 0.014528126 1.4842395e-38
0.012831367 -0.13511451 0.014528126 1.557996e-38
0.014526949 -0.13511451 0.014528126 1.2444953e-38
0.016222533 -0.13511451 0.014528126 1.2352758e-38
0.017918114 -0.13511451 0.014528126 1.1061667e-38
0.019613698 -0.13511451 0.014528126 1.1613765e-38
0.021390054 -0.1359822 0.01155594 8.5723887e-39
-0.019547991 -0.14002781 0.0035717785 7.4663901e-39
-0.017833199 -0.14002781 0.0035717785 6.728825e-39
-0.016118407 -0.14002781 0.0035717785 7.3741972e-39
-0.014403612 -0.14002781 0.0035717785 8.1117623e-39
-0.01268882 -0.14002781 0.0035717785 1.4472905e-38
-0.010956065 -0.13916816 0.0064988434 1.4196321e-38
-0.0092373444 -0.13856123 0.0085655153 9.1255625e-39
-0.0075313086 -0.13856123 0.0085655153 9.5861847e-39
-0.0058252709 -0.13856123 0.0085655153 1.4381074e-38
-0.0041192332 -0.13856123 0.0085655153 1.2170891e-38
-0.0024131956 -0.13856123 0.0085655153 7.194122e-39
-0.00072026718 -0.13768299 0.01155594 9.4986596e-39
0.00098052714 -0.13768299 0.01155594 1.0512813e-38
0.0026813205 -0.13768299 0.01155594 1.0512097e-38
0.0043821149 -0.13768299 0.01155594 1.1156387e-38
0.0060829083 -0.13768299 0.01155594 9.77345e-39
0.0077837026 -0.13768299 0.01155594 1.2538957e-38
0.0094402013 -0.13681011 0.014528126 1.3921526e-38
0.011135784 -0.13681011 0.014528126 1.438178e-38
0.012831367 -0.13681011 0.014528126 1.5303736e-38
0.014526949 -0.13681011 0.014528126 1.2168366e-38
0.016222533 -0.13681011 0.014528126 1.1430802e-38
0.017918114 -0.13681011 0.014528126 9.4943408e-39
0.019613698 -0.13681011 0.014528126 9.6776559e-39
0.021390054 -0.13768299 0.01155594 3.6860203e-39
-0.017833199 -0.1417426 0.0035717785 7.2819988e-39
-0.016118407 -0.1417426 0.0035717785 6.8210235e-39
-0.014432929 -0.14264072 0.00053176284 8.2950773e-39
-0.01268882 -0.1417426 0.0035717785 1.3734264e-38
-0.010974026 -0.1417426 0.0035717785 1.4103046e-38
-0.0092464043 -0.14087783 0.0064988434 9.8620471e-39
-0.0075367438 -0.14087783 0.0064988434 1.0415222e-38
-0.0058270833 -0.14087783 0.0064988434 1.2168736e-38
-0.0041174209 -0.14087783 0.0064988434 1.1894304e-38
-0.0024077604 -0.14087783 0.0064988434 1.0328776e-38
-0.00070715975 -0.14026727 0.0085655153 9.8674435e-39
0.00098052714 -0.13938378 0.01155594 9.3139138e-39
0.0026813205 -0.13938378 0.01155594 9.406115e-39
0.0043821149 -0.13938378 0.01155594 7.5614836e-39
0.0060829083 -0.13938378 0.01155594 6.5473289e-39
0.0077446187 -0.13850568 0.014528126 1.1617363e-38
0.0094402013 -0.13850568 0.014528126 1.4014085e-38
0.011135784 -0.13850568 0.014528126 1.4935678e-38
0.012831367 -0.13850568 0.014528126 1.5212619e-38
0.014526949 -0.13850568 0.014528126 1.1062737e-38
0.016155776 -0.1376058 0.017574102 1.1522998e-38
0.017846018 -0.1376058 0.017574102 8.5723845e-39
0.019613698 -0.13850568 0.014528126 6.7273957e-39
-0.017833199 -0.14345737 0.0035717785 7.5585885e-39
-0.016118407 -0.14345737 0.0035717785 6.9128632e-39
-0.014432929 -0.14436086 0.00053176284 8.0181345e-39
-0.01268882 -0.14345737 0.0035717785 1.152157e-38
-0.010974026 -0.14345737 0.0035717785 1.253572e-38
-0.0092464043 -0.1425875 0.0064988434 1.0784003e-38
-0.0075367438 -0.1425875 0.0064988434 1.106059e-38
-0.0058270833 -0.1425875 0.0064988434 1.179995e-38
-0.0041174209 -0.1425875 0.0064988434 1.1433323e-38
-0.0024077604 -0.1425875 0.0064988434 1.0513167e-38
-0.00070715975 -0.1419733 0.0085655153 1.0605009e-38
0.00098052714 -0.14108457 0.01155594 1.0235873e-38
0.0026813205 -0.14108457 0.01155594 1.0328071e-38
0.0043821149 -0.14108457 0.01155594 8.7603897e-39
0.0060829083 -0.14108457 0.01155594 8.0224617e-39
0.0077446187 -0.14020126 0.014528126 1.2079423e-38
0.0094402013 -0.14020126 0.014528126 1.4106645e-38
0.011135784 -0.14020126 0.014528126 1.3645302e-38
0.012831367 -0.14020126 0.014528126 1.4566893e-38
0.014526949 -0.14020126 0.014528126 1.2446393e-38
0.016155776 -0.13929604 0.017574102 1.216873e-38
0.017846018 -0.13929604 0.017574102 6.0831025e-39
-0.017833199 -0.14517216 0.0035717785 8.0192107e-39
-0.016118407 -0.14517216 0.0035717785 7.0050616e-39
-0.014403612 -0.14517216 0.0035717785 7.5578808e-39
-0.01268882 -0.14517216 0.0035717785 8.5720328e-39
-0.010956065 -0.14429714 0.0064988434 1.0416301e-38
-0.0092464043 -0.14429714 0.0064988434 1.1707039e-38
-0.0075367438 -0.14429714 0.0064988434 1.161412e-38
-0.0058270833 -0.14429714 0.0064988434 1.1707392e-38
-0.0041174209 -0.14429714 0.0064988434 1.0695398e-38
-0.0024131956 -0.14367934 0.0085655153 1.069684e-38
-0.00070715975 -0.14367934 0.0085655153 1.1065268e-38
0.00098052714 -0.14278536 0.01155594 1.0603937e-38
0.0026813205 -0.14278536 0.01155594 1.0419551e-38
0.0043821149 -0.14278536 0.01155594 9.1288121e-39
0.0060490351 -0.14189686 0.014528126 8.2068558e-39
0.0077446187 -0.14189686 0.014528126 1.0880523e-38
0.0094402013 -0.14189686 0.014528126 1.5028604e-38
0.011135784 -0.14189686 0.014528126 1.4014806e-38
0.01277529 -0.14098628 0.017574102 1.4198832e-38
0.014465532 -0.14098628 0.017574102 1.1708831e-38
0.016155776 -0.14098628 0.017574102 9.9560378e-39
0.017846018 -0.14098628 0.017574102 3.3179553e-39
-0.014403612 -0.14688696 0.0035717785 7.3734924e-39
-0.012665725 -0.14600681 0.0064988434 7.0969055e-39
-0.010943382 -0.14538537 0.0085655153 9.1252066e-39
-0.0092373444 -0.14538537 0.0085655153 1.1983626e-38
-0.0075313086 -0.14538537 0.0085655153 1.1706316e-38
-0.0058252709 -0.14538537 0.0085655153 1.1891783e-38
-0.0041192332 -0.14538537 0.0085655153 1.1893222e-38
-0.0024131956 -0.14538537 0.0085655153 1.281626e-38
-0.00070715975 -0.14538537 0.0085655153 1.3553471e-38
0.00098052714 -0.14448614 0.01155594 1.3645672e-38
0.0026813205 -0.14448614 0.01155594 1.3830789e-38
0.0043821149 -0.14448614 0.01155594 1.3461649e-38
0.0060490351 -0.14359243 0.014528126 1.3277615e-38
0.0077446187 -0.14359243 0.014528126 1.4568351e-38
0.0094402013 -0.14359243 0.014528126 1.1893952e-38
0.011135784 -0.14359243 0.014528126 1.2078341e-38
0.01277529 -0.14267652 0.017574102 1.1063825e-38
0.014465532 -0.14267652 0.017574102 6.3618474e-39
0.016155776 -0.14267652 0.017574102 3.8718493e-39
0.017846018 -0.14267652 0.017574102 7.361203e-40
0.019536257 -0.14267652 0.017574102 6.4320861e-40
-0.012665725 -0.14771648 0.0064988434 7.0050728e-39
-0.010943382 -0.1470914 0.0085655153 8.5727516e-39
-0.0092373444 -0.1470914 0.0085655153 1.087764e-38
-0.0075313086 -0.1470914 0.0085655153 1.0692884e-38
-0.0058252709 -0.1470914 0.0085655153 1.1891783e-38
-0.0041192332 -0.1470914 0.0085655153 1.2169086e-38
-0.0024131956 -0.1470914 0.0085655153 1.3183961e-38
-0.00070715975 -0.1470914 0.0085655153 1.3644587e-38
0.00098052714 -0.14618696 0.01155594 1.3737149e-38
0.0026813205 -0.14618696 0.01155594 1.382971e-38
0.0043821149 -0.14618696 0.01155594 1.364532e-38
0.0060829083 -0.14618696 0.01155594 1.3461649e-38
0.0077446187 -0.14528801 0.014528126 1.3369811e-38
0.0094402013 -0.14528801 0.014528126 1.2262738e-38
0.011135784 -0.14528801 0.014528126 1.1893952e-38
0.01277529 -0.14436676 0.017574102 9.3121103e-39
0.014465532 -0.14436676 0.017574102 4.0569594e-39
0.016155776 -0.14436676 0.017574102 1.8435469e-39
0.017846018 -0.14436676 0.017574102 2.7550649e-40
-0.010943382 -0.14879744 0.0085655153 8.3883632e-39
-0.0092373444 -0.14879744 0.0085655153 8.9415314e-39
-0.0075313086 -0.14879744 0.0085655153 9.4021452e-39
-0.0058252709 -0.14879744 0.0085655153 1.0785436e-38
-0.0041192332 -0.14879744 0.0085655153 1.1338607e-38
-0.0024131956 -0.14879744 0.0085655153 1.2076534e-38
-0.00070715975 -0.14879744 0.0085655153 1.1891792e-38
0.00098052714 -0.14788775 0.01155594 1.2169104e-38
0.0026813205 -0.14788775 0.01155594 1.1985079e-38
0.0043821149 -0.14788775 0.01155594 1.134043e-38
0.0060829083 -0.14788775 0.01155594 1.1248234e-38
0.0077446187 -0.14698361 0.014528126 9.7741815e-39
0.0094402013 -0.14698361 0.014528126 7.5604046e-39
0.011085047 -0.14605699 0.017574102 5.2558698e-39
0.01277529 -0.14605699 0.017574102 2.2130482e-39
0.014465532 -0.14605699 0.017574102 1.8474719e-40
0.016155776 -0.14605699 0.017574102 6.4500647e-40
0.017846018 -0.14605699 0.017574102 3.6806365e-40
-0.010925031 -0.14958854 0.01155594 7.9270291e-39
-0.0092242369 -0.14958854 0.01155594 7.1898172e-39
-0.0075234426 -0.14958854 0.01155594 7.927734e-39
0.00098052714 -0.14958854 0.01155594 1.161521e-38
0.0026813205 -0.14958854 0.01155594 1.1800327e-38
0.0043821149 -0.14958854 0.01155594 1.1155319e-38
0.0060829083 -0.14958854 0.01155594 1.0971291e-38
0.0077446187 -0.14867918 0.014528126 8.9433432e-39
0.0094402013 -0.14867918 0.014528126 6.8228423e-39
0.011085047 -0.14774723 0.017574102 4.1495222e-39
0.01277529 -0.14774723 0.017574102 9.2267236e-40
0.014465532 -0.14774723 0.017574102 0
