# .PCD v0.7 - Point Cloud Data file format
VERSION 0.7
FIELDS x y z rgb
SIZE 4 4 4 4
TYPE F F F F
COUNT 1 1 1 1
WIDTH 946
HEIGHT 1
VIEWPOINT 0 0 0 1 0 0 0
POINTS 946
DATA ascii
0.059641056 -0.121251 0.018862894 2.2407141e-38
-0.071351118 -0.1394823 -0.044167824 9.8627548e-39
-0.069202609 -0.13845469 -0.040221043 1.1245332e-38
-0.067279011 -0.13845469 -0.040221043 1.2628266e-38
-0.065355413 -0.13845469 -0.040221043 1.2813739e-38
-0.063076816 -0.13660498 -0.033116885 1.226021e-38
-0.061165668 -0.13660498 -0.033116885 1.2353127e-38
-0.059118249 -0.13584132 -0.03018398 1.2998139e-38
-0.057212256 -0.13584132 -0.03018398 1.2999218e-38
-0.055306248 -0.13584132 -0.03018398 1.2999218e-38
-0.05327525 -0.13505147 -0.027150342 1.2444968e-38
-0.05137457 -0.13505147 -0.027150342 8.480556e-39
-0.049473889 -0.13505147 -0.027150342 7.742628e-39
-0.047573201 -0.13505147 -0.027150342 3.0406495e-39
-0.045537762 -0.1340252 -0.023208806 3.1317661e-39
-0.043546841 -0.13324542 -0.020213911 1.3796862e-39
-0.04165832 -0.13324542 -0.020213911 6.4284847e-40
-0.039769799 -0.13324542 -0.020213911 7.3468397e-40
-0.037881278 -0.13324542 -0.020213911 1.0112681e-39
-0.035992756 -0.13324542 -0.020213911 5.5101298e-40
-0.034104235 -0.13324542 -0.020213911 3.6734198e-40
-0.032127932 -0.13220255 -0.016208598 4.1466425e-39
-0.030246431 -0.13220255 -0.016208598 8.2954459e-39
-0.028364932 -0.13220255 -0.016208598 1.2536445e-38
-0.026432307 -0.13140334 -0.013139078 1.2905227e-38
-0.024512382 -0.13063805 -0.010199735 1.0876926e-38
-0.022641422 -0.13063805 -0.010199735 8.1117763e-39
-0.020770455 -0.13063805 -0.010199735 2.7550649e-40
-0.018860502 -0.12958528 -0.0061563943 6.4393028e-40
-0.01697286 -0.12880091 -0.0031439755 2.7550649e-40
-0.015114268 -0.12880091 -0.0031439755 9.1838299e-41
-0.013255676 -0.12880091 -0.0031439755 7.3684898e-40
-0.011397084 -0.12880091 -0.0031439755 9.1838299e-41
-0.0095332544 -0.12724553 0.0028298404 1.4733238e-39
-0.0076851379 -0.12724553 0.0028298404 9.1835496e-40
-0.0058370195 -0.12724553 0.0028298404 2.0214571e-39
-0.0039889012 -0.12724553 0.0028298404 3.4008225e-39
-0.002165664 -0.12618984 0.0068843868 2.2040519e-39
-0.00032465532 -0.12618984 0.0068843868 1.216073e-38
0.0015163533 -0.12618984 0.0068843868 1.4649638e-38
0.0033573629 -0.12618984 0.0068843868 1.3725221e-38
0.0051597226 -0.12542458 0.0098234918 5.4272948e-39
0.0069504129 -0.12463553 0.01285403 7.1797531e-39
0.0087809563 -0.12463553 0.01285403 4.785175e-39
0.010611497 -0.12463553 0.01285403 4.5135852e-39
0.012442039 -0.12463553 0.01285403 7.7411679e-39
0.014206544 -0.12385099 0.015867164 8.1996994e-39
0.016031804 -0.12385099 0.015867164 5.5267464e-39
0.017780902 -0.123071 0.018862894 4.7916378e-39
0.019600907 -0.123071 0.018862894 1.5211172e-38
0.021420915 -0.123071 0.018862894 1.982099e-38
0.023240922 -0.123071 0.018862894 1.7331725e-38
0.025060927 -0.123071 0.018862894 1.2630461e-38
0.026880937 -0.123071 0.018862894 3.8722333e-39
0.028700942 -0.123071 0.018862894 3.3201329e-39
0.030520948 -0.123071 0.018862894 3.0442649e-39
0.032340959 -0.123071 0.018862894 3.9669414e-39
0.034160964 -0.123071 0.018862894 2.0655069e-38
0.03598097 -0.123071 0.018862894 2.2498978e-38
0.037934914 -0.12385099 0.015867164 2.2406783e-38
0.039620981 -0.123071 0.018862894 2.2314589e-38
0.041440986 -0.123071 0.018862894 2.2867037e-38
0.043260999 -0.123071 0.018862894 2.2958873e-38
0.045081005 -0.123071 0.018862894 2.2130541e-38
0.04690101 -0.123071 0.018862894 2.240748e-38
0.048721015 -0.123071 0.018862894 2.2775189e-38
0.050316952 -0.12204717 0.022795131 2.2867037e-38
0.051950246 -0.12125005 0.025856545 2.249826e-38
0.053757988 -0.12125005 0.025856545 2.2498619e-38
0.05556573 -0.12125005 0.025856545 2.2590813e-38
0.057373479 -0.12125005 0.025856545 2.2774479e-38
0.059181221 -0.12125005 0.025856545 2.3142541e-38
0.06098897 -0.12125005 0.025856545 2.3234372e-38
-0.073157422 -0.13250901 -0.010199735 1.1246411e-38
-0.071286462 -0.13250901 -0.010199735 1.1060941e-38
-0.071351118 -0.14141284 -0.044167824 1.0599962e-38
-0.069202609 -0.14037828 -0.040221043 1.0692161e-38
-0.067279011 -0.14037828 -0.040221043 1.1153139e-38
-0.065355413 -0.14037828 -0.040221043 1.1246414e-38
-0.063076816 -0.13851611 -0.033116885 1.1153862e-38
-0.061165668 -0.13851611 -0.033116885 1.0877994e-38
-0.059118249 -0.13774733 -0.03018398 1.1338972e-38
-0.057212256 -0.13774733 -0.03018398 1.1708834e-38
-0.055306248 -0.13774733 -0.03018398 1.1893225e-38
-0.05327525 -0.13695215 -0.027150342 1.3182888e-38
-0.05137457 -0.13695215 -0.027150342 8.9418887e-39
-0.049473889 -0.13695215 -0.027150342 8.3883576e-39
-0.047573201 -0.13695215 -0.027150342 3.9629673e-39
-0.045537762 -0.13591899 -0.023208806 3.2250422e-39
-0.043546841 -0.13513394 -0.020213911 3.6734198e-40
-0.04165832 -0.13513394 -0.020213911 3.6734198e-40
-0.039769799 -0.13513394 -0.020213911 1.2889339e-39
-0.037881278 -0.13513394 -0.020213911 5.5101298e-40
-0.035992756 -0.13513394 -0.020213911 7.3468397e-40
-0.034104235 -0.13513394 -0.020213911 1.7495562e-39
-0.032127932 -0.13408406 -0.016208598 3.8700557e-39
-0.030246431 -0.13408406 -0.016208598 2.7637081e-39
-0.028308423 -0.13327946 -0.013139078 2.0261459e-39
-0.026432307 -0.13327946 -0.013139078 4.4232322e-39
-0.024512382 -0.13250901 -0.010199735 6.9125142e-39
-0.022641422 -0.13250901 -0.010199735 8.2039719e-39
-0.020770455 -0.13250901 -0.010199735 2.7550649e-40
-0.018860502 -0.13144915 -0.0061563943 1.1971041e-39
-0.01697286 -0.13065951 -0.0031439755 1.7502778e-39
-0.015114268 -0.13065951 -0.0031439755 5.5245772e-40
-0.013255676 -0.13065951 -0.0031439755 5.5245772e-40
-0.011397084 -0.13065951 -0.0031439755 5.5245772e-40
-0.0095332544 -0.12909363 0.0028298404 2.7550649e-40
-0.0076851379 -0.12909363 0.0028298404 8.268782e-40
-0.0058370195 -0.12909363 0.0028298404 1.0101905e-39
-0.0039889012 -0.12909363 0.0028298404 1.3775423e-39
-0.002165664 -0.12803085 0.0068843868 1.8367099e-39
-0.00032465532 -0.12803085 0.0068843868 1.0317552e-38
0.0015554531 -0.12909363 0.0028298404 1.4557816e-38
0.0033573629 -0.12803085 0.0068843868 1.3356807e-38
0.0051597226 -0.12726043 0.0098234918 5.4272948e-39
0.0069955783 -0.12726043 0.0098234918 4.6904683e-39
0.0087809563 -0.12646608 0.01285403 5.5227401e-39
0.010611497 -0.12646608 0.01285403 6.632291e-39
0.012381285 -0.12567626 0.015867164 1.3732089e-38
0.014206544 -0.12567626 0.015867164 1.2624001e-38
0.016031804 -0.12567626 0.015867164 6.0781139e-39
0.017780902 -0.124891 0.018862894 4.236306e-39
0.019600907 -0.124891 0.018862894 1.0876541e-38
0.021420915 -0.124891 0.018862894 9.5861987e-39
0.023240922 -0.124891 0.018862894 8.7575339e-39
0.025060927 -0.124891 0.018862894 5.1618987e-39
0.026880937 -0.124891 0.018862894 2.1205163e-39
0.028700942 -0.124891 0.018862894 2.3981794e-39
0.030520948 -0.124891 0.018862894 2.5832867e-39
0.032340959 -0.124891 0.018862894 5.7190143e-39
0.034160964 -0.124891 0.018862894 2.2867037e-38
0.03598097 -0.124891 0.018862894 2.2958873e-38
0.037800975 -0.124891 0.018862894 2.2038007e-38
0.039438277 -0.12386028 0.022795131 2.2867037e-38
0.041251391 -0.12386028 0.022795131 2.2867037e-38
0.043064505 -0.12386028 0.022795131 2.2591526e-38
0.044877611 -0.12386028 0.022795131 2.2499684e-38
0.046527013 -0.1230578 0.025856545 2.2867025e-38
0.048334755 -0.1230578 0.025856545 2.2958863e-38
0.050142504 -0.1230578 0.025856545 2.3142544e-38
0.051950246 -0.1230578 0.025856545 2.3234379e-38
0.053757988 -0.1230578 0.025856545 2.3234379e-38
0.05556573 -0.1230578 0.025856545 2.3234379e-38
0.057373479 -0.1230578 0.025856545 2.3418045e-38
0.058988005 -0.12228753 0.028795173 2.3418043e-38
0.060790598 -0.12228753 0.028795173 2.3509873e-38
0.063008733 -0.12386028 0.022795131 2.3141805e-38
0.064821847 -0.12386028 0.022795131 2.3509869e-38
0.066921085 -0.124891 0.018862894 1.5212619e-38
-0.073157422 -0.13437997 -0.010199735 1.0693956e-38
-0.071286462 -0.13437997 -0.010199735 1.0785433e-38
-0.071351118 -0.14334334 -0.044167824 1.1154215e-38
-0.069202609 -0.14230187 -0.040221043 1.1522645e-38
-0.067279011 -0.14230187 -0.040221043 1.1246058e-38
-0.065195598 -0.14148657 -0.037131257 1.161484e-38
-0.063076816 -0.14042725 -0.033116885 1.161484e-38
-0.061165668 -0.14042725 -0.033116885 1.097019e-38
-0.059118249 -0.13965334 -0.03018398 1.0877991e-38
-0.057212256 -0.13965334 -0.03018398 1.1523361e-38
-0.055306248 -0.13965334 -0.03018398 1.1799948e-38
-0.05327525 -0.13885282 -0.027150342 1.1616638e-38
-0.05137457 -0.13885282 -0.027150342 7.928813e-39
-0.049473889 -0.13885282 -0.027150342 7.4674789e-39
-0.047573201 -0.13885282 -0.027150342 2.9498944e-39
-0.045537762 -0.13781275 -0.023208806 2.4878401e-39
-0.043546841 -0.13702248 -0.020213911 2.7550649e-40
-0.04165832 -0.13702248 -0.020213911 2.7550649e-40
-0.039769799 -0.13702248 -0.020213911 5.5173465e-40
-0.037881278 -0.13702248 -0.020213911 3.6734198e-40
-0.035992756 -0.13702248 -0.020213911 3.6734198e-40
-0.034009427 -0.13596557 -0.016208598 1.1041896e-39
-0.032127932 -0.13596557 -0.016208598 2.9481022e-39
-0.030184539 -0.13515557 -0.013139078 2.2105371e-39
-0.02825431 -0.13437997 -0.010199735 8.2760547e-40
-0.026383346 -0.13437997 -0.010199735 1.1045525e-39
-0.024452122 -0.13331302 -0.0061563943 1.9343132e-39
-0.022588251 -0.13331302 -0.0061563943 4.7923777e-39
-0.020724377 -0.13331302 -0.0061563943 2.7550929e-40
-0.018860502 -0.13331302 -0.0061563943 2.7587083e-40
-0.016996628 -0.13331302 -0.0061563943 1.1056315e-39
-0.015114268 -0.1325181 -0.0031439755 6.4465335e-40
-0.013255676 -0.1325181 -0.0031439755 9.1838299e-41
-0.011397084 -0.1325181 -0.0031439755 2.7587083e-40
-0.0095384922 -0.1325181 -0.0031439755 2.7550649e-40
-0.0076851379 -0.13094176 0.0028298404 3.6734198e-40
-0.0058370195 -0.13094176 0.0028298404 1.194939e-39
-0.0039889012 -0.13094176 0.0028298404 1.5612118e-39
-0.002165664 -0.12987186 0.0068843868 2.2051281e-39
-0.00032465532 -0.12987186 0.0068843868 3.9564597e-39
0.0015163533 -0.12987186 0.0068843868 1.0133175e-38
0.0033573629 -0.12987186 0.0068843868 9.301644e-39
0.0051597226 -0.12909628 0.0098234918 4.2305439e-39
0.0069955783 -0.12909628 0.0098234918 4.2316397e-39
0.0087809563 -0.1282966 0.01285403 5.7993255e-39
0.010611497 -0.1282966 0.01285403 4.7876763e-39
0.012381285 -0.1275015 0.015867164 8.6609802e-39
0.014206544 -0.1275015 0.015867164 9.6737252e-39
0.016031804 -0.1275015 0.015867164 1.0226899e-38
0.017780902 -0.126711 0.018862894 8.2914746e-39
0.019600907 -0.126711 0.018862894 9.2148686e-39
0.021420915 -0.126711 0.018862894 6.0824018e-39
0.023240922 -0.126711 0.018862894 6.7288615e-39
0.025060927 -0.126711 0.018862894 5.3459256e-39
0.026880937 -0.126711 0.018862894 2.7648011e-39
0.028700942 -0.126711 0.018862894 3.2264939e-39
0.030520948 -0.126711 0.018862894 3.22721e-39
0.032340959 -0.126711 0.018862894 7.7458776e-39
0.033998944 -0.1256734 0.022795131 2.2958155e-38
0.03581205 -0.1256734 0.022795131 2.3142544e-38
0.037625164 -0.1256734 0.022795131 2.2958873e-38
0.039296031 -0.12486555 0.025856545 2.2958873e-38
0.04110378 -0.12486555 0.025856545 2.2867037e-38
0.042911522 -0.12486555 0.025856545 2.2867036e-38
0.044567272 -0.12409012 0.028795173 2.2958867e-38
0.046369866 -0.12409012 0.028795173 2.2958863e-38
0.048172459 -0.12409012 0.028795173 2.2775186e-38
0.049975045 -0.12409012 0.028795173 2.2496453e-38
0.051777638 -0.12409012 0.028795173 2.304891e-38
0.053580232 -0.12409012 0.028795173 2.323258e-38
0.055382825 -0.12409012 0.028795173 2.3417327e-38
0.057185411 -0.12409012 0.028795173 2.3509879e-38
0.058988005 -0.12409012 0.028795173 2.3417679e-38
0.060790598 -0.12409012 0.028795173 2.3509509e-38
0.062796712 -0.12486555 0.025856545 2.3509869e-38
0.064604454 -0.12486555 0.025856545 2.3509869e-38
0.066412203 -0.12486555 0.025856545 1.2076886e-38
0.068219945 -0.12486555 0.025856545 9.403213e-39
0.070027687 -0.12486555 0.025856545 1.143152e-38
0.071835436 -0.12486555 0.025856545 1.014186e-38
0.073643178 -0.12486555 0.025856545 9.6805243e-39
-0.073157422 -0.13625093 -0.010199735 1.0140426e-38
-0.071286462 -0.13625093 -0.010199735 1.0601041e-38
-0.068810247 -0.14233841 -0.033116885 1.0692887e-38
-0.066899106 -0.14233841 -0.033116885 1.0231909e-38
-0.065195598 -0.14340474 -0.037131257 1.0600691e-38
-0.063076816 -0.14233841 -0.033116885 1.078508e-38
-0.061165668 -0.14233841 -0.033116885 9.7716438e-39
-0.059118249 -0.14155935 -0.03018398 9.4028612e-39
-0.057212256 -0.14155935 -0.03018398 9.9563909e-39
-0.055306248 -0.14155935 -0.03018398 1.0325173e-38
-0.05327525 -0.14075352 -0.027150342 1.0417013e-38
-0.05137457 -0.14075352 -0.027150342 7.0990495e-39
-0.049473889 -0.14075352 -0.027150342 6.9143051e-39
-0.047573201 -0.14075352 -0.027150342 2.2123294e-39
-0.045537762 -0.13970654 -0.023208806 2.1201366e-39
-0.043643989 -0.13970654 -0.023208806 6.4465335e-40
-0.04165832 -0.13891099 -0.020213911 9.1841101e-41
-0.039769799 -0.13891099 -0.020213911 9.1841101e-41
-0.037881278 -0.13891099 -0.020213911 1.473335e-39
-0.035992756 -0.13891099 -0.020213911 3.6734198e-40
-0.034009427 -0.13784705 -0.016208598 3.6734198e-40
-0.032127932 -0.13784705 -0.016208598 3.6734198e-40
-0.030184539 -0.13703169 -0.013139078 3.6734479e-40
-0.02825431 -0.13625093 -0.010199735 7.3540984e-40
-0.026383346 -0.13625093 -0.010199735 5.5137872e-40
-0.024452122 -0.13517688 -0.0061563943 2.7550929e-40
-0.022588251 -0.13517688 -0.0061563943 6.4357435e-40
-0.020724377 -0.13517688 -0.0061563943 8.2796561e-40
-0.018860502 -0.13517688 -0.0061563943 3.6806646e-40
-0.016996628 -0.13517688 -0.0061563943 9.1838299e-41
-0.015114268 -0.13437669 -0.0031439755 1.1056315e-39
-0.013242546 -0.13358103 -0.00014860369 9.1838299e-41
-0.011389207 -0.13358103 -0.00014860369 9.1838299e-41
-0.0095358659 -0.13358103 -0.00014860369 1.0134359e-39
-0.0076886918 -0.13171287 0.0068843868 4.6098095e-40
-0.0058476832 -0.13171287 0.0068843868 2.7550649e-40
-0.0040066745 -0.13171287 0.0068843868 6.4284847e-40
-0.002165664 -0.13171287 0.0068843868 1.0101905e-39
-0.00032465532 -0.13171287 0.0068843868 2.7593697e-39
0.0015163533 -0.13171287 0.0068843868 9.4889094e-39
0.0033573629 -0.13171287 0.0068843868 8.5662412e-39
0.0051597226 -0.13093217 0.0098234918 1.6530389e-39
0.0069955783 -0.13093217 0.0098234918 1.3775324e-39
0.0087809563 -0.13012715 0.01285403 3.6806239e-39
0.010556025 -0.12932678 0.015867164 4.7884106e-39
0.012381285 -0.12932678 0.015867164 3.2210863e-39
0.014206544 -0.12932678 0.015867164 4.5121937e-39
0.016031804 -0.12932678 0.015867164 1.5390556e-38
0.017780902 -0.12853102 0.018862894 1.8709581e-38
0.019600907 -0.12853102 0.018862894 2.3505917e-38
0.021420915 -0.12853102 0.018862894 2.3321541e-38
0.023240922 -0.12853102 0.018862894 2.3230789e-38
0.025060927 -0.12853102 0.018862894 2.2032244e-38
0.026880937 -0.12853102 0.018862894 1.5763295e-38
0.028700942 -0.12853102 0.018862894 1.3182533e-38
0.030520948 -0.12853102 0.018862894 9.1270016e-39
0.032340959 -0.12853102 0.018862894 1.1616286e-38
0.033998944 -0.12748651 0.022795131 2.3509886e-38
0.03581205 -0.12748651 0.022795131 2.2680488e-38
0.037625164 -0.12748651 0.022795131 2.3234379e-38
0.039159499 -0.12589271 0.028795173 2.3234379e-38
0.040962085 -0.12589271 0.028795173 2.2497539e-38
0.042764679 -0.12589271 0.028795173 2.3142544e-38
0.044567272 -0.12589271 0.028795173 2.3142541e-38
0.046369866 -0.12589271 0.028795173 2.2498243e-38
0.048172459 -0.12589271 0.028795173 2.3234372e-38
0.049975045 -0.12589271 0.028795173 2.3509886e-38
0.051777638 -0.12589271 0.028795173 2.3509168e-38
0.053580232 -0.12589271 0.028795173 2.3509167e-38
0.055382825 -0.12589271 0.028795173 2.3509165e-38
0.056991771 -0.12508895 0.031821065 2.350952e-38
0.058789052 -0.12508895 0.031821065 2.3509153e-38
0.060586341 -0.12508895 0.031821065 2.3507351e-38
0.062383629 -0.12508895 0.031821065 2.3509869e-38
0.064395785 -0.12589271 0.028795173 2.2862339e-38
0.066198379 -0.12589271 0.028795173 9.9556707e-39
0.068000965 -0.12589271 0.028795173 1.0047866e-38
0.070027687 -0.1266733 0.025856545 1.1892498e-38
0.071835436 -0.1266733 0.025856545 1.1340046e-38
0.073643178 -0.1266733 0.025856545 8.6663752e-39
0.07545092 -0.1266733 0.025856545 1.0326259e-38
-0.075402401 -0.13972856 -0.016208598 1.0417013e-38
-0.073157422 -0.13812189 -0.010199735 1.1246774e-38
-0.071286462 -0.13812189 -0.010199735 1.1799585e-38
-0.069986142 -0.14079951 -0.020213911 1.1799587e-38
-0.068810247 -0.14424954 -0.033116885 1.1246779e-38
-0.066899106 -0.14424954 -0.033116885 1.0140075e-38
-0.065195598 -0.14532293 -0.037131257 9.6787349e-39
-0.063076816 -0.14424954 -0.033116885 9.8631233e-39
-0.061165668 -0.14424954 -0.033116885 9.4946967e-39
-0.059254527 -0.14424954 -0.033116885 8.6649361e-39
-0.057212256 -0.14346536 -0.03018398 8.6649333e-39
-0.055306248 -0.14346536 -0.03018398 9.3110215e-39
-0.05327525 -0.1426542 -0.027150342 9.5872525e-39
-0.05137457 -0.1426542 -0.027150342 6.729188e-39
-0.049325302 -0.1416003 -0.023208806 7.4674789e-39
-0.047431529 -0.1416003 -0.023208806 1.8435469e-39
-0.045537762 -0.1416003 -0.023208806 1.1056287e-39
-0.043546841 -0.14079951 -0.020213911 3.6806646e-40
-0.04165832 -0.14079951 -0.020213911 9.1842503e-41
-0.039769799 -0.14079951 -0.020213911 9.1841101e-41
-0.037962668 -0.1416003 -0.023208806 3.6734619e-40
-0.036068894 -0.1416003 -0.023208806 3.6734479e-40
-0.034104235 -0.14079951 -0.020213911 3.6734479e-40
-0.032127932 -0.13972856 -0.016208598 3.6734479e-40
-0.030184539 -0.13890781 -0.013139078 2.7550929e-40
-0.02825431 -0.13812189 -0.010199735 2.7550929e-40
-0.026383346 -0.13812189 -0.010199735 2.7550929e-40
-0.024512382 -0.13812189 -0.010199735 5.5137872e-40
-0.022588251 -0.13704078 -0.0061563943 9.1838299e-41
-0.020724377 -0.13704078 -0.0061563943 9.1838299e-41
-0.018831452 -0.13623528 -0.0031439755 3.6806646e-40
-0.01697286 -0.13623528 -0.0031439755 3.6806646e-40
-0.015114268 -0.13623528 -0.0031439755 2.7658689e-40
-0.013242546 -0.13543437 -0.00014860369 1.8439126e-40
-0.011389207 -0.13543437 -0.00014860369 9.219563e-41
-0.0095332544 -0.134638 0.0028298404 3.629363e-43
-0.0076886918 -0.13355388 0.0068843868 3.671402e-43
-0.0058476832 -0.13355388 0.0068843868 7.2166871e-43
-0.0040066745 -0.13355388 0.0068843868 2.7658269e-40
-0.002165664 -0.13355388 0.0068843868 5.5101298e-40
-0.00034784526 -0.13276802 0.0098234918 1.8395798e-39
0.0014880104 -0.13276802 0.0098234918 6.7244978e-39
0.003323867 -0.13276802 0.0098234918 6.8163291e-39
0.0051597226 -0.13276802 0.0098234918 1.2856969e-39
0.0069955783 -0.13276802 0.0098234918 1.0101905e-39
0.0087809563 -0.13195769 0.01285403 2.2076518e-39
0.010556025 -0.13115202 0.015867164 2.3002188e-39
0.012381285 -0.13115202 0.015867164 2.0243508e-39
0.014206544 -0.13115202 0.015867164 5.4355779e-39
0.015960895 -0.13035102 0.018862894 1.2626831e-38
0.017780902 -0.13035102 0.018862894 1.9632979e-38
0.019600907 -0.13035102 0.018862894 2.2951666e-38
0.021420915 -0.13035102 0.018862894 2.3413368e-38
0.023120267 -0.1292996 0.022795131 2.3508804e-38
0.024933381 -0.1292996 0.022795131 2.3229695e-38
0.026880937 -0.13035102 0.018862894 1.7882701e-38
0.028700942 -0.13035102 0.018862894 1.5486331e-38
0.030520948 -0.13035102 0.018862894 1.7792301e-38
0.032340959 -0.13035102 0.018862894 1.806889e-38
0.033998944 -0.1292996 0.022795131 2.3509879e-38
0.03581205 -0.1292996 0.022795131 2.3509164e-38
0.037625164 -0.1292996 0.022795131 2.3509527e-38
0.039159499 -0.12769531 0.028795173 2.3509527e-38
0.040962085 -0.12769531 0.028795173 2.3509527e-38
0.042764679 -0.12769531 0.028795173 2.341805e-38
0.044567272 -0.12769531 0.028795173 2.341805e-38
0.046369866 -0.12769531 0.028795173 2.30507e-38
0.048005335 -0.12688623 0.031821065 2.3141819e-38
0.049802624 -0.12688623 0.031821065 2.3509527e-38
0.051777638 -0.12769531 0.028795173 2.3507374e-38
0.053397194 -0.12688623 0.031821065 2.3415535e-38
0.055194482 -0.12688623 0.031821065 2.3414453e-38
0.056991771 -0.12688623 0.031821065 2.3509163e-38
0.058591262 -0.12608187 0.034829311 2.3509517e-38
0.060383275 -0.12608187 0.034829311 2.3509156e-38
0.062383629 -0.12688623 0.031821065 2.0464176e-38
0.064395785 -0.12769531 0.028795173 1.447146e-38
0.066198379 -0.12769531 0.028795173 1.0323376e-38
0.068000965 -0.12769531 0.028795173 9.8634764e-39
0.070027687 -0.12848105 0.025856545 1.1799948e-38
0.071835436 -0.12848105 0.025856545 1.0879073e-38
0.073643178 -0.12848105 0.025856545 9.680174e-39
0.07545092 -0.12848105 0.025856545 9.4043074e-39
-0.077540226 -0.14268802 -0.020213911 8.2972395e-39
-0.075402401 -0.14161004 -0.016208598 9.402864e-39
-0.073335223 -0.14078392 -0.013139078 1.0601404e-38
-0.071459107 -0.14078392 -0.013139078 1.1338609e-38
-0.069986142 -0.14268802 -0.020213911 1.1246414e-38
-0.068648264 -0.14537133 -0.03018398 1.0508857e-38
-0.066742264 -0.14537133 -0.03018398 9.4025123e-39
-0.064987965 -0.14616071 -0.033116885 8.6645843e-39
-0.063076816 -0.14616071 -0.033116885 8.6645829e-39
-0.061165668 -0.14616071 -0.033116885 8.7567758e-39
-0.059254527 -0.14616071 -0.033116885 8.5727404e-39
-0.057343386 -0.14616071 -0.033116885 8.6649361e-39
-0.055306248 -0.14537133 -0.03018398 9.0337186e-39
-0.05327525 -0.14455487 -0.027150342 9.4946967e-39
-0.05137457 -0.14455487 -0.027150342 6.4526039e-39
-0.049325302 -0.14349405 -0.023208806 7.0057805e-39
-0.047431529 -0.14349405 -0.023208806 1.3825687e-39
-0.045537762 -0.14349405 -0.023208806 7.3612591e-40
-0.043546841 -0.14268802 -0.020213911 9.1838299e-41
-0.04165832 -0.14268802 -0.020213911 9.1841101e-41
-0.039769799 -0.14268802 -0.020213911 9.1841101e-41
-0.037881278 -0.14268802 -0.020213911 2.7550929e-40
-0.035992756 -0.14268802 -0.020213911 3.6734479e-40
-0.034104235 -0.14268802 -0.020213911 5.5101858e-40
-0.032127932 -0.14161004 -0.016208598 6.4321421e-40
-0.030184539 -0.14078392 -0.013139078 4.5918309e-40
-0.02825431 -0.13999285 -0.010199735 2.7550929e-40
-0.026383346 -0.13999285 -0.010199735 2.7550929e-40
-0.024512382 -0.13999285 -0.010199735 2.7550929e-40
-0.022641422 -0.13999285 -0.010199735 2.7587083e-40
-0.020724377 -0.13890465 -0.0061563943 1.836752e-40
-0.018831452 -0.13809387 -0.0031439755 9.1838299e-41
-0.01697286 -0.13809387 -0.0031439755 9.1835496e-41
-0.015095888 -0.13728772 -0.00014860369 0
-0.013242546 -0.13728772 -0.00014860369 0
-0.011381373 -0.13648613 0.0028298404 0
-0.0095332544 -0.13648613 0.0028298404 2.8025969e-45
-0.0076886918 -0.13539489 0.0068843868 3.685415e-43
-0.0058476832 -0.13539489 0.0068843868 7.2307001e-43
-0.0040066745 -0.13539489 0.0068843868 9.3270426e-41
-0.002165664 -0.13539489 0.0068843868 9.2552961e-41
-0.00034784526 -0.13460387 0.0098234918 1.1038196e-39
0.0014880104 -0.13460387 0.0098234918 4.8827544e-39
0.003323867 -0.13460387 0.0098234918 5.0664184e-39
0.0051198713 -0.13378824 0.01285403 7.3468397e-40
0.0069504129 -0.13378824 0.01285403 1.0112667e-39
0.0087307673 -0.13297729 0.015867164 1.6566361e-39
0.010556025 -0.13297729 0.015867164 1.6570116e-39
0.012381285 -0.13297729 0.015867164 1.1038364e-39
0.014140887 -0.13217102 0.018862894 1.1960138e-39
0.015960895 -0.13217102 0.018862894 2.3023558e-39
0.017780902 -0.13217102 0.018862894 4.0526406e-39
0.019600907 -0.13217102 0.018862894 5.0667954e-39
0.021420915 -0.13217102 0.018862894 8.2936396e-39
0.023120267 -0.13111271 0.022795131 1.1152057e-38
0.024933381 -0.13111271 0.022795131 1.4563294e-38
0.026746491 -0.13111271 0.022795131 1.34573e-38
0.028559605 -0.13111271 0.022795131 1.428706e-38
0.030372715 -0.13111271 0.022795131 2.1479038e-38
0.032340959 -0.13217102 0.018862894 2.2677226e-38
0.033998944 -0.13111271 0.022795131 2.3509151e-38
0.03581205 -0.13111271 0.022795131 2.3508081e-38
0.037625164 -0.13111271 0.022795131 2.3508445e-38
0.039296031 -0.13028879 0.025856545 2.3508451e-38
0.040962085 -0.1294979 0.028795173 2.3415898e-38
0.042764679 -0.1294979 0.028795173 2.3324778e-38
0.044410765 -0.12868352 0.031821065 2.3509886e-38
0.046208046 -0.12868352 0.031821065 2.3509883e-38
0.048005335 -0.12868352 0.031821065 2.3509883e-38
0.049802624 -0.12868352 0.031821065 2.3509168e-38
0.051599912 -0.12868352 0.031821065 2.3508809e-38
0.053397194 -0.12868352 0.031821065 2.3508451e-38
0.055007242 -0.12787388 0.034829311 2.3508809e-38
0.056799248 -0.12787388 0.034829311 2.3508804e-38
0.058591262 -0.12787388 0.034829311 2.3507718e-38
0.060383275 -0.12787388 0.034829311 2.3507716e-38
0.062175289 -0.12787388 0.034829311 1.3917926e-38
0.063967302 -0.12787388 0.034829311 1.1244253e-38
0.066198379 -0.1294979 0.028795173 8.9397223e-39
0.068000965 -0.1294979 0.028795173 8.2950745e-39
0.070027687 -0.13028879 0.025856545 8.203602e-39
0.071835436 -0.13028879 0.025856545 8.2039663e-39
0.073643178 -0.13028879 0.025856545 9.4039514e-39
0.07545092 -0.13028879 0.025856545 9.219563e-39
-0.077540226 -0.14457656 -0.020213911 7.8362614e-39
-0.075651698 -0.14457656 -0.020213911 8.665299e-39
-0.073520906 -0.14349155 -0.016208598 1.0232262e-38
-0.071639396 -0.14349155 -0.016208598 1.1245335e-38
-0.069986142 -0.14457656 -0.020213911 1.0877275e-38
-0.068648264 -0.14727734 -0.03018398 1.0324466e-38
-0.066742264 -0.14727734 -0.03018398 9.0348088e-39
-0.064987965 -0.14807184 -0.033116885 7.8351838e-39
-0.063076816 -0.14807184 -0.033116885 7.1901717e-39
-0.061165668 -0.14807184 -0.033116885 7.4660397e-39
-0.059254527 -0.14807184 -0.033116885 7.9270151e-39
-0.057343386 -0.14807184 -0.033116885 8.4794686e-39
-0.055306248 -0.14727734 -0.03018398 8.5716642e-39
-0.053400248 -0.14727734 -0.03018398 8.9404468e-39
-0.05137457 -0.14645557 -0.027150342 6.1753009e-39
-0.049473889 -0.14645557 -0.027150342 6.5440834e-39
-0.047573201 -0.14645557 -0.027150342 1.9346635e-39
-0.045537762 -0.14538784 -0.023208806 1.1963852e-39
-0.043643989 -0.14538784 -0.023208806 4.5918309e-40
-0.04165832 -0.14457656 -0.020213911 5.5137872e-40
-0.039769799 -0.14457656 -0.020213911 2.7550929e-40
-0.037881278 -0.14457656 -0.020213911 2.7550929e-40
-0.035992756 -0.14457656 -0.020213911 2.7550929e-40
-0.034104235 -0.14457656 -0.020213911 2.7550929e-40
-0.032127932 -0.14349155 -0.016208598 2.7550929e-40
-0.030184539 -0.14266007 -0.013139078 2.7550649e-40
-0.02825431 -0.14186381 -0.010199735 2.7550649e-40
-0.026383346 -0.14186381 -0.010199735 9.1835496e-41
-0.024512382 -0.14186381 -0.010199735 9.1835496e-41
-0.022641422 -0.14186381 -0.010199735 9.1835496e-41
-0.020724377 -0.14076851 -0.0061563943 9.1835496e-41
-0.018831452 -0.13995247 -0.0031439755 0
-0.016949227 -0.13914107 -0.00014860369 9.2194229e-41
-0.015095888 -0.13914107 -0.00014860369 1.8438846e-40
-0.013229491 -0.13833423 0.0028298404 3.6877972e-40
-0.011381373 -0.13833423 0.0028298404 5.5317098e-40
-0.0095332544 -0.13833423 0.0028298404 3.7022446e-40
-0.0076851379 -0.13833423 0.0028298404 1.0832037e-42
-0.0058476832 -0.13723589 0.0068843868 1.4405348e-42
-0.0040066745 -0.13723589 0.0068843868 9.4706757e-41
-0.002165664 -0.13723589 0.0068843868 9.3270426e-41
-0.00034784526 -0.13643973 0.0098234918 7.3647763e-40
0.0014880104 -0.13643973 0.0098234918 3.3175895e-39
0.003323867 -0.13643973 0.0098234918 3.9622345e-39
0.0051198713 -0.13561879 0.01285403 1.1963726e-39
0.0069504129 -0.13561879 0.01285403 3.6734198e-40
0.0087307673 -0.13480256 0.015867164 2.7550649e-40
0.010556025 -0.13480256 0.015867164 1.836752e-40
0.012320882 -0.13399105 0.018862894 8.2904461e-40
0.014140887 -0.13399105 0.018862894 5.5173044e-40
0.015960895 -0.13399105 0.018862894 2.7550649e-40
0.017780902 -0.13399105 0.018862894 5.5101298e-40
0.019600907 -0.13399105 0.018862894 5.5101298e-40
0.021420915 -0.13399105 0.018862894 7.3468397e-40
0.023120267 -0.13292582 0.022795131 1.1949376e-39
0.024933381 -0.13292582 0.022795131 5.6195922e-39
0.026746491 -0.13292582 0.022795131 5.9887292e-39
0.028559605 -0.13292582 0.022795131 7.3716637e-39
0.030372715 -0.13292582 0.022795131 1.7698653e-38
0.032340959 -0.13399105 0.018862894 2.2584664e-38
0.033998944 -0.13292582 0.022795131 2.3509149e-38
0.03581205 -0.13292582 0.022795131 2.3508797e-38
0.037488289 -0.13209651 0.025856545 2.3508804e-38
0.039159499 -0.13130049 0.028795173 2.3508809e-38
0.040962085 -0.13130049 0.028795173 2.3508809e-38
0.042613477 -0.13048081 0.031821065 2.3508809e-38
0.044410765 -0.13048081 0.031821065 2.3509527e-38
0.046208046 -0.13048081 0.031821065 2.3509524e-38
0.048005335 -0.13048081 0.031821065 2.3509527e-38
0.049802624 -0.13048081 0.031821065 2.2954202e-38
0.051599912 -0.13048081 0.031821065 2.3507733e-38
0.053215228 -0.1296659 0.034829311 2.3506295e-38
0.055007242 -0.1296659 0.034829311 2.3508809e-38
0.056799248 -0.1296659 0.034829311 2.3506643e-38
0.058591262 -0.1296659 0.034829311 2.35088e-38
0.060383275 -0.1296659 0.034829311 2.3508797e-38
0.062175289 -0.1296659 0.034829311 9.9535141e-39
0.063967302 -0.1296659 0.034829311 9.4925359e-39
0.066198379 -0.13130049 0.028795173 8.8475295e-39
0.068000965 -0.13130049 0.028795173 8.387273e-39
0.070027687 -0.13209651 0.025856545 7.3738441e-39
0.071835436 -0.13209651 0.025856545 7.5585997e-39
0.073643178 -0.13209651 0.025856545 9.7727368e-39
0.07545092 -0.13209651 0.025856545 1.0048971e-38
-0.075651698 -0.14646508 -0.020213911 8.7567758e-39
-0.073520906 -0.14537306 -0.016208598 1.0324101e-38
-0.071639396 -0.14537306 -0.016208598 1.1429726e-38
-0.068648264 -0.14918335 -0.03018398 1.0416661e-38
-0.066742264 -0.14918335 -0.03018398 9.3113957e-39
-0.064987965 -0.14998297 -0.033116885 7.7429882e-39
-0.063076816 -0.14998297 -0.033116885 6.1756625e-39
-0.061165668 -0.14998297 -0.033116885 5.8987154e-39
-0.059254527 -0.14998297 -0.033116885 6.7273971e-39
-0.057343386 -0.14998297 -0.033116885 7.5571564e-39
-0.055306248 -0.14918335 -0.03018398 7.92522e-39
-0.053400248 -0.14918335 -0.03018398 8.2018083e-39
-0.05137457 -0.14835624 -0.027150342 6.4508102e-39
-0.049473889 -0.14835624 -0.027150342 7.0961796e-39
-0.047573201 -0.14835624 -0.027150342 4.2381151e-39
-0.045537762 -0.1472816 -0.023208806 3.5001941e-39
-0.043643989 -0.1472816 -0.023208806 2.6715125e-39
-0.041750215 -0.1472816 -0.023208806 2.3949284e-39
-0.039856441 -0.1472816 -0.023208806 1.5658866e-39
-0.037881278 -0.14646508 -0.020213911 1.1045525e-39
-0.035992756 -0.14646508 -0.020213911 1.0123569e-39
-0.034104235 -0.14646508 -0.020213911 5.5137872e-40
-0.032127932 -0.14537306 -0.016208598 2.7550649e-40
-0.030184539 -0.14453618 -0.013139078 2.7550649e-40
-0.02825431 -0.14373477 -0.010199735 2.7550649e-40
-0.026383346 -0.14373477 -0.010199735 9.1835496e-41
-0.024512382 -0.14373477 -0.010199735 9.1835496e-41
-0.022641422 -0.14373477 -0.010199735 9.1835496e-41
-0.020724377 -0.14263238 -0.0061563943 9.1835496e-41
-0.018831452 -0.14181106 -0.0031439755 0
-0.016949227 -0.14099441 -0.00014860369 9.2194229e-41
-0.015095888 -0.14099441 -0.00014860369 9.2194229e-41
-0.013229491 -0.14018236 0.0028298404 3.5873241e-43
-0.011381373 -0.14018236 0.0028298404 0
-0.0095332544 -0.14018236 0.0028298404 3.5873241e-43
-0.0076851379 -0.14018236 0.0028298404 1.0818024e-42
-0.0058370195 -0.14018236 0.0028298404 1.4405348e-42
-0.0039889012 -0.14018236 0.0028298404 1.4363309e-42
-0.0021407828 -0.14018236 0.0028298404 3.5873241e-43
-0.00034784526 -0.13827558 0.0098234918 9.1835496e-41
0.0014880104 -0.13827558 0.0098234918 1.1052573e-39
0.003323867 -0.13827558 0.0098234918 2.1190463e-39
0.0051198713 -0.13744931 0.01285403 1.1052573e-39
0.0069504129 -0.13744931 0.01285403 4.6061241e-40
0.0087307673 -0.13662781 0.015867164 3.5873241e-43
0.010556025 -0.13662781 0.015867164 3.5873241e-43
0.012320882 -0.13581105 0.018862894 2.7730576e-40
0.014140887 -0.13581105 0.018862894 4.6097815e-40
0.015960895 -0.13581105 0.018862894 9.1835496e-41
0.017780902 -0.13581105 0.018862894 6.4392467e-40
0.019600907 -0.13581105 0.018862894 1.7499107e-39
0.021420915 -0.13581105 0.018862894 1.4725979e-39
0.023240922 -0.13581105 0.018862894 6.4284847e-40
0.024933381 -0.13473894 0.022795131 1.7484618e-39
0.026746491 -0.13473894 0.022795131 1.1952964e-39
0.028559605 -0.13473894 0.022795131 8.268782e-40
0.030372715 -0.13473894 0.022795131 9.4921632e-39
0.03218583 -0.13473894 0.022795131 1.6959652e-38
0.033872798 -0.13390426 0.025856545 2.3508428e-38
0.035680547 -0.13390426 0.025856545 2.3506996e-38
0.037488289 -0.13390426 0.025856545 2.3508082e-38
0.039159499 -0.13310309 0.028795173 2.3508091e-38
0.040816188 -0.1322781 0.031821065 2.3508092e-38
0.042613477 -0.1322781 0.031821065 2.3508451e-38
0.044410765 -0.1322781 0.031821065 2.3508808e-38
0.046208046 -0.1322781 0.031821065 2.3508444e-38
0.048005335 -0.1322781 0.031821065 2.323186e-38
0.049802624 -0.1322781 0.031821065 2.3509168e-38
0.051599912 -0.1322781 0.031821065 2.3508809e-38
0.053215228 -0.13145791 0.034829311 2.3509168e-38
0.055007242 -0.13145791 0.034829311 2.3508807e-38
0.056799248 -0.13145791 0.034829311 2.3507002e-38
0.058591262 -0.13145791 0.034829311 2.3508797e-38
0.060383275 -0.13145791 0.034829311 2.3508794e-38
0.062175289 -0.13145791 0.034829311 9.4914555e-39
0.064395785 -0.13310309 0.028795173 8.5705782e-39
0.066198379 -0.13310309 0.028795173 8.0174058e-39
0.068000965 -0.13310309 0.028795173 8.1099672e-39
0.070027687 -0.13390426 0.025856545 8.0192135e-39
0.071835436 -0.13390426 0.025856545 7.742991e-39
0.073643178 -0.13390426 0.025856545 8.4820008e-39
-0.045537762 -0.14917539 -0.023208806 5.7125263e-39
-0.043643989 -0.14917539 -0.023208806 5.3444627e-39
-0.041750215 -0.14917539 -0.023208806 5.4366569e-39
-0.039856441 -0.14917539 -0.023208806 4.6079766e-39
-0.037962668 -0.14917539 -0.023208806 2.7644298e-39
-0.035992756 -0.14835359 -0.020213911 2.5800385e-39
-0.034104235 -0.14835359 -0.020213911 1.8424735e-39
-0.032127932 -0.14725454 -0.016208598 1.0127128e-39
-0.030184539 -0.1464123 -0.013139078 4.6025928e-40
-0.02825431 -0.14560573 -0.010199735 4.6061521e-40
-0.026383346 -0.14560573 -0.010199735 1.8402972e-40
-0.024512382 -0.14560573 -0.010199735 9.1835496e-41
-0.022641422 -0.14560573 -0.010199735 3.6877972e-40
-0.020724377 -0.14449625 -0.0061563943 1.8474719e-40
-0.018831452 -0.14366965 -0.0031439755 3.5873241e-43
-0.01697286 -0.14366965 -0.0031439755 3.5873241e-43
-0.015095888 -0.14284773 -0.00014860369 3.5873241e-43
-0.013229491 -0.14203046 0.0028298404 3.5873241e-43
-0.011381373 -0.14203046 0.0028298404 3.5873241e-43
-0.0095332544 -0.14203046 0.0028298404 3.5873241e-43
-0.0076851379 -0.14203046 0.0028298404 2.1594009e-42
-0.0058370195 -0.14203046 0.0028298404 2.1622035e-42
-0.0039889012 -0.14203046 0.0028298404 1.8048724e-42
-0.002165664 -0.14091791 0.0068843868 9.2198432e-41
-0.00034784526 -0.14011143 0.0098234918 2.7550649e-40
0.0014880104 -0.14011143 0.0098234918 4.5917748e-40
0.003323867 -0.14011143 0.0098234918 1.0123457e-39
0.0050802482 -0.13845308 0.015867164 9.2051156e-40
0.0069055073 -0.13845308 0.015867164 5.5317098e-40
0.008680867 -0.13763104 0.018862894 1.8510732e-40
0.010500874 -0.13763104 0.018862894 1.4349296e-42
0.012320882 -0.13763104 0.018862894 9.3990693e-41
0.014140887 -0.13763104 0.018862894 1.847542e-40
0.015960895 -0.13763104 0.018862894 2.8025969e-45
0.017780902 -0.13763104 0.018862894 2.7550649e-40
0.019600907 -0.13763104 0.018862894 2.7550649e-40
0.021420915 -0.13763104 0.018862894 7.3576017e-40
0.023240922 -0.13763104 0.018862894 3.6734198e-40
0.025060927 -0.13763104 0.018862894 1.1038196e-39
0.026880937 -0.13763104 0.018862894 7.3540143e-40
0.028700942 -0.13763104 0.018862894 8.2723693e-40
0.030520948 -0.13763104 0.018862894 6.173845e-39
0.03218583 -0.13655205 0.022795131 1.281193e-38
0.033751719 -0.13490568 0.028795173 2.3508791e-38
0.035554312 -0.13490568 0.028795173 2.3508797e-38
0.037356906 -0.13490568 0.028795173 2.3508444e-38
0.039159499 -0.13490568 0.028795173 2.3507726e-38
0.040816188 -0.13407536 0.031821065 2.3507729e-38
0.042613477 -0.13407536 0.031821065 2.3508448e-38
0.044410765 -0.13407536 0.031821065 2.3508805e-38
0.046208046 -0.13407536 0.031821065 2.3509521e-38
0.048005335 -0.13407536 0.031821065 2.3509883e-38
0.049802624 -0.13407536 0.031821065 2.3509527e-38
0.051599912 -0.13407536 0.031821065 2.3509168e-38
0.053215228 -0.13324992 0.034829311 2.3509168e-38
0.055007242 -0.13324992 0.034829311 2.3508442e-38
0.056799248 -0.13324992 0.034829311 2.3508798e-38
0.058591262 -0.13324992 0.034829311 2.3229685e-38
0.060586341 -0.13407536 0.031821065 1.9817366e-38
0.062593192 -0.13490568 0.028795173 9.2152246e-39
0.064395785 -0.13490568 0.028795173 8.6620508e-39
0.066198379 -0.13490568 0.028795173 7.4642307e-39
0.068000965 -0.13490568 0.028795173 7.5567906e-39
0.070027687 -0.13571201 0.025856545 8.203602e-39
0.071835436 -0.13571201 0.025856545 8.4805532e-39
0.073643178 -0.13571201 0.025856545 8.2054111e-39
-0.030246431 -0.14913605 -0.016208598 5.9001574e-39
-0.028308423 -0.14828841 -0.013139078 6.1767443e-39
-0.026432307 -0.14828841 -0.013139078 5.7157661e-39
-0.024556192 -0.14828841 -0.013139078 4.9781983e-39
-0.022680072 -0.14828841 -0.013139078 3.5959827e-39
-0.020724377 -0.14636014 -0.0061563943 2.766222e-39
-0.018860502 -0.14636014 -0.0061563943 1.4754832e-39
-0.01697286 -0.14552824 -0.0031439755 5.5352551e-40
-0.015095888 -0.14470108 -0.00014860369 1.8474719e-40
-0.013242546 -0.14470108 -0.00014860369 9.2552961e-41
-0.011381373 -0.14387859 0.0028298404 9.2552961e-41
-0.0095332544 -0.14387859 0.0028298404 3.5873241e-43
-0.0076851379 -0.14387859 0.0028298404 7.1746481e-43
-0.0058476832 -0.14275892 0.0068843868 3.643376e-43
-0.0040066745 -0.14275892 0.0068843868 7.0064923e-45
0.0050802482 -0.14027832 0.015867164 4.5953621e-40
0.0069055073 -0.14027832 0.015867164 0
0.008680867 -0.13945107 0.018862894 7.1886611e-43
0.010500874 -0.13945107 0.018862894 1.7950633e-42
0.012320882 -0.13945107 0.018862894 1.7950633e-42
0.014140887 -0.13945107 0.018862894 2.7695263e-40
0.015960895 -0.13945107 0.018862894 5.5282065e-40
0.017780902 -0.13945107 0.018862894 3.6806365e-40
0.019600907 -0.13945107 0.018862894 2.7550649e-40
0.021420915 -0.13945107 0.018862894 9.1841101e-41
0.023240922 -0.13945107 0.018862894 9.1838299e-41
0.025060927 -0.13945107 0.018862894 4.5953621e-40
0.026880937 -0.13945107 0.018862894 2.7550649e-40
0.028700942 -0.13945107 0.018862894 1.2882081e-39
0.030372715 -0.13836516 0.022795131 6.3593208e-39
0.03218583 -0.13836516 0.022795131 1.2166927e-38
0.033751719 -0.13670824 0.028795173 2.3509153e-38
0.035554312 -0.13670824 0.028795173 2.3507358e-38
0.037356906 -0.13670824 0.028795173 2.2031872e-38
0.039159499 -0.13670824 0.028795173 2.0925168e-38
0.040816188 -0.13587265 0.031821065 2.0557465e-38
0.042613477 -0.13587265 0.031821065 2.0280878e-38
0.044410765 -0.13587265 0.031821065 1.9820616e-38
0.046208046 -0.13587265 0.031821065 2.0374867e-38
0.048005335 -0.13587265 0.031821065 2.1666325e-38
0.049802624 -0.13587265 0.031821065 2.2034393e-38
0.051599912 -0.13587265 0.031821065 2.2218784e-38
0.053215228 -0.13504194 0.034829311 2.3416245e-38
0.055007242 -0.13504194 0.034829311 2.3509517e-38
0.056799248 -0.13504194 0.034829311 2.3509511e-38
0.058789052 -0.13587265 0.031821065 2.0187944e-38
0.060586341 -0.13587265 0.031821065 1.5115742e-38
0.062383629 -0.13587265 0.031821065 8.5698496e-39
0.064180918 -0.13587265 0.031821065 8.4776539e-39
0.06663496 -0.13836516 0.022795131 7.8333663e-39
0.068448074 -0.13836516 0.022795131 7.2805583e-39
0.07026118 -0.13836516 0.022795131 7.6507841e-39
-0.020724377 -0.14822401 -0.0061563943 6.0852633e-39
-0.018860502 -0.14822401 -0.0061563943 4.425742e-39
-0.01697286 -0.14738683 -0.0031439755 2.9506091e-39
-0.015114268 -0.14738683 -0.0031439755 1.9364572e-39
-0.013242546 -0.14655443 -0.00014860369 1.1988921e-39
-0.011381373 -0.1457267 0.0028298404 5.5424157e-40
-0.0095332544 -0.1457267 0.0028298404 1.8510592e-40
-0.0076851379 -0.1457267 0.0028298404 3.7022446e-40
-0.0058476832 -0.14459993 0.0068843868 3.6914826e-40
-0.0040066745 -0.14459993 0.0068843868 9.1838299e-41
0.0050802482 -0.1421036 0.015867164 3.6734198e-40
0.0069055073 -0.1421036 0.015867164 9.1835496e-41
0.008680867 -0.14127107 0.018862894 3.5873241e-43
0.010500874 -0.14127107 0.018862894 3.5873241e-43
0.012320882 -0.14127107 0.018862894 3.61535e-43
0.014140887 -0.14127107 0.018862894 2.8025969e-45
0.015960895 -0.14127107 0.018862894 2.8025969e-45
0.017780902 -0.14127107 0.018862894 1.836752e-40
0.019600907 -0.14127107 0.018862894 1.836794e-40
0.021420915 -0.14127107 0.018862894 6.4538622e-40
0.023240922 -0.14127107 0.018862894 2.7660371e-40
0.025060927 -0.14127107 0.018862894 7.0064923e-45
0.026880937 -0.14127107 0.018862894 0
0.028700942 -0.14127107 0.018862894 2.7550649e-40
0.030372715 -0.14017828 0.022795131 4.7930825e-39
0.03218583 -0.14017828 0.022795131 1.0324457e-38
0.033872798 -0.13932751 0.025856545 2.25854e-38
0.035680547 -0.13932751 0.025856545 2.3322609e-38
0.037488289 -0.13932751 0.025856545 2.0742212e-38
0.039159499 -0.13851084 0.028795173 1.9266726e-38
0.040816188 -0.13766994 0.031821065 1.935964e-38
0.042613477 -0.13766994 0.031821065 1.8530956e-38
0.044410765 -0.13766994 0.031821065 1.7148739e-38
0.046208046 -0.13766994 0.031821065 1.7794461e-38
0.048005335 -0.13766994 0.031821065 1.9638737e-38
0.049802624 -0.13766994 0.031821065 2.1205348e-38
0.051599912 -0.13766994 0.031821065 2.1020957e-38
0.053215228 -0.13683395 0.034829311 2.157269e-38
0.055007242 -0.13683395 0.034829311 2.3509873e-38
0.056799248 -0.13683395 0.034829311 2.2954531e-38
0.058789052 -0.13766994 0.031821065 1.5947298e-38
0.060586341 -0.13766994 0.031821065 1.271901e-38
0.062383629 -0.13766994 0.031821065 7.8326418e-39
0.064821847 -0.14017828 0.022795131 6.9106855e-39
0.06663496 -0.14017828 0.022795131 6.9114072e-39
0.068448074 -0.14017828 0.022795131 6.6351861e-39
0.07026118 -0.14017828 0.022795131 6.9132163e-39
-0.01697286 -0.14924543 -0.0031439755 6.6380713e-39
-0.015114268 -0.14924543 -0.0031439755 6.9146554e-39
-0.013255676 -0.14924543 -0.0031439755 7.0990467e-39
-0.011389207 -0.14840777 -0.00014860369 6.8231787e-39
-0.0095358659 -0.14840777 -0.00014860369 6.6384343e-39
-0.0076825265 -0.14840777 -0.00014860369 5.9005203e-39
-0.0058291852 -0.14840777 -0.00014860369 4.9785668e-39
0.0050802482 -0.14392884 0.015867164 7.3576017e-40
0.0069055073 -0.14392884 0.015867164 1.8402972e-40
0.008680867 -0.14309107 0.018862894 0
0.010500874 -0.14309107 0.018862894 3.5873241e-43
0.012320882 -0.14309107 0.018862894 2.7730576e-40
0.014140887 -0.14309107 0.018862894 1.8511013e-40
0.015960895 -0.14309107 0.018862894 0
0.017780902 -0.14309107 0.018862894 9.1838299e-41
0.019600907 -0.14309107 0.018862894 3.6771193e-40
0.021420915 -0.14309107 0.018862894 9.2212445e-41
0.023240922 -0.14309107 0.018862894 1.5414283e-44
0.025060927 -0.14309107 0.018862894 3.6879373e-40
0.026880937 -0.14309107 0.018862894 7.3721191e-40
0.028559605 -0.14199139 0.022795131 2.7622395e-40
0.030372715 -0.14199139 0.022795131 3.041011e-39
0.03218583 -0.14199139 0.022795131 7.5582354e-39
0.033872798 -0.14113526 0.025856545 1.8990493e-38
0.035680547 -0.14113526 0.025856545 1.8713907e-38
0.037488289 -0.14113526 0.025856545 1.6224626e-38
0.039159499 -0.14031343 0.028795173 1.5210837e-38
0.040962085 -0.14031343 0.028795173 1.6041674e-38
0.042613477 -0.13946722 0.031821065 1.5672891e-38
0.044410765 -0.13946722 0.031821065 1.3737501e-38
0.046208046 -0.13946722 0.031821065 1.4014804e-38
0.048005335 -0.13946722 0.031821065 1.6135303e-38
0.049802624 -0.13946722 0.031821065 1.6411893e-38
0.051599912 -0.13946722 0.031821065 1.6042391e-38
0.053215228 -0.13862596 0.034829311 1.558105e-38
0.055007242 -0.13862596 0.034829311 2.0097554e-38
0.056799248 -0.13862596 0.034829311 1.8806451e-38
0.058591262 -0.13862596 0.034829311 1.1891053e-38
0.060586341 -0.13946722 0.031821065 1.2351671e-38
0.062383629 -0.13946722 0.031821065 8.1099504e-39
0.064821847 -0.14199139 0.022795131 6.0816465e-39
0.06663496 -0.14199139 0.022795131 6.635542e-39
0.068448074 -0.14199139 0.022795131 7.1890815e-39
0.07026118 -0.14199139 0.022795131 7.9273682e-39
0.010500874 -0.14491107 0.018862894 8.301138e-40
0.012320882 -0.14491107 0.018862894 3.5873241e-43
0.014140887 -0.14491107 0.018862894 0
0.015960895 -0.14491107 0.018862894 4.6025928e-40
0.017780902 -0.14491107 0.018862894 9.1838299e-41
0.019600907 -0.14491107 0.018862894 3.6806926e-40
0.021420915 -0.14491107 0.018862894 4.6062502e-40
0.023240922 -0.14491107 0.018862894 5.6051939e-45
0.025060927 -0.14491107 0.018862894 5.5245772e-40
0.026880937 -0.14491107 0.018862894 3.6734339e-40
0.028559605 -0.14380451 0.022795131 5.5101298e-40
0.030372715 -0.14380451 0.022795131 8.268782e-40
0.032065056 -0.14294298 0.025856545 5.3444613e-39
0.033872798 -0.14294298 0.025856545 1.7698676e-38
0.035680547 -0.14294298 0.025856545 1.8344045e-38
0.037488289 -0.14294298 0.025856545 1.4472908e-38
0.039159499 -0.14211603 0.028795173 1.4196682e-38
0.040962085 -0.14211603 0.028795173 1.4750935e-38
0.042764679 -0.14211603 0.028795173 1.5304109e-38
0.044567272 -0.14211603 0.028795173 1.2446763e-38
0.046369866 -0.14211603 0.028795173 1.3092496e-38
0.048005335 -0.14126451 0.031821065 1.419884e-38
0.049802624 -0.14126451 0.031821065 1.4383232e-38
0.051599912 -0.14126451 0.031821065 1.5582132e-38
0.053215228 -0.14041798 0.034829311 1.5212631e-38
0.055007242 -0.14041798 0.034829311 1.5949833e-38
0.056799248 -0.14041798 0.034829311 1.5118993e-38
0.058591262 -0.14041798 0.034829311 1.216873e-38
0.060586341 -0.14126451 0.031821065 1.0416653e-38
0.062383629 -0.14126451 0.031821065 7.6507841e-39
0.064395785 -0.14211603 0.028795173 5.1615021e-39
0.066412203 -0.14294298 0.025856545 6.3600453e-39
0.068219945 -0.14294298 0.025856545 7.3745602e-39
0.070027687 -0.14294298 0.025856545 7.7444217e-39
0.071835436 -0.14294298 0.025856545 8.2050439e-39
0.010556025 -0.14757936 0.015867164 4.7938056e-39
0.012320882 -0.14673109 0.018862894 1.7513498e-39
0.014140887 -0.14673109 0.018862894 8.2939773e-40
0.015960895 -0.14673109 0.018862894 9.1835496e-41
0.017780902 -0.14673109 0.018862894 9.1838299e-41
0.019600907 -0.14673109 0.018862894 2.7587083e-40
0.021420915 -0.14673109 0.018862894 1.8367239e-40
0.023240922 -0.14673109 0.018862894 9.1835496e-41
0.025060927 -0.14673109 0.018862894 6.4392747e-40
0.026880937 -0.14673109 0.018862894 2.7550649e-40
0.028700942 -0.14673109 0.018862894 3.6734198e-40
0.030372715 -0.14561762 0.022795131 5.5101298e-40
0.032065056 -0.14475073 0.025856545 3.5920254e-39
0.033872798 -0.14475073 0.025856545 1.4010132e-38
0.035680547 -0.14475073 0.025856545 1.5670372e-38
0.037488289 -0.14475073 0.025856545 1.3549872e-38
0.039159499 -0.14391862 0.028795173 1.2905583e-38
0.040962085 -0.14391862 0.028795173 1.2444965e-38
0.042764679 -0.14391862 0.028795173 1.2446047e-38
0.044567272 -0.14391862 0.028795173 9.9571252e-39
0.046369866 -0.14391862 0.028795173 1.0602497e-38
0.048172459 -0.14391862 0.028795173 1.1893952e-38
0.049802624 -0.1430618 0.031821065 1.2539319e-38
0.051599912 -0.1430618 0.031821065 1.3000654e-38
0.053215228 -0.14220999 0.034829311 1.226237e-38
0.055007242 -0.14220999 0.034829311 1.3092131e-38
0.056799248 -0.14220999 0.034829311 1.2814825e-38
0.058789052 -0.1430618 0.031821065 1.0694326e-38
0.060586341 -0.1430618 0.031821065 9.3106712e-39
0.062383629 -0.1430618 0.031821065 6.7291936e-39
0.064395785 -0.14391862 0.028795173 6.6369979e-39
0.066412203 -0.14475073 0.025856545 7.0057805e-39
0.068219945 -0.14475073 0.025856545 7.1901717e-39
0.070027687 -0.14475073 0.025856545 7.0065007e-39
0.071835436 -0.14475073 0.025856545 7.5596745e-39
0.017857064 -0.14940463 0.015867164 9.1838299e-41
0.019682322 -0.14940463 0.015867164 5.5245772e-40
0.021507582 -0.14940463 0.015867164 0
0.02333284 -0.14940463 0.015867164 0
0.025158102 -0.14940463 0.015867164 5.5281084e-40
0.026880937 -0.14855109 0.018862894 2.7550649e-40
0.028700942 -0.14855109 0.018862894 3.6734198e-40
0.030372715 -0.14743073 0.022795131 3.6734198e-40
0.032065056 -0.14655848 0.025856545 1.4722448e-39
0.033872798 -0.14655848 0.025856545 8.8478952e-39
0.035680547 -0.14655848 0.025856545 1.4195242e-38
0.037488289 -0.14655848 0.025856545 1.3549872e-38
0.039296031 -0.14655848 0.025856545 1.2260214e-38
0.040962085 -0.14572121 0.028795173 1.087764e-38
0.042764679 -0.14572121 0.028795173 1.1524091e-38
0.044567272 -0.14572121 0.028795173 1.0049321e-38
0.046369866 -0.14572121 0.028795173 9.8649324e-39
0.048172459 -0.14572121 0.028795173 1.0786886e-38
0.049802624 -0.14485909 0.031821065 1.0326264e-38
0.051599912 -0.14485909 0.031821065 1.0879436e-38
0.053397194 -0.14485909 0.031821065 1.0694326e-38
0.055194482 -0.14485909 0.031821065 1.1431891e-38
0.056991771 -0.14485909 0.031821065 1.1431171e-38
