# .PCD v0.7 - Point Cloud Data file format
VERSION 0.7
FIELDS x y z rgb
SIZE 4 4 4 4
TYPE F F F F
COUNT 1 1 1 1
WIDTH 934
HEIGHT 1
VIEWPOINT 0 0 0 1 0 0 0
POINTS 934
DATA ascii
0.054852523 -0.11289944 0.011246152 2.304927e-38
0.056677781 -0.11289944 0.011246152 2.3233662e-38
0.058503039 -0.11289944 0.011246152 2.341805e-38
0.060328297 -0.11289944 0.011246152 2.341805e-38
0.062153555 -0.11289944 0.011246152 2.3234379e-38
0.063978814 -0.11289944 0.011246152 2.3049991e-38
0.065975778 -0.11365227 0.0082330182 2.3049991e-38
0.06798432 -0.11440946 0.0052024797 1.4659842e-38
0.069820181 -0.11440946 0.0052024797 1.1433351e-38
0.071656033 -0.11440946 0.0052024797 9.9582182e-39
0.073491894 -0.11440946 0.0052024797 8.7589506e-39
-0.082145952 -0.12631132 -0.034804992 1.7148728e-38
-0.080239959 -0.12631132 -0.034804992 2.1389375e-38
-0.078333952 -0.12631132 -0.034804992 2.350988e-38
-0.076427944 -0.12631132 -0.034804992 2.2956715e-38
-0.074521951 -0.12631132 -0.034804992 2.3417333e-38
-0.072615944 -0.12631132 -0.034804992 2.3509527e-38
-0.070709936 -0.12631132 -0.034804992 2.2957079e-38
-0.068803944 -0.12631132 -0.034804992 2.3049273e-38
-0.066897936 -0.12631132 -0.034804992 2.341805e-38
-0.064991929 -0.12631132 -0.034804992 2.341805e-38
-0.063085936 -0.12631132 -0.034804992 2.3233299e-38
-0.060991101 -0.12554805 -0.031771354 2.3325494e-38
-0.058851995 -0.12455635 -0.027829818 2.3509886e-38
-0.056782313 -0.12380283 -0.024834923 2.3509886e-38
-0.054665558 -0.12279506 -0.020829611 2.2771605e-38
-0.052784063 -0.12279506 -0.020829611 1.9635514e-38
-0.050738417 -0.12202276 -0.017760091 6.7266909e-39
-0.048862301 -0.12202276 -0.017760091 6.3571909e-39
-0.046839304 -0.12128322 -0.014820747 7.7401169e-39
-0.044968344 -0.12128322 -0.014820747 8.1081609e-39
-0.04290951 -0.12026589 -0.010777406 7.0014364e-39
-0.041045636 -0.12026589 -0.010777406 8.6613067e-39
-0.039181761 -0.12026589 -0.010777406 1.4377792e-38
-0.037317887 -0.12026589 -0.010777406 1.3823913e-38
-0.035335168 -0.11950795 -0.0077649876 6.817771e-39
-0.033476576 -0.11950795 -0.0077649876 7.0036028e-39
-0.031617984 -0.11950795 -0.0077649876 1.1429715e-38
-0.029759394 -0.11950795 -0.0077649876 1.1431157e-38
-0.027803643 -0.11875431 -0.0047696158 1.1432244e-38
-0.025950303 -0.11875431 -0.0047696158 5.8079716e-39
-0.024096964 -0.11875431 -0.0047696158 4.1498964e-39
-0.02232503 -0.11950795 -0.0077649876 4.7967049e-39
-0.020390285 -0.11875431 -0.0047696158 5.1658405e-39
-0.018536942 -0.11875431 -0.0047696158 6.6388042e-39
-0.016683603 -0.11875431 -0.0047696158 5.439175e-39
-0.014770208 -0.11800493 -0.0017911717 4.9771081e-39
-0.012922088 -0.11800493 -0.0017911717 6.8202962e-39
-0.011073971 -0.11800493 -0.0017911717 7.2823505e-39
-0.0092702415 -0.11875431 -0.0047696158 7.4667418e-39
-0.0074169021 -0.11875431 -0.0047696158 7.8358873e-39
-0.0055635627 -0.11875431 -0.0047696158 7.2841568e-39
-0.0037102196 -0.11875431 -0.0047696158 7.1001285e-39
-0.0018568803 -0.11875431 -0.0047696158 7.0079385e-39
1.4737248e-05 -0.11800493 -0.0017911717 6.4547647e-39
0.0018628556 -0.11800493 -0.0017911717 6.0852633e-39
0.003710974 -0.11800493 -0.0017911717 6.5462414e-39
0.0055590924 -0.11800493 -0.0017911717 7.5603948e-39
0.007403655 -0.1169848 0.0022633746 7.5607605e-39
0.0092446636 -0.1169848 0.0022633746 7.2838177e-39
0.011085672 -0.1169848 0.0022633746 8.6667521e-39
0.012926683 -0.1169848 0.0022633746 7.8366285e-39
0.014767691 -0.1169848 0.0022633746 7.0065021e-39
0.0166087 -0.1169848 0.0022633746 8.4809049e-39
0.018416215 -0.11624531 0.0052024797 8.2039537e-39
0.020252069 -0.11624531 0.0052024797 7.0046903e-39
0.022087924 -0.11624531 0.0052024797 7.0036169e-39
0.023972737 -0.1169848 0.0022633746 7.7411819e-39
0.025813745 -0.1169848 0.0022633746 6.9124946e-39
0.027595492 -0.11624531 0.0052024797 6.8213696e-39
0.029431349 -0.11624531 0.0052024797 5.6231809e-39
0.031336773 -0.1169848 0.0022633746 1.3645643e-38
0.033177782 -0.1169848 0.0022633746 1.4474703e-38
0.035018791 -0.1169848 0.0022633746 1.834693e-38
0.036774769 -0.11624531 0.0052024797 2.0005736e-38
0.03861063 -0.11624531 0.0052024797 2.3509527e-38
0.040446483 -0.11624531 0.0052024797 2.3324778e-38
0.042282335 -0.11624531 0.0052024797 2.3509527e-38
0.044118196 -0.11624531 0.0052024797 2.3509886e-38
0.045954049 -0.11624531 0.0052024797 2.3509886e-38
0.047670349 -0.11548282 0.0082330182 2.3233296e-38
0.049500898 -0.11548282 0.0082330182 2.2772318e-38
0.051201999 -0.11472471 0.011246152 2.3509883e-38
0.053027265 -0.11472471 0.011246152 2.3509886e-38
0.054852523 -0.11472471 0.011246152 2.3509886e-38
0.056677781 -0.11472471 0.011246152 2.3509886e-38
0.058503039 -0.11472471 0.011246152 2.3509886e-38
0.060328297 -0.11472471 0.011246152 2.341805e-38
0.062153555 -0.11472471 0.011246152 2.341805e-38
0.063978814 -0.11472471 0.011246152 2.3234379e-38
0.065975778 -0.11548282 0.0082330182 2.3142544e-38
0.067806318 -0.11548282 0.0082330182 1.2908841e-38
0.069636859 -0.11548282 0.0082330182 1.0788342e-38
0.071656033 -0.11624531 0.0052024797 1.1065285e-38
0.073491894 -0.11624531 0.0052024797 8.8518679e-39
-0.080239959 -0.12821732 -0.034804992 2.3324401e-38
-0.078333952 -0.12821732 -0.034804992 2.3509879e-38
-0.076427944 -0.12821732 -0.034804992 2.3048907e-38
-0.074295886 -0.12744872 -0.031771354 2.3509886e-38
-0.072395213 -0.12744872 -0.031771354 2.341805e-38
-0.070709936 -0.12821732 -0.034804992 2.3234379e-38
-0.068803944 -0.12821732 -0.034804992 2.3234379e-38
-0.066897936 -0.12821732 -0.034804992 2.2773763e-38
-0.064792477 -0.12744872 -0.031771354 2.3234379e-38
-0.062891789 -0.12744872 -0.031771354 2.3418047e-38
-0.060991101 -0.12744872 -0.031771354 2.3325847e-38
-0.058851995 -0.12645011 -0.027829818 2.3509879e-38
-0.056782313 -0.12569134 -0.024834923 2.3417679e-38
-0.054665558 -0.12467657 -0.020829611 1.7331688e-38
-0.052614532 -0.12389888 -0.017760091 1.6776356e-38
-0.050738417 -0.12389888 -0.017760091 6.6341183e-39
-0.048862301 -0.12389888 -0.017760091 7.0021777e-39
-0.046839304 -0.12315418 -0.014820747 8.3836702e-39
-0.044968344 -0.12315418 -0.014820747 8.5673314e-39
-0.04290951 -0.12212978 -0.010777406 7.6446506e-39
-0.041045636 -0.12212978 -0.010777406 8.0130674e-39
-0.039181761 -0.12212978 -0.010777406 9.2116106e-39
-0.037317887 -0.12212978 -0.010777406 8.8424778e-39
-0.035335168 -0.12136655 -0.0077649876 8.3825842e-39
-0.033476576 -0.12136655 -0.0077649876 8.0148863e-39
-0.031617984 -0.12136655 -0.0077649876 8.2921977e-39
-0.029759394 -0.12136655 -0.0077649876 1.3640632e-38
-0.027803643 -0.12060766 -0.0047696158 1.2166586e-38
-0.025950303 -0.12060766 -0.0047696158 8.0181541e-39
-0.024096964 -0.12060766 -0.0047696158 5.6232328e-39
-0.02232503 -0.12136655 -0.0077649876 4.8885516e-39
-0.020390285 -0.12060766 -0.0047696158 5.073303e-39
-0.018536942 -0.12060766 -0.0047696158 4.7045121e-39
-0.016683603 -0.12060766 -0.0047696158 5.2569572e-39
-0.014770208 -0.11985306 -0.0017911717 4.9792801e-39
-0.012922088 -0.11985306 -0.0017911717 6.2703706e-39
-0.011073971 -0.11985306 -0.0017911717 5.440247e-39
-0.0092258509 -0.11985306 -0.0017911717 7.5607437e-39
-0.0073777344 -0.11985306 -0.0017911717 7.1004844e-39
-0.0055296179 -0.11985306 -0.0017911717 7.468911e-39
-0.0036814976 -0.11985306 -0.0017911717 8.7603771e-39
-0.0018333811 -0.11985306 -0.0017911717 5.9941551e-39
1.4737248e-05 -0.11985306 -0.0017911717 7.1923465e-39
0.001880629 -0.11882581 0.0022633746 7.7455259e-39
0.0037216377 -0.11882581 0.0022633746 7.1919976e-39
0.0055626463 -0.11882581 0.0022633746 7.1920004e-39
0.007403655 -0.11882581 0.0022633746 8.2061523e-39
0.0092446636 -0.11882581 0.0022633746 7.8373698e-39
0.01107279 -0.11808117 0.0052024797 6.9157737e-39
0.012908646 -0.11808117 0.0052024797 8.3912583e-39
0.014744502 -0.11808117 0.0052024797 8.5756327e-39
0.016580358 -0.11808117 0.0052024797 7.8387725e-39
0.018416215 -0.11808117 0.0052024797 8.9440271e-39
0.020252069 -0.11808117 0.0052024797 7.6525722e-39
0.022087924 -0.11808117 0.0052024797 7.0054231e-39
0.023972737 -0.11882581 0.0022633746 7.3738455e-39
0.025813745 -0.11882581 0.0022633746 6.5451484e-39
0.027595492 -0.11808117 0.0052024797 6.1781442e-39
0.029431349 -0.11808117 0.0052024797 4.9820953e-39
0.031336773 -0.11882581 0.0022633746 1.5032153e-38
0.033177782 -0.11882581 0.0022633746 1.6414425e-38
0.035018791 -0.11882581 0.0022633746 1.8533149e-38
0.036774769 -0.11808117 0.0052024797 2.1573791e-38
0.03861063 -0.11808117 0.0052024797 2.2864164e-38
0.040446483 -0.11808117 0.0052024797 2.3509527e-38
0.042282335 -0.11808117 0.0052024797 2.3509886e-38
0.044009268 -0.11731337 0.0082330182 2.3416971e-38
0.045839809 -0.11731337 0.0082330182 2.3509523e-38
0.047670349 -0.11731337 0.0082330182 2.350988e-38
0.049500898 -0.11731337 0.0082330182 2.350988e-38
0.051201999 -0.11654995 0.011246152 2.3417324e-38
0.053027265 -0.11654995 0.011246152 2.350988e-38
0.054852523 -0.11654995 0.011246152 2.3509523e-38
0.056677781 -0.11654995 0.011246152 2.3324775e-38
0.058353342 -0.11579098 0.014241882 2.3509527e-38
0.060173348 -0.11579098 0.014241882 2.3509886e-38
0.061993353 -0.11579098 0.014241882 2.3232944e-38
0.063978814 -0.11654995 0.011246152 2.3325856e-38
0.065804079 -0.11654995 0.011246152 2.2958873e-38
0.067629337 -0.11654995 0.011246152 1.3832947e-38
0.069636859 -0.11731337 0.0082330182 1.4016621e-38
0.071467407 -0.11731337 0.0082330182 1.1434787e-38
0.073297948 -0.11731337 0.0082330182 8.9447852e-39
-0.082385071 -0.13087155 -0.037737899 2.350843e-38
-0.079997934 -0.12934943 -0.031771354 2.3509517e-38
-0.078097261 -0.12934943 -0.031771354 2.3509879e-38
-0.076196574 -0.12934943 -0.031771354 2.3048545e-38
-0.074295886 -0.12934943 -0.031771354 2.3417691e-38
-0.072395213 -0.12934943 -0.031771354 2.3141467e-38
-0.070709936 -0.13012333 -0.034804992 2.2773765e-38
-0.068803944 -0.13012333 -0.034804992 2.3234379e-38
-0.066897936 -0.13012333 -0.034804992 2.3234379e-38
-0.064792477 -0.12934943 -0.031771354 2.3142544e-38
-0.062891789 -0.12934943 -0.031771354 2.2957428e-38
-0.060991101 -0.12934943 -0.031771354 2.2588281e-38
-0.058851995 -0.1283439 -0.027829818 2.3418039e-38
-0.056782313 -0.12757985 -0.024834923 2.350987e-38
-0.054665558 -0.12655805 -0.020829611 1.6041301e-38
-0.052614532 -0.12577499 -0.017760091 9.8620359e-39
-0.050581224 -0.12502514 -0.014820747 2.8544492e-39
-0.048710264 -0.12502514 -0.014820747 4.1444649e-39
-0.046839304 -0.12502514 -0.014820747 4.6961968e-39
-0.044968344 -0.12502514 -0.014820747 4.4188882e-39
-0.04290951 -0.12399365 -0.010777406 4.1408608e-39
-0.041045636 -0.12399365 -0.010777406 4.1405007e-39
-0.039181761 -0.12399365 -0.010777406 4.2323389e-39
-0.037317887 -0.12399365 -0.010777406 6.3528412e-39
-0.035335168 -0.12322514 -0.0077649876 8.1971168e-39
-0.033476576 -0.12322514 -0.0077649876 8.1063673e-39
-0.031617984 -0.12322514 -0.0077649876 6.447932e-39
-0.029656982 -0.12246101 -0.0047696158 1.2809798e-38
-0.027803643 -0.12246101 -0.0047696158 1.8803958e-38
-0.025858914 -0.12170117 -0.0017911717 1.2903802e-38
-0.024010798 -0.12170117 -0.0017911717 5.3459256e-39
-0.022243625 -0.12246101 -0.0047696158 3.6889294e-39
-0.020390285 -0.12246101 -0.0047696158 3.9669554e-39
-0.018536942 -0.12246101 -0.0047696158 4.0587853e-39
-0.016683603 -0.12246101 -0.0047696158 3.8747458e-39
-0.014770208 -0.12170117 -0.0017911717 2.5836384e-39
-0.012922088 -0.12170117 -0.0017911717 3.2286393e-39
-0.011073971 -0.12170117 -0.0017911717 2.3066816e-39
-0.0092258509 -0.12170117 -0.0017911717 4.3342596e-39
-0.0073777344 -0.12170117 -0.0017911717 4.9796318e-39
-0.0055296179 -0.12170117 -0.0017911717 6.178175e-39
-0.0036814976 -0.12170117 -0.0017911717 6.5466058e-39
-0.0018333811 -0.12170117 -0.0017911717 6.7317229e-39
1.4737248e-05 -0.12170117 -0.0017911717 5.1640455e-39
0.001880629 -0.12066682 0.0022633746 7.8380859e-39
0.0037216377 -0.12066682 0.0022633746 8.3909065e-39
0.0055626463 -0.12066682 0.0022633746 1.2263123e-38
0.007403655 -0.12066682 0.0022633746 9.2199483e-39
0.0092446636 -0.12066682 0.0022633746 1.0511409e-38
0.01107279 -0.11991702 0.0052024797 1.0234465e-38
0.012908646 -0.11991702 0.0052024797 1.1526634e-38
0.014744502 -0.11991702 0.0052024797 7.2866946e-39
0.016580358 -0.11991702 0.0052024797 5.4431281e-39
0.018416215 -0.11991702 0.0052024797 6.1796057e-39
0.020252069 -0.11991702 0.0052024797 7.7447818e-39
0.022087924 -0.11991702 0.0052024797 7.6511667e-39
0.023972737 -0.12066682 0.0022633746 7.5582494e-39
0.025813745 -0.12066682 0.0022633746 7.652575e-39
0.027654754 -0.12066682 0.0022633746 7.9309345e-39
0.029495765 -0.12066682 0.0022633746 6.9192797e-39
0.031336773 -0.12066682 0.0022633746 1.4111995e-38
0.033177782 -0.12066682 0.0022633746 1.5125127e-38
0.035018791 -0.12066682 0.0022633746 1.7704826e-38
0.036774769 -0.11991702 0.0052024797 2.2312078e-38
0.03861063 -0.11991702 0.0052024797 2.3325138e-38
0.040446483 -0.11991702 0.0052024797 2.3509527e-38
0.042178728 -0.11914389 0.0082330182 2.3509886e-38
0.044009268 -0.11914389 0.0082330182 2.3416971e-38
0.045839809 -0.11914389 0.0082330182 2.3509523e-38
0.047551483 -0.11837523 0.011246152 2.350988e-38
0.049376741 -0.11837523 0.011246152 2.3509879e-38
0.051201999 -0.11837523 0.011246152 2.3509879e-38
0.053027265 -0.11837523 0.011246152 2.3509521e-38
0.054852523 -0.11837523 0.011246152 2.3508804e-38
0.056677781 -0.11837523 0.011246152 2.3508804e-38
0.058353342 -0.11761098 0.014241882 2.3509527e-38
0.060173348 -0.11761098 0.014241882 2.3509527e-38
0.061993353 -0.11761098 0.014241882 2.332478e-38
0.063978814 -0.11837523 0.011246152 2.341805e-38
0.065804079 -0.11837523 0.011246152 2.1577017e-38
0.067629337 -0.11837523 0.011246152 1.3741468e-38
0.069636859 -0.11914389 0.0082330182 1.5769055e-38
0.071467407 -0.11914389 0.0082330182 1.3095384e-38
-0.082385071 -0.13278268 -0.037737899 2.3508432e-38
-0.080473937 -0.13278268 -0.037737899 2.3509517e-38
-0.078097261 -0.1312501 -0.031771354 2.3509521e-38
-0.076196574 -0.1312501 -0.031771354 2.3417327e-38
-0.074295886 -0.1312501 -0.031771354 2.3509886e-38
-0.072395213 -0.1312501 -0.031771354 2.341805e-38
-0.070709936 -0.13202934 -0.034804992 2.3325856e-38
-0.068803944 -0.13202934 -0.034804992 2.341805e-38
-0.066897936 -0.13202934 -0.034804992 2.341805e-38
-0.064792477 -0.1312501 -0.031771354 2.341805e-38
-0.062891789 -0.1312501 -0.031771354 2.3418047e-38
-0.060991101 -0.1312501 -0.031771354 2.3418043e-38
-0.058670841 -0.1294684 -0.024834923 2.3509876e-38
-0.056782313 -0.1294684 -0.024834923 2.3509873e-38
-0.054490648 -0.12765111 -0.017760091 1.1523717e-38
-0.052452192 -0.1268961 -0.014820747 5.0693037e-39
-0.050581224 -0.1268961 -0.014820747 6.4320721e-40
-0.048710264 -0.1268961 -0.014820747 2.0254074e-39
-0.046839304 -0.1268961 -0.014820747 1.9324915e-39
-0.044968344 -0.1268961 -0.014820747 1.4708029e-39
-0.04290951 -0.12585752 -0.010777406 1.6544739e-39
-0.041045636 -0.12585752 -0.010777406 2.206563e-39
-0.039181761 -0.12585752 -0.010777406 2.6671768e-39
-0.037193768 -0.12508373 -0.0077649876 4.141951e-39
-0.035335168 -0.12508373 -0.0077649876 8.8446484e-39
-0.033476576 -0.12508373 -0.0077649876 9.6751349e-39
-0.031510323 -0.12431435 -0.0047696158 1.216478e-38
-0.029656982 -0.12431435 -0.0047696158 1.6314308e-38
-0.027707031 -0.1235493 -0.0017911717 2.3508451e-38
-0.025734508 -0.12250783 0.0022633746 2.2860926e-38
-0.023893496 -0.12250783 0.0022633746 1.6132443e-38
-0.022162681 -0.1235493 -0.0017911717 1.1248954e-38
-0.020314561 -0.1235493 -0.0017911717 1.0052209e-38
-0.018466441 -0.1235493 -0.0017911717 8.7603897e-39
-0.016618324 -0.1235493 -0.0017911717 6.6395273e-39
-0.014770208 -0.1235493 -0.0017911717 4.3349897e-39
-0.012922088 -0.1235493 -0.0017911717 4.9792773e-39
-0.011073971 -0.1235493 -0.0017911717 4.7023288e-39
-0.0092258509 -0.1235493 -0.0017911717 6.2696518e-39
-0.0073777344 -0.1235493 -0.0017911717 6.8228283e-39
-0.0055296179 -0.1235493 -0.0017911717 8.2057628e-39
-0.0036814976 -0.1235493 -0.0017911717 7.9291773e-39
-0.0018333811 -0.1235493 -0.0017911717 9.1280834e-39
1.4737248e-05 -0.1235493 -0.0017911717 8.4823609e-39
0.001880629 -0.12250783 0.0022633746 1.3369811e-38
0.0037216377 -0.12250783 0.0022633746 1.429141e-38
0.0055626463 -0.12250783 0.0022633746 1.6872888e-38
0.007403655 -0.12250783 0.0022633746 1.4752388e-38
0.0092369337 -0.12175287 0.0052024797 1.5859101e-38
0.01107279 -0.12175287 0.0052024797 1.5489973e-38
0.012908646 -0.12175287 0.0052024797 1.5306655e-38
0.014744502 -0.12175287 0.0052024797 1.0975233e-38
0.016551133 -0.12097444 0.0082330182 8.3933924e-39
0.018381676 -0.12097444 0.0082330182 7.1001537e-39
0.020212218 -0.12097444 0.0082330182 6.1767695e-39
0.022087924 -0.12175287 0.0052024797 6.35973e-39
0.023923781 -0.12175287 0.0052024797 5.437401e-39
0.025759637 -0.12175287 0.0052024797 6.3611131e-39
0.027595492 -0.12175287 0.0052024797 7.4692403e-39
0.029431349 -0.12175287 0.0052024797 8.5766669e-39
0.031336773 -0.12250783 0.0022633746 1.4202772e-38
0.033177782 -0.12250783 0.0022633746 1.7060861e-38
0.035018791 -0.12250783 0.0022633746 2.093273e-38
0.036774769 -0.12175287 0.0052024797 2.3234379e-38
0.038517639 -0.12097444 0.0082330182 2.3509527e-38
0.04025045 -0.12020047 0.011246152 2.3509527e-38
0.042075709 -0.12020047 0.011246152 2.3417691e-38
0.043900967 -0.12020047 0.011246152 2.3325494e-38
0.045726225 -0.12020047 0.011246152 2.3509883e-38
0.047551483 -0.12020047 0.011246152 2.3509883e-38
0.049253307 -0.11943097 0.014241882 2.350988e-38
0.051073313 -0.11943097 0.014241882 2.350988e-38
0.053027265 -0.12020047 0.011246152 2.350952e-38
0.054852523 -0.12020047 0.011246152 2.3417327e-38
0.056533337 -0.11943097 0.014241882 2.3509883e-38
0.058353342 -0.11943097 0.014241882 2.3509527e-38
0.060173348 -0.11943097 0.014241882 2.3324778e-38
0.061993353 -0.11943097 0.014241882 2.332478e-38
0.063978814 -0.12020047 0.011246152 2.341805e-38
0.065804079 -0.12020047 0.011246152 1.98253e-38
0.067629337 -0.12020047 0.011246152 1.4386118e-38
0.069454595 -0.12020047 0.011246152 1.8626401e-38
-0.082385071 -0.13469382 -0.037737899 2.2677593e-38
-0.080473937 -0.13469382 -0.037737899 2.3509161e-38
-0.078333952 -0.13393532 -0.034804992 2.3508441e-38
-0.076196574 -0.13315077 -0.031771354 2.3508804e-38
-0.074295886 -0.13315077 -0.031771354 2.3509527e-38
-0.072395213 -0.13315077 -0.031771354 2.3509527e-38
-0.070709936 -0.13393532 -0.034804992 2.3509527e-38
-0.068803944 -0.13393532 -0.034804992 2.3048556e-38
-0.066897936 -0.13393532 -0.034804992 2.341805e-38
-0.064792477 -0.13315077 -0.031771354 2.341769e-38
-0.062639542 -0.13213144 -0.027829818 2.3509883e-38
-0.060559355 -0.13135691 -0.024834923 2.350988e-38
-0.058670841 -0.13135691 -0.024834923 2.3509876e-38
-0.056547053 -0.13032107 -0.020829611 2.2863426e-38
-0.054490648 -0.12952723 -0.017760091 6.0838186e-39
-0.052452192 -0.12876706 -0.014820747 2.1194065e-39
-0.050365008 -0.12772138 -0.010777406 2.7586522e-40
-0.048501126 -0.12772138 -0.010777406 3.6734198e-40
-0.046637259 -0.12772138 -0.010777406 9.2050736e-40
-0.044773385 -0.12772138 -0.010777406 5.5101298e-40
-0.042769544 -0.12694232 -0.0077649876 6.4284847e-40
-0.040910952 -0.12694232 -0.0077649876 1.1023847e-39
-0.03905236 -0.12694232 -0.0077649876 2.5775078e-39
-0.037193768 -0.12694232 -0.0077649876 4.9745941e-39
-0.035217002 -0.12616767 -0.0047696158 5.9887489e-39
-0.033363663 -0.12616767 -0.0047696158 8.6624249e-39
-0.031510323 -0.12616767 -0.0047696158 2.3507362e-38
-0.029555151 -0.1253974 -0.0017911717 2.3508445e-38
-0.027575517 -0.12434883 0.0022633746 2.3414087e-38
-0.025734508 -0.12434883 0.0022633746 2.3506646e-38
-0.023893496 -0.12434883 0.0022633746 2.3508085e-38
-0.022162681 -0.1253974 -0.0017911717 2.3325847e-38
-0.020314561 -0.1253974 -0.0017911717 2.2497526e-38
-0.018466441 -0.1253974 -0.0017911717 2.3418043e-38
-0.016618324 -0.1253974 -0.0017911717 2.3418043e-38
-0.014770208 -0.1253974 -0.0017911717 2.3141455e-38
-0.012922088 -0.1253974 -0.0017911717 2.3509879e-38
-0.011073971 -0.1253974 -0.0017911717 2.3509879e-38
-0.0092258509 -0.1253974 -0.0017911717 2.3509879e-38
-0.0073777344 -0.1253974 -0.0017911717 2.3509879e-38
-0.0055296179 -0.1253974 -0.0017911717 2.3509879e-38
-0.0036814976 -0.1253974 -0.0017911717 2.3509879e-38
-0.0018333811 -0.1253974 -0.0017911717 2.3509879e-38
1.4737248e-05 -0.1253974 -0.0017911717 2.3325846e-38
0.001880629 -0.12434883 0.0022633746 2.3418043e-38
0.0037216377 -0.12434883 0.0022633746 2.3418045e-38
0.0055626463 -0.12434883 0.0022633746 2.2680838e-38
0.007403655 -0.12434883 0.0022633746 2.3141819e-38
0.0092369337 -0.12358873 0.0052024797 2.3142544e-38
0.01107279 -0.12358873 0.0052024797 2.3142544e-38
0.012890048 -0.12280498 0.0082330182 2.2406066e-38
0.014720591 -0.12280498 0.0082330182 2.2775199e-38
0.016551133 -0.12280498 0.0082330182 2.2498973e-38
0.018381676 -0.12280498 0.0082330182 2.1574166e-38
0.020212218 -0.12280498 0.0082330182 1.8069301e-38
0.022042759 -0.12280498 0.0082330182 1.557894e-38
0.023873303 -0.12280498 0.0082330182 1.6500158e-38
0.025759637 -0.12358873 0.0052024797 2.0189742e-38
0.027534386 -0.12280498 0.0082330182 2.2495694e-38
0.029364929 -0.12280498 0.0082330182 2.3418023e-38
0.031267203 -0.12358873 0.0052024797 2.323436e-38
0.03310306 -0.12358873 0.0052024797 2.2130537e-38
0.034938917 -0.12358873 0.0052024797 2.2499324e-38
0.036687098 -0.12280498 0.0082330182 2.341805e-38
0.038425185 -0.12202574 0.011246152 2.3509527e-38
0.040153272 -0.121251 0.014241882 2.3509527e-38
0.041973285 -0.121251 0.014241882 2.3417691e-38
0.043793291 -0.121251 0.014241882 2.3509886e-38
0.045613296 -0.121251 0.014241882 2.3509886e-38
0.047433302 -0.121251 0.014241882 2.3509886e-38
0.049253307 -0.121251 0.014241882 2.3509883e-38
0.051073313 -0.121251 0.014241882 2.3509883e-38
0.053027265 -0.12202574 0.011246152 2.31411e-38
0.054713331 -0.121251 0.014241882 2.3417327e-38
0.056533337 -0.121251 0.014241882 2.3509527e-38
0.058353342 -0.121251 0.014241882 2.3509527e-38
0.060173348 -0.121251 0.014241882 2.3416974e-38
0.061993353 -0.121251 0.014241882 2.3509527e-38
0.063978814 -0.12202574 0.011246152 2.341805e-38
0.065804079 -0.12202574 0.011246152 1.8810066e-38
0.067629337 -0.12202574 0.011246152 1.5031488e-38
-0.082145952 -0.13584132 -0.034804992 2.1294658e-38
-0.080239959 -0.13584132 -0.034804992 2.3508801e-38
-0.078333952 -0.13584132 -0.034804992 2.3508441e-38
-0.076196574 -0.13505147 -0.031771354 2.3507725e-38
-0.074295886 -0.13505147 -0.031771354 2.3509527e-38
-0.072395213 -0.13505147 -0.031771354 2.3508451e-38
-0.070494525 -0.13505147 -0.031771354 2.2955996e-38
-0.068803944 -0.13584132 -0.034804992 2.3509527e-38
-0.066693164 -0.13505147 -0.031771354 2.3509886e-38
-0.064533316 -0.1340252 -0.027829818 2.3048189e-38
-0.062447883 -0.13324542 -0.024834923 2.2587566e-38
-0.060310058 -0.13220255 -0.020829611 2.350988e-38
-0.058428563 -0.13220255 -0.020829611 2.34166e-38
-0.056547053 -0.13220255 -0.020829611 2.1571968e-38
-0.054490648 -0.13140334 -0.017760091 3.225754e-39
-0.052452192 -0.13063805 -0.014820747 9.2194229e-41
-0.050365008 -0.12958528 -0.010777406 9.2194229e-41
-0.048501126 -0.12958528 -0.010777406 9.2194229e-41
-0.046637259 -0.12958528 -0.010777406 3.6877691e-40
-0.044773385 -0.12958528 -0.010777406 9.1835496e-41
-0.042769544 -0.12880091 -0.0077649876 4.6061241e-40
-0.040910952 -0.12880091 -0.0077649876 6.4392467e-40
-0.03905236 -0.12880091 -0.0077649876 1.6580766e-39
-0.037070341 -0.12802102 -0.0047696158 4.0548028e-39
-0.035217002 -0.12802102 -0.0047696158 2.6718684e-39
-0.033363663 -0.12802102 -0.0047696158 4.9756801e-39
-0.031510323 -0.12802102 -0.0047696158 1.8527717e-38
-0.029416526 -0.12618984 0.0022633746 2.1016639e-38
-0.027575517 -0.12618984 0.0022633746 2.3508441e-38
-0.025734508 -0.12618984 0.0022633746 2.3508441e-38
-0.023893496 -0.12618984 0.0022633746 2.3508437e-38
-0.022162681 -0.12724553 -0.0017911717 2.350987e-38
-0.020314561 -0.12724553 -0.0017911717 2.2957412e-38
-0.018466441 -0.12724553 -0.0017911717 2.350987e-38
-0.016618324 -0.12724553 -0.0017911717 2.350987e-38
-0.014770208 -0.12724553 -0.0017911717 2.3232206e-38
-0.012922088 -0.12724553 -0.0017911717 2.3139294e-38
-0.011073971 -0.12724553 -0.0017911717 2.3139294e-38
-0.0092258509 -0.12724553 -0.0017911717 2.3508437e-38
-0.0073777344 -0.12724553 -0.0017911717 2.3509517e-38
-0.0054834094 -0.12618984 0.0022633746 2.3415881e-38
-0.0036423989 -0.12618984 0.0022633746 2.3509517e-38
-0.0018333811 -0.12724553 -0.0017911717 2.3509873e-38
3.9618462e-05 -0.12618984 0.0022633746 2.350987e-38
0.001880629 -0.12618984 0.0022633746 2.2772304e-38
0.0037293676 -0.12542458 0.0052024797 2.3509869e-38
0.0055652224 -0.12542458 0.0052024797 2.3509873e-38
0.0074010789 -0.12542458 0.0052024797 2.3509883e-38
0.0092369337 -0.12542458 0.0052024797 2.341805e-38
0.011059506 -0.12463553 0.0082330182 2.3142541e-38
0.012890048 -0.12463553 0.0082330182 2.295887e-38
0.014720591 -0.12463553 0.0082330182 2.2775202e-38
0.016551133 -0.12463553 0.0082330182 2.2958873e-38
0.018381676 -0.12463553 0.0082330182 2.3233662e-38
0.020212218 -0.12463553 0.0082330182 2.2863091e-38
0.022042759 -0.12463553 0.0082330182 2.3508451e-38
0.023873303 -0.12463553 0.0082330182 2.3507733e-38
0.025703844 -0.12463553 0.0082330182 2.3509514e-38
0.027473632 -0.12385099 0.011246152 2.3509142e-38
0.02929889 -0.12385099 0.011246152 2.3509863e-38
0.031195471 -0.12463553 0.0082330182 2.3509866e-38
0.03294941 -0.12385099 0.011246152 2.3234369e-38
0.034774669 -0.12385099 0.011246152 2.3234374e-38
0.036599927 -0.12385099 0.011246152 2.341805e-38
0.038333267 -0.123071 0.014241882 2.3509527e-38
0.040153272 -0.123071 0.014241882 2.3325138e-38
0.041973285 -0.123071 0.014241882 2.3509886e-38
0.043793291 -0.123071 0.014241882 2.3509886e-38
0.045613296 -0.123071 0.014241882 2.3509886e-38
0.047433302 -0.123071 0.014241882 2.3509886e-38
0.049091287 -0.12204717 0.018174119 2.3326213e-38
0.050904401 -0.12204717 0.018174119 2.3509886e-38
0.052893326 -0.123071 0.014241882 2.2957431e-38
0.054713331 -0.123071 0.014241882 2.341769e-38
0.056533337 -0.123071 0.014241882 2.3509886e-38
0.058353342 -0.123071 0.014241882 2.3509886e-38
0.060173348 -0.123071 0.014241882 2.3509886e-38
0.061993353 -0.123071 0.014241882 2.3509527e-38
0.063813366 -0.123071 0.014241882 2.3141466e-38
0.065804079 -0.12385099 0.011246152 1.7611523e-38
0.067629337 -0.12385099 0.011246152 1.5215516e-38
-0.081898622 -0.13695215 -0.031771354 1.9450027e-38
-0.079997934 -0.13695215 -0.031771354 2.3506998e-38
-0.078097261 -0.13695215 -0.031771354 2.3509517e-38
-0.076196574 -0.13695215 -0.031771354 2.3509161e-38
-0.074002184 -0.13591899 -0.027829818 2.3509521e-38
-0.07210841 -0.13591899 -0.027829818 2.3509165e-38
-0.070494525 -0.13695215 -0.031771354 2.2402096e-38
-0.068593837 -0.13695215 -0.031771354 2.3509527e-38
-0.066427089 -0.13591899 -0.027829818 2.3509883e-38
-0.064336397 -0.13513394 -0.024834923 2.3509521e-38
-0.062447883 -0.13513394 -0.024834923 2.2679038e-38
-0.060310058 -0.13408406 -0.020829611 2.3509876e-38
-0.058428563 -0.13408406 -0.020829611 2.277123e-38
-0.056547053 -0.13408406 -0.020829611 1.9820607e-38
-0.054490648 -0.13327946 -0.017760091 2.2116021e-39
-0.052452192 -0.13250901 -0.014820747 9.2194229e-41
-0.050365008 -0.13144915 -0.010777406 1.0145037e-39
-0.048501126 -0.13144915 -0.010777406 9.2552961e-41
-0.046637259 -0.13144915 -0.010777406 3.5873241e-43
-0.044773385 -0.13144915 -0.010777406 3.5873241e-43
-0.042769544 -0.13065951 -0.0077649876 3.6914546e-40
-0.040910952 -0.13065951 -0.0077649876 7.3792798e-40
-0.03905236 -0.13065951 -0.0077649876 2.1205023e-39
-0.037070341 -0.12987436 -0.0047696158 2.6736761e-39
-0.035217002 -0.12987436 -0.0047696158 8.2832154e-40
-0.033363663 -0.12987436 -0.0047696158 3.6734198e-40
-0.031403266 -0.12909363 -0.0017911717 6.4284847e-40
-0.029416526 -0.12803085 0.0022633746 2.207649e-39
-0.027575517 -0.12803085 0.0022633746 1.4929204e-38
-0.025734508 -0.12803085 0.0022633746 1.640397e-38
-0.023893496 -0.12803085 0.0022633746 1.2164769e-38
-0.022162681 -0.12909363 -0.0017911717 1.0692513e-38
-0.020314561 -0.12909363 -0.0017911717 7.8358873e-39
-0.018466441 -0.12909363 -0.0017911717 9.1262659e-39
-0.016529461 -0.12803085 0.0022633746 8.9415187e-39
-0.014688453 -0.12803085 0.0022633746 8.7560499e-39
-0.012847444 -0.12803085 0.0022633746 9.2163092e-39
-0.011006435 -0.12803085 0.0022633746 1.1705591e-38
-0.0091654267 -0.12803085 0.0022633746 1.3733895e-38
-0.0073244181 -0.12803085 0.0022633746 1.5670003e-38
-0.0054834094 -0.12803085 0.0022633746 1.9450024e-38
-0.0036423989 -0.12803085 0.0022633746 2.2032221e-38
-0.0018013902 -0.12803085 0.0022633746 2.350987e-38
3.9618462e-05 -0.12803085 0.0022633746 2.2678668e-38
0.001880629 -0.12803085 0.0022633746 2.3509866e-38
0.0037293676 -0.12726043 0.0052024797 2.3509866e-38
0.0055652224 -0.12726043 0.0052024797 2.221841e-38
0.0074010789 -0.12726043 0.0052024797 2.3509527e-38
0.0092369337 -0.12726043 0.0052024797 2.3509523e-38
0.011059506 -0.12646608 0.0082330182 2.3234364e-38
0.012890048 -0.12646608 0.0082330182 2.3234367e-38
0.014696817 -0.12567626 0.011246152 2.1944002e-38
0.016522076 -0.12567626 0.011246152 2.3234379e-38
0.018381676 -0.12646608 0.0082330182 2.2219161e-38
0.020172596 -0.12567626 0.011246152 2.3509168e-38
0.021997854 -0.12567626 0.011246152 2.3508807e-38
0.023873303 -0.12646608 0.0082330182 2.3509158e-38
0.025703844 -0.12646608 0.0082330182 2.3509153e-38
0.027473632 -0.12567626 0.011246152 2.3506988e-38
0.02929889 -0.12567626 0.011246152 2.350986e-38
0.03112415 -0.12567626 0.011246152 2.3509865e-38
0.032873251 -0.124891 0.014241882 2.3416603e-38
0.034693256 -0.124891 0.014241882 2.3509167e-38
0.036513261 -0.124891 0.014241882 2.3509168e-38
0.038333267 -0.124891 0.014241882 2.3233302e-38
0.040025726 -0.12386028 0.018174119 2.3325497e-38
0.04183884 -0.12386028 0.018174119 2.3509886e-38
0.043651953 -0.12386028 0.018174119 2.3509886e-38
0.04546506 -0.12386028 0.018174119 2.3509886e-38
0.047278173 -0.12386028 0.018174119 2.3326213e-38
0.049091287 -0.12386028 0.018174119 2.3326213e-38
0.050904401 -0.12386028 0.018174119 2.341805e-38
0.052893326 -0.124891 0.014241882 2.2865235e-38
0.054713331 -0.124891 0.014241882 2.341805e-38
0.056533337 -0.124891 0.014241882 2.341805e-38
0.058353342 -0.124891 0.014241882 2.3233302e-38
0.059969962 -0.12386028 0.018174119 2.3509886e-38
0.061783075 -0.12386028 0.018174119 2.3509527e-38
0.063813366 -0.124891 0.014241882 2.1850727e-38
0.065804079 -0.12567626 0.011246152 1.641298e-38
0.067629337 -0.12567626 0.011246152 1.512332e-38
-0.081898622 -0.13885282 -0.031771354 1.7329525e-38
-0.079997934 -0.13885282 -0.031771354 2.2400284e-38
-0.078097261 -0.13885282 -0.031771354 2.3509153e-38
-0.076196574 -0.13885282 -0.031771354 2.3509156e-38
-0.074002184 -0.13781275 -0.027829818 2.3509517e-38
-0.07210841 -0.13781275 -0.027829818 2.3507356e-38
-0.070494525 -0.13885282 -0.031771354 2.0373425e-38
-0.068593837 -0.13885282 -0.031771354 2.3508439e-38
-0.066427089 -0.13781275 -0.027829818 2.3508795e-38
-0.064336397 -0.13702248 -0.024834923 2.3509517e-38
-0.062447883 -0.13702248 -0.024834923 2.1941107e-38
-0.060310058 -0.13596557 -0.020829611 2.286306e-38
-0.058428563 -0.13596557 -0.020829611 2.055817e-38
-0.056366764 -0.13515557 -0.017760091 1.6870344e-38
-0.054490648 -0.13515557 -0.017760091 1.7509799e-39
-0.052452192 -0.13437997 -0.014820747 9.1835496e-41
-0.050581224 -0.13437997 -0.014820747 7.3791817e-40
-0.048710264 -0.13437997 -0.014820747 0
-0.046839304 -0.13437997 -0.014820747 6.4608828e-40
-0.044773385 -0.13331302 -0.010777406 9.3640369e-41
-0.042769544 -0.1325181 -0.0077649876 7.0064923e-45
-0.040910952 -0.1325181 -0.0077649876 9.8090893e-45
-0.03905236 -0.1325181 -0.0077649876 3.3201329e-39
-0.037070341 -0.13172771 -0.0047696158 5.2547992e-39
-0.035099506 -0.13094176 -0.0017911717 1.6588081e-39
-0.03325139 -0.13094176 -0.0017911717 9.187193e-40
-0.031403266 -0.13094176 -0.0017911717 9.1835496e-40
-0.029416526 -0.12987186 0.0022633746 2.0218158e-39
-0.027575517 -0.12987186 0.0022633746 8.2903942e-39
-0.025734508 -0.12987186 0.0022633746 1.4650448e-38
-0.023893496 -0.12987186 0.0022633746 1.4836278e-38
-0.022162681 -0.13094176 -0.0017911717 6.0812962e-39
-0.020314561 -0.13094176 -0.0017911717 1.3804023e-39
-0.018466441 -0.13094176 -0.0017911717 2.5782238e-39
-0.016529461 -0.12987186 0.0022633746 3.6849287e-39
-0.014688453 -0.12987186 0.0022633746 4.5139677e-39
-0.012847444 -0.12987186 0.0022633746 3.8685983e-39
-0.011006435 -0.12987186 0.0022633746 5.158614e-39
-0.0091654267 -0.12987186 0.0022633746 5.7117878e-39
-0.0073244181 -0.12987186 0.0022633746 6.0805703e-39
-0.0054834094 -0.12987186 0.0022633746 9.2152218e-39
-0.0036423989 -0.12987186 0.0022633746 1.0875466e-38
-0.0018013902 -0.12987186 0.0022633746 1.0691794e-38
3.9618462e-05 -0.12987186 0.0022633746 1.1613753e-38
0.001880629 -0.12987186 0.0022633746 1.7238048e-38
0.0037293676 -0.12909628 0.0052024797 2.3509511e-38
0.0055652224 -0.12909628 0.0052024797 2.3509517e-38
0.0074010789 -0.12909628 0.0052024797 2.3508809e-38
0.0092369337 -0.12909628 0.0052024797 2.3508446e-38
0.011059506 -0.1282966 0.0082330182 2.3509869e-38
0.012871558 -0.1275015 0.011246152 2.1850702e-38
0.014696817 -0.1275015 0.011246152 1.8992653e-38
0.016522076 -0.1275015 0.011246152 1.945363e-38
0.018347336 -0.1275015 0.011246152 2.1020941e-38
0.020172596 -0.1275015 0.011246152 2.3509856e-38
0.021997854 -0.1275015 0.011246152 2.3507332e-38
0.023823114 -0.1275015 0.011246152 2.3509139e-38
0.025648372 -0.1275015 0.011246152 2.3508784e-38
0.027413229 -0.126711 0.014241882 2.3508784e-38
0.029233234 -0.126711 0.014241882 2.3509495e-38
0.031053241 -0.126711 0.014241882 2.3508063e-38
0.032873251 -0.126711 0.014241882 2.350557e-38
0.034693256 -0.126711 0.014241882 2.3508092e-38
0.036513261 -0.126711 0.014241882 2.3509168e-38
0.038333267 -0.126711 0.014241882 2.3509167e-38
0.040025726 -0.1256734 0.018174119 2.3509167e-38
0.04183884 -0.1256734 0.018174119 2.3509527e-38
0.043651953 -0.1256734 0.018174119 2.3509886e-38
0.04546506 -0.1256734 0.018174119 2.3325494e-38
0.047278173 -0.1256734 0.018174119 2.3233662e-38
0.049091287 -0.1256734 0.018174119 2.341805e-38
0.050904401 -0.1256734 0.018174119 2.3234379e-38
0.052717514 -0.1256734 0.018174119 2.2865958e-38
0.054530628 -0.1256734 0.018174119 2.341805e-38
0.056343734 -0.1256734 0.018174119 2.341805e-38
0.058156848 -0.1256734 0.018174119 2.2864879e-38
0.059969962 -0.1256734 0.018174119 2.341805e-38
0.061783075 -0.1256734 0.018174119 2.3509886e-38
0.063813366 -0.126711 0.014241882 2.0191206e-38
0.065804079 -0.1275015 0.011246152 1.622787e-38
0.067629337 -0.1275015 0.011246152 1.6228589e-38
-0.081577264 -0.13970654 -0.027829818 1.6130617e-38
-0.079683505 -0.13970654 -0.027829818 2.1294291e-38
-0.078097261 -0.14075352 -0.031771354 2.3508427e-38
-0.076196574 -0.14075352 -0.031771354 2.3414794e-38
-0.074295886 -0.14075352 -0.031771354 2.2953815e-38
-0.07210841 -0.13970654 -0.027829818 2.15716e-38
-0.070214637 -0.13970654 -0.027829818 1.7238405e-38
-0.068320863 -0.13970654 -0.027829818 2.3509869e-38
-0.066427089 -0.13970654 -0.027829818 2.3231841e-38
-0.064336397 -0.13891099 -0.024834923 2.3509869e-38
-0.062447883 -0.13891099 -0.024834923 1.9267429e-38
-0.060310058 -0.13784705 -0.020829611 1.9636568e-38
-0.05824288 -0.13703169 -0.017760091 1.7239481e-38
-0.056366764 -0.13703169 -0.017760091 1.410483e-38
-0.054323159 -0.13625093 -0.014820747 1.9346523e-39
-0.052452192 -0.13625093 -0.014820747 2.7550649e-40
-0.050581224 -0.13625093 -0.014820747 9.1835496e-41
-0.048501126 -0.13517688 -0.010777406 2.7658689e-40
-0.046637259 -0.13517688 -0.010777406 5.4399051e-39
-0.044773385 -0.13517688 -0.010777406 4.7030673e-39
-0.042769544 -0.13437669 -0.0077649876 1.8548427e-40
-0.040910952 -0.13437669 -0.0077649876 1.5414283e-44
-0.03905236 -0.13437669 -0.0077649876 5.0714967e-39
-0.03694763 -0.13278987 -0.0017911717 4.4246854e-39
-0.035099506 -0.13278987 -0.0017911717 3.8704256e-39
-0.03325139 -0.13278987 -0.0017911717 5.5101578e-40
-0.031403266 -0.13278987 -0.0017911717 2.023262e-39
-0.029416526 -0.13171287 0.0022633746 2.0214571e-39
-0.027575517 -0.13171287 0.0022633746 2.5724701e-39
-0.025734508 -0.13171287 0.0022633746 1.520218e-38
-0.023893496 -0.13171287 0.0022633746 1.56646e-38
-0.022162681 -0.13278987 -0.0017911717 1.2625395e-38
-0.020314561 -0.13278987 -0.0017911717 4.5136216e-39
-0.018466441 -0.13278987 -0.0017911717 2.9462931e-39
-0.016618324 -0.13278987 -0.0017911717 3.8675235e-39
-0.014688453 -0.13171287 0.0022633746 5.5273994e-39
-0.012847444 -0.13171287 0.0022633746 4.697273e-39
-0.011006435 -0.13171287 0.0022633746 4.5128775e-39
-0.0091654267 -0.13171287 0.0022633746 3.4990815e-39
-0.0072857682 -0.13093217 0.0052024797 3.0381048e-39
-0.0054499116 -0.13093217 0.0052024797 3.4987256e-39
-0.003614055 -0.13093217 0.0052024797 8.2932627e-39
-0.0017782003 -0.13093217 0.0052024797 7.925206e-39
5.7654455e-05 -0.13093217 0.0052024797 8.8475267e-39
0.001893511 -0.13093217 0.0052024797 7.8333803e-39
0.0037293676 -0.13093217 0.0052024797 1.908161e-38
0.0055678803 -0.13012715 0.0082330182 2.3507722e-38
0.0073984209 -0.13012715 0.0082330182 2.3508441e-38
0.0092369337 -0.13093217 0.0052024797 2.3505556e-38
0.011059506 -0.13012715 0.0082330182 2.3506992e-38
0.012871558 -0.12932678 0.011246152 9.6783635e-39
0.014696817 -0.12932678 0.011246152 5.2540495e-39
0.016522076 -0.12932678 0.011246152 2.3041382e-39
0.018347336 -0.12932678 0.011246152 8.2046375e-39
0.020172596 -0.12932678 0.011246152 9.7715989e-39
0.021953208 -0.12853102 0.014241882 1.2627151e-38
0.023773214 -0.12853102 0.014241882 1.5022445e-38
0.025593221 -0.12853102 0.014241882 1.5666741e-38
0.027333941 -0.12748651 0.018174119 1.8708477e-38
0.029079957 -0.1266733 0.021235533 1.9907016e-38
0.030887702 -0.1266733 0.021235533 2.0368368e-38
0.032873251 -0.12853102 0.014241882 2.1566222e-38
0.034693256 -0.12853102 0.014241882 2.3507374e-38
0.036513261 -0.12853102 0.014241882 2.3508809e-38
0.038333267 -0.12853102 0.014241882 2.3509521e-38
0.040153272 -0.12853102 0.014241882 2.3509524e-38
0.04183884 -0.12748651 0.018174119 2.3509883e-38
0.043651953 -0.12748651 0.018174119 2.3509527e-38
0.04546506 -0.12748651 0.018174119 2.3141103e-38
0.047278173 -0.12748651 0.018174119 2.3141466e-38
0.049091287 -0.12748651 0.018174119 2.341805e-38
0.050904401 -0.12748651 0.018174119 2.3234379e-38
0.052717514 -0.12748651 0.018174119 2.2958154e-38
0.054530628 -0.12748651 0.018174119 2.341805e-38
0.056343734 -0.12748651 0.018174119 2.3325856e-38
0.058156848 -0.12748651 0.018174119 2.2496097e-38
0.059811614 -0.1266733 0.021235533 2.341805e-38
0.061619356 -0.1266733 0.021235533 2.3141103e-38
0.063813366 -0.12853102 0.014241882 1.8900823e-38
-0.081577264 -0.1416003 -0.027829818 1.5025344e-38
-0.079683505 -0.1416003 -0.027829818 1.8067797e-38
-0.078097261 -0.1426542 -0.031771354 2.1940014e-38
-0.076196574 -0.1426542 -0.031771354 2.138684e-38
-0.074295886 -0.1426542 -0.031771354 2.0833666e-38
-0.07210841 -0.1416003 -0.027829818 2.1479036e-38
-0.070214637 -0.1416003 -0.027829818 1.7514624e-38
-0.068320863 -0.1416003 -0.027829818 2.1571231e-38
-0.066427089 -0.1416003 -0.027829818 2.3415863e-38
-0.064336397 -0.14079951 -0.024834923 2.2862689e-38
-0.062447883 -0.14079951 -0.024834923 1.7976321e-38
-0.060310058 -0.13972856 -0.020829611 1.9636562e-38
-0.05824288 -0.13890781 -0.017760091 1.6225324e-38
-0.056366764 -0.13890781 -0.017760091 1.2721893e-38
-0.054323159 -0.13812189 -0.014820747 2.3034334e-39
-0.052452192 -0.13812189 -0.014820747 3.6734198e-40
-0.050581224 -0.13812189 -0.014820747 4.5953621e-40
-0.048501126 -0.13704078 -0.010777406 3.6734619e-40
-0.046637259 -0.13704078 -0.010777406 7.1905459e-39
-0.044773385 -0.13704078 -0.010777406 5.7154242e-39
-0.042769544 -0.13623528 -0.0077649876 1.5414283e-44
-0.040910952 -0.13623528 -0.0077649876 6.4502889e-40
-0.038923688 -0.13543437 -0.0047696158 4.332494e-39
-0.03694763 -0.134638 -0.0017911717 6.0834907e-39
-0.035099506 -0.134638 -0.0017911717 2.0254382e-39
-0.03325139 -0.134638 -0.0017911717 7.3468677e-40
-0.031257533 -0.13355388 0.0022633746 2.1136597e-39
-0.029416526 -0.13355388 0.0022633746 2.3884404e-39
-0.027575517 -0.13355388 0.0022633746 2.3877229e-39
-0.025734508 -0.13355388 0.0022633746 8.194593e-39
-0.023893496 -0.13355388 0.0022633746 1.8060254e-38
-0.022162681 -0.134638 -0.0017911717 1.5758619e-38
-0.020314561 -0.134638 -0.0017911717 4.2352508e-39
-0.018466441 -0.134638 -0.0017911717 4.1434055e-39
-0.016618324 -0.134638 -0.0017911717 5.2497447e-39
-0.014688453 -0.13355388 0.0022633746 4.1437461e-39
-0.012847444 -0.13355388 0.0022633746 5.1575266e-39
-0.011006435 -0.13355388 0.0022633746 3.5905527e-39
-0.0091654267 -0.13355388 0.0022633746 4.9734815e-39
-0.0072857682 -0.13276802 0.0052024797 4.0515252e-39
-0.0054499116 -0.13276802 0.0052024797 6.8181186e-39
-0.003614055 -0.13276802 0.0052024797 1.1797051e-38
-0.0017782003 -0.13276802 0.0052024797 1.5116465e-38
5.7654455e-05 -0.13276802 0.0052024797 1.4287074e-38
0.001893511 -0.13276802 0.0052024797 9.6769412e-39
0.0037373379 -0.13195769 0.0082330182 9.4925597e-39
0.0055678803 -0.13195769 0.0082330182 1.6222109e-38
0.0073984209 -0.13195769 0.0082330182 1.7971998e-38
0.0092289634 -0.13195769 0.0082330182 1.9077982e-38
0.0110463 -0.13115202 0.011246152 1.9262404e-38
0.012871558 -0.13115202 0.011246152 3.959366e-39
0.014696817 -0.13115202 0.011246152 3.0398984e-39
0.016522076 -0.13115202 0.011246152 4.4246055e-39
0.018313196 -0.13035102 0.014241882 4.9774121e-39
0.020133201 -0.13035102 0.014241882 9.3095249e-39
0.021953208 -0.13035102 0.014241882 9.7676458e-39
0.023773214 -0.13035102 0.014241882 1.2347327e-38
0.025593221 -0.13035102 0.014241882 1.5019913e-38
0.027333941 -0.1292996 0.018174119 1.7600669e-38
0.029079957 -0.12848105 0.021235533 1.9813014e-38
0.030887702 -0.12848105 0.021235533 1.5940094e-38
0.032873251 -0.13035102 0.014241882 1.5294387e-38
0.034693256 -0.13035102 0.014241882 2.2856596e-38
0.036513261 -0.13035102 0.014241882 2.3507722e-38
0.038333267 -0.13035102 0.014241882 2.3509517e-38
0.040153272 -0.13035102 0.014241882 2.3508079e-38
0.041973285 -0.13035102 0.014241882 2.3509161e-38
0.043651953 -0.1292996 0.018174119 2.3509883e-38
0.04546506 -0.1292996 0.018174119 2.3509886e-38
0.047278173 -0.1292996 0.018174119 2.341805e-38
0.049091287 -0.1292996 0.018174119 2.341805e-38
0.050904401 -0.1292996 0.018174119 2.3234379e-38
0.052717514 -0.1292996 0.018174119 2.3234379e-38
0.054388382 -0.12848105 0.021235533 2.341805e-38
0.056196123 -0.12848105 0.021235533 2.304927e-38
0.058003873 -0.12848105 0.021235533 2.3509886e-38
0.059811614 -0.12848105 0.021235533 2.3325492e-38
0.061619356 -0.12848105 0.021235533 2.3509883e-38
0.063596189 -0.1292996 0.018174119 1.8807906e-38
-0.080239959 -0.14537133 -0.034804992 1.6039493e-38
-0.078097261 -0.14455487 -0.031771354 1.8344383e-38
-0.076196574 -0.14455487 -0.031771354 1.6777057e-38
-0.074295886 -0.14455487 -0.031771354 1.6039848e-38
-0.07210841 -0.14349405 -0.027829818 1.640863e-38
-0.070214637 -0.14349405 -0.027829818 1.382715e-38
-0.068320863 -0.14349405 -0.027829818 1.9912064e-38
-0.066224925 -0.14268802 -0.024834923 2.2770129e-38
-0.064336397 -0.14268802 -0.024834923 2.2493902e-38
-0.062191553 -0.14161004 -0.020829611 1.668558e-38
-0.060310058 -0.14161004 -0.020829611 1.7055442e-38
-0.05824288 -0.14078392 -0.017760091 1.4289573e-38
-0.056366764 -0.14078392 -0.017760091 1.207652e-38
-0.054323159 -0.13999285 -0.014820747 2.4881806e-39
-0.052452192 -0.13999285 -0.014820747 6.4356594e-40
-0.050581224 -0.13999285 -0.014820747 7.3540424e-40
-0.048501126 -0.13890465 -0.010777406 3.6734479e-40
-0.046637259 -0.13890465 -0.010777406 7.4660552e-39
-0.044773385 -0.13890465 -0.010777406 6.8214116e-39
-0.042769544 -0.13809387 -0.0077649876 6.4394849e-40
-0.040777028 -0.13728772 -0.0047696158 9.1852312e-41
-0.038923688 -0.13728772 -0.0047696158 1.3815149e-39
-0.036780559 -0.13539489 0.0022633746 1.0120107e-39
-0.03493955 -0.13539489 0.0022633746 8.2653348e-40
-0.033098541 -0.13539489 0.0022633746 1.9303601e-39
-0.031257533 -0.13539489 0.0022633746 2.2058582e-39
-0.029416526 -0.13539489 0.0022633746 2.3884404e-39
-0.027575517 -0.13539489 0.0022633746 2.4795584e-39
-0.025734508 -0.13539489 0.0022633746 7.180804e-39
-0.023893496 -0.13539489 0.0022633746 1.7691473e-38
-0.022162681 -0.13648613 -0.0017911717 1.4928506e-38
-0.020314561 -0.13648613 -0.0017911717 4.6958773e-39
-0.01837047 -0.13539489 0.0022633746 3.5895185e-39
-0.016529461 -0.13539489 0.0022633746 4.2352368e-39
-0.014688453 -0.13539489 0.0022633746 3.6816889e-39
-0.012847444 -0.13539489 0.0022633746 2.9448343e-39
-0.011006435 -0.13539489 0.0022633746 4.0515252e-39
-0.0091216248 -0.13460387 0.0052024797 1.1888507e-38
-0.0072459187 -0.13378824 0.0082330182 1.4838767e-38
-0.0054153744 -0.13378824 0.0082330182 1.5853645e-38
-0.003584832 -0.13378824 0.0082330182 1.6499025e-38
-0.0017542895 -0.13378824 0.0082330182 1.7144769e-38
7.6252967e-05 -0.13378824 0.0082330182 1.6315022e-38
0.0019067954 -0.13378824 0.0082330182 1.3365132e-38
0.0037373379 -0.13378824 0.0082330182 1.3180033e-38
0.0055678803 -0.13378824 0.0082330182 1.5945522e-38
0.0073984209 -0.13378824 0.0082330182 1.6219898e-38
0.0092289634 -0.13378824 0.0082330182 2.0551651e-38
0.0110463 -0.13297729 0.011246152 1.870707e-38
0.012871558 -0.13297729 0.011246152 3.4969515e-39
0.014696817 -0.13297729 0.011246152 5.1596678e-39
0.016522076 -0.13297729 0.011246152 1.4750143e-38
0.018313196 -0.13217102 0.014241882 1.3920014e-38
0.020133201 -0.13217102 0.014241882 1.2628203e-38
0.021953208 -0.13217102 0.014241882 1.3362558e-38
0.023773214 -0.13217102 0.014241882 1.2807592e-38
0.025593221 -0.13217102 0.014241882 1.4281626e-38
0.027333941 -0.13111271 0.018174119 1.4926631e-38
0.029147053 -0.13111271 0.018174119 1.3081641e-38
0.030960165 -0.13111271 0.018174119 9.393111e-39
0.032773279 -0.13111271 0.018174119 1.0776425e-38
0.034586392 -0.13111271 0.018174119 1.7784743e-38
0.036513261 -0.13217102 0.014241882 2.3506992e-38
0.038333267 -0.13217102 0.014241882 2.3509153e-38
0.040153272 -0.13217102 0.014241882 2.3507714e-38
0.041973285 -0.13217102 0.014241882 2.3231492e-38
0.043793291 -0.13217102 0.014241882 2.3416245e-38
0.04546506 -0.13111271 0.018174119 2.2956349e-38
0.047278173 -0.13111271 0.018174119 2.3325494e-38
0.049091287 -0.13111271 0.018174119 2.2957075e-38
0.050904401 -0.13111271 0.018174119 2.341805e-38
0.05258064 -0.13028879 0.021235533 2.3234379e-38
0.054388382 -0.13028879 0.021235533 2.341805e-38
0.056196123 -0.13028879 0.021235533 2.341769e-38
0.058003873 -0.13028879 0.021235533 2.3509883e-38
0.059659615 -0.1294979 0.024174161 2.2126585e-38
0.061462209 -0.1294979 0.024174161 2.1573412e-38
0.063264802 -0.1294979 0.024174161 1.8346565e-38
-0.080239959 -0.14727734 -0.034804992 1.253606e-38
-0.078097261 -0.14645557 -0.031771354 1.3734601e-38
-0.076196574 -0.14645557 -0.031771354 1.3181428e-38
-0.074002184 -0.14538784 -0.027829818 1.4288131e-38
-0.07210841 -0.14538784 -0.027829818 1.5209366e-38
-0.070001967 -0.14457656 -0.024834923 1.4656548e-38
-0.068113454 -0.14457656 -0.024834923 1.594765e-38
-0.066224925 -0.14457656 -0.024834923 2.037304e-38
-0.064336397 -0.14457656 -0.024834923 2.147975e-38
-0.061995111 -0.14266007 -0.017760091 1.6593385e-38
-0.060118996 -0.14266007 -0.017760091 1.6963246e-38
-0.05824288 -0.14266007 -0.017760091 1.4658717e-38
-0.056366764 -0.14266007 -0.017760091 1.1892851e-38
-0.054323159 -0.14186381 -0.014820747 1.3814785e-39
-0.052452192 -0.14186381 -0.014820747 1.0123429e-39
-0.050365008 -0.14076851 -0.010777406 6.4320861e-40
-0.048501126 -0.14076851 -0.010777406 3.6734198e-40
-0.046637259 -0.14076851 -0.010777406 7.3731393e-39
-0.044773385 -0.14076851 -0.010777406 7.1891123e-39
-0.042769544 -0.13995247 -0.0077649876 1.1042036e-39
-0.040777028 -0.13914107 -0.0047696158 2.755219e-40
-0.038923688 -0.13914107 -0.0047696158 8.2690062e-40
-0.036780559 -0.13723589 0.0022633746 5.5102839e-40
-0.03493955 -0.13723589 0.0022633746 1.1942384e-39
-0.033098541 -0.13723589 0.0022633746 2.4835339e-39
-0.031257533 -0.13723589 0.0022633746 1.5612062e-39
-0.029416526 -0.13723589 0.0022633746 1.6530389e-39
-0.027480183 -0.13643973 0.0052024797 1.5612034e-39
-0.025644327 -0.13643973 0.0052024797 3.2178367e-39
-0.023893496 -0.13723589 0.0022633746 1.4927049e-38
-0.022162681 -0.13833423 -0.0017911717 1.492815e-38
