# .PCD v0.7 - Point Cloud Data file format
VERSION 0.7
FIELDS x y z rgb
SIZE 4 4 4 4
TYPE F F F F
COUNT 1 1 1 1
WIDTH 943
HEIGHT 1
VIEWPOINT 0 0 0 1 0 0 0
POINTS 943
DATA ascii
-0.040950712 -0.12982969 -0.046045564 2.1201733e-38
-0.038767274 -0.12805928 -0.039008997 1.2903401e-38
-0.036711838 -0.12704925 -0.034994625 1.3639522e-38
-0.034479309 -0.12455635 -0.025086544 1.9355288e-38
-0.032493643 -0.12380283 -0.022091649 2.0922249e-38
-0.030605122 -0.12380283 -0.022091649 2.3508776e-38
-0.028716601 -0.12380283 -0.022091649 2.3509514e-38
-0.02682808 -0.12380283 -0.022091649 2.3509883e-38
-0.024844751 -0.12279506 -0.018086337 2.3509527e-38
-0.022895977 -0.12202276 -0.015016817 2.3509527e-38
-0.021019861 -0.12202276 -0.015016817 2.3509527e-38
-0.019089632 -0.12128322 -0.012077473 2.3509527e-38
-0.017218668 -0.12128322 -0.012077473 2.3509527e-38
-0.015287444 -0.12026589 -0.0080341324 2.3509527e-38
-0.013423573 -0.12026589 -0.0080341324 2.3325856e-38
-0.011525366 -0.11950795 -0.0050217137 2.3325856e-38
-0.0096091665 -0.11800493 0.00095210224 2.341805e-38
-0.00776105 -0.11800493 0.00095210224 2.341805e-38
-0.0058880504 -0.1169848 0.0050066486 2.2957431e-38
-0.0040470399 -0.1169848 0.0050066486 2.3141819e-38
-0.0021983013 -0.11624531 0.0079457536 2.3418047e-38
-0.00035978854 -0.11548282 0.010976292 2.350988e-38
0.0014681108 -0.11472471 0.013989426 2.350952e-38
0.0032933708 -0.11472471 0.013989426 2.3509161e-38
0.0051186308 -0.11472471 0.013989426 2.3509517e-38
0.006943889 -0.11472471 0.013989426 2.3509514e-38
0.008745512 -0.11397095 0.016985156 2.3509873e-38
0.010565518 -0.11397095 0.016985156 2.3509153e-38
0.012340711 -0.1129816 0.020917393 2.3508798e-38
0.014153823 -0.1129816 0.020917393 2.3509521e-38
0.016025539 -0.11397095 0.016985156 2.3509527e-38
0.017895445 -0.11472471 0.013989426 2.3509527e-38
0.019720703 -0.11472471 0.013989426 2.3509168e-38
0.021545963 -0.11472471 0.013989426 2.3416974e-38
0.023371221 -0.11472471 0.013989426 2.3233299e-38
0.025196481 -0.11472471 0.013989426 2.3233652e-38
0.02694558 -0.11397095 0.016985156 2.3326206e-38
0.028575523 -0.11221133 0.023978807 2.3418043e-38
0.030383267 -0.11221133 0.023978807 2.3509886e-38
0.032284945 -0.1129816 0.020917393 2.341805e-38
0.034098059 -0.1129816 0.020917393 2.3142544e-38
0.035706028 -0.11147197 0.026917435 2.2958514e-38
0.037508622 -0.11147197 0.026917435 2.2958873e-38
0.039421991 -0.11221133 0.023978807 2.2775202e-38
0.041229732 -0.11221133 0.023978807 2.2407501e-38
0.043037478 -0.11221133 0.023978807 2.2591531e-38
0.044845223 -0.11221133 0.023978807 2.2591531e-38
0.046652969 -0.11221133 0.023978807 2.20398e-38
0.048460711 -0.11221133 0.023978807 2.2775202e-38
0.050268456 -0.11221133 0.023978807 1.9364686e-38
0.052076202 -0.11221133 0.023978807 1.4293927e-38
0.053731948 -0.11147197 0.026917435 8.3926862e-39
0.055534542 -0.11147197 0.026917435 8.2994116e-39
-0.066705324 -0.14292495 -0.090112828 1.1799232e-38
-0.064469002 -0.14190884 -0.08610215 1.4749848e-38
-0.062468238 -0.14190884 -0.08610215 1.6868182e-38
-0.060467489 -0.14190884 -0.08610215 1.6130973e-38
-0.05846674 -0.14190884 -0.08610215 1.8526983e-38
-0.056311779 -0.14112701 -0.083016299 2.3509151e-38
-0.054125443 -0.14012341 -0.079055093 2.3508431e-38
-0.051252827 -0.1353019 -0.060024641 1.6591599e-38
-0.049297802 -0.1353019 -0.060024641 1.6129542e-38
-0.04734277 -0.1353019 -0.060024641 1.2626108e-38
-0.044975556 -0.13276742 -0.050020956 1.4100877e-38
-0.042881228 -0.13176022 -0.046045564 1.8986519e-38
-0.040801931 -0.13076027 -0.042098783 1.9630807e-38
-0.038767274 -0.12997745 -0.039008997 1.6034453e-38
-0.036611561 -0.12821732 -0.032061718 1.5848617e-38
-0.034479309 -0.12645011 -0.025086544 1.8337535e-38
-0.032493643 -0.12569134 -0.022091649 2.350481e-38
-0.030605122 -0.12569134 -0.022091649 2.3507695e-38
-0.028716601 -0.12569134 -0.022091649 2.350879e-38
-0.02682808 -0.12569134 -0.022091649 2.3508437e-38
-0.024844751 -0.12467657 -0.018086337 2.3508439e-38
-0.022895977 -0.12389888 -0.015016817 2.3508079e-38
-0.020960595 -0.12315418 -0.012077473 2.3509521e-38
-0.019015193 -0.12212978 -0.0080341324 2.286415e-38
-0.017151318 -0.12212978 -0.0080341324 2.3509883e-38
-0.015242551 -0.12136655 -0.0050217137 2.341805e-38
-0.013383958 -0.12136655 -0.0050217137 2.3050347e-38
-0.011491232 -0.12060766 -0.0020263419 2.2958154e-38
-0.0096091665 -0.11985306 0.00095210224 2.3142544e-38
-0.00776105 -0.11985306 0.00095210224 2.3142544e-38
-0.0058880504 -0.11882581 0.0050066486 2.3142544e-38
-0.0040341578 -0.11808117 0.0079457536 2.2774125e-38
-0.002190331 -0.11731337 0.010976292 2.286632e-38
-0.00035714731 -0.11654995 0.013989426 2.3234379e-38
0.0014681108 -0.11654995 0.013989426 2.3048907e-38
0.0032854918 -0.11579098 0.016985156 2.3509523e-38
0.0051054992 -0.11579098 0.016985156 2.3509883e-38
0.0069013741 -0.11479472 0.020917393 2.350952e-38
0.0087144868 -0.11479472 0.020917393 2.350952e-38
0.010527599 -0.11479472 0.020917393 2.350988e-38
0.012305821 -0.11401908 0.023978807 2.3509883e-38
0.014113566 -0.11401908 0.023978807 2.314074e-38
0.01592131 -0.11401908 0.023978807 2.2955993e-38
0.017780047 -0.11479472 0.020917393 2.3509886e-38
0.019593161 -0.11479472 0.020917393 2.3509886e-38
0.021344544 -0.11401908 0.023978807 2.2956712e-38
0.023152288 -0.11401908 0.023978807 2.341769e-38
0.025032496 -0.11479472 0.020917393 2.3509883e-38
0.02694558 -0.11579098 0.016985156 2.3048905e-38
0.028765585 -0.11579098 0.016985156 2.3509886e-38
0.030585593 -0.11579098 0.016985156 2.295672e-38
0.032284945 -0.11479472 0.020917393 2.3417691e-38
0.034098059 -0.11479472 0.020917393 2.3141109e-38
0.035706028 -0.11327456 0.026917435 2.3325497e-38
0.037508622 -0.11327456 0.026917435 2.341805e-38
0.039421991 -0.11401908 0.023978807 2.3141466e-38
0.041229732 -0.11401908 0.023978807 2.341805e-38
0.043037478 -0.11401908 0.023978807 2.3234379e-38
0.044845223 -0.11401908 0.023978807 2.3234379e-38
0.046652969 -0.11401908 0.023978807 2.23135e-38
0.048460711 -0.11401908 0.023978807 2.3142544e-38
0.050268456 -0.11401908 0.023978807 2.2498618e-38
0.052076202 -0.11401908 0.023978807 1.8902633e-38
0.053731948 -0.11327456 0.026917435 1.0329162e-38
0.055534542 -0.11327456 0.026917435 7.3785469e-39
-0.066705324 -0.14493273 -0.090112828 1.235277e-38
-0.064469002 -0.14390959 -0.08610215 1.4012646e-38
-0.062468238 -0.14390959 -0.08610215 1.34573e-38
-0.060302466 -0.14312236 -0.083016299 1.4101945e-38
-0.058307126 -0.14312236 -0.083016299 1.6037698e-38
-0.056113847 -0.14211179 -0.079055093 2.0831871e-38
-0.053929672 -0.14107598 -0.074994825 2.092407e-38
-0.051252827 -0.13725694 -0.060024641 1.4654767e-38
-0.049297802 -0.13725694 -0.060024641 1.0781834e-38
-0.04734277 -0.13725694 -0.060024641 2.4842275e-39
-0.044811748 -0.13369073 -0.046045564 2.667537e-39
-0.042881228 -0.13369073 -0.046045564 5.8940211e-39
-0.040801931 -0.13268389 -0.042098783 9.4882087e-39
-0.038517565 -0.13012333 -0.032061718 9.8566269e-39
-0.036507841 -0.12934943 -0.02902808 1.2621051e-38
-0.034382164 -0.12757985 -0.022091649 1.7414859e-38
-0.032493643 -0.12757985 -0.022091649 2.248454e-38
-0.030605122 -0.12757985 -0.022091649 2.3504817e-38
-0.028716601 -0.12757985 -0.022091649 2.3508067e-38
-0.02672625 -0.12655805 -0.018086337 2.3509153e-38
-0.024844751 -0.12655805 -0.018086337 2.2861262e-38
-0.022831559 -0.12502514 -0.012077473 2.3230764e-38
-0.020879067 -0.12399365 -0.0080341324 2.3508434e-38
-0.019015193 -0.12399365 -0.0080341324 2.3509876e-38
-0.017101143 -0.12322514 -0.0050217137 2.3509879e-38
-0.015242551 -0.12322514 -0.0050217137 2.3325846e-38
-0.013344571 -0.12246101 -0.0020263419 2.3418045e-38
-0.011491232 -0.12246101 -0.0020263419 2.3234376e-38
-0.0096091665 -0.12170117 0.00095210224 2.2865955e-38
-0.0077290591 -0.12066682 0.0050066486 2.2589371e-38
-0.0058880504 -0.12066682 0.0050066486 2.3050349e-38
-0.0040341578 -0.11991702 0.0079457536 2.3234379e-38
-0.002190331 -0.11914389 0.010976292 2.3234379e-38
-0.00035714731 -0.11837523 0.013989426 2.2589374e-38
0.0014654845 -0.11761098 0.016985156 2.341805e-38
0.0032854918 -0.11761098 0.016985156 2.3509886e-38
0.0050882623 -0.11660783 0.020917393 2.3509886e-38
0.0069013741 -0.11660783 0.020917393 2.341769e-38
0.0087144868 -0.11660783 0.020917393 2.341769e-38
0.010469738 -0.11507715 0.026917435 2.3509886e-38
0.012272331 -0.11507715 0.026917435 2.3509886e-38
0.014074923 -0.11507715 0.026917435 2.3509886e-38
0.015877515 -0.11507715 0.026917435 2.3509886e-38
0.017680107 -0.11507715 0.026917435 2.3509886e-38
0.0194827 -0.11507715 0.026917435 2.341769e-38
0.021224279 -0.11430521 0.029943325 2.3509886e-38
0.023021566 -0.11430521 0.029943325 2.3509886e-38
0.024960034 -0.11582683 0.023978807 2.3233299e-38
0.02684561 -0.11660783 0.020917393 2.2956712e-38
0.028658722 -0.11660783 0.020917393 2.3509527e-38
0.030471833 -0.11660783 0.020917393 2.3417333e-38
0.032284945 -0.11660783 0.020917393 2.1389051e-38
0.034098059 -0.11660783 0.020917393 1.5488165e-38
0.035911169 -0.11660783 0.020917393 1.3183626e-38
0.037614245 -0.11582683 0.023978807 1.3367653e-38
0.039421991 -0.11582683 0.023978807 1.3459843e-38
0.041229732 -0.11582683 0.023978807 1.5396307e-38
0.04316362 -0.11660783 0.020917393 1.6226065e-38
0.044845223 -0.11582683 0.023978807 1.9268521e-38
0.046652969 -0.11582683 0.023978807 1.9638022e-38
0.048460711 -0.11582683 0.023978807 2.0375953e-38
0.050268456 -0.11582683 0.023978807 2.3142544e-38
0.052076202 -0.11582683 0.023978807 2.2958873e-38
0.053731948 -0.11507715 0.026917435 1.4293219e-38
0.055534542 -0.11507715 0.026917435 7.286717e-39
0.057337135 -0.11507715 0.026917435 8.2997843e-39
-0.066705324 -0.14694051 -0.090112828 1.235277e-38
-0.064293154 -0.14511769 -0.083016299 1.244532e-38
-0.062297814 -0.14511769 -0.083016299 1.2352031e-38
-0.060302466 -0.14511769 -0.083016299 1.3181428e-38
-0.058307126 -0.14511769 -0.083016299 1.4840953e-38
-0.056113847 -0.1441002 -0.079055093 1.8436583e-38
-0.053929672 -0.14305727 -0.074994825 1.8805009e-38
-0.051627286 -0.1412821 -0.068083905 1.4010839e-38
-0.049658127 -0.1412821 -0.068083905 9.9538742e-39
-0.047688968 -0.1412821 -0.068083905 1.0105492e-39
-0.044356413 -0.13278268 -0.034994625 1.3782499e-39
-0.042209893 -0.1312501 -0.02902808 1.0101905e-39
-0.040309209 -0.1312501 -0.02902808 1.3775324e-39
-0.038517565 -0.13202934 -0.032061718 2.206563e-39
-0.036373083 -0.13023765 -0.025086544 5.0638933e-39
-0.034382164 -0.1294684 -0.022091649 1.1609057e-38
-0.032370746 -0.12843956 -0.018086337 1.5849696e-38
-0.030489247 -0.12843956 -0.018086337 2.0828623e-38
-0.028716601 -0.1294684 -0.022091649 2.1014104e-38
-0.02672625 -0.12843956 -0.018086337 2.3506992e-38
-0.024772096 -0.12765111 -0.015016817 2.3508432e-38
-0.022831559 -0.1268961 -0.012077473 2.3509151e-38
-0.020879067 -0.12585752 -0.0080341324 2.3506992e-38
-0.018959735 -0.12508373 -0.0050217137 2.3509511e-38
-0.017101143 -0.12508373 -0.0050217137 2.3509873e-38
-0.01519791 -0.12431435 -0.0020263419 2.3508793e-38
-0.013344571 -0.12431435 -0.0020263419 2.0744006e-38
-0.011457287 -0.1235493 0.00095210224 2.3140736e-38
-0.0095700677 -0.12250783 0.0050066486 2.3417323e-38
-0.0077290591 -0.12250783 0.0050066486 2.350988e-38
-0.0058700144 -0.12175287 0.0079457536 2.2587564e-38
-0.0040208735 -0.12097444 0.010976292 2.3509883e-38
-0.002190331 -0.12097444 0.010976292 2.3509883e-38
-0.00035714731 -0.12020047 0.013989426 2.3509527e-38
0.0014654845 -0.11943097 0.016985156 2.3509886e-38
0.0032751504 -0.11842094 0.020917393 2.3509886e-38
0.0050882623 -0.11842094 0.020917393 2.3325494e-38
0.0069013741 -0.11842094 0.020917393 2.3325494e-38
0.0086903321 -0.11763458 0.023978807 2.3233299e-38
0.010469738 -0.11687975 0.026917435 2.3141103e-38
0.012272331 -0.11687975 0.026917435 2.3048907e-38
0.014074923 -0.11687975 0.026917435 2.3141103e-38
0.015877515 -0.11687975 0.026917435 2.3509886e-38
0.017629705 -0.1161025 0.029943325 2.3048907e-38
0.01937161 -0.11532979 0.032951571 2.3233299e-38
0.021103323 -0.11456163 0.035942174 2.3509886e-38
0.022890091 -0.11456163 0.035942174 2.3509886e-38
0.024960034 -0.11763458 0.023978807 2.341769e-38
0.02684561 -0.11842094 0.020917393 2.341769e-38
0.028658722 -0.11842094 0.020917393 2.2956359e-38
0.030471833 -0.11842094 0.020917393 2.2495032e-38
0.032284945 -0.11842094 0.020917393 1.8438069e-38
0.034098059 -0.11842094 0.020917393 1.262938e-38
0.035911169 -0.11842094 0.020917393 1.0785821e-38
0.037614245 -0.11763458 0.023978807 1.1430466e-38
0.039421991 -0.11763458 0.023978807 1.1523012e-38
0.041350506 -0.11842094 0.020917393 1.2998139e-38
0.04316362 -0.11842094 0.020917393 1.419776e-38
0.04497673 -0.11842094 0.020917393 1.6133868e-38
0.046789844 -0.11842094 0.020917393 2.0375587e-38
0.048460711 -0.11763458 0.023978807 1.917741e-38
0.050268456 -0.11763458 0.023978807 2.2313503e-38
0.052076202 -0.11763458 0.023978807 2.2958873e-38
0.053731948 -0.11687975 0.026917435 1.8995554e-38
0.055534542 -0.11687975 0.026917435 1.180394e-38
0.057337135 -0.11687975 0.026917435 9.5898015e-39
-0.064293154 -0.14711304 -0.083016299 1.1338969e-38
-0.062297814 -0.14711304 -0.083016299 9.3106544e-39
-0.060302466 -0.14711304 -0.083016299 8.9422264e-39
-0.058102243 -0.14608859 -0.079055093 1.0601393e-38
-0.055910952 -0.14503856 -0.074994825 1.3828243e-38
-0.053929672 -0.14503856 -0.074994825 1.3643496e-38
-0.051627286 -0.14325126 -0.068083905 9.1259114e-39
-0.049658127 -0.14325126 -0.068083905 7.1898032e-39
-0.047688968 -0.14325126 -0.068083905 1.4736769e-39
-0.044235572 -0.13393532 -0.032061718 1.7491848e-39
-0.0420544 -0.13213144 -0.025086544 6.4284847e-40
-0.040160626 -0.13213144 -0.025086544 7.3468397e-40
-0.038408525 -0.13315077 -0.02902808 2.0239682e-39
-0.036373083 -0.13213144 -0.025086544 1.4704441e-39
-0.034382164 -0.13135691 -0.022091649 2.4835045e-39
-0.032370746 -0.13032107 -0.018086337 1.2856969e-39
-0.030489247 -0.13032107 -0.018086337 2.3909515e-39
-0.028716601 -0.13135691 -0.022091649 6.0784123e-39
-0.02672625 -0.13032107 -0.018086337 8.383666e-39
-0.024772096 -0.12952723 -0.015016817 1.0227579e-38
-0.022831559 -0.12876706 -0.012077473 1.4930635e-38
-0.020879067 -0.12772138 -0.0080341324 1.8711374e-38
-0.018904589 -0.12616767 -0.0020263419 2.1938945e-38
-0.01705125 -0.12616767 -0.0020263419 2.2308446e-38
-0.01515352 -0.1253974 0.00095210224 2.0925511e-38
-0.013305403 -0.1253974 0.00095210224 2.0925873e-38
-0.011457287 -0.1253974 0.00095210224 2.2401003e-38
-0.0095700677 -0.12434883 0.0050066486 2.3509514e-38
-0.0077290591 -0.12434883 0.0050066486 2.3507353e-38
-0.0058514159 -0.12280498 0.010976292 2.3509156e-38
-0.0040208735 -0.12280498 0.010976292 2.2861268e-38
-0.0021824073 -0.12202574 0.013989426 2.3509158e-38
-0.00035452098 -0.121251 0.016985156 2.350736e-38
0.0014620386 -0.12023406 0.020917393 2.3509883e-38
0.0032751504 -0.12023406 0.020917393 2.3509886e-38
0.0050748438 -0.11944233 0.023978807 2.3509886e-38
0.0068825874 -0.11944233 0.023978807 2.3509886e-38
0.0086671468 -0.11868234 0.026917435 2.3509886e-38
0.010469738 -0.11868234 0.026917435 2.3509886e-38
0.012272331 -0.11868234 0.026917435 2.3509886e-38
0.014074923 -0.11868234 0.026917435 2.3509886e-38
0.01583242 -0.11789979 0.029943325 2.2956712e-38
0.017629705 -0.11789979 0.029943325 2.341769e-38
0.019316554 -0.1163484 0.035942174 2.3509886e-38
0.021103323 -0.1163484 0.035942174 2.3048907e-38
0.022890091 -0.1163484 0.035942174 2.3509886e-38
0.024676859 -0.1163484 0.035942174 2.3509886e-38
0.02684561 -0.12023406 0.020917393 2.3509886e-38
0.028658722 -0.12023406 0.020917393 1.8899751e-38
0.030471833 -0.12023406 0.020917393 1.2906683e-38
0.032284945 -0.12023406 0.020917393 1.2076208e-38
0.034098059 -0.12023406 0.020917393 1.0509237e-38
0.036045615 -0.121251 0.016985156 1.0693622e-38
0.037724283 -0.12023406 0.020917393 1.1614854e-38
0.039537393 -0.12023406 0.020917393 1.1154229e-38
0.041505635 -0.121251 0.016985156 1.1338618e-38
0.04316362 -0.12023406 0.020917393 1.2168736e-38
0.04497673 -0.12023406 0.020917393 1.5027521e-38
0.046789844 -0.12023406 0.020917393 2.350988e-38
0.048602957 -0.12023406 0.020917393 2.2865232e-38
0.050416067 -0.12023406 0.020917393 2.092985e-38
0.051929358 -0.11868234 0.026917435 2.0838019e-38
0.053731948 -0.11868234 0.026917435 2.1760701e-38
0.055534542 -0.11868234 0.026917435 1.8810086e-38
0.057337135 -0.11868234 0.026917435 1.1894689e-38
-0.062297814 -0.14910837 -0.083016299 1.023333e-38
-0.060302466 -0.14910837 -0.083016299 8.4816084e-39
-0.058102243 -0.148077 -0.079055093 9.4957645e-39
-0.055910952 -0.14701982 -0.074994825 1.2169082e-38
-0.053929672 -0.14701982 -0.074994825 1.2170164e-38
-0.051627286 -0.14522041 -0.068083905 8.5741768e-39
-0.049658127 -0.14522041 -0.068083905 6.6380741e-39
-0.044235572 -0.13584132 -0.032061718 1.7517058e-39
-0.0420544 -0.1340252 -0.025086544 1.8428224e-39
-0.040160626 -0.1340252 -0.025086544 3.6734198e-40
-0.038266852 -0.1340252 -0.025086544 1.1038196e-39
-0.036270685 -0.13324542 -0.022091649 5.5101298e-40
-0.034252245 -0.13220255 -0.018086337 8.2723693e-40
-0.032370746 -0.13220255 -0.018086337 1.3796848e-39
-0.030489247 -0.13220255 -0.018086337 1.8388623e-39
-0.028716601 -0.13324542 -0.022091649 1.5612034e-39
-0.02682808 -0.13324542 -0.022091649 1.9296216e-39
-0.024844751 -0.13220255 -0.018086337 3.4969347e-39
-0.022831559 -0.13063805 -0.012077473 7.0010875e-39
-0.020879067 -0.12958528 -0.0080341324 1.244063e-38
-0.018849757 -0.12724553 0.00095210224 1.5115026e-38
-0.01700164 -0.12724553 0.00095210224 1.8158201e-38
-0.01515352 -0.12724553 0.00095210224 1.8250396e-38
-0.013305403 -0.12724553 0.00095210224 2.1938221e-38
-0.011411078 -0.12618984 0.0050066486 2.23992e-38
-0.0095700677 -0.12618984 0.0050066486 2.2491395e-38
-0.0077290591 -0.12618984 0.0050066486 2.3507708e-38
-0.0058514159 -0.12463553 0.010976292 2.3507349e-38
-0.0040076673 -0.12385099 0.013989426 2.3508793e-38
-0.0021745283 -0.123071 0.016985156 2.3507714e-38
-0.00035452098 -0.123071 0.016985156 2.3508437e-38
0.0014620386 -0.12204717 0.020917393 2.3508441e-38
0.0032670982 -0.12125005 0.023978807 2.3325494e-38
0.0050748438 -0.12125005 0.023978807 2.3141103e-38
0.0068645542 -0.12048493 0.026917435 2.3048907e-38
0.0086671468 -0.12048493 0.026917435 2.3141103e-38
0.010469738 -0.12048493 0.026917435 2.341769e-38
0.012272331 -0.12048493 0.026917435 2.3509886e-38
0.014074923 -0.12048493 0.026917435 2.3509886e-38
0.01583242 -0.11969708 0.029943325 2.3141103e-38
0.017629705 -0.11969708 0.029943325 2.3509886e-38
0.019316554 -0.11813517 0.035942174 2.3509886e-38
0.021043375 -0.11736105 0.038915254 2.3141103e-38
0.022824932 -0.11736105 0.038915254 2.3509886e-38
0.024606487 -0.11736105 0.038915254 2.3048907e-38
0.02684561 -0.12204717 0.020917393 2.1020604e-38
0.028658722 -0.12204717 0.020917393 1.3829347e-38
0.030471833 -0.12204717 0.020917393 1.1154603e-38
0.0324056 -0.123071 0.016985156 1.1983288e-38
0.034225605 -0.123071 0.016985156 1.2259872e-38
0.036045615 -0.123071 0.016985156 1.2075835e-38
0.03786562 -0.123071 0.016985156 1.2628643e-38
0.039685626 -0.123071 0.016985156 1.262864e-38
0.041505635 -0.123071 0.016985156 1.1891792e-38
0.04316362 -0.12204717 0.020917393 1.2260931e-38
0.04497673 -0.12204717 0.020917393 1.3828977e-38
0.046965655 -0.123071 0.016985156 2.2126585e-38
0.04878566 -0.123071 0.016985156 2.3509883e-38
0.050268456 -0.12125005 0.023978807 2.2588648e-38
0.051929358 -0.12048493 0.026917435 2.1114244e-38
0.053731948 -0.12048493 0.026917435 2.2220956e-38
0.055534542 -0.12048493 0.026917435 2.1944013e-38
-0.055910952 -0.14900111 -0.074994825 7.652575e-39
-0.053929672 -0.14900111 -0.074994825 9.5890476e-39
-0.049967118 -0.14900111 -0.074994825 7.0994152e-39
-0.044110574 -0.13695215 -0.02902808 8.301138e-40
-0.041936249 -0.13513394 -0.022091649 2.2130482e-39
-0.040047728 -0.13513394 -0.022091649 4.6061241e-40
-0.038266852 -0.13591899 -0.025086544 1.2896514e-39
-0.036270685 -0.13513394 -0.022091649 3.6770072e-40
-0.034252245 -0.13408406 -0.018086337 3.6734198e-40
-0.032370746 -0.13408406 -0.018086337 9.1943116e-40
-0.030489247 -0.13408406 -0.018086337 7.3468397e-40
-0.028716601 -0.13513394 -0.022091649 1.7455919e-39
-0.02672625 -0.13408406 -0.018086337 2.1140101e-39
-0.024772096 -0.13327946 -0.015016817 2.6671768e-39
-0.022742942 -0.13144915 -0.0080341324 1.8377861e-39
-0.020697877 -0.12909363 0.00095210224 2.4831457e-39
-0.018849757 -0.12909363 0.00095210224 1.3775324e-39
-0.01700164 -0.12909363 0.00095210224 4.7891127e-39
-0.01515352 -0.12909363 0.00095210224 6.2642427e-39
-0.013305403 -0.12909363 0.00095210224 1.0136459e-38
-0.011411078 -0.12803085 0.0050066486 1.2071847e-38
-0.0095417239 -0.12726043 0.0079457536 1.2993803e-38
-0.0077058692 -0.12726043 0.0079457536 1.7787257e-38
-0.0058514159 -0.12646608 0.010976292 1.7971649e-38
-0.0040076673 -0.12567626 0.013989426 2.1289972e-38
-0.0021745283 -0.124891 0.016985156 2.1473643e-38
-0.00035452098 -0.124891 0.016985156 2.313497e-38
0.0014620386 -0.12386028 0.020917393 2.350952e-38
0.0032670982 -0.1230578 0.023978807 2.3509886e-38
0.0050748438 -0.1230578 0.023978807 2.3233299e-38
0.0068645542 -0.12228753 0.026917435 2.194256e-38
0.0086671468 -0.12228753 0.026917435 2.1758169e-38
0.010469738 -0.12228753 0.026917435 2.2772321e-38
0.012272331 -0.12228753 0.026917435 2.341769e-38
0.014074923 -0.12228753 0.026917435 2.3233299e-38
0.01583242 -0.12149437 0.029943325 2.3509886e-38
0.017579598 -0.12070583 0.032951571 2.341769e-38
0.01926182 -0.11914261 0.038915254 2.341769e-38
0.021043375 -0.11914261 0.038915254 2.3509886e-38
0.022691315 -0.11754455 0.045011856 2.3509886e-38
0.024393052 -0.11677901 0.047932364 1.8439126e-38
0.026158798 -0.11677901 0.047932364 1.5949844e-38
0.027924545 -0.11677901 0.047932364 1.0786173e-38
0.030847102 -0.12726043 0.0079457536 1.2997793e-38
0.032497518 -0.12567626 0.013989426 1.2997437e-38
0.034225605 -0.124891 0.016985156 1.2905597e-38
0.036045615 -0.124891 0.016985156 1.1891444e-38
0.03786562 -0.124891 0.016985156 1.2628643e-38
0.039685626 -0.124891 0.016985156 1.3366561e-38
0.041505635 -0.124891 0.016985156 1.2260931e-38
0.04316362 -0.12386028 0.020917393 1.2445323e-38
0.04497673 -0.12386028 0.020917393 1.355239e-38
0.046965655 -0.124891 0.016985156 1.6594846e-38
0.04878566 -0.124891 0.016985156 2.2310977e-38
0.050268456 -0.1230578 0.023978807 2.3509886e-38
0.051778153 -0.12149437 0.029943325 2.3325856e-38
0.053575441 -0.12149437 0.029943325 2.1390474e-38
-0.044110574 -0.13885282 -0.02902808 3.5873241e-43
-0.041936249 -0.13702248 -0.022091649 9.219563e-40
-0.040047728 -0.13702248 -0.022091649 1.2907388e-39
-0.038266852 -0.13781275 -0.025086544 5.5281084e-40
-0.036270685 -0.13702248 -0.022091649 4.6061241e-40
-0.034252245 -0.13596557 -0.018086337 3.6770072e-40
-0.032370746 -0.13596557 -0.018086337 1.1052602e-39
-0.030489247 -0.13596557 -0.018086337 9.1943116e-40
-0.028716601 -0.13702248 -0.022091649 2.2072861e-39
-0.02672625 -0.13596557 -0.018086337 2.3909543e-39
-0.024772096 -0.13515557 -0.015016817 1.3775324e-39
-0.022742942 -0.13331302 -0.0080341324 1.1938615e-39
-0.020697877 -0.13094176 0.00095210224 1.5622796e-39
-0.018849757 -0.13094176 0.00095210224 1.1938615e-39
-0.01700164 -0.13094176 0.00095210224 1.9310565e-39
-0.01515352 -0.13094176 0.00095210224 1.2856969e-39
-0.013252087 -0.12987186 0.0050066486 1.8381449e-39
-0.011411078 -0.12987186 0.0050066486 3.0366754e-39
-0.0095417239 -0.12909628 0.0079457536 8.6598872e-39
-0.0077058692 -0.12909628 0.0079457536 8.1063533e-39
-0.0058514159 -0.1282966 0.010976292 1.3913599e-38
-0.0040076673 -0.1275015 0.013989426 1.409799e-38
-0.0021745283 -0.126711 0.016985156 2.045877e-38
-0.00035452098 -0.126711 0.016985156 2.1659477e-38
0.0014620386 -0.1256734 0.020917393 2.2770514e-38
0.0032670982 -0.12486555 0.023978807 2.31411e-38
0.0050619617 -0.12409012 0.026917435 2.2680122e-38
0.0068645542 -0.12409012 0.026917435 2.1204992e-38
0.0086671468 -0.12409012 0.026917435 2.1481579e-38
0.010440559 -0.12329166 0.029943325 2.3417687e-38
0.012237846 -0.12329166 0.029943325 2.3509883e-38
0.014074923 -0.12409012 0.026917435 2.3509883e-38
0.015787587 -0.12249784 0.032951571 2.3509883e-38
0.017579598 -0.12249784 0.032951571 2.31411e-38
0.01926182 -0.12092416 0.038915254 2.31411e-38
0.021043375 -0.12092416 0.038915254 2.3509883e-38
0.022691315 -0.11931543 0.045011856 2.3048905e-38
0.024393052 -0.11854477 0.047932364 1.429032e-38
0.026158798 -0.11854477 0.047932364 1.281519e-38
0.027924545 -0.11854477 0.047932364 1.1431539e-38
0.030847102 -0.12909628 0.0079457536 1.3643161e-38
0.032589972 -0.1282966 0.010976292 1.3181464e-38
0.03432278 -0.1275015 0.013989426 1.3550246e-38
0.036148038 -0.1275015 0.013989426 1.2997429e-38
0.037973296 -0.1275015 0.013989426 1.3642792e-38
0.039798554 -0.1275015 0.013989426 1.4104126e-38
0.041505635 -0.126711 0.016985156 1.272191e-38
0.04332564 -0.126711 0.016985156 1.3643866e-38
0.045145646 -0.126711 0.016985156 1.4289235e-38
0.046965655 -0.126711 0.016985156 1.419776e-38
0.04878566 -0.126711 0.016985156 1.8807543e-38
0.050605666 -0.126711 0.016985156 2.3233296e-38
0.051778153 -0.12329166 0.029943325 2.3509886e-38
0.053575441 -0.12329166 0.029943325 2.2496099e-38
-0.040309209 -0.14075352 -0.02902808 2.212342e-39
-0.038408525 -0.14075352 -0.02902808 9.1838299e-41
-0.036270685 -0.13891099 -0.022091649 1.8367239e-40
-0.034252245 -0.13784705 -0.018086337 9.1835496e-41
-0.032370746 -0.13784705 -0.018086337 2.7550649e-40
-0.030489247 -0.13784705 -0.018086337 9.1907243e-40
-0.028716601 -0.13891099 -0.022091649 1.1023847e-39
-0.02672625 -0.13784705 -0.018086337 3.0374097e-39
-0.024772096 -0.13703169 -0.015016817 1.8388665e-39
-0.022742942 -0.13517688 -0.0080341324 2.1158093e-39
-0.020616122 -0.13171287 0.0050066486 9.1835496e-40
-0.018775113 -0.13171287 0.0050066486 1.7470268e-39
-0.016934104 -0.13171287 0.0050066486 1.9314153e-39
-0.01515352 -0.13278987 0.00095210224 1.2860557e-39
-0.013252087 -0.13171287 0.0050066486 1.2856969e-39
-0.011411078 -0.13171287 0.0050066486 2.668616e-39
-0.0095417239 -0.13093217 0.0079457536 1.7452332e-39
-0.0076819584 -0.13012715 0.010976292 3.1274333e-39
-0.0058329254 -0.12932678 0.013989426 3.7720825e-39
-0.0040076673 -0.12932678 0.013989426 1.0133578e-38
-0.0021745283 -0.12853102 0.016985156 1.4097271e-38
-0.00035452098 -0.12853102 0.016985156 1.7049695e-38
0.0014620386 -0.12748651 0.020917393 1.6869994e-38
0.0032593701 -0.12589271 0.026917435 1.8439123e-38
0.0050619617 -0.12589271 0.026917435 1.9176688e-38
0.0068645542 -0.12589271 0.026917435 1.8623514e-38
0.0086671468 -0.12589271 0.026917435 1.9914253e-38
0.010440559 -0.12508895 0.029943325 2.2772318e-38
0.012237846 -0.12508895 0.029943325 2.3509883e-38
0.014035133 -0.12508895 0.029943325 2.2956709e-38
0.015787587 -0.12428986 0.032951571 2.3233296e-38
0.017579598 -0.12428986 0.032951571 2.3509883e-38
0.01937161 -0.12428986 0.032951571 2.3509883e-38
0.021043375 -0.12270571 0.038915254 2.3509883e-38
0.022757921 -0.12189357 0.041972734 2.2680122e-38
0.024393052 -0.1203105 0.047932364 1.3091777e-38
0.026158798 -0.1203105 0.047932364 1.3091777e-38
0.029091122 -0.13171287 0.0050066486 1.4013017e-38
0.030847102 -0.13093217 0.0079457536 1.4380723e-38
0.032497518 -0.12932678 0.013989426 1.3827189e-38
0.034225605 -0.12853102 0.016985156 1.4933537e-38
0.036045615 -0.12853102 0.016985156 1.4656947e-38
0.037973296 -0.12932678 0.013989426 1.4564749e-38
0.039798554 -0.12932678 0.013989426 1.3920095e-38
0.041505635 -0.12853102 0.016985156 1.2721552e-38
0.04332564 -0.12853102 0.016985156 1.4934605e-38
0.045145646 -0.12853102 0.016985156 1.419704e-38
0.046965655 -0.12853102 0.016985156 1.5579974e-38
0.048924852 -0.12932678 0.013989426 1.8254369e-38
-0.042329572 -0.14346536 -0.032061718 4.5990756e-40
-0.040423568 -0.14346536 -0.032061718 1.105277e-39
-0.038408525 -0.1426542 -0.02902808 1.288948e-39
-0.036270685 -0.14079951 -0.022091649 3.6734899e-40
-0.034252245 -0.13972856 -0.018086337 3.6734899e-40
-0.032370746 -0.13972856 -0.018086337 7.3540984e-40
-0.030489247 -0.13972856 -0.018086337 3.6734198e-40
-0.028607748 -0.13972856 -0.018086337 1.1031078e-39
-0.026648212 -0.13890781 -0.015016817 1.8406728e-39
-0.024772096 -0.13890781 -0.015016817 8.2652087e-40
-0.022742942 -0.13704078 -0.0080341324 1.0112681e-39
-0.020616122 -0.13355388 0.0050066486 1.5644418e-39
-0.018775113 -0.13355388 0.0050066486 1.1034623e-39
-0.016934104 -0.13355388 0.0050066486 1.2882095e-39
-0.01515352 -0.134638 0.00095210224 1.1031022e-39
-0.013252087 -0.13355388 0.0050066486 1.1027434e-39
-0.01137758 -0.13276802 0.0079457536 1.8402986e-39
-0.0095125008 -0.13195769 0.010976292 2.115445e-39
-0.0076819584 -0.13195769 0.010976292 1.8377861e-39
-0.0058329254 -0.13115202 0.013989426 2.7593725e-39
-0.0040076673 -0.13115202 0.013989426 8.7513667e-39
-0.0021745283 -0.13035102 0.016985156 1.3083841e-38
-0.00035452098 -0.13035102 0.016985156 1.6496884e-38
0.0014593545 -0.12848105 0.023978807 1.5671451e-38
0.0032593701 -0.12769531 0.026917435 1.5857646e-38
0.0050619617 -0.12769531 0.026917435 1.6687406e-38
0.0068459855 -0.12688623 0.029943325 1.7609363e-38
0.0086432723 -0.12688623 0.029943325 1.8807906e-38
0.010440559 -0.12688623 0.029943325 2.3325492e-38
0.012237846 -0.12688623 0.029943325 2.3509883e-38
0.014035133 -0.12688623 0.029943325 2.3233296e-38
0.01583242 -0.12688623 0.029943325 2.3509883e-38
0.021224279 -0.12688623 0.029943325 2.2403535e-38
0.023568096 -0.13355388 0.0050066486 1.9453275e-38
0.029091122 -0.13355388 0.0050066486 1.4013373e-38
0.030847102 -0.13276802 0.0079457536 1.4934253e-38
0.0324056 -0.13035102 0.016985156 1.4656947e-38
0.034098059 -0.1292996 0.020917393 1.4656947e-38
0.035911169 -0.1292996 0.020917393 1.4472553e-38
0.03786562 -0.13035102 0.016985156 1.4842054e-38
0.039685626 -0.13035102 0.016985156 1.4473269e-38
0.041505635 -0.13035102 0.016985156 1.3735704e-38
0.04332564 -0.13035102 0.016985156 1.4566544e-38
0.045145646 -0.13035102 0.016985156 1.5119718e-38
0.046965655 -0.13035102 0.016985156 1.4197761e-38
0.048924852 -0.13115202 0.013989426 1.5949481e-38
-0.040423568 -0.14537133 -0.032061718 1.4729833e-39
-0.038408525 -0.14455487 -0.02902808 1.0120051e-39
-0.036270685 -0.14268802 -0.022091649 2.755163e-40
-0.034252245 -0.14161004 -0.018086337 3.6734899e-40
-0.032370746 -0.14161004 -0.018086337 6.4285968e-40
-0.030489247 -0.14161004 -0.018086337 3.6734759e-40
-0.028524332 -0.14078392 -0.015016817 2.7550929e-40
-0.026573487 -0.13999285 -0.012077473 6.4357435e-40
-0.024702519 -0.13999285 -0.012077473 2.7550929e-40
-0.022742942 -0.13890465 -0.0080341324 9.2051717e-40
-0.020818327 -0.13809387 -0.0050217137 1.1056287e-39
-0.018904589 -0.13728772 -0.0020263419 3.6841958e-40
-0.01700164 -0.13648613 0.00095210224 1.0127072e-39
-0.015093096 -0.13539489 0.0050066486 9.2086889e-40
-0.013213437 -0.13460387 0.0079457536 1.8413833e-39
-0.01137758 -0.13460387 0.0079457536 2.3938354e-39
-0.0095125008 -0.13378824 0.010976292 2.6697034e-39
-0.0076581836 -0.13297729 0.013989426 2.9455672e-39
-0.0058329254 -0.13297729 0.013989426 3.6827707e-39
-0.0039945357 -0.13217102 0.016985156 8.844647e-39
-0.0021745283 -0.13217102 0.016985156 1.2439558e-38
-0.00035107508 -0.13111271 0.020917393 1.5852237e-38
0.0014593545 -0.13028879 0.023978807 1.5118277e-38
0.0032593701 -0.1294979 0.026917435 1.4935689e-38
0.0050486997 -0.12868352 0.029943325 1.5673254e-38
0.0068459855 -0.12868352 0.029943325 1.6871797e-38
0.0086432723 -0.12868352 0.029943325 1.8531319e-38
0.010440559 -0.12868352 0.029943325 2.3509883e-38
0.012237846 -0.12868352 0.029943325 2.3509883e-38
0.014035133 -0.12868352 0.029943325 2.31411e-38
0.01583242 -0.12868352 0.029943325 2.3417687e-38
0.017629705 -0.12868352 0.029943325 2.3325492e-38
0.028658722 -0.13111271 0.020917393 1.4750938e-38
0.030471833 -0.13111271 0.020917393 1.5395231e-38
0.032284945 -0.13111271 0.020917393 1.5763295e-38
0.033998754 -0.13028879 0.023978807 1.6316466e-38
0.035806499 -0.13028879 0.023978807 1.640938e-38
0.037724283 -0.13111271 0.020917393 1.640938e-38
0.039685626 -0.13217102 0.016985156 1.5672894e-38
0.041505635 -0.13217102 0.016985156 1.511972e-38
0.04332564 -0.13217102 0.016985156 1.5765806e-38
0.045145646 -0.13217102 0.016985156 1.6226068e-38
0.046965655 -0.13217102 0.016985156 1.576509e-38
0.04878566 -0.13217102 0.016985156 1.6871437e-38
0.050605666 -0.13217102 0.016985156 2.3509883e-38
-0.040423568 -0.14727734 -0.032061718 1.0112891e-39
-0.038408525 -0.14645557 -0.02902808 7.3469938e-40
-0.036270685 -0.14457656 -0.022091649 3.6735179e-40
-0.034252245 -0.14349155 -0.018086337 6.4285688e-40
-0.032370746 -0.14349155 -0.018086337 1.1027588e-39
-0.030489247 -0.14349155 -0.018086337 3.6734899e-40
-0.028524332 -0.14266007 -0.015016817 1.83678e-40
-0.026573487 -0.14186381 -0.012077473 5.5282065e-40
-0.024702519 -0.14186381 -0.012077473 1.8403813e-40
-0.022742942 -0.14076851 -0.0080341324 9.2160317e-40
-0.020818327 -0.13995247 -0.0050217137 6.4537221e-40
-0.018904589 -0.13914107 -0.0020263419 0
-0.01700164 -0.13833423 0.00095210224 9.219563e-41
-0.015049294 -0.13643973 0.0079457536 1.8438846e-40
-0.013213437 -0.13643973 0.0079457536 7.361203e-40
-0.01137758 -0.13643973 0.0079457536 1.1967369e-39
-0.0094834454 -0.13480256 0.013989426 1.8413833e-39
-0.0076581836 -0.13480256 0.013989426 2.9470091e-39
-0.0058145411 -0.13399105 0.016985156 4.2370291e-39
-0.0039945357 -0.13399105 0.016985156 9.3070657e-39
-0.0021745283 -0.13399105 0.016985156 1.2440998e-38
-0.00035107508 -0.13292582 0.020917393 1.5852958e-38
0.0014593545 -0.13209651 0.023978807 1.4934605e-38
0.003251411 -0.13048081 0.029943325 1.4475067e-38
0.0050486997 -0.13048081 0.029943325 1.484385e-38
0.0068459855 -0.13048081 0.029943325 1.6226784e-38
0.0086432723 -0.13048081 0.029943325 1.8439479e-38
0.010440559 -0.13048081 0.029943325 2.350988e-38
0.012237846 -0.13048081 0.029943325 2.350988e-38
0.014035133 -0.13048081 0.029943325 2.3325847e-38
0.01583242 -0.13048081 0.029943325 2.350988e-38
0.027098345 -0.13561879 0.010976292 1.5397023e-38
0.028928887 -0.13561879 0.010976292 1.5119718e-38
0.030471833 -0.13292582 0.020917393 1.4657663e-38
0.032284945 -0.13292582 0.020917393 1.5303033e-38
0.033998754 -0.13209651 0.023978807 1.6132793e-38
0.035806499 -0.13209651 0.023978807 1.6318264e-38
0.037724283 -0.13292582 0.020917393 1.6041321e-38
0.039685626 -0.13399105 0.016985156 1.5304475e-38
0.041505635 -0.13399105 0.016985156 1.5212279e-38
0.04332564 -0.13399105 0.016985156 1.5397386e-38
0.045145646 -0.13399105 0.016985156 1.6134235e-38
0.047099594 -0.13480256 0.013989426 1.6503018e-38
0.04878566 -0.13399105 0.016985156 1.7148387e-38
0.050605666 -0.13399105 0.016985156 2.2772321e-38
-0.028524332 -0.14453618 -0.015016817 1.1981915e-39
-0.026573487 -0.14373477 -0.012077473 7.3793218e-40
-0.024702519 -0.14373477 -0.012077473 2.7695403e-40
-0.022742942 -0.14263238 -0.0080341324 1.1989089e-39
-0.020879067 -0.14263238 -0.0080341324 1.0145149e-39
-0.018904589 -0.14099441 -0.0020263419 1.8511013e-40
-0.01700164 -0.14018236 0.00095210224 4.6169702e-40
-0.015049294 -0.13827558 0.0079457536 3.5873241e-43
-0.013213437 -0.13827558 0.0079457536 3.5873241e-43
-0.01137758 -0.13827558 0.0079457536 9.1835496e-41
-0.0094834454 -0.13662781 0.013989426 5.5137171e-40
-0.0076581836 -0.13662781 0.013989426 1.8413833e-39
-0.0058145411 -0.13581105 0.016985156 4.1455523e-39
-0.0039945357 -0.13581105 0.016985156 1.0045354e-38
-0.0021745283 -0.13581105 0.016985156 1.2994894e-38
-0.00035107508 -0.13473894 0.020917393 1.5300507e-38
0.0014593545 -0.13390426 0.023978807 1.4750213e-38
0.003251411 -0.1322781 0.029943325 1.4290676e-38
0.0050486997 -0.1322781 0.029943325 1.4475067e-38
0.0068459855 -0.1322781 0.029943325 1.5581415e-38
0.0086432723 -0.1322781 0.029943325 1.7701914e-38
0.010411549 -0.13145791 0.032951571 2.3141456e-38
0.012203562 -0.13145791 0.032951571 2.350988e-38
0.013995574 -0.13145791 0.032951571 2.3325847e-38
0.015787587 -0.13145791 0.032951571 2.3233652e-38
0.017579598 -0.13145791 0.032951571 2.350988e-38
0.01926182 -0.12983195 0.038915254 2.350988e-38
0.028928887 -0.13744931 0.010976292 1.5765806e-38
0.030585593 -0.13581105 0.016985156 1.6041677e-38
0.032284945 -0.13473894 0.020917393 1.659485e-38
0.034098059 -0.13473894 0.020917393 1.6963633e-38
0.035911169 -0.13473894 0.020917393 1.7517167e-38
0.037724283 -0.13473894 0.020917393 1.7240583e-38
0.039685626 -0.13581105 0.016985156 1.6780324e-38
0.041505635 -0.13581105 0.016985156 1.7056554e-38
0.04332564 -0.13581105 0.016985156 1.5951286e-38
0.045145646 -0.13581105 0.016985156 1.5765816e-38
0.047099594 -0.13662781 0.013989426 1.7056554e-38
0.048924852 -0.13662781 0.013989426 1.7610084e-38
0.05075011 -0.13662781 0.013989426 2.194256e-38
-0.028524332 -0.1464123 -0.015016817 6.4501628e-40
-0.026573487 -0.14560573 -0.012077473 3.657389e-43
-0.024702519 -0.14560573 -0.012077473 9.2561369e-41
-0.022831559 -0.14560573 -0.012077473 2.1208624e-39
-0.020960595 -0.14560573 -0.012077473 2.8584275e-39
-0.018849757 -0.14203046 0.00095210224 2.7665878e-39
-0.01700164 -0.14203046 0.00095210224 2.4900009e-39
-0.015093096 -0.14091791 0.0050066486 2.7730295e-40
-0.013213437 -0.14011143 0.0079457536 3.5873241e-43
-0.01137758 -0.14011143 0.0079457536 3.6841818e-40
-0.0094834454 -0.13845308 0.013989426 3.6734198e-40
-0.0076345485 -0.13763104 0.016985156 9.1943116e-40
-0.0058145411 -0.13763104 0.016985156 3.5923786e-39
-0.0039945357 -0.13763104 0.016985156 1.0229745e-38
-0.0021745283 -0.13763104 0.016985156 1.28105e-38
-0.00034839101 -0.13571201 0.023978807 1.3918289e-38
0.0014567785 -0.13490568 0.026917435 1.3920453e-38
0.003251411 -0.13407536 0.029943325 1.3737502e-38
0.0050486997 -0.13407536 0.029943325 1.419848e-38
0.0068275249 -0.13324992 0.032951571 1.4936045e-38
0.0086195366 -0.13324992 0.032951571 1.6595567e-38
0.01038271 -0.13242932 0.035942174 2.2035109e-38
0.012169478 -0.13242932 0.035942174 2.3325847e-38
0.013956248 -0.13242932 0.035942174 2.350988e-38
0.015698709 -0.13161351 0.038915254 2.3233652e-38
0.017480263 -0.13161351 0.038915254 2.3325847e-38
0.023087883 -0.13490568 0.026917435 1.779411e-38
0.028765585 -0.13763104 0.016985156 1.6411175e-38
0.030585593 -0.13763104 0.016985156 1.6041674e-38
0.032284945 -0.13655205 0.020917393 1.6502655e-38
0.034098059 -0.13655205 0.020917393 1.6502655e-38
0.035911169 -0.13655205 0.020917393 1.7885952e-38
0.03786562 -0.13763104 0.016985156 1.7978511e-38
0.039685626 -0.13763104 0.016985156 1.7518612e-38
0.041505635 -0.13763104 0.016985156 1.7426419e-38
0.04332564 -0.13763104 0.016985156 1.466091e-38
0.045145646 -0.13763104 0.016985156 1.5213724e-38
0.047099594 -0.13845308 0.013989426 1.7334223e-38
0.048924852 -0.13845308 0.013989426 1.8531685e-38
0.05075011 -0.13845308 0.013989426 2.1758888e-38
0.052725937 -0.13927986 0.010976292 2.341769e-38
-0.028444447 -0.14747669 -0.012077473 1.836752e-40
-0.026470691 -0.14636014 -0.0080341324 2.8025969e-45
-0.024606816 -0.14636014 -0.0080341324 3.6878532e-40
-0.022742942 -0.14636014 -0.0080341324 2.950979e-39
-0.020879067 -0.14636014 -0.0080341324 4.5183047e-39
-0.018849757 -0.14387859 0.00095210224 5.1636713e-39
-0.01700164 -0.14387859 0.00095210224 4.3339107e-39
-0.015093096 -0.14275892 0.0050066486 3.6913565e-40
-0.013133962 -0.14027832 0.013989426 9.2552961e-41
-0.011308704 -0.14027832 0.013989426 2.7658269e-40
-0.0094834454 -0.14027832 0.013989426 3.6734198e-40
-0.0076345485 -0.13945107 0.016985156 6.4284847e-40
-0.0058145411 -0.13945107 0.016985156 3.223596e-39
-0.0039772987 -0.13836516 0.020917393 9.4925359e-39
-0.0021641869 -0.13836516 0.020917393 1.1888543e-38
-0.00034839101 -0.13751976 0.023978807 1.2904137e-38
0.0014567785 -0.13670824 0.026917435 1.3459475e-38
0.003251411 -0.13587265 0.029943325 1.3553111e-38
0.0050486997 -0.13587265 0.029943325 1.4014089e-38
0.0068275249 -0.13504194 0.032951571 1.4567263e-38
0.0086195366 -0.13504194 0.032951571 1.5858001e-38
0.01038271 -0.13421609 0.035942174 2.1389739e-38
0.012169478 -0.13421609 0.035942174 2.3325847e-38
0.013956248 -0.13421609 0.035942174 2.350988e-38
0.015698709 -0.13339506 0.038915254 2.350988e-38
0.017480263 -0.13339506 0.038915254 2.2311696e-38
0.023087883 -0.13670824 0.026917435 1.714874e-38
0.024890475 -0.13670824 0.026917435 1.6411175e-38
0.026693068 -0.13670824 0.026917435 1.5304828e-38
0.028658722 -0.13836516 0.020917393 1.6134588e-38
0.030471833 -0.13836516 0.020917393 1.6687043e-38
0.032284945 -0.13836516 0.020917393 1.714874e-38
0.034098059 -0.13836516 0.020917393 1.7332778e-38
0.035911169 -0.13836516 0.020917393 1.9638388e-38
0.03786562 -0.13945107 0.016985156 2.0192285e-38
0.039685626 -0.13945107 0.016985156 1.9916061e-38
0.041505635 -0.13945107 0.016985156 1.954728e-38
0.04332564 -0.13945107 0.016985156 1.512189e-38
0.045274332 -0.14027832 0.013989426 1.4199933e-38
0.047099594 -0.14027832 0.013989426 1.6689215e-38
0.049064852 -0.14111041 0.010976292 1.8901549e-38
0.050895393 -0.14111041 0.010976292 2.1850727e-38
0.052725937 -0.14111041 0.010976292 2.341769e-38
-0.028444447 -0.14934768 -0.012077473 5.5173465e-40
-0.026470691 -0.14822401 -0.0080341324 9.1835496e-41
-0.024606816 -0.14822401 -0.0080341324 5.5281084e-40
-0.022742942 -0.14822401 -0.0080341324 2.766222e-39
-0.01700164 -0.1457267 0.00095210224 5.5320895e-39
-0.014959224 -0.1421036 0.013989426 6.4571833e-40
-0.013094567 -0.14127107 0.016985156 9.2194229e-41
-0.011274561 -0.14127107 0.016985156 2.7550649e-40
-0.0094545558 -0.14127107 0.016985156 3.6734198e-40
-0.0076345485 -0.14127107 0.016985156 1.749182e-39
-0.0057904106 -0.14017828 0.020917393 3.6845714e-39
-0.0039772987 -0.14017828 0.020917393 8.386187e-39
-0.0021561347 -0.13932751 0.023978807 1.0597803e-38
-0.00034839101 -0.13932751 0.023978807 1.2811939e-38
0.0014567785 -0.13851084 0.026917435 1.3275083e-38
0.003251411 -0.13766994 0.029943325 1.3276524e-38
0.0050486997 -0.13766994 0.029943325 1.3645306e-38
0.0068275249 -0.13683395 0.032951571 1.3921893e-38
0.0086195366 -0.13683395 0.032951571 1.5120436e-38
0.01038271 -0.13600285 0.035942174 2.0652174e-38
0.012135595 -0.13517661 0.038915254 2.2772674e-38
0.013917152 -0.13517661 0.038915254 2.350988e-38
0.015653141 -0.13432692 0.041972734 2.350988e-38
0.017429337 -0.13432692 0.041972734 2.1666326e-38
0.019205531 -0.13432692 0.041972734 2.074437e-38
0.020981727 -0.13432692 0.041972734 1.6134588e-38
0.023087883 -0.13851084 0.026917435 1.6042393e-38
0.024890475 -0.13851084 0.026917435 1.6411175e-38
0.026693068 -0.13851084 0.026917435 1.5489219e-38
0.028575523 -0.13932751 0.023978807 1.6503371e-38
0.030383267 -0.13932751 0.023978807 1.6226784e-38
0.032284945 -0.14017828 0.020917393 1.6779958e-38
0.034098059 -0.14017828 0.020917393 1.6963996e-38
0.035911169 -0.14017828 0.020917393 1.9822779e-38
0.03786562 -0.14127107 0.016985156 2.0653263e-38
0.039685626 -0.14127107 0.016985156 2.0930213e-38
0.041623816 -0.1421036 0.013989426 2.1114606e-38
0.043449074 -0.1421036 0.013989426 1.5767982e-38
0.045274332 -0.1421036 0.013989426 1.4938221e-38
0.047234312 -0.14294095 0.010976292 1.742678e-38
0.049064852 -0.14294095 0.010976292 2.0376679e-38
0.051183231 -0.14459993 0.0050066486 2.2680488e-38
0.05302424 -0.14459993 0.0050066486 2.3325494e-38
0.054865249 -0.14459993 0.0050066486 2.3509883e-38
0.056706257 -0.14459993 0.0050066486 2.2679762e-38
0.058547266 -0.14459993 0.0050066486 1.1247504e-38
-0.014914576 -0.14309107 0.016985156 1.936097e-39
-0.013094567 -0.14309107 0.016985156 1.1052545e-39
-0.011229746 -0.14199139 0.020917393 5.5173044e-40
-0.0094166361 -0.14199139 0.020917393 1.3804023e-39
-0.0076035224 -0.14199139 0.020917393 3.6849287e-39
-0.0057904106 -0.14199139 0.020917393 4.7905546e-39
-0.0039638802 -0.14113526 0.023978807 7.8322901e-39
-0.0021561347 -0.14113526 0.023978807 9.6754838e-39
-0.00034581497 -0.14031343 0.026917435 1.2903774e-38
0.0014567785 -0.14031343 0.026917435 1.2998139e-38
0.003251411 -0.13946722 0.029943325 1.2722997e-38
0.0050486997 -0.13946722 0.029943325 1.281483e-38
0.0068275249 -0.13862596 0.032951571 1.2999221e-38
0.0085959416 -0.13778962 0.035942174 1.4105568e-38
0.010354039 -0.13695817 0.038915254 1.9637306e-38
0.012100751 -0.13610314 0.041972734 2.1665607e-38
0.013876946 -0.13610314 0.041972734 2.2495368e-38
0.015653141 -0.13610314 0.041972734 2.2126585e-38
0.017429337 -0.13610314 0.041972734 2.092876e-38
0.019205531 -0.13610314 0.041972734 2.092876e-38
0.021043375 -0.13695817 0.038915254 1.5765804e-38
0.022955636 -0.13862596 0.032951571 1.5489218e-38
0.024818853 -0.13946722 0.029943325 1.6596284e-38
0.026693068 -0.14031343 0.026917435 1.6504088e-38
0.02849566 -0.14031343 0.026917435 1.8071414e-38
0.030383267 -0.14113526 0.023978807 1.8255086e-38
0.032284945 -0.14199139 0.020917393 1.862387e-38
0.034098059 -0.14199139 0.020917393 1.8347646e-38
0.035911169 -0.14199139 0.020917393 2.1114238e-38
0.03786562 -0.14309107 0.016985156 2.2220589e-38
0.039685626 -0.14309107 0.016985156 2.3142544e-38
0.041623816 -0.14392884 0.013989426 2.2958873e-38
0.043449074 -0.14392884 0.013989426 1.9179576e-38
0.045274332 -0.14392884 0.013989426 1.7796642e-38
0.047369804 -0.14561899 0.0079457536 1.9823867e-38
0.049205661 -0.14561899 0.0079457536 2.2773765e-38
0.051183231 -0.14644094 0.0050066486 2.341805e-38
0.05302424 -0.14644094 0.0050066486 2.3509527e-38
0.054865249 -0.14644094 0.0050066486 2.3508444e-38
0.056706257 -0.14644094 0.0050066486 2.2493929e-38
0.058547266 -0.14644094 0.0050066486 1.0047519e-38
-0.014914576 -0.14491107 0.016985156 1.936097e-39
-0.013094567 -0.14491107 0.016985156 1.3818414e-39
-0.011229746 -0.14380451 0.020917393 9.2050736e-40
-0.0094166361 -0.14380451 0.020917393 2.5785812e-39
-0.0076035224 -0.14380451 0.020917393 3.1310333e-39
-0.0057904106 -0.14380451 0.020917393 4.1437433e-39
-0.0039638802 -0.14294298 0.023978807 7.0010847e-39
-0.0021561347 -0.14294298 0.023978807 1.0043179e-38
-0.00034581497 -0.14211603 0.026917435 1.2533548e-38
0.0014567785 -0.14211603 0.026917435 1.2166586e-38
0.003251411 -0.14126451 0.029943325 1.0878014e-38
0.0050486997 -0.14126451 0.029943325 1.2075835e-38
0.0068275249 -0.14041798 0.032951571 1.2075832e-38
0.0085724834 -0.13873972 0.038915254 1.3550963e-38
0.010324555 -0.13787933 0.041972734 1.8253296e-38
0.012100751 -0.13787933 0.041972734 2.1111357e-38
0.013876946 -0.13787933 0.041972734 2.1480137e-38
0.015607848 -0.13702409 0.045011856 2.2033668e-38
0.017378714 -0.13702409 0.045011856 2.0744006e-38
0.019205531 -0.13787933 0.041972734 2.0375583e-38
0.021043375 -0.13873972 0.038915254 1.6779954e-38
0.022955636 -0.14041798 0.032951571 1.7057259e-38
0.024818853 -0.14126451 0.029943325 1.6044186e-38
0.026693068 -0.14211603 0.026917435 1.595271e-38
0.02849566 -0.14211603 0.026917435 1.807249e-38
0.030383267 -0.14294298 0.023978807 1.7978497e-38
0.032284945 -0.14380451 0.020917393 1.9084844e-38
0.034098059 -0.14380451 0.020917393 2.0191914e-38
0.035911169 -0.14380451 0.020917393 2.1114591e-38
0.03786562 -0.14491107 0.016985156 2.2405333e-38
0.039685626 -0.14491107 0.016985156 2.3142544e-38
0.041623816 -0.14575411 0.013989426 2.2222387e-38
0.043449074 -0.14575411 0.013989426 2.0839452e-38
0.045274332 -0.14575411 0.013989426 1.7703722e-38
0.047369804 -0.14745484 0.0079457536 2.1575219e-38
0.049205661 -0.14745484 0.0079457536 2.3509886e-38
0.051041517 -0.14745484 0.0079457536 2.3509883e-38
0.05302424 -0.14828195 0.0050066486 2.3509521e-38
0.054865249 -0.14828195 0.0050066486 2.3507002e-38
0.056706257 -0.14828195 0.0050066486 2.3507362e-38
0.058547266 -0.14828195 0.0050066486 1.0321946e-38
-0.013133962 -0.14757936 0.013989426 1.197453e-39
-0.011274561 -0.14673109 0.016985156 8.2831313e-40
-0.0094545558 -0.14673109 0.016985156 2.2097986e-39
-0.0076035224 -0.14561762 0.020917393 2.8544464e-39
-0.0057904106 -0.14561762 0.020917393 3.8675123e-39
-0.0039772987 -0.14561762 0.020917393 5.8947358e-39
-0.0021561347 -0.14475073 0.023978807 8.844633e-39
-0.00034581497 -0.14391862 0.026917435 1.2625741e-38
0.0014567785 -0.14391862 0.026917435 1.2535366e-38
0.003251411 -0.1430618 0.029943325 1.1338272e-38
0.0050486997 -0.1430618 0.029943325 1.2075835e-38
0.0068275249 -0.14220999 0.032951571 1.170705e-38
0.0085724834 -0.14052127 0.038915254 1.290523e-38
0.010324555 -0.13965552 0.041972734 1.7146226e-38
0.012066115 -0.13879494 0.045011856 1.9912451e-38
0.013836981 -0.13879494 0.045011856 2.0650015e-38
0.015607848 -0.13879494 0.045011856 2.0834406e-38
0.017378714 -0.13879494 0.045011856 2.0650731e-38
