# .PCD v0.7 - Point Cloud Data file format
VERSION 0.7
FIELDS x y z rgb
SIZE 4 4 4 4
TYPE F F F F
COUNT 1 1 1 1
WIDTH 604
HEIGHT 1
VIEWPOINT 0 0 0 1 0 0 0
POINTS 604
DATA ascii
-0.0069896998 -0.10845329 -0.032721139 8.9429649e-39
-0.005208144 -0.10845329 -0.032721139 4.3331834e-39
-0.0087712565 -0.11023484 -0.032721139 7.6522205e-39
-0.0069896998 -0.11023484 -0.032721139 7.5600248e-39
-0.005208144 -0.11023484 -0.032721139 4.4253734e-39
-0.0034265881 -0.11023484 -0.032721139 4.9785472e-39
-0.0016450323 -0.11023484 -0.032721139 4.8863544e-39
0.00013652351 -0.11023484 -0.032721139 4.5175719e-39
-0.0087712565 -0.11201639 -0.032721139 4.4257279e-39
-0.0069896998 -0.11201639 -0.032721139 5.2554914e-39
-0.005208144 -0.11201639 -0.032721139 4.7023176e-39
-0.0034265881 -0.11201639 -0.032721139 4.7948748e-39
-0.0016745161 -0.11123641 -0.02966366 3.3197475e-39
0.000101679 -0.11123641 -0.02966366 4.6108493e-39
-0.010552811 -0.11379795 -0.032721139 6.636628e-39
-0.0087712565 -0.11379795 -0.032721139 5.9930537e-39
-0.0070031015 -0.1130126 -0.02966366 5.6242739e-39
-0.0052269073 -0.1130126 -0.02966366 5.9930565e-39
-0.0034265881 -0.11379795 -0.032721139 5.5324398e-39
-0.0016745161 -0.1130126 -0.02966366 3.4119432e-39
0.000101679 -0.1130126 -0.02966366 5.7171968e-39
-0.014107882 -0.11478879 -0.02966366 8.3843905e-39
-0.012331688 -0.11478879 -0.02966366 5.1593413e-39
-0.010555492 -0.11478879 -0.02966366 6.3600411e-39
-0.0087792976 -0.11478879 -0.02966366 5.9930537e-39
-0.0070031015 -0.11478879 -0.02966366 5.1632958e-39
-0.0052269073 -0.11478879 -0.02966366 5.0707428e-39
-0.0034507113 -0.11478879 -0.02966366 4.6104863e-39
-0.0016745161 -0.11478879 -0.02966366 3.4115872e-39
0.000101679 -0.11478879 -0.02966366 3.5967002e-39
-0.014107882 -0.11656497 -0.02966366 4.0519148e-39
-0.012331688 -0.11656497 -0.02966366 6.2656889e-39
-0.010555492 -0.11656497 -0.02966366 6.1756499e-39
-0.0087792976 -0.11656497 -0.02966366 5.9008608e-39
-0.0070031015 -0.11656497 -0.02966366 5.9012224e-39
-0.0052269073 -0.11656497 -0.02966366 4.8870704e-39
-0.0034507113 -0.11656497 -0.02966366 4.6104863e-39
-0.0016745161 -0.11656497 -0.02966366 5.6242823e-39
0.000101679 -0.11656497 -0.02966366 4.2417122e-39
-0.019484051 -0.11992194 -0.035694219 7.2805583e-39
-0.017697278 -0.11992194 -0.035694219 6.7270272e-39
-0.015897479 -0.11914261 -0.032721139 5.8043548e-39
-0.014107882 -0.11834116 -0.02966366 6.9107024e-39
-0.012331688 -0.11834116 -0.02966366 7.7411819e-39
-0.010555492 -0.11834116 -0.02966366 7.4671089e-39
-0.0087792976 -0.11834116 -0.02966366 6.4536773e-39
-0.0070031015 -0.11834116 -0.02966366 5.255853e-39
-0.0052269073 -0.11834116 -0.02966366 3.5041388e-39
-0.0034507113 -0.11834116 -0.02966366 2.9506091e-39
-0.0016745161 -0.11834116 -0.02966366 6.0852633e-39
0.0034302892 -0.11440529 -0.014648236 9.95857e-39
0.0051801568 -0.11440529 -0.014648236 7.7458776e-39
0.0069300262 -0.11440529 -0.014648236 8.1143056e-39
-0.021270819 -0.12170871 -0.035694219 1.0785431e-38
-0.019484051 -0.12170871 -0.035694219 6.3589635e-39
-0.017679036 -0.12092416 -0.032721139 6.0823794e-39
-0.015897479 -0.12092416 -0.032721139 5.5284896e-39
-0.014107882 -0.12011738 -0.02966366 5.436294e-39
-0.012331688 -0.12011738 -0.02966366 6.2667735e-39
-0.010555492 -0.12011738 -0.02966366 5.8083107e-39
-0.0087792976 -0.12011738 -0.02966366 6.0856164e-39
-0.0070031015 -0.12011738 -0.02966366 5.2558558e-39
-0.0052819103 -0.11775221 -0.020700552 7.5603906e-39
-0.0035214303 -0.11775221 -0.020700552 7.8369803e-39
-0.0017609503 -0.11775221 -0.020700552 9.6808943e-39
-0.00010306481 -0.11537679 -0.011698462 1.235493e-38
0.0016804216 -0.11615516 -0.014648236 1.4844215e-38
0.0034302892 -0.11615516 -0.014648236 1.5858014e-38
0.0051801568 -0.11615516 -0.014648236 1.6043127e-38
0.0069300262 -0.11615516 -0.014648236 1.5674347e-38
-0.021270819 -0.12349547 -0.035694219 9.3103027e-39
-0.019484051 -0.12349547 -0.035694219 3.7785677e-39
-0.017679036 -0.12270571 -0.032721139 2.8562554e-39
-0.015884079 -0.12189357 -0.02966366 4.8845593e-39
-0.014107882 -0.12189357 -0.02966366 6.0820263e-39
-0.012329022 -0.12108628 -0.026624538 5.7143228e-39
-0.010560717 -0.1203105 -0.02370403 6.177096e-39
-0.0087949717 -0.1203105 -0.02370403 9.7730857e-39
-0.0070292251 -0.1203105 -0.02370403 1.263115e-38
-0.0052819103 -0.11951269 -0.020700552 2.2311694e-38
-0.0035214303 -0.11951269 -0.020700552 2.350988e-38
-0.0017609503 -0.11951269 -0.020700552 2.2864513e-38
-0.00010306481 -0.11712147 -0.011698462 2.3326213e-38
0.0016416321 -0.11712147 -0.011698462 2.304927e-38
0.003386328 -0.11712147 -0.011698462 2.2864882e-38
0.0051310239 -0.11712147 -0.011698462 2.341805e-38
0.0068757208 -0.11712147 -0.011698462 2.258902e-38
0.0086204158 -0.11712147 -0.011698462 2.3049991e-38
0.010429761 -0.11790501 -0.014648236 2.323402e-38
0.012179631 -0.11790501 -0.014648236 2.2496467e-38
-0.023023702 -0.1244873 -0.032721139 6.452957e-39
-0.021242145 -0.1244873 -0.032721139 5.4384491e-39
-0.019460592 -0.1244873 -0.032721139 3.8711262e-39
-0.017660271 -0.12366976 -0.02966366 2.3038005e-39
-0.015870757 -0.12285714 -0.026624538 4.2399116e-39
-0.014099889 -0.12285714 -0.026624538 5.3455417e-39
-0.012326463 -0.12207626 -0.02370403 6.1760198e-39
-0.01056335 -0.12127317 -0.020700552 4.8860012e-39
-0.0088028694 -0.12127317 -0.020700552 1.3368718e-38
-0.0070423903 -0.12127317 -0.020700552 1.6411174e-38
-0.0053002322 -0.12047486 -0.017714836 2.350988e-38
-0.0035691829 -0.11965488 -0.014648236 2.3141456e-38
-0.0018477608 -0.11886616 -0.011698462 2.2772318e-38
-0.00010306481 -0.11886616 -0.011698462 2.3509886e-38
0.0016017891 -0.11805601 -0.0086685792 2.3509886e-38
0.0033411728 -0.11805601 -0.0086685792 2.3049273e-38
0.0050805556 -0.11805601 -0.0086685792 2.341805e-38
0.0068199402 -0.11805601 -0.0086685792 2.3417691e-38
0.0086204158 -0.11886616 -0.011698462 2.3325497e-38
0.010365113 -0.11886616 -0.011698462 2.3417691e-38
0.01210981 -0.11886616 -0.011698462 2.3417691e-38
0.013854505 -0.11886616 -0.011698462 2.249539e-38
-0.026586816 -0.12626885 -0.032721139 1.1340046e-38
-0.024805259 -0.12626885 -0.032721139 1.0325894e-38
-0.023023702 -0.12626885 -0.032721139 4.1487893e-39
-0.021242145 -0.12626885 -0.032721139 3.8722052e-39
-0.019460592 -0.12626885 -0.032721139 3.3186755e-39
-0.017660271 -0.12544595 -0.02966366 2.6725859e-39
-0.015870757 -0.12462802 -0.026624538 2.3967206e-39
-0.014099889 -0.12462802 -0.026624538 1.8435469e-39
-0.012326463 -0.12384202 -0.02370403 5.7157633e-39
-0.01056335 -0.12303366 -0.020700552 1.0971633e-38
-0.0088107223 -0.1222301 -0.017714836 2.3141456e-38
-0.0070554772 -0.1222301 -0.017714836 2.350988e-38
-0.0053190514 -0.12140475 -0.014648236 2.350988e-38
-0.0035691829 -0.12140475 -0.014648236 2.2956709e-38
-0.0018769791 -0.1197954 -0.0086685792 2.3509886e-38
-0.00013759546 -0.1197954 -0.0086685792 2.2956715e-38
0.0016017891 -0.1197954 -0.0086685792 2.2034758e-38
0.0033411728 -0.1197954 -0.0086685792 2.341805e-38
0.0050303945 -0.11898489 -0.0056570545 2.3325856e-38
0.0067644985 -0.11898489 -0.0056570545 2.295672e-38
0.0085593248 -0.1197954 -0.0086685792 2.2772332e-38
0.010298708 -0.1197954 -0.0086685792 2.3048914e-38
0.012038092 -0.1197954 -0.0086685792 2.3417691e-38
0.013854505 -0.12061088 -0.011698462 2.3417691e-38
-0.028417893 -0.12885578 -0.035694219 1.1432244e-38
-0.026586816 -0.1280504 -0.032721139 9.7727228e-39
-0.024805259 -0.1280504 -0.032721139 8.6670941e-39
-0.023023702 -0.1280504 -0.032721139 1.8442615e-39
-0.021242145 -0.1280504 -0.032721139 1.93646e-39
-0.019460592 -0.1280504 -0.032721139 1.8442657e-39
-0.017660271 -0.12722217 -0.02966366 2.2123294e-39
-0.015870757 -0.12639888 -0.026624538 5.5317098e-40
-0.014099889 -0.12639888 -0.026624538 0
-0.012326463 -0.12560774 -0.02370403 9.6805383e-39
-0.01056335 -0.12479414 -0.020700552 1.4659102e-38
-0.0088107223 -0.12398534 -0.017714836 2.2956709e-38
-0.0070554772 -0.12398534 -0.017714836 2.3325492e-38
-0.0053190514 -0.12315463 -0.014648236 2.3325492e-38
-0.0035924567 -0.12235557 -0.011698462 2.3233299e-38
-0.0018769791 -0.12153481 -0.0086685792 2.3509886e-38
-0.00013759546 -0.12153481 -0.0086685792 2.3509886e-38
0.0016017891 -0.12153481 -0.0086685792 2.3509886e-38
0.0033411728 -0.12153481 -0.0086685792 2.3509527e-38
0.0050303945 -0.120719 -0.0056570545 2.3509527e-38
0.0067644985 -0.120719 -0.0056570545 2.3509527e-38
0.0085593248 -0.12153481 -0.0086685792 2.3509527e-38
0.010298708 -0.12153481 -0.0086685792 2.3509527e-38
0.012038092 -0.12153481 -0.0086685792 2.3417333e-38
-0.028417893 -0.13064255 -0.035694219 1.0971266e-38
-0.026586816 -0.12983195 -0.032721139 9.1277163e-39
-0.024805259 -0.12983195 -0.032721139 8.20576e-39
-0.023023702 -0.12983195 -0.032721139 1.1066993e-39
-0.021242145 -0.12983195 -0.032721139 8.301138e-40
-0.019460592 -0.12983195 -0.032721139 3.6913565e-40
-0.017660271 -0.12899835 -0.02966366 1.0141491e-39
-0.015870757 -0.12816976 -0.026624538 3.5873241e-43
-0.014092208 -0.1273735 -0.02370403 1.0148708e-39
-0.012323829 -0.12655462 -0.020700552 1.7610084e-38
-0.010565967 -0.12574057 -0.017714836 2.3509886e-38
-0.0088107223 -0.12574057 -0.017714836 2.3048905e-38
-0.0070689199 -0.1249045 -0.014648236 2.3509886e-38
-0.0053371536 -0.12410025 -0.011698462 2.3509886e-38
-0.0036163628 -0.12327419 -0.0086685792 2.2864516e-38
-0.0019060196 -0.12245311 -0.0056570545 2.3048907e-38
-0.00017191656 -0.12245311 -0.0056570545 2.2403541e-38
0.0015621874 -0.12245311 -0.0056570545 2.3141106e-38
0.0032962905 -0.12245311 -0.0056570545 2.3325497e-38
0.0050303945 -0.12245311 -0.0056570545 2.3232944e-38
0.0067644985 -0.12245311 -0.0056570545 2.3509527e-38
0.0084986025 -0.12245311 -0.0056570545 2.3509527e-38
0.0098818755 -0.11808877 0.010350429 2.3509527e-38
-0.026541248 -0.13077454 -0.02966366 8.5745425e-39
-0.022988856 -0.13077454 -0.02966366 1.0148652e-39
-0.021212664 -0.13077454 -0.02966366 9.2266956e-40
-0.019460592 -0.13161351 -0.032721139 3.5873241e-43
-0.017660271 -0.13077454 -0.02966366 9.2914496e-41
-0.015870757 -0.12994061 -0.026624538 3.5873241e-43
-0.014092208 -0.12913923 -0.02370403 3.228289e-39
-0.012323829 -0.12831511 -0.020700552 2.3233662e-38
-0.010568655 -0.12665437 -0.014648236 2.3509886e-38
-0.0088187875 -0.12665437 -0.014648236 2.2864516e-38
-0.0070818486 -0.12584494 -0.011698462 2.3509886e-38
-0.0053557465 -0.12501357 -0.0086685792 2.3509886e-38
-0.0036401236 -0.12418722 -0.0056570545 2.2495736e-38
-0.0019255923 -0.12363027 -0.0036273971 2.3509886e-38
-0.00019504782 -0.12363027 -0.0036273971 2.3509886e-38
0.0014962973 -0.12281232 -0.00064639002 2.3509886e-38
0.0031774556 -0.12199925 0.0023166761 2.3509886e-38
0.0048469426 -0.12116508 0.0053566918 2.3509886e-38
0.0065078484 -0.12036191 0.0082837567 2.3509886e-38
0.0081758378 -0.1197948 0.010350429 2.3233302e-38
0.0098818755 -0.1197948 0.010350429 2.3416974e-38
-0.022988856 -0.13255073 -0.02966366 6.4608267e-40
-0.021212664 -0.13255073 -0.02966366 1.2914549e-39
-0.019436467 -0.13255073 -0.02966366 9.3990693e-41
-0.017641623 -0.1317115 -0.026624538 7.1886611e-43
-0.015857954 -0.13090499 -0.02370403 1.0789998e-42
-0.01408431 -0.13007559 -0.020700552 5.717571e-39
-0.012321212 -0.12925108 -0.017714836 2.3234379e-38
-0.010571242 -0.12758966 -0.011698462 2.2864879e-38
-0.0088265454 -0.12758966 -0.011698462 2.3509886e-38
-0.0070951292 -0.12675296 -0.0086685792 2.3509886e-38
-0.0053557465 -0.12675296 -0.0086685792 2.2311345e-38
-0.0036401236 -0.12592132 -0.0056570545 2.304891e-38
-0.0019255923 -0.12536083 -0.0036273971 2.3509886e-38
-0.00022902153 -0.12453763 -0.00064639002 2.2495734e-38
0.0014962973 -0.12453763 -0.00064639002 2.3509886e-38
0.0031321496 -0.12287988 0.0053566918 2.3325494e-38
0.0047981879 -0.12207155 0.0082837567 2.3509886e-38
0.0065078484 -0.12207155 0.0082837567 2.3509886e-38
0.0081758378 -0.12150083 0.010350429 2.3233296e-38
0.0098818755 -0.12150083 0.010350429 2.3417327e-38
0.01163683 -0.12207155 0.0082837567 2.3509883e-38
0.01334649 -0.12207155 0.0082837567 2.3509883e-38
-0.022988856 -0.13432692 -0.02966366 9.2911693e-41
-0.021212664 -0.13432692 -0.02966366 6.4680854e-40
-0.019436467 -0.13432692 -0.02966366 1.4391335e-42
-0.017641623 -0.13348235 -0.026624538 9.3637566e-41
-0.015844788 -0.13183604 -0.020700552 2.3070515e-39
-0.014076457 -0.13100632 -0.017714836 9.0369766e-39
-0.012318525 -0.13015409 -0.014648236 2.268157e-38
-0.010571242 -0.12933435 -0.011698462 2.2772686e-38
-0.0088345138 -0.12849234 -0.0086685792 2.3509527e-38
-0.0070951292 -0.12849234 -0.0086685792 2.3325138e-38
-0.0053742277 -0.12765543 -0.0056570545 2.3325138e-38
-0.0036561377 -0.12709136 -0.0036273971 2.3509886e-38
-0.0019543394 -0.12626295 -0.00064639002 2.3509886e-38
-0.00022902153 -0.12626295 -0.00064639002 2.3233299e-38
0.0014173565 -0.12459467 0.0053566918 2.3509886e-38
0.0031321496 -0.12459467 0.0053566918 2.3325492e-38
0.0047981879 -0.12378122 0.0082837567 2.3417687e-38
0.0065078484 -0.12378122 0.0082837567 2.3509883e-38
0.0081758378 -0.1232069 0.010350429 2.350988e-38
0.0098818755 -0.1232069 0.010350429 2.350952e-38
0.011587911 -0.1232069 0.010350429 2.3232933e-38
0.013293949 -0.1232069 0.010350429 2.3417324e-38
-0.023057587 -0.13778962 -0.035694219 3.5873241e-43
-0.021212664 -0.13610314 -0.02966366 1.0789998e-42
-0.019436467 -0.13610314 -0.02966366 3.5873241e-43
-0.0176237 -0.13443647 -0.02370403 4.6169702e-40
-0.015844788 -0.13359652 -0.020700552 4.8863656e-39
-0.014076457 -0.13276155 -0.017714836 1.2722994e-38
-0.012315937 -0.13107903 -0.011698462 2.3232936e-38
-0.010573898 -0.13023172 -0.0086685792 2.3509527e-38
-0.0088345138 -0.13023172 -0.0086685792 2.3509168e-38
-0.0071083317 -0.12938951 -0.0056570545 2.3509527e-38
-0.0053866832 -0.12882192 -0.0036273971 2.3509886e-38
-0.0036561377 -0.12882192 -0.0036273971 2.2864516e-38
-0.0020122295 -0.12630944 0.0053566918 2.3509886e-38
-0.00029743649 -0.12630944 0.0053566918 2.3509883e-38
0.0013788659 -0.12549089 0.0082837567 1.8900817e-38
0.0030885264 -0.12549089 0.0082837567 1.6411175e-38
0.0047637625 -0.12491293 0.010350429 1.5489218e-38
0.0064698001 -0.12491293 0.010350429 1.5212631e-38
0.0081155403 -0.12407662 0.013340853 1.5488855e-38
0.0098163346 -0.12407662 0.013340853 1.5120069e-38
0.011587911 -0.12491293 0.010350429 1.5120069e-38
0.013293949 -0.12491293 0.010350429 1.6871786e-38
-0.023057587 -0.13957639 -0.035694219 9.3634763e-41
-0.021242145 -0.13873972 -0.032721139 7.1886611e-43
-0.019436467 -0.13787933 -0.02966366 9.2194229e-41
-0.0176237 -0.13620223 -0.02370403 3.6734198e-40
-0.015844788 -0.13535701 -0.020700552 7.0958125e-39
-0.014060634 -0.13282375 -0.011698462 1.529978e-38
-0.012313281 -0.13197111 -0.0086685792 2.2030063e-38
-0.010576538 -0.13112362 -0.0056570545 2.1478696e-38
-0.0088424338 -0.13112362 -0.0056570545 2.3416248e-38
-0.0071172277 -0.13055246 -0.0036273971 2.3509524e-38
-0.0054231593 -0.12887974 0.0023166761 2.314074e-38
-0.0037270216 -0.12802424 0.0053566918 2.350988e-38
-0.002040456 -0.12720053 0.0082837567 2.3418043e-38
-0.00035434868 -0.12661897 0.010350429 2.3326206e-38
0.001351689 -0.12661897 0.010350429 1.7058338e-38
0.0030577257 -0.12661897 0.010350429 1.4106996e-38
0.0047139535 -0.12577744 0.013340853 1.30932e-38
0.0064147459 -0.12577744 0.013340853 1.3461263e-38
0.0081155403 -0.12577744 0.013340853 1.3461619e-38
0.0098163346 -0.12577744 0.013340853 1.4290658e-38
0.011517129 -0.12577744 0.013340853 1.5120418e-38
0.013217923 -0.12577744 0.013340853 1.4566521e-38
0.014999987 -0.12661897 0.010350429 1.4750197e-38
0.016765811 -0.12720053 0.0082837567 1.6778149e-38
-0.017531432 -0.13371049 -0.0086685792 9.1907243e-40
-0.015778847 -0.13285773 -0.0056570545 6.8177837e-39
-0.014039407 -0.13228302 -0.0036273971 1.4929193e-38
-0.01230625 -0.1314389 -0.00064639002 2.1198498e-38
-0.010583528 -0.13059987 0.0023166761 2.2308094e-38
-0.0088634053 -0.13059987 0.0023166761 2.3508801e-38
-0.0071566077 -0.12973903 0.0053566918 2.3509521e-38
-0.0054597771 -0.1289102 0.0082837567 2.3509521e-38
-0.0037501166 -0.1289102 0.0082837567 2.157341e-38
-0.0020892229 -0.12747823 0.013340853 1.4475066e-38
-0.0003884295 -0.12747823 0.013340853 1.281626e-38
0.0013123648 -0.12747823 0.013340853 1.0328055e-38
0.0030131591 -0.12747823 0.013340853 1.1434399e-38
0.0047139535 -0.12747823 0.013340853 1.2632221e-38
0.0064147459 -0.12747823 0.013340853 1.51215e-38
0.0081155403 -0.12747823 0.013340853 1.5858702e-38
0.0098163346 -0.12747823 0.013340853 1.604273e-38
0.011517129 -0.12747823 0.013340853 1.5858339e-38
0.013217923 -0.12747823 0.013340853 1.456652e-38
0.014999987 -0.128325 0.010350429 1.4381411e-38
0.016706023 -0.128325 0.010350429 1.5394487e-38
0.018412061 -0.128325 0.010350429 1.5855113e-38
-0.017500497 -0.13401355 -0.0036273971 9.1907243e-40
-0.015769951 -0.13401355 -0.0036273971 6.0802186e-39
-0.014023774 -0.13231997 0.0023166761 1.4007239e-38
-0.012296609 -0.13003103 0.010350429 1.8340794e-38
-0.010593194 -0.12917902 0.013340853 2.0463463e-38
-0.0088923993 -0.12917902 0.013340853 2.3323688e-38
-0.0072046341 -0.12833218 0.016313039 2.3508079e-38
-0.0055395765 -0.1269149 0.021287464 2.1849277e-38
-0.0038527157 -0.1269149 0.021287464 1.9176324e-38
-0.0021658549 -0.1269149 0.021287464 1.3276522e-38
-0.0004789941 -0.1269149 0.021287464 1.2078695e-38
0.0012332257 -0.12746434 0.019359015 1.0787954e-38
0.0029688636 -0.12833218 0.016313039 9.5897664e-39
0.0046644462 -0.12833218 0.016313039 1.1894656e-38
0.0064147459 -0.12917902 0.013340853 1.5213698e-38
0.0081155403 -0.12917902 0.013340853 1.5766869e-38
0.0098163346 -0.12917902 0.013340853 1.5397727e-38
0.011517129 -0.12917902 0.013340853 1.5397005e-38
0.013217923 -0.12917902 0.013340853 1.465944e-38
0.014918716 -0.12917902 0.013340853 1.5211894e-38
0.016619511 -0.12917902 0.013340853 1.5672156e-38
0.018320303 -0.12917902 0.013340853 1.4103396e-38
0.0200211 -0.12917902 0.013340853 1.5485981e-38
0.021620274 -0.12833218 0.016313039 1.7882712e-38
0.023315858 -0.12833218 0.016313039 1.7238072e-38
-0.017482203 -0.13488953 -0.00064639002 3.6734198e-40
-0.015756886 -0.13488953 -0.00064639002 4.7902029e-39
-0.014023774 -0.1340401 0.0023166761 1.2071494e-38
-0.012296609 -0.13173707 0.010350429 1.4560776e-38
-0.010593194 -0.1308798 0.013340853 1.4655138e-38
-0.0089002149 -0.13002776 0.016313039 1.9358197e-38
-0.0072179856 -0.12915458 0.019359015 1.8344045e-38
-0.0055395765 -0.12860174 0.021287464 1.4749495e-38
-0.0038527157 -0.12860174 0.021287464 1.3920453e-38
-0.0021658549 -0.12860174 0.021287464 1.0786522e-38
-0.0004789941 -0.12860174 0.021287464 1.0787238e-38
0.0012078667 -0.12860174 0.021287464 9.9581958e-39
0.0029234681 -0.12915458 0.019359015 1.2263084e-38
0.0046137096 -0.12915458 0.019359015 1.3001005e-38
0.0063600289 -0.13002776 0.016313039 1.4107352e-38
0.0081155403 -0.1308798 0.013340853 1.2632222e-38
0.0098163346 -0.1308798 0.013340853 1.1432959e-38
0.011517129 -0.1308798 0.013340853 1.1709546e-38
0.013217923 -0.1308798 0.013340853 1.1893937e-38
0.014918716 -0.1308798 0.013340853 1.2999924e-38
0.016619511 -0.1308798 0.013340853 1.4934235e-38
0.018320303 -0.1308798 0.013340853 1.4933157e-38
0.0200211 -0.1308798 0.013340853 1.5670728e-38
0.021620274 -0.13002776 0.016313039 1.5670017e-38
0.023315858 -0.13002776 0.016313039 1.465695e-38
-0.017482203 -0.13661484 -0.00064639002 3.6734198e-40
-0.015743896 -0.13576023 0.0023166761 2.7619018e-39
-0.01401578 -0.13488342 0.0053566918 8.4765861e-39
-0.012296609 -0.1334431 0.010350429 1.1611238e-38
-0.010593194 -0.13258059 0.013340853 1.2441364e-38
-0.0089002149 -0.13172336 0.016313039 1.6407218e-38
-0.0072179856 -0.13084482 0.019359015 1.6407937e-38
-0.0055395765 -0.13028862 0.021287464 1.5210473e-38
-0.0038527157 -0.13028862 0.021287464 1.4104841e-38
-0.0021658549 -0.13028862 0.021287464 8.0210086e-39
-0.0004789941 -0.13028862 0.021287464 8.0213687e-39
0.0012078667 -0.13028862 0.021287464 1.0234064e-38
0.0028947275 -0.13028862 0.021287464 1.1894304e-38
0.0046137096 -0.13084482 0.019359015 1.1156736e-38
0.0063600289 -0.13172336 0.016313039 1.0972345e-38
0.0081155403 -0.13258059 0.013340853 9.4972149e-39
0.0098163346 -0.13258059 0.013340853 9.0362395e-39
0.011517129 -0.13258059 0.013340853 9.9581958e-39
0.013217923 -0.13258059 0.013340853 1.0326978e-38
0.014918716 -0.13258059 0.013340853 1.1708831e-38
0.016619511 -0.13258059 0.013340853 1.4104475e-38
0.018320303 -0.13258059 0.013340853 1.5670722e-38
0.0200211 -0.13258059 0.013340853 1.5487057e-38
0.021620274 -0.13172336 0.016313039 1.3458757e-38
0.023315858 -0.13172336 0.016313039 1.2628643e-38
0.025011439 -0.13172336 0.016313039 2.3949284e-39
-0.015743896 -0.13748036 0.0023166761 6.4284847e-40
-0.01401578 -0.13659821 0.0053566918 4.8813223e-39
-0.012296609 -0.13514914 0.010350429 1.0597088e-38
-0.010593194 -0.13428138 0.013340853 1.1335016e-38
-0.0088923993 -0.13428138 0.013340853 1.4009771e-38
-0.0072046341 -0.13341893 0.016313039 1.447111e-38
-0.0055395765 -0.13197549 0.021287464 1.5301589e-38
-0.0038527157 -0.13197549 0.021287464 1.4749492e-38
-0.0021658549 -0.13197549 0.021287464 7.7433427e-39
-0.0004789941 -0.13197549 0.021287464 6.914661e-39
0.0012078667 -0.13197549 0.021287464 9.0355206e-39
0.0028947275 -0.13197549 0.021287464 8.5745425e-39
0.0045815883 -0.13197549 0.021287464 7.5611094e-39
0.0063039521 -0.13253506 0.019359015 8.2986773e-39
0.0080556115 -0.13341893 0.016313039 8.9440467e-39
0.0097511942 -0.13341893 0.016313039 1.0050037e-38
0.011446777 -0.13341893 0.016313039 1.0971993e-38
0.013217923 -0.13428138 0.013340853 1.0787602e-38
0.014918716 -0.13428138 0.013340853 1.1801392e-38
0.016619511 -0.13428138 0.013340853 1.4750208e-38
0.018320303 -0.13428138 0.013340853 1.5855113e-38
0.0200211 -0.13428138 0.013340853 1.5026079e-38
0.021620274 -0.13341893 0.016313039 1.2997778e-38
0.023315858 -0.13341893 0.016313039 1.2813032e-38
0.025011439 -0.13341893 0.016313039 3.5934688e-39
-0.01401578 -0.13831301 0.0053566918 2.3009265e-39
-0.012296609 -0.13685517 0.010350429 8.6613431e-39
-0.010593194 -0.1359822 0.013340853 1.1519408e-38
-0.0089002149 -0.13511451 0.016313039 1.419416e-38
-0.0072046341 -0.13511451 0.016313039 1.4470747e-38
-0.0055395765 -0.13366233 0.021287464 1.4748053e-38
-0.0038527157 -0.13366233 0.021287464 1.4379989e-38
-0.0021658549 -0.13366233 0.021287464 8.7567758e-39
-0.0004789941 -0.13366233 0.021287464 8.3887121e-39
0.0012078667 -0.13366233 0.021287464 8.9429649e-39
0.0028947275 -0.13366233 0.021287464 9.8652841e-39
0.0045815883 -0.13366233 0.021287464 8.390154e-39
0.0063039521 -0.13422529 0.019359015 9.035885e-39
0.0080556115 -0.13511451 0.016313039 9.9578441e-39
0.0097511942 -0.13511451 0.016313039 1.032735e-38
0.011446777 -0.13511451 0.016313039 1.0050763e-38
0.013217923 -0.1359822 0.013340853 9.3132006e-39
0.014918716 -0.1359822 0.013340853 1.0603213e-38
0.016619511 -0.1359822 0.013340853 1.4289232e-38
0.018320303 -0.1359822 0.013340853 1.5026432e-38
0.0200211 -0.1359822 0.013340853 1.4380709e-38
0.021620274 -0.13511451 0.016313039 1.2536799e-38
0.023315858 -0.13511451 0.016313039 1.1983626e-38
-0.012293986 -0.13768299 0.013340853 6.0798683e-39
-0.010593194 -0.13768299 0.013340853 8.1081694e-39
-0.0089002149 -0.13681011 0.016313039 1.1795995e-38
-0.0072046341 -0.13681011 0.016313039 1.3825377e-38
-0.0055277431 -0.13591556 0.019359015 1.4931725e-38
-0.0038527157 -0.1353492 0.021287464 1.3549509e-38
-0.0021658549 -0.1353492 0.021287464 7.7419036e-39
-0.0004789941 -0.1353492 0.021287464 9.1255583e-39
0.0012078667 -0.1353492 0.021287464 1.179995e-38
0.0028947275 -0.1353492 0.021287464 1.1892869e-38
0.0046137096 -0.13591556 0.019359015 9.6808943e-39
0.0063039521 -0.13591556 0.019359015 9.6805383e-39
0.0080556115 -0.13681011 0.016313039 1.0050043e-38
0.0097511942 -0.13681011 0.016313039 9.7741787e-39
0.011446777 -0.13681011 0.016313039 9.1288121e-39
0.013217923 -0.13768299 0.013340853 9.0369766e-39
0.014918716 -0.13768299 0.013340853 1.1249309e-38
0.016619511 -0.13768299 0.013340853 1.3367279e-38
0.018320303 -0.13768299 0.013340853 1.5395217e-38
0.0200211 -0.13768299 0.013340853 1.5394861e-38
0.021721892 -0.13768299 0.013340853 1.2905579e-38
0.023422688 -0.13768299 0.013340853 1.1522645e-38
0.025123481 -0.13768299 0.013340853 2.5796714e-39
-0.012293986 -0.13938378 0.013340853 3.3147211e-39
-0.010593194 -0.13938378 0.013340853 6.3575342e-39
-0.0088923993 -0.13938378 0.013340853 1.1704878e-38
-0.0072046341 -0.13850568 0.016313039 1.1889269e-38
-0.0055277431 -0.1376058 0.019359015 1.3456595e-38
-0.0038375007 -0.1376058 0.019359015 1.4379267e-38
-0.0021472583 -0.1376058 0.019359015 9.5858134e-39
-0.00045701582 -0.1376058 0.019359015 9.1259142e-39
0.0012332257 -0.1376058 0.019359015 1.4012646e-38
0.0029234681 -0.1376058 0.019359015 1.3459475e-38
0.0046137096 -0.1376058 0.019359015 9.5879798e-39
0.0063039521 -0.1376058 0.019359015 9.1273646e-39
0.0080556115 -0.13850568 0.016313039 1.0511021e-38
0.0097511942 -0.13850568 0.016313039 9.4975946e-39
0.011446777 -0.13850568 0.016313039 9.0362591e-39
0.013217923 -0.13938378 0.013340853 9.8667415e-39
0.014918716 -0.13938378 0.013340853 9.9585728e-39
0.016619511 -0.13938378 0.013340853 1.1891792e-38
0.018320303 -0.13938378 0.013340853 1.4933883e-38
0.0200211 -0.13938378 0.013340853 1.4288514e-38
0.021721892 -0.13938378 0.013340853 1.1522645e-38
0.023422688 -0.13938378 0.013340853 1.0693603e-38
0.025123481 -0.13938378 0.013340853 2.0272136e-39
-0.010595798 -0.14020126 0.016313039 1.7481128e-39
-0.0089002149 -0.14020126 0.016313039 8.5702265e-39
-0.0072046341 -0.14020126 0.016313039 1.1428291e-38
-0.0055277431 -0.13929604 0.019359015 1.3825375e-38
-0.0038375007 -0.13929604 0.019359015 1.4655854e-38
-0.0021472583 -0.13929604 0.019359015 1.115242e-38
-0.00045701582 -0.13929604 0.019359015 1.0876552e-38
0.0012332257 -0.13929604 0.019359015 1.4104478e-38
0.0029234681 -0.13929604 0.019359015 1.45651e-38
0.0046644462 -0.14020126 0.016313039 1.0324823e-38
0.0063600289 -0.14020126 0.016313039 9.3113957e-39
0.0080556115 -0.14020126 0.016313039 1.0786891e-38
0.0097511942 -0.14020126 0.016313039 1.087945e-38
0.011446777 -0.14020126 0.016313039 1.0787976e-38
0.013217923 -0.14108457 0.013340853 1.1341155e-38
0.014918716 -0.14108457 0.013340853 1.0971647e-38
0.016619511 -0.14108457 0.013340853 1.2353496e-38
0.018320303 -0.14108457 0.013340853 1.3735343e-38
0.0200211 -0.14108457 0.013340853 1.3089973e-38
0.021721892 -0.14108457 0.013340853 9.7709277e-39
0.023422688 -0.14108457 0.013340853 8.204318e-39
0.025123481 -0.14108457 0.013340853 1.3818414e-39
-0.0089002149 -0.14189686 0.016313039 5.8972721e-39
-0.0072046341 -0.14189686 0.016313039 9.6772901e-39
-0.0055090506 -0.14189686 0.016313039 1.327292e-38
-0.003813467 -0.14189686 0.016313039 1.4287072e-38
-0.0021178853 -0.14189686 0.016313039 1.1705591e-38
-0.00042230263 -0.14189686 0.016313039 1.1153136e-38
0.0012732809 -0.14189686 0.016313039 1.2629348e-38
0.0029688636 -0.14189686 0.016313039 1.2075818e-38
0.0046644462 -0.14189686 0.016313039 9.2184756e-39
0.0063600289 -0.14189686 0.016313039 9.1270044e-39
0.0080556115 -0.14189686 0.016313039 1.1340062e-38
0.0097511942 -0.14189686 0.016313039 1.235458e-38
0.011446777 -0.14189686 0.016313039 1.2908476e-38
0.013217923 -0.14278536 0.013340853 1.3553851e-38
0.014918716 -0.14278536 0.013340853 1.3276182e-38
0.016619511 -0.14278536 0.013340853 1.4197411e-38
0.018320303 -0.14278536 0.013340853 1.2444968e-38
0.0200211 -0.14278536 0.013340853 1.0970193e-38
0.021721892 -0.14278536 0.013340853 6.8213864e-39
0.023422688 -0.14278536 0.013340853 6.2682098e-39
-0.0071916049 -0.14448614 0.013340853 5.9901838e-39
-0.0054908106 -0.14448614 0.013340853 1.1521203e-38
-0.0037900172 -0.14448614 0.013340853 1.3826091e-38
-0.0020892229 -0.14448614 0.013340853 1.2535352e-38
-0.0003884295 -0.14448614 0.013340853 1.1798506e-38
0.0012732809 -0.14359243 0.016313039 1.2167288e-38
0.0029688636 -0.14359243 0.016313039 1.3642421e-38
0.0046644462 -0.14359243 0.016313039 1.2628992e-38
0.0063600289 -0.14359243 0.016313039 1.3551313e-38
0.0080556115 -0.14359243 0.016313039 1.4935329e-38
0.009684437 -0.14267652 0.019359015 1.4566556e-38
0.011374679 -0.14267652 0.019359015 1.4014103e-38
0.013142359 -0.14359243 0.016313039 1.3921551e-38
0.014837942 -0.14359243 0.016313039 1.3644964e-38
0.016533524 -0.14359243 0.016313039 1.3920827e-38
0.018320303 -0.14448614 0.013340853 1.0877645e-38
0.0200211 -0.14448614 0.013340853 9.6790964e-39
-0.0071916049 -0.14618696 0.013340853 3.8707633e-39
-0.0054908106 -0.14618696 0.013340853 8.7560527e-39
-0.0037900172 -0.14618696 0.013340853 1.1245332e-38
-0.0020892229 -0.14618696 0.013340853 1.2259841e-38
-0.0003884295 -0.14618696 0.013340853 1.2259122e-38
0.0012732809 -0.14528801 0.016313039 1.1429723e-38
0.0029688636 -0.14528801 0.016313039 1.1521919e-38
0.0046644462 -0.14528801 0.016313039 1.1707392e-38
0.0063600289 -0.14528801 0.016313039 1.3089973e-38
0.0080556115 -0.14528801 0.016313039 1.4473269e-38
0.009684437 -0.14436676 0.019359015 1.4473998e-38
0.011374679 -0.14436676 0.019359015 1.4013383e-38
0.013142359 -0.14528801 0.016313039 1.373716e-38
0.014837942 -0.14528801 0.016313039 1.3552409e-38
0.016533524 -0.14528801 0.016313039 1.1154601e-38
-0.0054724598 -0.14879744 0.010350429 4.1473474e-39
-0.0037664222 -0.14879744 0.010350429 6.2667679e-39
-0.0020892229 -0.14788775 0.013340853 1.0323733e-38
-0.0003884295 -0.14788775 0.013340853 1.2627905e-38
0.0013123648 -0.14788775 0.013340853 1.2812296e-38
0.0030131591 -0.14788775 0.013340853 1.3365831e-38
0.0047139535 -0.14788775 0.013340853 1.3273636e-38
0.0063600289 -0.14698361 0.016313039 1.2997054e-38
0.0080556115 -0.14698361 0.016313039 1.2721192e-38
0.009684437 -0.14605699 0.019359015 1.2629362e-38
0.011374679 -0.14605699 0.019359015 1.1800325e-38
0.013142359 -0.14698361 0.016313039 1.0325559e-38
0.014837942 -0.14698361 0.016313039 9.2192141e-39
-0.0020892229 -0.14958854 0.013340853 6.4515165e-39
-0.0003884295 -0.14958854 0.013340853 9.6776418e-39
0.0013123648 -0.14958854 0.013340853 1.2074728e-38
0.0030131591 -0.14958854 0.013340853 1.1705949e-38
0.0047139535 -0.14958854 0.013340853 1.2167288e-38
0.0063600289 -0.14867918 0.016313039 1.1890707e-38
0.0080556115 -0.14867918 0.016313039 1.1338256e-38
0.009684437 -0.14774723 0.019359015 1.1338621e-38
0.011374679 -0.14774723 0.019359015 1.0786173e-38
0.01306492 -0.14774723 0.019359015 9.4950793e-39
0.014755162 -0.14774723 0.019359015 8.5731258e-39
0.0079941945 -0.14943747 0.019359015 7.0972586e-39
0.0096421717 -0.14884408 0.021287464 6.0827536e-39
0.011329032 -0.14884408 0.021287464 4.7923777e-39
0.013015893 -0.14884408 0.021287464 3.5016417e-39
0.014620821 -0.14791639 0.024302267 3.0406649e-39
0.016215723 -0.14699452 0.027298234 1.6577305e-39
0.017892044 -0.14699452 0.027298234 7.3576998e-40
0.019500993 -0.14635538 0.029375277 1.2892969e-39
0.021173675 -0.14635538 0.029375277 5.9916285e-39
0.011257672 -0.14959796 0.024302267 1.8406784e-39
0.012939247 -0.14959796 0.024302267 1.1027574e-39
0.014620821 -0.14959796 0.024302267 2.0250697e-39
0.016215723 -0.14867084 0.027298234 6.4392747e-40
0.017892044 -0.14867084 0.027298234 1.198176e-39
0.019500993 -0.14802806 0.029375277 3.3186755e-39
0.021173675 -0.14802806 0.029375277 5.3469794e-39
0.022846356 -0.14802806 0.029375277 5.9927047e-39
0.019500993 -0.14970075 0.029375277 4.9781969e-39
0.021173675 -0.14970075 0.029375277 6.7299138e-39
0.022846356 -0.14970075 0.029375277 6.8221109e-39
