# .PCD v0.7 - Point Cloud Data file format
VERSION 0.7
FIELDS x y z rgb
SIZE 4 4 4 4
TYPE F F F F
COUNT 1 1 1 1
WIDTH 938
HEIGHT 1
VIEWPOINT 0 0 0 1 0 0 0
POINTS 938
DATA ascii
0.018642124 -0.11800493 -0.017097969 7.9302661e-39
0.02049024 -0.11800493 -0.017097969 9.6837893e-39
0.022338357 -0.11800493 -0.017097969 1.2912431e-38
0.024283085 -0.11875431 -0.020076413 1.5679005e-38
0.026238836 -0.11950795 -0.023071785 1.3373384e-38
0.028097428 -0.11950795 -0.023071785 1.2359224e-38
0.029843107 -0.11875431 -0.020076413 1.6231073e-38
0.031696446 -0.11875431 -0.020076413 1.7243781e-38
0.033673208 -0.11950795 -0.023071785 1.4661583e-38
0.035661202 -0.12026589 -0.026084203 1.069538e-38
0.037705854 -0.12128322 -0.030127544 8.9425907e-39
0.039576817 -0.12128322 -0.030127544 8.941523e-39
0.041447781 -0.12128322 -0.030127544 1.1798155e-38
0.043318745 -0.12128322 -0.030127544 1.465622e-38
0.045189705 -0.12128322 -0.030127544 2.2953828e-38
0.047217857 -0.12202276 -0.033066887 2.3508445e-38
0.049263503 -0.12279506 -0.036136407 2.3508807e-38
0.051145002 -0.12279506 -0.036136407 2.3508441e-38
0.053261757 -0.12380283 -0.04014172 2.350736e-38
0.055150278 -0.12380283 -0.04014172 2.3509521e-38
0.057038799 -0.12380283 -0.04014172 2.3509883e-38
0.05892732 -0.12380283 -0.04014172 2.2865955e-38
0.060815841 -0.12380283 -0.04014172 2.3050349e-38
0.062704362 -0.12380283 -0.04014172 2.3234379e-38
0.06459289 -0.12380283 -0.04014172 1.6872166e-38
0.066481411 -0.12380283 -0.04014172 7.6518842e-39
0.068369932 -0.12380283 -0.04014172 9.0333767e-39
-0.012741596 -0.11654995 -0.0040606447 1.8900857e-38
-0.010916336 -0.11654995 -0.0040606447 2.2864526e-38
-0.0090910783 -0.11654995 -0.0040606447 2.2770881e-38
-0.0072658183 -0.11654995 -0.0040606447 1.4932444e-38
-0.00545369 -0.11579098 -0.0010649152 1.0137917e-38
-0.0036336845 -0.11579098 -0.0010649152 1.5485612e-38
-0.0018136771 -0.11579098 -0.0010649152 2.3415844e-38
6.3292682e-06 -0.11579098 -0.0010649152 2.3508748e-38
0.001860478 -0.11654995 -0.0040606447 2.3139611e-38
0.0037253601 -0.11731337 -0.0070737787 2.0004959e-38
0.0055559017 -0.11731337 -0.0070737787 1.4012243e-38
0.0074369228 -0.11808117 -0.010104317 1.0232221e-38
0.0092727793 -0.11808117 -0.010104317 1.1707707e-38
0.011249649 -0.11985306 -0.017097969 1.4196286e-38
0.013097768 -0.11985306 -0.017097969 1.5946241e-38
0.016794004 -0.11985306 -0.017097969 1.8619575e-38
0.018642124 -0.11985306 -0.017097969 9.6783859e-39
0.02049024 -0.11985306 -0.017097969 7.2834435e-39
0.022338357 -0.11985306 -0.017097969 9.4057241e-39
0.024283085 -0.12060766 -0.020076413 1.3923662e-38
0.026238836 -0.12136655 -0.023071785 1.3924018e-38
0.028097428 -0.12136655 -0.023071785 1.0973053e-38
0.029843107 -0.12060766 -0.020076413 1.3461253e-38
0.031696446 -0.12060766 -0.020076413 1.668701e-38
0.033673208 -0.12136655 -0.023071785 1.723874e-38
0.035661202 -0.12212978 -0.026084203 1.3917901e-38
0.037705854 -0.12315418 -0.030127544 8.8460721e-39
0.039576817 -0.12315418 -0.030127544 5.342292e-39
0.041447781 -0.12315418 -0.030127544 1.0597088e-38
0.043318745 -0.12315418 -0.030127544 1.5300856e-38
0.045189705 -0.12315418 -0.030127544 2.120246e-38
0.047217857 -0.12389888 -0.033066887 2.3509168e-38
0.049263503 -0.12467657 -0.036136407 2.3231504e-38
0.051145002 -0.12467657 -0.036136407 2.3416248e-38
0.053261757 -0.12569134 -0.04014172 2.350988e-38
0.055150278 -0.12569134 -0.04014172 2.350952e-38
0.057038799 -0.12569134 -0.04014172 2.350952e-38
0.05892732 -0.12569134 -0.04014172 2.2956349e-38
0.060815841 -0.12569134 -0.04014172 2.3509883e-38
0.062704362 -0.12569134 -0.04014172 2.3509523e-38
0.06459289 -0.12569134 -0.04014172 1.8437684e-38
0.066481411 -0.12569134 -0.04014172 1.4472909e-38
-0.010916336 -0.11837523 -0.0040606447 2.2588302e-38
-0.0090937046 -0.11761098 -0.0010649152 2.3508091e-38
-0.0072736973 -0.11761098 -0.0010649152 2.101772e-38
-0.00545369 -0.11761098 -0.0010649152 1.6038805e-38
-0.0036336845 -0.11761098 -0.0010649152 1.5577813e-38
-0.0018136771 -0.11761098 -0.0010649152 2.1018398e-38
6.3292682e-06 -0.11761098 -0.0010649152 2.3509824e-38
0.0018263366 -0.11761098 -0.0010649152 2.3509834e-38
0.003685737 -0.11837523 -0.0040606447 2.350731e-38
0.0055109961 -0.11837523 -0.0040606447 2.3505868e-38
0.0073864451 -0.11914389 -0.0070737787 1.5577037e-38
0.0092169857 -0.11914389 -0.0070737787 1.7145437e-38
0.011108634 -0.11991702 -0.010104317 2.3506954e-38
0.013008907 -0.12066682 -0.013043422 2.3508445e-38
0.014849915 -0.12066682 -0.013043422 2.350594e-38
0.016794004 -0.12170117 -0.017097969 2.1476564e-38
0.018642124 -0.12170117 -0.017097969 1.1797088e-38
0.02049024 -0.12170117 -0.017097969 7.5574955e-39
0.022338357 -0.12170117 -0.017097969 7.0979369e-39
0.024186473 -0.12170117 -0.017097969 8.8510845e-39
0.026136424 -0.12246101 -0.020076413 1.6687359e-38
0.028097428 -0.12322514 -0.023071785 1.5579954e-38
0.029843107 -0.12246101 -0.020076413 1.2259838e-38
0.031696446 -0.12246101 -0.020076413 1.5855454e-38
0.033549786 -0.12246101 -0.020076413 2.0095365e-38
0.035661202 -0.12399365 -0.026084203 1.7419175e-38
0.037705854 -0.12502514 -0.030127544 1.151794e-38
0.039576817 -0.12502514 -0.030127544 7.8294133e-39
0.041447781 -0.12502514 -0.030127544 1.0595645e-38
0.043318745 -0.12502514 -0.030127544 1.2810487e-38
0.045341738 -0.12577499 -0.033066887 1.7606822e-38
0.047217857 -0.12577499 -0.033066887 2.1940399e-38
0.049093973 -0.12577499 -0.033066887 2.3509527e-38
0.050970089 -0.12577499 -0.033066887 2.3509883e-38
0.053026497 -0.12655805 -0.036136407 2.350988e-38
0.055150278 -0.12757985 -0.04014172 2.350988e-38
0.057038799 -0.12757985 -0.04014172 2.350988e-38
0.05892732 -0.12757985 -0.04014172 2.3509521e-38
0.060815841 -0.12757985 -0.04014172 2.3416245e-38
0.062704362 -0.12757985 -0.04014172 2.3508079e-38
0.06459289 -0.12757985 -0.04014172 2.0373428e-38
0.066481411 -0.12757985 -0.04014172 1.5025002e-38
-0.010916336 -0.12020047 -0.0040606447 2.2587943e-38
-0.0090937046 -0.11943097 -0.0010649152 2.3417327e-38
-0.0072736973 -0.11943097 -0.0010649152 2.2125146e-38
-0.00545369 -0.11943097 -0.0010649152 1.6960762e-38
-0.0036336845 -0.11943097 -0.0010649152 1.447111e-38
-0.0018136771 -0.11943097 -0.0010649152 1.8712431e-38
6.3292682e-06 -0.11943097 -0.0010649152 2.323e-38
0.0018263366 -0.11943097 -0.0010649152 2.3505511e-38
0.003685737 -0.12020047 -0.0040606447 2.3509831e-38
0.0055109961 -0.12020047 -0.0040606447 2.3509828e-38
0.0073362561 -0.12020047 -0.0040606447 1.6682304e-38
0.0092169857 -0.12097444 -0.0070737787 1.732839e-38
0.011108634 -0.12175287 -0.010104317 2.1662323e-38
0.013008907 -0.12250783 -0.013043422 2.1845321e-38
0.014780345 -0.12175287 -0.010104317 2.0923387e-38
0.016616203 -0.12175287 -0.010104317 2.0186541e-38
0.018531933 -0.12250783 -0.013043422 1.1981116e-38
0.020372942 -0.12250783 -0.013043422 5.1582497e-39
0.022213951 -0.12250783 -0.013043422 7.8326222e-39
0.024186473 -0.1235493 -0.017097969 7.8336928e-39
0.026136424 -0.12431435 -0.020076413 1.7607157e-38
0.027989767 -0.12431435 -0.020076413 1.8897558e-38
0.02973083 -0.1235493 -0.017097969 1.2904489e-38
0.031578947 -0.1235493 -0.017097969 1.5946931e-38
0.033427067 -0.1235493 -0.017097969 1.8619517e-38
0.035403129 -0.12431435 -0.020076413 1.7880872e-38
0.037525076 -0.12585752 -0.026084203 1.0135725e-38
0.039388951 -0.12585752 -0.026084203 6.6308701e-39
0.041252825 -0.12585752 -0.026084203 9.2130666e-39
0.043318745 -0.1268961 -0.030127544 1.2349506e-38
0.045341738 -0.12765111 -0.033066887 1.7329871e-38
0.047217857 -0.12765111 -0.033066887 1.9634784e-38
0.049093973 -0.12765111 -0.033066887 2.3508807e-38
0.050970089 -0.12765111 -0.033066887 2.3232936e-38
0.053026497 -0.12843956 -0.036136407 2.2957065e-38
0.055150278 -0.1294684 -0.04014172 2.3418043e-38
0.057038799 -0.1294684 -0.04014172 2.3325847e-38
0.05892732 -0.1294684 -0.04014172 2.350988e-38
0.060815841 -0.1294684 -0.04014172 2.0835847e-38
0.062704362 -0.1294684 -0.04014172 2.1387941e-38
0.06459289 -0.1294684 -0.04014172 2.1111712e-38
0.066481411 -0.1294684 -0.04014172 1.6869994e-38
-0.010916336 -0.12202574 -0.0040606447 2.341805e-38
-0.0090937046 -0.121251 -0.0010649152 2.350988e-38
-0.0072840387 -0.12023406 0.0028673224 1.5303033e-38
-0.0054709269 -0.12023406 0.0028673224 6.4515389e-39
-0.0036336845 -0.121251 -0.0010649152 4.7905686e-39
-0.0018136771 -0.121251 -0.0010649152 8.5698355e-39
6.3292682e-06 -0.121251 -0.0010649152 1.4377425e-38
0.0018263366 -0.121251 -0.0010649152 1.6496485e-38
0.003646343 -0.121251 -0.0010649152 2.1750914e-38
0.0055109961 -0.12202574 -0.0040606447 2.1843463e-38
0.0073362561 -0.12202574 -0.0040606447 1.7510267e-38
0.0092169857 -0.12280498 -0.0070737787 1.7235475e-38
0.011108634 -0.12358873 -0.010104317 1.8710622e-38
0.012944491 -0.12358873 -0.010104317 1.8434436e-38
0.014780345 -0.12358873 -0.010104317 1.7420666e-38
0.016616203 -0.12358873 -0.010104317 1.7882366e-38
0.018531933 -0.12434883 -0.013043422 1.3271852e-38
0.020287912 -0.12358873 -0.010104317 1.5205768e-38
0.022123769 -0.12358873 -0.010104317 2.2765432e-38
0.024054959 -0.12434883 -0.013043422 2.1937463e-38
0.026034594 -0.1253974 -0.017097969 2.2307692e-38
0.02788271 -0.1253974 -0.017097969 1.8803564e-38
0.02973083 -0.1253974 -0.017097969 7.4642307e-39
0.031578947 -0.1253974 -0.017097969 8.9400656e-39
0.033427067 -0.1253974 -0.017097969 1.0506665e-38
0.035403129 -0.12616767 -0.020076413 1.1519375e-38
0.037525076 -0.12772138 -0.026084203 6.4475438e-39
0.039388951 -0.12772138 -0.026084203 5.9862195e-39
0.041252825 -0.12772138 -0.026084203 7.2769583e-39
0.043116696 -0.12772138 -0.026084203 9.5829141e-39
0.045189705 -0.12876706 -0.030127544 1.4470724e-38
0.047060668 -0.12876706 -0.030127544 1.659196e-38
0.048931632 -0.12876706 -0.030127544 2.3508081e-38
0.050802596 -0.12876706 -0.030127544 2.350988e-38
0.052846208 -0.12952723 -0.033066887 2.350988e-38
0.054908 -0.13032107 -0.036136407 2.350988e-38
0.057038799 -0.13135691 -0.04014172 2.3233652e-38
0.05892732 -0.13135691 -0.04014172 2.350988e-38
0.060815841 -0.13135691 -0.04014172 1.6594848e-38
0.062704362 -0.13135691 -0.04014172 1.6224986e-38
0.06459289 -0.13135691 -0.04014172 1.7607921e-38
0.066481411 -0.13135691 -0.04014172 1.7423169e-38
0.068369932 -0.13135691 -0.04014172 1.0324104e-38
-0.0072920909 -0.12125005 0.0059287362 1.2907025e-38
-0.0054843454 -0.12125005 0.0059287362 5.5295826e-39
-0.003657815 -0.12204717 0.0028673224 4.5136188e-39
-0.0018447023 -0.12204717 0.0028673224 5.5263036e-39
-3.1590462e-05 -0.12204717 0.0028673224 1.0411217e-38
0.0017815223 -0.12204717 0.0028673224 1.2253688e-38
0.003646343 -0.123071 -0.0010649152 1.5110668e-38
0.0055109961 -0.12385099 -0.0040606447 2.276326e-38
0.0073362561 -0.12385099 -0.0040606447 2.0182498e-38
0.0092169857 -0.12463553 -0.0070737787 1.6773055e-38
0.011108634 -0.12542458 -0.010104317 1.5944034e-38
0.012944491 -0.12542458 -0.010104317 1.7696506e-38
0.014708613 -0.12463553 -0.0070737787 1.5577106e-38
0.016539156 -0.12463553 -0.0070737787 1.4472203e-38
0.018452059 -0.12542458 -0.010104317 1.3456598e-38
0.020287912 -0.12542458 -0.010104317 1.5756421e-38
0.022123769 -0.12542458 -0.010104317 2.1840599e-38
0.024054959 -0.12618984 -0.013043422 2.3503351e-38
0.025895968 -0.12618984 -0.013043422 2.3227134e-38
0.027736977 -0.12618984 -0.013043422 2.2029695e-38
0.02973083 -0.12724553 -0.017097969 6.9110583e-39
0.031578947 -0.12724553 -0.017097969 4.6987149e-39
0.033673208 -0.12880091 -0.023071785 6.7273705e-39
0.0355318 -0.12880091 -0.023071785 8.7545925e-39
0.037390392 -0.12880091 -0.023071785 5.7114235e-39
0.039248984 -0.12880091 -0.023071785 5.8021912e-39
0.041252825 -0.12958528 -0.026084203 5.156819e-39
0.043116696 -0.12958528 -0.026084203 7.0947083e-39
0.045189705 -0.13063805 -0.030127544 1.2995947e-38
0.047060668 -0.13063805 -0.030127544 1.5208661e-38
0.048931632 -0.13063805 -0.030127544 2.3138574e-38
0.050802596 -0.13063805 -0.030127544 2.3509879e-38
0.052846208 -0.13140334 -0.033066887 2.3418045e-38
0.054722324 -0.13140334 -0.033066887 2.3418045e-38
0.056789495 -0.13220255 -0.036136407 2.3049621e-38
0.058670998 -0.13220255 -0.036136407 2.2957065e-38
0.060815841 -0.13324542 -0.04014172 1.5120436e-38
0.062704362 -0.13324542 -0.04014172 1.4566547e-38
0.06459289 -0.13324542 -0.04014172 1.6871437e-38
0.066481411 -0.13324542 -0.04014172 1.5118641e-38
0.068369932 -0.13324542 -0.04014172 1.0416661e-38
-0.007299819 -0.12228753 0.0088673644 1.751717e-39
-0.0054972274 -0.12228753 0.0088673644 3.2254079e-39
-0.003657815 -0.12386028 0.0028673224 4.6058144e-39
-0.0018688571 -0.1230578 0.0059287362 5.4333919e-39
-6.1112456e-05 -0.1230578 0.0059287362 1.040978e-38
0.0017815223 -0.12386028 0.0028673224 1.1882748e-38
0.0035946341 -0.12386028 0.0028673224 9.3930998e-39
0.0055109961 -0.12567626 -0.0040606447 1.5385091e-38
0.0073864451 -0.12646608 -0.0070737787 2.2854011e-38
0.0092169857 -0.12646608 -0.0070737787 2.2118606e-38
0.011108634 -0.12726043 -0.010104317 1.4099399e-38
0.012944491 -0.12726043 -0.010104317 9.4910898e-39
0.014708613 -0.12646608 -0.0070737787 5.6210495e-39
0.016539156 -0.12646608 -0.0070737787 7.5586025e-39
0.018452059 -0.12726043 -0.010104317 1.1705597e-38
0.02011307 -0.12567626 -0.0040606447 1.225155e-38
0.021938328 -0.12567626 -0.0040606447 1.6214147e-38
0.024054959 -0.12803085 -0.013043422 1.8060934e-38
0.025895968 -0.12803085 -0.013043422 1.7878712e-38
0.027736977 -0.12803085 -0.013043422 2.0554571e-38
0.02973083 -0.12909363 -0.017097969 7.8326643e-39
0.031578947 -0.12909363 -0.017097969 3.9622345e-39
0.033673208 -0.13065951 -0.023071785 6.3593152e-39
0.0355318 -0.13065951 -0.023071785 5.8057785e-39
0.037390392 -0.13065951 -0.023071785 4.0533455e-39
0.039248984 -0.13065951 -0.023071785 3.2221569e-39
0.041252825 -0.13144915 -0.026084203 2.115445e-39
0.043116696 -0.13144915 -0.026084203 5.0667673e-39
0.045189705 -0.13250901 -0.030127544 1.0967644e-38
0.047060668 -0.13250901 -0.030127544 1.1705227e-38
0.048931632 -0.13250901 -0.030127544 1.8160007e-38
0.050802596 -0.13250901 -0.030127544 1.8807541e-38
0.052846208 -0.13327946 -0.033066887 1.8808622e-38
0.054722324 -0.13327946 -0.033066887 1.8439839e-38
0.056789495 -0.13408406 -0.036136407 1.7610079e-38
0.058670998 -0.13408406 -0.036136407 1.7425327e-38
0.060815841 -0.13513394 -0.04014172 1.1617002e-38
0.062704362 -0.13513394 -0.04014172 1.1800678e-38
0.06459289 -0.13513394 -0.04014172 1.4382155e-38
0.066481411 -0.13513394 -0.04014172 1.3368003e-38
0.068369932 -0.13513394 -0.04014172 1.0416664e-38
-0.0073077781 -0.12329166 0.011893254 3.1360905e-39
-0.0055104895 -0.12329166 0.011893254 5.8068827e-39
-0.003657815 -0.1256734 0.0028673224 5.5277679e-39
-0.0018688571 -0.12486555 0.0059287362 6.2624365e-39
-6.1112456e-05 -0.12486555 0.0059287362 9.6711398e-39
0.0017466322 -0.12486555 0.0059287362 1.2434482e-38
0.0035946341 -0.1256734 0.0028673224 9.4831346e-39
0.0054663504 -0.126711 -0.0010649152 1.1696184e-38
0.0072863558 -0.126711 -0.0010649152 2.137816e-38
0.0093268873 -0.12987186 -0.013043422 2.0919703e-38
0.011167896 -0.12987186 -0.013043422 1.1517921e-38
0.012944491 -0.12909628 -0.010104317 7.7397273e-39
0.014780345 -0.12909628 -0.010104317 5.3448144e-39
0.016616203 -0.12909628 -0.010104317 4.2409962e-39
0.018452059 -0.12909628 -0.010104317 3.5923814e-39
0.02011307 -0.1275015 -0.0040606447 4.6915108e-39
0.021938328 -0.1275015 -0.0040606447 1.584465e-38
0.02376359 -0.1275015 -0.0040606447 2.0733173e-38
0.02995602 -0.1325181 -0.023071785 1.059926e-38
0.0355318 -0.1325181 -0.023071785 2.5807406e-39
0.037390392 -0.1325181 -0.023071785 4.1473502e-39
0.039388951 -0.13331302 -0.026084203 4.5139817e-39
0.041252825 -0.13331302 -0.026084203 3.223596e-39
0.043318745 -0.13437997 -0.030127544 4.5153942e-39
0.045189705 -0.13437997 -0.030127544 7.9266297e-39
0.047060668 -0.13437997 -0.030127544 9.2166637e-39
0.049093973 -0.13515557 -0.033066887 1.6224622e-38
0.050970089 -0.13515557 -0.033066887 1.6872152e-38
0.052846208 -0.13515557 -0.033066887 1.71491e-38
0.054722324 -0.13515557 -0.033066887 1.5858364e-38
0.056789495 -0.13596557 -0.036136407 1.4936408e-38
0.058670998 -0.13596557 -0.036136407 1.3922256e-38
0.060815841 -0.13702248 -0.04014172 1.0695409e-38
0.062704362 -0.13702248 -0.04014172 1.1155671e-38
0.06459289 -0.13702248 -0.04014172 1.2907388e-38
0.066481411 -0.13702248 -0.04014172 1.2907388e-38
0.068369932 -0.13702248 -0.04014172 1.0878365e-38
-0.056795981 -0.1203105 0.029882293 2.3509164e-38
-0.05503023 -0.1203105 0.029882293 2.3509527e-38
-0.050323986 -0.12428986 0.0149015 2.3509167e-38
-0.048531972 -0.12428986 0.0149015 2.2956712e-38
-0.046848089 -0.12508895 0.011893254 2.3509886e-38
-0.0450508 -0.12508895 0.011893254 2.3418047e-38
-0.043253515 -0.12508895 0.011893254 2.3418045e-38
-0.0073077781 -0.12508895 0.011893254 5.9941551e-39
-0.0055104895 -0.12508895 0.011893254 5.2547852e-39
-0.003657815 -0.12748651 0.0028673224 4.3295807e-39
-0.0018688571 -0.1266733 0.0059287362 6.5390262e-39
-6.1112456e-05 -0.1266733 0.0059287362 7.9187096e-39
0.0017466322 -0.1266733 0.0059287362 1.2064981e-38
0.0035543768 -0.1266733 0.0059287362 1.1787305e-38
0.0054663504 -0.12853102 -0.0010649152 1.1050092e-38
0.0093268873 -0.13171287 -0.013043422 1.8060204e-38
0.011167896 -0.13171287 -0.013043422 9.6732922e-39
0.012944491 -0.13093217 -0.010104317 5.2507985e-39
0.014780345 -0.13093217 -0.010104317 2.7644115e-39
0.016616203 -0.13093217 -0.010104317 3.3193958e-39
0.018452059 -0.13093217 -0.010104317 3.5931002e-39
0.02011307 -0.12932678 -0.0040606447 5.5209184e-39
0.021938328 -0.12932678 -0.0040606447 1.6213079e-38
0.02376359 -0.12932678 -0.0040606447 1.5386556e-38
0.033673208 -0.13437669 -0.023071785 3.5873241e-43
0.0355318 -0.13437669 -0.023071785 6.4572113e-40
0.037390392 -0.13437669 -0.023071785 1.2910919e-39
0.039388951 -0.13517688 -0.026084203 2.7550649e-40
0.041447781 -0.13625093 -0.030127544 3.6734198e-40
0.043318745 -0.13625093 -0.030127544 1.8428084e-39
0.045341738 -0.13703169 -0.033066887 4.5168362e-39
0.047217857 -0.13703169 -0.033066887 4.9771081e-39
0.049093973 -0.13703169 -0.033066887 1.1154584e-38
0.050970089 -0.13703169 -0.033066887 1.2170176e-38
0.052846208 -0.13703169 -0.033066887 1.3184688e-38
0.054722324 -0.13703169 -0.033066887 1.2262735e-38
0.05659844 -0.13703169 -0.033066887 1.235493e-38
0.058474556 -0.13703169 -0.033066887 1.1893952e-38
0.060815841 -0.13891099 -0.04014172 1.1156387e-38
0.062906533 -0.13970654 -0.043136615 1.2262019e-38
0.064800307 -0.13970654 -0.043136615 1.3460562e-38
0.066694073 -0.13970654 -0.043136615 1.2169823e-38
-0.063858956 -0.12207626 0.029882293 2.350952e-38
-0.062093209 -0.12207626 0.029882293 2.3509521e-38
-0.060473409 -0.12285714 0.026961785 2.3509521e-38
-0.058561724 -0.12207626 0.029882293 2.3231857e-38
-0.056795981 -0.12207626 0.029882293 2.3509167e-38
-0.05503023 -0.12207626 0.029882293 2.3509527e-38
-0.05338994 -0.12285714 0.026961785 2.3232583e-38
-0.051744293 -0.12366976 0.023922663 2.3509886e-38
-0.050206006 -0.12528224 0.017892104 2.3509886e-38
-0.048531972 -0.12608187 0.0149015 2.3509886e-38
-0.046739962 -0.12608187 0.0149015 2.3509886e-38
-0.044947948 -0.12608187 0.0149015 2.3509883e-38
-0.043155935 -0.12608187 0.0149015 2.350988e-38
-0.041363925 -0.12608187 0.0149015 2.350988e-38
-0.039658938 -0.12688623 0.011893254 2.3509886e-38
-0.010891805 -0.12366976 0.023922663 6.0795026e-39
-0.0091156093 -0.12366976 0.023922663 5.3480654e-39
-0.0073394151 -0.12366976 0.023922663 3.8743773e-39
-0.0055367863 -0.12528224 0.017892104 4.1484362e-39
-0.003657815 -0.1292996 0.0028673224 4.5139719e-39
-0.0018688571 -0.12848105 0.0059287362 5.3401284e-39
-6.1112456e-05 -0.12848105 0.0059287362 6.5354206e-39
0.0017466322 -0.12848105 0.0059287362 1.13267e-38
0.0035543768 -0.12848105 0.0059287362 1.2247564e-38
0.0053621214 -0.12848105 0.0059287362 9.0210691e-39
0.007169866 -0.12848105 0.0059287362 1.7965484e-38
0.0089776097 -0.12848105 0.0059287362 1.676875e-38
0.010785355 -0.12848105 0.0059287362 1.0963674e-38
0.012746376 -0.13035102 -0.0010649152 5.1586e-39
0.014566383 -0.13035102 -0.0010649152 2.4881806e-39
0.016462553 -0.13115202 -0.0040606447 3.5045045e-39
0.018287811 -0.13115202 -0.0040606447 1.5655194e-39
0.02011307 -0.13115202 -0.0040606447 3.4015049e-39
0.021938328 -0.13115202 -0.0040606447 1.4463171e-38
0.02376359 -0.13115202 -0.0040606447 1.4282017e-38
0.025691867 -0.13195769 -0.0070737787 1.3731013e-38
0.027522407 -0.13195769 -0.0070737787 1.585406e-38
0.033963926 -0.13812189 -0.030127544 1.4433374e-42
0.03583489 -0.13812189 -0.030127544 5.5533178e-40
0.037705854 -0.13812189 -0.030127544 3.61535e-43
0.039576817 -0.13812189 -0.030127544 7.0064923e-45
0.041447781 -0.13812189 -0.030127544 7.3756504e-40
0.043318745 -0.13812189 -0.030127544 2.7730015e-40
0.045341738 -0.13890781 -0.033066887 1.6605751e-39
0.047217857 -0.13890781 -0.033066887 4.1491523e-39
0.049093973 -0.13890781 -0.033066887 1.0050037e-38
0.050970089 -0.13890781 -0.033066887 1.1156387e-38
0.052846208 -0.13890781 -0.033066887 1.1709561e-38
0.054722324 -0.13890781 -0.033066887 1.2262735e-38
0.056415483 -0.13812189 -0.030127544 1.2447126e-38
0.058286451 -0.13812189 -0.030127544 1.2538606e-38
0.060350671 -0.13890781 -0.033066887 1.244641e-38
0.062704362 -0.14079951 -0.04014172 1.244641e-38
0.064800307 -0.1416003 -0.043136615 1.244641e-38
0.066694073 -0.1416003 -0.043136615 1.2999584e-38
-0.067556866 -0.12462802 0.026961785 1.5577808e-38
-0.065624706 -0.12384202 0.029882293 2.1018071e-38
-0.063858956 -0.12384202 0.029882293 2.3509517e-38
-0.062093209 -0.12384202 0.029882293 2.3047101e-38
-0.060327467 -0.12384202 0.029882293 2.3509521e-38
-0.058416899 -0.12303366 0.032885771 2.3509524e-38
-0.056656424 -0.12303366 0.032885771 2.3324055e-38
-0.054895949 -0.12303366 0.032885771 2.3509527e-38
-0.05326448 -0.12384202 0.029882293 2.3509527e-38
-0.051619072 -0.12462802 0.026961785 2.3509886e-38
-0.049848206 -0.12462802 0.026961785 2.3509886e-38
-0.048307162 -0.12626885 0.020865183 2.3509886e-38
-0.046525605 -0.12626885 0.020865183 2.3509886e-38
-0.0448457 -0.12706901 0.017892104 2.3509883e-38
-0.043058932 -0.12706901 0.017892104 2.350988e-38
-0.041363925 -0.12787388 0.0149015 2.350988e-38
-0.039571911 -0.12787388 0.0149015 2.3509527e-38
-0.037943888 -0.1294979 0.0088673644 2.3508809e-38
-0.036141295 -0.1294979 0.0088673644 2.3509168e-38
-0.023365378 -0.12626885 0.020865183 2.3233662e-38
-0.021583822 -0.12626885 0.020865183 2.1759989e-38
-0.019830935 -0.12706901 0.017892104 2.2775202e-38
-0.018044166 -0.12706901 0.017892104 2.0656143e-38
-0.016257398 -0.12706901 0.017892104 2.2405707e-38
-0.014457597 -0.12626885 0.020865183 1.3825939e-39
-0.012668 -0.12544595 0.023922663 2.1183415e-39
-0.010891805 -0.12544595 0.023922663 3.3172378e-39
-0.0091156093 -0.12544595 0.023922663 3.0439005e-39
-0.0073394151 -0.12544595 0.023922663 3.1368122e-39
-0.0055498173 -0.12626885 0.020865183 4.0562406e-39
-0.003657815 -0.13111271 0.0028673224 4.237385e-39
-0.0018688571 -0.13028879 0.0059287362 4.5103706e-39
-6.1112456e-05 -0.13028879 0.0059287362 4.9681005e-39
0.0017466322 -0.13028879 0.0059287362 1.114267e-38
0.0035543768 -0.13028879 0.0059287362 1.5106348e-38
0.0053621214 -0.13028879 0.0059287362 1.1141931e-38
0.007169866 -0.13028879 0.0059287362 1.4093271e-38
0.01638639 -0.13217102 -0.0010649152 5.5424437e-40
0.018287811 -0.13297729 -0.0040606447 4.5953621e-40
0.02011307 -0.13297729 -0.0040606447 2.8504975e-39
0.021938328 -0.13297729 -0.0040606447 1.1699112e-38
0.023861323 -0.13378824 -0.0070737787 1.1425759e-38
0.025691867 -0.13378824 -0.0070737787 1.1243897e-38
0.027522407 -0.13378824 -0.0070737787 1.2444266e-38
0.037705854 -0.13999285 -0.030127544 3.643376e-43
0.039576817 -0.13999285 -0.030127544 3.6994279e-43
0.041447781 -0.13999285 -0.030127544 4.6134389e-40
0.043318745 -0.13999285 -0.030127544 1.0761972e-42
0.045341738 -0.14078392 -0.033066887 1.385433e-39
0.047217857 -0.14078392 -0.033066887 3.5974218e-39
0.049093973 -0.14078392 -0.033066887 8.760024e-39
0.050970089 -0.14078392 -0.033066887 1.152517e-38
0.052846208 -0.14078392 -0.033066887 1.1432974e-38
0.054544523 -0.13999285 -0.030127544 1.134006e-38
0.056415483 -0.13999285 -0.030127544 1.0879082e-38
0.058286451 -0.13999285 -0.030127544 1.0602497e-38
0.060350671 -0.14078392 -0.033066887 1.0694693e-38
0.062704362 -0.14268802 -0.04014172 1.1155671e-38
0.06459289 -0.14268802 -0.04014172 1.1524454e-38
-0.075030498 -0.1280504 0.020865183 9.9538798e-39
-0.071282439 -0.12722217 0.023922663 9.3085076e-39
-0.069506243 -0.12722217 0.023922663 8.2021572e-39
-0.067556866 -0.12639888 0.026961785 9.4932534e-39
-0.065624706 -0.12560774 0.029882293 1.5394493e-38
-0.063858956 -0.12560774 0.029882293 2.2678669e-38
-0.062093209 -0.12560774 0.029882293 2.3509153e-38
-0.060327467 -0.12560774 0.029882293 2.3508797e-38
-0.058416899 -0.12479414 0.032885771 2.3509521e-38
-0.056656424 -0.12479414 0.032885771 2.3139661e-38
-0.054895949 -0.12479414 0.032885771 2.3509527e-38
-0.05326448 -0.12560774 0.029882293 2.3509527e-38
-0.051498737 -0.12560774 0.029882293 2.3509886e-38
-0.049848206 -0.12639888 0.026961785 2.3509886e-38
-0.048191905 -0.12722217 0.023922663 2.3509886e-38
-0.046415709 -0.12722217 0.023922663 2.3509886e-38
-0.0448457 -0.12885578 0.017892104 2.3509883e-38
-0.043058932 -0.12885578 0.017892104 2.350988e-38
-0.041363925 -0.1296659 0.0149015 2.350988e-38
-0.039571911 -0.1296659 0.0149015 2.3509527e-38
-0.037943888 -0.13130049 0.0088673644 2.3415898e-38
-0.036141295 -0.13130049 0.0088673644 2.3048556e-38
-0.032338317 -0.12885578 0.017892104 1.6690293e-38
-0.030491602 -0.1280504 0.020865183 1.0786551e-38
-0.02865376 -0.12722217 0.023922663 9.4007369e-39
-0.026877563 -0.12722217 0.023922663 1.4836657e-38
-0.025146935 -0.1280504 0.020865183 2.3501967e-38
-0.023365378 -0.1280504 0.020865183 2.3505581e-38
-0.021583822 -0.1280504 0.020865183 2.3508092e-38
-0.019830935 -0.12885578 0.017892104 2.2867034e-38
-0.018044166 -0.12885578 0.017892104 2.1764999e-38
-0.016239155 -0.1280504 0.020865183 1.2361781e-38
-0.014457597 -0.1280504 0.020865183 3.7419433e-40
-0.012668 -0.12722217 0.023922663 5.6051939e-45
-0.010891805 -0.12722217 0.023922663 2.950263e-39
-0.0091156093 -0.12722217 0.023922663 2.4910883e-39
-0.0073394151 -0.12722217 0.023922663 3.0438977e-39
-0.0055498173 -0.1280504 0.020865183 3.2268358e-39
-0.0037682615 -0.1280504 0.020865183 3.2232331e-39
-0.0018688571 -0.13209651 0.0059287362 3.9568423e-39
-6.1112456e-05 -0.13209651 0.0059287362 3.2167535e-39
0.0017466322 -0.13209651 0.0059287362 9.2072834e-39
0.0035543768 -0.13209651 0.0059287362 1.5199264e-38
0.0053621214 -0.13209651 0.0059287362 1.2249358e-38
0.007169866 -0.13209651 0.0059287362 1.0590919e-38
0.01638639 -0.13399105 -0.0010649152 3.6913565e-40
0.018206395 -0.13399105 -0.0010649152 1.2900228e-39
0.020026404 -0.13399105 -0.0010649152 1.4693679e-39
0.021938328 -0.13480256 -0.0040606447 8.1985629e-39
0.023861323 -0.13561879 -0.0070737787 1.0044629e-38
0.025691867 -0.13561879 -0.0070737787 1.1982547e-38
0.031418994 -0.13723589 -0.013043422 9.2521011e-40
0.037705854 -0.14186381 -0.030127544 1.8048724e-42
0.039576817 -0.14186381 -0.030127544 9.8090893e-45
0.041447781 -0.14186381 -0.030127544 3.643376e-43
0.043318745 -0.14186381 -0.030127544 1.0761972e-42
0.045341738 -0.14266007 -0.033066887 2.2148391e-39
0.047217857 -0.14266007 -0.033066887 4.4275482e-39
0.049093973 -0.14266007 -0.033066887 8.7607456e-39
0.050970089 -0.14266007 -0.033066887 1.1155671e-38
0.052846208 -0.14266007 -0.033066887 1.1063476e-38
0.054544523 -0.14186381 -0.030127544 1.1062757e-38
0.056415483 -0.14186381 -0.030127544 1.0693974e-38
0.058286451 -0.14186381 -0.030127544 1.0232996e-38
0.060350671 -0.14266007 -0.033066887 1.0048605e-38
0.062226787 -0.14266007 -0.033066887 1.0325548e-38
0.06410291 -0.14266007 -0.033066887 1.0602134e-38
0.065979026 -0.14266007 -0.033066887 1.0602134e-38
-0.071282439 -0.12899835 0.023922663 8.2028761e-39
-0.069506243 -0.12899835 0.023922663 7.7422553e-39
-0.067556866 -0.12816976 0.026961785 8.7564044e-39
-0.065786004 -0.12816976 0.026961785 9.9545847e-39
-0.064015135 -0.12816976 0.026961785 1.9082312e-38
-0.062244277 -0.12816976 0.026961785 2.3509866e-38
-0.060327467 -0.1273735 0.029882293 2.350987e-38
-0.058416899 -0.12655462 0.032885771 2.3509517e-38
-0.056656424 -0.12655462 0.032885771 2.3509161e-38
-0.054895949 -0.12655462 0.032885771 2.3509883e-38
-0.05326448 -0.1273735 0.029882293 2.3324775e-38
-0.051498737 -0.1273735 0.029882293 2.3509886e-38
-0.049848206 -0.12816976 0.026961785 2.3509527e-38
-0.048077341 -0.12816976 0.026961785 2.3509886e-38
-0.046415709 -0.12899835 0.023922663 2.3509886e-38
-0.0448457 -0.13064255 0.017892104 2.3509527e-38
-0.043058932 -0.13064255 0.017892104 2.3509883e-38
-0.041363925 -0.13145791 0.0149015 2.3509883e-38
-0.039571911 -0.13145791 0.0149015 2.3509883e-38
-0.037861653 -0.1322781 0.011893254 2.3509886e-38
-0.035987888 -0.13145791 0.0149015 2.3234379e-38
-0.034125086 -0.13064255 0.017892104 2.3142544e-38
-0.032338317 -0.13064255 0.017892104 1.973131e-38
-0.030491602 -0.12983195 0.020865183 1.4748805e-38
-0.02865376 -0.12899835 0.023922663 9.0297991e-39
-0.026877563 -0.12899835 0.023922663 9.0258209e-39
-0.025101367 -0.12899835 0.023922663 9.3942404e-39
-0.023325171 -0.12899835 0.023922663 9.6715644e-39
-0.021583822 -0.12983195 0.020865183 7.2791528e-39
-0.019802265 -0.12983195 0.020865183 6.7320718e-39
-0.018020708 -0.12983195 0.020865183 5.4452861e-39
-0.016239155 -0.12983195 0.020865183 2.58796e-39
-0.014457597 -0.12983195 0.020865183 2.8880761e-42
-0.012676041 -0.12983195 0.020865183 5.5605905e-40
-0.010894486 -0.12983195 0.020865183 3.9662184e-39
-0.0091156093 -0.12899835 0.023922663 3.5974386e-39
-0.0073394151 -0.12899835 0.023922663 3.4126802e-39
-0.0055498173 -0.12983195 0.020865183 2.1204855e-39
-0.0036336845 -0.13581105 -0.0010649152 2.3941899e-39
-0.0018688571 -0.13390426 0.0059287362 4.695129e-39
-6.1112456e-05 -0.13390426 0.0059287362 3.5858961e-39
0.0017466322 -0.13390426 0.0059287362 8.3789647e-39
0.0035543768 -0.13390426 0.0059287362 1.4923759e-38
0.0053621214 -0.13390426 0.0059287362 1.4186548e-38
0.007169866 -0.13390426 0.0059287362 1.022286e-38
0.010847083 -0.13473894 0.0028673224 4.2344857e-39
0.012660195 -0.13473894 0.0028673224 3.4076019e-39
0.014473307 -0.13473894 0.0028673224 3.6770072e-40
0.018206395 -0.13581105 -0.0010649152 5.5246052e-40
0.020026404 -0.13581105 -0.0010649152 1.1942244e-39
0.021938328 -0.13662781 -0.0040606447 2.9452169e-39
0.023861323 -0.13744931 -0.0070737787 1.3804023e-39
0.025691867 -0.13744931 -0.0070737787 1.1970984e-39
0.027631335 -0.13827558 -0.010104317 9.2161578e-40
0.029577985 -0.1390769 -0.013043422 2.2420775e-44
0.031418994 -0.1390769 -0.013043422 1.0916115e-42
0.033427067 -0.14018236 -0.017097969 5.5641358e-40
0.035275184 -0.14018236 -0.017097969 1.4377322e-42
0.037705854 -0.14373477 -0.030127544 7.1886611e-43
0.039576817 -0.14373477 -0.030127544 7.0064923e-45
0.041447781 -0.14373477 -0.030127544 5.6051939e-45
0.043465622 -0.14453618 -0.033066887 7.1746481e-43
0.045341738 -0.14453618 -0.033066887 2.5836216e-39
0.047217857 -0.14453618 -0.033066887 4.2431598e-39
0.049093973 -0.14453618 -0.033066887 8.0224645e-39
0.050970089 -0.14453618 -0.033066887 1.0418109e-38
0.052846208 -0.14453618 -0.033066887 1.0417387e-38
0.054544523 -0.14373477 -0.030127544 1.0601058e-38
0.056415483 -0.14373477 -0.030127544 1.0325192e-38
0.058474556 -0.14453618 -0.033066887 1.0232276e-38
0.060350671 -0.14453618 -0.033066887 9.7720179e-39
0.062028378 -0.14373477 -0.030127544 1.0140077e-38
0.063899338 -0.14373477 -0.030127544 1.0417743e-38
0.065770298 -0.14373477 -0.030127544 1.0970917e-38
-0.071467385 -0.13161351 0.020865183 7.6507813e-39
-0.069506243 -0.13077454 0.023922663 7.8358901e-39
-0.067556866 -0.12994061 0.026961785 8.9418747e-39
-0.065786004 -0.12994061 0.026961785 8.7560373e-39
-0.064015135 -0.12994061 0.026961785 1.3826434e-38
-0.062244277 -0.12994061 0.026961785 2.2493188e-38
-0.060327467 -0.12913923 0.029882293 2.3509866e-38
-0.058561724 -0.12913923 0.029882293 2.3324038e-38
-0.056795981 -0.12913923 0.029882293 2.3509876e-38
-0.05503023 -0.12913923 0.029882293 2.350988e-38
-0.05326448 -0.12913923 0.029882293 2.3324775e-38
-0.051498737 -0.12913923 0.029882293 2.3509886e-38
-0.049732994 -0.12913923 0.029882293 2.341805e-38
-0.048077341 -0.12994061 0.026961785 2.341805e-38
-0.046306472 -0.12994061 0.026961785 2.341805e-38
-0.044744048 -0.13161351 0.020865183 2.3509886e-38
-0.042962495 -0.13161351 0.020865183 2.3509886e-38
-0.041272163 -0.13242932 0.017892104 2.3509527e-38
-0.039571911 -0.13324992 0.0149015 2.3234379e-38
-0.037698623 -0.13242932 0.017892104 2.2223463e-38
-0.035911854 -0.13242932 0.017892104 2.2223463e-38
-0.034054715 -0.13161351 0.020865183 2.2956349e-38
-0.032273158 -0.13161351 0.020865183 1.8803237e-38
-0.030491602 -0.13161351 0.020865183 1.6863545e-38
-0.02865376 -0.13077454 0.023922663 8.934721e-39
-0.026877563 -0.13077454 0.023922663 5.249037e-39
-0.025101367 -0.13077454 0.023922663 2.8537457e-39
-0.023325171 -0.13077454 0.023922663 1.2871501e-39
-0.021583822 -0.13161351 0.020865183 3.2250562e-39
-0.019802265 -0.13161351 0.020865183 7.9270179e-39
-0.018020708 -0.13161351 0.020865183 5.2540635e-39
-0.016239155 -0.13161351 0.020865183 5.3469934e-39
-0.014457597 -0.13161351 0.020865183 7.272739e-43
-0.012676041 -0.13161351 0.020865183 3.9642734e-42
-0.010894486 -0.13161351 0.020865183 2.8620288e-39
-0.009112929 -0.13161351 0.020865183 2.8605939e-39
-0.0073313741 -0.13161351 0.020865183 3.7803838e-39
-0.0055498173 -0.13161351 0.020865183 2.211958e-39
-0.0036336845 -0.13763104 -0.0010649152 1.4722378e-39
-0.0018447023 -0.13655205 0.0028673224 3.4047531e-39
-3.1590462e-05 -0.13655205 0.0028673224 2.3887991e-39
0.0017815223 -0.13655205 0.0028673224 7.9194285e-39
0.0035946341 -0.13655205 0.0028673224 1.5479453e-38
0.0054077469 -0.13655205 0.0028673224 1.5294336e-38
0.0072208578 -0.13655205 0.0028673224 1.0777476e-38
0.0090339715 -0.13655205 0.0028673224 9.3038034e-39
0.010847083 -0.13655205 0.0028673224 3.4050908e-39
0.012660195 -0.13655205 0.0028673224 2.6696866e-39
0.014473307 -0.13655205 0.0028673224 8.2759566e-40
0.016286422 -0.13655205 0.0028673224 1.8367239e-40
0.018099532 -0.13655205 0.0028673224 2.755191e-40
0.019912645 -0.13655205 0.0028673224 5.5101578e-40
0.02184641 -0.13763104 -0.0010649152 7.3468397e-40
0.02376359 -0.13845308 -0.0040606447 2.7550649e-40
0.025691867 -0.13927986 -0.0070737787 3.5873241e-43
0.027631335 -0.14011143 -0.010104317 1.5414283e-44
0.029577985 -0.14091791 -0.013043422 1.6815582e-44
0.031418994 -0.14091791 -0.013043422 1.4447387e-42
0.033427067 -0.14203046 -0.017097969 9.2911693e-41
0.0355318 -0.14366965 -0.023071785 3.5873241e-43
0.037390392 -0.14366965 -0.023071785 2.7550649e-40
0.039576817 -0.14560573 -0.030127544 3.6734619e-40
0.041447781 -0.14560573 -0.030127544 1.0127128e-39
0.043465622 -0.1464123 -0.033066887 6.453596e-40
0.045341738 -0.1464123 -0.033066887 2.3059557e-39
0.047217857 -0.1464123 -0.033066887 3.5048759e-39
0.049093973 -0.1464123 -0.033066887 7.5611291e-39
0.050970089 -0.1464123 -0.033066887 1.0233002e-38
0.052846208 -0.1464123 -0.033066887 1.0047529e-38
0.054544523 -0.14560573 -0.030127544 9.9549728e-39
0.056415483 -0.14560573 -0.030127544 9.8631373e-39
0.058286451 -0.14560573 -0.030127544 9.6783831e-39
0.060157411 -0.14560573 -0.030127544 9.4947107e-39
0.062028378 -0.14560573 -0.030127544 1.0139358e-38
0.063899338 -0.14560573 -0.030127544 1.0785444e-38
0.065770298 -0.14560573 -0.030127544 1.0416661e-38
-0.071467385 -0.13339506 0.020865183 7.6522205e-39
-0.069506243 -0.13255073 0.023922663 8.1139161e-39
-0.067556866 -0.1317115 0.026961785 9.864547e-39
-0.065786004 -0.1317115 0.026961785 1.0415193e-38
-0.064015135 -0.1317115 0.026961785 9.861296e-39
-0.062244277 -0.1317115 0.026961785 1.6592303e-38
-0.060327467 -0.13090499 0.029882293 2.350878e-38
-0.058561724 -0.13090499 0.029882293 2.3509146e-38
-0.056795981 -0.13090499 0.029882293 2.3509873e-38
-0.05503023 -0.13090499 0.029882293 2.3324407e-38
-0.05326448 -0.13090499 0.029882293 2.3509883e-38
-0.051498737 -0.13090499 0.029882293 2.3509886e-38
-0.049732994 -0.13090499 0.029882293 2.341805e-38
-0.048077341 -0.1317115 0.026961785 2.341805e-38
-0.046306472 -0.1317115 0.026961785 2.341805e-38
-0.044639513 -0.13255073 0.023922663 2.3509527e-38
-0.042863321 -0.13255073 0.023922663 2.3509886e-38
-0.041180938 -0.13339506 0.020865183 2.3509527e-38
-0.039485391 -0.13421609 0.017892104 2.3234379e-38
-0.037698623 -0.13421609 0.017892104 2.2591531e-38
-0.035911854 -0.13421609 0.017892104 2.2775199e-38
-0.034054715 -0.13339506 0.020865183 2.3507006e-38
-0.032273158 -0.13339506 0.020865183 1.5113249e-38
-0.030491602 -0.13339506 0.020865183 1.2436707e-38
-0.02865376 -0.13255073 0.023922663 3.4033336e-39
-0.026877563 -0.13255073 0.023922663 3.6734198e-40
-0.025101367 -0.13255073 0.023922663 4.6169421e-40
-0.023325171 -0.13255073 0.023922663 2.952065e-39
-0.021583822 -0.13339506 0.020865183 4.6101472e-39
-0.019802265 -0.13339506 0.020865183 2.6707894e-39
-0.018020708 -0.13339506 0.020865183 1.9317866e-39
-0.016239155 -0.13339506 0.020865183 1.2860669e-39
-0.014457597 -0.13339506 0.020865183 1.472619e-39
-0.012676041 -0.13339506 0.020865183 3.61535e-43
-0.010894486 -0.13339506 0.020865183 3.0453397e-39
-0.009112929 -0.13339506 0.020865183 4.1498936e-39
-0.0073313741 -0.13339506 0.020865183 6.454057e-39
-0.0055104895 -0.13587265 0.011893254 5.4388051e-39
-0.003657815 -0.13836516 0.0028673224 2.4863827e-39
-0.0018447023 -0.13836516 0.0028673224 1.7459548e-39
-3.1590462e-05 -0.13836516 0.0028673224 1.3775324e-39
0.0017815223 -0.13836516 0.0028673224 7.1833026e-39
0.0035946341 -0.13836516 0.0028673224 1.5573087e-38
0.0054077469 -0.13836516 0.0028673224 1.4835156e-38
0.0072208578 -0.13836516 0.0028673224 9.026841e-39
0.0089776097 -0.13751976 0.0059287362 6.7226915e-39
0.010785355 -0.13751976 0.0059287362 2.8522814e-39
0.012593099 -0.13751976 0.0059287362 2.3941801e-39
0.014400844 -0.13751976 0.0059287362 1.1041783e-39
0.016208589 -0.13751976 0.0059287362 2.7551209e-40
0.018099532 -0.13836516 0.0028673224 9.1848108e-41
0.019912645 -0.13836516 0.0028673224 4.5918449e-40
0.02184641 -0.13945107 -0.0010649152 6.4392467e-40
0.02376359 -0.14027832 -0.0040606447 4.6097114e-40
0.025691867 -0.14111041 -0.0070737787 9.2552961e-41
0.027631335 -0.14194728 -0.010104317 9.220684e-41
0.029577985 -0.14275892 -0.013043422 3.6879653e-40
0.031418994 -0.14275892 -0.013043422 3.6877972e-40
0.033427067 -0.14387859 -0.017097969 9.2194229e-41
0.035403129 -0.14470108 -0.020076413 3.6734198e-40
0.037390392 -0.14552824 -0.023071785 6.4284847e-40
0.039576817 -0.14747669 -0.030127544 6.4284847e-40
0.041447781 -0.14747669 -0.030127544 5.5101298e-40
0.043465622 -0.14828841 -0.033066887 3.6734198e-40
0.045500506 -0.14913605 -0.036136407 1.0141365e-39
0.047382005 -0.14913605 -0.036136407 3.1353703e-39
0.049263503 -0.14913605 -0.036136407 8.2057782e-39
0.051145002 -0.14913605 -0.036136407 1.0139727e-38
0.053026497 -0.14913605 -0.036136407 1.0139364e-38
0.054722324 -0.14828841 -0.033066887 1.0600342e-38
0.05659844 -0.14828841 -0.033066887 1.106132e-38
0.058286451 -0.14747669 -0.030127544 1.0876926e-38
0.060157411 -0.14747669 -0.030127544 1.032375e-38
0.062028378 -0.14747669 -0.030127544 1.0231554e-38
0.063899338 -0.14747669 -0.030127544 1.0692888e-38
-0.071467385 -0.13517661 0.020865183 5.8097456e-39
-0.069506243 -0.13432692 0.023922663 7.0082874e-39
-0.067556866 -0.13348235 0.026961785 8.7592757e-39
-0.065786004 -0.13348235 0.026961785 1.0231158e-38
-0.064015135 -0.13348235 0.026961785 9.4006724e-39
-0.062244277 -0.13348235 0.026961785 1.1614092e-38
-0.060327467 -0.13267075 0.029882293 2.2770129e-38
-0.058416899 -0.13183604 0.032885771 2.3509863e-38
-0.056656424 -0.13183604 0.032885771 2.350987e-38
-0.054895949 -0.13183604 0.032885771 2.3324407e-38
-0.05326448 -0.13267075 0.029882293 2.3509883e-38
-0.051498737 -0.13267075 0.029882293 2.3509886e-38
-0.049732994 -0.13267075 0.029882293 2.341805e-38
-0.048077341 -0.13348235 0.026961785 2.341805e-38
-0.046306472 -0.13348235 0.026961785 2.341805e-38
-0.044639513 -0.13432692 0.023922663 2.3509527e-38
-0.042863321 -0.13432692 0.023922663 2.3509886e-38
-0.041180938 -0.13517661 0.020865183 2.3509886e-38
-0.039399382 -0.13517661 0.020865183 2.341805e-38
-0.037617825 -0.13517661 0.020865183 2.1852522e-38
-0.035836268 -0.13517661 0.020865183 2.3418047e-38
-0.034054715 -0.13517661 0.020865183 2.3508807e-38
-0.032273158 -0.13517661 0.020865183 1.4006899e-38
-0.030491602 -0.13517661 0.020865183 1.0504544e-38
-0.02865376 -0.13432692 0.023922663 1.4715301e-39
-0.026877563 -0.13432692 0.023922663 7.1746481e-43
-0.025101367 -0.13432692 0.023922663 9.2662543e-40
-0.023325171 -0.13432692 0.023922663 2.8234482e-40
-0.021583822 -0.13517661 0.020865183 2.1240994e-39
-0.019772783 -0.13432692 0.023922663 2.1197834e-39
-0.017996587 -0.13432692 0.023922663 1.1938713e-39
-0.016220391 -0.13432692 0.023922663 1.5612118e-39
-0.014444196 -0.13432692 0.023922663 1.1938643e-39
-0.012668 -0.13432692 0.023922663 1.4697351e-39
-0.010891805 -0.13432692 0.023922663 4.1455663e-39
-0.009112929 -0.13517661 0.020865183 4.6087137e-39
-0.0073313741 -0.13517661 0.020865183 7.0068707e-39
-0.0055104895 -0.13766994 0.011893254 6.2685643e-39
-0.0036766017 -0.13932751 0.0059287362 2.8558841e-39
-0.0018688571 -0.13932751 0.0059287362 1.9310664e-39
-6.1112456e-05 -0.13932751 0.0059287362 1.2856969e-39
0.0017466322 -0.13932751 0.0059287362 7.2762185e-39
0.0035946341 -0.14017828 0.0028673224 1.345331e-38
0.0054077469 -0.14017828 0.0028673224 1.5481967e-38
0.0072208578 -0.14017828 0.0028673224 8.6595004e-39
0.0089776097 -0.13932751 0.0059287362 4.2348515e-39
0.010785355 -0.13932751 0.0059287362 1.8388623e-39
0.012593099 -0.13932751 0.0059287362 1.0112667e-39
0.014400844 -0.13932751 0.0059287362 5.5101298e-40
0.016208589 -0.13932751 0.0059287362 6.4357855e-40
0.018099532 -0.14017828 0.0028673224 8.2761948e-40
0.019912645 -0.14017828 0.0028673224 2.7551209e-40
0.021938328 -0.1421036 -0.0040606447 9.1835496e-41
0.023861323 -0.14294095 -0.0070737787 2.7730015e-40
0.025691867 -0.14294095 -0.0070737787 9.2552961e-41
0.027736977 -0.14459993 -0.013043422 2.7623516e-40
0.02973083 -0.1457267 -0.017097969 2.7623516e-40
0.031578947 -0.1457267 -0.017097969 2.7550649e-40
0.033427067 -0.1457267 -0.017097969 7.3540143e-40
0.035275184 -0.1457267 -0.017097969 9.1871369e-40
0.0371233 -0.1457267 -0.017097969 1.4700854e-39
0.039388951 -0.14822401 -0.026084203 1.0101905e-39
0.041252825 -0.14822401 -0.026084203 9.1835496e-40
0.043318745 -0.14934768 -0.030127544 7.350427e-40
0.058286451 -0.14934768 -0.030127544 1.0691456e-38
0.060157411 -0.14934768 -0.030127544 1.0138279e-38
0.062028378 -0.14934768 -0.030127544 1.0322671e-38
-0.073058628 -0.13610314 0.023922663 6.9168162e-39
-0.071282439 -0.13610314 0.023922663 7.8387725e-39
-0.069506243 -0.13610314 0.023922663 6.9175351e-39
-0.067556866 -0.13525321 0.026961785 4.7952293e-39
-0.065786004 -0.13525321 0.026961785 8.0188254e-39
-0.064015135 -0.13525321 0.026961785 1.0967641e-38
-0.062244277 -0.13525321 0.026961785 9.8620191e-39
-0.060327467 -0.13443647 0.029882293 2.1940012e-38
-0.058416899 -0.13359652 0.032885771 2.3509866e-38
-0.056656424 -0.13359652 0.032885771 2.350987e-38
-0.054895949 -0.13359652 0.032885771 2.3509879e-38
-0.05326448 -0.13443647 0.029882293 2.3509524e-38
-0.051498737 -0.13443647 0.029882293 2.3509527e-38
-0.049732994 -0.13443647 0.029882293 2.3509886e-38
-0.047967248 -0.13443647 0.029882293 2.3509527e-38
-0.046306472 -0.13525321 0.026961785 2.3509527e-38
-0.044535607 -0.13525321 0.026961785 2.3509527e-38
-0.042863321 -0.13610314 0.023922663 2.3509527e-38
-0.041087124 -0.13610314 0.023922663 2.3509527e-38
-0.039310928 -0.13610314 0.023922663 2.3509527e-38
-0.037617825 -0.13695817 0.020865183 2.3418047e-38
-0.035836268 -0.13695817 0.020865183 2.350988e-38
-0.034054715 -0.13695817 0.020865183 2.3508084e-38
-0.032273158 -0.13695817 0.020865183 1.1889272e-38
-0.030491602 -0.13695817 0.020865183 8.2940025e-39
-0.02865376 -0.13610314 0.023922663 3.6770072e-40
-0.026877563 -0.13610314 0.023922663 1.0761972e-42
-0.025101367 -0.13610314 0.023922663 9.2662543e-40
-0.023325171 -0.13610314 0.023922663 3.2341969e-42
-0.021583822 -0.13695817 0.020865183 1.7992672e-42
-0.019772783 -0.13610314 0.023922663 2.8025969e-45
-0.017996587 -0.13610314 0.023922663 9.1836197e-40
-0.016220391 -0.13610314 0.023922663 2.4831709e-39
-0.014444196 -0.13610314 0.023922663 1.2856969e-39
-0.012668 -0.13610314 0.023922663 1.2856969e-39
-0.010891805 -0.13610314 0.023922663 7.3468397e-40
-0.009112929 -0.13695817 0.020865183 2.7551209e-40
-0.0073313741 -0.13695817 0.020865183 1.5673285e-39
-0.0054972274 -0.14031343 0.0088673644 1.1052545e-39
-0.0036766017 -0.14113526 0.0059287362 3.6734198e-40
-0.0018688571 -0.14113526 0.0059287362 6.4284847e-40
-6.1112456e-05 -0.14113526 0.0059287362 1.4700868e-39
0.0017466322 -0.14113526 0.0059287362 5.8036191e-39
0.0035946341 -0.14199139 0.0028673224 8.8457008e-39
0.0054077469 -0.14199139 0.0028673224 5.8032422e-39
0.0072208578 -0.14199139 0.0028673224 2.0239682e-39
0.0090339715 -0.14199139 0.0028673224 9.1835496e-40
0.010847083 -0.14199139 0.0028673224 1.1949376e-39
0.012660195 -0.14199139 0.0028673224 8.2723693e-40
0.014473307 -0.14199139 0.0028673224 4.5953621e-40
0.016286422 -0.14199139 0.0028673224 4.5918589e-40
0.018099532 -0.14199139 0.0028673224 9.1848108e-41
0.019912645 -0.14199139 0.0028673224 1.836752e-40
0.021938328 -0.14392884 -0.0040606447 9.1835496e-41
0.023861323 -0.1447715 -0.0070737787 7.1746481e-43
0.025691867 -0.1447715 -0.0070737787 3.5873241e-43
0.027736977 -0.14644094 -0.013043422 9.1842503e-41
0.02973083 -0.14757483 -0.017097969 1.83678e-40
0.031578947 -0.14757483 -0.017097969 7.3576017e-40
0.033549786 -0.14840777 -0.020076413 2.9480825e-39
0.035275184 -0.14757483 -0.017097969 3.684207e-39
0.0371233 -0.14757483 -0.017097969 4.4210518e-39
0.03897142 -0.14757483 -0.017097969 4.2363088e-39
0.040819537 -0.14757483 -0.017097969 5.0667898e-39
-0.07661102 -0.13787933 0.023922663 1.087907e-38
-0.074834831 -0.13787933 0.023922663 7.8369775e-39
-0.073058628 -0.13787933 0.023922663 7.8376963e-39
-0.071282439 -0.13787933 0.023922663 7.7469426e-39
-0.069506243 -0.13787933 0.023922663 5.9963047e-39
-0.067730047 -0.13787933 0.023922663 7.1934031e-39
-0.065786004 -0.13702409 0.026961785 8.0199184e-39
-0.064015135 -0.13702409 0.026961785 8.0177548e-39
-0.062244277 -0.13702409 0.026961785 9.7701934e-39
-0.060327467 -0.13620223 0.029882293 1.8712814e-38
-0.058561724 -0.13620223 0.029882293 2.249248e-38
-0.056656424 -0.13535701 0.032885771 2.3509517e-38
-0.054895949 -0.13535701 0.032885771 2.3230413e-38
-0.05326448 -0.13620223 0.029882293 2.3508807e-38
-0.051498737 -0.13620223 0.029882293 2.3508449e-38
-0.049732994 -0.13620223 0.029882293 2.3509168e-38
-0.047967248 -0.13620223 0.029882293 2.3508451e-38
-0.046306472 -0.13702409 0.026961785 2.332226e-38
-0.044535607 -0.13702409 0.026961785 2.3507012e-38
-0.042863321 -0.13787933 0.023922663 2.3508809e-38
-0.041087124 -0.13787933 0.023922663 2.3508809e-38
-0.039310928 -0.13787933 0.023922663 2.3507725e-38
-0.037534732 -0.13787933 0.023922663 2.3417323e-38
-0.035758536 -0.13787933 0.023922663 2.3509874e-38
-0.033982344 -0.13787933 0.023922663 2.3509876e-38
-0.032273158 -0.13873972 0.020865183 9.6787349e-39
-0.030429956 -0.13787933 0.023922663 6.6369979e-39
-0.02865376 -0.13787933 0.023922663 3.6841818e-40
-0.026877563 -0.13787933 0.023922663 1.1063448e-39
-0.025056075 -0.13702409 0.026961785 3.6949858e-40
-0.023285206 -0.13702409 0.026961785 1.4391335e-42
-0.021548975 -0.13787933 0.023922663 1.8511013e-40
-0.019772783 -0.13787933 0.023922663 4.6025928e-40
-0.017996587 -0.13787933 0.023922663 7.361231e-40
-0.016220391 -0.13787933 0.023922663 1.0119911e-39
-0.014444196 -0.13787933 0.023922663 1.1034637e-39
-0.012668 -0.13787933 0.023922663 5.5101298e-40
-0.010891805 -0.13787933 0.023922663 3.6734198e-40
-0.009112929 -0.13873972 0.020865183 3.6806365e-40
-0.0073313741 -0.13873972 0.020865183 9.219563e-41
-0.0055498173 -0.13873972 0.020865183 9.1835496e-41
-0.0036766017 -0.14294298 0.0059287362 9.1835496e-41
-0.0018688571 -0.14294298 0.0059287362 6.4393028e-40
