# .PCD v0.7 - Point Cloud Data file format
VERSION 0.7
FIELDS x y z rgb
SIZE 4 4 4 4
TYPE F F F F
COUNT 1 1 1 1
WIDTH 557
HEIGHT 1
VIEWPOINT 0 0 0 1 0 0 0
POINTS 557
DATA ascii
-0.011177361 -0.11736105 -0.018632956 2.3234379e-38
-0.0093341582 -0.11656497 -0.015575476 2.2958873e-38
-0.0075579621 -0.11656497 -0.015575476 2.2591172e-38
-0.005781766 -0.11656497 -0.015575476 2.2683366e-38
-0.00400557 -0.11656497 -0.015575476 2.240786e-38
-0.012958918 -0.11914261 -0.018632956 2.2681214e-38
-0.01111035 -0.11834116 -0.015575476 2.2681572e-38
-0.0093341582 -0.11834116 -0.015575476 2.3050349e-38
-0.0075020082 -0.11754455 -0.012536354 2.2958873e-38
-0.0057311431 -0.11754455 -0.012536354 2.1299725e-38
-0.0039602779 -0.11754455 -0.012536354 2.2867037e-38
-0.002189409 -0.11754455 -0.012536354 2.2867037e-38
-0.00045317784 -0.11834116 -0.015575476 2.1853618e-38
0.0013523232 -0.11754455 -0.012536354 2.2775202e-38
0.0031231903 -0.11754455 -0.012536354 2.2958873e-38
0.0048754066 -0.11834116 -0.015575476 2.2774484e-38
-0.014816057 -0.12170871 -0.021606036 2.3142544e-38
-0.012958918 -0.12092416 -0.018632956 2.3050349e-38
-0.01111035 -0.12011738 -0.015575476 2.3142544e-38
-0.0093341582 -0.12011738 -0.015575476 2.3142544e-38
-0.0074482448 -0.11854477 -0.009615846 2.3234379e-38
-0.0056824982 -0.11854477 -0.009615846 2.2496824e-38
-0.0039167516 -0.11854477 -0.009615846 2.3234379e-38
-0.002151005 -0.11854477 -0.009615846 2.3234379e-38
-0.00041854382 -0.11931543 -0.012536354 2.2958514e-38
0.0013523232 -0.11931543 -0.012536354 2.2312796e-38
0.0031231903 -0.11931543 -0.012536354 2.2958873e-38
0.0048940554 -0.11931543 -0.012536354 2.2958873e-38
-0.016522028 -0.12270571 -0.018632956 2.2958873e-38
-0.014740471 -0.12270571 -0.018632956 2.249826e-38
-0.012886547 -0.12189357 -0.015575476 2.3050349e-38
-0.010979738 -0.1203105 -0.009615846 2.3234379e-38
-0.0092139877 -0.1203105 -0.009615846 2.1759256e-38
-0.0073929504 -0.11951269 -0.0066123679 2.341805e-38
-0.0056324713 -0.11951269 -0.0066123679 2.3509527e-38
-0.0038274936 -0.11871959 -0.0036266521 2.2403185e-38
-0.0020722486 -0.11871959 -0.0036266521 2.2679772e-38
-0.00038525835 -0.1203105 -0.009615846 2.341805e-38
0.0013523232 -0.12108628 -0.012536354 2.2957796e-38
0.0031231903 -0.12108628 -0.012536354 2.3142544e-38
0.0048940554 -0.12108628 -0.012536354 2.2406066e-38
0.020977166 -0.12508895 -0.027604885 4.5197439e-39
0.022774454 -0.12508895 -0.027604885 4.3335435e-39
0.024571739 -0.12508895 -0.027604885 5.2529733e-39
0.026369028 -0.12508895 -0.027604885 6.6337413e-39
-0.016522028 -0.1244873 -0.018632956 2.2683366e-38
-0.014740471 -0.1244873 -0.018632956 2.2774843e-38
-0.012886547 -0.12366976 -0.015575476 2.3050708e-38
-0.010979738 -0.12207626 -0.009615846 2.3234379e-38
-0.0092139877 -0.12207626 -0.009615846 2.3509886e-38
-0.0073929504 -0.12127317 -0.0066123679 2.3509886e-38
-0.0056324713 -0.12127317 -0.0066123679 2.3509883e-38
-0.0038274936 -0.12047486 -0.0036266521 2.3417327e-38
-0.0020722486 -0.12047486 -0.0036266521 2.3417327e-38
-0.00038525835 -0.12207626 -0.009615846 2.3509527e-38
0.0013804864 -0.12207626 -0.009615846 2.341805e-38
0.0031462312 -0.12207626 -0.009615846 2.3234379e-38
0.0049119778 -0.12207626 -0.009615846 2.2958873e-38
0.0066777244 -0.12207626 -0.009615846 2.2867037e-38
0.017401163 -0.12769531 -0.030630775 2.9567454e-39
0.019203754 -0.12769531 -0.030630775 3.8765381e-39
0.020977166 -0.12688623 -0.027604885 4.7963279e-39
0.022774454 -0.12688623 -0.027604885 4.9789129e-39
0.024571739 -0.12688623 -0.027604885 4.6997995e-39
0.026369028 -0.12688623 -0.027604885 6.0805703e-39
0.028166313 -0.12688623 -0.027604885 6.6323022e-39
-0.014585476 -0.12462802 -0.012536354 2.3142544e-38
-0.012674388 -0.12303366 -0.0066123679 2.3234379e-38
-0.010848474 -0.1222301 -0.0036266521 2.332621e-38
-0.0090932287 -0.1222301 -0.0036266521 2.3417324e-38
-0.0073379837 -0.1222301 -0.0036266521 2.3508801e-38
-0.0055827387 -0.1222301 -0.0036266521 2.3509158e-38
-0.0038274936 -0.1222301 -0.0036266521 2.3509518e-38
-0.0020722486 -0.1222301 -0.0036266521 2.3509879e-38
-0.00031700358 -0.1222301 -0.0036266521 2.3509521e-38
0.0014094487 -0.12303366 -0.0066123679 2.3417687e-38
0.0031462312 -0.12384202 -0.009615846 2.3141822e-38
0.0049304105 -0.12303366 -0.0066123679 2.2958873e-38
0.0066908896 -0.12303366 -0.0066123679 2.2958873e-38
0.008443471 -0.12384202 -0.009615846 2.2775202e-38
0.01021185 -0.12303366 -0.0066123679 2.222383e-38
0.011972329 -0.12303366 -0.0066123679 2.1118931e-38
0.017401163 -0.1294979 -0.030630775 3.9701742e-39
0.019179881 -0.12868352 -0.027604885 4.3375134e-39
0.020977166 -0.12868352 -0.027604885 4.1513145e-39
0.022774454 -0.12868352 -0.027604885 4.8867173e-39
0.024571739 -0.12868352 -0.027604885 5.8990644e-39
0.026369028 -0.12868352 -0.027604885 4.6050871e-39
0.028166313 -0.12868352 -0.027604885 5.2500936e-39
-0.014281001 -0.12315463 -0.00056005269 2.3234374e-38
-0.012531132 -0.12315463 -0.00056005269 2.3418045e-38
-0.010781262 -0.12315463 -0.00056005269 2.3509879e-38
-0.0090313964 -0.12315463 -0.00056005269 2.3509874e-38
-0.0072815269 -0.12315463 -0.00056005269 2.3509516e-38
-0.0055316575 -0.12315463 -0.00056005269 2.3509517e-38
-0.0038274936 -0.12398534 -0.0036266521 2.3509517e-38
-0.0020722486 -0.12398534 -0.0036266521 2.3509517e-38
-0.00031700358 -0.12398534 -0.0036266521 2.3509876e-38
0.0014094487 -0.12479414 -0.0066123679 2.3509518e-38
0.0031699296 -0.12479414 -0.0066123679 2.3233652e-38
0.0049304105 -0.12479414 -0.0066123679 2.3050703e-38
0.0066908896 -0.12479414 -0.0066123679 2.3142544e-38
0.0084513687 -0.12479414 -0.0066123679 2.2958873e-38
0.01021185 -0.12479414 -0.0066123679 2.2775202e-38
0.011972329 -0.12479414 -0.0066123679 2.2591531e-38
0.01373281 -0.12479414 -0.0066123679 1.0514995e-38
0.015493289 -0.12479414 -0.0066123679 3.4166445e-39
0.017382592 -0.13048081 -0.027604885 3.969454e-39
0.019179881 -0.13048081 -0.027604885 4.1531193e-39
0.020977166 -0.13048081 -0.027604885 2.9538503e-39
0.022774454 -0.13048081 -0.027604885 2.5825454e-39
0.024571739 -0.13048081 -0.027604885 2.3959934e-39
0.026369028 -0.13048081 -0.027604885 2.3016369e-39
0.028166313 -0.13048081 -0.027604885 3.1299585e-39
-0.015950702 -0.12410025 0.0023897216 2.3325846e-38
-0.014206003 -0.12410025 0.0023897216 2.3509876e-38
-0.012461308 -0.12410025 0.0023897216 2.3509876e-38
-0.010650206 -0.12327419 0.0054196045 2.3509873e-38
-0.0089108236 -0.12327419 0.0054196045 2.3509873e-38
-0.0071714409 -0.12327419 0.0054196045 2.3509513e-38
-0.0054825246 -0.12410025 0.0023897216 2.3509153e-38
-0.0037378296 -0.12410025 0.0023897216 2.3508437e-38
-0.0019931309 -0.12410025 0.0023897216 2.3509157e-38
-0.0002820529 -0.1249045 -0.00056005269 2.3509517e-38
0.0014382415 -0.12574057 -0.0036266521 2.3509879e-38
0.0031699296 -0.12655462 -0.0066123679 2.3509879e-38
0.0049304105 -0.12655462 -0.0066123679 2.3509879e-38
0.0066908896 -0.12655462 -0.0066123679 2.3418045e-38
0.0084513687 -0.12655462 -0.0066123679 2.30507e-38
0.01021185 -0.12655462 -0.0066123679 2.2774479e-38
0.011972329 -0.12655462 -0.0066123679 2.2958873e-38
0.01373281 -0.12655462 -0.0066123679 1.5031136e-38
0.015493289 -0.12655462 -0.0066123679 6.6416895e-39
0.017364133 -0.13145791 -0.024596639 2.1248183e-39
0.019156143 -0.13145791 -0.024596639 2.0322597e-39
0.020948157 -0.13145791 -0.024596639 2.9538503e-39
0.022774454 -0.1322781 -0.027604885 3.3208335e-39
0.024571739 -0.1322781 -0.027604885 1.7513498e-39
0.026369028 -0.1322781 -0.027604885 2.4867527e-39
0.028166313 -0.1322781 -0.027604885 2.669709e-39
-0.019530606 -0.12665437 -0.00056005269 2.341805e-38
-0.017695401 -0.12584494 0.0023897216 2.3509883e-38
-0.015868362 -0.12501357 0.0054196045 2.3509876e-38
-0.014128976 -0.12501357 0.0054196045 2.350951e-38
-0.012389593 -0.12501357 0.0054196045 2.350879e-38
-0.010650206 -0.12501357 0.0054196045 2.3509153e-38
-0.0089108236 -0.12501357 0.0054196045 2.3509873e-38
-0.0071714409 -0.12501357 0.0054196045 2.3509517e-38
-0.0054320581 -0.12501357 0.0054196045 2.3509517e-38
-0.0036926754 -0.12501357 0.0054196045 2.350952e-38
-0.0019532889 -0.12501357 0.0054196045 2.350952e-38
-0.00021390617 -0.12501357 0.0054196045 2.350952e-38
0.0014962591 -0.12584494 0.0023897216 2.3509879e-38
0.003240956 -0.12584494 0.0023897216 2.3509879e-38
0.0049487315 -0.12749584 -0.0036266521 2.3509879e-38
0.0067039765 -0.12749584 -0.0036266521 2.3509874e-38
0.0084592216 -0.12749584 -0.0036266521 2.3325843e-38
0.01021185 -0.12831511 -0.0066123679 2.3418043e-38
0.011972329 -0.12831511 -0.0066123679 2.341805e-38
0.01373281 -0.12831511 -0.0066123679 1.9730231e-38
0.015506454 -0.12913923 -0.009615846 1.1987593e-38
0.017327536 -0.13161351 -0.018632956 2.0315409e-39
0.019109091 -0.13161351 -0.018632956 1.1095818e-39
0.020919317 -0.13242932 -0.021606036 2.4928721e-39
0.02274017 -0.13324992 -0.024596639 3.044248e-39
0.024571739 -0.13407536 -0.027604885 1.3832876e-39
0.026369028 -0.13407536 -0.027604885 2.0268619e-39
0.028166313 -0.13407536 -0.027604885 1.287499e-39
-0.019530606 -0.12840421 -0.00056005269 1.8069992e-38
-0.017695401 -0.12758966 0.0023897216 1.5856929e-38
-0.015868362 -0.12675296 0.0054196045 1.7976695e-38
-0.014128976 -0.12675296 0.0054196045 1.8251838e-38
-0.012389593 -0.12675296 0.0054196045 1.8435872e-38
-0.010584205 -0.12592132 0.0084311292 1.8897572e-38
-0.0088501014 -0.12592132 0.0084311292 2.0096118e-38
-0.0071160011 -0.12592132 0.0084311292 2.1663088e-38
-0.0053818934 -0.12592132 0.0084311292 2.3047103e-38
-0.0036477931 -0.12592132 0.0084311292 2.3509521e-38
-0.0018869974 -0.12536083 0.010460787 2.3509165e-38
-0.00015645102 -0.12536083 0.010460787 2.3509521e-38
0.0015545189 -0.12592132 0.0084311292 2.3509161e-38
0.003264863 -0.12675296 0.0054196045 2.3509518e-38
0.0049675517 -0.12840421 -0.00056005269 2.3508795e-38
0.0067174193 -0.12840421 -0.00056005269 2.3324404e-38
0.0084592216 -0.12925108 -0.0036266521 2.3508793e-38
0.01021185 -0.13007559 -0.0066123679 2.3509876e-38
0.011972329 -0.13007559 -0.0066123679 2.3508807e-38
0.01373281 -0.13007559 -0.0066123679 2.1665257e-38
0.015506454 -0.13090499 -0.009615846 1.6318626e-38
0.017308772 -0.13255073 -0.015575476 2.2144902e-39
0.019109091 -0.13339506 -0.018632956 9.2446743e-40
0.020919317 -0.13421609 -0.021606036 9.5785757e-41
0.022706086 -0.13421609 -0.021606036 2.155197e-42
0.02453218 -0.13504194 -0.024596639 3.5873241e-43
0.026279625 -0.13421609 -0.021606036 3.6806365e-40
0.028066393 -0.13421609 -0.021606036 3.6734479e-40
-0.019440096 -0.12933435 0.0023897216 1.6963291e-38
-0.017695401 -0.12933435 0.0023897216 1.7332065e-38
-0.015868362 -0.12849234 0.0054196045 1.6591962e-38
-0.014128976 -0.12849234 0.0054196045 1.7236967e-38
-0.012318309 -0.12765543 0.0084311292 1.7882338e-38
-0.010584205 -0.12765543 0.0084311292 1.8343679e-38
-0.0088501014 -0.12765543 0.0084311292 1.8897219e-38
-0.0071160011 -0.12765543 0.0084311292 2.037235e-38
-0.0053818934 -0.12765543 0.0084311292 2.2216986e-38
-0.0036477931 -0.12765543 0.0084311292 2.3508808e-38
-0.0018869974 -0.12709136 0.010460787 2.3508446e-38
-0.00015645102 -0.12709136 0.010460787 2.3508446e-38
0.0015545189 -0.12765543 0.0084311292 2.3508805e-38
0.003264863 -0.12849234 0.0054196045 2.3509521e-38
0.0049856529 -0.12933435 0.0023897216 2.3415884e-38
0.0067303479 -0.12933435 0.0023897216 2.2769791e-38
0.0084592216 -0.13100632 -0.0036266521 2.2401006e-38
0.010214467 -0.13100632 -0.0036266521 2.25854e-38
0.011972329 -0.13183604 -0.0066123679 2.3508807e-38
0.01373281 -0.13183604 -0.0066123679 2.2953475e-38
0.015519256 -0.13348235 -0.012536354 1.8438763e-38
0.017308772 -0.13432692 -0.015575476 9.2911693e-41
0.019084968 -0.13432692 -0.015575476 1.0761972e-42
0.020890646 -0.13517661 -0.018632956 1.4349296e-42
0.022706086 -0.13600285 -0.021606036 1.0761972e-42
0.024492856 -0.13600285 -0.021606036 7.3900417e-40
0.026279625 -0.13600285 -0.021606036 2.7623376e-40
0.028066393 -0.13600285 -0.021606036 2.7551209e-40
-0.02108651 -0.13023172 0.0054196045 1.4381448e-38
-0.019347128 -0.13023172 0.0054196045 1.2906318e-38
-0.017607745 -0.13023172 0.0054196045 1.4380723e-38
-0.015868362 -0.13023172 0.0054196045 1.7605761e-38
-0.014128976 -0.13023172 0.0054196045 1.8619547e-38
-0.012318309 -0.12938951 0.0084311292 1.9081244e-38
-0.010584205 -0.12938951 0.0084311292 1.8620269e-38
-0.0088501014 -0.12938951 0.0084311292 1.7422089e-38
-0.0071160011 -0.12938951 0.0084311292 1.6962191e-38
-0.0053480901 -0.12882192 0.010460787 1.7975987e-38
-0.0036175437 -0.12882192 0.010460787 1.917453e-38
-0.0018869974 -0.12882192 0.010460787 2.2770879e-38
-0.00015645102 -0.12882192 0.010460787 2.3139661e-38
0.0015740916 -0.12882192 0.010460787 2.3509521e-38
0.0032886229 -0.12938951 0.0084311292 2.3509521e-38
0.0050042458 -0.13023172 0.0054196045 2.3508439e-38
0.0067303479 -0.13107903 0.0023897216 2.1848555e-38
0.0084672868 -0.13190396 -0.00056005269 2.0741487e-38
0.010214467 -0.13276155 -0.0036266521 2.0280153e-38
0.011972329 -0.13359652 -0.0066123679 2.0925168e-38
0.01373281 -0.13359652 -0.0066123679 2.1201755e-38
0.015519256 -0.13525321 -0.012536354 1.9451833e-38
0.017308772 -0.13610314 -0.015575476 3.5873241e-43
0.019084968 -0.13610314 -0.015575476 1.8618212e-40
0.020890646 -0.13695817 -0.018632956 1.8690099e-40
0.022672202 -0.13695817 -0.018632956 1.0761972e-42
0.024453759 -0.13695817 -0.018632956 7.1746481e-43
0.026235316 -0.13695817 -0.018632956 2.8025969e-45
0.028016871 -0.13695817 -0.018632956 3.6806926e-40
-0.022825897 -0.13197111 0.0054196045 1.6316466e-38
-0.02108651 -0.13197111 0.0054196045 1.3920098e-38
-0.019347128 -0.13197111 0.0054196045 1.2905946e-38
-0.017607745 -0.13197111 0.0054196045 1.4841336e-38
-0.015868362 -0.13197111 0.0054196045 1.7329541e-38
-0.014128976 -0.13197111 0.0054196045 1.7237346e-38
-0.012318309 -0.13112362 0.0084311292 1.8435886e-38
-0.010584205 -0.13112362 0.0084311292 1.6407938e-38
-0.0088501014 -0.13112362 0.0084311292 1.5026081e-38
-0.0071160011 -0.13112362 0.0084311292 1.4011927e-38
-0.0053480901 -0.13055246 0.010460787 1.659376e-38
-0.0036175437 -0.13055246 0.010460787 1.7516077e-38
-0.0018477999 -0.12971358 0.013441794 1.8530229e-38
-0.00012248009 -0.12971358 0.013441794 2.166488e-38
0.0015740916 -0.13055246 0.010460787 2.3509876e-38
0.003304638 -0.13055246 0.010460787 2.3509876e-38
0.0050351825 -0.13055246 0.010460787 2.3416603e-38
0.0067436285 -0.13197111 0.0054196045 2.2494289e-38
0.0084750447 -0.13282375 0.0023897216 2.0742575e-38
0.010217154 -0.13365383 -0.00056005269 1.8714271e-38
0.011972329 -0.13535701 -0.0066123679 1.9267445e-38
0.01373281 -0.13535701 -0.0066123679 1.8991934e-38
0.015506454 -0.13620223 -0.009615846 1.5673246e-38
0.017290123 -0.13702409 -0.012536354 4.6168861e-40
0.019084968 -0.13787933 -0.015575476 1.4349296e-42
0.020890646 -0.13873972 -0.018632956 4.6240607e-40
0.022672202 -0.13873972 -0.018632956 7.1746481e-43
0.024453759 -0.13873972 -0.018632956 4.6204734e-40
0.026235316 -0.13873972 -0.018632956 3.5873241e-43
0.028016871 -0.13873972 -0.018632956 0
0.029853161 -0.13957639 -0.021606036 4.8856495e-39
-0.022825897 -0.13371049 0.0054196045 1.4196321e-38
-0.02108651 -0.13371049 0.0054196045 1.1246058e-38
-0.019347128 -0.13371049 0.0054196045 1.161484e-38
-0.017607745 -0.13371049 0.0054196045 1.5579255e-38
-0.015786517 -0.13285773 0.0084311292 1.6224276e-38
-0.014052413 -0.13285773 0.0084311292 1.2259508e-38
-0.012318309 -0.13285773 0.0084311292 1.1798883e-38
-0.010584205 -0.13285773 0.0084311292 1.262864e-38
-0.0088501014 -0.13285773 0.0084311292 1.3274364e-38
-0.0070786327 -0.13228302 0.010460787 1.1615196e-38
-0.0053480901 -0.13228302 0.010460787 1.4473977e-38
-0.0036175437 -0.13228302 0.010460787 1.7977409e-38
-0.0018477999 -0.1314389 0.013441794 1.7885214e-38
-0.00012248009 -0.1314389 0.013441794 1.8161801e-38
0.0016028397 -0.1314389 0.013441794 1.9729851e-38
0.0033281576 -0.1314389 0.013441794 2.1573766e-38
0.0050351825 -0.13228302 0.010460787 2.1204628e-38
0.006756831 -0.13285773 0.0084311292 1.871535e-38
0.0084830131 -0.13371049 0.0054196045 1.6871081e-38
0.010217154 -0.13540371 -0.00056005269 1.668669e-38
0.011972329 -0.13711749 -0.0066123679 1.7332776e-38
0.01373281 -0.13711749 -0.0066123679 1.79785e-38
0.015506454 -0.13796796 -0.009615846 1.5120432e-38
0.017290123 -0.13879494 -0.012536354 5.5388284e-40
0.019084968 -0.13965552 -0.015575476 7.1746481e-43
0.020890646 -0.14052127 -0.018632956 5.5388284e-40
0.022672202 -0.14052127 -0.018632956 7.1746481e-43
0.024453759 -0.14052127 -0.018632956 7.1746481e-43
0.026235316 -0.14052127 -0.018632956 3.5873241e-43
0.028016871 -0.14052127 -0.018632956 0
0.029853161 -0.14136316 -0.021606036 4.3331946e-39
-0.02641888 -0.13631313 0.0023897216 1.3550953e-38
-0.024674185 -0.13631313 0.0023897216 1.4841692e-38
-0.022825897 -0.13544987 0.0054196045 1.3643147e-38
-0.02108651 -0.13544987 0.0054196045 9.9553189e-39
-0.019347128 -0.13544987 0.0054196045 1.0692884e-38
-0.017607745 -0.13544987 0.0054196045 1.5671451e-38
-0.015786517 -0.13459183 0.0084311292 1.4656944e-38
-0.014052413 -0.13459183 0.0084311292 9.7705788e-39
-0.012318309 -0.13459183 0.0084311292 9.1252066e-39
-0.010584205 -0.13459183 0.0084311292 1.1799236e-38
-0.0088501014 -0.13459183 0.0084311292 1.2997775e-38
-0.0070786327 -0.13401355 0.010460787 1.0785436e-38
-0.0053480901 -0.13401355 0.010460787 1.3459825e-38
-0.0036175437 -0.13401355 0.010460787 1.8530583e-38
-0.0018477999 -0.13316421 0.013441794 1.9175953e-38
-0.00012248009 -0.13316421 0.013441794 1.7885214e-38
0.0016028397 -0.13316421 0.013441794 1.8346916e-38
0.0033281576 -0.13316421 0.013441794 2.0375223e-38
0.0050534755 -0.13316421 0.013441794 2.0282673e-38
0.006756831 -0.13459183 0.0084311292 1.7609002e-38
0.0084830131 -0.13544987 0.0054196045 1.5856929e-38
0.010217154 -0.13715358 -0.00056005269 1.6041321e-38
0.011972329 -0.13887797 -0.0066123679 1.5212276e-38
0.01373281 -0.13887797 -0.0066123679 1.567361e-38
0.015506454 -0.13973372 -0.009615846 1.3460914e-38
0.017290123 -0.14056583 -0.012536354 6.4607706e-40
0.019084968 -0.1414317 -0.015575476 7.1746481e-43
0.020890646 -0.14230286 -0.018632956 5.5388284e-40
0.022672202 -0.14230286 -0.018632956 9.2911693e-41
0.024453759 -0.14230286 -0.018632956 3.5873241e-43
0.026279625 -0.14314993 -0.021606036 7.3791817e-40
0.028066393 -0.14314993 -0.021606036 1.2907388e-39
0.029853161 -0.14314993 -0.021606036 4.5175859e-39
-0.02641888 -0.13805781 0.0023897216 1.3550953e-38
-0.024674185 -0.13805781 0.0023897216 1.5579255e-38
-0.022825897 -0.13718925 0.0054196045 1.4196318e-38
-0.02108651 -0.13718925 0.0054196045 8.8493273e-39
-0.019254725 -0.13632594 0.0084311292 7.3741972e-39
-0.017520618 -0.13632594 0.0084311292 1.1061667e-38
-0.015786517 -0.13632594 0.0084311292 1.0692888e-38
-0.014052413 -0.13632594 0.0084311292 9.4017934e-39
-0.012318309 -0.13632594 0.0084311292 1.0416301e-38
-0.010584205 -0.13632594 0.0084311292 1.2721191e-38
-0.0088091753 -0.13574408 0.010460787 1.2721544e-38
-0.0070786327 -0.13574408 0.010460787 1.0508846e-38
-0.005298432 -0.13488953 0.013441794 1.2353476e-38
-0.0035731159 -0.13488953 0.013441794 1.6963257e-38
-0.0018477999 -0.13488953 0.013441794 1.7055453e-38
-0.00012248009 -0.13488953 0.013441794 1.6778868e-38
0.0016028397 -0.13488953 0.013441794 1.6410808e-38
0.0033281576 -0.13488953 0.013441794 1.6687398e-38
0.0050534755 -0.13488953 0.013441794 1.6502652e-38
0.006756831 -0.13632594 0.0084311292 1.5304112e-38
0.0084830131 -0.13718925 0.0054196045 1.3552042e-38
0.010217154 -0.13890342 -0.00056005269 1.2353498e-38
0.011969712 -0.13978253 -0.0036266521 1.3644953e-38
0.013724957 -0.13978253 -0.0036266521 1.2446407e-38
0.015480202 -0.13978253 -0.0036266521 1.0141871e-38
0.017253768 -0.14063846 -0.0066123679 4.6132988e-40
0.019084968 -0.14320792 -0.015575476 7.1746481e-43
0.020890646 -0.14408441 -0.018632956 3.6949438e-40
0.022672202 -0.14408441 -0.018632956 2.7730015e-40
0.028066393 -0.1449367 -0.021606036 2.2126979e-39
0.029853161 -0.1449367 -0.021606036 4.1488061e-39
-0.02641888 -0.13980253 0.0023897216 1.3182888e-38
-0.024674185 -0.13980253 0.0023897216 1.5395583e-38
-0.022825897 -0.13892864 0.0054196045 1.4104841e-38
-0.020988829 -0.13806005 0.0084311292 8.4809049e-39
-0.019254725 -0.13806005 0.0084311292 6.2682098e-39
-0.017520618 -0.13806005 0.0084311292 9.1262743e-39
-0.015786517 -0.13806005 0.0084311292 9.5865392e-39
-0.014052413 -0.13806005 0.0084311292 1.0508496e-38
-0.012318309 -0.13806005 0.0084311292 1.1799232e-38
-0.010539722 -0.13747464 0.010460787 1.3459109e-38
-0.0088091753 -0.13747464 0.010460787 1.2537513e-38
-0.0070786327 -0.13747464 0.010460787 1.0325173e-38
-0.005298432 -0.13661484 0.013441794 1.1247128e-38
-0.0035731159 -0.13661484 0.013441794 1.5303736e-38
-0.0018477999 -0.13661484 0.013441794 1.6595197e-38
-8.8710338e-05 -0.13576023 0.01640486 1.6871783e-38
0.0016314127 -0.13576023 0.01640486 1.6595199e-38
0.0033281576 -0.13661484 0.013441794 1.5857281e-38
0.0050534755 -0.13661484 0.013441794 1.5304109e-38
0.006756831 -0.13806005 0.0084311292 1.4658742e-38
0.0084830131 -0.13892864 0.0054196045 1.3091782e-38
0.010217154 -0.1406533 -0.00056005269 1.1524457e-38
0.011969712 -0.14153777 -0.0036266521 1.2723e-38
0.013724957 -0.14153777 -0.0036266521 8.8507805e-39
0.015480202 -0.14153777 -0.0036266521 6.269656e-39
0.017253768 -0.14239894 -0.0066123679 2.7694142e-40
-0.028044045 -0.14066802 0.0054196045 1.1431171e-38
-0.026304662 -0.14066802 0.0054196045 1.2353127e-38
-0.024565279 -0.14066802 0.0054196045 1.4104841e-38
-0.02272293 -0.13979416 0.0084311292 1.3551665e-38
-0.020988829 -0.13979416 0.0084311292 9.7716438e-39
-0.019254725 -0.13979416 0.0084311292 8.8500434e-39
-0.017520618 -0.13979416 0.0084311292 1.1984339e-38
-0.015786517 -0.13979416 0.0084311292 1.2721188e-38
-0.014000814 -0.13920517 0.010460787 1.226021e-38
-0.012270268 -0.13920517 0.010460787 1.1338609e-38
-0.010539722 -0.13920517 0.010460787 1.2905935e-38
-0.0088091753 -0.13920517 0.010460787 1.2261282e-38
-0.0070786327 -0.13920517 0.010460787 1.0232978e-38
-0.005298432 -0.13834016 0.013441794 1.0048587e-38
-0.0035731159 -0.13834016 0.013441794 1.4105194e-38
-0.0018088333 -0.13748036 0.01640486 1.5857632e-38
-8.8710338e-05 -0.13748036 0.01640486 1.4935678e-38
0.0016314127 -0.13748036 0.01640486 1.4474703e-38
0.0033515356 -0.13748036 0.01640486 1.4566542e-38
0.0050716586 -0.13748036 0.01640486 1.3736783e-38
0.006756831 -0.13979416 0.0084311292 1.1985069e-38
0.0084750447 -0.14154722 0.0023897216 1.0510302e-38
0.010214467 -0.14329304 -0.0036266521 1.0233718e-38
0.011972329 -0.14415942 -0.0066123679 1.0971283e-38
0.01373281 -0.14415942 -0.0066123679 5.3473465e-39
0.015493289 -0.14415942 -0.0066123679 2.8584177e-39
0.017253768 -0.14415942 -0.0066123679 9.2552961e-41
-0.028044045 -0.1424074 0.0054196045 1.1062388e-38
-0.026304662 -0.1424074 0.0054196045 1.1246779e-38
-0.024457034 -0.14152823 0.0084311292 1.2353124e-38
-0.02272293 -0.14152823 0.0084311292 1.3090686e-38
-0.020988829 -0.14152823 0.0084311292 1.1246774e-38
-0.019192446 -0.14093573 0.010460787 1.0417369e-38
-0.0174619 -0.14093573 0.010460787 1.2353477e-38
-0.015786517 -0.14152823 0.0084311292 1.3828251e-38
-0.014000814 -0.14093573 0.010460787 1.28141e-38
-0.012270268 -0.14093573 0.010460787 1.0417369e-38
-0.010539722 -0.14093573 0.010460787 1.1892499e-38
-0.0087490715 -0.14006548 0.013441794 1.2353477e-38
-0.0070237517 -0.14006548 0.013441794 1.1615912e-38
-0.005298432 -0.14006548 0.013441794 1.0786872e-38
-0.0035731159 -0.14006548 0.013441794 1.4290309e-38
-0.0018088333 -0.13920046 0.01640486 1.6042026e-38
-8.8710338e-05 -0.13920046 0.01640486 1.410592e-38
0.0016607288 -0.13831301 0.019444875 1.290774e-38
0.0033755209 -0.13831301 0.019444875 1.3184328e-38
0.0050903149 -0.13831301 0.019444875 1.216982e-38
0.0067917816 -0.13920046 0.01640486 9.6805383e-39
0.0084750447 -0.14329191 0.0023897216 8.2054111e-39
0.010206657 -0.14764927 -0.012536354 8.3898051e-39
0.011977522 -0.14764927 -0.012536354 7.5600445e-39
0.01373281 -0.1459199 -0.0066123679 2.1205023e-39
0.015493289 -0.1459199 -0.0066123679 5.5317098e-40
0.017253768 -0.1459199 -0.0066123679 3.5873241e-43
-0.026304662 -0.14414679 0.0054196045 8.3887121e-39
-0.024457034 -0.14326234 0.0084311292 1.0509212e-38
-0.02272293 -0.14326234 0.0084311292 1.3367273e-38
-0.020922992 -0.14266627 0.010460787 1.3275078e-38
-0.019192446 -0.14266627 0.010460787 1.1799948e-38
-0.0174619 -0.14266627 0.010460787 1.207689e-38
-0.015731357 -0.14266627 0.010460787 1.3091042e-38
-0.014000814 -0.14266627 0.010460787 1.3644216e-38
-0.012270268 -0.14266627 0.010460787 1.1708108e-38
-0.010474388 -0.14179079 0.013441794 1.2998847e-38
-0.0087490715 -0.14179079 0.013441794 1.4473977e-38
-0.0070237517 -0.14179079 0.013441794 1.576436e-38
-0.0052490793 -0.14092059 0.01640486 1.5027874e-38
-0.0035289563 -0.14092059 0.01640486 1.7517158e-38
-0.0018088333 -0.14092059 0.01640486 1.5949833e-38
-5.4065138e-05 -0.14002781 0.019444875 1.4013369e-38
0.0016607288 -0.14002781 0.019444875 1.2170176e-38
0.0034149215 -0.13856123 0.024438612 1.1524807e-38
0.0051209591 -0.13856123 0.024438612 1.0325908e-38
0.0067917816 -0.14092059 0.01640486 8.2054083e-39
0.011977522 -0.14942016 -0.012536354 4.5172327e-39
0.01373281 -0.14768039 -0.0066123679 2.8025969e-45
0.015493289 -0.14768039 -0.0066123679 0
0.017253768 -0.14768039 -0.0066123679 3.5873241e-43
-0.024457034 -0.14499645 0.0084311292 1.0140429e-38
-0.02272293 -0.14499645 0.0084311292 1.179995e-38
-0.020922992 -0.14439683 0.010460787 1.2998494e-38
-0.019192446 -0.14439683 0.010460787 1.2629711e-38
-0.0174619 -0.14439683 0.010460787 1.1523361e-38
-0.015731357 -0.14439683 0.010460787 1.1984695e-38
-0.014000814 -0.14439683 0.010460787 1.2998845e-38
-0.012270268 -0.14439683 0.010460787 1.1339325e-38
-0.010474388 -0.14351611 0.013441794 1.3828607e-38
-0.0087490715 -0.14351611 0.013441794 1.4198113e-38
-0.0069692023 -0.14264072 0.01640486 1.5765441e-38
-0.0052490793 -0.14264072 0.01640486 1.6779593e-38
-0.0035289563 -0.14264072 0.01640486 1.6318259e-38
-0.0018088333 -0.14264072 0.01640486 1.567361e-38
-5.4065138e-05 -0.1417426 0.019444875 1.2538959e-38
0.0016607288 -0.1417426 0.019444875 1.2262016e-38
0.0034149215 -0.14026727 0.024438612 1.069469e-38
0.0051209591 -0.14026727 0.024438612 9.4961499e-39
0.0068269968 -0.14026727 0.024438612 7.5600416e-39
-0.02272293 -0.14673056 0.0084311292 1.1523364e-38
-0.020922992 -0.14612736 0.010460787 1.3551667e-38
-0.019192446 -0.14612736 0.010460787 1.355167e-38
-0.0174619 -0.14612736 0.010460787 1.2537515e-38
-0.015731357 -0.14612736 0.010460787 1.1523717e-38
-0.014000814 -0.14612736 0.010460787 1.2353477e-38
-0.012270268 -0.14612736 0.010460787 1.1800304e-38
-0.010474388 -0.14524142 0.013441794 1.3828251e-38
-0.0087490715 -0.14524142 0.013441794 1.3921529e-38
-0.0069692023 -0.14436086 0.01640486 1.5119716e-38
-0.0052490793 -0.14436086 0.01640486 1.4843131e-38
-0.0035289563 -0.14436086 0.01640486 1.4382153e-38
-0.0018088333 -0.14436086 0.01640486 1.3921537e-38
-5.4065138e-05 -0.14345737 0.019444875 1.1063476e-38
0.0016889554 -0.1425875 0.02237194 1.0233715e-38
0.0033986159 -0.1425875 0.02237194 7.2834548e-39
0.0051082764 -0.1425875 0.02237194 4.0566077e-39
-0.02272293 -0.14846466 0.0084311292 1.0048957e-38
-0.020922992 -0.14785792 0.010460787 1.1985065e-38
-0.019192446 -0.14785792 0.010460787 1.2630436e-38
-0.0174619 -0.14785792 0.010460787 1.207726e-38
-0.015731357 -0.14785792 0.010460787 1.1616635e-38
-0.014000814 -0.14785792 0.010460787 1.1985415e-38
-0.012270268 -0.14785792 0.010460787 1.3183961e-38
-0.010474388 -0.14696677 0.013441794 1.4843485e-38
-0.0087490715 -0.14696677 0.013441794 1.5304109e-38
-0.0070237517 -0.14696677 0.013441794 1.6041677e-38
-0.0052490793 -0.14608096 0.01640486 1.4290323e-38
-0.0035289563 -0.14608096 0.01640486 1.4198127e-38
-0.0018088333 -0.14608096 0.01640486 1.2999587e-38
-5.4065138e-05 -0.14517216 0.019444875 1.0141522e-38
0.0017088838 -0.14367934 0.024438612 8.7589478e-39
0.0034149215 -0.14367934 0.024438612 6.0856304e-39
-0.020922992 -0.14958845 0.010460787 9.2192001e-39
-0.019192446 -0.14958845 0.010460787 9.9567651e-39
-0.0174619 -0.14958845 0.010460787 1.0048958e-38
-0.015731357 -0.14958845 0.010460787 1.1247856e-38
-0.014000814 -0.14958845 0.010460787 1.0786875e-38
-0.012270268 -0.14958845 0.010460787 1.263079e-38
-0.010474388 -0.14869209 0.013441794 1.2907021e-38
-0.0087490715 -0.14869209 0.013441794 1.2353851e-38
-0.0070237517 -0.14869209 0.013441794 1.1523735e-38
-0.0051984452 -0.14688696 0.019444875 8.2976095e-39
-0.0034836493 -0.14688696 0.019444875 8.2050579e-39
-0.0017688572 -0.14688696 0.019444875 7.7440812e-39
-2.0705163e-05 -0.14600681 0.02237194 4.0562546e-39
0.0017088838 -0.14538537 0.024438612 1.6598871e-39
0.0034149215 -0.14538537 0.024438612 7.3792798e-40
-0.0069692023 -0.14952122 0.01640486 1.1247154e-38
-0.0051984452 -0.14860176 0.019444875 8.5738419e-39
-0.0034836493 -0.14860176 0.019444875 8.7582359e-39
-0.0017688572 -0.14860176 0.019444875 7.5596927e-39
-2.0705163e-05 -0.14771648 0.02237194 3.7796719e-39
0.0017088838 -0.1470914 0.024438612 2.7695403e-40
0.0034149215 -0.1470914 0.024438612 5.6051939e-45
