# .PCD v0.7 - Point Cloud Data file format
VERSION 0.7
FIELDS x y z rgb
SIZE 4 4 4 4
TYPE F F F F
COUNT 1 1 1 1
WIDTH 937
HEIGHT 1
VIEWPOINT 0 0 0 1 0 0 0
POINTS 937
DATA ascii
0.052124348 -0.11116849 0.017744865 2.3509523e-38
0.054147743 -0.11215095 0.013812628 2.3509883e-38
0.055967752 -0.11215095 0.013812628 2.2035474e-38
0.057958465 -0.11289944 0.010816898 1.8627117e-38
0.059783723 -0.11289944 0.010816898 1.226634e-38
0.061427768 -0.11215095 0.013812628 8.6699919e-39
0.063247785 -0.11215095 0.013812628 8.5770774e-39
0.065067783 -0.11215095 0.013812628 9.8663743e-39
-0.076432236 -0.13260551 -0.060250554 2.3509517e-38
-0.074482374 -0.13260551 -0.060250554 2.332405e-38
-0.072532497 -0.13260551 -0.060250554 2.3509527e-38
-0.070582636 -0.13260551 -0.060250554 2.3509168e-38
-0.068389229 -0.13159247 -0.05622426 2.3509168e-38
-0.066446416 -0.13159247 -0.05622426 2.3509168e-38
-0.064503618 -0.13159247 -0.05622426 2.3508091e-38
-0.062393419 -0.13082992 -0.053193484 2.3509523e-38
-0.060455926 -0.13082992 -0.053193484 2.2587564e-38
-0.05851844 -0.13082992 -0.053193484 2.3509879e-38
-0.056580953 -0.13082992 -0.053193484 2.7647815e-39
-0.05464346 -0.13082992 -0.053193484 3.6734198e-40
-0.051408283 -0.12380283 -0.025264177 1.3811254e-39
-0.04934068 -0.12279506 -0.021258865 1.1048958e-39
-0.047459178 -0.12279506 -0.021258865 1.8620985e-38
-0.045577683 -0.12279506 -0.021258865 2.3509514e-38
-0.043696187 -0.12279506 -0.021258865 2.3415158e-38
-0.041814685 -0.12279506 -0.021258865 2.3509514e-38
-0.039822858 -0.12202276 -0.018189345 2.3509514e-38
-0.037708003 -0.12026589 -0.01120666 2.3415158e-38
-0.035844129 -0.12026589 -0.01120666 1.6593404e-38
-0.033980254 -0.12026589 -0.01120666 2.0465621e-38
-0.032116383 -0.12026589 -0.01120666 2.3415881e-38
-0.030252509 -0.12026589 -0.01120666 2.3509158e-38
-0.028388634 -0.12026589 -0.01120666 2.350952e-38
-0.02652476 -0.12026589 -0.01120666 2.3509883e-38
-0.024660885 -0.12026589 -0.01120666 2.3509523e-38
-0.022797011 -0.12026589 -0.01120666 2.3140384e-38
-0.020933136 -0.12026589 -0.01120666 2.3509527e-38
-0.019069262 -0.12026589 -0.01120666 2.3509527e-38
-0.017160494 -0.11950795 -0.0081942417 2.3509527e-38
-0.015301902 -0.11950795 -0.0081942417 2.332478e-38
-0.01344331 -0.11950795 -0.0081942417 2.3417333e-38
-0.011584718 -0.11950795 -0.0081942417 2.3509527e-38
-0.0097024925 -0.11875431 -0.0051988699 2.3509527e-38
-0.007830875 -0.11800493 -0.0022204258 2.3417333e-38
-0.0059521012 -0.11624531 0.0047732256 2.3325138e-38
-0.0041162446 -0.11624531 0.0047732256 2.3509527e-38
-0.0022803899 -0.11624531 0.0047732256 2.3509886e-38
-0.0004471913 -0.11548282 0.0078037642 2.3509883e-38
0.0013833512 -0.11548282 0.0078037642 2.350988e-38
0.003227178 -0.11624531 0.0047732256 2.350988e-38
0.0050630337 -0.11624531 0.0047732256 2.3418043e-38
0.0068749785 -0.11548282 0.0078037642 2.3509883e-38
0.008705521 -0.11548282 0.0078037642 2.3509883e-38
0.010570602 -0.11624531 0.0047732256 2.3417687e-38
0.012406457 -0.11624531 0.0047732256 2.3509883e-38
0.014197147 -0.11548282 0.0078037642 2.3418047e-38
0.016027691 -0.11548282 0.0078037642 2.332621e-38
0.017858231 -0.11548282 0.0078037642 2.332621e-38
0.019688774 -0.11548282 0.0078037642 2.3509883e-38
0.021453278 -0.11472471 0.010816898 2.3509883e-38
0.023278538 -0.11472471 0.010816898 2.350988e-38
0.025027636 -0.11397095 0.013812628 2.3509883e-38
0.026847642 -0.11397095 0.013812628 2.3509883e-38
0.02855389 -0.1129816 0.017744865 2.3509527e-38
0.030273069 -0.11221133 0.020806279 2.3509527e-38
0.031985492 -0.11147197 0.023744907 2.3509527e-38
0.033788085 -0.11147197 0.023744907 2.3509527e-38
0.035590678 -0.11147197 0.023744907 2.3509883e-38
0.037393268 -0.11147197 0.023744907 2.3509523e-38
0.039195862 -0.11147197 0.023744907 2.3417327e-38
0.040998455 -0.11147197 0.023744907 2.3325131e-38
0.042801045 -0.11147197 0.023744907 2.3509524e-38
0.044603638 -0.11147197 0.023744907 2.3509524e-38
0.046542767 -0.11221133 0.020806279 2.3508444e-38
0.048350513 -0.11221133 0.020806279 2.3509521e-38
0.050311238 -0.1129816 0.017744865 2.1295749e-38
0.052124348 -0.1129816 0.017744865 1.5118639e-38
0.054147743 -0.11397095 0.013812628 1.4657663e-38
0.055967752 -0.11397095 0.013812628 1.6134232e-38
0.057958465 -0.11472471 0.010816898 1.6414062e-38
0.059783723 -0.11472471 0.010816898 1.5492469e-38
0.061608981 -0.11472471 0.010816898 1.2264903e-38
0.063434243 -0.11472471 0.010816898 8.4841587e-39
-0.078103252 -0.13353528 -0.05622426 2.1017704e-38
-0.076160438 -0.13353528 -0.05622426 2.3509507e-38
-0.07421764 -0.13353528 -0.05622426 2.350879e-38
-0.072274841 -0.13353528 -0.05622426 2.3508435e-38
-0.070332028 -0.13353528 -0.05622426 2.3509161e-38
-0.0682059 -0.13276742 -0.053193484 2.3508807e-38
-0.066268407 -0.13276742 -0.053193484 2.2862361e-38
-0.064330913 -0.13276742 -0.053193484 2.3509527e-38
-0.062393419 -0.13276742 -0.053193484 2.3509879e-38
-0.060455926 -0.13276742 -0.053193484 2.2773025e-38
-0.05851844 -0.13276742 -0.053193484 1.890009e-38
-0.056580953 -0.13276742 -0.053193484 7.3647763e-40
-0.05464346 -0.13276742 -0.053193484 9.1943116e-40
-0.051408283 -0.12569134 -0.025264177 6.4284847e-40
-0.049519755 -0.12569134 -0.025264177 1.6555515e-39
-0.047459178 -0.12467657 -0.021258865 1.8157849e-38
-0.045577683 -0.12467657 -0.021258865 2.046274e-38
-0.043696187 -0.12467657 -0.021258865 2.3044217e-38
-0.041698974 -0.12389888 -0.018189345 2.3508794e-38
-0.039571878 -0.12212978 -0.01120666 2.3509151e-38
-0.037708003 -0.12212978 -0.01120666 1.991136e-38
-0.035844129 -0.12212978 -0.01120666 1.5210099e-38
-0.033980254 -0.12212978 -0.01120666 1.5948743e-38
-0.032116383 -0.12212978 -0.01120666 2.0742915e-38
-0.030252509 -0.12212978 -0.01120666 2.3509869e-38
-0.028388634 -0.12212978 -0.01120666 2.3509867e-38
-0.02652476 -0.12212978 -0.01120666 2.3416953e-38
-0.024594866 -0.12136655 -0.0081942417 2.3509873e-38
-0.02273627 -0.12136655 -0.0081942417 2.3509873e-38
-0.020877678 -0.12136655 -0.0081942417 2.3509876e-38
-0.019019086 -0.12136655 -0.0081942417 2.3509879e-38
-0.017115854 -0.12060766 -0.0051988699 2.350988e-38
-0.015262514 -0.12060766 -0.0051988699 2.3509883e-38
-0.013409175 -0.12060766 -0.0051988699 2.341805e-38
-0.01152711 -0.11985306 -0.0022204258 2.341805e-38
-0.0096789934 -0.11985306 -0.0022204258 2.3233662e-38
-0.0078059938 -0.11882581 0.0018341206 2.2773765e-38
-0.0059521012 -0.11808117 0.0047732256 2.2865961e-38
-0.0041162446 -0.11808117 0.0047732256 2.3234379e-38
-0.0022803899 -0.11808117 0.0047732256 2.3234379e-38
-0.0004471913 -0.11731337 0.0078037642 2.3050707e-38
0.0013833512 -0.11731337 0.0078037642 2.3142541e-38
0.0032138936 -0.11731337 0.0078037642 2.2405693e-38
0.0050444361 -0.11731337 0.0078037642 2.3050704e-38
0.0068749785 -0.11731337 0.0078037642 2.3142544e-38
0.008705521 -0.11731337 0.0078037642 2.2590087e-38
0.010536063 -0.11731337 0.0078037642 2.3142544e-38
0.012326983 -0.11654995 0.010816898 2.3142544e-38
0.014152242 -0.11654995 0.010816898 2.3234379e-38
0.015977502 -0.11654995 0.010816898 2.3234379e-38
0.017858231 -0.11731337 0.0078037642 2.3142542e-38
0.019688774 -0.11731337 0.0078037642 2.341805e-38
0.021453278 -0.11654995 0.010816898 2.3509886e-38
0.023278538 -0.11654995 0.010816898 2.3417687e-38
0.025027636 -0.11579098 0.013812628 2.3325494e-38
0.026847642 -0.11579098 0.013812628 2.3233299e-38
0.02855389 -0.11479472 0.017744865 2.3049626e-38
0.030273069 -0.11401908 0.020806279 2.341805e-38
0.031985492 -0.11327456 0.023744907 2.341805e-38
0.033788085 -0.11327456 0.023744907 2.341805e-38
0.035590678 -0.11327456 0.023744907 2.341769e-38
0.037393268 -0.11327456 0.023744907 2.3509886e-38
0.039195862 -0.11327456 0.023744907 2.3509886e-38
0.040998455 -0.11327456 0.023744907 2.3141103e-38
0.042801045 -0.11327456 0.023744907 2.323258e-38
0.044603638 -0.11327456 0.023744907 2.3509527e-38
0.046406232 -0.11327456 0.023744907 2.3509527e-38
0.048350513 -0.11401908 0.020806279 2.1757806e-38
0.050311238 -0.11479472 0.017744865 1.7054752e-38
0.052124348 -0.11479472 0.017744865 1.1338621e-38
0.054147743 -0.11579098 0.013812628 1.0601058e-38
0.055967752 -0.11579098 0.013812628 1.4750582e-38
0.057958465 -0.11654995 0.010816898 1.4568354e-38
0.059783723 -0.11654995 0.010816898 1.678141e-38
0.061608981 -0.11654995 0.010816898 1.5398115e-38
-0.080541201 -0.13725694 -0.063197166 1.6777061e-38
-0.078103252 -0.13547809 -0.05622426 2.1939295e-38
-0.076160438 -0.13547809 -0.05622426 2.3509502e-38
-0.07421764 -0.13547809 -0.05622426 2.3508421e-38
-0.072274841 -0.13547809 -0.05622426 2.3508423e-38
-0.070332028 -0.13547809 -0.05622426 2.3508072e-38
-0.0682059 -0.1347049 -0.053193484 2.3509158e-38
-0.066268407 -0.1347049 -0.053193484 2.341445e-38
-0.064330913 -0.1347049 -0.053193484 2.3508805e-38
-0.062173866 -0.13369073 -0.049218092 2.2588278e-38
-0.060243338 -0.13369073 -0.049218092 1.8532743e-38
-0.058312818 -0.13369073 -0.049218092 1.4936394e-38
-0.055830084 -0.13087155 -0.038167153 2.7586522e-40
-0.053918935 -0.13087155 -0.038167153 5.5101298e-40
-0.052007794 -0.13087155 -0.038167153 1.2867731e-39
-0.049519755 -0.12757985 -0.025264177 3.3143525e-39
-0.047631241 -0.12757985 -0.025264177 1.4008327e-38
-0.045577683 -0.12655805 -0.021258865 1.7787269e-38
-0.043575086 -0.12577499 -0.018189345 1.9078007e-38
-0.041698974 -0.12577499 -0.018189345 1.7696149e-38
-0.039571878 -0.12399365 -0.01120666 1.6498323e-38
-0.037708003 -0.12399365 -0.01120666 1.5946226e-38
-0.035746414 -0.12322514 -0.0081942417 1.3089596e-38
-0.033887822 -0.12322514 -0.0081942417 1.3273987e-38
-0.032116383 -0.12399365 -0.01120666 1.8069236e-38
-0.030252509 -0.12399365 -0.01120666 2.2862333e-38
-0.028388634 -0.12399365 -0.01120666 2.3509863e-38
-0.02652476 -0.12399365 -0.01120666 2.3509866e-38
-0.024594866 -0.12322514 -0.0081942417 2.3508784e-38
-0.02273627 -0.12322514 -0.0081942417 2.323256e-38
-0.020877678 -0.12322514 -0.0081942417 2.350987e-38
-0.018969193 -0.12246101 -0.0051988699 2.3509873e-38
-0.017115854 -0.12246101 -0.0051988699 2.3141092e-38
-0.015223347 -0.12170117 -0.0022204258 2.304854e-38
-0.01337523 -0.12170117 -0.0022204258 2.3233652e-38
-0.01152711 -0.12170117 -0.0022204258 2.3509883e-38
-0.0096470024 -0.12066682 0.0018341206 2.341805e-38
-0.0078059938 -0.12066682 0.0018341206 2.341805e-38
-0.0059521012 -0.11991702 0.0047732256 2.341805e-38
-0.0041162446 -0.11991702 0.0047732256 2.3233662e-38
-0.0022803899 -0.11991702 0.0047732256 2.2773763e-38
-0.0004471913 -0.11914389 0.0078037642 2.2865955e-38
0.0013833512 -0.11914389 0.0078037642 2.3234376e-38
0.0032138936 -0.11914389 0.0078037642 2.2958507e-38
0.0050444361 -0.11914389 0.0078037642 2.3234379e-38
0.0068749785 -0.11914389 0.0078037642 2.3234379e-38
0.008705521 -0.11914389 0.0078037642 2.2682283e-38
0.010501724 -0.11837523 0.010816898 2.3142544e-38
0.012326983 -0.11837523 0.010816898 2.2128393e-38
0.014107596 -0.11761098 0.013812628 2.3234379e-38
0.015927602 -0.11761098 0.013812628 2.3234379e-38
0.017747609 -0.11761098 0.013812628 2.341805e-38
0.019567616 -0.11761098 0.013812628 2.341805e-38
0.021301441 -0.11660783 0.017744865 2.3509886e-38
0.023114553 -0.11660783 0.017744865 2.3509886e-38
0.024849834 -0.11582683 0.020806279 2.3509527e-38
0.026657579 -0.11582683 0.020806279 2.3509886e-38
0.028465323 -0.11582683 0.020806279 2.341805e-38
0.030273069 -0.11582683 0.020806279 2.3234379e-38
0.031985492 -0.11507715 0.023744907 2.3142542e-38
0.033788085 -0.11507715 0.023744907 2.2958151e-38
0.035481919 -0.11430521 0.026770797 2.3326213e-38
0.037279204 -0.11430521 0.026770797 2.341805e-38
0.039076488 -0.11430521 0.026770797 2.3509886e-38
0.040873777 -0.11430521 0.026770797 2.3509886e-38
0.042671062 -0.11430521 0.026770797 2.3509886e-38
0.044468351 -0.11430521 0.026770797 2.3509886e-38
0.046406232 -0.11507715 0.023744907 2.2863797e-38
0.048208822 -0.11507715 0.023744907 1.078617e-38
0.050158259 -0.11582683 0.020806279 8.8493413e-39
0.052124348 -0.11660783 0.017744865 9.2181239e-39
0.054147743 -0.11761098 0.013812628 1.0324471e-38
0.055967752 -0.11761098 0.013812628 1.4658389e-38
0.057958465 -0.11837523 0.010816898 1.742534e-38
-0.080541201 -0.13921197 -0.063197166 1.6223887e-38
-0.078586169 -0.13921197 -0.063197166 2.0371969e-38
-0.076160438 -0.13742088 -0.05622426 2.3509136e-38
-0.07421764 -0.13742088 -0.05622426 2.3509856e-38
-0.072274841 -0.13742088 -0.05622426 2.3509856e-38
-0.070332028 -0.13742088 -0.05622426 2.1940017e-38
-0.0682059 -0.13664238 -0.053193484 2.3508788e-38
-0.066268407 -0.13664238 -0.053193484 2.3509514e-38
-0.064330913 -0.13664238 -0.053193484 2.3509517e-38
-0.062173866 -0.13562126 -0.049218092 2.0007157e-38
-0.059867047 -0.13381381 -0.042181525 1.3738214e-38
-0.057948865 -0.13381381 -0.042181525 1.0603202e-38
-0.055830084 -0.13278268 -0.038167153 4.5989495e-40
-0.053777523 -0.13202934 -0.035234246 5.5101298e-40
-0.051730566 -0.1312501 -0.032200608 2.1165324e-39
-0.049653657 -0.13023765 -0.028259072 3.959366e-39
-0.047631241 -0.1294684 -0.025264177 6.909266e-39
-0.045577683 -0.12843956 -0.021258865 8.5677084e-39
-0.043575086 -0.12765111 -0.018189345 1.437603e-38
-0.041588172 -0.1268961 -0.015250001 1.6128823e-38
-0.039571878 -0.12585752 -0.01120666 1.529978e-38
-0.037708003 -0.12585752 -0.01120666 1.401012e-38
-0.035746414 -0.12508373 -0.0081942417 9.6783607e-39
-0.033887822 -0.12508373 -0.0081942417 9.401771e-39
-0.032116383 -0.12585752 -0.01120666 1.5486683e-38
-0.030252509 -0.12585752 -0.01120666 2.0833313e-38
-0.028388634 -0.12585752 -0.01120666 2.3138204e-38
-0.02652476 -0.12585752 -0.01120666 2.350951e-38
-0.024594866 -0.12508373 -0.0081942417 2.350951e-38
-0.02273627 -0.12508373 -0.0081942417 2.3509511e-38
-0.020877678 -0.12508373 -0.0081942417 2.3509511e-38
-0.018969193 -0.12431435 -0.0051988699 2.3509514e-38
-0.017115854 -0.12431435 -0.0051988699 2.3415881e-38
-0.015223347 -0.1235493 -0.0022204258 2.350952e-38
-0.01337523 -0.1235493 -0.0022204258 2.3509521e-38
-0.011488011 -0.12250783 0.0018341206 2.3508805e-38
-0.0096470024 -0.12250783 0.0018341206 2.3509527e-38
-0.0078059938 -0.12250783 0.0018341206 2.3509527e-38
-0.0059521012 -0.12175287 0.0047732256 2.3509168e-38
-0.0041162446 -0.12175287 0.0047732256 2.3509168e-38
-0.0022803899 -0.12175287 0.0047732256 2.3509167e-38
-0.0004445333 -0.12175287 0.0047732256 2.3509883e-38
0.0013833512 -0.12097444 0.0078037642 2.350988e-38
0.0032138936 -0.12097444 0.0078037642 2.2956346e-38
0.0050444361 -0.12097444 0.0078037642 2.3325131e-38
0.0068512047 -0.12020047 0.010816898 2.3509883e-38
0.0086764647 -0.12020047 0.010816898 2.3509883e-38
0.010501724 -0.12020047 0.010816898 2.3509527e-38
0.012326983 -0.12020047 0.010816898 2.3509527e-38
0.014107596 -0.11943097 0.013812628 2.3416971e-38
0.015927602 -0.11943097 0.013812628 2.3509527e-38
0.017747609 -0.11943097 0.013812628 2.3509527e-38
0.019488329 -0.11842094 0.017744865 2.3509527e-38
0.021301441 -0.11842094 0.017744865 2.3324778e-38
0.02304209 -0.11763458 0.020806279 2.3324778e-38
0.024849834 -0.11763458 0.020806279 2.3508451e-38
0.026657579 -0.11763458 0.020806279 2.3509168e-38
0.028465323 -0.11763458 0.020806279 2.341805e-38
0.030182902 -0.11687975 0.023744907 2.3142542e-38
0.031985492 -0.11687975 0.023744907 2.3049626e-38
0.03368463 -0.1161025 0.026770797 2.3234018e-38
0.035481919 -0.1161025 0.026770797 2.341805e-38
0.037279204 -0.1161025 0.026770797 2.341805e-38
0.039076488 -0.1161025 0.026770797 2.3509886e-38
0.040873777 -0.1161025 0.026770797 2.3509886e-38
0.042671062 -0.1161025 0.026770797 2.341769e-38
0.044468351 -0.1161025 0.026770797 2.0928408e-38
0.046406232 -0.11687975 0.023744907 1.9083777e-38
0.048208822 -0.11687975 0.023744907 8.9422572e-39
0.050158259 -0.11763458 0.020806279 8.8500616e-39
0.052124348 -0.11842094 0.017744865 9.2188441e-39
0.054147743 -0.11943097 0.013812628 9.4025151e-39
0.056466997 -0.12175287 0.0047732256 1.2814476e-38
0.058302853 -0.12175287 0.0047732256 1.7794122e-38
-0.080541201 -0.141167 -0.063197166 1.3549858e-38
-0.078586169 -0.141167 -0.063197166 1.7145479e-38
-0.076432236 -0.14040495 -0.060250554 1.9173778e-38
-0.07421764 -0.13936369 -0.05622426 1.9635472e-38
-0.072274841 -0.13936369 -0.05622426 1.8990103e-38
-0.070332028 -0.13936369 -0.05622426 1.8713881e-38
-0.0682059 -0.13857989 -0.053193484 2.3509859e-38
-0.066268407 -0.13857989 -0.053193484 2.3508783e-38
-0.064330913 -0.13857989 -0.053193484 1.8161082e-38
-0.062173866 -0.1375518 -0.049218092 1.7425679e-38
-0.059867047 -0.13573201 -0.042181525 1.1617714e-38
-0.057948865 -0.13573201 -0.042181525 8.6663752e-39
-0.055830084 -0.13469382 -0.038167153 1.7506268e-39
-0.053777523 -0.13393532 -0.035234246 1.7491876e-39
-0.051730566 -0.13315077 -0.032200608 2.3934822e-39
-0.049653657 -0.13213144 -0.028259072 3.2218038e-39
-0.047459178 -0.13032107 -0.021258865 1.4693679e-39
-0.0453301 -0.12876706 -0.015250001 1.4693679e-39
-0.043459132 -0.12876706 -0.015250001 3.5902234e-39
-0.041588172 -0.12876706 -0.015250001 2.7611787e-39
-0.039571878 -0.12772138 -0.01120666 1.1027434e-39
-0.037708003 -0.12772138 -0.01120666 1.1949376e-39
-0.035746414 -0.12694232 -0.0081942417 6.4284847e-40
-0.033887822 -0.12694232 -0.0081942417 1.1963726e-39
-0.032116383 -0.12772138 -0.01120666 5.8983399e-39
-0.030252509 -0.12772138 -0.01120666 6.4500759e-39
-0.028388634 -0.12772138 -0.01120666 8.2929123e-39
-0.02652476 -0.12772138 -0.01120666 1.0966586e-38
-0.024594866 -0.12694232 -0.0081942417 1.3455868e-38
-0.02273627 -0.12694232 -0.0081942417 1.4747687e-38
-0.020822532 -0.12616767 -0.0051988699 1.5669643e-38
-0.018969193 -0.12616767 -0.0051988699 1.7236613e-38
-0.017071463 -0.1253974 -0.0022204258 1.8803939e-38
-0.015223347 -0.1253974 -0.0022204258 2.35088e-38
-0.013329022 -0.12434883 0.0018341206 2.3508082e-38
-0.011488011 -0.12434883 0.0018341206 2.3507005e-38
-0.0096470024 -0.12434883 0.0018341206 2.3507005e-38
-0.0077879578 -0.12358873 0.0047732256 2.3506647e-38
-0.0059388168 -0.12280498 0.0078037642 2.3506647e-38
-0.0041082744 -0.12280498 0.0078037642 2.3507726e-38
-0.0022803899 -0.12358873 0.0047732256 2.3508807e-38
-0.0004471913 -0.12280498 0.0078037642 2.3508084e-38
0.0013833512 -0.12280498 0.0078037642 2.3508802e-38
0.0032138936 -0.12280498 0.0078037642 2.3508084e-38
0.0050259456 -0.12202574 0.010816898 2.3508804e-38
0.0068512047 -0.12202574 0.010816898 2.3509163e-38
0.0086764647 -0.12202574 0.010816898 2.3507726e-38
0.010467582 -0.121251 0.013812628 2.3507726e-38
0.012287589 -0.121251 0.013812628 2.3323336e-38
0.014048993 -0.12023406 0.017744865 2.3509168e-38
0.015862104 -0.12023406 0.017744865 2.3509168e-38
0.017675217 -0.12023406 0.017744865 2.3509168e-38
0.019426601 -0.11944233 0.020806279 2.3509168e-38
0.021234345 -0.11944233 0.020806279 2.3509168e-38
0.022972532 -0.11868234 0.023744907 2.3509168e-38
0.024775125 -0.11868234 0.023744907 2.3509168e-38
0.026577717 -0.11868234 0.023744907 2.3509527e-38
0.028380308 -0.11868234 0.023744907 2.341805e-38
0.030090056 -0.11789979 0.026770797 2.3050347e-38
0.031887345 -0.11789979 0.026770797 2.3326213e-38
0.03368463 -0.11789979 0.026770797 2.341805e-38
0.035481919 -0.11789979 0.026770797 2.341805e-38
0.037279204 -0.11789979 0.026770797 2.3141822e-38
0.039076488 -0.11789979 0.026770797 2.3048907e-38
0.040873777 -0.11789979 0.026770797 2.3233299e-38
0.042671062 -0.11789979 0.026770797 2.3509886e-38
0.044468351 -0.11789979 0.026770797 1.6779605e-38
0.046406232 -0.11868234 0.023744907 1.1062757e-38
0.048208822 -0.11868234 0.023744907 1.0232996e-38
0.050158259 -0.11944233 0.020806279 9.9564092e-39
0.052124348 -0.12023406 0.017744865 9.4032354e-39
0.054307945 -0.12202574 0.010816898 9.7712976e-39
0.056466997 -0.12358873 0.0047732256 1.106276e-38
0.058302853 -0.12358873 0.0047732256 1.4382884e-38
-0.080331959 -0.14235483 -0.060250554 1.1429359e-38
-0.078382097 -0.14235483 -0.060250554 1.3273623e-38
-0.076432236 -0.14235483 -0.060250554 1.6777407e-38
-0.074482374 -0.14235483 -0.060250554 1.8806067e-38
-0.072532497 -0.14235483 -0.060250554 1.7330936e-38
-0.070582636 -0.14235483 -0.060250554 1.6040558e-38
-0.068389229 -0.1413065 -0.05622426 2.2955233e-38
-0.066446416 -0.1413065 -0.05622426 2.3509133e-38
-0.064330913 -0.14051737 -0.053193484 1.6871412e-38
-0.062173866 -0.1394823 -0.049218092 1.502859e-38
-0.059867047 -0.13765021 -0.042181525 1.1433326e-38
-0.057948865 -0.13765021 -0.042181525 8.0210086e-39
-0.055830084 -0.13660498 -0.038167153 2.395999e-39
-0.053918935 -0.13660498 -0.038167153 2.671867e-39
-0.05154743 -0.1340252 -0.028259072 2.301288e-39
-0.049653657 -0.1340252 -0.028259072 2.3920445e-39
-0.047459178 -0.13220255 -0.021258865 9.1835496e-40
-0.0453301 -0.13063805 -0.015250001 1.3775324e-39
-0.043459132 -0.13063805 -0.015250001 1.0101905e-39
-0.041588172 -0.13063805 -0.015250001 9.1835496e-40
-0.039571878 -0.12958528 -0.01120666 1.0101905e-39
-0.037708003 -0.12958528 -0.01120666 1.4711616e-39
-0.035844129 -0.12958528 -0.01120666 1.4718791e-39
-0.033980254 -0.12958528 -0.01120666 7.350427e-40
-0.032116383 -0.12958528 -0.01120666 6.4284847e-40
-0.030252509 -0.12958528 -0.01120666 1.3782499e-39
-0.02849143 -0.13063805 -0.015250001 2.022892e-39
-0.02652476 -0.12958528 -0.01120666 3.3136309e-39
-0.024594866 -0.12880091 -0.0081942417 5.2497391e-39
-0.02273627 -0.12880091 -0.0081942417 7.0014561e-39
-0.020822532 -0.12802102 -0.0051988699 8.9375643e-39
-0.018969193 -0.12802102 -0.0051988699 1.1794553e-38
-0.017071463 -0.12724553 -0.0022204258 1.4007248e-38
-0.015223347 -0.12724553 -0.0022204258 1.6773117e-38
-0.013329022 -0.12618984 0.0018341206 1.8525915e-38
-0.011488011 -0.12618984 0.0018341206 2.1843879e-38
-0.0096470024 -0.12618984 0.0018341206 2.3507365e-38
-0.0077879578 -0.12542458 0.0047732256 2.3508085e-38
-0.0059388168 -0.12463553 0.0078037642 2.3508085e-38
-0.0041082744 -0.12463553 0.0078037642 2.3507725e-38
-0.0022777319 -0.12463553 0.0078037642 2.3507365e-38
-0.0004471913 -0.12463553 0.0078037642 2.3508085e-38
0.0013754275 -0.12385099 0.010816898 2.3508082e-38
0.0032006875 -0.12385099 0.010816898 2.3508085e-38
0.0050259456 -0.12385099 0.010816898 2.3507365e-38
0.0068512047 -0.12385099 0.010816898 2.3506644e-38
0.008647575 -0.123071 0.013812628 2.3507365e-38
0.010467582 -0.123071 0.013812628 2.3508085e-38
0.01223588 -0.12204717 0.017744865 2.3508448e-38
0.014048993 -0.12204717 0.017744865 2.3507726e-38
0.015811112 -0.12125005 0.020806279 2.3508086e-38
0.017564757 -0.12048493 0.023744907 2.3507729e-38
0.019367348 -0.12048493 0.023744907 2.3507372e-38
0.02116994 -0.12048493 0.023744907 2.3508809e-38
0.022972532 -0.12048493 0.023744907 2.3508809e-38
0.024775125 -0.12048493 0.023744907 2.3509168e-38
0.026577717 -0.12048493 0.023744907 2.3416974e-38
0.028380308 -0.12048493 0.023744907 2.341769e-38
0.030090056 -0.11969708 0.026770797 2.341805e-38
0.031887345 -0.11969708 0.026770797 2.341805e-38
0.033581778 -0.11891381 0.029779043 2.341805e-38
0.035373792 -0.11891381 0.029779043 2.3326213e-38
0.037165802 -0.11891381 0.029779043 2.2957431e-38
0.039076488 -0.11969708 0.026770797 2.3233299e-38
0.040873777 -0.11969708 0.026770797 2.3509886e-38
0.042671062 -0.11969708 0.026770797 2.3325494e-38
0.044603638 -0.12048493 0.023744907 1.3552758e-38
0.046406232 -0.12048493 0.023744907 9.0344529e-39
0.048208822 -0.12048493 0.023744907 1.0325192e-38
0.050158259 -0.12125005 0.020806279 9.6798223e-39
0.052124348 -0.12204717 0.017744865 1.0693974e-38
0.054307945 -0.12385099 0.010816898 1.1523735e-38
0.056629322 -0.12618984 0.0018341206 9.6805439e-39
0.058470331 -0.12618984 0.0018341206 1.1524819e-38
0.06013871 -0.12542458 0.0047732256 2.3234379e-38
0.061974566 -0.12542458 0.0047732256 2.341805e-38
0.063810423 -0.12542458 0.0047732256 1.7149106e-38
0.065834373 -0.12618984 0.0018341206 1.2353496e-38
-0.080331959 -0.14430468 -0.060250554 1.1060579e-38
-0.078382097 -0.14430468 -0.060250554 1.2812645e-38
-0.076432236 -0.14430468 -0.060250554 1.3919343e-38
-0.074482374 -0.14430468 -0.060250554 1.4380677e-38
-0.072532497 -0.14430468 -0.060250554 1.3920416e-38
-0.070766054 -0.14507706 -0.063197166 1.5026764e-38
-0.068389229 -0.14324932 -0.05622426 2.2679723e-38
-0.066446416 -0.14324932 -0.05622426 2.1849609e-38
-0.064330913 -0.14245488 -0.053193484 1.2814803e-38
-0.061785229 -0.13956837 -0.042181525 1.2447112e-38
-0.059867047 -0.13956837 -0.042181525 1.0326978e-38
-0.057948865 -0.13956837 -0.042181525 6.5455226e-39
-0.055830084 -0.13851611 -0.038167153 1.381847e-39
-0.053777523 -0.13774733 -0.035234246 2.026499e-39
-0.05154743 -0.13591899 -0.028259072 1.4722462e-39
-0.049653657 -0.13591899 -0.028259072 1.3786156e-39
-0.047631241 -0.13513394 -0.025264177 1.3775366e-39
-0.045577683 -0.13408406 -0.021258865 2.3916886e-39
-0.043575086 -0.13327946 -0.018189345 2.2076532e-39
-0.041698974 -0.13327946 -0.018189345 2.760827e-39
-0.039571878 -0.13144915 -0.01120666 1.8399483e-39
-0.037708003 -0.13144915 -0.01120666 6.4284847e-40
-0.035844129 -0.13144915 -0.01120666 6.4284847e-40
-0.033980254 -0.13144915 -0.01120666 1.5647936e-39
-0.032116383 -0.13144915 -0.01120666 9.1871369e-40
-0.030252509 -0.13144915 -0.01120666 1.1938615e-39
-0.02849143 -0.13250901 -0.015250001 2.3916746e-39
-0.02652476 -0.13144915 -0.01120666 2.6671853e-39
-0.024594866 -0.13065951 -0.0081942417 1.6533977e-39
-0.02273627 -0.13065951 -0.0081942417 1.5612034e-39
-0.020822532 -0.12987436 -0.0051988699 2.6675412e-39
-0.018969193 -0.12987436 -0.0051988699 3.4043902e-39
-0.017071463 -0.12909363 -0.0022204258 3.1278033e-39
-0.015223347 -0.12909363 -0.0022204258 2.6668251e-39
-0.013329022 -0.12803085 0.0018341206 2.943412e-39
-0.011488011 -0.12803085 0.0018341206 3.7731727e-39
-0.0096470024 -0.12803085 0.0018341206 4.8795202e-39
-0.0077879578 -0.12726043 0.0047732256 6.0773446e-39
-0.0059388168 -0.12646608 0.0078037642 7.5524746e-39
-0.0041082744 -0.12646608 0.0078037642 1.0041757e-38
-0.0022777319 -0.12646608 0.0078037642 1.2346647e-38
-0.0004471913 -0.12646608 0.0078037642 1.5941198e-38
0.0013754275 -0.12567626 0.010816898 1.6403255e-38
0.0032006875 -0.12567626 0.010816898 1.8339366e-38
0.0050259456 -0.12567626 0.010816898 1.9169124e-38
0.0068512047 -0.12567626 0.010816898 2.036767e-38
0.008647575 -0.124891 0.013812628 2.2304138e-38
0.010467582 -0.124891 0.013812628 2.3503403e-38
0.01223588 -0.12386028 0.017744865 2.3508086e-38
0.014048993 -0.12386028 0.017744865 2.3508445e-38
0.015762163 -0.12228753 0.023744907 2.3508448e-38
0.017564757 -0.12228753 0.023744907 2.3508807e-38
0.019306336 -0.12149437 0.026770797 2.3507729e-38
0.021103622 -0.12149437 0.026770797 2.3508451e-38
0.022900909 -0.12149437 0.026770797 2.3509168e-38
0.024698196 -0.12149437 0.026770797 2.3509168e-38
0.026495483 -0.12149437 0.026770797 2.2955999e-38
0.02829277 -0.12149437 0.026770797 2.3509886e-38
0.030090056 -0.12149437 0.026770797 2.341805e-38
0.031692762 -0.11992194 0.032769646 2.341805e-38
0.03347953 -0.11992194 0.032769646 2.3141822e-38
0.035266299 -0.11992194 0.032769646 2.3049626e-38
0.037053067 -0.11992194 0.032769646 2.3326213e-38
0.038957816 -0.12070583 0.029779043 2.3509886e-38
0.040749826 -0.12070583 0.029779043 2.3509886e-38
0.042671062 -0.12149437 0.026770797 2.2495734e-38
0.044468351 -0.12149437 0.026770797 1.097128e-38
0.046406232 -0.12228753 0.023744907 1.2445691e-38
0.048350513 -0.1230578 0.020806279 1.1154952e-38
0.050311238 -0.12386028 0.017744865 1.1431539e-38
0.052482687 -0.12567626 0.010816898 1.1800322e-38
0.05463114 -0.12726043 0.0047732256 1.1800322e-38
0.056629322 -0.12803085 0.0018341206 1.0325913e-38
0.058470331 -0.12803085 0.0018341206 1.1617015e-38
0.06013871 -0.12726043 0.0047732256 2.268157e-38
0.061974566 -0.12726043 0.0047732256 2.341805e-38
0.063810423 -0.12726043 0.0047732256 2.1943279e-38
0.065834373 -0.12803085 0.0018341206 1.3920821e-38
0.067675382 -0.12803085 0.0018341206 9.6801754e-39
-0.080541201 -0.1470321 -0.063197166 1.0508124e-38
-0.078586169 -0.1470321 -0.063197166 1.1706299e-38
-0.076631136 -0.1470321 -0.063197166 1.2905194e-38
-0.074482374 -0.14625455 -0.060250554 1.4012257e-38
-0.072532497 -0.14625455 -0.060250554 1.410445e-38
-0.070766054 -0.1470321 -0.063197166 1.3551276e-38
-0.068389229 -0.1451921 -0.05622426 1.9084096e-38
-0.066446416 -0.1451921 -0.05622426 1.9360327e-38
-0.064330913 -0.14439236 -0.053193484 1.3369057e-38
-0.061785229 -0.14148657 -0.042181525 1.1156376e-38
-0.059867047 -0.14148657 -0.042181525 8.4830685e-39
-0.057948865 -0.14148657 -0.042181525 5.2547852e-39
-0.055830084 -0.14042725 -0.038167153 9.2051156e-40
-0.053777523 -0.13965334 -0.035234246 1.288578e-39
-0.051730566 -0.13885282 -0.032200608 1.1031078e-39
-0.049653657 -0.13781275 -0.028259072 7.3468537e-40
-0.047631241 -0.13702248 -0.025264177 1.3786184e-39
-0.045577683 -0.13596557 -0.021258865 2.3005747e-39
-0.043696187 -0.13596557 -0.021258865 2.7615501e-39
-0.041698974 -0.13515557 -0.018189345 2.3005719e-39
-0.039822858 -0.13515557 -0.018189345 9.1835496e-40
-0.037708003 -0.13331302 -0.01120666 6.4284847e-40
-0.035844129 -0.13331302 -0.01120666 1.1027434e-39
-0.033980254 -0.13331302 -0.01120666 1.2878535e-39
-0.032116383 -0.13331302 -0.01120666 6.4284847e-40
-0.030252509 -0.13331302 -0.01120666 1.0101905e-39
-0.02849143 -0.13437997 -0.015250001 2.5767875e-39
-0.02652476 -0.13331302 -0.01120666 3.4058321e-39
-0.024594866 -0.1325181 -0.0081942417 2.5760686e-39
-0.02273627 -0.1325181 -0.0081942417 2.0228948e-39
-0.020822532 -0.13172771 -0.0051988699 2.2072861e-39
-0.018969193 -0.13172771 -0.0051988699 2.0218158e-39
-0.017071463 -0.13094176 -0.0022204258 1.1938615e-39
-0.01517003 -0.12987186 0.0018341206 1.6530389e-39
-0.013329022 -0.12987186 0.0018341206 2.0214571e-39
-0.011488011 -0.12987186 0.0018341206 2.9426903e-39
-0.0096238125 -0.12909628 0.0047732256 3.6802554e-39
-0.0077879578 -0.12909628 0.0047732256 3.4947851e-39
-0.0059388168 -0.1282966 0.0078037642 2.4806346e-39
-0.0041082744 -0.1282966 0.0078037642 2.2962461e-39
-0.0022777319 -0.1282966 0.0078037642 2.8494157e-39
-0.0004471913 -0.1282966 0.0078037642 6.3524895e-39
0.0013754275 -0.1275015 0.010816898 7.8279797e-39
0.0032006875 -0.1275015 0.010816898 1.1700199e-38
0.0050259456 -0.1275015 0.010816898 1.3636304e-38
0.0068512047 -0.1275015 0.010816898 1.5572415e-38
0.008647575 -0.126711 0.013812628 1.8154972e-38
0.010422768 -0.1256734 0.017744865 1.9630821e-38
0.01223588 -0.1256734 0.017744865 2.1936075e-38
0.014048993 -0.1256734 0.017744865 2.3505563e-38
0.015762163 -0.12409012 0.023744907 2.3508445e-38
0.017564757 -0.12409012 0.023744907 2.3508807e-38
0.019306336 -0.12329166 0.026770797 2.3508089e-38
0.021103622 -0.12329166 0.026770797 2.3415895e-38
0.022900909 -0.12329166 0.026770797 2.3509527e-38
0.024698196 -0.12329166 0.026770797 2.3509527e-38
0.026495483 -0.12329166 0.026770797 2.3509527e-38
0.02829277 -0.12329166 0.026770797 2.3417691e-38
0.030090056 -0.12329166 0.026770797 2.3509886e-38
0.031692762 -0.12170871 0.032769646 2.3509886e-38
0.03347953 -0.12170871 0.032769646 2.3048907e-38
0.035266299 -0.12170871 0.032769646 2.3233299e-38
0.037053067 -0.12170871 0.032769646 2.3509886e-38
0.038957816 -0.12249784 0.029779043 2.3325494e-38
0.040749826 -0.12249784 0.029779043 2.2219147e-38
0.042671062 -0.12329166 0.026770797 2.0006452e-38
0.044468351 -0.12329166 0.026770797 1.0602497e-38
0.046542767 -0.12486555 0.020806279 1.2077628e-38
0.048498124 -0.1256734 0.017744865 1.0510302e-38
0.050657429 -0.1275015 0.010816898 1.1524454e-38
0.052795283 -0.12909628 0.0047732256 1.1432258e-38
0.054788314 -0.12987186 0.0018341206 1.1340062e-38
0.056629322 -0.12987186 0.0018341206 1.2169826e-38
0.058470331 -0.12987186 0.0018341206 1.235458e-38
0.06031134 -0.12987186 0.0018341206 2.1944005e-38
0.062152352 -0.12987186 0.0018341206 2.3325856e-38
0.063993365 -0.12987186 0.0018341206 2.341805e-38
0.065834373 -0.12987186 0.0018341206 1.668669e-38
0.067675382 -0.12987186 0.0018341206 1.0048958e-38
-0.080331959 -0.14820443 -0.060250554 9.5858106e-39
-0.078382097 -0.14820443 -0.060250554 1.0415563e-38
-0.076432236 -0.14820443 -0.060250554 9.9552993e-39
-0.074482374 -0.14820443 -0.060250554 1.0601022e-38
-0.072532497 -0.14820443 -0.060250554 1.1431503e-38
-0.070766054 -0.14898713 -0.063197166 1.1247112e-38
-0.068632774 -0.14820443 -0.060250554 1.5581028e-38
-0.066446416 -0.14713491 -0.05622426 1.5765065e-38
-0.064330913 -0.14632986 -0.053193484 1.1248205e-38
-0.061785229 -0.14340474 -0.042181525 1.1525159e-38
-0.059867047 -0.14340474 -0.042181525 7.7447846e-39
-0.057948865 -0.14340474 -0.042181525 5.2547852e-39
-0.055830084 -0.14233841 -0.038167153 1.4747643e-39
-0.053777523 -0.14155935 -0.035234246 1.4736881e-39
-0.051730566 -0.14075352 -0.032200608 1.4729693e-39
-0.049829885 -0.14075352 -0.032200608 6.4284987e-40
-0.047759883 -0.13970654 -0.028259072 6.4284847e-40
-0.045742713 -0.13891099 -0.025264177 7.3468397e-40
-0.043696187 -0.13784705 -0.021258865 3.222531e-39
-0.041814685 -0.13784705 -0.021258865 2.7615529e-39
-0.039822858 -0.13703169 -0.018189345 7.3468397e-40
-0.037708003 -0.13517688 -0.01120666 6.4284847e-40
-0.035844129 -0.13517688 -0.01120666 6.4284847e-40
-0.033980254 -0.13517688 -0.01120666 5.5101298e-40
-0.032116383 -0.13517688 -0.01120666 1.0112667e-39
-0.030252509 -0.13517688 -0.01120666 6.4284847e-40
-0.02849143 -0.13625093 -0.015250001 8.2651947e-40
-0.02652476 -0.13517688 -0.01120666 1.6555571e-39
-0.024594866 -0.13437669 -0.0081942417 2.208728e-39
-0.02273627 -0.13437669 -0.0081942417 2.207649e-39
-0.020822532 -0.13358103 -0.0051988699 2.0236137e-39
-0.018969193 -0.13358103 -0.0051988699 2.8526555e-39
-0.017071463 -0.13278987 -0.0022204258 3.9590031e-39
-0.01517003 -0.13171287 0.0018341206 2.9441281e-39
-0.013329022 -0.13171287 0.0018341206 2.6675412e-39
-0.011488011 -0.13171287 0.0018341206 3.0356048e-39
-0.0096238125 -0.13093217 0.0047732256 3.5887786e-39
-0.0077879578 -0.13093217 0.0047732256 3.4962215e-39
-0.0059388168 -0.13012715 0.0078037642 2.6664608e-39
-0.0041082744 -0.13012715 0.0078037642 2.7575774e-39
-0.0022777319 -0.13012715 0.0078037642 3.3107512e-39
-0.0004471913 -0.13012715 0.0078037642 4.1401545e-39
0.0013833512 -0.13012715 0.0078037642 3.4025895e-39
0.0032006875 -0.12932678 0.010816898 3.9557633e-39
0.0050259456 -0.12932678 0.010816898 2.8494157e-39
0.0068275686 -0.12853102 0.013812628 3.771372e-39
0.0086096553 -0.12748651 0.017744865 7.5524718e-39
0.010387878 -0.1266733 0.020806279 1.1425407e-38
0.012195623 -0.1266733 0.020806279 1.5758965e-38
0.014003367 -0.1266733 0.020806279 1.8987254e-38
0.015762163 -0.12589271 0.023744907 2.037127e-38
0.017564757 -0.12589271 0.023744907 2.1386502e-38
0.019306336 -0.12508895 0.026770797 2.1110638e-38
0.021103622 -0.12508895 0.026770797 2.0835496e-38
0.022900909 -0.12508895 0.026770797 2.1757816e-38
0.024698196 -0.12508895 0.026770797 2.2772688e-38
0.026495483 -0.12508895 0.026770797 2.3325856e-38
0.02829277 -0.12508895 0.026770797 2.3141106e-38
0.030090056 -0.12508895 0.026770797 2.3509886e-38
0.031692762 -0.12349547 0.032769646 2.3509886e-38
0.03347953 -0.12349547 0.032769646 2.3325494e-38
0.035266299 -0.12349547 0.032769646 2.3509886e-38
0.037053067 -0.12349547 0.032769646 2.3509886e-38
0.038957816 -0.12428986 0.029779043 2.2403538e-38
0.040749826 -0.12428986 0.029779043 1.9914256e-38
0.042671062 -0.12508895 0.026770797 1.539667e-38
0.044603638 -0.12589271 0.023744907 1.2999584e-38
0.046406232 -0.12589271 0.023744907 1.1247867e-38
0.048832167 -0.12932678 0.010816898 1.2169823e-38
0.050657429 -0.12932678 0.010816898 1.3183975e-38
0.052795283 -0.13093217 0.0047732256 1.3829344e-38
0.054788314 -0.13171287 0.0018341206 1.2722997e-38
0.056853257 -0.13278987 -0.0022204258 1.1340781e-38
0.058701374 -0.13278987 -0.0022204258 1.2262385e-38
0.060549494 -0.13278987 -0.0022204258 2.3234379e-38
0.062152352 -0.13171287 0.0018341206 2.341805e-38
0.063993365 -0.13171287 0.0018341206 2.2865235e-38
0.066093847 -0.13278987 -0.0022204258 1.8714994e-38
0.067941964 -0.13278987 -0.0022204258 1.0325545e-38
-0.08004605 -0.14907773 -0.05622426 1.0138987e-38
-0.078103252 -0.14907773 -0.05622426 1.0415929e-38
-0.064330913 -0.14826734 -0.053193484 1.2539311e-38
-0.061785229 -0.14532293 -0.042181525 9.4964988e-39
-0.059867047 -0.14532293 -0.042181525 6.1774589e-39
-0.057948865 -0.14532293 -0.042181525 7.0065021e-39
-0.055830084 -0.14424954 -0.038167153 1.6591556e-39
-0.053777523 -0.14346536 -0.035234246 1.750275e-39
-0.051871516 -0.14346536 -0.035234246 1.4729721e-39
-0.049829885 -0.1426542 -0.032200608 1.2875046e-39
-0.047759883 -0.1416003 -0.028259072 7.3468957e-40
-0.045742713 -0.14079951 -0.025264177 9.1836197e-40
-0.043854192 -0.14079951 -0.025264177 2.5775218e-39
-0.041814685 -0.13972856 -0.021258865 3.0384999e-39
-0.039933186 -0.13972856 -0.021258865 1.6559214e-39
-0.037708003 -0.13704078 -0.01120666 6.4284847e-40
-0.035844129 -0.13704078 -0.01120666 7.3468397e-40
-0.033980254 -0.13704078 -0.01120666 7.3468397e-40
-0.032116383 -0.13704078 -0.01120666 5.5101298e-40
-0.030252509 -0.13704078 -0.01120666 7.3576017e-40
-0.02849143 -0.13812189 -0.015250001 7.3576017e-40
-0.02652476 -0.13704078 -0.01120666 8.279558e-40
-0.024594866 -0.13623528 -0.0081942417 9.2015002e-40
-0.02273627 -0.13623528 -0.0081942417 1.3800492e-39
-0.020822532 -0.13543437 -0.0051988699 1.8406644e-39
-0.018969193 -0.13543437 -0.0051988699 2.3009237e-39
-0.017071463 -0.134638 -0.0022204258 2.4853121e-39
-0.01517003 -0.13355388 0.0018341206 3.2221541e-39
-0.013329022 -0.13355388 0.0018341206 2.9455672e-39
-0.011459667 -0.13276802 0.0047732256 2.4842275e-39
-0.0096238125 -0.13276802 0.0047732256 3.1285179e-39
-0.0077879578 -0.13276802 0.0047732256 3.3121903e-39
-0.0059388168 -0.13195769 0.0078037642 3.2199947e-39
-0.0041082744 -0.13195769 0.0078037642 2.9437637e-39
-0.0022777319 -0.13195769 0.0078037642 2.7593725e-39
-0.00044983253 -0.13115202 0.010816898 2.850852e-39
0.0013754275 -0.13115202 0.010816898 3.2196346e-39
0.0032006875 -0.13115202 0.010816898 2.2054868e-39
0.0050075613 -0.13035102 0.013812628 1.8370687e-39
0.0068275686 -0.13035102 0.013812628 1.6530389e-39
0.0086096553 -0.1292996 0.017744865 5.8021912e-39
0.010387878 -0.12848105 0.020806279 9.7666033e-39
0.012195623 -0.12848105 0.020806279 1.3178563e-38
0.014003367 -0.12848105 0.020806279 1.7052222e-38
0.015762163 -0.12769531 0.023744907 1.8620269e-38
0.017564757 -0.12769531 0.023744907 1.9174886e-38
0.019306336 -0.12688623 0.026770797 1.8990858e-38
0.021103622 -0.12688623 0.026770797 1.8900107e-38
0.022900909 -0.12688623 0.026770797 1.9270331e-38
0.024698196 -0.12688623 0.026770797 2.0838019e-38
0.026495483 -0.12688623 0.026770797 2.3142544e-38
0.028205741 -0.12608187 0.029779043 2.304927e-38
0.029997755 -0.12608187 0.029779043 2.3509886e-38
0.031692762 -0.12528224 0.032769646 2.3141103e-38
0.03347953 -0.12528224 0.032769646 2.3509886e-38
0.035266299 -0.12528224 0.032769646 2.2587929e-38
0.037053067 -0.12528224 0.032769646 2.3509886e-38
0.038957816 -0.12608187 0.029779043 2.3509886e-38
0.040749826 -0.12608187 0.029779043 1.751717e-38
0.042671062 -0.12688623 0.026770797 1.456691e-38
0.044468351 -0.12688623 0.026770797 1.3091779e-38
0.047006909 -0.13115202 0.010816898 1.3460562e-38
0.048832167 -0.13115202 0.010816898 1.2815193e-38
0.050657429 -0.13115202 0.010816898 1.2262019e-38
0.052795283 -0.13276802 0.0047732256 1.3737149e-38
0.054788314 -0.13355388 0.0018341206 1.3644953e-38
0.056853257 -0.134638 -0.0022204258 1.2447129e-38
0.058701374 -0.134638 -0.0022204258 1.2815558e-38
0.060549494 -0.134638 -0.0022204258 2.2497178e-38
0.062152352 -0.13355388 0.0018341206 2.341805e-38
0.063993365 -0.13355388 0.0018341206 2.341805e-38
0.065834373 -0.13355388 0.0018341206 2.0927689e-38
-0.061785229 -0.1472411 -0.042181525 9.6808929e-39
-0.059867047 -0.1472411 -0.042181525 5.6242851e-39
-0.057741232 -0.14616071 -0.038167153 5.7157633e-39
-0.055683531 -0.14537133 -0.035234246 1.0137862e-39
-0.053777523 -0.14537133 -0.035234246 1.1049084e-39
-0.051871516 -0.14537133 -0.035234246 4.5953902e-40
-0.049829885 -0.14455487 -0.032200608 5.5101858e-40
-0.047759883 -0.14349405 -0.028259072 8.2652647e-40
-0.045742713 -0.14268802 -0.025264177 1.0101989e-39
-0.043854192 -0.14268802 -0.025264177 2.2087421e-39
-0.041814685 -0.14161004 -0.021258865 2.761913e-39
-0.039933186 -0.14161004 -0.021258865 2.024348e-39
-0.037946742 -0.14078392 -0.018189345 1.0101961e-39
-0.035975281 -0.13999285 -0.015250001 7.3468397e-40
-0.033980254 -0.13890465 -0.01120666 8.2652087e-40
-0.032116383 -0.13890465 -0.01120666 7.3576017e-40
-0.030252509 -0.13890465 -0.01120666 6.4392467e-40
-0.028388634 -0.13890465 -0.01120666 4.6061241e-40
-0.026453458 -0.13809387 -0.0081942417 4.6061241e-40
-0.024529215 -0.13728772 -0.0051988699 5.5280804e-40
-0.022675872 -0.13728772 -0.0051988699 1.0127072e-39
-0.0207677 -0.13648613 -0.0022204258 1.3811282e-39
-0.018919583 -0.13648613 -0.0022204258 1.8410273e-39
-0.017071463 -0.13648613 -0.0022204258 2.0257745e-39
-0.01517003 -0.13539489 0.0018341206 1.6562703e-39
-0.013329022 -0.13539489 0.0018341206 2.3938326e-39
-0.011459667 -0.13460387 0.0047732256 2.7611759e-39
-0.0096238125 -0.13460387 0.0047732256 3.3143483e-39
-0.0077879578 -0.13460387 0.0047732256 3.1295969e-39
-0.0059388168 -0.13378824 0.0078037642 2.2998363e-39
-0.0041082744 -0.13378824 0.0078037642 2.3920319e-39
-0.0022750907 -0.13297729 0.010816898 2.4842247e-39
-0.00045858882 -0.13028879 0.020806279 3.2207136e-39
0.0013491549 -0.13028879 0.020806279 3.2207136e-39
0.0031569004 -0.13028879 0.020806279 3.0363223e-39
0.0049646441 -0.13028879 0.020806279 2.6675398e-39
0.0067723887 -0.13028879 0.020806279 2.7597326e-39
0.008551795 -0.1294979 0.023744907 6.6330281e-39
0.010354388 -0.1294979 0.023744907 9.3067013e-39
0.012156979 -0.1294979 0.023744907 1.3179281e-38
0.013959572 -0.1294979 0.023744907 1.6868186e-38
0.015711762 -0.12868352 0.026770797 1.8067811e-38
0.017509049 -0.12868352 0.026770797 1.8345124e-38
0.019306336 -0.12868352 0.026770797 1.7793391e-38
0.021103622 -0.12868352 0.026770797 1.7794475e-38
0.022900909 -0.12868352 0.026770797 1.81647e-38
0.024621716 -0.12787388 0.029779043 2.0008257e-38
0.026413729 -0.12787388 0.029779043 2.2313147e-38
0.028205741 -0.12787388 0.029779043 2.341805e-38
0.029905993 -0.12706901 0.032769646 2.3509886e-38
0.031596325 -0.12626885 0.035742726 2.341769e-38
0.033377878 -0.12626885 0.035742726 2.3509886e-38
0.035266299 -0.12706901 0.032769646 2.3509886e-38
0.037053067 -0.12706901 0.032769646 2.3509886e-38
0.038839836 -0.12706901 0.032769646 2.3325494e-38
0.040626604 -0.12706901 0.032769646 1.7609365e-38
0.042671062 -0.12868352 0.026770797 1.5949844e-38
0.044468351 -0.12868352 0.026770797 1.3460562e-38
0.047146909 -0.13378824 0.0078037642 1.3552758e-38
0.04897745 -0.13378824 0.0078037642 1.3368366e-38
0.050807994 -0.13378824 0.0078037642 1.2815193e-38
0.052947305 -0.13539489 0.0018341206 1.3737149e-38
0.054788314 -0.13539489 0.0018341206 1.3737149e-38
0.056853257 -0.13648613 -0.0022204258 1.3184694e-38
0.058701374 -0.13648613 -0.0022204258 1.401518e-38
0.060549494 -0.13648613 -0.0022204258 2.1483026e-38
0.062152352 -0.13539489 0.0018341206 2.3233662e-38
0.063993365 -0.13539489 0.0018341206 2.341805e-38
0.065834373 -0.13539489 0.0018341206 2.0374515e-38
-0.060032278 -0.1499963 -0.045271311 6.2696546e-39
-0.057741232 -0.14807184 -0.038167153 5.8079589e-39
-0.055683531 -0.14727734 -0.035234246 1.0137862e-39
-0.053777523 -0.14727734 -0.035234246 7.3612591e-40
-0.051871516 -0.14727734 -0.035234246 7.3612591e-40
-0.049829885 -0.14645557 -0.032200608 1.1041924e-39
-0.047759883 -0.14538784 -0.028259072 7.3540984e-40
-0.045742713 -0.14457656 -0.025264177 8.2652647e-40
-0.043854192 -0.14457656 -0.025264177 1.3797003e-39
-0.041814685 -0.14349155 -0.021258865 2.2094609e-39
-0.039933186 -0.14349155 -0.021258865 2.3938494e-39
-0.037846245 -0.14186381 -0.015250001 1.6555655e-39
-0.035975281 -0.14186381 -0.015250001 6.4284847e-40
-0.034104317 -0.14186381 -0.015250001 6.4284847e-40
-0.032116383 -0.14076851 -0.01120666 1.1963824e-39
-0.030252509 -0.14076851 -0.01120666 2.7658409e-40
-0.028388634 -0.14076851 -0.01120666 1.8510732e-40
-0.026453458 -0.13995247 -0.0081942417 2.7658409e-40
-0.024463937 -0.13833423 -0.0022204258 3.6913565e-40
-0.02261582 -0.13833423 -0.0022204258 5.5280804e-40
-0.0207677 -0.13833423 -0.0022204258 8.2939353e-40
-0.018919583 -0.13833423 -0.0022204258 1.1974558e-39
-0.017071463 -0.13833423 -0.0022204258 1.3818442e-39
-0.01517003 -0.13723589 0.0018341206 1.6577123e-39
-0.013329022 -0.13723589 0.0018341206 2.3956332e-39
-0.011488011 -0.13723589 0.0018341206 2.1172485e-39
-0.0096238125 -0.13643973 0.0047732256 2.5782238e-39
-0.0077879578 -0.13643973 0.0047732256 3.1310375e-39
-0.0059521012 -0.13643973 0.0047732256 2.0246885e-39
-0.0041082744 -0.13561879 0.0078037642 2.6700579e-39
-0.0022750907 -0.13480256 0.010816898 2.8544492e-39
-0.00045858882 -0.13209651 0.020806279 2.8544506e-39
0.0013414267 -0.13130049 0.023744907 2.4856681e-39
0.0031440184 -0.13130049 0.023744907 3.406544e-39
0.0049646441 -0.13209651 0.020806279 2.6689789e-39
0.0067492034 -0.13130049 0.023744907 3.130313e-39
0.008551795 -0.13130049 0.023744907 7.4635048e-39
0.010354388 -0.13130049 0.023744907 8.5698524e-39
0.012156979 -0.13130049 0.023744907 1.290305e-38
0.013959572 -0.13130049 0.023744907 1.585403e-38
0.015711762 -0.13048081 0.026770797 1.6685231e-38
0.017509049 -0.13048081 0.026770797 1.659376e-38
0.019306336 -0.13048081 0.026770797 1.5949477e-38
0.021103622 -0.13048081 0.026770797 1.6134951e-38
0.022829704 -0.1296659 0.029779043 1.6781763e-38
0.024621716 -0.1296659 0.029779043 1.8717874e-38
0.026413729 -0.1296659 0.029779043 2.0930569e-38
0.028119223 -0.12885578 0.032769646 2.2126951e-38
0.029905993 -0.12885578 0.032769646 2.3509527e-38
0.031596325 -0.1280504 0.035742726 2.2955993e-38
0.033377878 -0.1280504 0.035742726 2.3416971e-38
0.035266299 -0.12885578 0.032769646 2.323258e-38
0.037053067 -0.12885578 0.032769646 2.2310624e-38
0.038839836 -0.12885578 0.032769646 2.1850364e-38
0.040626604 -0.12885578 0.032769646 1.8715713e-38
0.042413373 -0.12885578 0.032769646 1.7793757e-38
0.044200141 -0.12885578 0.032769646 1.392154e-38
0.047424279 -0.13723589 0.0018341206 1.327689e-38
0.049265288 -0.13723589 0.0018341206 1.3830063e-38
0.051106296 -0.13723589 0.0018341206 1.3553476e-38
0.052947305 -0.13723589 0.0018341206 1.3737868e-38
0.054788314 -0.13723589 0.0018341206 1.3830063e-38
0.056629322 -0.13723589 0.0018341206 1.4291041e-38
0.058701374 -0.13833423 -0.0022204258 1.5398115e-38
0.060549494 -0.13833423 -0.0022204258 2.0837657e-38
0.06239761 -0.13833423 -0.0022204258 2.304927e-38
0.064245731 -0.13833423 -0.0022204258 2.341805e-38
0.066093847 -0.13833423 -0.0022204258 1.9913537e-38
-0.055830084 -0.14998297 -0.038167153 7.371993e-40
-0.053777523 -0.14918335 -0.035234246 2.7550649e-40
-0.051871516 -0.14918335 -0.035234246 1.0127128e-39
-0.049829885 -0.14835624 -0.032200608 1.3807764e-39
-0.047759883 -0.1472816 -0.028259072 3.6734479e-40
-0.045742713 -0.14646508 -0.025264177 5.5101578e-40
-0.043854192 -0.14646508 -0.025264177 5.5101578e-40
-0.041814685 -0.14537306 -0.021258865 1.5640915e-39
-0.039933186 -0.14537306 -0.021258865 2.7626319e-39
-0.037846245 -0.14373477 -0.015250001 2.1165436e-39
-0.035975281 -0.14373477 -0.015250001 6.4284847e-40
-0.034104317 -0.14373477 -0.015250001 6.4284847e-40
-0.032116383 -0.14263238 -0.01120666 1.0119911e-39
-0.030252509 -0.14263238 -0.01120666 1.8439126e-40
-0.02831205 -0.14181106 -0.0081942417 1.0789998e-42
-0.026382554 -0.14099441 -0.0051988699 9.2914496e-41
-0.024463937 -0.14018236 -0.0022204258 9.2911693e-41
-0.02261582 -0.14018236 -0.0022204258 2.7658409e-40
-0.0207677 -0.14018236 -0.0022204258 3.6913565e-40
-0.018919583 -0.14018236 -0.0022204258 6.4500367e-40
-0.017071463 -0.14018236 -0.0022204258 7.371979e-40
-0.01517003 -0.1390769 0.0018341206 1.7506296e-39
-0.013329022 -0.1390769 0.0018341206 1.8428224e-39
-0.011488011 -0.1390769 0.0018341206 3.6734198e-40
-0.0096470024 -0.1390769 0.0018341206 6.4284847e-40
-0.0077879578 -0.13827558 0.0047732256 2.3945542e-39
-0.0059521012 -0.13827558 0.0047732256 8.2723693e-40
-0.0041082744 -0.13744931 0.0078037642 1.7484632e-39
-0.0022750907 -0.13662781 0.010816898 1.4725965e-39
-0.00045590475 -0.13473894 0.017744865 2.0257689e-39
0.0013414267 -0.13310309 0.023744907 1.8406588e-39
0.0031440184 -0.13310309 0.023744907 2.9470063e-39
0.0049646441 -0.13390426 0.020806279 1.2871319e-39
