# .PCD v0.7 - Point Cloud Data file format
VERSION 0.7
FIELDS x y z rgb
SIZE 4 4 4 4
TYPE F F F F
COUNT 1 1 1 1
WIDTH 935
HEIGHT 1
VIEWPOINT 0 0 0 1 0 0 0
POINTS 935
DATA ascii
-0.044614773 -0.12114228 -0.059171293 2.3234376e-38
-0.042691175 -0.12114228 -0.059171293 2.3418045e-38
-0.040767573 -0.12114228 -0.059171293 2.1390454e-38
-0.038749166 -0.12038656 -0.056081507 1.61353e-38
-0.036714848 -0.11940466 -0.052067135 1.4844197e-38
-0.034803703 -0.11940466 -0.052067135 2.1020215e-38
-0.015432269 -0.11281042 -0.025106642 2.2591519e-38
-0.013568395 -0.11281042 -0.025106642 2.2958867e-38
-0.060200799 -0.12403814 -0.06311807 1.5027525e-38
-0.058079977 -0.12306587 -0.059171293 1.8900104e-38
-0.056156378 -0.12306587 -0.059171293 2.341805e-38
-0.054232772 -0.12306587 -0.059171293 2.3325856e-38
-0.052309182 -0.12306587 -0.059171293 2.2958154e-38
-0.050385576 -0.12306587 -0.059171293 2.3234379e-38
-0.04846197 -0.12306587 -0.059171293 2.3234379e-38
-0.046687156 -0.12403814 -0.06311807 2.3418047e-38
-0.044614773 -0.12306587 -0.059171293 2.3509879e-38
-0.042691175 -0.12306587 -0.059171293 2.3233285e-38
-0.040667351 -0.12230472 -0.056081507 1.779374e-38
-0.038749166 -0.12230472 -0.056081507 1.290665e-38
-0.036714848 -0.12131582 -0.052067135 1.5303368e-38
-0.034803703 -0.12131582 -0.052067135 1.9543276e-38
-0.021023888 -0.11467429 -0.025106642 2.3418047e-38
-0.019160017 -0.11467429 -0.025106642 2.3050347e-38
-0.017296143 -0.11467429 -0.025106642 2.3050707e-38
-0.015432269 -0.11467429 -0.025106642 2.3142544e-38
-0.013544627 -0.11393218 -0.022094224 2.1575933e-38
-0.011686035 -0.11393218 -0.022094224 2.3142541e-38
-0.062131319 -0.12596865 -0.06311807 1.2168018e-38
-0.060200799 -0.12596865 -0.06311807 1.8622072e-38
-0.058079977 -0.12498946 -0.059171293 2.2217708e-38
-0.056156378 -0.12498946 -0.059171293 2.3509527e-38
-0.054232772 -0.12498946 -0.059171293 2.3509886e-38
-0.052309182 -0.12498946 -0.059171293 2.3509886e-38
-0.050385576 -0.12498946 -0.059171293 2.3141103e-38
-0.04846197 -0.12498946 -0.059171293 2.2587927e-38
-0.046538375 -0.12498946 -0.059171293 2.221878e-38
-0.044503719 -0.12422292 -0.056081507 1.7885938e-38
-0.042585533 -0.12422292 -0.056081507 1.6040582e-38
-0.040537138 -0.12322696 -0.052067135 1.0324809e-38
-0.038625993 -0.12322696 -0.052067135 1.0600314e-38
-0.036714848 -0.12322696 -0.052067135 1.8990108e-38
-0.034803703 -0.12322696 -0.052067135 2.0464145e-38
-0.026898958 -0.12002577 -0.039164159 2.3231116e-38
-0.024936698 -0.11903207 -0.035158847 2.2494641e-38
-0.023004074 -0.11827053 -0.032089327 2.203439e-38
-0.021023888 -0.11653815 -0.025106642 2.3509886e-38
-0.019160017 -0.11653815 -0.025106642 2.341805e-38
-0.017296143 -0.11653815 -0.025106642 2.2220592e-38
-0.015403219 -0.11579077 -0.022094224 2.3234379e-38
-0.013544627 -0.11579077 -0.022094224 2.2865958e-38
-0.011686035 -0.11579077 -0.022094224 2.2589724e-38
-0.064061843 -0.12789918 -0.06311807 1.2073663e-38
-0.062131319 -0.12789918 -0.06311807 1.2995981e-38
-0.060399454 -0.12889244 -0.067093462 2.0003568e-38
-0.05846196 -0.12889244 -0.067093462 2.2400301e-38
-0.056339759 -0.12789918 -0.06311807 2.2770163e-38
-0.054409232 -0.12789918 -0.06311807 2.3509527e-38
-0.052309182 -0.12691309 -0.059171293 2.3509527e-38
-0.050385576 -0.12691309 -0.059171293 2.3509524e-38
-0.04846197 -0.12691309 -0.059171293 2.3509521e-38
-0.0464219 -0.12614109 -0.056081507 2.323149e-38
-0.044359427 -0.12513812 -0.052067135 1.484204e-38
-0.042448282 -0.12513812 -0.052067135 1.3181076e-38
-0.040442005 -0.12440531 -0.049134228 7.7418867e-39
-0.038536001 -0.12440531 -0.049134228 9.1244597e-39
-0.036830984 -0.12614109 -0.056081507 1.7605726e-38
-0.034912799 -0.12614109 -0.056081507 1.9080844e-38
-0.032309931 -0.11941226 -0.029149983 1.7051817e-38
-0.030438963 -0.11941226 -0.029149983 1.5392664e-38
-0.028479386 -0.11840202 -0.025106642 2.3507328e-38
-0.026615512 -0.11840202 -0.025106642 2.3509503e-38
-0.024826076 -0.11941226 -0.029149983 2.3508432e-38
-0.022887763 -0.11840202 -0.025106642 1.7976706e-38
-0.020978995 -0.11764936 -0.022094224 2.3325138e-38
-0.019120403 -0.11764936 -0.022094224 2.3417691e-38
-0.017261811 -0.11764936 -0.022094224 2.3048914e-38
-0.015403219 -0.11764936 -0.022094224 2.2680492e-38
-0.013544627 -0.11764936 -0.022094224 2.341805e-38
-0.011587861 -0.11365227 -0.0060962178 2.3418047e-38
-0.0097573185 -0.11365227 -0.0060962178 2.231241e-38
-0.0006309459 -0.11215095 -8.7354332e-05 2.3509168e-38
0.0011890596 -0.11215095 -8.7354332e-05 2.3509168e-38
0.0030090669 -0.11215095 -8.7354332e-05 2.3417691e-38
-0.064061843 -0.12982969 -0.06311807 1.3180005e-38
-0.062131319 -0.12982969 -0.06311807 1.3917573e-38
-0.060200799 -0.12982969 -0.06311807 2.0187239e-38
-0.05846196 -0.13082992 -0.067093462 2.1109197e-38
-0.056339759 -0.12982969 -0.06311807 2.1017364e-38
-0.054409232 -0.12982969 -0.06311807 2.3507726e-38
-0.052309182 -0.12883668 -0.059171293 2.3507726e-38
-0.050258268 -0.12805928 -0.056081507 2.3507003e-38
-0.048340078 -0.12805928 -0.056081507 2.3230051e-38
-0.0464219 -0.12805928 -0.056081507 2.101699e-38
-0.044359427 -0.12704925 -0.052067135 1.0322292e-38
-0.042448282 -0.12704925 -0.052067135 1.1612305e-38
-0.040442005 -0.12631132 -0.049134228 8.9382677e-39
-0.038536001 -0.12631132 -0.049134228 1.0781454e-38
-0.036630001 -0.12631132 -0.049134228 1.72355e-38
-0.034180891 -0.12128322 -0.029149983 1.603658e-38
-0.032309931 -0.12128322 -0.029149983 1.3823885e-38
-0.030438963 -0.12128322 -0.029149983 1.8157096e-38
-0.028479386 -0.12026589 -0.025106642 2.3509136e-38
-0.026615512 -0.12026589 -0.025106642 2.3509146e-38
-0.024751637 -0.12026589 -0.025106642 2.3507715e-38
-0.022887763 -0.12026589 -0.025106642 1.9451473e-38
-0.020978995 -0.11950795 -0.022094224 1.7700842e-38
-0.019120403 -0.11950795 -0.022094224 1.8254382e-38
-0.017261811 -0.11950795 -0.022094224 9.8645793e-39
-0.015345612 -0.11800493 -0.016120408 1.2077628e-38
-0.013465504 -0.1169848 -0.012065861 1.2446043e-38
-0.011587861 -0.11548282 -0.0060962178 1.4475054e-38
-0.0097441124 -0.11472471 -0.0030830838 2.3509863e-38
-0.0079188524 -0.11472471 -0.0030830838 2.3509866e-38
-0.0060909661 -0.11397095 -8.7354332e-05 2.3416237e-38
-0.0042744065 -0.1129816 0.0038448833 2.3508809e-38
-0.0024612946 -0.1129816 0.0038448833 2.3508809e-38
-0.0006309459 -0.11397095 -8.7354332e-05 2.3508092e-38
0.0011890596 -0.11397095 -8.7354332e-05 2.295636e-38
0.0029780418 -0.1129816 0.0038448833 2.2865961e-38
0.0047911536 -0.1129816 0.0038448833 2.3142544e-38
0.0066042664 -0.1129816 0.0038448833 2.2867037e-38
0.0084173782 -0.1129816 0.0038448833 2.2223097e-38
-0.064061843 -0.13176022 -0.06311807 1.1983249e-38
-0.062131319 -0.13176022 -0.06311807 1.4288145e-38
-0.060200799 -0.13176022 -0.06311807 1.8804655e-38
-0.05846196 -0.13276742 -0.067093462 1.9173443e-38
-0.056339759 -0.13176022 -0.06311807 1.8988696e-38
-0.054409232 -0.13176022 -0.06311807 2.1477617e-38
-0.052309182 -0.13076027 -0.059171293 2.3505923e-38
-0.050258268 -0.12997745 -0.056081507 2.3508441e-38
-0.048340078 -0.12997745 -0.056081507 2.2950224e-38
-0.0464219 -0.12997745 -0.056081507 1.8524825e-38
-0.044359427 -0.12896039 -0.052067135 1.1886734e-38
-0.042448282 -0.12896039 -0.052067135 1.2255508e-38
-0.040215753 -0.12645011 -0.042159054 1.3269655e-38
-0.038321979 -0.12645011 -0.042159054 1.4651865e-38
-0.036051854 -0.12315418 -0.029149983 1.6956744e-38
-0.034180891 -0.12315418 -0.029149983 1.6218442e-38
-0.032309931 -0.12315418 -0.029149983 1.5480524e-38
-0.030438963 -0.12315418 -0.029149983 1.7877997e-38
-0.028479386 -0.12212978 -0.025106642 1.8708495e-38
-0.026615512 -0.12212978 -0.025106642 2.0276905e-38
-0.024751637 -0.12212978 -0.025106642 2.0740403e-38
-0.022887763 -0.12212978 -0.025106642 2.240136e-38
-0.020978995 -0.12136655 -0.022094224 2.0558172e-38
-0.019120403 -0.12136655 -0.022094224 2.1203553e-38
-0.017227676 -0.12060766 -0.019098852 1.1983987e-38
-0.015306513 -0.11882581 -0.012065861 9.2181056e-39
-0.013442314 -0.11808117 -0.0091267563 1.1062e-38
-0.011587861 -0.11731337 -0.0060962178 1.373494e-38
-0.0097441124 -0.11654995 -0.0030830838 2.3506598e-38
-0.007900632 -0.11479472 0.0038448833 2.3509139e-38
-0.0060875202 -0.11479472 0.0038448833 2.3508793e-38
-0.0042770905 -0.11401908 0.0069062971 2.350952e-38
-0.0024693469 -0.11401908 0.0069062971 2.2495371e-38
-0.00066160131 -0.11401908 0.0069062971 2.350988e-38
0.001164929 -0.11479472 0.0038448833 2.3418045e-38
0.002953887 -0.11401908 0.0069062971 2.2405329e-38
0.0047616316 -0.11401908 0.0069062971 2.3142534e-38
0.0066042664 -0.11479472 0.0038448833 2.3142531e-38
0.0084173782 -0.11479472 0.0038448833 2.2775186e-38
0.010230491 -0.11479472 0.0038448833 2.2775181e-38
-0.064061843 -0.13369073 -0.06311807 1.1615542e-38
-0.062131319 -0.13369073 -0.06311807 1.3458379e-38
-0.060200799 -0.13369073 -0.06311807 1.5947666e-38
-0.058270279 -0.13369073 -0.06311807 1.5485612e-38
-0.056156378 -0.13268389 -0.059171293 1.5301224e-38
-0.054232772 -0.13268389 -0.059171293 1.6867836e-38
-0.052176449 -0.13189565 -0.056081507 1.7696518e-38
-0.050092857 -0.13087155 -0.052067135 1.6865315e-38
-0.048181716 -0.13087155 -0.052067135 1.3545907e-38
-0.046270572 -0.13087155 -0.052067135 1.0410891e-38
-0.044359427 -0.13087155 -0.052067135 7.3687868e-39
-0.042348005 -0.13012333 -0.049134228 1.0226125e-38
-0.039889123 -0.12577499 -0.032089327 1.1701609e-38
-0.037922818 -0.12502514 -0.029149983 1.2346614e-38
-0.036051854 -0.12502514 -0.029149983 1.3176e-38
-0.034180891 -0.12502514 -0.029149983 1.5112092e-38
-0.032309931 -0.12502514 -0.029149983 1.6494676e-38
-0.030438963 -0.12502514 -0.029149983 1.7507782e-38
-0.028479386 -0.12399365 -0.025106642 1.6494369e-38
-0.026615512 -0.12399365 -0.025106642 1.7418842e-38
-0.024751637 -0.12399365 -0.025106642 1.6959302e-38
-0.022887763 -0.12399365 -0.025106642 1.9727321e-38
-0.021023888 -0.12399365 -0.025106642 2.2954531e-38
-0.019120403 -0.12322514 -0.022094224 2.3139297e-38
-0.017227676 -0.12246101 -0.019098852 1.5762923e-38
-0.015306513 -0.12066682 -0.012065861 1.207508e-38
-0.013442314 -0.11991702 -0.0091267563 1.1706639e-38
-0.011587861 -0.11914389 -0.0060962178 1.5946898e-38
-0.0097441124 -0.11837523 -0.0030830838 2.3509828e-38
-0.007900632 -0.11660783 0.0038448833 2.3506611e-38
-0.0060848361 -0.11582683 0.0069062971 1.7326279e-38
-0.0042770905 -0.11582683 0.0069062971 2.3508794e-38
-0.0024693469 -0.11582683 0.0069062971 2.3509876e-38
-0.00066160131 -0.11582683 0.0069062971 2.3509876e-38
0.001164929 -0.11660783 0.0038448833 2.3234364e-38
0.002953887 -0.11582683 0.0069062971 2.3418035e-38
0.0047616316 -0.11582683 0.0069062971 2.2498232e-38
0.0065693762 -0.11582683 0.0069062971 2.2774819e-38
0.0084173782 -0.11660783 0.0038448833 2.2406037e-38
0.010230491 -0.11660783 0.0038448833 1.8257233e-38
-0.06599237 -0.13562126 -0.06311807 1.4103748e-38
-0.064061843 -0.13562126 -0.06311807 1.3367259e-38
-0.062131319 -0.13562126 -0.06311807 1.4749118e-38
-0.060200799 -0.13562126 -0.06311807 1.5855468e-38
-0.058270279 -0.13562126 -0.06311807 1.5301221e-38
-0.056156378 -0.13460748 -0.059171293 1.557781e-38
-0.054094631 -0.13381381 -0.056081507 1.6314662e-38
-0.052004006 -0.13278268 -0.052067135 1.5944801e-38
-0.050092857 -0.13278268 -0.052067135 1.5667851e-38
-0.048066016 -0.13202934 -0.049134228 1.0135031e-38
-0.046160012 -0.13202934 -0.049134228 7.6461038e-39
-0.044254009 -0.13202934 -0.049134228 6.9081702e-39
-0.042244285 -0.1312501 -0.04610059 9.2126966e-39
-0.039793782 -0.1268961 -0.029149983 9.1208541e-39
-0.037798755 -0.12585752 -0.025106642 8.5669559e-39
-0.035934884 -0.12585752 -0.025106642 7.9219354e-39
-0.03407101 -0.12585752 -0.025106642 9.2130161e-39
-0.032207135 -0.12585752 -0.025106642 1.5574163e-38
-0.030438963 -0.1268961 -0.029149983 1.7509227e-38
-0.028479386 -0.12585752 -0.025106642 1.5758605e-38
-0.026615512 -0.12585752 -0.025106642 1.8064934e-38
-0.024751637 -0.12585752 -0.025106642 1.7697947e-38
-0.022887763 -0.12585752 -0.025106642 1.8160359e-38
-0.021023888 -0.12585752 -0.025106642 2.1203538e-38
-0.019120403 -0.12508373 -0.022094224 2.1018795e-38
-0.017193731 -0.1235493 -0.016120408 1.428779e-38
-0.015306513 -0.12250783 -0.012065861 1.0138972e-38
-0.013465504 -0.12250783 -0.012065861 9.6772565e-39
-0.011569371 -0.12020047 -0.0030830838 1.5300094e-38
-0.0097309807 -0.11943097 -8.7354332e-05 2.2951252e-38
-0.007900632 -0.11842094 0.0038448833 2.3506612e-38
-0.0060848361 -0.11763458 0.0069062971 1.8155677e-38
-0.0042770905 -0.11763458 0.0069062971 2.1938946e-38
-0.0024693469 -0.11763458 0.0069062971 2.3508793e-38
-0.00066160131 -0.11763458 0.0069062971 2.3509873e-38
0.001164929 -0.11842094 0.0038448833 2.332548e-38
0.002953887 -0.11763458 0.0069062971 2.3048891e-38
0.0047616316 -0.11763458 0.0069062971 2.3509869e-38
0.0065693762 -0.11763458 0.0069062971 2.3418033e-38
0.0083771208 -0.11763458 0.0069062971 1.7334195e-38
0.010230491 -0.11842094 0.0038448833 1.0603917e-38
0.029559378 -0.11379795 0.021842744 6.7317369e-39
0.031231038 -0.1130126 0.024900224 9.2210189e-39
0.033007234 -0.1130126 0.024900224 1.005078e-38
0.03478343 -0.1130126 0.024900224 8.7600408e-39
0.036559623 -0.1130126 0.024900224 7.8380817e-39
0.038335819 -0.1130126 0.024900224 5.994525e-39
-0.06792289 -0.1375518 -0.06311807 1.2259841e-38
-0.06599237 -0.1375518 -0.06311807 1.1522626e-38
-0.064061843 -0.1375518 -0.06311807 1.1431508e-38
-0.062131319 -0.1375518 -0.06311807 1.2905205e-38
-0.060200799 -0.1375518 -0.06311807 1.391936e-38
-0.058270279 -0.1375518 -0.06311807 1.4010482e-38
-0.056156378 -0.13653107 -0.059171293 1.4471466e-38
-0.054094631 -0.13573201 -0.056081507 1.5023923e-38
-0.052004006 -0.13469382 -0.052067135 1.4378554e-38
-0.049972016 -0.13393532 -0.049134228 1.5576018e-38
-0.048066016 -0.13393532 -0.049134228 8.2925606e-39
-0.046160012 -0.13393532 -0.049134228 6.3560866e-39
-0.044254009 -0.13393532 -0.049134228 5.895463e-39
-0.042244285 -0.13315077 -0.04610059 5.8025401e-39
-0.039793782 -0.12876706 -0.029149983 3.4980025e-39
-0.037798755 -0.12772138 -0.025106642 2.3913102e-39
-0.035934884 -0.12772138 -0.025106642 1.6541151e-39
-0.03407101 -0.12772138 -0.025106642 3.3136112e-39
-0.032207135 -0.12772138 -0.025106642 1.1887428e-38
-0.030438963 -0.12876706 -0.029149983 1.2532825e-38
-0.028479386 -0.12772138 -0.025106642 8.2000048e-39
-0.026615512 -0.12772138 -0.025106642 1.0875117e-38
-0.024751637 -0.12772138 -0.025106642 1.4840245e-38
-0.022837587 -0.12694232 -0.022094224 1.4565452e-38
-0.020978995 -0.12694232 -0.022094224 1.3735691e-38
-0.019120403 -0.12694232 -0.022094224 9.7709277e-39
-0.017193731 -0.1253974 -0.016120408 5.43701e-39
-0.015306513 -0.12434883 -0.012065861 4.1458956e-39
-0.013465504 -0.12434883 -0.012065861 6.8184731e-39
-0.011550986 -0.121251 -8.7354332e-05 1.622169e-38
-0.0097309807 -0.121251 -8.7354332e-05 2.0737481e-38
-0.0078925798 -0.11944233 0.0069062971 1.8338254e-38
-0.0060848361 -0.11944233 0.0069062971 7.1833166e-39
-0.0042770905 -0.11944233 0.0069062971 1.4838802e-38
-0.0024693469 -0.11944233 0.0069062971 2.3506632e-38
-0.00066160131 -0.11944233 0.0069062971 2.3508434e-38
0.0011461424 -0.11944233 0.0069062971 2.350987e-38
0.002953887 -0.11944233 0.0069062971 2.2863778e-38
0.0047616316 -0.11944233 0.0069062971 2.2772661e-38
0.0065693762 -0.11944233 0.0069062971 1.7702618e-38
0.0083771208 -0.11944233 0.0069062971 1.5028944e-38
0.010184865 -0.11944233 0.0069062971 2.129861e-38
0.024474267 -0.11789979 0.012870815 6.8228423e-39
0.026271556 -0.11789979 0.012870815 1.6688499e-38
0.028068844 -0.11789979 0.012870815 2.2865602e-38
0.029559378 -0.1155795 0.021842744 2.2681214e-38
0.031231038 -0.11478879 0.024900224 2.2773408e-38
0.033007234 -0.11478879 0.024900224 2.3142544e-38
0.03478343 -0.11478879 0.024900224 2.3142544e-38
0.036559623 -0.11478879 0.024900224 2.3142544e-38
0.03820527 -0.11400281 0.027939346 2.1852173e-38
0.039577782 -0.11169861 0.036849048 1.8256541e-38
0.041333027 -0.11169861 0.036849048 1.2171628e-38
-0.06792289 -0.1394823 -0.06311807 1.1061295e-38
-0.06599237 -0.1394823 -0.06311807 1.1522626e-38
-0.064061843 -0.1394823 -0.06311807 1.1246038e-38
-0.062131319 -0.1394823 -0.06311807 1.2259836e-38
-0.060200799 -0.1394823 -0.06311807 1.3642773e-38
-0.058270279 -0.1394823 -0.06311807 1.4103396e-38
-0.056156378 -0.13845469 -0.059171293 1.4103402e-38
-0.054094631 -0.13765021 -0.056081507 1.4378914e-38
-0.052004006 -0.13660498 -0.052067135 1.4563307e-38
-0.049972016 -0.13584132 -0.049134228 1.4654784e-38
-0.048066016 -0.13584132 -0.049134228 7.0029036e-39
-0.046160012 -0.13584132 -0.049134228 5.8036345e-39
-0.044254009 -0.13584132 -0.049134228 6.0802172e-39
-0.042244285 -0.13505147 -0.04610059 5.3430053e-39
-0.039793782 -0.13063805 -0.029149983 2.5774923e-39
-0.037798755 -0.12958528 -0.025106642 1.7477443e-39
-0.035934884 -0.12958528 -0.025106642 1.4708029e-39
-0.03407101 -0.12958528 -0.025106642 2.7618808e-39
-0.032207135 -0.12958528 -0.025106642 1.1520096e-38
-0.030343261 -0.12958528 -0.025106642 1.2626107e-38
-0.028479386 -0.12958528 -0.025106642 6.7263167e-39
-0.026554771 -0.12880091 -0.022094224 6.4508088e-39
-0.024696179 -0.12880091 -0.022094224 1.1983623e-38
-0.022837587 -0.12880091 -0.022094224 1.3090323e-38
-0.020934355 -0.12802102 -0.019098852 1.0232259e-38
-0.019081015 -0.12802102 -0.019098852 3.6860161e-39
-0.017193731 -0.12724553 -0.016120408 4.8831174e-39
-0.015306513 -0.12618984 -0.012065861 5.8965336e-39
-0.013465504 -0.12618984 -0.012065861 4.9734843e-39
-0.011526856 -0.12204717 0.0038448833 1.2164366e-38
-0.0097003253 -0.12125005 0.0069062971 1.677235e-38
-0.0078848517 -0.12048493 0.0098449253 1.6309228e-38
-0.00608226 -0.12048493 0.0098449253 6.4453886e-39
-0.0042796666 -0.12048493 0.0098449253 8.1070791e-39
-0.002477075 -0.12048493 0.0098449253 2.2030061e-38
-0.00067448337 -0.12048493 0.0098449253 2.2676511e-38
0.0011281092 -0.12048493 0.0098449253 2.350807e-38
0.0029307017 -0.12048493 0.0098449253 2.3509869e-38
0.0047332933 -0.12048493 0.0098449253 1.6225329e-38
0.0065358859 -0.12048493 0.0098449253 5.8075834e-39
0.0083384775 -0.12048493 0.0098449253 1.8992637e-38
0.010184865 -0.12125005 0.0069062971 2.0283739e-38
0.022676982 -0.11969708 0.012870815 8.1132126e-39
0.024474267 -0.11969708 0.012870815 1.1801043e-38
0.026271556 -0.11969708 0.012870815 2.0283406e-38
0.028068844 -0.11969708 0.012870815 2.341805e-38
0.02966103 -0.11813517 0.018869665 2.3233303e-38
0.031340934 -0.11736105 0.021842744 2.295672e-38
0.033122491 -0.11736105 0.021842744 2.3234379e-38
0.03478343 -0.11656497 0.024900224 2.3142185e-38
0.036559623 -0.11656497 0.024900224 2.2865602e-38
0.037950795 -0.11423124 0.033863332 2.3142544e-38
0.039577782 -0.11345388 0.036849048 2.1483388e-38
0.041333027 -0.11345388 0.036849048 1.678141e-38
0.043088272 -0.11345388 0.036849048 1.1895397e-38
0.044843517 -0.11345388 0.036849048 1.0513539e-38
-0.06599237 -0.14141284 -0.06311807 1.1061648e-38
-0.064061843 -0.14141284 -0.06311807 1.0508475e-38
-0.062131319 -0.14141284 -0.06311807 1.0969097e-38
-0.060200799 -0.14141284 -0.06311807 1.2259838e-38
-0.058270279 -0.14141284 -0.06311807 1.2997049e-38
-0.056156378 -0.14037828 -0.059171293 1.2536076e-38
-0.054094631 -0.13956837 -0.056081507 1.2627917e-38
-0.051878016 -0.13774733 -0.049134228 1.3365482e-38
-0.049847018 -0.13695215 -0.04610059 1.3088177e-38
-0.047946338 -0.13695215 -0.04610059 5.4359394e-39
-0.046045654 -0.13695215 -0.04610059 3.7767726e-39
-0.044144969 -0.13695215 -0.04610059 4.237748e-39
-0.04200713 -0.13513394 -0.039164159 4.1459069e-39
-0.039793782 -0.13250901 -0.029149983 1.8413734e-39
-0.037798755 -0.13144915 -0.025106642 9.1943116e-40
-0.035934884 -0.13144915 -0.025106642 6.4320721e-40
-0.034180891 -0.13250901 -0.029149983 3.6849119e-39
-0.032309931 -0.13250901 -0.029149983 1.1429711e-38
-0.030343261 -0.13144915 -0.025106642 1.3273639e-38
-0.028479386 -0.13144915 -0.025106642 7.003984e-39
-0.026554771 -0.13065951 -0.022094224 3.6734198e-40
-0.024696179 -0.13065951 -0.022094224 1.0127072e-39
-0.022837587 -0.13065951 -0.022094224 9.2086609e-40
-0.020934355 -0.12987436 -0.019098852 2.7550649e-40
-0.019081015 -0.12987436 -0.019098852 1.473321e-39
-0.017193731 -0.12909363 -0.016120408 1.7484632e-39
-0.015345612 -0.12909363 -0.016120408 2.9459161e-39
-0.013370994 -0.124891 -8.7354332e-05 2.8529988e-39
-0.011526856 -0.12386028 0.0038448833 1.1056587e-38
-0.0097003253 -0.1230578 0.0069062971 1.4558579e-38
-0.0078848517 -0.12228753 0.0098449253 1.1606532e-38
-0.00608226 -0.12228753 0.0098449253 2.8490528e-39
-0.0042796666 -0.12228753 0.0098449253 2.1132926e-39
-0.002477075 -0.12228753 0.0098449253 1.0101905e-39
-0.00067448337 -0.12228753 0.0098449253 5.4344877e-39
0.0011281092 -0.12228753 0.0098449253 7.1865648e-39
0.0029307017 -0.12228753 0.0098449253 5.0678604e-39
0.0047332933 -0.12228753 0.0098449253 2.7636885e-39
0.0065358859 -0.12228753 0.0098449253 9.863831e-39
0.0083384775 -0.12228753 0.0098449253 2.3509144e-38
0.010184865 -0.1230578 0.0069062971 2.2219487e-38
0.022676982 -0.12149437 0.012870815 1.807106e-38
0.024474267 -0.12149437 0.012870815 2.2864519e-38
0.026271556 -0.12149437 0.012870815 2.3509886e-38
0.028068844 -0.12149437 0.012870815 2.3509527e-38
0.029559378 -0.11914261 0.021842744 2.2680492e-38
0.031340934 -0.11914261 0.021842744 2.3325856e-38
0.033122491 -0.11914261 0.021842744 2.3417691e-38
0.03478343 -0.11834116 0.024900224 2.3417691e-38
0.036559623 -0.11834116 0.024900224 2.3234379e-38
0.037950795 -0.11599173 0.033863332 2.3234379e-38
0.039577782 -0.11520912 0.036849048 2.2774125e-38
0.041333027 -0.11520912 0.036849048 2.2774125e-38
0.043088272 -0.11520912 0.036849048 2.3050708e-38
0.044843517 -0.11520912 0.036849048 2.1669213e-38
0.046598762 -0.11520912 0.036849048 1.5215516e-38
-0.064061843 -0.14334334 -0.06311807 1.1430431e-38
-0.061927181 -0.14230187 -0.059171293 1.1153488e-38
-0.060003575 -0.14230187 -0.059171293 1.1706667e-38
-0.058079977 -0.14230187 -0.059171293 1.2351682e-38
-0.056156378 -0.14230187 -0.059171293 1.2075098e-38
-0.054094631 -0.14148657 -0.056081507 1.1982548e-38
-0.051878016 -0.13965334 -0.049134228 1.2536445e-38
-0.049847018 -0.13885282 -0.04610059 1.308854e-38
-0.047946338 -0.13885282 -0.04610059 5.9898321e-39
-0.046045654 -0.13885282 -0.04610059 3.4083544e-39
-0.044003297 -0.13781275 -0.042159054 2.5789483e-39
-0.041870188 -0.13596557 -0.035158847 2.6711411e-39
-0.039793782 -0.13437997 -0.029149983 1.0119841e-39
-0.037798755 -0.13331302 -0.025106642 8.2759566e-40
-0.035934884 -0.13331302 -0.025106642 1.1041783e-39
-0.034180891 -0.13437997 -0.029149983 3.8711122e-39
-0.032309931 -0.13437997 -0.029149983 1.0232258e-38
-0.030343261 -0.13331302 -0.025106642 1.1154584e-38
-0.028479386 -0.13331302 -0.025106642 6.2678609e-39
-0.026554771 -0.1325181 -0.022094224 9.1835496e-41
-0.024696179 -0.1325181 -0.022094224 9.1835496e-41
-0.022787694 -0.13172771 -0.019098852 3.6841818e-40
-0.020934355 -0.13172771 -0.019098852 1.2896486e-39
-0.019041847 -0.13094176 -0.016120408 1.1967341e-39
-0.017079487 -0.1282966 -0.0060962178 1.0109079e-39
-0.015191001 -0.126711 -8.7354332e-05 3.1299473e-39
-0.013370994 -0.126711 -8.7354332e-05 2.9444756e-39
-0.011526856 -0.1256734 0.0038448833 8.290006e-39
-0.0097137438 -0.1256734 0.0038448833 9.580019e-39
-0.0078848517 -0.12409012 0.0098449253 6.0751501e-39
-0.00608226 -0.12409012 0.0098449253 2.3877229e-39
-0.0042796666 -0.12409012 0.0098449253 1.6530389e-39
-0.0024850341 -0.12329166 0.012870815 1.2856969e-39
-0.0006877454 -0.12329166 0.012870815 2.5753414e-39
0.0011281092 -0.12409012 0.0098449253 1.6544739e-39
0.0029068273 -0.12329166 0.012870815 4.1444649e-39
0.004704114 -0.12329166 0.012870815 4.9749459e-39
0.0065358859 -0.12409012 0.0098449253 1.2997403e-38
0.0083384775 -0.12409012 0.0098449253 2.2218045e-38
0.01014107 -0.12409012 0.0098449253 2.0374496e-38
0.013690547 -0.12329166 0.012870815 4.0573098e-39
0.015487834 -0.12329166 0.012870815 3.5966946e-39
0.01728512 -0.12329166 0.012870815 3.7818117e-39
0.019154031 -0.12409012 0.0098449253 4.9803563e-39
0.020956624 -0.12409012 0.0098449253 8.3915946e-39
0.022676982 -0.12329166 0.012870815 2.3234376e-38
0.024474267 -0.12329166 0.012870815 2.3509886e-38
0.026271556 -0.12329166 0.012870815 2.3324775e-38
0.027874261 -0.12170871 0.018869665 2.3140387e-38
0.029559378 -0.12092416 0.021842744 2.3509886e-38
0.031340934 -0.12092416 0.021842744 2.3509527e-38
0.033122491 -0.12092416 0.021842744 2.3233662e-38
0.03478343 -0.12011738 0.024900224 2.2680492e-38
0.036559623 -0.12011738 0.024900224 2.2773408e-38
0.03820527 -0.11931543 0.027939346 2.2404625e-38
0.03984556 -0.11854477 0.030859854 2.3142185e-38
0.041471753 -0.11775221 0.033863332 2.3142544e-38
0.043088272 -0.11696436 0.036849048 2.2774125e-38
0.044843517 -0.11696436 0.036849048 2.2958873e-38
0.046598762 -0.11696436 0.036849048 2.1208232e-38
-0.061927181 -0.14422549 -0.059171293 1.1522273e-38
-0.060003575 -0.14422549 -0.059171293 1.0969102e-38
-0.058079977 -0.14422549 -0.059171293 1.133753e-38
-0.056156378 -0.14422549 -0.059171293 1.1152786e-38
-0.054094631 -0.14340474 -0.056081507 1.0692532e-38
-0.051878016 -0.14155935 -0.049134228 1.0969119e-38
-0.049847018 -0.14075352 -0.04610059 1.1245706e-38
-0.047946338 -0.14075352 -0.04610059 5.0685988e-39
-0.046045654 -0.14075352 -0.04610059 2.3027299e-39
-0.044003297 -0.13970654 -0.042159054 3.6734198e-40
-0.041870188 -0.13784705 -0.035158847 5.5137171e-40
-0.039793782 -0.13625093 -0.029149983 2.7550649e-40
-0.037922818 -0.13625093 -0.029149983 1.3814813e-39
-0.036051854 -0.13625093 -0.029149983 3.225754e-39
-0.034180891 -0.13625093 -0.029149983 3.7789306e-39
-0.032309931 -0.13625093 -0.029149983 9.1270002e-39
-0.030343261 -0.13517688 -0.025106642 8.2972438e-39
-0.028479386 -0.13517688 -0.025106642 4.0566077e-39
-0.026554771 -0.13437669 -0.022094224 1.8439126e-40
-0.024641033 -0.13358103 -0.019098852 3.6877972e-40
-0.022787694 -0.13358103 -0.019098852 9.1835496e-41
-0.020934355 -0.13358103 -0.019098852 1.8402972e-40
-0.018988531 -0.13171287 -0.012065861 6.4356594e-40
-0.017011005 -0.12853102 -8.7354332e-05 7.3468397e-40
-0.015153081 -0.12748651 0.0038448833 2.3920277e-39
-0.013339967 -0.12748651 0.0038448833 1.2856969e-39
-0.011526856 -0.12748651 0.0038448833 7.1833068e-39
-0.0097137438 -0.12748651 0.0038448833 1.0962603e-38
-0.0078925798 -0.1266733 0.0069062971 6.5357723e-39
-0.00608226 -0.12589271 0.0098449253 2.2040519e-39
-0.0042796666 -0.12589271 0.0098449253 2.1125751e-39
-0.0024850341 -0.12508895 0.012870815 4.0501113e-39
-0.0006877454 -0.12508895 0.012870815 4.4192539e-39
0.0011095405 -0.12508895 0.012870815 5.8021884e-39
0.0029068273 -0.12508895 0.012870815 6.4486368e-39
0.004704114 -0.12508895 0.012870815 9.4925317e-39
0.0065014008 -0.12508895 0.012870815 1.6776705e-38
0.0082986876 -0.12508895 0.012870815 2.0280861e-38
0.010095974 -0.12508895 0.012870815 2.0650364e-38
0.01189326 -0.12508895 0.012870815 4.0565909e-39
0.013690547 -0.12508895 0.012870815 3.68853e-39
0.015487834 -0.12508895 0.012870815 7.4689138e-39
0.01728512 -0.12508895 0.012870815 3.1364437e-39
0.019082408 -0.12508895 0.012870815 1.1711e-38
0.020879693 -0.12508895 0.012870815 1.7150542e-38
0.022676982 -0.12508895 0.012870815 2.2313137e-38
0.024474267 -0.12508895 0.012870815 2.3509883e-38
0.026179254 -0.12428986 0.015879061 2.3417327e-38
0.027777825 -0.12270571 0.021842744 2.3509883e-38
0.029559378 -0.12270571 0.021842744 2.3509527e-38
0.031340934 -0.12270571 0.021842744 2.3509886e-38
0.033007234 -0.12189357 0.024900224 2.3509527e-38
0.03478343 -0.12189357 0.024900224 2.3509527e-38
0.036559623 -0.12189357 0.024900224 2.3325856e-38
0.03820527 -0.12108628 0.027939346 2.341805e-38
0.03984556 -0.1203105 0.030859854 2.3234379e-38
0.041471753 -0.11951269 0.033863332 2.3234379e-38
0.043088272 -0.11871959 0.036849048 2.2589734e-38
0.044843517 -0.11871959 0.036849048 2.3142544e-38
0.046598762 -0.11871959 0.036849048 2.2498973e-38
0.048354007 -0.11871959 0.036849048 2.295887e-38
-0.062131319 -0.14720438 -0.06311807 1.207617e-38
-0.060200799 -0.14720438 -0.06311807 1.1246411e-38
-0.058270279 -0.14720438 -0.06311807 1.1522645e-38
-0.056156378 -0.14614908 -0.059171293 1.0508496e-38
-0.054232772 -0.14614908 -0.059171293 9.6783803e-39
-0.052004006 -0.14424954 -0.052067135 1.0508144e-38
-0.049847018 -0.1426542 -0.04610059 1.0324471e-38
-0.047946338 -0.1426542 -0.04610059 4.9771249e-39
-0.046045654 -0.1426542 -0.04610059 2.7644298e-39
-0.043895651 -0.14079951 -0.039164159 1.8402972e-40
-0.041870188 -0.13972856 -0.035158847 2.7550649e-40
-0.039793782 -0.13812189 -0.029149983 7.371993e-40
-0.037922818 -0.13812189 -0.029149983 2.7550649e-40
-0.036051854 -0.13812189 -0.029149983 2.2123294e-39
-0.034180891 -0.13812189 -0.029149983 5.5317378e-39
-0.032309931 -0.13812189 -0.029149983 6.0856304e-39
-0.030343261 -0.13704078 -0.025106642 6.3622173e-39
-0.028479386 -0.13704078 -0.025106642 4.241715e-39
-0.026554771 -0.13623528 -0.022094224 8.3047953e-40
-0.024641033 -0.13543437 -0.019098852 3.5873241e-43
-0.022621591 -0.13276802 -0.0091267563 0
-0.020785738 -0.13276802 -0.0091267563 9.1835496e-41
-0.018910032 -0.13195769 -0.0060962178 5.5137171e-40
-0.017011005 -0.13035102 -8.7354332e-05 1.1038196e-39
-0.015153081 -0.1292996 0.0038448833 1.0101905e-39
-0.013339967 -0.1292996 0.0038448833 1.8381449e-39
-0.011526856 -0.1292996 0.0038448833 6.4457515e-39
-0.0097137438 -0.1292996 0.0038448833 8.0116325e-39
-0.0078925798 -0.12848105 0.0069062971 4.0465015e-39
-0.00608226 -0.12769531 0.0098449253 1.9285454e-39
-0.0042796666 -0.12769531 0.0098449253 1.8367099e-39
-0.002477075 -0.12769531 0.0098449253 4.0497554e-39
-0.0006877454 -0.12688623 0.012870815 4.6958436e-39
0.0011095405 -0.12688623 0.012870815 2.6675398e-39
0.0029068273 -0.12688623 0.012870815 4.2359445e-39
0.004704114 -0.12688623 0.012870815 1.2441716e-38
0.0065014008 -0.12688623 0.012870815 1.8435511e-38
0.0082986876 -0.12688623 0.012870815 1.8252557e-38
0.010051141 -0.12608187 0.015879061 1.253715e-38
0.011843153 -0.12608187 0.015879061 3.4112243e-39
0.013635165 -0.12608187 0.015879061 4.7945217e-39
0.015427179 -0.12608187 0.015879061 4.9796346e-39
0.01721919 -0.12608187 0.015879061 3.6896175e-39
0.019082408 -0.12688623 0.012870815 1.8994455e-38
0.020879693 -0.12688623 0.012870815 2.23135e-38
0.022595227 -0.12608187 0.015879061 2.295887e-38
0.02438724 -0.12608187 0.015879061 2.350988e-38
0.025996268 -0.1244873 0.021842744 2.350988e-38
0.027777825 -0.1244873 0.021842744 2.3509883e-38
0.029454842 -0.12366976 0.024900224 2.3509527e-38
0.031231038 -0.12366976 0.024900224 2.3509527e-38
0.033007234 -0.12366976 0.024900224 2.3509886e-38
0.03478343 -0.12366976 0.024900224 2.3509527e-38
0.036314066 -0.12207626 0.030859854 2.341805e-38
0.038079813 -0.12207626 0.030859854 2.341805e-38
0.03984556 -0.12207626 0.030859854 2.2403904e-38
0.041471753 -0.12127317 0.033863332 2.341805e-38
0.043232232 -0.12127317 0.033863332 2.3234379e-38
0.044992715 -0.12127317 0.033863332 2.3234379e-38
0.046598762 -0.12047486 0.036849048 2.2866677e-38
0.048354007 -0.12047486 0.036849048 2.3234379e-38
0.050109252 -0.12047486 0.036849048 2.2682283e-38
-0.058270279 -0.14913492 -0.06311807 1.0139713e-38
-0.056339759 -0.14913492 -0.06311807 1.0692888e-38
-0.054409232 -0.14913492 -0.06311807 1.0323753e-38
-0.052478712 -0.14913492 -0.06311807 9.8627772e-39
-0.050548192 -0.14913492 -0.06311807 1.0600702e-38
-0.048617672 -0.14913492 -0.06311807 5.714334e-39
-0.045784172 -0.14268802 -0.039164159 2.9495441e-39
-0.043895651 -0.14268802 -0.039164159 2.7586802e-40
-0.041765243 -0.14078392 -0.032089327 9.1835496e-41
-0.039793782 -0.13999285 -0.029149983 7.372021e-40
-0.037798755 -0.13890465 -0.025106642 9.1835496e-41
-0.035934884 -0.13890465 -0.025106642 1.1985432e-39
-0.034180891 -0.13999285 -0.029149983 7.0064923e-45
-0.032309931 -0.13999285 -0.029149983 9.256277e-41
-0.030343261 -0.13890465 -0.025106642 9.2339543e-40
-0.028479386 -0.13890465 -0.025106642 8.3155573e-40
-0.026554771 -0.13809387 -0.022094224 7.1746481e-43
-0.024641033 -0.13728772 -0.019098852 1.8511013e-40
-0.022621591 -0.13460387 -0.0091267563 8.2976067e-40
-0.020740572 -0.13378824 -0.0060962178 6.4500647e-40
-0.018870406 -0.13297729 -0.0030830838 5.5208917e-40
-0.017011005 -0.13217102 -8.7354332e-05 1.1960138e-39
-0.015153081 -0.13111271 0.0038448833 1.0105492e-39
-0.013339967 -0.13111271 0.0038448833 1.9299803e-39
-0.011526856 -0.13111271 0.0038448833 5.8933078e-39
-0.0097137438 -0.13111271 0.0038448833 7.459186e-39
-0.007900632 -0.13111271 0.0038448833 4.139772e-39
-0.0060848361 -0.13028879 0.0069062971 2.2969636e-39
-0.0042770905 -0.13028879 0.0069062971 1.4693679e-39
-0.002477075 -0.1294979 0.0098449253 3.1281634e-39
-0.0006877454 -0.12868352 0.012870815 2.8526527e-39
0.0011095405 -0.12868352 0.012870815 1.3775324e-39
0.0029068273 -0.12868352 0.012870815 3.8668046e-39
0.004704114 -0.12868352 0.012870815 1.0413413e-38
0.006467117 -0.12787388 0.015879061 1.3825731e-38
0.0082591288 -0.12787388 0.015879061 1.2536071e-38
0.010006571 -0.12706901 0.018869665 9.1259142e-39
0.011793341 -0.12706901 0.018869665 4.3321044e-39
0.013635165 -0.12787388 0.015879061 5.1625881e-39
0.015427179 -0.12787388 0.015879061 6.3622117e-39
0.01721919 -0.12787388 0.015879061 8.1150105e-39
0.018870041 -0.12626885 0.021842744 2.2221305e-38
0.020651598 -0.12626885 0.021842744 2.3142544e-38
0.022433154 -0.12626885 0.021842744 2.3142544e-38
0.024214711 -0.12626885 0.021842744 2.350988e-38
0.025996268 -0.12626885 0.021842744 2.3509879e-38
0.02767865 -0.12544595 0.024900224 2.350988e-38
0.029350936 -0.12462802 0.027939346 2.3509883e-38
0.031121802 -0.12462802 0.027939346 2.3509527e-38
0.03289267 -0.12462802 0.027939346 2.3509527e-38
0.034548324 -0.12384202 0.030859854 2.3509886e-38
0.036314066 -0.12384202 0.030859854 2.3509527e-38
0.038079813 -0.12384202 0.030859854 2.3509527e-38
0.039711274 -0.12303366 0.033863332 2.341805e-38
0.041471753 -0.12303366 0.033863332 2.3509527e-38
0.043088272 -0.1222301 0.036849048 2.2680488e-38
0.044843517 -0.1222301 0.036849048 2.3141466e-38
0.046598762 -0.1222301 0.036849048 2.341805e-38
0.048190016 -0.12140475 0.039915647 2.2865235e-38
0.049939886 -0.12140475 0.039915647 1.7795552e-38
0.051689751 -0.12140475 0.039915647 1.7334573e-38
0.053439621 -0.12140475 0.039915647 1.668992e-38
0.055374987 -0.1222301 0.036849048 1.8717508e-38
-0.045784172 -0.14457656 -0.039164159 3.7782286e-39
-0.043895651 -0.14457656 -0.039164159 9.2016124e-40
-0.041765243 -0.14266007 -0.032089327 2.7550929e-40
-0.039889123 -0.14266007 -0.032089327 9.2051717e-40
-0.037798755 -0.14076851 -0.025106642 9.1835496e-41
-0.035934884 -0.14076851 -0.025106642 2.8025969e-45
-0.034180891 -0.14186381 -0.029149983 1.5414283e-44
-0.032309931 -0.14186381 -0.029149983 1.2611686e-44
-0.030343261 -0.14076851 -0.025106642 1.0761972e-42
-0.028479386 -0.14076851 -0.025106642 9.3987891e-41
-0.026554771 -0.13995247 -0.022094224 9.2911693e-41
-0.024641033 -0.13914107 -0.019098852 4.6169702e-40
-0.022621591 -0.13643973 -0.0091267563 5.5317658e-40
-0.020740572 -0.13561879 -0.0060962178 9.1835496e-41
-0.018870406 -0.13480256 -0.0030830838 3.6770072e-40
-0.017011005 -0.13399105 -8.7354332e-05 7.361189e-40
-0.015153081 -0.13292582 0.0038448833 9.1871369e-40
-0.013339967 -0.13292582 0.0038448833 1.4693679e-39
-0.011508069 -0.13209651 0.0069062971 4.7869715e-39
-0.0097003253 -0.13209651 0.0069062971 6.261733e-39
-0.0078925798 -0.13209651 0.0069062971 3.7724342e-39
-0.00608226 -0.13130049 0.0098449253 2.5746225e-39
-0.0042796666 -0.13130049 0.0098449253 1.7463094e-39
-0.0024850341 -0.13048081 0.012870815 2.9462931e-39
-0.0006877454 -0.13048081 0.012870815 2.3920403e-39
0.0011095405 -0.13048081 0.012870815 7.3468397e-40
0.0028830916 -0.1296659 0.015879061 2.4853121e-39
0.0046751043 -0.1296659 0.015879061 5.8043548e-39
0.006467117 -0.1296659 0.015879061 6.3582474e-39
0.0082591288 -0.1296659 0.015879061 4.9760347e-39
0.010006571 -0.12885578 0.018869665 3.5016249e-39
0.011793341 -0.12885578 0.018869665 3.2257596e-39
0.013580109 -0.12885578 0.018869665 3.2264799e-39
0.015427179 -0.1296659 0.015879061 5.9930691e-39
0.017153647 -0.12885578 0.018869665 1.1340779e-38
0.018870041 -0.1280504 0.021842744 2.3142544e-38
0.020651598 -0.1280504 0.021842744 2.3142544e-38
0.022433154 -0.1280504 0.021842744 2.3142544e-38
0.024214711 -0.1280504 0.021842744 2.3418045e-38
0.025809202 -0.12639888 0.027939346 2.3509879e-38
0.027580071 -0.12639888 0.027939346 2.350988e-38
0.029251084 -0.12560774 0.030859854 2.3509883e-38
0.03101683 -0.12560774 0.030859854 2.3509886e-38
0.032782577 -0.12560774 0.030859854 2.3509886e-38
0.034429833 -0.12479414 0.033863332 2.3509886e-38
0.036190316 -0.12479414 0.033863332 2.3509886e-38
0.037950795 -0.12479414 0.033863332 2.2495736e-38
0.039711274 -0.12479414 0.033863332 2.3325497e-38
0.041333027 -0.12398534 0.036849048 2.3509527e-38
0.043088272 -0.12398534 0.036849048 2.3233302e-38
0.044843517 -0.12398534 0.036849048 2.3509886e-38
0.046598762 -0.12398534 0.036849048 2.2772321e-38
0.048190016 -0.12315463 0.039915647 2.1850364e-38
0.049939886 -0.12315463 0.039915647 1.6595211e-38
0.051689751 -0.12315463 0.039915647 1.4845289e-38
0.053619742 -0.12398534 0.036849048 1.604383e-38
0.055374987 -0.12398534 0.036849048 1.8439839e-38
-0.047672693 -0.14646508 -0.039164159 6.4519018e-39
-0.045784172 -0.14646508 -0.039164159 4.3314023e-39
-0.043895651 -0.14646508 -0.039164159 1.1045553e-39
-0.041765243 -0.14453618 -0.032089327 2.7551209e-40
-0.039889123 -0.14453618 -0.032089327 7.3576998e-40
-0.038013007 -0.14453618 -0.032089327 2.7550929e-40
-0.036136892 -0.14453618 -0.032089327 9.1842503e-41
-0.03407101 -0.14263238 -0.025106642 6.4466876e-40
-0.032207135 -0.14263238 -0.025106642 1.5414283e-44
-0.030343261 -0.14263238 -0.025106642 3.5873241e-43
-0.028479386 -0.14263238 -0.025106642 7.1746481e-43
-0.026554771 -0.14181106 -0.022094224 3.5873241e-43
-0.024641033 -0.14099441 -0.019098852 9.2911693e-41
-0.022621591 -0.13827558 -0.0091267563 3.6842939e-40
-0.020740572 -0.13744931 -0.0060962178 2.8025969e-45
-0.018870406 -0.13662781 -0.0030830838 9.1835496e-41
-0.017011005 -0.13581105 -8.7354332e-05 3.6734198e-40
-0.015153081 -0.13473894 0.0038448833 8.2651947e-40
-0.013339967 -0.13473894 0.0038448833 7.3468397e-40
-0.011508069 -0.13390426 0.0069062971 3.0363447e-39
-0.0097003253 -0.13390426 0.0069062971 4.5107461e-39
-0.0078925798 -0.13390426 0.0069062971 2.8515653e-39
-0.00608226 -0.13310309 0.0098449253 2.299116e-39
-0.0042796666 -0.13310309 0.0098449253 1.3789674e-39
-0.0024850341 -0.1322781 0.012870815 3.1317675e-39
-0.0006877454 -0.1322781 0.012870815 2.6700705e-39
0.0011095405 -0.1322781 0.012870815 1.0105492e-39
0.0028830916 -0.13145791 0.015879061 1.1034623e-39
0.0046751043 -0.13145791 0.015879061 1.4722448e-39
0.006467117 -0.13145791 0.015879061 9.1907243e-40
0.0082198028 -0.13064255 0.018869665 9.1907243e-40
0.0099622626 -0.12983195 0.021842744 3.6734198e-40
0.011743818 -0.12983195 0.021842744 1.1967383e-39
0.013580109 -0.13064255 0.018869665 8.2831593e-40
0.015366877 -0.13064255 0.018869665 5.3469836e-39
0.017153647 -0.13064255 0.018869665 1.1617368e-38
0.018870041 -0.12983195 0.021842744 2.3050349e-38
0.020651598 -0.12983195 0.021842744 2.2958155e-38
0.022433154 -0.12983195 0.021842744 2.2773763e-38
0.024214711 -0.12983195 0.021842744 2.3418045e-38
0.025809202 -0.12816976 0.027939346 2.3509879e-38
0.027485337 -0.1273735 0.030859854 2.350988e-38
0.029251084 -0.1273735 0.030859854 2.3509883e-38
0.03101683 -0.1273735 0.030859854 2.3509886e-38
0.032782577 -0.1273735 0.030859854 2.3509886e-38
0.034429833 -0.12655462 0.033863332 2.3417691e-38
0.036067292 -0.12574057 0.036849048 2.3417691e-38
0.037822537 -0.12574057 0.036849048 2.3509527e-38
0.039577782 -0.12574057 0.036849048 2.3509168e-38
0.041333027 -0.12574057 0.036849048 2.3509527e-38
0.043088272 -0.12574057 0.036849048 2.3509527e-38
0.044843517 -0.12574057 0.036849048 2.3509527e-38
0.046598762 -0.12574057 0.036849048 1.7792315e-38
0.048190016 -0.1249045 0.039915647 1.7239141e-38
0.049939886 -0.1249045 0.039915647 1.5027522e-38
0.051689751 -0.1249045 0.039915647 1.6411535e-38
0.053619742 -0.12574057 0.036849048 1.7242374e-38
0.055374987 -0.12574057 0.036849048 1.7702632e-38
0.058811061 -0.13310309 0.0098449253 1.4383589e-38
0.060420007 -0.1322781 0.012870815 1.4106283e-38
-0.045784172 -0.14835359 -0.039164159 4.9760543e-39
-0.043895651 -0.14835359 -0.039164159 1.7492058e-39
-0.041870188 -0.14725454 -0.035158847 3.6734759e-40
-0.039988689 -0.14725454 -0.035158847 8.2760547e-40
-0.03810719 -0.14725454 -0.035158847 9.198011e-40
-0.036051854 -0.14560573 -0.029149983 1.0123611e-39
-0.03407101 -0.14449625 -0.025106642 1.8369481e-40
-0.032207135 -0.14449625 -0.025106642 1.6815582e-44
-0.030343261 -0.14449625 -0.025106642 3.5873241e-43
-0.028479386 -0.14449625 -0.025106642 9.2911693e-41
-0.026554771 -0.14366965 -0.022094224 3.5873241e-43
-0.024641033 -0.14284773 -0.019098852 0
-0.022738084 -0.14203046 -0.016120408 1.8403813e-40
-0.020785738 -0.14011143 -0.0091267563 2.8025969e-45
-0.018870406 -0.13845308 -0.0030830838 9.1835496e-41
-0.017011005 -0.13763104 -8.7354332e-05 2.7550649e-40
-0.015153081 -0.13655205 0.0038448833 7.3468677e-40
-0.013339967 -0.13655205 0.0038448833 6.4285408e-40
-0.011508069 -0.13571201 0.0069062971 1.5623049e-39
-0.0097003253 -0.13571201 0.0069062971 2.8523164e-39
-0.0078925798 -0.13571201 0.0069062971 1.9310565e-39
-0.00608226 -0.13490568 0.0098449253 1.5637146e-39
-0.0042796666 -0.13490568 0.0098449253 3.6734198e-40
-0.002477075 -0.13490568 0.0098449253 1.474414e-39
-0.0006877454 -0.13407536 0.012870815 1.4736909e-39
0.0011095405 -0.13407536 0.012870815 4.5953902e-40
0.0028830916 -0.13324992 0.015879061 4.5917748e-40
0.0046462649 -0.13242932 0.018869665 3.6734198e-40
0.0064330334 -0.13242932 0.018869665 3.6734198e-40
0.0082198028 -0.13242932 0.018869665 6.4356594e-40
0.0099622626 -0.13161351 0.021842744 3.6734198e-40
0.011743818 -0.13161351 0.021842744 3.6734198e-40
0.013580109 -0.13242932 0.018869665 3.6734198e-40
0.015366877 -0.13242932 0.018869665 6.4529752e-39
0.017088488 -0.13161351 0.021842744 1.2077628e-38
0.018870041 -0.13161351 0.021842744 2.2680488e-38
0.020573866 -0.13077454 0.024900224 2.341805e-38
0.022350062 -0.13077454 0.024900224 2.341805e-38
0.024038337 -0.12994061 0.027939346 2.3418047e-38
0.02571959 -0.12913923 0.030859854 2.3418045e-38
0.027485337 -0.12913923 0.030859854 2.3418047e-38
0.029148396 -0.12831511 0.033863332 2.3418047e-38
0.030908875 -0.12831511 0.033863332 2.3509886e-38
0.032669354 -0.12831511 0.033863332 2.341769e-38
0.034429833 -0.12831511 0.033863332 2.3509168e-38
0.036067292 -0.12749584 0.036849048 2.3509168e-38
0.037822537 -0.12749584 0.036849048 2.3509527e-38
0.039577782 -0.12749584 0.036849048 2.3324055e-38
0.041333027 -0.12749584 0.036849048 2.3508807e-38
0.043088272 -0.12749584 0.036849048 2.2678683e-38
0.044843517 -0.12749584 0.036849048 2.2585769e-38
0.046598762 -0.12749584 0.036849048 1.6869995e-38
0.048190016 -0.12665437 0.039915647 1.7146582e-38
0.049939886 -0.12665437 0.039915647 1.613279e-38
0.051864497 -0.12749584 0.036849048 1.5304828e-38
0.053795114 -0.12831511 0.033863332 1.6134948e-38
0.055737272 -0.12913923 0.030859854 1.6134588e-38
0.058811061 -0.13490568 0.0098449253 1.484385e-38
0.060420007 -0.13407536 0.012870815 1.5119718e-38
0.062217288 -0.13407536 0.012870815 1.2538239e-38
0.064014576 -0.13407536 0.012870815 1.2260931e-38
-0.043751687 -0.14913605 -0.035158847 3.7775111e-39
-0.041870188 -0.14913605 -0.035158847 2.3945752e-39
-0.039988689 -0.14913605 -0.035158847 1.9325181e-39
-0.03810719 -0.14913605 -0.035158847 1.195309e-39
-0.036051854 -0.14747669 -0.029149983 3.6735179e-40
-0.034180891 -0.14747669 -0.029149983 2.7553171e-40
-0.032207135 -0.14636014 -0.025106642 1.6815582e-44
-0.030343261 -0.14636014 -0.025106642 5.5352551e-40
-0.028479386 -0.14636014 -0.025106642 7.3827129e-40
-0.026554771 -0.14552824 -0.022094224 3.5873241e-43
-0.024696179 -0.14552824 -0.022094224 0
-0.022738084 -0.14387859 -0.016120408 5.6051939e-45
-0.020785738 -0.14194728 -0.0091267563 5.6051939e-45
-0.018870406 -0.14027832 -0.0030830838 2.7622395e-40
-0.017011005 -0.13945107 -8.7354332e-05 2.7550649e-40
-0.015153081 -0.13836516 0.0038448833 7.3540984e-40
-0.013339967 -0.13836516 0.0038448833 5.5102279e-40
-0.011508069 -0.13751976 0.0069062971 8.2654189e-40
-0.0097003253 -0.13751976 0.0069062971 1.747415e-39
-0.0078925798 -0.13751976 0.0069062971 1.2867731e-39
-0.0060848361 -0.13751976 0.0069062971 1.1038196e-39
-0.0042796666 -0.13670824 0.0098449253 9.1835496e-41
-0.002477075 -0.13670824 0.0098449253 9.2561369e-41
-0.0006877454 -0.13587265 0.012870815 5.6051939e-45
0.0011095405 -0.13587265 0.012870815 2.8025969e-45
0.0028830916 -0.13504194 0.015879061 1.8367239e-40
0.0046462649 -0.13421609 0.018869665 3.6734339e-40
0.0064330334 -0.13421609 0.018869665 2.7550649e-40
0.0082198028 -0.13421609 0.018869665 6.4320861e-40
0.0099622626 -0.13339506 0.021842744 8.2759987e-40
0.011743818 -0.13339506 0.021842744 3.6734198e-40
0.013525375 -0.13339506 0.021842744 7.3612591e-40
0.01530693 -0.13339506 0.021842744 7.3742113e-39
0.017088488 -0.13339506 0.021842744 1.2445694e-38
0.018797673 -0.13255073 0.024900224 2.2956715e-38
0.020573866 -0.13255073 0.024900224 2.3509527e-38
0.022350062 -0.13255073 0.024900224 2.341805e-38
0.024038337 -0.1317115 0.027939346 2.3234015e-38
0.02571959 -0.13090499 0.030859854 2.3234012e-38
0.027387917 -0.13007559 0.033863332 2.332621e-38
0.029148396 -0.13007559 0.033863332 2.332621e-38
0.030908875 -0.13007559 0.033863332 2.341769e-38
0.032669354 -0.13007559 0.033863332 2.3509886e-38
0.034312047 -0.12925108 0.036849048 2.3509527e-38
0.036067292 -0.12925108 0.036849048 2.3509527e-38
0.037822537 -0.12925108 0.036849048 2.323186e-38
0.039440677 -0.12840421 0.039915647 2.3509527e-38
0.041190542 -0.12840421 0.039915647 2.3507725e-38
0.042940412 -0.12840421 0.039915647 1.6501213e-38
0.044690281 -0.12840421 0.039915647 1.6409017e-38
0.046440147 -0.12840421 0.039915647 1.4287437e-38
0.048190016 -0.12840421 0.039915647 1.3457677e-38
0.049939886 -0.12840421 0.039915647 9.6787349e-39
0.051864497 -0.12925108 0.036849048 1.1616284e-38
0.053795114 -0.13007559 0.033863332 1.189395e-38
0.055737272 -0.13090499 0.030859854 1.2538603e-38
0.058622718 -0.13587265 0.012870815 1.5304472e-38
0.060420007 -0.13587265 0.012870815 1.576509e-38
0.062217288 -0.13587265 0.012870815 1.3368003e-38
0.064014576 -0.13587265 0.012870815 1.2537164e-38
0.066021428 -0.13670824 0.0098449253 1.2905946e-38
0.067824021 -0.13670824 0.0098449253 1.1891794e-38
-0.034180891 -0.14934768 -0.029149983 1.1034959e-39
-0.032309931 -0.14934768 -0.029149983 9.1852312e-41
-0.030438963 -0.14934768 -0.029149983 9.2194229e-41
-0.028568003 -0.14934768 -0.029149983 1.8474719e-40
-0.026615512 -0.14822401 -0.025106642 9.2194229e-41
-0.024696179 -0.14738683 -0.022094224 9.1835496e-41
-0.022738084 -0.1457267 -0.016120408 2.7623376e-40
-0.020785738 -0.14378314 -0.0091267563 1.8403813e-40
-0.018870406 -0.1421036 -0.0030830838 3.6841818e-40
-0.017011005 -0.14127107 -8.7354332e-05 9.1835496e-41
-0.015153081 -0.14017828 0.0038448833 7.3577278e-40
-0.013339967 -0.14017828 0.0038448833 3.673574e-40
-0.011508069 -0.13932751 0.0069062971 3.6736721e-40
-0.0097003253 -0.13932751 0.0069062971 1.2868012e-39
-0.0078925798 -0.13932751 0.0069062971 1.0105492e-39
-0.0060848361 -0.13932751 0.0069062971 7.361189e-40
-0.0042796666 -0.13851084 0.0098449253 1.847542e-40
-0.002477075 -0.13851084 0.0098449253 3.657389e-43
-0.00067448337 -0.13851084 0.0098449253 7.0064923e-45
0.0011095405 -0.13766994 0.012870815 5.6051939e-45
0.0029068273 -0.13766994 0.012870815 5.6051939e-45
0.0046751043 -0.13683395 0.015879061 1.836752e-40
0.0064330334 -0.13600285 0.018869665 5.5173465e-40
0.0082198028 -0.13600285 0.018869665 2.7550649e-40
0.0099622626 -0.13517661 0.021842744 3.6734198e-40
0.011743818 -0.13517661 0.021842744 3.6734198e-40
0.013525375 -0.13517661 0.021842744 4.5918309e-40
0.01530693 -0.13517661 0.021842744 6.0831165e-39
0.017088488 -0.13517661 0.021842744 1.2353501e-38
0.018797673 -0.13432692 0.024900224 2.3509527e-38
0.020573866 -0.13432692 0.024900224 2.3048554e-38
0.022350062 -0.13432692 0.024900224 2.3325856e-38
0.024038337 -0.13348235 0.027939346 2.2958507e-38
0.02571959 -0.13267075 0.030859854 2.2958504e-38
