# .PCD v0.7 - Point Cloud Data file format
VERSION 0.7
FIELDS x y z rgb
SIZE 4 4 4 4
TYPE F F F F
COUNT 1 1 1 1
WIDTH 941
HEIGHT 1
VIEWPOINT 0 0 0 1 0 0 0
POINTS 941
DATA ascii
0.040317345 -0.12821732 -0.032308739 1.6779529e-38
0.042223345 -0.12821732 -0.032308739 1.050988e-38
0.044129349 -0.12821732 -0.032308739 7.0057412e-39
0.046035353 -0.12821732 -0.032308739 9.2173658e-39
0.048057057 -0.12896039 -0.035241645 1.1152761e-38
0.050133608 -0.12997745 -0.039256018 1.8896115e-38
0.05205179 -0.12997745 -0.039256018 2.1938207e-38
0.053969972 -0.12997745 -0.039256018 2.3505895e-38
0.056031719 -0.13076027 -0.042345803 2.3508058e-38
0.057955317 -0.13076027 -0.042345803 2.3509143e-38
0.060274791 -0.13276742 -0.050267976 2.3509156e-38
0.062212281 -0.13276742 -0.050267976 2.3509524e-38
0.064149767 -0.13276742 -0.050267976 2.3325138e-38
0.066087261 -0.13276742 -0.050267976 2.1573789e-38
0.068024755 -0.13276742 -0.050267976 1.9361085e-38
-0.041353874 -0.11761098 0.016738135 2.2586862e-38
-0.039533861 -0.11761098 0.016738135 2.3509168e-38
-0.037713856 -0.11761098 0.016738135 2.3142185e-38
-0.035738721 -0.11660783 0.020670373 2.2682649e-38
-0.033925608 -0.11660783 0.020670373 2.0932378e-38
-0.032112498 -0.11660783 0.020670373 9.1334994e-39
-0.030299384 -0.11660783 0.020670373 4.8946627e-39
-0.028486274 -0.11660783 0.020670373 6.5510843e-40
-0.026885733 -0.11837523 0.013742406 1.5781451e-39
-0.025060475 -0.11837523 0.013742406 2.9592705e-39
-0.023317102 -0.11914389 0.010729272 5.0747015e-39
-0.021563604 -0.11991702 0.0076987334 1.6133498e-38
-0.019727752 -0.11991702 0.0076987334 2.203189e-38
-0.017825477 -0.11914389 0.010729272 2.350594e-38
-0.015994933 -0.11914389 0.010729272 2.1568053e-38
-0.014164388 -0.11914389 0.010729272 5.8962043e-39
-0.012384325 -0.11991702 0.0076987334 9.310618e-39
-0.010503307 -0.11914389 0.010729272 2.3509821e-38
-0.0086331405 -0.11837523 0.013742406 2.3509859e-38
-0.0068078823 -0.11837523 0.013742406 2.2403175e-38
-0.0049826242 -0.11837523 0.013742406 2.3509527e-38
-0.0014487691 -0.12322514 -0.0052687339 1.8804708e-38
0.00040982291 -0.12322514 -0.0052687339 1.3732855e-38
0.0022684149 -0.12322514 -0.0052687339 1.3180008e-38
0.004127007 -0.12322514 -0.0052687339 1.788196e-38
0.005985599 -0.12322514 -0.0052687339 1.8434046e-38
0.0078363139 -0.12246101 -0.0022733621 2.0461984e-38
0.0096896533 -0.12246101 -0.0022733621 1.6406096e-38
0.011542994 -0.12246101 -0.0022733621 7.9244689e-39
0.013396334 -0.12246101 -0.0022733621 7.0943734e-39
0.015307609 -0.12399365 -0.0082811527 6.2646127e-39
0.017171483 -0.12399365 -0.0082811527 1.1059123e-38
0.019167542 -0.12655805 -0.018333357 2.2030026e-38
0.021049043 -0.12655805 -0.018333357 2.0739273e-38
0.022997256 -0.12757985 -0.02233867 2.1568672e-38
0.024940914 -0.1283439 -0.025333565 2.0369424e-38
0.026834685 -0.1283439 -0.025333565 2.0554899e-38
0.028728459 -0.1283439 -0.025333565 2.157049e-38
0.030787334 -0.13012333 -0.032308739 2.0741825e-38
0.032693334 -0.13012333 -0.032308739 1.880575e-38
0.034516893 -0.12934943 -0.029275101 8.6652962e-39
0.03630355 -0.1283439 -0.025333565 8.2053354e-39
0.03819732 -0.1283439 -0.025333565 1.5489847e-38
0.040317345 -0.13012333 -0.032308739 1.5951202e-38
0.042223345 -0.13012333 -0.032308739 1.0510956e-38
0.044129349 -0.13012333 -0.032308739 7.3745237e-39
0.046035353 -0.13012333 -0.032308739 6.8209982e-39
0.048057057 -0.13087155 -0.035241645 8.386889e-39
0.049968202 -0.13087155 -0.035241645 1.465475e-38
0.05205179 -0.13189565 -0.039256018 2.0922611e-38
0.053969972 -0.13189565 -0.039256018 2.2858357e-38
0.056031719 -0.13268389 -0.042345803 2.3134587e-38
0.057955317 -0.13268389 -0.042345803 2.3320066e-38
0.06007614 -0.13369073 -0.046292584 2.2676511e-38
0.062212281 -0.1347049 -0.050267976 2.1387228e-38
0.064149767 -0.1347049 -0.050267976 2.000575e-38
0.066087261 -0.1347049 -0.050267976 1.7978165e-38
0.068024755 -0.1347049 -0.050267976 1.8254738e-38
0.070140257 -0.13547809 -0.053298753 1.0786526e-38
-0.044804282 -0.11842094 0.020670373 2.3509168e-38
-0.042991169 -0.11842094 0.020670373 2.3509168e-38
-0.041353874 -0.11943097 0.016738135 2.3140033e-38
-0.039533861 -0.11943097 0.016738135 2.3509527e-38
-0.037713856 -0.11943097 0.016738135 2.2864526e-38
-0.035738721 -0.11842094 0.020670373 2.2958873e-38
-0.033925608 -0.11842094 0.020670373 2.2775202e-38
-0.032112498 -0.11842094 0.020670373 1.6601345e-38
-0.030299384 -0.11842094 0.020670373 7.3828657e-39
-0.028486274 -0.11842094 0.020670373 3.8808765e-39
-0.026793815 -0.11943097 0.016738135 1.3930378e-39
-0.025060475 -0.12020047 0.013742406 2.1291483e-39
-0.023235217 -0.12020047 0.013742406 4.9832205e-39
-0.021486558 -0.12097444 0.010729272 1.4383219e-38
-0.019656017 -0.12097444 0.010729272 1.9083076e-38
-0.017825477 -0.12097444 0.010729272 2.3507374e-38
-0.015934177 -0.12020047 0.013742406 2.3507016e-38
-0.014108919 -0.12020047 0.013742406 1.1060943e-38
-0.012384325 -0.12175287 0.0076987334 9.4971532e-39
-0.010503307 -0.12097444 0.010729272 2.2681847e-38
-0.0086331405 -0.12020047 0.013742406 2.2403521e-38
-0.0068078823 -0.12020047 0.013742406 2.3417691e-38
-0.0049826242 -0.12020047 0.013742406 2.3417691e-38
-0.0032837279 -0.12431435 -0.0022733621 2.2495745e-38
-0.0014303885 -0.12431435 -0.0022733621 1.9452207e-38
0.0004229527 -0.12431435 -0.0022733621 1.6869645e-38
0.0022762921 -0.12431435 -0.0022733621 1.3917936e-38
0.0041296333 -0.12431435 -0.0022733621 1.4193789e-38
0.0059829727 -0.12431435 -0.0022733621 1.87092e-38
0.0078363139 -0.12431435 -0.0022733621 1.9722624e-38
0.0096896533 -0.12431435 -0.0022733621 1.9631861e-38
0.011542994 -0.12431435 -0.0022733621 1.4468915e-38
0.013396334 -0.12431435 -0.0022733621 9.0286753e-39
0.015249674 -0.12431435 -0.0022733621 9.0286753e-39
0.017103015 -0.12431435 -0.0022733621 1.6589416e-38
0.019259596 -0.13023765 -0.025333565 2.0185033e-38
0.021153368 -0.13023765 -0.025333565 1.7971609e-38
0.023047142 -0.13023765 -0.025333565 1.9354547e-38
0.025069326 -0.13202934 -0.032308739 1.6587973e-38
0.026975328 -0.13202934 -0.032308739 1.7603568e-38
0.028881332 -0.13202934 -0.032308739 2.1200994e-38
0.030856755 -0.13278268 -0.035241645 2.0187935e-38
0.032693334 -0.13202934 -0.032308739 1.834333e-38
0.034409776 -0.13023765 -0.025333565 9.217028e-39
0.03630355 -0.13023765 -0.025333565 7.1911891e-39
0.03819732 -0.13023765 -0.025333565 1.3368996e-38
0.040091094 -0.13023765 -0.025333565 1.3277174e-38
0.041984867 -0.13023765 -0.025333565 9.035473e-39
0.043878637 -0.13023765 -0.025333565 6.822073e-39
0.045772411 -0.13023765 -0.025333565 4.7001456e-39
0.047821678 -0.1312501 -0.029275101 7.7415224e-39
0.049722359 -0.1312501 -0.029275101 1.3364374e-38
0.051753357 -0.13202934 -0.032308739 1.6589779e-38
0.053659361 -0.13202934 -0.032308739 2.0000655e-38
0.055888157 -0.13381381 -0.039256018 2.156798e-38
0.057806339 -0.13381381 -0.039256018 2.2583224e-38
0.06007614 -0.13562126 -0.046292584 2.2676871e-38
0.062212281 -0.13664238 -0.050267976 2.0926969e-38
0.06393718 -0.13562126 -0.046292584 1.8715727e-38
0.06547907 -0.13381381 -0.039256018 1.6319364e-38
0.067397252 -0.13381381 -0.039256018 1.6318629e-38
0.070140257 -0.13742088 -0.053298753 1.1247504e-38
0.072083071 -0.13742088 -0.053298753 1.0509939e-38
-0.053184099 -0.1171218 0.032704551 2.2956701e-38
-0.051392086 -0.1171218 0.032704551 2.3509873e-38
-0.049760945 -0.11789979 0.029696304 2.3509876e-38
-0.046464421 -0.11944233 0.023731787 2.3509527e-38
-0.044656672 -0.11944233 0.023731787 2.2586134e-38
-0.042991169 -0.12023406 0.020670373 2.3509168e-38
-0.041353874 -0.121251 0.016738135 2.3509168e-38
-0.039533861 -0.121251 0.016738135 2.2403186e-38
-0.037713856 -0.121251 0.016738135 2.341805e-38
-0.035738721 -0.12023406 0.020670373 2.1667779e-38
-0.033925608 -0.12023406 0.020670373 2.2867037e-38
-0.032112498 -0.12023406 0.020670373 2.2499695e-38
-0.030299384 -0.12023406 0.020670373 1.807684e-38
-0.028486274 -0.12023406 0.020670373 9.2275041e-39
-0.026793815 -0.121251 0.016738135 5.8166302e-39
-0.02497381 -0.121251 0.016738135 4.1560158e-39
-0.023153801 -0.121251 0.016738135 4.706998e-39
-0.021486558 -0.12280498 0.010729272 5.6260746e-39
-0.019656017 -0.12280498 0.010729272 1.0694704e-38
-0.017759435 -0.12202574 0.013742406 2.3508809e-38
-0.015873775 -0.121251 0.016738135 2.3323703e-38
-0.014053769 -0.121251 0.016738135 1.5856191e-38
-0.01223376 -0.121251 0.016738135 1.3646322e-38
-0.010458402 -0.12202574 0.013742406 2.3509825e-38
-0.0086331405 -0.12202574 0.013742406 2.341804e-38
-0.0068078823 -0.12202574 0.013742406 2.3234379e-38
-0.0049826242 -0.12202574 0.013742406 2.2312787e-38
-0.0031811371 -0.12280498 0.010729272 1.6965438e-38
-0.0014303885 -0.12616767 -0.0022733621 1.982206e-38
0.0004229527 -0.12616767 -0.0022733621 2.1572335e-38
0.0022762921 -0.12616767 -0.0022733621 2.0925523e-38
0.0041296333 -0.12616767 -0.0022733621 1.5207585e-38
0.0059829727 -0.12616767 -0.0022733621 1.6679822e-38
0.0078363139 -0.12616767 -0.0022733621 2.2948032e-38
0.0096896533 -0.12616767 -0.0022733621 2.2487406e-38
0.011524716 -0.1253974 0.00070508197 1.7601759e-38
0.013372834 -0.1253974 0.00070508197 1.3267865e-38
0.015220952 -0.1253974 0.00070508197 9.3034531e-39
0.017069072 -0.1253974 0.00070508197 1.4835893e-38
0.019259596 -0.13213144 -0.025333565 1.9907004e-38
0.021153368 -0.13213144 -0.025333565 1.824748e-38
0.023112794 -0.13315077 -0.029275101 1.9998845e-38
0.025069326 -0.13393532 -0.032308739 1.6956406e-38
0.026975328 -0.13393532 -0.032308739 1.3361503e-38
0.028881332 -0.13393532 -0.032308739 1.6497584e-38
0.030787334 -0.13393532 -0.032308739 2.0278333e-38
0.032693334 -0.13393532 -0.032308739 1.9080174e-38
0.034409776 -0.13213144 -0.025333565 9.7698403e-39
0.03630355 -0.13213144 -0.025333565 8.9418326e-39
0.03819732 -0.13213144 -0.025333565 1.3368645e-38
0.040091094 -0.13213144 -0.025333565 1.2354866e-38
0.041984867 -0.13213144 -0.025333565 8.4819447e-39
0.043878637 -0.13213144 -0.025333565 6.3610991e-39
0.045772411 -0.13213144 -0.025333565 1.8431671e-39
0.047666185 -0.13213144 -0.025333565 5.1604091e-39
0.049722359 -0.13315077 -0.029275101 9.6776334e-39
0.051623043 -0.13315077 -0.029275101 1.4193775e-38
0.053523727 -0.13315077 -0.029275101 1.7142953e-38
0.055424411 -0.13315077 -0.029275101 1.6774173e-38
0.057471365 -0.13393532 -0.032308739 1.5577075e-38
0.059523925 -0.13469382 -0.035241645 1.4933157e-38
0.061802521 -0.13653107 -0.042345803 1.3644234e-38
0.06372612 -0.13653107 -0.042345803 1.2908481e-38
0.06547907 -0.13573201 -0.039256018 1.2263112e-38
0.067397252 -0.13573201 -0.039256018 1.4290325e-38
0.069728747 -0.1375518 -0.046292584 1.13397e-38
-0.053184099 -0.11891381 0.032704551 2.350952e-38
-0.051392086 -0.11891381 0.032704551 2.2957064e-38
-0.049760945 -0.11969708 0.029696304 2.3326208e-38
-0.047963656 -0.11969708 0.029696304 2.3233299e-38
-0.04631757 -0.12048493 0.026670415 2.3509886e-38
-0.044656672 -0.12125005 0.023731787 2.2863803e-38
-0.042848922 -0.12125005 0.023731787 2.3509527e-38
-0.041178055 -0.12204717 0.020670373 2.3509527e-38
-0.039533861 -0.123071 0.016738135 2.3233302e-38
-0.037551835 -0.12204717 0.020670373 2.341805e-38
-0.035738721 -0.12204717 0.020670373 2.3142544e-38
-0.033925608 -0.12204717 0.020670373 2.2683007e-38
-0.032112498 -0.12204717 0.020670373 2.2038723e-38
-0.030299384 -0.12204717 0.020670373 2.2499695e-38
-0.028486274 -0.12204717 0.020670373 1.3743651e-38
-0.02667316 -0.12204717 0.020670373 7.1055739e-39
-0.02497381 -0.123071 0.016738135 4.8928704e-39
-0.023153801 -0.123071 0.016738135 5.6289753e-39
-0.021333795 -0.123071 0.016738135 2.4935896e-39
-0.019656017 -0.12463553 0.010729272 8.9458389e-39
-0.017759435 -0.12385099 0.013742406 2.3326201e-38
-0.015873775 -0.123071 0.016738135 2.3509879e-38
-0.014053769 -0.123071 0.016738135 1.7886293e-38
-0.01223376 -0.123071 0.016738135 1.6780642e-38
-0.010458402 -0.12385099 0.013742406 2.2128707e-38
-0.0086331405 -0.12385099 0.013742406 2.3418033e-38
-0.0068078823 -0.12385099 0.013742406 2.2958503e-38
-0.0049826242 -0.12385099 0.013742406 2.3234369e-38
-0.0031573623 -0.12385099 0.013742406 1.9362875e-38
-0.0014121104 -0.12724553 0.00070508197 2.1112446e-38
0.00043600798 -0.12724553 0.00070508197 2.3232585e-38
0.0022841264 -0.12724553 0.00070508197 2.3509157e-38
0.0041322447 -0.12724553 0.00070508197 1.6314285e-38
0.0059829727 -0.12802102 -0.0022733621 1.4558604e-38
0.0078284796 -0.12724553 0.00070508197 2.2116837e-38
0.009676598 -0.12724553 0.00070508197 2.230193e-38
0.011524716 -0.12724553 0.00070508197 2.0273626e-38
0.013372834 -0.12724553 0.00070508197 1.7322661e-38
0.015220952 -0.12724553 0.00070508197 9.3023601e-39
0.017069072 -0.12724553 0.00070508197 1.1239176e-38
0.02121211 -0.13505147 -0.029275101 1.483445e-38
0.023112794 -0.13505147 -0.029275101 1.4650428e-38
0.025069326 -0.13584132 -0.032308739 1.4742288e-38
0.026975328 -0.13584132 -0.032308739 8.1056456e-39
0.028881332 -0.13584132 -0.032308739 8.1067134e-39
0.030787334 -0.13584132 -0.032308739 1.4929912e-38
0.032693334 -0.13584132 -0.032308739 1.6589807e-38
0.034599338 -0.13584132 -0.032308739 1.1980738e-38
0.03630355 -0.1340252 -0.025333565 5.8993825e-39
0.03819732 -0.1340252 -0.025333565 9.7726667e-39
0.040091094 -0.1340252 -0.025333565 1.0049628e-38
0.041984867 -0.1340252 -0.025333565 8.4823132e-39
0.043878637 -0.1340252 -0.025333565 7.0064783e-39
0.045772411 -0.1340252 -0.025333565 1.935004e-39
0.047666185 -0.1340252 -0.025333565 4.1466201e-39
0.049722359 -0.13505147 -0.029275101 7.6496911e-39
0.051623043 -0.13505147 -0.029275101 9.6765516e-39
0.053523727 -0.13505147 -0.029275101 1.3548765e-38
0.055424411 -0.13505147 -0.029275101 1.3548768e-38
0.057325091 -0.13505147 -0.029275101 1.2443864e-38
0.059225775 -0.13505147 -0.029275101 1.2445317e-38
0.061642706 -0.13765021 -0.039256018 1.1986148e-38
0.063560888 -0.13765021 -0.039256018 1.2540415e-38
0.06547907 -0.13765021 -0.039256018 1.3093233e-38
0.067397252 -0.13765021 -0.039256018 1.2723e-38
0.069496915 -0.13845469 -0.042345803 1.1524091e-38
-0.05856014 -0.12070583 0.032704551 2.3508451e-38
-0.056587219 -0.11992194 0.035695154 2.3508804e-38
-0.054800451 -0.11992194 0.035695154 2.3507722e-38
-0.053013682 -0.11992194 0.035695154 2.2861631e-38
-0.051392086 -0.12070583 0.032704551 2.3509523e-38
-0.049600072 -0.12070583 0.032704551 2.3234018e-38
-0.047963656 -0.12149437 0.029696304 2.3325497e-38
-0.04631757 -0.12228753 0.026670415 2.3509527e-38
-0.044514976 -0.12228753 0.026670415 2.3509168e-38
-0.042848922 -0.1230578 0.023731787 2.3509527e-38
-0.041178055 -0.12386028 0.020670373 2.3324778e-38
-0.039364941 -0.12386028 0.020670373 2.3509527e-38
-0.037551835 -0.12386028 0.020670373 2.3048907e-38
-0.035738721 -0.12386028 0.020670373 2.3234379e-38
-0.033925608 -0.12386028 0.020670373 2.2313503e-38
-0.03200246 -0.1230578 0.023731787 2.2867037e-38
-0.030194715 -0.1230578 0.023731787 2.2775202e-38
-0.028386969 -0.1230578 0.023731787 2.0840917e-38
-0.02667316 -0.12386028 0.020670373 1.1990863e-38
-0.024771482 -0.1230578 0.023731787 3.3244713e-39
-0.02296374 -0.1230578 0.023731787 3.969105e-39
-0.021155991 -0.1230578 0.023731787 3.8768884e-39
-0.019513786 -0.124891 0.016738135 6.3657864e-39
-0.01769378 -0.124891 0.016738135 2.1576981e-38
-0.015873775 -0.124891 0.016738135 2.3509866e-38
-0.014053769 -0.124891 0.016738135 2.3509869e-38
-0.01223376 -0.124891 0.016738135 2.1297525e-38
-0.010458402 -0.12567626 0.013742406 2.3509863e-38
-0.0085937455 -0.124891 0.016738135 2.3418033e-38
-0.0067737401 -0.124891 0.016738135 2.2866657e-38
-0.0049826242 -0.12567626 0.013742406 2.3050686e-38
-0.0031573623 -0.12567626 0.013742406 2.2774465e-38
-0.0013691932 -0.12726043 0.0076987334 2.1204642e-38
0.00046666339 -0.12726043 0.0076987334 2.3509168e-38
0.00230252 -0.12726043 0.0076987334 2.3509873e-38
0.0041322447 -0.12909363 0.00070508197 1.8711372e-38
0.0059829727 -0.12987436 -0.0022733621 1.6955336e-38
0.0078284796 -0.12909363 0.00070508197 1.9718673e-38
0.009676598 -0.12909363 0.00070508197 2.1563642e-38
0.011524716 -0.12909363 0.00070508197 2.3502267e-38
0.013372834 -0.12909363 0.00070508197 2.1839876e-38
0.015220952 -0.12909363 0.00070508197 1.2067139e-38
0.017069072 -0.12909363 0.00070508197 8.9328377e-39
0.03630355 -0.13591899 -0.025333565 7.0968551e-39
0.03819732 -0.13591899 -0.025333565 9.2187853e-39
0.040091094 -0.13591899 -0.025333565 9.1269638e-39
0.041984867 -0.13591899 -0.025333565 7.6522008e-39
0.043878637 -0.13591899 -0.025333565 5.1625699e-39
0.045772411 -0.13591899 -0.025333565 2.7586522e-40
0.047666185 -0.13591899 -0.025333565 3.6734198e-40
0.049722359 -0.13695215 -0.029275101 3.7778404e-39
0.051623043 -0.13695215 -0.029275101 6.2660378e-39
0.053523727 -0.13695215 -0.029275101 1.1705937e-38
0.055424411 -0.13695215 -0.029275101 1.3088514e-38
0.057325091 -0.13695215 -0.029275101 1.2720817e-38
0.059225775 -0.13695215 -0.029275101 1.2630787e-38
0.061642706 -0.13956837 -0.039256018 1.1065271e-38
0.063560888 -0.13956837 -0.039256018 1.0052209e-38
0.06547907 -0.13956837 -0.039256018 9.9596574e-39
0.067397252 -0.13956837 -0.039256018 1.1709208e-38
0.069496915 -0.14037828 -0.042345803 1.1063113e-38
-0.05856014 -0.12249784 0.032704551 2.3507725e-38
-0.056587219 -0.12170871 0.035695154 2.3508802e-38
-0.054800451 -0.12170871 0.035695154 2.3508077e-38
-0.053013682 -0.12170871 0.035695154 2.3509158e-38
-0.051392086 -0.12249784 0.032704551 2.3509527e-38
-0.049600072 -0.12249784 0.032704551 2.3234379e-38
-0.047963656 -0.12329166 0.029696304 2.3325856e-38
-0.04631757 -0.12409012 0.026670415 2.2588296e-38
-0.044514976 -0.12409012 0.026670415 2.3048556e-38
-0.042848922 -0.12486555 0.023731787 2.3325138e-38
-0.041178055 -0.1256734 0.020670373 2.3509167e-38
-0.039364941 -0.1256734 0.020670373 2.3509883e-38
-0.037551835 -0.1256734 0.020670373 2.3418043e-38
-0.035738721 -0.1256734 0.020670373 2.2127664e-38
-0.033925608 -0.1256734 0.020670373 2.3234376e-38
-0.03200246 -0.12486555 0.023731787 2.268193e-38
-0.030194715 -0.12486555 0.023731787 2.2958873e-38
-0.028386969 -0.12486555 0.023731787 2.1761424e-38
-0.026579227 -0.12486555 0.023731787 1.8719705e-38
-0.024771482 -0.12486555 0.023731787 6.0889011e-39
-0.02296374 -0.12486555 0.023731787 4.2446171e-39
-0.021155991 -0.12486555 0.023731787 5.6278893e-39
-0.019513786 -0.126711 0.016738135 4.9821275e-39
-0.01769378 -0.126711 0.016738135 2.1391859e-38
-0.015873775 -0.126711 0.016738135 2.2404225e-38
-0.014053769 -0.126711 0.016738135 2.3509863e-38
-0.01223376 -0.126711 0.016738135 2.1480845e-38
-0.010413755 -0.126711 0.016738135 2.3509873e-38
-0.0085937455 -0.126711 0.016738135 2.3234004e-38
-0.0067737401 -0.126711 0.016738135 2.3418033e-38
-0.0049826242 -0.1275015 0.013742406 2.2866289e-38
-0.0031573623 -0.1275015 0.013742406 2.0653238e-38
-0.0013505947 -0.1282966 0.010729272 1.9637303e-38
0.00047994778 -0.1282966 0.010729272 2.2494289e-38
0.0023104902 -0.1282966 0.010729272 2.3230767e-38
0.0041322447 -0.13094176 0.00070508197 1.7973453e-38
0.0059829727 -0.13172771 -0.0022733621 1.6125222e-38
0.0078284796 -0.13094176 0.00070508197 1.9350616e-38
0.009676598 -0.13094176 0.00070508197 2.0365099e-38
0.011524716 -0.13094176 0.00070508197 2.2578143e-38
0.013396334 -0.13172771 -0.0022733621 2.303805e-38
0.03630355 -0.13781275 -0.025333565 6.9121149e-39
0.03819732 -0.13781275 -0.025333565 7.4667222e-39
0.040091094 -0.13781275 -0.025333565 6.9139169e-39
0.041984867 -0.13781275 -0.025333565 5.439154e-39
0.043770991 -0.13702248 -0.02233867 2.7662094e-39
0.045659512 -0.13702248 -0.02233867 5.5316537e-40
0.047666185 -0.13781275 -0.025333565 6.442834e-40
0.049559955 -0.13781275 -0.025333565 5.253695e-39
0.051623043 -0.13885282 -0.029275101 5.34445e-39
0.053523727 -0.13885282 -0.029275101 1.0599598e-38
0.055424411 -0.13885282 -0.029275101 1.1429359e-38
0.057471365 -0.13965334 -0.032308739 1.0969823e-38
0.059377369 -0.13965334 -0.032308739 1.2077616e-38
0.061642706 -0.14148657 -0.039256018 1.1526249e-38
0.063560888 -0.14148657 -0.039256018 1.1066359e-38
0.06547907 -0.14148657 -0.039256018 1.1619535e-38
0.067397252 -0.14148657 -0.039256018 1.1340781e-38
0.069496915 -0.14230187 -0.042345803 1.069433e-38
0.071420521 -0.14230187 -0.042345803 1.041774e-38
-0.05856014 -0.12428986 0.032704551 2.2029709e-38
-0.056587219 -0.12349547 0.035695154 2.3508794e-38
-0.054800451 -0.12349547 0.035695154 2.3504828e-38
-0.053013682 -0.12349547 0.035695154 2.3509153e-38
-0.051392086 -0.12428986 0.032704551 2.323258e-38
-0.049600072 -0.12428986 0.032704551 2.3234379e-38
-0.047963656 -0.12508895 0.029696304 2.341805e-38
-0.04631757 -0.12589271 0.026670415 2.3233662e-38
-0.044514976 -0.12589271 0.026670415 2.3509527e-38
-0.042848922 -0.1266733 0.023731787 2.3509527e-38
-0.041041188 -0.1266733 0.023731787 2.3509167e-38
-0.039233439 -0.1266733 0.023731787 2.350952e-38
-0.037551835 -0.12748651 0.020670373 2.323365e-38
-0.035617948 -0.1266733 0.023731787 2.3509879e-38
-0.033810206 -0.1266733 0.023731787 2.3141816e-38
-0.03200246 -0.1266733 0.023731787 2.3234379e-38
-0.030194715 -0.1266733 0.023731787 2.3142544e-38
-0.028386969 -0.1266733 0.023731787 2.2774484e-38
-0.026579227 -0.1266733 0.023731787 2.2774484e-38
-0.024771482 -0.1266733 0.023731787 1.9824255e-38
-0.02296374 -0.1266733 0.023731787 2.0285586e-38
-0.021155991 -0.1266733 0.023731787 2.0378118e-38
-0.019513786 -0.12853102 0.016738135 1.7520723e-38
-0.017607599 -0.12748651 0.020670373 2.3142486e-38
-0.015794486 -0.12748651 0.020670373 2.3509846e-38
-0.013981376 -0.12748651 0.020670373 2.3509863e-38
-0.012168262 -0.12748651 0.020670373 1.9173454e-38
-0.010413755 -0.12853102 0.016738135 8.4798428e-39
-0.0085937455 -0.12853102 0.016738135 1.9452541e-38
-0.0067737401 -0.12853102 0.016738135 2.350986e-38
-0.0049537346 -0.12853102 0.016738135 2.3509856e-38
-0.0031573623 -0.12932678 0.013742406 1.7148722e-38
-0.0013505947 -0.13012715 0.010729272 1.9083051e-38
0.00047994778 -0.13012715 0.010729272 2.129503e-38
0.0023104902 -0.13012715 0.010729272 2.249248e-38
0.0041357987 -0.13171287 0.0047596283 1.5484527e-38
0.0059803613 -0.13278987 0.00070508197 1.0779319e-38
0.007817816 -0.13171287 0.0047596283 1.0132135e-38
0.0096588247 -0.13171287 0.0047596283 1.5019191e-38
0.011524716 -0.13278987 0.00070508197 2.0273249e-38
0.041984867 -0.13970654 -0.025333565 5.0711002e-39
0.043770991 -0.13891099 -0.02233867 1.9368131e-39
0.045659512 -0.13891099 -0.02233867 1.0145009e-39
0.047548033 -0.13891099 -0.02233867 1.8402972e-40
0.049559955 -0.13970654 -0.025333565 5.438452e-39
0.051453728 -0.13970654 -0.025333565 6.2667679e-39
0.053347502 -0.13970654 -0.025333565 1.1337528e-38
0.055241272 -0.13970654 -0.025333565 1.1521919e-38
0.057325091 -0.14075352 -0.029275101 1.069324e-38
0.059225775 -0.14075352 -0.029275101 1.143261e-38
0.06143507 -0.14233841 -0.035241645 9.9589231e-39
0.063560888 -0.14340474 -0.039256018 8.1168154e-39
0.065257356 -0.14233841 -0.035241645 7.8395124e-39
0.067168504 -0.14233841 -0.035241645 1.1248586e-38
0.069496915 -0.14422549 -0.042345803 1.1155308e-38
0.071420521 -0.14422549 -0.042345803 1.1892871e-38
-0.058747374 -0.12688623 0.029696304 1.5299782e-38
-0.056768119 -0.12608187 0.032704551 2.1661632e-38
-0.054976113 -0.12608187 0.032704551 2.3509142e-38
-0.053013682 -0.12528224 0.035695154 2.3508064e-38
-0.051226914 -0.12528224 0.035695154 2.350988e-38
-0.049440145 -0.12528224 0.035695154 2.3325856e-38
-0.047808059 -0.12608187 0.032704551 2.3417333e-38
-0.046016045 -0.12608187 0.032704551 2.3232944e-38
-0.044224031 -0.12608187 0.032704551 2.3509527e-38
-0.04271239 -0.12769531 0.026670415 2.3509527e-38
-0.040909797 -0.12769531 0.026670415 2.3140384e-38
-0.039107203 -0.12769531 0.026670415 2.350988e-38
-0.037425689 -0.12848105 0.023731787 2.3509518e-38
-0.035617948 -0.12848105 0.023731787 2.3509879e-38
-0.033810206 -0.12848105 0.023731787 2.350988e-38
-0.03200246 -0.12848105 0.023731787 2.341805e-38
-0.030194715 -0.12848105 0.023731787 2.3233303e-38
-0.028386969 -0.12848105 0.023731787 2.323402e-38
-0.026579227 -0.12848105 0.023731787 2.3142185e-38
-0.024771482 -0.12848105 0.023731787 2.2588661e-38
-0.023046937 -0.1292996 0.020670373 2.2864885e-38
-0.021233827 -0.1292996 0.020670373 2.0007545e-38
-0.019513786 -0.13035102 0.016738135 1.8994399e-38
-0.017607599 -0.1292996 0.020670373 2.3142104e-38
-0.015794486 -0.1292996 0.020670373 2.3508397e-38
-0.013981376 -0.1292996 0.020670373 2.3508794e-38
-0.012168262 -0.1292996 0.020670373 1.9078047e-38
-0.010413755 -0.13035102 0.016738135 8.4766254e-39
-0.0085937455 -0.13035102 0.016738135 1.3089236e-38
-0.0067737401 -0.13035102 0.016738135 2.3509845e-38
-0.0049537346 -0.13035102 0.016738135 2.3325455e-38
-0.0031573623 -0.13115202 0.013742406 2.1388285e-38
-0.0013321042 -0.13115202 0.013742406 2.0002863e-38
0.00049315393 -0.13115202 0.013742406 2.09241e-38
0.0023184139 -0.13115202 0.013742406 2.203114e-38
0.0041357987 -0.13355388 0.0047596283 1.1151327e-38
0.0059803613 -0.134638 0.00070508197 1.0411974e-38
0.007817816 -0.13355388 0.0047596283 8.659527e-39
0.0096588247 -0.13355388 0.0047596283 1.1425004e-38
0.041984867 -0.1416003 -0.025333565 4.1487893e-39
0.043770991 -0.14079951 -0.02233867 2.3974381e-39
0.045659512 -0.14079951 -0.02233867 1.1066993e-39
0.047548033 -0.14079951 -0.02233867 5.5352691e-40
0.049559955 -0.1416003 -0.025333565 2.4889149e-39
0.051453728 -0.1416003 -0.025333565 4.7923637e-39
0.053347502 -0.1416003 -0.025333565 1.1338609e-38
0.055241272 -0.1416003 -0.025333565 1.1523001e-38
0.057325091 -0.1426542 -0.029275101 1.097019e-38
0.059225775 -0.1426542 -0.029275101 1.1340414e-38
0.06143507 -0.14424954 -0.035241645 7.8384236e-39
0.063560888 -0.14532293 -0.039256018 6.0881514e-39
0.065257356 -0.14424954 -0.035241645 7.5632815e-39
0.067168504 -0.14424954 -0.035241645 1.0234431e-38
0.069079652 -0.14424954 -0.035241645 1.1155305e-38
-0.060544662 -0.12868352 0.029696304 6.6348315e-39
-0.05856014 -0.12787388 0.032704551 7.4645838e-39
-0.056768119 -0.12787388 0.032704551 1.1428271e-38
-0.054800451 -0.12706901 0.035695154 1.8065988e-38
-0.053013682 -0.12706901 0.035695154 2.3509856e-38
-0.051062711 -0.12626885 0.038668234 2.3509516e-38
-0.049281158 -0.12626885 0.038668234 2.3233299e-38
-0.047653377 -0.12706901 0.035695154 2.3509886e-38
-0.045866609 -0.12706901 0.035695154 2.3509886e-38
-0.044079833 -0.12706901 0.035695154 2.3509527e-38
-0.042432018 -0.12787388 0.032704551 2.3509527e-38
-0.040774509 -0.12868352 0.029696304 2.3324775e-38
-0.038977221 -0.12868352 0.029696304 2.3509883e-38
-0.037304617 -0.1294979 0.026670415 2.3509879e-38
-0.035617948 -0.13028879 0.023731787 2.3325127e-38
-0.033810206 -0.13028879 0.023731787 2.3049261e-38
-0.03200246 -0.13028879 0.023731787 2.341769e-38
-0.030194715 -0.13028879 0.023731787 2.3417333e-38
-0.028386969 -0.13028879 0.023731787 2.3417691e-38
-0.02648906 -0.1294979 0.026670415 2.2864167e-38
-0.024686467 -0.1294979 0.026670415 2.0282349e-38
-0.023046937 -0.13111271 0.020670373 1.6317587e-38
-0.021233827 -0.13111271 0.020670373 1.0970575e-38
-0.019420713 -0.13111271 0.020670373 7.3752468e-39
-0.017607599 -0.13111271 0.020670373 3.5948574e-39
-0.015794486 -0.13111271 0.020670373 7.7404266e-39
-0.014053769 -0.13217102 0.016738135 2.2120818e-38
-0.01223376 -0.13217102 0.016738135 2.2026509e-38
-0.010413755 -0.13217102 0.016738135 3.311875e-39
-0.0085937455 -0.13217102 0.016738135 6.0802186e-39
-0.0067737401 -0.13217102 0.016738135 1.5210084e-38
-0.0049537346 -0.13217102 0.016738135 1.816071e-38
-0.0031573623 -0.13297729 0.013742406 2.0649643e-38
-0.0013321042 -0.13297729 0.013742406 2.1293235e-38
0.00049315393 -0.13297729 0.013742406 1.99103e-38
0.0023184139 -0.13297729 0.013742406 1.6499404e-38
0.0041357987 -0.13539489 0.0047596283 5.0660653e-39
0.0059803613 -0.13648613 0.00070508197 1.2856969e-39
0.007817816 -0.13539489 0.0047596283 1.0101905e-39
0.0096588247 -0.13539489 0.0047596283 3.497641e-39
0.041984867 -0.14349405 -0.025333565 3.6913565e-40
0.043878637 -0.14349405 -0.025333565 1.0761972e-42
0.045772411 -0.14349405 -0.025333565 3.5873241e-43
0.047666185 -0.14349405 -0.025333565 3.5873241e-43
0.049559955 -0.14349405 -0.025333565 2.0279381e-39
0.051453728 -0.14349405 -0.025333565 5.7150416e-39
0.053347502 -0.14349405 -0.025333565 1.1061669e-38
0.055424411 -0.14455487 -0.029275101 1.0508496e-38
0.057325091 -0.14455487 -0.029275101 9.6787349e-39
0.059523925 -0.14616071 -0.035241645 9.5879798e-39
0.06143507 -0.14616071 -0.035241645 6.730997e-39
0.063560888 -0.1472411 -0.039256018 6.0870696e-39
0.065257356 -0.14616071 -0.035241645 8.5763516e-39
0.067168504 -0.14616071 -0.035241645 9.6805383e-39
0.069315434 -0.1472411 -0.039256018 9.772371e-39
-0.070473976 -0.13399105 0.016738135 1.1524437e-38
-0.068653964 -0.13399105 0.016738135 1.087907e-38
-0.066833965 -0.13399105 0.016738135 9.9571168e-39
-0.064541869 -0.13209651 0.023731787 5.7150388e-39
-0.062540896 -0.13130049 0.026670415 5.5299287e-39
-0.060544662 -0.13048081 0.029696304 6.9124946e-39
-0.05856014 -0.1296659 0.032704551 7.5574955e-39
-0.056768119 -0.1296659 0.032704551 8.7556715e-39
-0.054800451 -0.12885578 0.035695154 1.2627519e-38
-0.053013682 -0.12885578 0.035695154 2.3138546e-38
-0.051062711 -0.1280504 0.038668234 2.3509869e-38
-0.049281158 -0.1280504 0.038668234 2.3325127e-38
-0.047499597 -0.1280504 0.038668234 2.350988e-38
-0.045866609 -0.12885578 0.035695154 2.3509527e-38
-0.044079833 -0.12885578 0.035695154 2.3508451e-38
-0.042293064 -0.12885578 0.035695154 2.3415895e-38
-0.040640011 -0.1296659 0.032704551 2.3509527e-38
-0.038847998 -0.1296659 0.032704551 2.3509524e-38
-0.037179939 -0.13048081 0.029696304 2.350988e-38
-0.03550202 -0.13130049 0.026670415 2.350988e-38
-0.033699427 -0.13130049 0.026670415 2.3232933e-38
-0.031896837 -0.13130049 0.026670415 2.3509883e-38
-0.030194715 -0.13209651 0.023731787 2.3509527e-38
-0.02829165 -0.13130049 0.026670415 2.3509527e-38
-0.02648906 -0.13130049 0.026670415 2.2863809e-38
-0.024686467 -0.13130049 0.026670415 1.834623e-38
-0.023046937 -0.13292582 0.020670373 1.345986e-38
-0.021233827 -0.13292582 0.020670373 9.1842503e-41
-0.019420713 -0.13292582 0.020670373 6.4284847e-40
-0.017607599 -0.13292582 0.020670373 1.1027434e-39
-0.015794486 -0.13292582 0.020670373 5.4341079e-39
-0.013981376 -0.13292582 0.020670373 2.1291043e-38
-0.01223376 -0.13399105 0.016738135 2.3507372e-38
-0.010413755 -0.13399105 0.016738135 7.1837173e-39
-0.0085937455 -0.13399105 0.016738135 1.0101961e-39
-0.0067737401 -0.13399105 0.016738135 6.725965e-39
-0.0049537346 -0.13399105 0.016738135 1.2258416e-38
-0.0031573623 -0.13480256 0.013742406 1.760683e-38
-0.0013321042 -0.13480256 0.013742406 1.9358891e-38
0.00049315393 -0.13480256 0.013742406 1.6684861e-38
0.0023184139 -0.13480256 0.013742406 1.1059154e-38
0.0041357987 -0.13723589 0.0047596283 2.1158304e-39
0.0059768073 -0.13723589 0.0047596283 5.5101298e-40
0.007817816 -0.13723589 0.0047596283 6.4284847e-40
0.0096588247 -0.13723589 0.0047596283 2.024327e-39
0.041984867 -0.14538784 -0.025333565 3.5873241e-43
0.043878637 -0.14538784 -0.025333565 2.7730015e-40
0.045772411 -0.14538784 -0.025333565 1.8510592e-40
0.047666185 -0.14538784 -0.025333565 4.6133128e-40
0.049559955 -0.14538784 -0.025333565 3.04209e-39
0.051623043 -0.14645557 -0.029275101 6.5440848e-39
0.059724521 -0.1491593 -0.039256018 8.1117735e-39
0.061642706 -0.1491593 -0.039256018 5.6239306e-39
0.063560888 -0.1491593 -0.039256018 6.0867066e-39
0.065649718 -0.1499963 -0.042345803 9.4057493e-39
0.067397252 -0.1491593 -0.039256018 1.0326264e-38
0.069315434 -0.1491593 -0.039256018 9.772371e-39
-0.070473976 -0.13581105 0.016738135 1.0510651e-38
-0.068653964 -0.13581105 0.016738135 1.0049675e-38
-0.066561632 -0.13473894 0.020670373 8.2979598e-39
-0.064541869 -0.13390426 0.023731787 4.6094158e-39
-0.062540896 -0.13310309 0.026670415 6.7291908e-39
-0.060544662 -0.1322781 0.029696304 1.0232258e-38
-0.058747374 -0.1322781 0.029696304 1.0047495e-38
-0.056768119 -0.13145791 0.032704551 9.1251701e-39
-0.054800451 -0.13064255 0.035695154 1.0969074e-38
-0.053013682 -0.13064255 0.035695154 2.3509846e-38
-0.051062711 -0.12983195 0.038668234 2.350986e-38
-0.049281158 -0.12983195 0.038668234 2.350987e-38
-0.047499597 -0.12983195 0.038668234 2.3508795e-38
-0.045866609 -0.13064255 0.035695154 2.3509521e-38
-0.044079833 -0.13064255 0.035695154 2.3508446e-38
-0.042293064 -0.13064255 0.035695154 2.3508091e-38
-0.040640011 -0.13145791 0.032704551 2.3509168e-38
-0.038847998 -0.13145791 0.032704551 2.3416251e-38
-0.037055984 -0.13145791 0.032704551 2.3509883e-38
-0.035382647 -0.1322781 0.029696304 2.350988e-38
-0.033585362 -0.1322781 0.029696304 2.350952e-38
-0.031896837 -0.13310309 0.026670415 2.3509883e-38
-0.030094244 -0.13310309 0.026670415 2.3509527e-38
-0.02829165 -0.13310309 0.026670415 2.3509527e-38
-0.02648906 -0.13310309 0.026670415 2.3232944e-38
-0.024686467 -0.13310309 0.026670415 1.7424625e-38
-0.02296374 -0.13390426 0.023731787 1.1339349e-38
-0.021155991 -0.13390426 0.023731787 1.1045567e-39
-0.019420713 -0.13473894 0.020670373 1.0102087e-39
-0.017607599 -0.13473894 0.020670373 9.1835496e-40
-0.015794486 -0.13473894 0.020670373 4.3270499e-39
-0.013981376 -0.13473894 0.020670373 1.6680899e-38
-0.01223376 -0.13581105 0.016738135 1.8339366e-38
-0.010413755 -0.13581105 0.016738135 9.1194612e-39
-0.0085937455 -0.13581105 0.016738135 1.1938769e-39
-0.0067737401 -0.13581105 0.016738135 7.3469938e-40
-0.0049537346 -0.13581105 0.016738135 1.0105632e-39
-0.0031573623 -0.13662781 0.013742406 1.1045385e-39
-0.0013321042 -0.13662781 0.013742406 1.1048958e-39
0.00049315393 -0.13662781 0.013742406 1.3814785e-39
0.0023184139 -0.13662781 0.013742406 1.1945873e-39
0.0041410327 -0.13744931 0.010729272 5.5102559e-40
0.0059715733 -0.13744931 0.010729272 6.4357715e-40
0.007817816 -0.1390769 0.0047596283 7.361189e-40
0.0096588247 -0.1390769 0.0047596283 3.0388222e-39
0.04402031 -0.14835624 -0.029275101 9.3987891e-41
0.045920994 -0.14835624 -0.029275101 7.1746481e-43
0.047821678 -0.14835624 -0.029275101 3.5873241e-43
0.049847357 -0.14918335 -0.032308739 2.8576988e-39
0.051879346 -0.14998297 -0.035241645 6.6359245e-39
-0.072293989 -0.13763104 0.016738135 1.0325543e-38
-0.070473976 -0.13763104 0.016738135 9.8649296e-39
-0.068653964 -0.13763104 0.016738135 8.8514993e-39
-0.066561632 -0.13655205 0.020670373 6.9153911e-39
-0.064541869 -0.13571201 0.023731787 5.3480654e-39
-0.06273412 -0.13571201 0.023731787 7.1916123e-39
-0.060544662 -0.13407536 0.029696304 8.2053942e-39
-0.058747374 -0.13407536 0.029696304 8.1121084e-39
-0.056950085 -0.13407536 0.029696304 9.2180846e-39
-0.054800451 -0.13242932 0.035695154 1.0139674e-38
-0.053013682 -0.13242932 0.035695154 2.0281193e-38
-0.051062711 -0.13161351 0.038668234 2.3509848e-38
-0.049281158 -0.13161351 0.038668234 2.350986e-38
-0.047653377 -0.13242932 0.035695154 2.3508428e-38
-0.045866609 -0.13242932 0.035695154 2.3509157e-38
-0.043936484 -0.13161351 0.038668234 2.3509165e-38
-0.042154931 -0.13161351 0.038668234 2.3509168e-38
-0.040640011 -0.13324992 0.032704551 2.3509168e-38
-0.038847998 -0.13324992 0.032704551 2.3139308e-38
-0.037055984 -0.13324992 0.032704551 2.3324055e-38
-0.035382647 -0.13407536 0.029696304 2.3509524e-38
-0.033585362 -0.13407536 0.029696304 2.350988e-38
-0.031788077 -0.13407536 0.029696304 2.3232933e-38
-0.030094244 -0.13490568 0.026670415 2.3325131e-38
-0.02829165 -0.13490568 0.026670415 2.2863797e-38
-0.02648906 -0.13490568 0.026670415 2.3509168e-38
-0.024686467 -0.13490568 0.026670415 1.6686696e-38
-0.02296374 -0.13571201 0.023731787 1.0140449e-38
-0.021155991 -0.13571201 0.023731787 2.755163e-40
-0.019348249 -0.13571201 0.023731787 1.1938853e-39
-0.017607599 -0.13655205 0.020670373 1.1020344e-39
-0.015794486 -0.13655205 0.020670373 1.2856969e-39
-0.013981376 -0.13655205 0.020670373 1.5666395e-38
-0.01223376 -0.13763104 0.016738135 1.9537918e-38
-0.010413755 -0.13763104 0.016738135 1.0226173e-38
-0.0085420385 -0.13655205 0.020670373 1.3775493e-39
-0.0067289248 -0.13655205 0.020670373 6.4285828e-40
-0.0049537346 -0.13763104 0.016738135 1.3800716e-39
-0.0031337272 -0.13763104 0.016738135 8.2796561e-40
-0.0013137199 -0.13763104 0.016738135 9.2911693e-41
0.00049315393 -0.13845308 0.013742406 9.2911693e-41
0.0023184139 -0.13845308 0.013742406 2.7550649e-40
0.0041436739 -0.13845308 0.013742406 2.755163e-40
0.0059689321 -0.13845308 0.013742406 5.6051939e-45
0.007817816 -0.14091791 0.0047596283 2.7550649e-40
0.0096588247 -0.14091791 0.0047596283 2.854075e-39
-0.072293989 -0.13945107 0.016738135 1.1432258e-38
-0.070473976 -0.13945107 0.016738135 1.0234081e-38
-0.068653964 -0.13945107 0.016738135 7.2848995e-39
-0.066561632 -0.13836516 0.020670373 8.1143028e-39
-0.064748518 -0.13836516 0.020670373 7.1927039e-39
-0.06273412 -0.13751976 0.023731787 6.6388014e-39
-0.060738303 -0.13670824 0.026670415 4.6101304e-39
-0.058747374 -0.13587265 0.029696304 6.4533087e-39
-0.056950085 -0.13587265 0.029696304 1.0325155e-38
-0.054976113 -0.13504194 0.032704551 9.310632e-39
-0.053013682 -0.13421609 0.035695154 1.1154542e-38
-0.051062711 -0.13339506 0.038668234 2.0189719e-38
-0.049281158 -0.13339506 0.038668234 2.3509853e-38
-0.047499597 -0.13339506 0.038668234 2.3509499e-38
-0.045866609 -0.13421609 0.035695154 2.350951e-38
-0.043936484 -0.13339506 0.038668234 2.3509521e-38
-0.042154931 -0.13339506 0.038668234 2.3509168e-38
-0.040640011 -0.13504194 0.032704551 2.3508809e-38
-0.038847998 -0.13504194 0.032704551 2.295492e-38
-0.037055984 -0.13504194 0.032704551 2.3047112e-38
-0.035382647 -0.13587265 0.029696304 2.3509527e-38
-0.033585362 -0.13587265 0.029696304 2.3509883e-38
-0.031788077 -0.13587265 0.029696304 2.350952e-38
-0.030094244 -0.13670824 0.026670415 2.350988e-38
-0.028193504 -0.13587265 0.029696304 2.3048542e-38
-0.026396215 -0.13587265 0.029696304 2.3509883e-38
-0.024598926 -0.13587265 0.029696304 1.6041321e-38
-0.02296374 -0.13751976 0.023731787 1.0970209e-38
-0.021155991 -0.13751976 0.023731787 3.67356e-40
-0.019348249 -0.13751976 0.023731787 5.510326e-40
-0.017540503 -0.13751976 0.023731787 1.5615818e-39
-0.015794486 -0.13836516 0.020670373 3.0363237e-39
-0.013981376 -0.13836516 0.020670373 1.5850796e-38
-0.01223376 -0.13945107 0.016738135 1.7140481e-38
-0.010413755 -0.13945107 0.016738135 9.950668e-39
-0.0085420385 -0.13836516 0.020670373 1.1938755e-39
-0.0067289248 -0.13836516 0.020670373 3.6734899e-40
-0.0049537346 -0.13945107 0.016738135 1.8368921e-40
-0.0031337272 -0.13945107 0.016738135 9.8090893e-45
-0.0013137199 -0.13945107 0.016738135 1.0761972e-42
0.00049315393 -0.14027832 0.013742406 4.6240607e-40
0.0023184139 -0.14027832 0.013742406 0
0.0041436739 -0.14027832 0.013742406 5.5282205e-40
0.0059689321 -0.14027832 0.013742406 1.84757e-40
0.007817816 -0.14275892 0.0047596283 1.8424679e-39
-0.070473976 -0.14127107 0.016738135 1.1432269e-38
-0.068653964 -0.14127107 0.016738135 7.7455259e-39
-0.066561632 -0.14017828 0.020670373 7.468939e-39
-0.064541869 -0.13932751 0.023731787 7.9299144e-39
-0.062540896 -0.13851084 0.026670415 8.2990486e-39
-0.060544662 -0.13766994 0.029696304 5.9012336e-39
-0.058747374 -0.13766994 0.029696304 6.5462302e-39
-0.056950085 -0.13766994 0.029696304 8.5741599e-39
-0.054976113 -0.13683395 0.032704551 8.4815944e-39
-0.053013682 -0.13600285 0.035695154 8.0198904e-39
-0.051062711 -0.13517661 0.038668234 1.4196998e-38
-0.049281158 -0.13517661 0.038668234 2.2493891e-38
-0.047499597 -0.13517661 0.038668234 2.3509856e-38
-0.045718037 -0.13517661 0.038668234 2.3509866e-38
-0.043936484 -0.13517661 0.038668234 2.3509161e-38
-0.042154931 -0.13517661 0.038668234 2.2862358e-38
-0.040506296 -0.13600285 0.035695154 2.3415179e-38
-0.038847998 -0.13683395 0.032704551 2.2677614e-38
-0.037055984 -0.13683395 0.032704551 2.1664181e-38
-0.035382647 -0.13766994 0.029696304 2.2770526e-38
-0.033585362 -0.13766994 0.029696304 2.3325131e-38
-0.031788077 -0.13766994 0.029696304 2.3140737e-38
-0.029990789 -0.13766994 0.029696304 2.3509879e-38
-0.028193504 -0.13766994 0.029696304 2.3509518e-38
-0.026396215 -0.13766994 0.029696304 2.3509879e-38
-0.024598926 -0.13766994 0.029696304 1.4197764e-38
-0.022883877 -0.13851084 0.026670415 9.2192099e-39
-0.021081284 -0.13851084 0.026670415 2.755219e-40
-0.019348249 -0.13932751 0.023731787 7.347148e-40
-0.017540503 -0.13932751 0.023731787 1.1938839e-39
-0.015794486 -0.14017828 0.020670373 2.5760714e-39
-0.013981376 -0.14017828 0.020670373 1.3915052e-38
-0.01223376 -0.14127107 0.016738135 1.6864258e-38
-0.010413755 -0.14127107 0.016738135 9.4900528e-39
-0.0085937455 -0.14127107 0.016738135 3.5920394e-39
-0.0067737401 -0.14127107 0.016738135 1.0123611e-39
-0.0049537346 -0.14127107 0.016738135 2.7625198e-40
-0.0031337272 -0.14127107 0.016738135 1.6815582e-44
-0.0013137199 -0.14127107 0.016738135 1.4349296e-42
0.00049315393 -0.1421036 0.013742406 2.5111268e-42
0.0023184139 -0.1421036 0.013742406 7.1746481e-43
0.0041436739 -0.1421036 0.013742406 3.643376e-43
0.0059689321 -0.1421036 0.013742406 5.6051939e-45
-0.072293989 -0.14309107 0.016738135 1.3275818e-38
-0.070473976 -0.14309107 0.016738135 1.2446421e-38
-0.068653964 -0.14309107 0.016738135 9.8660226e-39
-0.066561632 -0.14199139 0.020670373 7.284545e-39
-0.064541869 -0.14113526 0.023731787 6.2703902e-39
-0.062540896 -0.14031343 0.026670415 7.3770923e-39
-0.060544662 -0.13946722 0.029696304 6.9164673e-39
-0.058747374 -0.13946722 0.029696304 7.5611066e-39
-0.056950085 -0.13946722 0.029696304 6.8235304e-39
-0.054976113 -0.13862596 0.032704551 8.0224253e-39
-0.053013682 -0.13778962 0.035695154 8.3897631e-39
-0.051062711 -0.13695817 0.038668234 9.3106348e-39
-0.049281158 -0.13695817 0.038668234 2.0926567e-38
-0.047499597 -0.13695817 0.038668234 2.3509856e-38
-0.045718037 -0.13695817 0.038668234 2.3509866e-38
-0.043936484 -0.13695817 0.038668234 2.3508437e-38
-0.042154931 -0.13695817 0.038668234 2.1756364e-38
-0.040506296 -0.13778962 0.035695154 2.2309184e-38
-0.038847998 -0.13862596 0.032704551 2.2309903e-38
-0.037055984 -0.13862596 0.032704551 1.9267448e-38
-0.035382647 -0.13946722 0.029696304 2.0189401e-38
-0.033585362 -0.13946722 0.029696304 2.1203907e-38
-0.031788077 -0.13946722 0.029696304 2.1664883e-38
-0.029990789 -0.13946722 0.029696304 2.3509513e-38
-0.028193504 -0.13946722 0.029696304 2.3232206e-38
-0.026303913 -0.13862596 0.032704551 2.3508793e-38
-0.0245119 -0.13862596 0.032704551 1.1984344e-38
-0.022801641 -0.13946722 0.029696304 4.6097843e-39
-0.021081284 -0.14031343 0.026670415 6.4466456e-40
-0.01927869 -0.14031343 0.026670415 4.592027e-40
-0.017540503 -0.14113526 0.023731787 5.5102839e-40
-0.015794486 -0.14199139 0.020670373 2.7615473e-39
-0.013981376 -0.14199139 0.020670373 3.7760566e-39
-0.01223376 -0.14309107 0.016738135 3.2218234e-39
-0.010413755 -0.14309107 0.016738135 3.3147407e-39
-0.0085937455 -0.14309107 0.016738135 1.7495618e-39
-0.0067737401 -0.14309107 0.016738135 9.1841101e-41
-0.0049537346 -0.14309107 0.016738135 1.9618179e-44
-0.0031337272 -0.14309107 0.016738135 3.7694929e-43
-0.0013137199 -0.14309107 0.016738135 1.4349296e-42
0.00050628558 -0.14309107 0.016738135 2.1523944e-42
0.0023184139 -0.14392884 0.013742406 7.1746481e-43
0.0041436739 -0.14392884 0.013742406 7.2447131e-43
0.0059689321 -0.14392884 0.013742406 2.7658969e-40
-0.072293989 -0.14491107 0.016738135 1.3553111e-38
-0.070473976 -0.14491107 0.016738135 1.2630801e-38
-0.068653964 -0.14491107 0.016738135 9.4968687e-39
-0.066561632 -0.14380451 0.020670373 6.9150352e-39
-0.064541869 -0.14294298 0.023731787 7.008307e-39
-0.062540896 -0.14211603 0.026670415 6.5473289e-39
-0.060544662 -0.14126451 0.029696304 6.7324362e-39
-0.058747374 -0.14126451 0.029696304 7.2859645e-39
-0.056950085 -0.14126451 0.029696304 6.3650844e-39
-0.054976113 -0.14041798 0.032704551 6.73422e-39
-0.053184099 -0.14041798 0.032704551 9.3142543e-39
-0.051226914 -0.13957639 0.035695154 9.0347836e-39
-0.049440145 -0.13957639 0.035695154 1.816071e-38
-0.047808059 -0.14041798 0.032704551 2.0557442e-38
-0.046016045 -0.14041798 0.032704551 2.065072e-38
-0.044079833 -0.13957639 0.035695154 2.0650365e-38
-0.042293064 -0.13957639 0.035695154 1.9544381e-38
-0.040640011 -0.14041798 0.032704551 2.0466337e-38
-0.038847998 -0.14041798 0.032704551 1.9636576e-38
-0.037055984 -0.14041798 0.032704551 1.659412e-38
-0.035382647 -0.14126451 0.029696304 1.8253642e-38
-0.033585362 -0.14126451 0.029696304 1.9636213e-38
-0.031788077 -0.14126451 0.029696304 1.9819883e-38
-0.029990789 -0.14126451 0.029696304 1.9727684e-38
-0.028193504 -0.14126451 0.029696304 2.3508063e-38
-0.026303913 -0.14041798 0.032704551 2.3509504e-38
-0.0245119 -0.14041798 0.032704551 9.2163092e-39
-0.022801641 -0.14126451 0.029696304 3.5016389e-39
-0.021004356 -0.14126451 0.029696304 1.0130841e-39
-0.01927869 -0.14211603 0.026670415 9.1848108e-41
-0.017540503 -0.14294298 0.023731787 2.7551349e-40
-0.015732758 -0.14294298 0.023731787 3.6734198e-40
-0.013981376 -0.14380451 0.020670373 3.6734198e-40
-0.01223376 -0.14491107 0.016738135 5.5101858e-40
-0.010413755 -0.14491107 0.016738135 2.7550929e-40
-0.0085937455 -0.14491107 0.016738135 2.7550649e-40
-0.0067737401 -0.14491107 0.016738135 9.1835496e-41
-0.0049537346 -0.14491107 0.016738135 5.6051939e-45
-0.0031337272 -0.14491107 0.016738135 5.6051939e-45
-0.0013137199 -0.14491107 0.016738135 0
0.00050628558 -0.14491107 0.016738135 0
0.0023262929 -0.14491107 0.016738135 9.2198432e-41
0.0041463003 -0.14491107 0.016738135 1.836752e-40
0.0059689321 -0.14575411 0.013742406 5.5101298e-40
-0.070473976 -0.14673109 0.016738135 1.1893589e-38
-0.068653964 -0.14673109 0.016738135 8.4823511e-39
-0.066561632 -0.14561762 0.020670373 7.5600388e-39
-0.064541869 -0.14475073 0.023731787 8.1139315e-39
-0.062540896 -0.14391862 0.026670415 7.5618367e-39
-0.060544662 -0.1430618 0.029696304 6.271458e-39
-0.058747374 -0.1430618 0.029696304 5.1665454e-39
-0.056768119 -0.14220999 0.032704551 5.0747099e-39
-0.054976113 -0.14220999 0.032704551 6.4583618e-39
-0.053184099 -0.14220999 0.032704551 8.8543664e-39
-0.051226914 -0.14136316 0.035695154 9.588686e-39
-0.049440145 -0.14136316 0.035695154 1.4565808e-38
-0.047808059 -0.14220999 0.032704551 1.5487764e-38
-0.046016045 -0.14220999 0.032704551 1.7424236e-38
-0.044224031 -0.14220999 0.032704551 1.7977409e-38
-0.042432018 -0.14220999 0.032704551 1.5027871e-38
-0.040640011 -0.14220999 0.032704551 1.5212262e-38
-0.038847998 -0.14220999 0.032704551 1.5581045e-38
-0.037055984 -0.14220999 0.032704551 1.5764716e-38
-0.035263974 -0.14220999 0.032704551 1.5303736e-38
-0.033585362 -0.1430618 0.029696304 1.5118626e-38
-0.031788077 -0.1430618 0.029696304 1.6039859e-38
-0.029990789 -0.1430618 0.029696304 1.7514626e-38
-0.028193504 -0.1430618 0.029696304 2.0648556e-38
-0.026303913 -0.14220999 0.032704551 1.9909912e-38
-0.0245119 -0.14220999 0.032704551 4.2373836e-39
-0.022801641 -0.1430618 0.029696304 2.9481022e-39
-0.021004356 -0.1430618 0.029696304 7.3649445e-40
-0.019207068 -0.1430618 0.029696304 9.1841101e-41
-0.017540503 -0.14475073 0.023731787 9.1841101e-41
-0.015732758 -0.14475073 0.023731787 9.1838299e-41
-0.014108919 -0.14757936 0.013742406 9.1838299e-41
-0.01223376 -0.14673109 0.016738135 2.7586802e-40
-0.010413755 -0.14673109 0.016738135 9.1835496e-41
-0.0085937455 -0.14673109 0.016738135 9.1835496e-41
-0.0067289248 -0.14561762 0.020670373 9.1835496e-41
-0.0048862919 -0.14475073 0.023731787 9.1835496e-41
-0.0030785464 -0.14475073 0.023731787 9.1835496e-41
-0.0012708027 -0.14475073 0.023731787 9.1838299e-41
0.00053694099 -0.14475073 0.023731787 9.1838299e-41
0.0023262929 -0.14673109 0.016738135 1.83678e-40
0.0041463003 -0.14673109 0.016738135 3.6734339e-40
-0.070473976 -0.14855109 0.016738135 1.2446044e-38
-0.068653964 -0.14855109 0.016738135 9.496503e-39
-0.066561632 -0.14743073 0.020670373 8.2054083e-39
-0.06434349 -0.14572121 0.026670415 8.7593009e-39
-0.062341951 -0.14485909 0.029696304 8.483793e-39
-0.060352139 -0.14400201 0.032704551 6.5480449e-39
-0.05856014 -0.14400201 0.032704551 4.1523935e-39
-0.056768119 -0.14400201 0.032704551 4.5215361e-39
-0.054800451 -0.14314993 0.035695154 6.7345886e-39
-0.053013682 -0.14314993 0.035695154 8.3004723e-39
-0.051226914 -0.14314993 0.035695154 9.5883287e-39
-0.049440145 -0.14314993 0.035695154 1.2168366e-38
-0.047653377 -0.14314993 0.035695154 1.2444953e-38
-0.045866609 -0.14314993 0.035695154 1.5027151e-38
-0.044079833 -0.14314993 0.035695154 1.5949107e-38
