# .PCD v0.7 - Point Cloud Data file format
VERSION 0.7
FIELDS x y z rgb
SIZE 4 4 4 4
TYPE F F F F
COUNT 1 1 1 1
WIDTH 567
HEIGHT 1
VIEWPOINT 0 0 0 1 0 0 0
POINTS 567
DATA ascii
-0.022159602 -0.11257361 -0.045471616 1.9179557e-38
-0.020323746 -0.11257361 -0.045471616 1.7241296e-38
-0.018479919 -0.11182173 -0.042441078 1.8622798e-38
-0.016646735 -0.11107419 -0.039427944 2.3509168e-38
-0.014821477 -0.11107419 -0.039427944 2.3416248e-38
-0.012996217 -0.11107419 -0.039427944 2.3509524e-38
-0.011184089 -0.11033095 -0.036432214 2.3509527e-38
-0.0093640834 -0.11033095 -0.036432214 1.8992303e-38
-0.0075440765 -0.11033095 -0.036432214 1.4383606e-38
-0.0057240701 -0.11033095 -0.036432214 2.1223086e-39
-0.022141004 -0.11365227 -0.042441078 2.0930552e-38
-0.020310462 -0.11365227 -0.042441078 1.8993016e-38
-0.018471995 -0.11289944 -0.039427944 1.9175978e-38
-0.016644109 -0.11215095 -0.036432214 2.3508809e-38
-0.014824104 -0.11215095 -0.036432214 2.3508092e-38
-0.013004096 -0.11215095 -0.036432214 2.3509527e-38
-0.011201326 -0.11116849 -0.032499976 2.2495382e-38
-0.009388214 -0.11116849 -0.032499976 1.7794847e-38
-0.0075992565 -0.11040358 -0.029438563 6.6406203e-39
-0.0057915119 -0.11040358 -0.029438563 7.6551338e-39
-0.022122514 -0.11472471 -0.039427944 2.3509863e-38
-0.020284124 -0.11397095 -0.036432214 2.2589e-38
-0.018453775 -0.1129816 -0.032499976 1.9546561e-38
-0.016640663 -0.1129816 -0.032499976 1.9638762e-38
-0.014830234 -0.11221133 -0.029438563 1.6871451e-38
-0.01302249 -0.11221133 -0.029438563 1.4843147e-38
-0.011227626 -0.11147197 -0.026499934 2.0376327e-38
-0.0094250347 -0.11147197 -0.026499934 1.5859104e-38
-0.0076224417 -0.11147197 -0.026499934 1.9824957e-38
-0.0058198501 -0.11147197 -0.026499934 1.8811527e-38
-0.022122514 -0.11654995 -0.039427944 2.3509846e-38
-0.020284124 -0.11579098 -0.036432214 2.2406037e-38
-0.018453775 -0.11479472 -0.032499976 1.3650714e-38
-0.016640663 -0.11479472 -0.032499976 1.420426e-38
-0.01483281 -0.11327456 -0.026499934 1.5031141e-38
-0.013030218 -0.11327456 -0.026499934 1.7426427e-38
-0.011227626 -0.11327456 -0.026499934 2.1483038e-38
-0.0094436035 -0.11250792 -0.023474045 2.0469965e-38
-0.0076463162 -0.11250792 -0.023474045 2.1391921e-38
-0.0058490294 -0.11250792 -0.023474045 1.9917153e-38
-0.0040517426 -0.11250792 -0.023474045 1.3093957e-38
-0.020284124 -0.11761098 -0.036432214 2.3234354e-38
-0.018437995 -0.11507715 -0.026499934 2.2499695e-38
-0.016635403 -0.11507715 -0.026499934 2.2224189e-38
-0.01483281 -0.11507715 -0.026499934 2.2867037e-38
-0.013030218 -0.11507715 -0.026499934 2.2867037e-38
-0.011240888 -0.11430521 -0.023474045 2.1852171e-38
-0.0094436035 -0.11430521 -0.023474045 1.5676142e-38
-0.0076463162 -0.11430521 -0.023474045 7.562571e-39
-0.0058490294 -0.11430521 -0.023474045 3.8747458e-39
-0.0040517426 -0.11430521 -0.023474045 2.2141483e-39
-0.018437995 -0.11687975 -0.026499934 2.3234379e-38
-0.016635403 -0.11687975 -0.026499934 2.1300074e-38
-0.014835462 -0.1161025 -0.023474045 2.1760678e-38
-0.013038177 -0.1161025 -0.023474045 2.3142531e-38
-0.011240888 -0.1161025 -0.023474045 1.8349077e-38
-0.0094436035 -0.1161025 -0.023474045 7.5625514e-39
-0.0076700519 -0.11532979 -0.020465799 4.1509585e-39
-0.0058780392 -0.11532979 -0.020465799 5.1651133e-39
-0.0040860265 -0.11532979 -0.020465799 2.1223058e-39
-0.0022940147 -0.11532979 -0.020465799 2.7804004e-40
-0.014835462 -0.11789979 -0.023474045 2.350987e-38
-0.013038177 -0.11789979 -0.023474045 1.3002435e-38
-0.011254076 -0.1171218 -0.020465799 9.3142543e-39
-0.0094620641 -0.1171218 -0.020465799 2.4914232e-39
-0.0076700519 -0.1171218 -0.020465799 1.5694725e-39
-0.0058780392 -0.1171218 -0.020465799 8.761096e-39
-0.0041539934 -0.1155795 -0.014502116 1.0789049e-38
-0.0023724367 -0.1155795 -0.014502116 1.5121892e-38
-0.014835462 -0.11969708 -0.023474045 2.3509869e-38
-0.013038177 -0.11969708 -0.023474045 1.3185748e-38
-0.011254076 -0.11891381 -0.020465799 1.1618066e-38
-0.0094804168 -0.11813517 -0.017475195 8.4834175e-39
-0.0076936469 -0.11813517 -0.017475195 7.9298892e-39
-0.0059068785 -0.11813517 -0.017475195 1.3001376e-38
-0.0041539934 -0.11736105 -0.014502116 1.5674696e-38
-0.0023724367 -0.11736105 -0.014502116 2.1851452e-38
-0.011254076 -0.12070583 -0.020465799 2.3326199e-38
-0.0094986614 -0.11914261 -0.014502116 2.2404606e-38
-0.0077171051 -0.11914261 -0.014502116 2.3418043e-38
-0.0059355493 -0.11914261 -0.014502116 2.3418047e-38
-0.0041539934 -0.11914261 -0.014502116 2.2957431e-38
-0.0023724367 -0.11914261 -0.014502116 2.3234379e-38
-0.00059088087 -0.11914261 -0.014502116 2.3234379e-38
0.0066005024 -0.11992194 -0.017475195 2.2774484e-38
0.0083872713 -0.11992194 -0.017475195 2.2958514e-38
0.010174042 -0.11992194 -0.017475195 2.1944377e-38
0.012369134 -0.12386028 -0.032499976 2.0838759e-38
-0.011280216 -0.12092416 -0.014502116 2.2955996e-38
-0.0094986614 -0.12092416 -0.014502116 2.3509886e-38
-0.0077412282 -0.12011738 -0.011444636 2.3509886e-38
-0.0059650331 -0.12011738 -0.011444636 2.2127314e-38
-0.0041888379 -0.12011738 -0.011444636 2.341805e-38
-0.0024126428 -0.12011738 -0.011444636 2.2958155e-38
-0.00059088087 -0.12092416 -0.014502116 2.2589374e-38
0.001190675 -0.12092416 -0.014502116 2.3234379e-38
0.0047537866 -0.12092416 -0.014502116 2.286632e-38
0.0065353434 -0.12092416 -0.014502116 2.2958873e-38
0.0083168987 -0.12092416 -0.014502116 2.2683007e-38
0.010098455 -0.12092416 -0.014502116 2.2775202e-38
0.012123838 -0.12329166 -0.023474045 2.2775202e-38
0.013921125 -0.12329166 -0.023474045 2.0841272e-38
0.015718412 -0.12329166 -0.023474045 1.1346207e-38
-0.011280216 -0.12270571 -0.014502116 2.3509168e-38
-0.0095174238 -0.12189357 -0.011444636 2.2863448e-38
-0.0077412282 -0.12189357 -0.011444636 2.3509527e-38
-0.0059943409 -0.12108628 -0.0084055141 2.3509527e-38
-0.0042234738 -0.12108628 -0.0084055141 2.2771967e-38
-0.0024526077 -0.12108628 -0.0084055141 2.341805e-38
-0.0006817407 -0.12108628 -0.0084055141 2.3141822e-38
0.0010891254 -0.12108628 -0.0084055141 2.3050703e-38
0.0026959642 -0.11871959 0.00050418824 2.3234376e-38
0.0046308595 -0.12108628 -0.0084055141 2.2498245e-38
0.0064017265 -0.12108628 -0.0084055141 2.3142538e-38
0.0081725921 -0.12108628 -0.0084055141 2.2591518e-38
0.010020724 -0.12189357 -0.011444636 2.3142537e-38
0.01188001 -0.12270571 -0.014502116 2.2867037e-38
0.013661567 -0.12270571 -0.014502116 2.1579547e-38
0.015534349 -0.12349547 -0.017475195 1.9551984e-38
0.01741812 -0.12428986 -0.020465799 1.254475e-38
0.019815017 -0.11551671 0.012561969 2.3102998e-39
0.022968661 -0.11339863 0.0205357 8.1171713e-39
0.024688784 -0.11339863 0.0205357 1.1158181e-38
0.026408907 -0.11339863 0.0205357 1.134113e-38
-0.014848674 -0.12285714 -0.0084055141 1.3457328e-38
-0.013077807 -0.12285714 -0.0084055141 2.3232227e-38
-0.011293618 -0.12366976 -0.011444636 2.3509168e-38
-0.0095360726 -0.12285714 -0.0084055141 2.3232227e-38
-0.007765207 -0.12285714 -0.0084055141 2.3509168e-38
-0.0060225041 -0.12207626 -0.0054850057 2.314075e-38
-0.0042567584 -0.12207626 -0.0054850057 2.3509527e-38
-0.0025305082 -0.12127317 -0.0024815276 2.2864879e-38
-0.00077002821 -0.12127317 -0.0024815276 2.3418047e-38
0.00099045178 -0.12127317 -0.0024815276 2.3141816e-38
0.0026959642 -0.12047486 0.00050418824 2.3049978e-38
0.0044512092 -0.12047486 0.00050418824 2.3234369e-38
0.0062718908 -0.12127317 -0.0024815276 2.3234369e-38
0.0080323722 -0.12127317 -0.0024815276 2.2958857e-38
0.0097928513 -0.12127317 -0.0024815276 2.286666e-38
0.011553332 -0.12127317 -0.0024815276 2.2958873e-38
0.013661567 -0.1244873 -0.014502116 2.2499695e-38
0.015534349 -0.12528224 -0.017475195 2.2132353e-38
0.016444493 -0.11805601 0.0095504448 1.8260163e-38
0.018080913 -0.11725079 0.012561969 9.6863215e-39
0.019815017 -0.11725079 0.012561969 5.1683671e-39
0.021472611 -0.11670811 0.014591627 5.2591152e-39
0.023085553 -0.11591102 0.017572634 6.7342368e-39
0.024688784 -0.11511876 0.0205357 1.1711356e-38
0.026408907 -0.11511876 0.0205357 1.1987223e-38
0.02812903 -0.11511876 0.0205357 1.2815541e-38
0.029849153 -0.11511876 0.0205357 1.2722983e-38
-0.014848674 -0.12462802 -0.0084055141 1.5671815e-38
-0.013077807 -0.12462802 -0.0084055141 2.2771607e-38
-0.011293618 -0.12544595 -0.011444636 2.3509168e-38
-0.0095360726 -0.12462802 -0.0084055141 2.3324778e-38
-0.0077882498 -0.12384202 -0.0054850057 2.3509527e-38
-0.0060225041 -0.12384202 -0.0054850057 2.3232583e-38
-0.0042567584 -0.12384202 -0.0054850057 2.3509886e-38
-0.0025305082 -0.12303366 -0.0024815276 2.3509886e-38
-0.00077002821 -0.12303366 -0.0024815276 2.3509883e-38
0.00094071915 -0.1222301 0.00050418824 2.3418045e-38
0.0026395093 -0.12140475 0.0035707876 2.3325847e-38
0.0043893768 -0.12140475 0.0035707876 2.2773391e-38
0.0061392444 -0.12140475 0.0035707876 2.2773391e-38
0.0078891143 -0.12140475 0.0035707876 2.3234369e-38
0.0095639881 -0.12061088 0.0065205619 2.3418043e-38
0.011308685 -0.12061088 0.0065205619 2.3050708e-38
0.013138719 -0.12140475 0.0035707876 2.2591531e-38
0.014798077 -0.12061088 0.0065205619 2.2316024e-38
0.016444493 -0.1197954 0.0095504448 2.240786e-38
0.018080913 -0.11898489 0.012561969 1.4018793e-38
0.019815017 -0.11898489 0.012561969 3.969105e-39
0.021472611 -0.11843865 0.014591627 2.7698332e-39
0.023085553 -0.11763634 0.017572634 7.8398683e-39
0.024810873 -0.11763634 0.017572634 1.318613e-38
0.026408907 -0.11683889 0.0205357 1.3462353e-38
0.027993113 -0.11602069 0.023575716 1.2446759e-38
0.029707905 -0.11602069 0.023575716 1.1985421e-38
0.031422697 -0.11602069 0.023575716 1.2905579e-38
-0.014848674 -0.12639888 -0.0084055141 2.0098633e-38
-0.013077807 -0.12639888 -0.0084055141 2.3325843e-38
-0.01130694 -0.12639888 -0.0084055141 2.3325843e-38
-0.009553995 -0.12560774 -0.0054850057 2.3509879e-38
-0.0077882498 -0.12560774 -0.0054850057 2.3509879e-38
-0.0060514673 -0.12479414 -0.0024815276 2.2957065e-38
-0.0042909873 -0.12479414 -0.0024815276 2.3509883e-38
-0.0025305082 -0.12479414 -0.0024815276 2.3509883e-38
-0.00081452494 -0.12398534 0.00050418824 2.2772318e-38
0.00088963984 -0.12315463 0.0035707876 2.3509886e-38
0.0025852039 -0.12235557 0.0065205619 2.3509527e-38
0.0043298989 -0.12235557 0.0065205619 2.3509886e-38
0.0060745957 -0.12235557 0.0065205619 2.3509886e-38
0.0078192931 -0.12235557 0.0065205619 2.3509527e-38
0.0095639881 -0.12235557 0.0065205619 2.3509527e-38
0.011308685 -0.12235557 0.0065205619 2.3417691e-38
0.013053382 -0.12235557 0.0065205619 2.2867037e-38
0.01470511 -0.12153481 0.0095504448 2.2499336e-38
0.016444493 -0.12153481 0.0095504448 2.2775202e-38
0.01818388 -0.12153481 0.0095504448 1.8903718e-38
0.019815017 -0.120719 0.012561969 9.5915937e-39
0.021549121 -0.120719 0.012561969 5.2580362e-39
0.023085553 -0.11936165 0.017572634 7.8398683e-39
0.024810873 -0.11936165 0.017572634 1.2817351e-38
0.026408907 -0.11855899 0.0205357 1.3738944e-38
0.027993113 -0.11773549 0.023575716 1.2170176e-38
0.029707905 -0.11773549 0.023575716 1.1339695e-38
-0.016619539 -0.12816976 -0.0084055141 1.9455776e-38
-0.014848674 -0.12816976 -0.0084055141 2.2958133e-38
-0.013077807 -0.12816976 -0.0084055141 2.350987e-38
-0.011319742 -0.1273735 -0.0054850057 2.350987e-38
-0.009553995 -0.1273735 -0.0054850057 2.3509873e-38
-0.0078119473 -0.12655462 -0.0024815276 2.3509876e-38
-0.0060514673 -0.12655462 -0.0024815276 2.2864868e-38
-0.0042909873 -0.12655462 -0.0024815276 2.350988e-38
-0.00256977 -0.12574057 0.00050418824 2.3141456e-38
-0.00086022774 -0.1249045 0.0035707876 2.3509527e-38
0.00079003861 -0.12327419 0.0095504448 2.3048189e-38
0.0025294232 -0.12327419 0.0095504448 2.2955999e-38
0.0042688078 -0.12327419 0.0095504448 2.2679412e-38
0.0060081906 -0.12327419 0.0095504448 2.3509168e-38
0.0077475752 -0.12327419 0.0095504448 2.3323345e-38
0.0094869584 -0.12327419 0.0095504448 2.3508809e-38
0.011226343 -0.12327419 0.0095504448 2.3509527e-38
0.012965726 -0.12327419 0.0095504448 2.2496821e-38
0.01470511 -0.12327419 0.0095504448 2.1759975e-38
0.016444493 -0.12327419 0.0095504448 2.1852171e-38
0.01818388 -0.12327419 0.0095504448 2.2681931e-38
0.019923262 -0.12327419 0.0095504448 2.0008257e-38
0.021662645 -0.12327419 0.0095504448 1.2632606e-38
0.023402028 -0.12327419 0.0095504448 9.1288121e-39
0.025141414 -0.12327419 0.0095504448 1.2632243e-38
-0.020187996 -0.13161351 -0.014502116 1.8618212e-40
-0.01840644 -0.13161351 -0.014502116 1.4349296e-42
-0.016619539 -0.12994061 -0.0084055141 2.1208581e-38
-0.014848674 -0.12994061 -0.0084055141 2.2958856e-38
-0.013077807 -0.12994061 -0.0084055141 2.3326201e-38
-0.011319742 -0.12913923 -0.0054850057 2.3418038e-38
-0.0095724277 -0.12831511 -0.0024815276 2.341804e-38
-0.0078119473 -0.12831511 -0.0024815276 2.2957061e-38
-0.00608026 -0.12749584 0.00050418824 2.323365e-38
-0.004325015 -0.12749584 0.00050418824 2.350988e-38
-0.0026100953 -0.12665437 0.0035707876 2.3232933e-38
-0.00086022774 -0.12665437 0.0035707876 2.3508807e-38
0.00079003861 -0.12501357 0.0095504448 2.3509167e-38
0.0024739816 -0.12418722 0.012561969 2.3509168e-38
0.0042080856 -0.12418722 0.012561969 2.3509168e-38
0.0059421877 -0.12418722 0.012561969 2.3508809e-38
0.0076762917 -0.12418722 0.012561969 2.3322985e-38
0.0094103962 -0.12418722 0.012561969 2.1663107e-38
0.0111445 -0.12418722 0.012561969 1.8898312e-38
0.012965726 -0.12501357 0.0095504448 1.7701198e-38
0.01470511 -0.12501357 0.0095504448 1.7609717e-38
0.016444493 -0.12501357 0.0095504448 1.7978501e-38
0.01818388 -0.12501357 0.0095504448 2.0744014e-38
0.019923262 -0.12501357 0.0095504448 2.1297909e-38
0.021662645 -0.12501357 0.0095504448 1.6042403e-38
0.023402028 -0.12501357 0.0095504448 1.1248233e-38
0.025141414 -0.12501357 0.0095504448 1.1247514e-38
-0.020187996 -0.13339506 -0.014502116 1.8546465e-40
-0.01840644 -0.13339506 -0.014502116 9.5429827e-41
-0.016619539 -0.1317115 -0.0084055141 2.1393339e-38
-0.014848674 -0.1317115 -0.0084055141 2.2958867e-38
-0.013077807 -0.1317115 -0.0084055141 2.3418047e-38
-0.011319742 -0.13090499 -0.0054850057 2.3418047e-38
-0.0095724277 -0.13007559 -0.0024815276 2.3418047e-38
-0.0078119473 -0.13007559 -0.0024815276 2.3233296e-38
-0.00608026 -0.12925108 0.00050418824 2.3509883e-38
-0.004325015 -0.12925108 0.00050418824 2.3509883e-38
-0.0026100953 -0.12840421 0.0035707876 2.3417327e-38
-0.00090418896 -0.12758966 0.0065205619 2.3509164e-38
0.00079003861 -0.12675296 0.0095504448 2.3509527e-38
0.0024739816 -0.12592132 0.012561969 2.3508088e-38
0.0042080856 -0.12592132 0.012561969 1.7791599e-38
0.0059421877 -0.12592132 0.012561969 1.650086e-38
0.0076282504 -0.12536083 0.014591627 1.6407585e-38
0.0093587954 -0.12536083 0.014591627 1.8251498e-38
0.0111445 -0.12592132 0.012561969 1.7053308e-38
0.012878602 -0.12592132 0.012561969 1.7883417e-38
0.014612706 -0.12592132 0.012561969 1.7423517e-38
0.016346812 -0.12592132 0.012561969 1.7976692e-38
0.01818388 -0.12675296 0.0095504448 1.9359992e-38
0.019923262 -0.12675296 0.0095504448 1.972842e-38
0.021662645 -0.12675296 0.0095504448 1.9913537e-38
0.023402028 -0.12675296 0.0095504448 1.8254019e-38
0.025141414 -0.12675296 0.0095504448 1.2814479e-38
-0.021969553 -0.13517661 -0.014502116 1.0109079e-39
-0.020187996 -0.13517661 -0.014502116 3.6841818e-40
-0.01840644 -0.13517661 -0.014502116 1.2939758e-39
-0.016619539 -0.13348235 -0.0084055141 2.0840534e-38
-0.014848674 -0.13348235 -0.0084055141 2.2958873e-38
-0.013085488 -0.13267075 -0.0054850057 2.2957438e-38
-0.011332907 -0.13183604 -0.0024815276 2.3234379e-38
-0.0095724277 -0.13183604 -0.0024815276 2.3234379e-38
-0.0078355055 -0.13100632 0.00050418824 2.3417691e-38
-0.00608026 -0.13100632 0.00050418824 2.3509527e-38
-0.004325015 -0.13100632 0.00050418824 2.3509168e-38
-0.0026100953 -0.13015409 0.0035707876 2.3509527e-38
-0.00090418896 -0.12933435 0.0065205619 2.3509524e-38
0.00079003861 -0.12849234 0.0095504448 2.2955267e-38
0.0024739816 -0.12765543 0.012561969 2.2032949e-38
0.0041671596 -0.12709136 0.014591627 1.7238051e-38
0.005897704 -0.12709136 0.014591627 1.6869268e-38
0.0076282504 -0.12709136 0.014591627 1.5577808e-38
0.0093587954 -0.12709136 0.014591627 1.6776708e-38
0.01108934 -0.12709136 0.014591627 1.5485248e-38
0.012819884 -0.12709136 0.014591627 1.6315719e-38
0.014612706 -0.12765543 0.012561969 1.7790849e-38
0.016346812 -0.12765543 0.012561969 1.7883409e-38
0.018080913 -0.12765543 0.012561969 1.7791579e-38
0.019923262 -0.12849234 0.0095504448 1.7883423e-38
0.021662645 -0.12849234 0.0095504448 1.9635508e-38
0.023402028 -0.12849234 0.0095504448 1.9174896e-38
0.025141414 -0.12849234 0.0095504448 1.3089987e-38
-0.023751108 -0.13695817 -0.014502116 1.0101905e-39
-0.021950789 -0.13610314 -0.011444636 1.1023847e-39
-0.020174595 -0.13610314 -0.011444636 3.6734198e-40
-0.018390406 -0.13525321 -0.0084055141 2.3977996e-39
-0.016619539 -0.13525321 -0.0084055141 2.0377395e-38
-0.014848674 -0.13525321 -0.0084055141 2.2036211e-38
-0.013085488 -0.13443647 -0.0054850057 2.1482323e-38
-0.011332907 -0.13359652 -0.0024815276 2.1666712e-38
-0.0095724277 -0.13359652 -0.0024815276 2.2587585e-38
-0.0078355055 -0.13276155 0.00050418824 2.3417691e-38
-0.00608026 -0.13276155 0.00050418824 2.3509527e-38
-0.0043599638 -0.13190396 0.0035707876 2.314039e-38
-0.0026100953 -0.13190396 0.0035707876 2.3509527e-38
-0.00090418896 -0.13107903 0.0065205619 2.3416248e-38
0.00079003861 -0.13023172 0.0095504448 1.7423165e-38
0.0024739816 -0.12938951 0.012561969 1.4840961e-38
0.0041671596 -0.12882192 0.014591627 1.4380338e-38
0.005897704 -0.12882192 0.014591627 1.871353e-38
0.0076282504 -0.12882192 0.014591627 1.6592666e-38
0.0093587954 -0.12882192 0.014591627 1.4472522e-38
0.01108934 -0.12882192 0.014591627 1.0969088e-38
0.012819884 -0.12882192 0.014591627 1.2996676e-38
0.014550431 -0.12882192 0.014591627 1.8435861e-38
0.016346812 -0.12938951 0.012561969 1.8712814e-38
0.018080913 -0.12938951 0.012561969 1.7974894e-38
0.019815017 -0.12938951 0.012561969 1.8067458e-38
0.021662645 -0.13023172 0.0095504448 1.6777444e-38
0.023402028 -0.13023172 0.0095504448 1.5487427e-38
0.025141414 -0.13023172 0.0095504448 1.3643161e-38
0.026880797 -0.13023172 0.0095504448 1.1707053e-38
-0.023751108 -0.13873972 -0.014502116 6.4284847e-40
-0.021950789 -0.13787933 -0.011444636 8.2651947e-40
-0.020174595 -0.13787933 -0.011444636 1.0109079e-39
-0.018390406 -0.13702409 -0.0084055141 4.2381025e-39
-0.016619539 -0.13702409 -0.0084055141 1.9728056e-38
-0.014848674 -0.13702409 -0.0084055141 2.166562e-38
-0.013085488 -0.13620223 -0.0054850057 1.9823153e-38
-0.011332907 -0.13535701 -0.0024815276 1.9729879e-38
-0.0095724277 -0.13535701 -0.0024815276 2.2495029e-38
-0.0078355055 -0.13451682 0.00050418824 2.3508809e-38
-0.0061098323 -0.13365383 0.0035707876 2.3139312e-38
-0.0043599638 -0.13365383 0.0035707876 2.3509168e-38
-0.0026488849 -0.13282375 0.0065205619 2.3509165e-38
-0.00094934413 -0.13197111 0.0095504448 2.3508801e-38
0.00079003861 -0.13197111 0.0095504448 1.428779e-38
0.0024366151 -0.13055246 0.014591627 1.3919362e-38
0.0041671596 -0.13055246 0.014591627 1.7514986e-38
0.005897704 -0.13055246 0.014591627 1.7791925e-38
0.0076282504 -0.13055246 0.014591627 1.5118608e-38
0.0093587954 -0.13055246 0.014591627 1.5118605e-38
0.01108934 -0.13055246 0.014591627 1.2167992e-38
0.012819884 -0.13055246 0.014591627 1.2720462e-38
0.014550431 -0.13055246 0.014591627 1.5301589e-38
0.016346812 -0.13112362 0.012561969 1.594696e-38
0.018080913 -0.13112362 0.012561969 1.7606481e-38
0.019815017 -0.13112362 0.012561969 1.7515009e-38
0.021662645 -0.13197111 0.0095504448 1.6039879e-38
0.023402028 -0.13197111 0.0095504448 1.521084e-38
0.025141414 -0.13197111 0.0095504448 1.2352775e-38
0.026880797 -0.13197111 0.0095504448 1.226058e-38
-0.021950789 -0.13965552 -0.011444636 6.4284847e-40
-0.020174595 -0.13965552 -0.011444636 7.3468397e-40
-0.018390406 -0.13879494 -0.0084055141 3.6827679e-39
-0.016619539 -0.13879494 -0.0084055141 1.7882337e-38
-0.014851233 -0.13796796 -0.0054850057 1.6687046e-38
-0.013085488 -0.13796796 -0.0054850057 1.567362e-38
-0.011332907 -0.13711749 -0.0024815276 1.6226434e-38
-0.0095907487 -0.13627206 0.00050418824 1.991354e-38
-0.0078596994 -0.13540371 0.0035707876 2.3231504e-38
-0.0061098323 -0.13540371 0.0035707876 2.3509168e-38
-0.0043935818 -0.13456844 0.0065205619 2.3509168e-38
-0.0026887278 -0.13371049 0.0095504448 2.0834407e-38
-0.00094934413 -0.13371049 0.0095504448 1.972698e-38
0.00079003861 -0.13371049 0.0095504448 1.3089247e-38
0.0024366151 -0.13228302 0.014591627 1.3734971e-38
0.0041671596 -0.13228302 0.014591627 1.7607182e-38
0.005897704 -0.13228302 0.014591627 1.7332029e-38
0.0076282504 -0.13228302 0.014591627 1.2537853e-38
0.0093587954 -0.13228302 0.014591627 1.2169068e-38
0.01108934 -0.13228302 0.014591627 1.2906281e-38
0.012819884 -0.13228302 0.014591627 1.2168017e-38
0.014550431 -0.13228302 0.014591627 1.1522299e-38
0.016346812 -0.13285773 0.012561969 1.106132e-38
0.018080913 -0.13285773 0.012561969 1.4933537e-38
0.019815017 -0.13285773 0.012561969 1.7422816e-38
0.021662645 -0.13371049 0.0095504448 1.6777447e-38
-0.021950789 -0.1414317 -0.011444636 5.5101298e-40
-0.020174595 -0.1414317 -0.011444636 7.3468397e-40
-0.018390406 -0.14056583 -0.0084055141 2.4845877e-39
-0.016619539 -0.14056583 -0.0084055141 1.4287426e-38
-0.014851233 -0.13973372 -0.0054850057 1.7516077e-38
-0.013085488 -0.13973372 -0.0054850057 1.5120432e-38
-0.011332907 -0.13887797 -0.0024815276 1.475165e-38
-0.0095907487 -0.1380273 0.00050418824 1.7885585e-38
-0.0078596994 -0.13715358 0.0035707876 2.1111712e-38
-0.0061382777 -0.13631313 0.0065205619 2.3508801e-38
-0.0044281124 -0.13544987 0.0095504448 2.3507722e-38
-0.0027283295 -0.13459183 0.012561969 1.8897219e-38
-0.00099422643 -0.13459183 0.012561969 1.6407218e-38
0.00073987758 -0.13459183 0.012561969 1.2350966e-38
0.0024739816 -0.13459183 0.012561969 1.3273639e-38
0.0041070539 -0.13316421 0.017572634 1.677707e-38
0.0058323718 -0.13316421 0.017572634 1.5763995e-38
0.0075576897 -0.13316421 0.017572634 9.2184616e-39
0.0092830081 -0.13316421 0.017572634 8.7581995e-39
0.011008326 -0.13316421 0.017572634 1.2814454e-38
0.012819884 -0.13401355 0.014591627 1.3458757e-38
0.014550431 -0.13401355 0.014591627 1.1245709e-38
0.01818388 -0.13544987 0.0095504448 1.5210121e-38
0.019923262 -0.13544987 0.0095504448 1.6869642e-38
0.021662645 -0.13544987 0.0095504448 1.5302317e-38
-0.02193214 -0.14233668 -0.0084055141 3.6734198e-40
-0.020161273 -0.14233668 -0.0084055141 6.4284847e-40
-0.018390406 -0.14233668 -0.0084055141 1.4711616e-39
-0.016619539 -0.14233668 -0.0084055141 1.0507405e-38
-0.014851233 -0.14149947 -0.0054850057 1.2630416e-38
-0.013085488 -0.14149947 -0.0054850057 1.1340397e-38
-0.011332907 -0.14063846 -0.0024815276 1.3275785e-38
-0.0095907487 -0.13978253 0.00050418824 1.7793015e-38
-0.0078596994 -0.13890342 0.0035707876 1.9636213e-38
-0.0061674961 -0.13718925 0.0095504448 2.0464898e-38
-0.0044624335 -0.13632594 0.012561969 2.0188314e-38
-0.0027550193 -0.13574408 0.014591627 1.6776356e-38
-0.0010689017 -0.13488953 0.017572634 1.6222827e-38
0.00065641617 -0.13488953 0.017572634 1.2535002e-38
0.0023817341 -0.13488953 0.017572634 1.2812307e-38
0.0041070539 -0.13488953 0.017572634 1.5762567e-38
0.0058323718 -0.13488953 0.017572634 1.4104125e-38
0.0075576897 -0.13488953 0.017572634 9.3099495e-39
0.0092830081 -0.13488953 0.017572634 9.402864e-39
-0.02193214 -0.14410757 -0.0084055141 2.7550649e-40
-0.020161273 -0.14410757 -0.0084055141 3.6734198e-40
-0.018382724 -0.1432652 -0.0054850057 7.3468397e-40
-0.01661698 -0.1432652 -0.0054850057 6.8199417e-39
-0.014851233 -0.1432652 -0.0054850057 9.7719843e-39
-0.013085488 -0.1432652 -0.0054850057 1.0602458e-38
-0.011332907 -0.14239894 -0.0024815276 1.3367611e-38
-0.0095907487 -0.14153777 0.00050418824 1.7238751e-38
-0.0078596994 -0.1406533 0.0035707876 1.8160712e-38
-0.0061674961 -0.13892864 0.0095504448 1.8712814e-38
-0.0044624335 -0.13806005 0.012561969 1.926599e-38
-0.0027550193 -0.13747464 0.014591627 1.6776354e-38
-0.0010689017 -0.13661484 0.017572634 1.6222827e-38
0.00065641617 -0.13661484 0.017572634 1.1889634e-38
0.0023817341 -0.13661484 0.017572634 1.1336823e-38
0.0041070539 -0.13661484 0.017572634 1.3733912e-38
0.0058323718 -0.13661484 0.017572634 1.2536448e-38
0.0075576897 -0.13661484 0.017572634 1.1891078e-38
0.0092830081 -0.13661484 0.017572634 1.2352775e-38
0.011008326 -0.13661484 0.017572634 1.2444971e-38
-0.02193214 -0.14587842 -0.0084055141 9.1838299e-41
-0.020161273 -0.14587842 -0.0084055141 2.7550649e-40
-0.018382724 -0.14503096 -0.0054850057 3.6734198e-40
-0.01661698 -0.14503096 -0.0054850057 3.5941764e-39
-0.014851233 -0.14503096 -0.0054850057 7.0061126e-39
-0.013085488 -0.14503096 -0.0054850057 1.0140393e-38
-0.011319742 -0.14503096 -0.0054850057 1.1615526e-38
-0.0095724277 -0.14415942 -0.0024815276 1.2444213e-38
-0.0078596994 -0.14240317 0.0035707876 1.3642762e-38
-0.0061674961 -0.14066802 0.0095504448 1.5762907e-38
-0.0044281124 -0.14066802 0.0095504448 1.6960378e-38
-0.0027550193 -0.13920517 0.014591627 1.4747687e-38
-0.0010689017 -0.13834016 0.017572634 1.4562942e-38
0.00065641617 -0.13834016 0.017572634 1.0414503e-38
0.0023817341 -0.13834016 0.017572634 8.5709566e-39
0.0041070539 -0.13834016 0.017572634 9.8616982e-39
0.0058323718 -0.13834016 0.017572634 9.67803e-39
0.0075576897 -0.13834016 0.017572634 1.2260227e-38
0.0092830081 -0.13834016 0.017572634 1.2168753e-38
0.011008326 -0.13834016 0.017572634 9.3110454e-39
-0.02193214 -0.14764927 -0.0084055141 7.0064923e-45
-0.020161273 -0.14764927 -0.0084055141 9.1841101e-41
-0.018390406 -0.14764927 -0.0084055141 9.1838299e-41
-0.016619539 -0.14764927 -0.0084055141 1.3818442e-39
-0.014848674 -0.14764927 -0.0084055141 2.3030621e-39
-0.013085488 -0.14679669 -0.0054850057 7.7425874e-39
-0.011319742 -0.14679669 -0.0054850057 1.0047481e-38
-0.0095724277 -0.1459199 -0.0024815276 1.1245307e-38
-0.0078355055 -0.14504828 0.00050418824 1.3457649e-38
-0.00608026 -0.14504828 0.00050418824 1.5485958e-38
-0.004325015 -0.14504828 0.00050418824 1.6406481e-38
-0.0027550193 -0.14093573 0.014591627 1.4839881e-38
-0.0010689017 -0.14006548 0.017572634 1.3733179e-38
0.00065641617 -0.14006548 0.017572634 1.152085e-38
0.0023817341 -0.14006548 0.017572634 7.9255844e-39
0.0041070539 -0.14006548 0.017572634 7.6490031e-39
0.0057674306 -0.13920046 0.0205357 8.6638781e-39
0.0074875536 -0.13920046 0.0205357 1.262901e-38
0.0092830081 -0.14006548 0.017572634 1.1984364e-38
0.011008326 -0.14006548 0.017572634 9.6798279e-39
-0.020161273 -0.14942016 -0.0084055141 2.7623516e-40
-0.018390406 -0.14942016 -0.0084055141 7.0064923e-45
-0.016619539 -0.14942016 -0.0084055141 4.5953621e-40
-0.014848674 -0.14942016 -0.0084055141 5.5137171e-40
-0.013077807 -0.14942016 -0.0084055141 5.6220921e-39
-0.011319742 -0.14856245 -0.0054850057 7.373093e-39
-0.0095724277 -0.14768039 -0.0024815276 8.4790846e-39
-0.0078119473 -0.14768039 -0.0024815276 1.0691783e-38
-0.0060514673 -0.14768039 -0.0024815276 1.1889971e-38
-0.0044855648 -0.14266627 0.014591627 1.4009395e-38
-0.0027550193 -0.14266627 0.014591627 1.5669642e-38
-0.0010689017 -0.14179079 0.017572634 1.4931722e-38
0.00065641617 -0.14179079 0.017572634 1.4655857e-38
0.0023817341 -0.14179079 0.017572634 9.7698529e-39
0.0041070539 -0.14179079 0.017572634 8.2032531e-39
0.0057674306 -0.14092059 0.0205357 1.0508507e-38
0.0074875536 -0.14092059 0.0205357 1.4842783e-38
0.0092076771 -0.14092059 0.0205357 1.4474001e-38
0.0109278 -0.14092059 0.0205357 1.4381802e-38
-0.0095724277 -0.14944084 -0.0024815276 6.7277348e-39
-0.0078119473 -0.14944084 -0.0024815276 8.0177576e-39
-0.0060514673 -0.14944084 -0.0024815276 9.400692e-39
-0.0044624335 -0.14499645 0.012561969 1.1152053e-38
-0.0027283295 -0.14499645 0.012561969 1.2442795e-38
-0.0010689017 -0.14351611 0.017572634 1.4655491e-38
0.00065641617 -0.14351611 0.017572634 1.5024637e-38
0.0023817341 -0.14351611 0.017572634 1.3642424e-38
0.0041070539 -0.14351611 0.017572634 1.0324104e-38
0.0058323718 -0.14351611 0.017572634 9.771292e-39
0.0075576897 -0.14351611 0.017572634 1.3091417e-38
0.0092076771 -0.14264072 0.0205357 1.5580699e-38
0.0109278 -0.14264072 0.0205357 1.4843133e-38
0.012819884 -0.14439683 0.014591627 1.4842052e-38
0.014612706 -0.14499645 0.012561969 1.4749856e-38
0.016346812 -0.14499645 0.012561969 1.3920095e-38
0.018080913 -0.14499645 0.012561969 1.4196682e-38
-0.0044624335 -0.14673056 0.012561969 8.2017971e-39
-0.0027283295 -0.14673056 0.012561969 1.1613396e-38
-0.0010689017 -0.14524142 0.017572634 1.447146e-38
0.00065641617 -0.14524142 0.017572634 1.4564375e-38
0.0023817341 -0.14524142 0.017572634 1.4842043e-38
0.0041070539 -0.14524142 0.017572634 1.4473621e-38
0.005897704 -0.14612736 0.014591627 1.327508e-38
0.0075576897 -0.14524142 0.017572634 1.2169812e-38
0.0092830081 -0.14524142 0.017572634 1.1248216e-38
0.011008326 -0.14524142 0.017572634 1.0234067e-38
0.012819884 -0.14612736 0.014591627 1.3368001e-38
0.014612706 -0.14673056 0.012561969 1.4012291e-38
0.016280975 -0.14612736 0.014591627 1.4104489e-38
0.018011522 -0.14612736 0.014591627 1.2721555e-38
-0.0061965366 -0.14846466 0.012561969 1.1960138e-39
-0.0027283295 -0.14846466 0.012561969 8.2950717e-39
-0.0010689017 -0.14696677 0.017572634 1.2075093e-38
0.00065641617 -0.14696677 0.017572634 1.2628624e-38
0.0023817341 -0.14696677 0.017572634 1.3643497e-38
0.0041671596 -0.14785792 0.014591627 1.4658368e-38
0.005897704 -0.14785792 0.014591627 1.4566171e-38
0.0075576897 -0.14696677 0.017572634 1.3460902e-38
0.0092830081 -0.14696677 0.017572634 1.2539306e-38
0.011008326 -0.14696677 0.017572634 1.2262724e-38
0.012819884 -0.14785792 0.014591627 1.3921174e-38
0.014612706 -0.14846466 0.012561969 1.4105568e-38
0.016280975 -0.14785792 0.014591627 1.4013017e-38
0.018011522 -0.14785792 0.014591627 1.0970561e-38
