# .PCD v0.7 - Point Cloud Data file format
VERSION 0.7
FIELDS x y z rgb
SIZE 4 4 4 4
TYPE F F F F
COUNT 1 1 1 1
WIDTH 942
HEIGHT 1
VIEWPOINT 0 0 0 1 0 0 0
POINTS 942
DATA ascii
-0.001093748 -0.11223195 0.0063871443 1.2546175e-38
0.00064383447 -0.11148177 0.0093076527 6.6467103e-39
0.0024095811 -0.11148177 0.0093076527 4.5243976e-39
0.029010985 -0.11223195 0.0063871443 6.0867164e-39
-0.055624567 -0.13393532 -0.07068643 1.0508493e-38
-0.053718567 -0.13393532 -0.07068643 1.013971e-38
-0.051698204 -0.13315077 -0.067652792 1.161484e-38
-0.04979752 -0.13315077 -0.067652792 1.4104122e-38
-0.047896836 -0.13315077 -0.067652792 1.3550949e-38
-0.045771159 -0.13135691 -0.060716361 1.3182166e-38
-0.043759741 -0.13032107 -0.056711048 1.1338253e-38
-0.041878242 -0.13032107 -0.056711048 4.7923665e-39
-0.039996743 -0.13032107 -0.056711048 1.8417518e-39
-0.038037207 -0.12952723 -0.053641528 8.2760267e-40
-0.036161091 -0.12952723 -0.053641528 2.7550649e-40
-0.034284972 -0.12952723 -0.053641528 1.473335e-39
-0.011724292 -0.1155795 0.00029054284 5.2507985e-39
-0.0099427355 -0.1155795 0.00029054284 9.76655e-39
-0.0081692217 -0.11478879 0.0033480227 1.0136414e-38
-0.0063930256 -0.11478879 0.0033480227 1.80678e-38
-0.0046168314 -0.11478879 0.0033480227 2.2957075e-38
-0.0028646141 -0.11400281 0.0063871443 2.2775202e-38
-0.0011219112 -0.11324753 0.0093076527 1.7338915e-38
0.00064383447 -0.11324753 0.0093076527 1.0793726e-38
0.0023700846 -0.11247079 0.012311131 3.2318707e-39
0.0041305646 -0.11247079 0.012311131 5.0721792e-39
0.025469251 -0.11400281 0.0063871443 3.5873241e-43
0.02724012 -0.11400281 0.0063871443 3.685415e-43
0.029010985 -0.11400281 0.0063871443 2.1748152e-42
0.03078185 -0.11400281 0.0063871443 7.3974546e-40
0.032552719 -0.11400281 0.0063871443 7.3848429e-43
-0.055624567 -0.13584132 -0.07068643 1.0507417e-38
-0.053598888 -0.13505147 -0.067652792 9.2166777e-39
-0.051698204 -0.13505147 -0.067652792 1.0415221e-38
-0.04979752 -0.13505147 -0.067652792 1.2904503e-38
-0.047896836 -0.13505147 -0.067652792 1.2812307e-38
-0.045771159 -0.13324542 -0.060716361 1.253572e-38
-0.043759741 -0.13220255 -0.056711048 1.1337177e-38
-0.041878242 -0.13220255 -0.056711048 7.003984e-39
-0.039996743 -0.13220255 -0.056711048 6.0816746e-39
-0.038037207 -0.13140334 -0.053641528 3.0392216e-39
-0.036091514 -0.13063805 -0.050702184 1.4729749e-39
-0.034220554 -0.13063805 -0.050702184 6.4465615e-40
-0.013513667 -0.11813517 -0.0026825368 3.1306871e-39
-0.011724292 -0.11736105 0.00029054284 6.448634e-39
-0.0099427355 -0.11736105 0.00029054284 7.2783638e-39
-0.0081692217 -0.11656497 0.0033480227 2.2087154e-39
-0.0064063473 -0.11577369 0.0063871443 8.5730641e-39
-0.0046354802 -0.11577369 0.0063871443 2.3509856e-38
-0.0028876569 -0.11501329 0.0093076527 2.0747605e-38
-0.0011219112 -0.11501329 0.0093076527 2.2775202e-38
0.00064383447 -0.11501329 0.0093076527 1.438578e-38
0.0023700846 -0.11423124 0.012311131 4.8874754e-39
0.0041305646 -0.11423124 0.012311131 5.8069052e-39
0.0058910446 -0.11423124 0.012311131 1.4931384e-38
0.0076515255 -0.11423124 0.012311131 1.4838453e-38
0.0094120046 -0.11423124 0.012311131 1.2533551e-38
0.011172484 -0.11423124 0.012311131 7.7400945e-39
0.012862292 -0.11345388 0.015296847 3.1313976e-39
0.014617537 -0.11345388 0.015296847 1.8428252e-39
0.025469251 -0.11577369 0.0063871443 1.7531617e-39
0.027016804 -0.11423124 0.012311131 9.2341365e-40
0.028777283 -0.11423124 0.012311131 4.6280684e-40
0.03078185 -0.11577369 0.0063871443 1.1140323e-42
0.032552719 -0.11577369 0.0063871443 1.8468259e-39
0.034323584 -0.11577369 0.0063871443 2.9427268e-44
0.036094453 -0.11577369 0.0063871443 7.3848429e-43
-0.055624567 -0.13774733 -0.07068643 9.401069e-39
-0.053598888 -0.13695215 -0.067652792 8.1103302e-39
-0.051698204 -0.13695215 -0.067652792 8.7556996e-39
-0.04979752 -0.13695215 -0.067652792 1.023083e-38
-0.047896836 -0.13695215 -0.067652792 1.0599612e-38
-0.045771159 -0.13513394 -0.060716361 1.0968395e-38
-0.043759741 -0.13408406 -0.056711048 1.0968396e-38
-0.041878242 -0.13408406 -0.056711048 9.9535253e-39
-0.039996743 -0.13408406 -0.056711048 1.1428305e-38
-0.037962481 -0.13250901 -0.050702184 9.4000012e-39
-0.035995811 -0.13144915 -0.046658844 8.0185087e-39
-0.034131937 -0.13144915 -0.046658844 4.1480901e-39
-0.013513667 -0.11992194 -0.0026825368 1.1020316e-39
-0.011724292 -0.11914261 0.00029054284 4.7894798e-39
-0.0099427355 -0.11914261 0.00029054284 4.9734815e-39
-0.0081772143 -0.11754455 0.0063871443 9.1943116e-40
-0.0064063473 -0.11754455 0.0063871443 4.8859466e-39
-0.0046354802 -0.11754455 0.0063871443 2.3234333e-38
-0.0028876569 -0.11677901 0.0093076527 2.323436e-38
-0.0011219112 -0.11677901 0.0093076527 2.2314582e-38
0.00064383447 -0.11677901 0.0093076527 1.475205e-38
0.0023700846 -0.11599173 0.012311131 5.8994834e-39
0.0041305646 -0.11599173 0.012311131 4.3296311e-39
0.0058910446 -0.11599173 0.012311131 7.9241663e-39
0.0076515255 -0.11599173 0.012311131 5.8036345e-39
0.0094120046 -0.11599173 0.012311131 5.2511642e-39
0.011172484 -0.11599173 0.012311131 4.6075871e-39
0.012862292 -0.11520912 0.015296847 2.1201099e-39
0.014617537 -0.11520912 0.015296847 1.3839994e-39
0.025256325 -0.11599173 0.012311131 2.2957796e-38
0.027016804 -0.11599173 0.012311131 2.1760348e-38
0.028777283 -0.11599173 0.012311131 2.0838404e-38
0.030661516 -0.11677901 0.0093076527 1.4477271e-38
0.032298245 -0.11599173 0.012311131 9.9607672e-39
0.034058724 -0.11599173 0.012311131 1.7553533e-39
0.035819203 -0.11599173 0.012311131 1.3872785e-39
-0.055499569 -0.13885282 -0.067652792 8.6645829e-39
-0.053598888 -0.13885282 -0.067652792 8.2958004e-39
-0.051698204 -0.13885282 -0.067652792 8.6635053e-39
-0.04979752 -0.13885282 -0.067652792 8.9400922e-39
-0.047896836 -0.13885282 -0.067652792 9.4003515e-39
-0.045771159 -0.13702248 -0.060716361 9.5847428e-39
-0.043665558 -0.13515557 -0.053641528 1.0045724e-38
-0.041789442 -0.13515557 -0.053641528 1.1613049e-38
-0.039833441 -0.13437997 -0.050702184 1.2165507e-38
-0.037859686 -0.13331302 -0.046658844 1.253429e-38
-0.035924509 -0.1325181 -0.043646425 1.1336828e-38
-0.034065917 -0.1325181 -0.043646425 8.6656731e-39
-0.017124016 -0.12329166 -0.0086813867 1.3811422e-39
-0.015313544 -0.12249784 -0.0056731403 7.3469238e-40
-0.013513667 -0.12170871 -0.0026825368 1.4704624e-39
-0.011726898 -0.12170871 -0.0026825368 6.1720611e-39
-0.0099427355 -0.12092416 0.00029054284 5.9894313e-39
-0.0081772143 -0.11931543 0.0063871443 2.671839e-39
-0.0064063473 -0.11931543 0.0063871443 2.8583798e-39
-0.0046354802 -0.11931543 0.0063871443 2.0652858e-38
-0.0028876569 -0.11854477 0.0093076527 2.2220564e-38
-0.0011219112 -0.11854477 0.0093076527 2.1758888e-38
0.00064383447 -0.11854477 0.0093076527 1.1984375e-38
0.0023700846 -0.11775221 0.012311131 7.4649972e-39
0.0041305646 -0.11775221 0.012311131 7.7401393e-39
0.0058910446 -0.11775221 0.012311131 7.278787e-39
0.0076515255 -0.11775221 0.012311131 5.251181e-39
0.0094120046 -0.11775221 0.012311131 4.3306484e-39
0.011172484 -0.11775221 0.012311131 3.871464e-39
0.012932965 -0.11775221 0.012311131 4.1502116e-39
0.014693444 -0.11775221 0.012311131 4.2442164e-39
0.025038783 -0.11615516 0.018363446 2.3234379e-38
0.026788652 -0.11615516 0.018363446 2.2405707e-38
0.028659496 -0.11696436 0.015296847 2.2867037e-38
0.030537765 -0.11775221 0.012311131 2.2775202e-38
0.032298245 -0.11775221 0.012311131 1.595348e-38
0.034058724 -0.11775221 0.012311131 1.208198e-38
0.035819203 -0.11775221 0.012311131 1.5720313e-39
-0.057230935 -0.13970654 -0.063711256 9.4950625e-39
-0.055337161 -0.13970654 -0.063711256 9.9553218e-39
-0.053598888 -0.14075352 -0.067652792 1.04163e-38
-0.051698204 -0.14075352 -0.067652792 1.0599614e-38
-0.04979752 -0.14075352 -0.067652792 9.7698529e-39
-0.047896836 -0.14075352 -0.067652792 9.6769412e-39
-0.045771159 -0.13891099 -0.060716361 8.9393762e-39
-0.043665558 -0.13703169 -0.053641528 8.8471805e-39
-0.041789442 -0.13703169 -0.053641528 1.1428658e-38
-0.039833441 -0.13625093 -0.050702184 1.1243548e-38
-0.037859686 -0.13517688 -0.046658844 1.1704526e-38
-0.035924509 -0.13437669 -0.043646425 9.5851057e-39
-0.034065917 -0.13437669 -0.043646425 1.1891794e-38
-0.032207321 -0.13437669 -0.043646425 1.1893952e-38
-0.030054204 -0.13012715 -0.027648419 8.9465662e-39
-0.028223664 -0.13012715 -0.027648419 7.5647108e-39
-0.017105557 -0.12428986 -0.0056731403 1.5655334e-39
-0.015300435 -0.12349547 -0.0026825368 6.4285688e-40
-0.013513667 -0.12349547 -0.0026825368 1.6548536e-39
-0.011724292 -0.12270571 0.00029054284 7.2794905e-39
-0.0099427355 -0.12270571 0.00029054284 6.0830703e-39
-0.0081692217 -0.12189357 0.0033480227 2.3963325e-39
-0.0063930256 -0.12189357 0.0033480227 3.687423e-39
-0.0046354802 -0.12108628 0.0063871443 3.688516e-39
-0.0028646141 -0.12108628 0.0063871443 3.5956156e-39
-0.0011219112 -0.1203105 0.0093076527 4.9782011e-39
0.00064383447 -0.1203105 0.0093076527 4.9767689e-39
0.0023700846 -0.11951269 0.012311131 7.2798646e-39
0.0041305646 -0.11951269 0.012311131 8.1092596e-39
0.0058910446 -0.11951269 0.012311131 7.0025463e-39
0.0076515255 -0.11951269 0.012311131 7.0029008e-39
0.0094120046 -0.11951269 0.012311131 5.0682247e-39
0.011172484 -0.11951269 0.012311131 4.4257307e-39
0.012862292 -0.11871959 0.015296847 1.088158e-38
0.014539574 -0.11790501 0.018363446 1.6231087e-38
0.016289443 -0.11790501 0.018363446 2.2958857e-38
0.018128026 -0.11871959 0.015296847 2.350987e-38
0.019789178 -0.11790501 0.018363446 2.3509156e-38
0.021539047 -0.11790501 0.018363446 2.3232932e-38
0.023393761 -0.11871959 0.015296847 2.3509886e-38
0.025038783 -0.11790501 0.018363446 2.3234379e-38
0.026788652 -0.11790501 0.018363446 2.2129483e-38
0.028302621 -0.11631663 0.024343103 2.2867037e-38
0.030042008 -0.11631663 0.024343103 2.1853618e-38
0.032298245 -0.11951269 0.012311131 2.2039083e-38
0.034058724 -0.11951269 0.012311131 1.90892e-38
0.035819203 -0.11951269 0.012311131 1.2359995e-38
-0.057230935 -0.1416003 -0.063711256 1.0048236e-38
-0.055337161 -0.1416003 -0.063711256 1.0692888e-38
-0.053598888 -0.1426542 -0.067652792 1.1061671e-38
-0.051698204 -0.1426542 -0.067652792 1.1889996e-38
-0.04979752 -0.1426542 -0.067652792 1.1797801e-38
-0.047896836 -0.1426542 -0.067652792 1.0414869e-38
-0.045868304 -0.1416003 -0.063711256 9.0319347e-39
-0.04397453 -0.1416003 -0.063711256 9.3999984e-39
-0.041878242 -0.13972856 -0.056711048 1.0598542e-38
-0.039913327 -0.13890781 -0.053641528 1.115135e-38
-0.037859686 -0.13704078 -0.046658844 9.676937e-39
-0.035924509 -0.13623528 -0.043646425 9.7702074e-39
-0.034065917 -0.13623528 -0.043646425 1.179995e-38
-0.032086872 -0.134638 -0.037672609 1.3369434e-38
-0.030054204 -0.13195769 -0.027648419 1.2357077e-38
-0.028223664 -0.13195769 -0.027648419 9.7770388e-39
-0.026393123 -0.13195769 -0.027648419 7.933845e-39
-0.024562582 -0.13195769 -0.027648419 4.153827e-39
-0.020776108 -0.12848105 -0.014645904 1.2943289e-39
-0.01894518 -0.12769531 -0.011707276 6.4716447e-40
-0.017105557 -0.12608187 -0.0056731403 1.1056287e-39
-0.015300435 -0.12528224 -0.0026825368 8.2760547e-40
-0.013513667 -0.12528224 -0.0026825368 1.1945929e-39
-0.011724292 -0.1244873 0.00029054284 6.2656987e-39
-0.0099427355 -0.1244873 0.00029054284 5.5302594e-39
-0.0081692217 -0.12366976 0.0033480227 2.4888854e-39
-0.0064063473 -0.12285714 0.0063871443 1.1978075e-39
-0.0046534026 -0.12207626 0.0093076527 2.3038033e-39
-0.0028876569 -0.12207626 0.0093076527 2.0268647e-39
-0.0011219112 -0.12207626 0.0093076527 2.2108902e-39
0.00060960557 -0.12127317 0.012311131 4.4232126e-39
0.0023308229 -0.12047486 0.015296847 4.9760179e-39
0.0040860679 -0.12047486 0.015296847 7.4649383e-39
0.005841312 -0.12047486 0.015296847 6.5426275e-39
0.007596557 -0.12047486 0.015296847 5.8050765e-39
0.0093518021 -0.12047486 0.015296847 6.3593377e-39
0.011107047 -0.12047486 0.015296847 6.1771072e-39
0.012862292 -0.12047486 0.015296847 1.6228942e-38
0.014539574 -0.11965488 0.018363446 1.9273545e-38
0.016289443 -0.11965488 0.018363446 2.2683348e-38
0.018128026 -0.12047486 0.015296847 2.350988e-38
0.019698668 -0.11886616 0.02131322 2.3509527e-38
0.021443367 -0.11886616 0.02131322 2.3509527e-38
0.023188062 -0.11886616 0.02131322 2.3509886e-38
0.024823856 -0.11805601 0.024343103 2.3234379e-38
0.026563238 -0.11805601 0.024343103 2.3142544e-38
0.028183818 -0.11725079 0.027354628 2.2958873e-38
0.029917922 -0.11725079 0.027354628 2.2775202e-38
0.03178139 -0.11805601 0.024343103 2.2591531e-38
0.033520773 -0.11805601 0.024343103 2.0841624e-38
-0.055624567 -0.14537133 -0.07068643 1.0139714e-38
-0.053718567 -0.14537133 -0.07068643 1.1983271e-38
-0.051698204 -0.14455487 -0.067652792 1.327401e-38
-0.04979752 -0.14455487 -0.067652792 1.3088542e-38
-0.047896836 -0.14455487 -0.067652792 1.2350977e-38
-0.045868304 -0.14349405 -0.063711256 1.1982198e-38
-0.043882638 -0.14268802 -0.060716361 1.1244633e-38
-0.041994117 -0.14268802 -0.060716361 1.0506346e-38
-0.039833441 -0.13999285 -0.050702184 9.5847414e-39
-0.037859686 -0.13890465 -0.046658844 8.1099644e-39
-0.035853606 -0.13728772 -0.040651053 8.2028761e-39
-0.033934988 -0.13648613 -0.037672609 1.0693956e-38
-0.032086872 -0.13648613 -0.037672609 1.2723698e-38
-0.030110002 -0.13460387 -0.030678958 1.2541101e-38
-0.028274141 -0.13460387 -0.030678958 1.1436552e-38
-0.026393123 -0.13378824 -0.027648419 1.0975934e-38
-0.024522956 -0.13297729 -0.024635285 1.0975936e-38
-0.022618741 -0.13111271 -0.017707318 9.3156977e-39
-0.020776108 -0.13028879 -0.014645904 7.8394914e-39
-0.01894518 -0.1294979 -0.011707276 4.1498739e-39
-0.017124016 -0.12868352 -0.0086813867 1.9357425e-39
-0.015300435 -0.12706901 -0.0026825368 1.2885808e-39
-0.013513667 -0.12706901 -0.0026825368 1.1031134e-39
-0.011724292 -0.12626885 0.00029054284 4.8834845e-39
-0.0099480813 -0.12462802 0.0063871443 3.3183014e-39
-0.0081772143 -0.12462802 0.0063871443 1.105972e-39
-0.0064191492 -0.12384202 0.0093076527 1.3818442e-39
-0.0046718344 -0.12303366 0.012311131 3.6863833e-39
-0.0029113544 -0.12303366 0.012311131 4.0548028e-39
-0.0011508744 -0.12303366 0.012311131 3.9618799e-39
0.00060960557 -0.12303366 0.012311131 4.7001484e-39
0.0023308229 -0.1222301 0.015296847 4.5153886e-39
0.0040860679 -0.1222301 0.015296847 4.5157446e-39
0.005841312 -0.1222301 0.015296847 3.7778292e-39
0.007596557 -0.1222301 0.015296847 6.1745751e-39
0.0093518021 -0.1222301 0.015296847 1.3643511e-38
0.011107047 -0.1222301 0.015296847 1.595021e-38
0.012862292 -0.1222301 0.015296847 2.2866677e-38
0.014539574 -0.12140475 0.018363446 2.2867032e-38
0.016289443 -0.12140475 0.018363446 2.2958867e-38
0.018039312 -0.12140475 0.018363446 2.3509527e-38
0.019605704 -0.1197954 0.024343103 2.3509168e-38
0.021345086 -0.1197954 0.024343103 2.3509527e-38
0.023084473 -0.1197954 0.024343103 2.341805e-38
0.024823856 -0.1197954 0.024343103 2.341805e-38
0.026563238 -0.1197954 0.024343103 2.3142544e-38
0.028183818 -0.11898489 0.027354628 2.2958873e-38
0.029917922 -0.11898489 0.027354628 2.2867037e-38
0.031652026 -0.11898489 0.027354628 2.1209314e-38
0.034608498 -0.11602069 0.038368374 2.2040518e-38
0.03608251 -0.1146767 0.043362111 2.2499695e-38
0.037490595 -0.11307193 0.049324721 2.1025658e-38
-0.053718567 -0.14727734 -0.07068643 1.1799599e-38
-0.051812563 -0.14727734 -0.07068643 1.2076188e-38
-0.049906559 -0.14727734 -0.07068643 1.170669e-38
-0.047896836 -0.14645557 -0.067652792 1.1614494e-38
-0.045868304 -0.14538784 -0.063711256 1.2075116e-38
-0.043882638 -0.14457656 -0.060716361 1.1982921e-38
-0.041994117 -0.14457656 -0.060716361 1.1705608e-38
-0.039833441 -0.14186381 -0.050702184 1.0692164e-38
-0.037859686 -0.14076851 -0.046658844 9.1251897e-39
-0.035853606 -0.13914107 -0.040651053 8.4808965e-39
-0.033934988 -0.13833423 -0.037672609 9.7719955e-39
-0.031945854 -0.13643973 -0.030678958 1.106381e-38
-0.030110002 -0.13643973 -0.030678958 1.1433309e-38
-0.028223664 -0.13561879 -0.027648419 1.1527301e-38
-0.026348218 -0.13480256 -0.024635285 1.2080475e-38
-0.024483562 -0.13399105 -0.021639556 1.2264868e-38
-0.022618741 -0.13292582 -0.017707318 1.226487e-38
-0.020776108 -0.13209651 -0.014645904 1.1525873e-38
-0.01894518 -0.13130049 -0.011707276 6.5465918e-39
-0.017124016 -0.13048081 -0.0086813867 4.1484362e-39
-0.015300435 -0.12885578 -0.0026825368 4.4239455e-39
-0.013513667 -0.12885578 -0.0026825368 2.7637109e-39
-0.011724292 -0.1280504 0.00029054284 3.3172476e-39
-0.0099480813 -0.12639888 0.0063871443 2.2119819e-39
-0.0081772143 -0.12639888 0.0063871443 9.1835496e-41
-0.0064191492 -0.12560774 0.0093076527 5.5208917e-40
-0.0046718344 -0.12479414 0.012311131 3.1339143e-39
-0.0029113544 -0.12479414 0.012311131 4.0555035e-39
-0.0011508744 -0.12479414 0.012311131 4.2391717e-39
0.00060960557 -0.12479414 0.012311131 4.5157572e-39
0.0023308229 -0.12398534 0.015296847 4.2391703e-39
0.0040860679 -0.12398534 0.015296847 4.8845411e-39
0.0057902327 -0.12315463 0.018363446 2.6725662e-39
0.0075401021 -0.12315463 0.018363446 4.9781787e-39
0.0093518021 -0.12398534 0.015296847 1.668775e-38
0.011039837 -0.12315463 0.018363446 1.9269957e-38
0.012719885 -0.12235557 0.02131322 2.2590087e-38
0.01446458 -0.12235557 0.02131322 2.2406066e-38
0.016209278 -0.12235557 0.02131322 2.2589378e-38
0.017866317 -0.12153481 0.024343103 2.3417333e-38
0.019513298 -0.120719 0.027354628 2.3509168e-38
0.021247406 -0.120719 0.027354628 2.3509527e-38
0.022981506 -0.120719 0.027354628 2.341805e-38
0.02471561 -0.120719 0.027354628 2.341805e-38
0.026449714 -0.120719 0.027354628 2.3234376e-38
0.028103746 -0.12016918 0.029384285 2.3142537e-38
0.029711466 -0.11936165 0.032365292 2.2958866e-38
0.0313095 -0.11855899 0.035328358 2.2958866e-38
0.032893706 -0.11773549 0.038368374 2.2499687e-38
0.034608498 -0.11773549 0.038368374 2.2683366e-38
0.03608251 -0.11638273 0.043362111 2.1946524e-38
0.037490595 -0.11476754 0.049324721 2.2591531e-38
0.039186176 -0.11476754 0.049324721 2.2131277e-38
0.04088176 -0.11476754 0.049324721 1.4755287e-38
-0.051812563 -0.14918335 -0.07068643 9.6787461e-39
-0.04979752 -0.14835624 -0.067652792 9.7709417e-39
-0.047762077 -0.1472816 -0.063711256 9.6787489e-39
-0.045771159 -0.14646508 -0.060716361 9.4943576e-39
-0.043759741 -0.14537306 -0.056711048 1.0692183e-38
-0.041878242 -0.14537306 -0.056711048 1.2352059e-38
-0.039833441 -0.14373477 -0.050702184 1.2721188e-38
-0.037859686 -0.14263238 -0.046658844 1.1799583e-38
-0.035853606 -0.14099441 -0.040651053 1.0324809e-38
-0.033934988 -0.14018236 -0.037672609 9.1262631e-39
-0.031945854 -0.13827558 -0.030678958 8.7581953e-39
-0.030054204 -0.13744931 -0.027648419 9.128054e-39
-0.028223664 -0.13744931 -0.027648419 9.7737793e-39
-0.026348218 -0.13662781 -0.024635285 9.9585307e-39
-0.024483562 -0.13581105 -0.021639556 1.0142925e-38
-0.022583853 -0.13390426 -0.014645904 1.1064884e-38
-0.02074777 -0.13310309 -0.011707276 1.0787942e-38
-0.018921304 -0.1322781 -0.0086813867 6.361839e-39
-0.017105557 -0.13145791 -0.0056731403 6.177096e-39
-0.015300435 -0.13064255 -0.0026825368 9.4035871e-39
-0.013505847 -0.12983195 0.00029054284 7.6518743e-39
-0.011721612 -0.12899835 0.0033480227 5.5310245e-39
-0.0099480813 -0.12816976 0.0063871443 2.6729726e-39
-0.0081772143 -0.12816976 0.0063871443 1.2611686e-44
-0.0064323144 -0.12655462 0.012311131 9.1835496e-41
-0.0046901563 -0.12574057 0.015296847 2.3963479e-39
-0.0029349122 -0.12574057 0.015296847 3.5023269e-39
-0.0011796672 -0.12574057 0.015296847 3.9625806e-39
0.00060960557 -0.12655462 0.012311131 3.6859979e-39
0.0023308229 -0.12574057 0.015296847 3.4101341e-39
0.0040860679 -0.12574057 0.015296847 3.9633107e-39
0.0057902327 -0.1249045 0.018363446 3.9636708e-39
0.0075401021 -0.1249045 0.018363446 8.0213547e-39
0.0093518021 -0.12574057 0.015296847 2.2312399e-38
0.011039837 -0.1249045 0.018363446 2.341804e-38
0.012719885 -0.12410025 0.02131322 2.3234379e-38
0.01446458 -0.12410025 0.02131322 2.323402e-38
0.016126934 -0.12327419 0.024343103 2.3233662e-38
0.017866317 -0.12327419 0.024343103 2.3417333e-38
0.019513298 -0.12245311 0.027354628 2.3509168e-38
0.021247406 -0.12245311 0.027354628 2.3509527e-38
0.022912115 -0.12189974 0.029384285 2.341805e-38
0.024642657 -0.12189974 0.029384285 2.341805e-38
0.026373204 -0.12189974 0.029384285 2.3234374e-38
0.027986147 -0.12108697 0.032365292 2.3234372e-38
0.029711466 -0.12108697 0.032365292 2.3234369e-38
0.0313095 -0.12027912 0.035328358 2.2037265e-38
0.032893706 -0.11945029 0.038368374 2.2958864e-38
0.034472495 -0.11865224 0.041295439 2.2958873e-38
0.03608251 -0.11808877 0.043362111 2.2958873e-38
0.037490595 -0.11646311 0.049324721 2.2406066e-38
0.039186176 -0.11646311 0.049324721 2.2683007e-38
0.041040704 -0.11727346 0.046352535 2.2958873e-38
0.042741496 -0.11727346 0.046352535 1.9915713e-38
-0.047762077 -0.14917539 -0.063711256 8.573123e-39
-0.045771159 -0.14835359 -0.060716361 7.8355579e-39
-0.043759741 -0.14725454 -0.056711048 9.0330249e-39
-0.041878242 -0.14725454 -0.056711048 1.0877289e-38
-0.039833441 -0.14560573 -0.050702184 1.2353127e-38
-0.037859686 -0.14449625 -0.046658844 1.2998128e-38
-0.035853606 -0.14284773 -0.040651053 1.1523352e-38
-0.033934988 -0.14203046 -0.037672609 8.4808937e-39
-0.031945854 -0.14011143 -0.030678958 7.1905094e-39
-0.030054204 -0.13927986 -0.027648419 8.2968542e-39
-0.028223664 -0.13927986 -0.027648419 9.1266121e-39
-0.026348218 -0.13845308 -0.024635285 8.6656339e-39
-0.024483562 -0.13763104 -0.021639556 1.0048568e-38
-0.022583853 -0.13571201 -0.014645904 1.0325877e-38
-0.02074777 -0.13490568 -0.011707276 9.1269792e-39
-0.018921304 -0.13407536 -0.0086813867 3.5959673e-39
-0.017105557 -0.13324992 -0.0056731403 4.1487893e-39
-0.015300435 -0.13242932 -0.0026825368 9.9574798e-39
-0.013505847 -0.13161351 0.00029054284 1.0141516e-38
-0.011718947 -0.12994061 0.0063871443 7.928827e-39
-0.0099480813 -0.12994061 0.0063871443 3.5956464e-39
-0.0081848959 -0.12913923 0.0093076527 1.5414283e-44
-0.0064323144 -0.12831511 0.012311131 5.5245772e-40
-0.0046901563 -0.12749584 0.015296847 2.7647815e-39
-0.0029349122 -0.12749584 0.015296847 3.6863678e-39
-0.0011796672 -0.12749584 0.015296847 3.8711122e-39
0.00057557784 -0.12749584 0.015296847 2.7647647e-39
0.0023308229 -0.12749584 0.015296847 2.5810923e-39
0.0040860679 -0.12749584 0.015296847 1.4754678e-39
0.005841312 -0.12749584 0.015296847 4.7948734e-39
0.007596557 -0.12749584 0.015296847 1.0050389e-38
0.0093518021 -0.12749584 0.015296847 2.3418043e-38
0.011107047 -0.12749584 0.015296847 2.3418047e-38
0.012719885 -0.12584494 0.02131322 2.3048554e-38
0.014387551 -0.12501357 0.024343103 2.332478e-38
0.016045094 -0.12418722 0.027354628 2.3140391e-38
0.017779194 -0.12418722 0.027354628 2.3417691e-38
0.019451022 -0.12363027 0.029384285 2.341805e-38
0.021181569 -0.12363027 0.029384285 2.341805e-38
0.022810191 -0.12281232 0.032365292 2.341805e-38
0.024535511 -0.12281232 0.032365292 2.341805e-38
0.02626083 -0.12281232 0.032365292 2.3418047e-38
0.027986147 -0.12281232 0.032365292 2.3418047e-38
0.029589377 -0.12199925 0.035328358 2.3418047e-38
0.03117891 -0.12116508 0.038368374 2.3418047e-38
0.032762837 -0.12036191 0.041295439 2.3418047e-38
0.034376472 -0.1197948 0.043362111 2.304927e-38
0.03608251 -0.1197948 0.043362111 2.341805e-38
0.037639115 -0.11897425 0.046352535 2.3141467e-38
0.039339907 -0.11897425 0.046352535 2.3234379e-38
0.041040704 -0.11897425 0.046352535 2.3417691e-38
0.042741496 -0.11897425 0.046352535 1.9914623e-38
0.044442289 -0.11897425 0.046352535 1.9268887e-38
0.045968506 -0.11815868 0.049324721 1.5304472e-38
-0.043759741 -0.14913605 -0.056711048 8.2043433e-39
-0.041878242 -0.14913605 -0.056711048 9.0344585e-39
-0.039833441 -0.14747669 -0.050702184 1.0786523e-38
-0.037859686 -0.14636014 -0.046658844 1.2445317e-38
-0.035853606 -0.14470108 -0.040651053 1.1799583e-38
-0.034000266 -0.14470108 -0.040651053 8.665285e-39
-0.032086872 -0.14387859 -0.037672609 7.2816261e-39
-0.030110002 -0.14194728 -0.030678958 8.6641976e-39
-0.028223664 -0.14111041 -0.027648419 9.5854322e-39
-0.026348218 -0.14027832 -0.024635285 9.0326144e-39
-0.024483562 -0.13945107 -0.021639556 1.023152e-38
-0.022583853 -0.13751976 -0.014645904 1.0231883e-38
-0.02074777 -0.13670824 -0.011707276 8.9418691e-39
-0.018921304 -0.13587265 -0.0086813867 3.0417145e-39
-0.017105557 -0.13504194 -0.0056731403 2.3048767e-39
-0.015300435 -0.13421609 -0.0026825368 8.0213715e-39
-0.013505847 -0.13339506 0.00029054284 9.1280834e-39
-0.011718947 -0.1317115 0.0063871443 7.469288e-39
-0.0099480813 -0.1317115 0.0063871443 5.1629693e-39
-0.0081848959 -0.13090499 0.0093076527 1.8368921e-40
-0.0064323144 -0.13007559 0.012311131 2.755163e-40
-0.0046901563 -0.12925108 0.015296847 1.5658866e-39
-0.0029349122 -0.12925108 0.015296847 2.210886e-39
-0.0011796672 -0.12925108 0.015296847 2.8566086e-39
0.00057557784 -0.12925108 0.015296847 2.0275626e-39
0.0023308229 -0.12925108 0.015296847 2.674011e-39
0.0040860679 -0.12925108 0.015296847 3.6885272e-39
0.005841312 -0.12925108 0.015296847 8.667457e-39
0.007596557 -0.12925108 0.015296847 1.2724789e-38
0.0092899697 -0.12840421 0.018363446 2.3234379e-38
0.011039837 -0.12840421 0.018363446 2.314075e-38
0.012648168 -0.12675296 0.024343103 2.3509168e-38
0.014310989 -0.12592132 0.027354628 2.3508809e-38
0.016045094 -0.12592132 0.027354628 2.3509168e-38
0.017720476 -0.12536083 0.029384285 2.3509886e-38
0.019451022 -0.12536083 0.029384285 2.3418047e-38
0.021181569 -0.12536083 0.029384285 2.3418047e-38
0.022810191 -0.12453763 0.032365292 2.341805e-38
0.024535511 -0.12453763 0.032365292 2.341805e-38
0.02626083 -0.12453763 0.032365292 2.341805e-38
0.027869254 -0.12371938 0.035328358 2.3509527e-38
0.029464118 -0.12287988 0.038368374 2.3509527e-38
0.031053174 -0.12207155 0.041295439 2.332478e-38
0.032762837 -0.12207155 0.041295439 2.3509527e-38
0.034376472 -0.12150083 0.043362111 2.2402822e-38
0.03608251 -0.12150083 0.043362111 1.5211563e-38
0.037639115 -0.12067504 0.046352535 1.2814474e-38
0.039339907 -0.12067504 0.046352535 1.4013373e-38
0.041040704 -0.12067504 0.046352535 1.253824e-38
0.042577341 -0.11985429 0.049324721 1.5211913e-38
0.044272926 -0.11985429 0.049324721 1.576545e-38
0.045968506 -0.11985429 0.049324721 1.6595211e-38
0.046873957 -0.11624713 0.06238696 1.4658739e-38
-0.039833441 -0.14934768 -0.050702184 9.2195602e-39
-0.037859686 -0.14822401 -0.046658844 1.0602486e-38
-0.035924509 -0.14738683 -0.043646425 1.0693956e-38
-0.034000266 -0.14655443 -0.040651053 8.8486e-39
-0.032086872 -0.1457267 -0.037672609 7.4652999e-39
-0.030110002 -0.14378314 -0.030678958 8.2014216e-39
-0.028223664 -0.14294095 -0.027648419 9.1230149e-39
-0.026348218 -0.1421036 -0.024635285 9.2152078e-39
-0.024483562 -0.14127107 -0.021639556 9.7687445e-39
-0.022618741 -0.14017828 -0.017707318 9.4010437e-39
-0.02074777 -0.13851084 -0.011707276 9.2177357e-39
-0.01894518 -0.13851084 -0.011707276 4.7008757e-39
-0.017124016 -0.13766994 -0.0086813867 3.6878112e-39
-0.015300435 -0.13600285 -0.0026825368 8.2986773e-39
-0.013505847 -0.13517661 0.00029054284 8.6681843e-39
-0.011718947 -0.13348235 0.0063871443 7.0090287e-39
-0.0099506406 -0.13267075 0.0093076527 5.9016105e-39
-0.0081927935 -0.13183604 0.012311131 1.8404234e-40
-0.0064454013 -0.13100632 0.015296847 9.1842503e-41
-0.0046901563 -0.13100632 0.015296847 2.7550929e-40
-0.0029349122 -0.13100632 0.015296847 3.6734198e-40
-0.0011796672 -0.13100632 0.015296847 1.2896514e-39
0.00057557784 -0.13100632 0.015296847 7.3755383e-40
0.0023308229 -0.13100632 0.015296847 2.3052397e-39
0.0040860679 -0.13100632 0.015296847 1.0159442e-39
0.0057902327 -0.13015409 0.018363446 8.7603799e-39
0.0075401021 -0.13015409 0.018363446 1.4200288e-38
0.0092899697 -0.13015409 0.018363446 2.3234379e-38
0.010908783 -0.12849234 0.024343103 2.3509527e-38
0.012648168 -0.12849234 0.024343103 2.3509168e-38
0.014310989 -0.12765543 0.027354628 2.3508451e-38
0.016045094 -0.12765543 0.027354628 2.3509165e-38
0.017720476 -0.12709136 0.029384285 2.3509873e-38
0.019359555 -0.12626295 0.032365292 2.3234364e-38
0.021084875 -0.12626295 0.032365292 2.3234369e-38
0.022810191 -0.12626295 0.032365292 2.3418045e-38
0.024429008 -0.12543948 0.035328358 2.341805e-38
0.026149131 -0.12543948 0.035328358 2.3509527e-38
0.027749326 -0.12459467 0.038368374 2.3509168e-38
0.029464118 -0.12459467 0.038368374 2.3508809e-38
0.030964397 -0.1232069 0.043362111 2.3507733e-38
0.032670435 -0.1232069 0.043362111 2.3508809e-38
0.034376472 -0.1232069 0.043362111 1.7145877e-38
0.035938319 -0.12237583 0.046352535 1.3458404e-38
0.037639115 -0.12237583 0.046352535 1.336656e-38
0.039339907 -0.12237583 0.046352535 1.2629348e-38
0.041040704 -0.12237583 0.046352535 1.3643496e-38
0.042577341 -0.12154986 0.049324721 1.1892499e-38
0.044272926 -0.12154986 0.049324721 1.3183608e-38
0.046143085 -0.12237583 0.046352535 1.4659102e-38
0.046873957 -0.11791982 0.06238696 1.5119718e-38
0.048546635 -0.11791982 0.06238696 1.1339695e-38
0.050219316 -0.11791982 0.06238696 9.4028668e-39
-0.034000266 -0.14840777 -0.040651053 7.9273682e-39
-0.032086872 -0.14757483 -0.037672609 6.7281006e-39
-0.030164108 -0.14644094 -0.033618063 6.5433464e-39
-0.028223664 -0.1447715 -0.027648419 7.6482506e-39
-0.026348218 -0.14392884 -0.024635285 8.4780113e-39
-0.024483562 -0.14309107 -0.021639556 8.29362e-39
-0.022618741 -0.14199139 -0.017707318 6.9117645e-39
-0.02074777 -0.14031343 -0.011707276 6.912489e-39
-0.01894518 -0.14031343 -0.011707276 3.871115e-39
-0.017124016 -0.13946722 -0.0086813867 4.1480663e-39
-0.015300435 -0.13778962 -0.0026825368 8.5745425e-39
-0.013505847 -0.13695817 0.00029054284 8.5752642e-39
-0.011718947 -0.13525321 0.0063871443 6.3632935e-39
-0.0099506406 -0.13443647 0.0093076527 5.6242992e-39
-0.0081927935 -0.13359652 0.012311131 7.0064923e-45
-0.0064454013 -0.13276155 0.015296847 9.1841101e-41
-0.0046901563 -0.13276155 0.015296847 3.6734619e-40
-0.002959107 -0.13190396 0.018363446 2.7550649e-40
-0.0012092395 -0.13190396 0.018363446 9.2051436e-40
0.00054062903 -0.13190396 0.018363446 9.1835496e-41
0.0023308229 -0.13276155 0.015296847 9.2230943e-40
0.0040860679 -0.13276155 0.015296847 1.1070636e-39
0.0057902327 -0.13190396 0.018363446 9.8663715e-39
0.0075401021 -0.13190396 0.018363446 1.5950207e-38
0.0092304917 -0.13107903 0.02131322 2.3325856e-38
0.010908783 -0.13023172 0.024343103 2.3048191e-38
0.012576885 -0.12938951 0.027354628 2.3509168e-38
0.014310989 -0.12938951 0.027354628 2.2769081e-38
0.015989933 -0.12882192 0.029384285 2.3509161e-38
0.017720476 -0.12882192 0.029384285 2.350987e-38
0.019359555 -0.12798826 0.032365292 2.3418033e-38
0.021084875 -0.12798826 0.032365292 2.341804e-38
0.022708885 -0.12715961 0.035328358 2.3418045e-38
0.024429008 -0.12715961 0.035328358 2.3509886e-38
0.026034534 -0.12630944 0.038368374 2.3509527e-38
0.027749326 -0.12630944 0.038368374 2.3509168e-38
0.029343516 -0.12549089 0.041295439 2.3508809e-38
0.030964397 -0.12491293 0.043362111 1.7146243e-38
0.032670435 -0.12491293 0.043362111 1.1614503e-38
0.034376472 -0.12491293 0.043362111 1.1337551e-38
0.035938319 -0.12407662 0.046352535 1.2997423e-38
0.037639115 -0.12407662 0.046352535 1.3273641e-38
0.039339907 -0.12407662 0.046352535 1.3458384e-38
0.041040704 -0.12407662 0.046352535 1.3550574e-38
0.042741496 -0.12407662 0.046352535 1.4289221e-38
0.044442289 -0.12407662 0.046352535 1.3736061e-38
0.045968506 -0.12324543 0.049324721 1.2353851e-38
0.046873957 -0.1195925 0.06238696 1.3828982e-38
0.048362125 -0.11876349 0.065351337 1.253824e-38
0.050029606 -0.11876349 0.065351337 9.4957841e-39
0.051697087 -0.11876349 0.065351337 1.0417019e-38
-0.035783105 -0.14942293 -0.037672609 9.1277205e-39
-0.033934988 -0.14942293 -0.037672609 7.7447846e-39
-0.032086872 -0.14942293 -0.037672609 6.2692916e-39
-0.030110002 -0.14745484 -0.030678958 5.3473325e-39
-0.028223664 -0.14660202 -0.027648419 7.2819988e-39
-0.026348218 -0.14575411 -0.024635285 6.8210193e-39
-0.024483562 -0.14491107 -0.021639556 7.4663887e-39
-0.022618741 -0.14380451 -0.017707318 6.7291796e-39
-0.02074777 -0.14211603 -0.011707276 6.360397e-39
-0.018921304 -0.14126451 -0.0086813867 4.2398976e-39
-0.017105557 -0.14041798 -0.0056731403 5.0696582e-39
-0.015300435 -0.13957639 -0.0026825368 9.4028528e-39
-0.013505847 -0.13873972 0.00029054284 9.2188245e-39
-0.011718947 -0.13702409 0.0063871443 5.6239194e-39
-0.0099480813 -0.13702409 0.0063871443 3.5034311e-39
-0.0081927935 -0.13535701 0.012311131 2.8025969e-45
-0.0064454013 -0.13451682 0.015296847 2.7658969e-40
-0.0046901563 -0.13451682 0.015296847 9.1835496e-41
-0.002959107 -0.13365383 0.018363446 2.7622395e-40
-0.0012092395 -0.13365383 0.018363446 9.1835496e-41
0.00054062903 -0.13365383 0.018363446 4.5953621e-40
0.0023308229 -0.13451682 0.015296847 9.1835496e-41
0.0040860679 -0.13451682 0.015296847 2.7550649e-40
0.0057902327 -0.13365383 0.018363446 1.0970914e-38
0.0075401021 -0.13365383 0.018363446 1.6870356e-38
0.0091694007 -0.13197111 0.024343103 2.3509521e-38
0.010908783 -0.13197111 0.024343103 2.350952e-38
0.012576885 -0.13112362 0.027354628 2.3509161e-38
0.014310989 -0.13112362 0.027354628 2.3508078e-38
0.015989933 -0.13055246 0.029384285 2.3509517e-38
0.017634235 -0.12971358 0.032365292 2.3509517e-38
0.019268639 -0.12887974 0.035328358 2.3509876e-38
0.020988762 -0.12887974 0.035328358 2.304854e-38
0.022708885 -0.12887974 0.035328358 2.350988e-38
0.024319742 -0.12802424 0.038368374 2.3509886e-38
0.025924191 -0.12720053 0.041295439 2.304891e-38
0.027633853 -0.12720053 0.041295439 2.3509527e-38
0.029258359 -0.12661897 0.043362111 1.4658752e-38
0.030835938 -0.12577744 0.046352535 1.2354217e-38
0.032536734 -0.12577744 0.046352535 1.2077628e-38
0.034237526 -0.12577744 0.046352535 1.2722634e-38
0.035938319 -0.12577744 0.046352535 1.272191e-38
0.037639115 -0.12577744 0.046352535 1.2905579e-38
0.039339907 -0.12577744 0.046352535 1.2443875e-38
0.041040704 -0.12577744 0.046352535 1.1061298e-38
0.042741496 -0.12577744 0.046352535 1.1982897e-38
0.044442289 -0.12577744 0.046352535 1.336656e-38
0.045968506 -0.12494104 0.049324721 1.3182533e-38
0.046873957 -0.12126519 0.06238696 1.345912e-38
0.048362125 -0.12043096 0.065351337 1.2722278e-38
0.050029606 -0.12043096 0.065351337 1.1523735e-38
0.051697087 -0.12043096 0.065351337 1.097128e-38
-0.030110002 -0.14929073 -0.030678958 5.5324511e-39
-0.028223664 -0.14843257 -0.027648419 6.5462414e-39
-0.026348218 -0.14757936 -0.024635285 6.4536829e-39
-0.024483562 -0.14673109 -0.021639556 5.8994273e-39
-0.022618741 -0.14561762 -0.017707318 6.5451526e-39
-0.02074777 -0.14391862 -0.011707276 7.1898018e-39
-0.018921304 -0.1430618 -0.0086813867 4.9774626e-39
-0.017087203 -0.14136316 -0.0026825368 5.8061443e-39
-0.015300435 -0.14136316 -0.0026825368 1.004714e-38
-0.013505847 -0.14052127 0.00029054284 9.5861623e-39
-0.011721612 -0.13965552 0.0033480227 5.8068673e-39
-0.0099480813 -0.13879494 0.0063871443 3.7796537e-39
-0.0081848959 -0.13796796 0.0093076527 0
-0.0064454013 -0.13627206 0.015296847 2.7658689e-40
-0.0046901563 -0.13627206 0.015296847 0
-0.002959107 -0.13540371 0.018363446 2.7622395e-40
-0.0012092395 -0.13540371 0.018363446 9.1835496e-41
0.00054062903 -0.13540371 0.018363446 4.5953621e-40
0.0023308229 -0.13627206 0.015296847 2.7550649e-40
0.0040860679 -0.13627206 0.015296847 8.279544e-40
0.0057902327 -0.13540371 0.018363446 1.1061667e-38
0.0075401021 -0.13540371 0.018363446 1.7423165e-38
0.0091694007 -0.13371049 0.024343103 2.2493925e-38
0.010908783 -0.13371049 0.024343103 2.2216615e-38
0.012576885 -0.13285773 0.027354628 2.2216615e-38
0.014310989 -0.13285773 0.027354628 2.1939309e-38
0.015989933 -0.13228302 0.029384285 2.1571245e-38
0.017634235 -0.1314389 0.032365292 2.3046378e-38
0.019268639 -0.13059987 0.035328358 2.350916e-38
0.020988762 -0.13059987 0.035328358 2.3140016e-38
0.022604946 -0.12973903 0.038368374 2.3325129e-38
0.024319742 -0.12973903 0.038368374 2.3325131e-38
0.025924191 -0.1289102 0.041295439 2.3509886e-38
0.027633853 -0.1289102 0.041295439 2.2126951e-38
0.029258359 -0.128325 0.043362111 1.1248586e-38
0.030835938 -0.12747823 0.046352535 1.08798e-38
0.032536734 -0.12747823 0.046352535 1.2077625e-38
0.034237526 -0.12747823 0.046352535 1.3183609e-38
0.035938319 -0.12747823 0.046352535 1.1800673e-38
0.037639115 -0.12747823 0.046352535 1.0509212e-38
0.039339907 -0.12747823 0.046352535 9.679088e-39
0.041040704 -0.12747823 0.046352535 9.5858106e-39
0.042741496 -0.12747823 0.046352535 1.1706313e-38
0.044612695 -0.128325 0.043362111 1.4104126e-38
0.046143085 -0.12747823 0.046352535 1.3642792e-38
0.047843877 -0.12747823 0.046352535 1.2352775e-38
0.049544673 -0.12747823 0.046352535 1.078617e-38
0.051245466 -0.12747823 0.046352535 9.8642163e-39
-0.026348218 -0.14940463 -0.024635285 5.9005091e-39
-0.024483562 -0.14855109 -0.021639556 5.0696694e-39
-0.022618741 -0.14743073 -0.017707318 6.6369923e-39
-0.020776108 -0.14655848 -0.014645904 7.4663901e-39
-0.01894518 -0.14572121 -0.011707276 4.7005198e-39
-0.017087203 -0.14314993 -0.0026825368 4.6083241e-39
-0.015300435 -0.14314993 -0.0026825368 8.2965053e-39
-0.013505847 -0.14230286 0.00029054284 8.4798175e-39
-0.011721612 -0.1414317 0.0033480227 5.7146717e-39
-0.0099480813 -0.14056583 0.0063871443 3.8725682e-39
-0.0081848959 -0.13973372 0.0093076527 3.5873241e-43
-0.0064191492 -0.13973372 0.0093076527 1.8438846e-40
-0.0046718344 -0.13887797 0.012311131 0
-0.0029349122 -0.1380273 0.015296847 2.7622395e-40
-0.0011796672 -0.1380273 0.015296847 9.1835496e-41
0.00057557784 -0.1380273 0.015296847 1.8402972e-40
0.0023308229 -0.1380273 0.015296847 9.1835496e-41
0.0040860679 -0.1380273 0.015296847 2.7550649e-40
0.005841312 -0.1380273 0.015296847 8.2043208e-39
0.0075401021 -0.13715358 0.018363446 1.6593404e-38
0.0091694007 -0.13544987 0.024343103 2.0742564e-38
0.010908783 -0.13544987 0.024343103 2.0741485e-38
0.012576885 -0.13459183 0.027354628 2.147905e-38
0.014310989 -0.13459183 0.027354628 2.2032221e-38
0.015989933 -0.13401355 0.029384285 2.1755637e-38
0.017634235 -0.13316421 0.032365292 2.3508794e-38
0.019268639 -0.13231997 0.035328358 2.3509517e-38
0.020988762 -0.13231997 0.035328358 2.3509517e-38
0.022604946 -0.13145383 0.038368374 2.3509879e-38
0.024214532 -0.13061987 0.041295439 2.350988e-38
0.025846288 -0.13003103 0.043362111 2.2956709e-38
0.027552322 -0.13003103 0.043362111 1.8254732e-38
0.029135145 -0.12917902 0.046352535 9.9571252e-39
0.030835938 -0.12917902 0.046352535 1.0049321e-38
0.032536734 -0.12917902 0.046352535 1.2999581e-38
0.034237526 -0.12917902 0.046352535 1.4289957e-38
0.035938319 -0.12917902 0.046352535 1.0970913e-38
0.037639115 -0.12917902 0.046352535 9.1262799e-39
0.039339907 -0.12917902 0.046352535 9.6787321e-39
0.041040704 -0.12917902 0.046352535 9.4943408e-39
0.042741496 -0.12917902 0.046352535 1.0047515e-38
0.044612695 -0.13003103 0.043362111 1.2260214e-38
0.046318732 -0.13003103 0.043362111 1.3366206e-38
0.04802477 -0.13003103 0.043362111 1.2076186e-38
0.049730808 -0.13003103 0.043362111 9.495431e-39
-0.020805631 -0.14924385 -0.017707318 6.9132191e-39
-0.018992517 -0.14924385 -0.017707318 3.8707605e-39
-0.017087203 -0.1449367 -0.0026825368 2.6722173e-39
-0.015300435 -0.1449367 -0.0026825368 4.9771067e-39
-0.013513667 -0.1449367 -0.0026825368 6.1749296e-39
-0.011726898 -0.1449367 -0.0026825368 6.0834556e-39
-0.0099454159 -0.14320792 0.0033480227 4.2413507e-39
-0.0081848959 -0.14149947 0.0093076527 3.5873241e-43
-0.0064191492 -0.14149947 0.0093076527 9.2194229e-41
-0.0046534026 -0.14149947 0.0093076527 0
-0.0029349122 -0.13978253 0.015296847 2.7622395e-40
-0.0011796672 -0.13978253 0.015296847 9.1835496e-41
0.00057557784 -0.13978253 0.015296847 1.8402972e-40
0.0023308229 -0.13978253 0.015296847 9.1835496e-41
0.0041305646 -0.14063846 0.012311131 1.1052573e-39
0.005841312 -0.13978253 0.015296847 5.9916257e-39
0.007596557 -0.13978253 0.015296847 1.5026435e-38
0.0092899697 -0.13890342 0.018363446 1.8990847e-38
0.010908783 -0.13718925 0.024343103 1.8344398e-38
0.012576885 -0.13632594 0.027354628 1.788342e-38
0.014310989 -0.13632594 0.027354628 1.82522e-38
0.015989933 -0.13574408 0.029384285 1.82522e-38
0.017634235 -0.13488953 0.032365292 2.0925873e-38
0.019268639 -0.1340401 0.035328358 2.1386851e-38
0.020890154 -0.13316862 0.038368374 2.2769788e-38
0.02250487 -0.13232954 0.041295439 2.3509517e-38
0.024214532 -0.13232954 0.041295439 2.304782e-38
0.025846288 -0.13173707 0.043362111 1.6226065e-38
0.027552322 -0.13173707 0.043362111 1.2814827e-38
0.029135145 -0.1308798 0.046352535 8.2976039e-39
0.030835938 -0.1308798 0.046352535 9.1273646e-39
0.032536734 -0.1308798 0.046352535 1.216982e-38
0.034237526 -0.1308798 0.046352535 1.1985069e-38
0.035938319 -0.1308798 0.046352535 7.1908934e-39
0.037639115 -0.1308798 0.046352535 7.0054231e-39
0.039339907 -0.1308798 0.046352535 1.0324466e-38
0.041040704 -0.1308798 0.046352535 9.4950625e-39
0.042741496 -0.1308798 0.046352535 7.3738441e-39
0.044442289 -0.1308798 0.046352535 8.4801931e-39
0.046143085 -0.1308798 0.046352535 1.2813032e-38
0.047843877 -0.1308798 0.046352535 1.2905946e-38
0.049544673 -0.1308798 0.046352535 9.4957869e-39
-0.011721612 -0.14498411 0.0033480227 6.6369923e-39
-0.0099454159 -0.14498411 0.0033480227 4.517939e-39
-0.0081692217 -0.14498411 0.0033480227 7.1746481e-43
-0.0063930256 -0.14498411 0.0033480227 3.5873241e-43
-0.0046168314 -0.14498411 0.0033480227 3.5873241e-43
-0.0029113544 -0.14239894 0.012311131 2.7694142e-40
-0.0011508744 -0.14239894 0.012311131 3.5873241e-43
0.00060960557 -0.14239894 0.012311131 9.1835496e-41
0.0023700846 -0.14239894 0.012311131 9.1835496e-41
0.0041305646 -0.14239894 0.012311131 2.7550649e-40
0.005841312 -0.14153777 0.015296847 2.4881918e-39
0.007596557 -0.14153777 0.015296847 1.1338609e-38
0.0092899697 -0.1406533 0.018363446 1.7515717e-38
0.010908783 -0.13892864 0.024343103 1.7422439e-38
0.012576885 -0.13806005 0.027354628 1.6223896e-38
0.014310989 -0.13806005 0.027354628 1.6869265e-38
0.015989933 -0.13747464 0.029384285 1.7791222e-38
0.017634235 -0.13661484 0.032365292 1.8159643e-38
0.019175362 -0.13488342 0.038368374 1.9635492e-38
0.020795211 -0.13403918 0.041295439 2.1479047e-38
0.022331968 -0.13258059 0.046352535 2.350879e-38
0.023925934 -0.13172336 0.049324721 2.3416237e-38
0.025621515 -0.13172336 0.049324721 1.2629711e-38
0.027317099 -0.13172336 0.049324721 1.1708479e-38
0.029135145 -0.13258059 0.046352535 8.2050453e-39
0.030835938 -0.13258059 0.046352535 8.758582e-39
0.032536734 -0.13258059 0.046352535 9.9571252e-39
0.034237526 -0.13258059 0.046352535 8.8507777e-39
0.035938319 -0.13258059 0.046352535 5.3473437e-39
0.037639115 -0.13258059 0.046352535 6.5455268e-39
0.039339907 -0.13258059 0.046352535 1.0141156e-38
0.041040704 -0.13258059 0.046352535 9.1270044e-39
0.042741496 -0.13258059 0.046352535 7.0976216e-39
0.044442289 -0.13258059 0.046352535 7.2816499e-39
0.046143085 -0.13258059 0.046352535 1.2721192e-38
0.047843877 -0.13258059 0.046352535 1.3090338e-38
0.049544673 -0.13258059 0.046352535 9.1270044e-39
-0.0011508744 -0.14415942 0.012311131 3.5873241e-43
0.00060960557 -0.14415942 0.012311131 9.1835496e-41
0.0023700846 -0.14415942 0.012311131 1.8402972e-40
0.0041305646 -0.14415942 0.012311131 3.6770072e-40
0.005841312 -0.14329304 0.015296847 9.2086609e-40
0.007596557 -0.14329304 0.015296847 6.9132191e-39
0.0092899697 -0.14240317 0.018363446 1.4288869e-38
0.010975189 -0.14154722 0.02131322 1.4103396e-38
0.012648168 -0.14066802 0.024343103 1.1798506e-38
0.014387551 -0.14066802 0.024343103 1.2075093e-38
0.015989933 -0.13920517 0.029384285 1.3366189e-38
0.017634235 -0.13834016 0.032365292 1.6131336e-38
0.019175362 -0.13659821 0.038368374 1.7975249e-38
0.020795211 -0.13574885 0.041295439 1.7790857e-38
0.022331968 -0.13428138 0.046352535 1.862134e-38
0.023925934 -0.13341893 0.049324721 1.908196e-38
0.025621515 -0.13341893 0.049324721 1.0601044e-38
0.027317099 -0.13341893 0.049324721 1.1707758e-38
0.029135145 -0.13428138 0.046352535 6.7299152e-39
0.030835938 -0.13428138 0.046352535 7.0065049e-39
0.032536734 -0.13428138 0.046352535 7.3756476e-39
0.034237526 -0.13428138 0.046352535 8.2054111e-39
0.035938319 -0.13428138 0.046352535 8.1132182e-39
0.037639115 -0.13428138 0.046352535 9.2188469e-39
0.039339907 -0.13428138 0.046352535 9.5876294e-39
0.041040704 -0.13428138 0.046352535 8.1124994e-39
0.042741496 -0.13428138 0.046352535 8.1124966e-39
0.044612695 -0.13514914 0.043362111 9.0337298e-39
0.046440121 -0.13574885 0.041295439 1.2536801e-38
0.048149783 -0.13574885 0.041295439 1.198399e-38
0.050041635 -0.13659821 0.038368374 8.6660263e-39
-0.0011508744 -0.1459199 0.012311131 3.5873241e-43
0.00060960557 -0.1459199 0.012311131 9.1835496e-41
0.0023700846 -0.1459199 0.012311131 1.8402972e-40
0.0041305646 -0.1459199 0.012311131 2.7550649e-40
0.005841312 -0.14504828 0.015296847 8.2867186e-40
0.007596557 -0.14504828 0.015296847 3.7785677e-39
0.0092899697 -0.14415304 0.018363446 1.2537153e-38
0.010975189 -0.14329191 0.02131322 1.2905932e-38
0.012648168 -0.1424074 0.024343103 1.1707389e-38
0.014387551 -0.1424074 0.024343103 1.2720462e-38
0.016045094 -0.14152823 0.027354628 1.4195949e-38
0.017720476 -0.14093573 0.029384285 1.5301931e-38
0.019268639 -0.13920046 0.035328358 1.6684147e-38
0.020795211 -0.13745852 0.041295439 1.5301212e-38
0.02250487 -0.13745852 0.041295439 1.5670358e-38
0.024214532 -0.13745852 0.041295439 1.5209744e-38
0.025621515 -0.13511451 0.049324721 1.216837e-38
0.027317099 -0.13511451 0.049324721 1.2628992e-38
0.02901268 -0.13511451 0.049324721 7.8355411e-39
0.030708265 -0.13511451 0.049324721 5.1625895e-39
0.032403845 -0.13511451 0.049324721 6.268584e-39
0.034237526 -0.1359822 0.046352535 8.3898051e-39
0.035938319 -0.1359822 0.046352535 9.1270142e-39
0.037788548 -0.13685517 0.043362111 9.3114055e-39
0.039494582 -0.13685517 0.043362111 8.6660361e-39
0.041200619 -0.13685517 0.043362111 7.8362768e-39
0.042906657 -0.13685517 0.043362111 9.3114055e-39
0.044730462 -0.13745852 0.041295439 1.1338621e-38
0.046440121 -0.13745852 0.041295439 1.1983627e-38
0.048149783 -0.13745852 0.041295439 1.0877642e-38
0.050041635 -0.13831301 0.038368374 9.0348088e-39
0.051756423 -0.13831301 0.038368374 9.5876266e-39
-0.0011508744 -0.14768039 0.012311131 3.5873241e-43
0.00060960557 -0.14768039 0.012311131 9.1835496e-41
0.0023700846 -0.14768039 0.012311131 1.8402972e-40
0.0041305646 -0.14768039 0.012311131 2.7550649e-40
0.005841312 -0.14680351 0.015296847 5.5208917e-40
0.007596557 -0.14680351 0.015296847 7.3576017e-40
0.0092899697 -0.14590292 0.018363446 8.941523e-39
0.010975189 -0.14503662 0.02131322 9.0337186e-39
0.012719885 -0.14503662 0.02131322 8.2039551e-39
0.014387551 -0.14414679 0.024343103 9.1248324e-39
0.016045094 -0.14326234 0.027354628 1.0047146e-38
0.017720476 -0.14266627 0.029384285 1.0876541e-38
0.019451022 -0.14266627 0.029384285 1.2258754e-38
0.021181569 -0.14266627 0.029384285 1.2350952e-38
0.022912115 -0.14266627 0.029384285 1.4471096e-38
0.023925934 -0.13681011 0.049324721 1.2904492e-38
0.025621515 -0.13681011 0.049324721 1.318144e-38
0.027317099 -0.13681011 0.049324721 1.133753e-38
0.02901268 -0.13681011 0.049324721 7.650431e-39
0.030708265 -0.13681011 0.049324721 7.1898144e-39
0.032403845 -0.13681011 0.049324721 8.481635e-39
0.034237526 -0.13768299 0.046352535 9.4954338e-39
0.035938319 -0.13768299 0.046352535 7.928471e-39
0.037788548 -0.13856123 0.043362111 7.9284724e-39
0.039494582 -0.13856123 0.043362111 9.4036025e-39
0.041311137 -0.13916816 0.041295439 1.0325922e-38
0.0430208 -0.13916816 0.041295439 1.2353863e-38
0.044897255 -0.14002781 0.038368374 1.2352772e-38
0.046440121 -0.13916816 0.041295439 1.1430813e-38
0.048149783 -0.13916816 0.041295439 1.0693251e-38
0.050041635 -0.14002781 0.038368374 9.7723738e-39
0.051756423 -0.14002781 0.038368374 9.3117586e-39
0.005841312 -0.14855875 0.015296847 9.2194229e-41
0.007596557 -0.14855875 0.015296847 8.2867186e-40
0.0092899697 -0.14765279 0.018363446 6.1760142e-39
0.010975189 -0.14678131 0.02131322 9.0337186e-39
0.012719885 -0.14678131 0.02131322 7.4663929e-39
0.014387551 -0.14588617 0.024343103 6.4522409e-39
0.016045094 -0.14499645 0.027354628 7.8340936e-39
0.017720476 -0.14439683 0.029384285 8.7556856e-39
0.019451022 -0.14439683 0.029384285 9.1241051e-39
0.020988762 -0.14264072 0.035328358 1.1059857e-38
0.022708885 -0.14264072 0.035328358 1.2166205e-38
0.024429008 -0.14264072 0.035328358 1.2074731e-38
0.025621515 -0.13850568 0.049324721 1.318144e-38
0.027317099 -0.13850568 0.049324721 1.2167291e-38
