# .PCD v0.7 - Point Cloud Data file format
VERSION 0.7
FIELDS x y z rgb
SIZE 4 4 4 4
TYPE F F F F
COUNT 1 1 1 1
WIDTH 554
HEIGHT 1
VIEWPOINT 0 0 0 1 0 0 0
POINTS 554
DATA ascii
0.0014480073 -0.11478879 -0.030872524 2.4003374e-39
0.0032242015 -0.11478879 -0.030872524 2.2145266e-39
-0.0038779136 -0.11577369 -0.027833402 3.6896203e-39
-0.0021070484 -0.11577369 -0.027833402 1.0188211e-39
-0.00033618137 -0.11577369 -0.027833402 3.5088317e-39
0.0014346857 -0.11577369 -0.027833402 1.6638626e-39
0.0032055527 -0.11577369 -0.027833402 2.5840378e-39
0.0049764188 -0.11577369 -0.027833402 1.6613753e-39
0.0067472849 -0.11577369 -0.027833402 3.2283394e-39
-0.0056410991 -0.11677901 -0.024912894 2.2680844e-38
-0.0038753543 -0.11677901 -0.024912894 1.4937853e-38
-0.0021096077 -0.11677901 -0.024912894 1.4663427e-38
-0.00033618137 -0.11754455 -0.027833402 1.4663795e-38
0.0014218837 -0.11677901 -0.024912894 1.1344406e-38
0.0031876303 -0.11677901 -0.024912894 1.0883442e-38
0.004953376 -0.11677901 -0.024912894 5.3502794e-39
0.0067191217 -0.11677901 -0.024912894 3.690405e-39
-0.0074068457 -0.11854477 -0.024912894 2.3234376e-38
-0.0056410991 -0.11854477 -0.024912894 2.3234379e-38
-0.0038727205 -0.11775221 -0.021909416 2.3142544e-38
-0.0021122415 -0.11775221 -0.021909416 2.2958873e-38
-0.00034386292 -0.11854477 -0.024912894 2.2867037e-38
0.0014087185 -0.11775221 -0.021909416 2.1761424e-38
0.0031691985 -0.11775221 -0.021909416 2.1393364e-38
0.0049296785 -0.11775221 -0.021909416 1.5031891e-38
0.0066901585 -0.11775221 -0.021909416 1.0790539e-38
0.0084506385 -0.11775221 -0.021909416 7.3793022e-39
0.010211118 -0.11775221 -0.021909416 4.5208677e-39
-0.0073936805 -0.11951269 -0.021909416 2.2497529e-38
-0.0056332015 -0.11951269 -0.021909416 2.3234379e-38
-0.0038701035 -0.11871959 -0.0189237 2.2681567e-38
-0.0021148585 -0.11871959 -0.0189237 2.3234379e-38
-0.00035961345 -0.11871959 -0.0189237 2.2681572e-38
0.0013956316 -0.11871959 -0.0189237 2.2958873e-38
0.0031508766 -0.11871959 -0.0189237 2.2867037e-38
0.0049061207 -0.11871959 -0.0189237 2.2038724e-38
0.0066901585 -0.11951269 -0.021909416 2.2223471e-38
0.0084506385 -0.11951269 -0.021909416 2.2316024e-38
0.010211118 -0.11951269 -0.021909416 1.8166892e-38
-0.012646329 -0.12047486 -0.0189237 1.4659821e-38
-0.010891084 -0.12047486 -0.0189237 2.3418047e-38
-0.0091358386 -0.12047486 -0.0189237 2.2866311e-38
-0.0073671509 -0.11965488 -0.0158571 2.3234376e-38
-0.0056172833 -0.11965488 -0.0158571 2.3050703e-38
-0.0038674157 -0.11965488 -0.0158571 2.3418047e-38
-0.0021201335 -0.11886616 -0.012907326 2.3324775e-38
-0.00037543662 -0.11886616 -0.012907326 2.3509527e-38
0.0013956316 -0.12047486 -0.0189237 2.3417691e-38
0.0031508766 -0.12047486 -0.0189237 2.3142185e-38
0.0049061207 -0.12047486 -0.0189237 2.2774843e-38
0.0066613657 -0.12047486 -0.0189237 2.2223471e-38
0.0084166108 -0.12047486 -0.0189237 2.2224189e-38
0.010171856 -0.12047486 -0.0189237 2.2316024e-38
0.011927101 -0.12047486 -0.0189237 2.0104409e-38
-0.012646329 -0.1222301 -0.0189237 2.2773037e-38
-0.010891084 -0.1222301 -0.0189237 2.3418047e-38
-0.0091170184 -0.12140475 -0.0158571 2.3234376e-38
-0.0073542222 -0.12061088 -0.012907326 2.3234376e-38
-0.005601557 -0.1197954 -0.0098774433 2.3234376e-38
-0.0038621724 -0.1197954 -0.0098774433 2.2495731e-38
-0.0021272078 -0.11843865 -0.0048362613 2.3509521e-38
-0.0004045032 -0.11763634 -0.0018552542 2.3508086e-38
0.0013208147 -0.11763634 -0.0018552542 2.3508092e-38
0.0030461326 -0.11763634 -0.0018552542 2.3417333e-38
0.0048109852 -0.11898489 -0.0068659186 2.3142544e-38
0.0065741297 -0.1197954 -0.0098774433 2.2867037e-38
0.008381662 -0.12140475 -0.0158571 2.2591528e-38
0.01013153 -0.12140475 -0.0158571 2.2499692e-38
0.011881398 -0.12140475 -0.0158571 2.1763927e-38
0.013631266 -0.12140475 -0.0158571 2.0749063e-38
-0.012616755 -0.12315463 -0.0158571 2.3141822e-38
-0.010819707 -0.12153481 -0.0098774433 2.3049626e-38
-0.0090310946 -0.11936165 -0.0018552542 2.3418047e-38
-0.0073057767 -0.11936165 -0.0018552542 2.2219863e-38
-0.0055804588 -0.11936165 -0.0018552542 2.3418047e-38
-0.0038551409 -0.11936165 -0.0018552542 2.3509883e-38
-0.0021324195 -0.11855899 0.0011078119 2.3509163e-38
-0.0004122965 -0.11855899 0.0011078119 2.3508802e-38
0.0013078265 -0.11855899 0.0011078119 2.3508801e-38
0.0030279495 -0.11855899 0.0011078119 2.3509156e-38
0.0047714505 -0.11936165 -0.0018552542 2.3418035e-38
0.0065450892 -0.120719 -0.0068659186 2.3142528e-38
0.0082791923 -0.120719 -0.0068659186 2.2867022e-38
0.010052898 -0.12153481 -0.0098774433 2.2591521e-38
0.011837437 -0.12235557 -0.012907326 2.2591531e-38
0.013582133 -0.12235557 -0.012907326 2.2591531e-38
0.01532683 -0.12235557 -0.012907326 1.9456543e-38
0.017131003 -0.12315463 -0.0158571 3.2293904e-39
0.019013517 -0.12479414 -0.021909416 2.9517133e-39
0.020773998 -0.12479414 -0.021909416 1.752433e-39
-0.012616755 -0.1249045 -0.0158571 2.2495734e-38
-0.010795947 -0.12245311 -0.0068659186 2.341805e-38
-0.0090310946 -0.12108697 -0.0018552542 2.3509886e-38
-0.0073057767 -0.12108697 -0.0018552542 2.3049624e-38
-0.0055726655 -0.12027912 0.0011078119 2.2773037e-38
-0.0038525425 -0.12027912 0.0011078119 2.3509883e-38
-0.0021350849 -0.11945029 0.0041478276 2.3507726e-38
-0.00042029098 -0.11945029 0.0041478276 2.3508802e-38
0.0012945011 -0.11945029 0.0041478276 2.3509511e-38
0.0030092942 -0.11945029 0.0041478276 2.3509863e-38
0.0047480725 -0.12027912 0.0011078119 2.3142511e-38
0.0064967694 -0.12108697 -0.0018552542 2.2958843e-38
0.008256061 -0.12189974 -0.0048362613 2.3142527e-38
0.010013296 -0.12245311 -0.0068659186 2.2867032e-38
0.011792282 -0.12327419 -0.0098774433 2.2683366e-38
0.013582133 -0.12410025 -0.012907326 2.2775202e-38
0.01532683 -0.12410025 -0.012907326 2.1761065e-38
0.017071525 -0.12410025 -0.012907326 1.2079805e-38
0.01894808 -0.12574057 -0.0189237 4.795979e-39
0.020703325 -0.12574057 -0.0189237 3.7818159e-39
0.022534477 -0.12655462 -0.021909416 2.0293688e-39
-0.01420705 -0.12281232 -0.0018552542 2.3324778e-38
-0.012453157 -0.12199925 0.0011078119 2.3509527e-38
-0.010733034 -0.12199925 0.0011078119 2.3509886e-38
-0.0090129115 -0.12199925 0.0011078119 2.323258e-38
-0.0072927885 -0.12199925 0.0011078119 2.3509886e-38
-0.005564671 -0.12116508 0.0041478276 2.3325492e-38
-0.003849877 -0.12116508 0.0041478276 2.2955993e-38
-0.0021376498 -0.12036191 0.0070748925 2.3507374e-38
-0.00042798929 -0.12036191 0.0070748925 2.3509165e-38
0.0012816712 -0.12036191 0.0070748925 2.3509866e-38
0.0029913317 -0.12036191 0.0070748925 2.3418018e-38
0.0047009923 -0.12036191 0.0070748925 2.332618e-38
0.0064681955 -0.12199925 0.0011078119 2.3418023e-38
0.0081883185 -0.12199925 0.0011078119 2.3234369e-38
0.0099866064 -0.12363027 -0.0048362613 2.2774125e-38
0.011747399 -0.12418722 -0.0068659186 2.2958155e-38
0.013531664 -0.12501357 -0.0098774433 2.3050349e-38
0.01532683 -0.12584494 -0.012907326 2.3142544e-38
0.017071525 -0.12584494 -0.012907326 1.81647e-38
0.01894808 -0.12749584 -0.0189237 1.0788684e-38
0.020703325 -0.12749584 -0.0189237 3.1353675e-39
0.02245857 -0.12749584 -0.0189237 2.9506231e-39
0.024213815 -0.12749584 -0.0189237 3.4108726e-39
-0.017568219 -0.12287988 0.0041478276 2.3509168e-38
-0.015853427 -0.12287988 0.0041478276 2.2862721e-38
-0.01417328 -0.12371938 0.0011078119 2.3509527e-38
-0.012453157 -0.12371938 0.0011078119 2.3509527e-38
-0.010733034 -0.12371938 0.0011078119 2.3140387e-38
-0.0089942552 -0.12287988 0.0041478276 2.2771602e-38
-0.0072794631 -0.12287988 0.0041478276 2.3509527e-38
-0.005564671 -0.12287988 0.0041478276 2.3509883e-38
-0.003849877 -0.12287988 0.0041478276 2.3325492e-38
-0.0021376498 -0.12207155 0.0070748925 2.3509527e-38
-0.00042798929 -0.12207155 0.0070748925 2.3509883e-38
0.0012726113 -0.12150083 0.0091415644 2.3326196e-38
0.002978649 -0.12150083 0.0091415644 2.3142157e-38
0.0047009923 -0.12207155 0.0070748925 2.3509863e-38
0.0064388793 -0.12287988 0.0041478276 2.3418033e-38
0.0081883185 -0.12371938 0.0011078119 2.2680838e-38
0.0099474061 -0.12453763 -0.0018552542 2.1205358e-38
0.011747399 -0.12592132 -0.0068659186 2.1942927e-38
0.013531664 -0.12675296 -0.0098774433 2.2864882e-38
0.01532683 -0.12758966 -0.012907326 2.341805e-38
0.017071525 -0.12758966 -0.012907326 2.1666686e-38
0.01888087 -0.12840421 -0.0158571 1.8162892e-38
0.020703325 -0.12925108 -0.0189237 4.3331946e-39
0.02245857 -0.12925108 -0.0189237 1.8428448e-39
0.024213815 -0.12925108 -0.0189237 2.1190604e-39
-0.017568219 -0.12459467 0.0041478276 2.3508451e-38
-0.015853427 -0.12459467 0.0041478276 2.3509168e-38
-0.01417328 -0.12543948 0.0011078119 2.3509168e-38
-0.012453157 -0.12543948 0.0011078119 2.3508091e-38
-0.010709049 -0.12459467 0.0041478276 2.3139308e-38
-0.0089942552 -0.12459467 0.0041478276 2.2126232e-38
-0.0072794631 -0.12459467 0.0041478276 2.1480863e-38
-0.0055569727 -0.12378122 0.0070748925 2.2864153e-38
-0.0038473122 -0.12378122 0.0070748925 2.3509879e-38
-0.0021394622 -0.1232069 0.0091415644 2.2865584e-38
-0.00043342449 -0.1232069 0.0091415644 2.3142532e-38
0.0012726113 -0.1232069 0.0091415644 2.3234376e-38
0.002978649 -0.1232069 0.0091415644 2.3142542e-38
0.0046846867 -0.1232069 0.0091415644 2.341805e-38
0.0064106528 -0.12378122 0.0070748925 2.341805e-38
0.0081883185 -0.12543948 0.0011078119 2.2680841e-38
0.0099474061 -0.12626295 -0.0018552542 2.1481933e-38
0.011747399 -0.12765543 -0.0068659186 2.0375223e-38
0.013531664 -0.12849234 -0.0098774433 2.2772309e-38
0.01532683 -0.12933435 -0.012907326 2.3509521e-38
0.017071525 -0.12933435 -0.012907326 2.3509527e-38
0.01888087 -0.13015409 -0.0158571 2.0650029e-38
0.020703325 -0.13100632 -0.0189237 3.9622653e-39
0.02245857 -0.13100632 -0.0189237 2.755191e-40
0.024213815 -0.13100632 -0.0189237 1.288578e-39
0.02596906 -0.13100632 -0.0189237 3.5948743e-39
-0.020997804 -0.12630944 0.0041478276 1.4288881e-38
-0.019283015 -0.12630944 0.0041478276 1.5487427e-38
-0.017568219 -0.12630944 0.0041478276 1.9175252e-38
-0.015853427 -0.12630944 0.0041478276 1.5764734e-38
-0.014138635 -0.12630944 0.0041478276 1.1984713e-38
-0.012423841 -0.12630944 0.0041478276 1.2998145e-38
-0.010709049 -0.12630944 0.0041478276 1.2168384e-38
-0.0089762937 -0.12549089 0.0070748925 1.0601055e-38
-0.0072666332 -0.12549089 0.0070748925 1.2168381e-38
-0.0055515375 -0.12491293 0.0091415644 1.3643508e-38
-0.0038454998 -0.12491293 0.0091415644 1.3368352e-38
-0.0021420848 -0.12407662 0.012131989 1.9823477e-38
-0.00044129044 -0.12407662 0.012131989 2.1760664e-38
0.0012595039 -0.12407662 0.012131989 2.3234374e-38
0.0029602982 -0.12407662 0.012131989 2.341805e-38
0.0046610916 -0.12407662 0.012131989 2.3417333e-38
0.0063907234 -0.12491293 0.0091415644 2.3509527e-38
0.0082220873 -0.12798826 -0.0018552542 2.350988e-38
0.0099474061 -0.12798826 -0.0018552542 2.3509873e-38
0.011747399 -0.12938951 -0.0068659186 2.0743278e-38
0.013531664 -0.13023172 -0.0098774433 1.9267429e-38
0.015271049 -0.13023172 -0.0098774433 2.2401729e-38
0.017071525 -0.13107903 -0.012907326 2.3138942e-38
0.018816222 -0.13107903 -0.012907326 2.1939326e-38
0.02063074 -0.13190396 -0.0158571 4.6072718e-39
0.02245857 -0.13276155 -0.0189237 6.4285688e-40
0.024213815 -0.13276155 -0.0189237 1.1045427e-39
0.02596906 -0.13276155 -0.0189237 4.6025368e-40
-0.022773895 -0.12887974 0.0011078119 1.1524807e-38
-0.020997804 -0.12802424 0.0041478276 1.4567263e-38
-0.019283015 -0.12802424 0.0041478276 1.6042753e-38
-0.017568219 -0.12802424 0.0041478276 1.3645666e-38
-0.015853427 -0.12802424 0.0041478276 1.3092133e-38
-0.014138635 -0.12802424 0.0041478276 9.9574798e-39
-0.012423841 -0.12802424 0.0041478276 1.1985065e-38
-0.010709049 -0.12802424 0.0041478276 9.863845e-39
-0.0089762937 -0.12720053 0.0070748925 9.6794537e-39
-0.0072666332 -0.12720053 0.0070748925 1.189143e-38
-0.0055515375 -0.12661897 0.0091415644 1.2352405e-38
-0.0038454998 -0.12661897 0.0091415644 1.1891779e-38
-0.0021420848 -0.12577744 0.012131989 1.3183941e-38
-0.0004491061 -0.12494104 0.015104175 1.8993342e-38
0.0012464747 -0.12494104 0.015104175 2.3509863e-38
0.0029420583 -0.12494104 0.015104175 2.350987e-38
0.0046376418 -0.12494104 0.015104175 2.3324407e-38
0.0063618859 -0.12577744 0.012131989 2.332405e-38
0.0081883185 -0.12887974 0.0011078119 2.3509521e-38
0.0099084415 -0.12887974 0.0011078119 2.350952e-38
0.011747399 -0.13112362 -0.0068659186 2.3508793e-38
0.013481503 -0.13112362 -0.0068659186 1.8897569e-38
0.015271049 -0.13197111 -0.0098774433 1.8989765e-38
0.017071525 -0.13282375 -0.012907326 2.2861984e-38
0.018816222 -0.13282375 -0.012907326 2.175492e-38
0.020560918 -0.13282375 -0.012907326 6.0820263e-39
0.022380607 -0.13365383 -0.0158571 2.3012866e-39
0.024213815 -0.13451682 -0.0189237 8.2723693e-40
0.026055437 -0.13535701 -0.021909416 6.4464214e-40
-0.022773895 -0.13059987 0.0011078119 1.0971633e-38
-0.020997804 -0.12973903 0.0041478276 1.2816263e-38
-0.019283015 -0.12973903 0.0041478276 1.3646024e-38
-0.017568219 -0.12973903 0.0041478276 1.1895027e-38
-0.015853427 -0.12973903 0.0041478276 1.1894307e-38
-0.014138635 -0.12973903 0.0041478276 7.3767182e-39
-0.012423841 -0.12973903 0.0041478276 9.1277163e-39
-0.010709049 -0.12973903 0.0041478276 9.7727256e-39
-0.0089762937 -0.1289102 0.0070748925 1.2629711e-38
-0.0072575733 -0.128325 0.0091415644 1.4841687e-38
-0.0055436715 -0.12747823 0.012131989 1.45651e-38
-0.0038428772 -0.12747823 0.012131989 1.4103751e-38
-0.0021446887 -0.12663661 0.015104175 1.3828945e-38
-0.0004491061 -0.12663661 0.015104175 1.3367964e-38
0.0012464747 -0.12663661 0.015104175 1.5303722e-38
0.0029233657 -0.1257741 0.018150151 2.0005347e-38
0.0046136081 -0.1257741 0.018150151 2.3509873e-38
0.0063332235 -0.12663661 0.015104175 2.350952e-38
0.0081203133 -0.1289102 0.0070748925 2.3509163e-38
0.0099084415 -0.13059987 0.0011078119 2.350736e-38
0.011717151 -0.13228302 -0.0048362613 2.2401009e-38
0.013447696 -0.13228302 -0.0048362613 1.6869268e-38
0.015215607 -0.13285773 -0.0068659186 1.6315373e-38
0.016949711 -0.13285773 -0.0068659186 2.0187946e-38
0.018749816 -0.13371049 -0.0098774433 1.991136e-38
0.020560918 -0.13456844 -0.012907326 5.6206796e-39
0.022305613 -0.13456844 -0.012907326 2.2094441e-39
0.024213815 -0.13627206 -0.0189237 5.5101298e-40
0.02596906 -0.13627206 -0.0189237 4.6097114e-40
-0.024624292 -0.13401355 -0.0048362613 1.0602132e-38
-0.022893745 -0.13401355 -0.0048362613 1.1801394e-38
-0.021108322 -0.13316421 -0.0018552542 1.2908101e-38
-0.019333649 -0.13231997 0.0011078119 1.3000297e-38
-0.017613526 -0.13231997 0.0011078119 1.2263089e-38
-0.015893403 -0.13231997 0.0011078119 1.1986502e-38
-0.01417328 -0.13231997 0.0011078119 6.8235472e-39
-0.012423841 -0.13145383 0.0041478276 7.652589e-39
-0.010709049 -0.13145383 0.0041478276 9.4035871e-39
-0.0089762937 -0.13061987 0.0070748925 1.2907021e-38
-0.0072575733 -0.13003103 0.0091415644 1.392045e-38
-0.0055436715 -0.12917902 0.012131989 1.3458753e-38
-0.0038428772 -0.12917902 0.012131989 1.3643496e-38
-0.0021446887 -0.12833218 0.015104175 1.5211524e-38
-0.0004491061 -0.12833218 0.015104175 1.4013334e-38
0.0012464747 -0.12833218 0.015104175 1.4473961e-38
0.0029233657 -0.12746434 0.018150151 1.7608261e-38
0.0046136081 -0.12746434 0.018150151 2.1203542e-38
0.0063038506 -0.12746434 0.018150151 2.3047101e-38
0.0080626793 -0.12917902 0.012131989 2.3508442e-38
0.0098027978 -0.13003103 0.0091415644 2.3509161e-38
0.011583258 -0.13145383 0.0041478276 2.2769791e-38
0.013348687 -0.13231997 0.0011078119 1.6869268e-38
0.015178241 -0.13401355 -0.0048362613 1.5485612e-38
0.016908785 -0.13401355 -0.0048362613 1.8712816e-38
0.018749816 -0.13544987 -0.0098774433 1.889685e-38
0.020489201 -0.13544987 -0.0098774433 5.8972665e-39
0.022305613 -0.13631313 -0.012907326 2.8548135e-39
0.02405031 -0.13631313 -0.012907326 8.2723693e-40
0.025880344 -0.13715358 -0.0158571 4.6061241e-40
0.027724305 -0.1380273 -0.0189237 3.5873241e-43
-0.024624292 -0.13574408 -0.0048362613 1.0969838e-38
-0.022893745 -0.13574408 -0.0048362613 1.1708482e-38
-0.021108322 -0.13488953 -0.0018552542 1.2170176e-38
-0.019333649 -0.1340401 0.0011078119 1.1156024e-38
-0.017613526 -0.1340401 0.0011078119 9.8656457e-39
-0.015893403 -0.1340401 0.0011078119 9.2202762e-39
-0.01417328 -0.1340401 0.0011078119 6.3625691e-39
-0.012453157 -0.1340401 0.0011078119 7.1916109e-39
-0.010709049 -0.13316862 0.0041478276 7.652589e-39
-0.0089942552 -0.13316862 0.0041478276 9.9567609e-39
-0.0072575733 -0.13173707 0.0091415644 9.9567609e-39
-0.0055515375 -0.13173707 0.0091415644 1.0877997e-38
-0.0038428772 -0.1308798 0.012131989 1.2998845e-38
-0.0021446887 -0.13002776 0.015104175 1.2537853e-38
-0.0004491061 -0.13002776 0.015104175 1.3367967e-38
0.0012464747 -0.13002776 0.015104175 1.2814443e-38
0.0029233657 -0.12915458 0.018150151 1.2353113e-38
0.0046136081 -0.12915458 0.018150151 1.5302665e-38
0.0063038506 -0.12915458 0.018150151 2.0004645e-38
0.0080626793 -0.1308798 0.012131989 2.184748e-38
0.0098027978 -0.13173707 0.0091415644 2.0556742e-38
0.011539635 -0.13232954 0.0070748925 2.0464545e-38
0.013298051 -0.13316862 0.0041478276 1.5394138e-38
0.01512336 -0.13488953 -0.0018552542 1.4102678e-38
0.016908785 -0.13574408 -0.0048362613 1.6407926e-38
0.018749816 -0.13718925 -0.0098774433 1.6315373e-38
0.020489201 -0.13718925 -0.0098774433 4.0533567e-39
0.022305613 -0.13805781 -0.012907326 1.8406644e-39
0.02405031 -0.13805781 -0.012907326 5.5101298e-40
0.025880344 -0.13890342 -0.0158571 4.6061241e-40
0.027630212 -0.13890342 -0.0158571 0
-0.022833642 -0.13661484 -0.0018552542 1.0416667e-38
-0.021108322 -0.13661484 -0.0018552542 1.1616286e-38
-0.019333649 -0.13576023 0.0011078119 1.0325908e-38
-0.017613526 -0.13576023 0.0011078119 8.1132126e-39
-0.015893403 -0.13576023 0.0011078119 7.745149e-39
-0.014138635 -0.13488342 0.0041478276 8.2983199e-39
-0.012423841 -0.13488342 0.0041478276 8.7592981e-39
-0.010685954 -0.13403918 0.0070748925 6.8231899e-39
-0.0089762937 -0.13403918 0.0070748925 7.5603948e-39
-0.0072575733 -0.1334431 0.0091415644 6.9150254e-39
-0.0055515375 -0.1334431 0.0091415644 8.2972409e-39
-0.0038428772 -0.13258059 0.012131989 1.0694676e-38
-0.0021446887 -0.13172336 0.015104175 1.1524064e-38
-0.0004491061 -0.13172336 0.015104175 1.3276134e-38
0.0012464747 -0.13172336 0.015104175 1.3644565e-38
0.0029420583 -0.13172336 0.015104175 1.2814454e-38
0.0046376418 -0.13172336 0.015104175 1.4104841e-38
0.0063332235 -0.13172336 0.015104175 1.7331334e-38
0.0080288062 -0.13172336 0.015104175 1.9082335e-38
0.0097634736 -0.13258059 0.012131989 1.8437321e-38
0.011508835 -0.1334431 0.0091415644 1.7607559e-38
0.013298051 -0.13488342 0.0041478276 1.4288869e-38
0.01512336 -0.13661484 -0.0018552542 1.3919005e-38
0.016908785 -0.13747464 -0.0048362613 1.5486331e-38
0.018749816 -0.13892864 -0.0098774433 1.4748769e-38
0.020489201 -0.13892864 -0.0098774433 3.2243149e-39
0.022305613 -0.13980253 -0.012907326 2.3023614e-39
0.02405031 -0.13980253 -0.012907326 1.1045413e-39
0.025880344 -0.1406533 -0.0158571 4.6061241e-40
0.027630212 -0.1406533 -0.0158571 0
-0.022773895 -0.13748036 0.0011078119 9.8627744e-39
-0.021053772 -0.13748036 0.0011078119 1.2352775e-38
-0.019283015 -0.13659821 0.0041478276 1.1800322e-38
-0.017568219 -0.13659821 0.0041478276 8.8507777e-39
-0.015853427 -0.13659821 0.0041478276 8.9429733e-39
-0.014138635 -0.13659821 0.0041478276 1.1709561e-38
-0.012395615 -0.13574885 0.0070748925 1.1432974e-38
-0.010685954 -0.13574885 0.0070748925 7.8373418e-39
-0.0089762937 -0.13574885 0.0070748925 8.3905156e-39
-0.0072575733 -0.13514914 0.0091415644 7.7451462e-39
-0.0055515375 -0.13514914 0.0091415644 8.2057642e-39
-0.0038428772 -0.13428138 0.012131989 9.2202678e-39
-0.0021446887 -0.13341893 0.015104175 9.9578189e-39
-0.0004491061 -0.13341893 0.015104175 1.0141486e-38
0.0012464747 -0.13341893 0.015104175 1.1800655e-38
0.0029420583 -0.13341893 0.015104175 1.4289586e-38
0.0046376418 -0.13341893 0.015104175 1.4473626e-38
0.0063332235 -0.13341893 0.015104175 1.3274726e-38
0.0080288062 -0.13341893 0.015104175 1.3827184e-38
0.0097634736 -0.13428138 0.012131989 1.5763648e-38
0.011508835 -0.13514914 0.0091415644 1.3827538e-38
0.013214871 -0.13514914 0.0091415644 1.1707392e-38
0.015215607 -0.13979416 -0.0068659186 1.1890704e-38
0.016949711 -0.13979416 -0.0068659186 1.2628266e-38
0.018749816 -0.14066802 -0.0098774433 1.1429726e-38
0.020489201 -0.14066802 -0.0098774433 7.350427e-40
-0.022712599 -0.13831301 0.0041478276 9.5861903e-39
-0.020997804 -0.13831301 0.0041478276 1.1983993e-38
-0.019283015 -0.13831301 0.0041478276 1.1800322e-38
-0.017568219 -0.13831301 0.0041478276 8.5741936e-39
-0.015814938 -0.13745852 0.0070748925 8.5741936e-39
-0.01408172 -0.13685517 0.0091415644 1.2538603e-38
-0.012375686 -0.13685517 0.0091415644 1.1709561e-38
-0.010669649 -0.13685517 0.0091415644 8.0217359e-39
-0.008963611 -0.13685517 0.0091415644 9.7734528e-39
-0.0072575733 -0.13685517 0.0091415644 9.6823362e-39
-0.0055515375 -0.13685517 0.0091415644 1.0234431e-38
-0.0038428772 -0.1359822 0.012131989 1.0695761e-38
-0.0021420848 -0.1359822 0.012131989 9.8652673e-39
-0.00044129044 -0.1359822 0.012131989 8.2982975e-39
0.0012595039 -0.1359822 0.012131989 9.5886832e-39
0.0029420583 -0.13511451 0.015104175 1.3644939e-38
0.0046376418 -0.13511451 0.015104175 1.567217e-38
0.0063332235 -0.13511451 0.015104175 1.4012294e-38
0.0080626793 -0.1359822 0.012131989 1.2813751e-38
0.0097634736 -0.1359822 0.012131989 1.3551313e-38
0.011508835 -0.13685517 0.0091415644 1.2537518e-38
0.013214871 -0.13685517 0.0091415644 1.0601404e-38
0.015215607 -0.14152823 -0.0068659186 1.0416653e-38
0.016949711 -0.14152823 -0.0068659186 1.0693237e-38
0.018749816 -0.1424074 -0.0098774433 9.7712836e-39
0.020560918 -0.14329191 -0.012907326 3.6734198e-40
-0.024427392 -0.14002781 0.0041478276 9.1241332e-39
-0.022712599 -0.14002781 0.0041478276 9.3096034e-39
-0.020997804 -0.14002781 0.0041478276 1.1798885e-38
-0.019234259 -0.13916816 0.0070748925 1.226058e-38
-0.017524596 -0.13916816 0.0070748925 9.2188441e-39
-0.015814938 -0.13916816 0.0070748925 9.2188441e-39
-0.01408172 -0.13856123 0.0091415644 1.3276171e-38
-0.012375686 -0.13856123 0.0091415644 1.152517e-38
-0.010669649 -0.13856123 0.0091415644 7.1919752e-39
-0.008963611 -0.13856123 0.0091415644 8.6681843e-39
-0.0072575733 -0.13856123 0.0091415644 8.6681843e-39
-0.0055515375 -0.13856123 0.0091415644 9.1291624e-39
-0.0038454998 -0.13856123 0.0091415644 9.8667233e-39
-0.0021394622 -0.13856123 0.0091415644 9.4972065e-39
-0.00043342449 -0.13856123 0.0091415644 1.1893571e-38
0.0012595039 -0.13768299 0.012131989 1.4013719e-38
0.0029420583 -0.13681011 0.015104175 1.4198116e-38
0.0046376418 -0.13681011 0.015104175 1.2813748e-38
0.0063618859 -0.13768299 0.012131989 1.1707403e-38
0.0080626793 -0.13768299 0.012131989 1.1707403e-38
0.0097634736 -0.13768299 0.012131989 1.2260574e-38
0.011508835 -0.13856123 0.0091415644 1.0232628e-38
0.015215607 -0.14326234 -0.0068659186 7.6507841e-39
0.016949711 -0.14326234 -0.0068659186 7.927371e-39
0.018749816 -0.14414679 -0.0098774433 8.0192107e-39
0.020560918 -0.14503662 -0.012907326 3.6734198e-40
-0.024427392 -0.1417426 0.0041478276 6.911438e-39
-0.022712599 -0.1417426 0.0041478276 8.0188646e-39
-0.020997804 -0.1417426 0.0041478276 1.0139364e-38
-0.019234259 -0.14087783 0.0070748925 1.0877645e-38
-0.017524596 -0.14087783 0.0070748925 1.0232996e-38
-0.015814938 -0.14087783 0.0070748925 9.4032354e-39
-0.01408172 -0.14026727 0.0091415644 1.0602497e-38
-0.012375686 -0.14026727 0.0091415644 1.08798e-38
-0.010669649 -0.14026727 0.0091415644 9.5890616e-39
-0.008963611 -0.14026727 0.0091415644 8.483793e-39
-0.0072575733 -0.14026727 0.0091415644 8.483793e-39
-0.0055569727 -0.14087783 0.0070748925 7.9309794e-39
-0.0038454998 -0.14026727 0.0091415644 7.1008544e-39
-0.0021394622 -0.14026727 0.0091415644 6.4543947e-39
-0.00043342449 -0.14026727 0.0091415644 1.152551e-38
0.0012595039 -0.13938378 0.012131989 1.4014441e-38
0.0029420583 -0.13850568 0.015104175 1.4475066e-38
0.0046376418 -0.13850568 0.015104175 1.3552395e-38
0.0063618859 -0.13938378 0.012131989 1.0325192e-38
0.0080626793 -0.13938378 0.012131989 1.1708126e-38
0.0098027978 -0.14026727 0.0091415644 9.5879826e-39
0.011508835 -0.14026727 0.0091415644 8.5727488e-39
0.017010434 -0.14588617 -0.0098774433 5.5306448e-39
0.018749816 -0.14588617 -0.0098774433 3.5023437e-39
-0.024427392 -0.14345737 0.0041478276 7.0047127e-39
-0.022712599 -0.14345737 0.0041478276 7.2812996e-39
-0.020997804 -0.14345737 0.0041478276 8.8486225e-39
-0.019234259 -0.1425875 0.0070748925 1.014008e-38
-0.017524596 -0.1425875 0.0070748925 1.0693254e-38
-0.015814938 -0.1425875 0.0070748925 1.0324471e-38
-0.01408172 -0.1419733 0.0091415644 1.0417743e-38
-0.012375686 -0.1419733 0.0091415644 9.9571252e-39
-0.010669649 -0.1419733 0.0091415644 9.220279e-39
-0.008963611 -0.1419733 0.0091415644 9.4968659e-39
-0.0072666332 -0.1425875 0.0070748925 9.9589231e-39
-0.0055569727 -0.1425875 0.0070748925 9.0373269e-39
-0.0038454998 -0.1419733 0.0091415644 7.4696369e-39
-0.0021394622 -0.1419733 0.0091415644 8.2990276e-39
-0.00043342449 -0.1419733 0.0091415644 1.1893938e-38
0.0012726113 -0.1419733 0.0091415644 1.3368715e-38
0.0029602982 -0.14108457 0.012131989 1.3921893e-38
0.0046610916 -0.14108457 0.012131989 1.3828626e-38
0.0063618859 -0.14108457 0.012131989 1.0878368e-38
0.0080967601 -0.1419733 0.0091415644 1.1154955e-38
0.0098027978 -0.1419733 0.0091415644 8.0206569e-39
-0.024427392 -0.14517216 0.0041478276 7.1891011e-39
-0.022712599 -0.14517216 0.0041478276 7.2812968e-39
-0.020997804 -0.14517216 0.0041478276 8.2954487e-39
-0.019234259 -0.14429714 0.0070748925 9.4017962e-39
-0.017524596 -0.14429714 0.0070748925 9.9556861e-39
-0.015814938 -0.14429714 0.0070748925 1.0877642e-38
-0.01408172 -0.14367934 0.0091415644 1.0970917e-38
-0.012375686 -0.14367934 0.0091415644 1.0786886e-38
-0.010685954 -0.14429714 0.0070748925 1.0603211e-38
-0.0089762937 -0.14429714 0.0070748925 1.1340776e-38
-0.0072666332 -0.14429714 0.0070748925 1.1710637e-38
-0.0055569727 -0.14429714 0.0070748925 1.0605009e-38
-0.0038473122 -0.14429714 0.0070748925 9.2213538e-39
-0.0021376498 -0.14429714 0.0070748925 9.220628e-39
-0.00042798929 -0.14429714 0.0070748925 1.1894301e-38
0.0012726113 -0.14367934 0.0091415644 1.3000654e-38
0.0029602982 -0.14278536 0.012131989 1.3184691e-38
0.0046610916 -0.14278536 0.012131989 1.3183978e-38
0.0063907234 -0.14367934 0.0091415644 1.0418109e-38
0.0080967601 -0.14367934 0.0091415644 1.0233718e-38
0.0098027978 -0.14367934 0.0091415644 7.467846e-39
-0.019199833 -0.14538537 0.0091415644 9.3095978e-39
-0.017493796 -0.14538537 0.0091415644 9.0330109e-39
-0.015787762 -0.14538537 0.0091415644 1.0140077e-38
-0.01408172 -0.14538537 0.0091415644 1.1338618e-38
-0.012375686 -0.14538537 0.0091415644 1.2261653e-38
-0.010685954 -0.14600681 0.0070748925 1.2538959e-38
-0.0089762937 -0.14600681 0.0070748925 1.2446763e-38
-0.0072666332 -0.14600681 0.0070748925 1.2354928e-38
-0.0055569727 -0.14600681 0.0070748925 1.1895029e-38
-0.0038473122 -0.14600681 0.0070748925 1.1341853e-38
-0.0021376498 -0.14600681 0.0070748925 1.1526601e-38
-0.00042798929 -0.14600681 0.0070748925 1.2447481e-38
0.0012726113 -0.14538537 0.0091415644 1.2262735e-38
0.0029602982 -0.14448614 0.012131989 1.1248586e-38
0.0046610916 -0.14448614 0.012131989 1.069434e-38
0.0063907234 -0.14538537 0.0091415644 7.3752973e-39
-0.019199833 -0.1470914 0.0091415644 9.1255625e-39
-0.01744923 -0.14618696 0.012131989 8.8489756e-39
-0.015748437 -0.14618696 0.012131989 8.9411712e-39
-0.01408172 -0.1470914 0.0091415644 9.9560406e-39
-0.012375686 -0.1470914 0.0091415644 1.1338975e-38
-0.010685954 -0.14771648 0.0070748925 1.1708478e-38
-0.0089762937 -0.14771648 0.0070748925 1.1801392e-38
-0.0072666332 -0.14771648 0.0070748925 1.1894307e-38
-0.0055569727 -0.14771648 0.0070748925 1.2355285e-38
-0.0038473122 -0.14771648 0.0070748925 1.2540397e-38
-0.0021376498 -0.14771648 0.0070748925 1.3277962e-38
-0.00042798929 -0.14771648 0.0070748925 1.2263811e-38
0.0012726113 -0.1470914 0.0091415644 1.1064194e-38
0.0029602982 -0.14618696 0.012131989 9.3121216e-39
0.0046610916 -0.14618696 0.012131989 8.6667549e-39
0.0063907234 -0.1470914 0.0091415644 5.5321035e-39
-0.01744923 -0.14788775 0.012131989 9.2177567e-39
-0.015748437 -0.14788775 0.012131989 8.8489742e-39
-0.01408172 -0.14879744 0.0091415644 8.5723873e-39
-0.012375686 -0.14879744 0.0091415644 8.5731062e-39
-0.010685954 -0.14942612 0.0070748925 9.4028668e-39
-0.0089762937 -0.14942612 0.0070748925 1.0325543e-38
-0.0072666332 -0.14942612 0.0070748925 1.115602e-38
-0.0055569727 -0.14942612 0.0070748925 1.1709194e-38
-0.0038473122 -0.14942612 0.0070748925 1.1894304e-38
-0.00042798929 -0.14942612 0.0070748925 9.0369668e-39
0.0012816712 -0.14942612 0.0070748925 8.7589478e-39
0.002978649 -0.14879744 0.0091415644 5.9008861e-39
0.0046846867 -0.14879744 0.0091415644 3.8725836e-39
0.0063907234 -0.14879744 0.0091415644 7.3793218e-40
0.0080967601 -0.14879744 0.0091415644 1.84757e-40
