# .PCD v0.7 - Point Cloud Data file format
VERSION 0.7
FIELDS x y z rgb
SIZE 4 4 4 4
TYPE F F F F
COUNT 1 1 1 1
WIDTH 918
HEIGHT 1
VIEWPOINT 0 0 0 1 0 0 0
POINTS 918
DATA ascii
0.017047286 -0.048854202 0.0036350135 2.3509886e-38
0.018905364 -0.048315659 0.0065743569 2.3509886e-38
0.020776328 -0.048315659 0.0065743569 2.3509886e-38
0.022608299 -0.047574818 0.010617698 2.3509886e-38
0.024472173 -0.047574818 0.010617698 2.3509886e-38
0.026336048 -0.047574818 0.010617698 2.3509886e-38
0.02819992 -0.047574818 0.010617698 2.3509886e-38
0.030063795 -0.047574818 0.010617698 2.3509886e-38
0.031927668 -0.047574818 0.010617698 2.3509886e-38
0.033791542 -0.047574818 0.010617698 2.3509886e-38
0.035655417 -0.047574818 0.010617698 2.3509886e-38
0.037519291 -0.047574818 0.010617698 2.3509886e-38
0.039383166 -0.047574818 0.010617698 2.3509886e-38
0.041083768 -0.046474054 0.016625488 2.3509886e-38
0.042850941 -0.045928329 0.019603932 2.341805e-38
0.044699058 -0.045928329 0.019603932 2.341805e-38
0.046547174 -0.045928329 0.019603932 2.341805e-38
0.048256669 -0.045185447 0.023658479 2.341805e-38
0.049992036 -0.044646934 0.026597584 2.3509883e-38
0.051827893 -0.044646934 0.026597584 2.350988e-38
0.053779695 -0.045185447 0.023658479 2.3509879e-38
0.055374738 -0.044091672 0.029628122 2.3509879e-38
0.057205278 -0.044091672 0.029628122 2.3418045e-38
0.059035823 -0.044091672 0.029628122 2.3141816e-38
0.060866363 -0.044091672 0.029628122 2.2865235e-38
0.062696904 -0.044091672 0.029628122 2.341805e-38
0.064527452 -0.044091672 0.029628122 2.2957079e-38
-0.078431092 -0.063308641 -0.064364471 2.0293716e-39
-0.076435752 -0.063308641 -0.064364471 2.341804e-38
-0.074440412 -0.063308641 -0.064364471 2.3326208e-38
-0.072445072 -0.063308641 -0.064364471 2.3418045e-38
-0.070449732 -0.063308641 -0.064364471 2.341805e-38
-0.068173103 -0.062575907 -0.060403265 2.2680844e-38
-0.066184707 -0.062575907 -0.060403265 2.3509886e-38
-0.064196296 -0.062575907 -0.060403265 2.3509886e-38
-0.0622079 -0.062575907 -0.060403265 2.3509886e-38
-0.059959672 -0.061824858 -0.056342997 2.3509886e-38
-0.057978384 -0.061824858 -0.056342997 2.3509886e-38
-0.055760853 -0.061102405 -0.052437343 2.3509886e-38
-0.053786419 -0.061102405 -0.052437343 2.3509886e-38
-0.051812001 -0.061102405 -0.052437343 2.3509886e-38
-0.049451642 -0.059809893 -0.04544989 2.3509886e-38
-0.047489472 -0.059809893 -0.04544989 2.3509886e-38
-0.045527287 -0.059809893 -0.04544989 2.3509886e-38
-0.043565109 -0.059809893 -0.04544989 2.3509886e-38
-0.041406348 -0.059055716 -0.041372813 2.3509886e-38
-0.039451316 -0.059055716 -0.041372813 2.3509886e-38
-0.037496291 -0.059055716 -0.041372813 2.3509886e-38
-0.035414681 -0.058510661 -0.038426198 2.3509886e-38
-0.033464812 -0.058510661 -0.038426198 2.3509886e-38
-0.03151495 -0.058510661 -0.038426198 2.3509886e-38
-0.029413309 -0.057765901 -0.034399904 2.3509886e-38
-0.027361568 -0.057205275 -0.031369127 2.3509886e-38
-0.025424078 -0.057205275 -0.031369127 2.3509886e-38
-0.023357637 -0.056469917 -0.027393734 2.3509886e-38
-0.021427117 -0.056469917 -0.027393734 2.3509886e-38
-0.019382417 -0.05573985 -0.023446953 2.3509886e-38
-0.017458819 -0.05573985 -0.023446953 2.3509886e-38
-0.015535213 -0.05573985 -0.023446953 2.3509886e-38
-0.01353848 -0.055168316 -0.020357167 2.3509886e-38
-0.011620298 -0.055168316 -0.020357167 2.3509886e-38
-0.0097021125 -0.055168316 -0.020357167 2.3509886e-38
-0.0077839307 -0.055168316 -0.020357167 2.3509886e-38
-0.0057988837 -0.054425761 -0.016342795 2.3509886e-38
-0.0038440265 -0.05388324 -0.013409888 2.3509886e-38
-0.0019380227 -0.05388324 -0.013409888 2.3509886e-38
-3.2022595e-05 -0.05388324 -0.013409888 2.3509886e-38
0.0019032359 -0.053322077 -0.01037625 2.3509886e-38
0.0038039181 -0.053322077 -0.01037625 2.3509886e-38
0.0057046004 -0.053322077 -0.01037625 2.3509886e-38
0.0076052845 -0.053322077 -0.01037625 2.3509886e-38
0.0095059685 -0.053322077 -0.01037625 2.3509886e-38
0.011410106 -0.052592993 -0.0064347144 2.3509886e-38
0.013301253 -0.052038997 -0.0034398194 2.3509886e-38
0.015171168 -0.050730333 0.0036350135 2.3509886e-38
0.0170344 -0.050186619 0.0065743569 2.3509886e-38
0.018880552 -0.049438685 0.010617698 2.3509886e-38
0.020744424 -0.049438685 0.010617698 2.3509886e-38
0.022608299 -0.049438685 0.010617698 2.3509886e-38
0.024472173 -0.049438685 0.010617698 2.3509886e-38
0.026336048 -0.049438685 0.010617698 2.3509886e-38
0.02819992 -0.049438685 0.010617698 2.3509886e-38
0.030063795 -0.049438685 0.010617698 2.3509886e-38
0.031927668 -0.049438685 0.010617698 2.3509886e-38
0.033791542 -0.049438685 0.010617698 2.3509886e-38
0.035655417 -0.049438685 0.010617698 2.3509886e-38
0.037519291 -0.049438685 0.010617698 2.3509886e-38
0.039383166 -0.049438685 0.010617698 2.3509886e-38
0.041083768 -0.048327386 0.016625488 2.3509886e-38
0.042850941 -0.047776446 0.019603932 2.3417691e-38
0.044699058 -0.047776446 0.019603932 2.3417691e-38
0.046547174 -0.047776446 0.019603932 2.341805e-38
0.048256669 -0.047026455 0.023658479 2.341805e-38
0.050097678 -0.047026455 0.023658479 2.3509886e-38
0.051827893 -0.046482787 0.026597584 2.3509883e-38
0.053544194 -0.045922205 0.029628122 2.350988e-38
0.055374738 -0.045922205 0.029628122 2.350988e-38
0.057205278 -0.045922205 0.029628122 2.350988e-38
0.059035823 -0.045922205 0.029628122 2.3418047e-38
0.060726363 -0.045364842 0.032641254 2.3233662e-38
0.062551618 -0.045364842 0.032641254 2.341805e-38
0.064376883 -0.045364842 0.032641254 2.2772332e-38
-0.080426432 -0.065303981 -0.064364471 1.8446175e-39
-0.078431092 -0.065303981 -0.064364471 3.6881741e-39
-0.076435752 -0.065303981 -0.064364471 2.3509876e-38
-0.074440412 -0.065303981 -0.064364471 2.2957065e-38
-0.072445072 -0.065303981 -0.064364471 2.350988e-38
-0.070449732 -0.065303981 -0.064364471 2.3509886e-38
-0.068454377 -0.065303981 -0.064364471 2.3048907e-38
-0.066184707 -0.064564303 -0.060403265 2.3509886e-38
-0.064196296 -0.064564303 -0.060403265 2.3509886e-38
-0.0622079 -0.064564303 -0.060403265 2.3509886e-38
-0.059959672 -0.063806131 -0.056342997 2.3509886e-38
-0.057978384 -0.063806131 -0.056342997 2.3509886e-38
-0.055760853 -0.063076839 -0.052437343 2.3509886e-38
-0.053786419 -0.063076839 -0.052437343 2.3509886e-38
-0.051640742 -0.062515661 -0.049432077 2.3509886e-38
-0.049451642 -0.061772063 -0.04544989 2.3509886e-38
-0.047489472 -0.061772063 -0.04544989 2.3509886e-38
-0.045527287 -0.061772063 -0.04544989 2.3509886e-38
-0.043361373 -0.061010748 -0.041372813 2.3509886e-38
-0.041406348 -0.061010748 -0.041372813 2.3509886e-38
-0.039451316 -0.061010748 -0.041372813 2.3509886e-38
-0.037364542 -0.060460538 -0.038426198 2.3509886e-38
-0.035241723 -0.0597087 -0.034399904 2.3509886e-38
-0.033298917 -0.0597087 -0.034399904 2.3509886e-38
-0.031236552 -0.059142768 -0.031369127 2.3509886e-38
-0.029299058 -0.059142768 -0.031369127 2.3509886e-38
-0.027361568 -0.059142768 -0.031369127 2.3509886e-38
-0.025288157 -0.058400437 -0.027393734 2.3509886e-38
-0.023357637 -0.058400437 -0.027393734 2.3509886e-38
-0.021427117 -0.058400437 -0.027393734 2.3509886e-38
-0.019382417 -0.057663456 -0.023446953 2.3509886e-38
-0.017374843 -0.057086498 -0.020357167 2.3509886e-38
-0.015456662 -0.057086498 -0.020357167 2.3509886e-38
-0.01353848 -0.057086498 -0.020357167 2.3509886e-38
-0.011620298 -0.057086498 -0.020357167 2.3509886e-38
-0.0097021125 -0.057086498 -0.020357167 2.3509886e-38
-0.0077839307 -0.057086498 -0.020357167 2.3509886e-38
-0.0057988837 -0.056336895 -0.016342795 2.3509886e-38
-0.0038440265 -0.055789232 -0.013409888 2.3509886e-38
-0.0019380227 -0.055789232 -0.013409888 2.3509886e-38
-3.2022595e-05 -0.055789232 -0.013409888 2.3509886e-38
0.0018739812 -0.055789232 -0.013409888 2.3509886e-38
0.0038039181 -0.055222765 -0.01037625 2.3509886e-38
0.0057046004 -0.055222765 -0.01037625 2.3509886e-38
0.0076052845 -0.055222765 -0.01037625 2.3509886e-38
0.0095163342 -0.054486766 -0.0064347144 2.3509886e-38
0.011410106 -0.054486766 -0.0064347144 2.3509886e-38
0.013301253 -0.053927526 -0.0034398194 2.3509883e-38
0.015171168 -0.052606449 0.0036350135 2.3509883e-38
0.0170344 -0.052057579 0.0065743569 2.3509883e-38
0.018880552 -0.051302567 0.010617698 2.3509883e-38
0.020744424 -0.051302567 0.010617698 2.3509883e-38
0.022608299 -0.051302567 0.010617698 2.3509883e-38
0.024472173 -0.051302567 0.010617698 2.3509883e-38
0.026336048 -0.051302567 0.010617698 2.3509883e-38
0.02819992 -0.051302567 0.010617698 2.3509883e-38
0.030063795 -0.051302567 0.010617698 2.3509883e-38
0.031927668 -0.051302567 0.010617698 2.3509883e-38
0.033791542 -0.051302567 0.010617698 2.3509883e-38
0.035655417 -0.051302567 0.010617698 2.3509883e-38
0.037519291 -0.051302567 0.010617698 2.3509883e-38
0.039306581 -0.050740063 0.013630116 2.3509883e-38
0.041083768 -0.050180733 0.016625488 2.3509886e-38
0.042850941 -0.049624562 0.019603932 2.3417691e-38
0.044699058 -0.049624562 0.019603932 2.3417691e-38
0.046547174 -0.049624562 0.019603932 2.3509527e-38
0.048256669 -0.048867464 0.023658479 2.3509527e-38
0.049992036 -0.048318639 0.026597584 2.3509886e-38
0.051827893 -0.048318639 0.026597584 2.3509886e-38
0.053544194 -0.047752753 0.029628122 2.3509883e-38
0.055374738 -0.047752753 0.029628122 2.3509883e-38
0.057205278 -0.047752753 0.029628122 2.3417687e-38
0.059035823 -0.047752753 0.029628122 2.3509886e-38
0.060726363 -0.0471901 0.032641254 2.341805e-38
0.062551618 -0.0471901 0.032641254 2.3233662e-38
0.064376883 -0.0471901 0.032641254 2.2865243e-38
0.066202141 -0.0471901 0.032641254 1.3922279e-38
-0.080426432 -0.067299321 -0.064364471 2.8587694e-39
-0.078431092 -0.067299321 -0.064364471 5.2554998e-39
-0.076435752 -0.067299321 -0.064364471 2.3509876e-38
-0.074440412 -0.067299321 -0.064364471 2.3325847e-38
-0.072445072 -0.067299321 -0.064364471 2.3049261e-38
-0.070449732 -0.067299321 -0.064364471 2.3509886e-38
-0.068454377 -0.067299321 -0.064364471 2.3509886e-38
-0.066184707 -0.066552714 -0.060403265 2.3509886e-38
-0.064196296 -0.066552714 -0.060403265 2.3509886e-38
-0.0622079 -0.066552714 -0.060403265 2.3509886e-38
-0.059959672 -0.06578742 -0.056342997 2.3509886e-38
-0.057978384 -0.06578742 -0.056342997 2.3509886e-38
-0.055760853 -0.065051258 -0.052437343 2.3509886e-38
-0.053786419 -0.065051258 -0.052437343 2.3509886e-38
-0.051640742 -0.06448482 -0.049432077 2.3509886e-38
-0.049451642 -0.063734248 -0.04544989 2.3509886e-38
-0.047489472 -0.063734248 -0.04544989 2.3509886e-38
-0.045527287 -0.063734248 -0.04544989 2.3509886e-38
-0.043361373 -0.06296578 -0.041372813 2.3509886e-38
-0.041406348 -0.06296578 -0.041372813 2.3509886e-38
-0.039451316 -0.06296578 -0.041372813 2.3509886e-38
-0.037364542 -0.062410399 -0.038426198 2.3509886e-38
-0.035241723 -0.061651513 -0.034399904 2.3509886e-38
-0.033298917 -0.061651513 -0.034399904 2.3509886e-38
-0.031236552 -0.061080262 -0.031369127 2.3509886e-38
-0.029299058 -0.061080262 -0.031369127 2.3509886e-38
-0.027218681 -0.060330957 -0.027393734 2.3509886e-38
-0.02515322 -0.059587061 -0.023446953 2.3509886e-38
-0.023229618 -0.059587061 -0.023446953 2.3509886e-38
-0.021306016 -0.059587061 -0.023446953 2.3509886e-38
-0.019293029 -0.059004679 -0.020357167 2.3509886e-38
-0.017374843 -0.059004679 -0.020357167 2.3509886e-38
-0.015456662 -0.059004679 -0.020357167 2.3509886e-38
-0.01353848 -0.059004679 -0.020357167 2.3509886e-38
-0.011620298 -0.059004679 -0.020357167 2.3509886e-38
-0.0097021125 -0.059004679 -0.020357167 2.3509886e-38
-0.0077839307 -0.059004679 -0.020357167 2.3509886e-38
-0.0057500303 -0.05769524 -0.013409888 2.3509886e-38
-0.0038440265 -0.05769524 -0.013409888 2.3509886e-38
-0.0019380227 -0.05769524 -0.013409888 2.3509886e-38
-3.2022595e-05 -0.05769524 -0.013409888 2.3509886e-38
0.0019032359 -0.057123452 -0.01037625 2.3509886e-38
0.0038039181 -0.057123452 -0.01037625 2.3509886e-38
0.0057046004 -0.057123452 -0.01037625 2.3509886e-38
0.0076225623 -0.05638054 -0.0064347144 2.3509886e-38
0.0095163342 -0.05638054 -0.0064347144 2.3509886e-38
0.011410106 -0.05638054 -0.0064347144 2.3509886e-38
0.013301253 -0.055816054 -0.0034398194 2.3509883e-38
0.015179241 -0.055061117 0.00056549348 2.3509883e-38
0.0170344 -0.053928539 0.0065743569 2.3509883e-38
0.018880552 -0.053166434 0.010617698 2.3509883e-38
0.020744424 -0.053166434 0.010617698 2.3509883e-38
0.022608299 -0.053166434 0.010617698 2.3509883e-38
0.024472173 -0.053166434 0.010617698 2.3509883e-38
0.026336048 -0.053166434 0.010617698 2.3509883e-38
0.028155025 -0.052598655 0.013630116 2.3509883e-38
0.030013617 -0.052598655 0.013630116 2.3509883e-38
0.031927668 -0.053166434 0.010617698 2.3509883e-38
0.033791542 -0.053166434 0.010617698 2.3509883e-38
0.035589397 -0.052598655 0.013630116 2.3509883e-38
0.037447989 -0.052598655 0.013630116 2.3509883e-38
0.039306581 -0.052598655 0.013630116 2.3509883e-38
0.041083768 -0.052034065 0.016625488 2.3509886e-38
0.042850941 -0.051472679 0.019603932 2.341805e-38
0.044699058 -0.051472679 0.019603932 2.3417691e-38
0.046415661 -0.050708473 0.023658479 2.3509527e-38
0.048256669 -0.050708473 0.023658479 2.3509527e-38
0.049992036 -0.050154492 0.026597584 2.3509886e-38
0.051713653 -0.049583286 0.029628122 2.3509886e-38
0.053544194 -0.049583286 0.029628122 2.3509883e-38
0.055374738 -0.049583286 0.029628122 2.3509883e-38
0.057205278 -0.049583286 0.029628122 2.3233299e-38
0.059035823 -0.049583286 0.029628122 2.3509886e-38
0.060726363 -0.049015373 0.032641254 2.341805e-38
0.062551618 -0.049015373 0.032641254 2.295672e-38
0.064376883 -0.049015373 0.032641254 2.323402e-38
0.066202141 -0.049015373 0.032641254 1.7795214e-38
-0.082091875 -0.06854111 -0.060403265 7.4681949e-39
-0.080103479 -0.06854111 -0.060403265 6.9146582e-39
-0.078115083 -0.06854111 -0.060403265 9.3117474e-39
-0.076126687 -0.06854111 -0.060403265 2.3233288e-38
-0.074440412 -0.069294676 -0.064364471 2.350988e-38
-0.072445072 -0.069294676 -0.064364471 2.350988e-38
-0.070449732 -0.069294676 -0.064364471 2.2864516e-38
-0.068454377 -0.069294676 -0.064364471 2.3509886e-38
-0.066184707 -0.06854111 -0.060403265 2.3509886e-38
-0.064196296 -0.06854111 -0.060403265 2.3509886e-38
-0.0622079 -0.06854111 -0.060403265 2.3509886e-38
-0.059959672 -0.067768693 -0.056342997 2.3509886e-38
-0.057978384 -0.067768693 -0.056342997 2.3509886e-38
-0.055760853 -0.067025691 -0.052437343 2.3509886e-38
-0.0536099 -0.066453978 -0.049432077 2.3509886e-38
-0.051640742 -0.066453978 -0.049432077 2.3509886e-38
-0.049451642 -0.065696418 -0.04544989 2.3509886e-38
-0.047489472 -0.065696418 -0.04544989 2.3509886e-38
-0.045527287 -0.065696418 -0.04544989 2.3509886e-38
-0.043361373 -0.064920813 -0.041372813 2.3509886e-38
-0.041406348 -0.064920813 -0.041372813 2.3509886e-38
-0.039451316 -0.064920813 -0.041372813 2.3509886e-38
-0.037364542 -0.064360261 -0.038426198 2.3509886e-38
-0.035241723 -0.063594311 -0.034399904 2.3509886e-38
-0.033174045 -0.063017741 -0.031369127 2.3509886e-38
-0.031079717 -0.062261477 -0.027393734 2.3509886e-38
-0.029149201 -0.062261477 -0.027393734 2.3509886e-38
-0.027218681 -0.062261477 -0.027393734 2.3509886e-38
-0.02515322 -0.061510652 -0.023446953 2.3509886e-38
-0.023229618 -0.061510652 -0.023446953 2.3509886e-38
-0.021306016 -0.061510652 -0.023446953 2.3509886e-38
-0.019293029 -0.060922861 -0.020357167 2.3509886e-38
-0.017374843 -0.060922861 -0.020357167 2.3509886e-38
-0.015456662 -0.060922861 -0.020357167 2.3509886e-38
-0.01353848 -0.060922861 -0.020357167 2.3509886e-38
-0.011620298 -0.060922861 -0.020357167 2.3509886e-38
-0.0097021125 -0.060922861 -0.020357167 2.3509886e-38
-0.0077100247 -0.060159191 -0.016342795 2.3509886e-38
-0.0057500303 -0.059601247 -0.013409888 2.3509886e-38
-0.0038440265 -0.059601247 -0.013409888 2.3509886e-38
-0.0019380227 -0.059601247 -0.013409888 2.3509886e-38
-3.2022595e-05 -0.059601247 -0.013409888 2.3509886e-38
0.0019032359 -0.059024125 -0.01037625 2.3509886e-38
0.0038039181 -0.059024125 -0.01037625 2.3509886e-38
0.0057046004 -0.059024125 -0.01037625 2.3509886e-38
0.0076225623 -0.058274314 -0.0064347144 2.3509886e-38
0.0095163342 -0.058274314 -0.0064347144 2.3509886e-38
0.011410106 -0.058274314 -0.0064347144 2.3509886e-38
0.013301253 -0.057704568 -0.0034398194 2.3509883e-38
0.015179241 -0.056942612 0.00056549348 2.3509883e-38
0.0170344 -0.055799499 0.0065743569 2.3509883e-38
0.018880552 -0.055030316 0.010617698 2.3509883e-38
0.020744424 -0.055030316 0.010617698 2.3509883e-38
0.022608299 -0.055030316 0.010617698 2.3509883e-38
0.024472173 -0.055030316 0.010617698 2.3509883e-38
0.026336048 -0.055030316 0.010617698 2.3509883e-38
0.028155025 -0.054457247 0.013630116 2.3509883e-38
0.030013617 -0.054457247 0.013630116 2.3509883e-38
0.031927668 -0.055030316 0.010617698 2.3509883e-38
0.033791542 -0.055030316 0.010617698 2.3509883e-38
0.035589397 -0.054457247 0.013630116 2.3509883e-38
0.037447989 -0.054457247 0.013630116 2.3509883e-38
0.039230429 -0.053887412 0.016625488 2.3509883e-38
0.041083768 -0.053887412 0.016625488 2.3509886e-38
0.042850941 -0.053320795 0.019603932 2.341805e-38
0.044699058 -0.053320795 0.019603932 2.341805e-38
0.046415661 -0.052549481 0.023658479 2.3509527e-38
0.048156179 -0.05199036 0.026597584 2.3509886e-38
0.049992036 -0.05199036 0.026597584 2.3509527e-38
0.051713653 -0.051413834 0.029628122 2.3509527e-38
0.053544194 -0.051413834 0.029628122 2.3509883e-38
0.055374738 -0.051413834 0.029628122 2.3509883e-38
0.057205278 -0.051413834 0.029628122 2.3509527e-38
0.059035823 -0.051413834 0.029628122 2.3233302e-38
0.060866363 -0.051413834 0.029628122 2.3233662e-38
0.062551618 -0.050840631 0.032641254 2.2680136e-38
0.064376883 -0.050840631 0.032641254 2.3234379e-38
0.066202141 -0.050840631 0.032641254 2.0007908e-38
-0.082091875 -0.070529506 -0.060403265 1.2815181e-38
-0.080103479 -0.070529506 -0.060403265 1.3921526e-38
-0.078115083 -0.070529506 -0.060403265 1.5304463e-38
-0.076126687 -0.070529506 -0.060403265 2.3141092e-38
-0.074440412 -0.071290016 -0.064364471 2.350988e-38
-0.072445072 -0.071290016 -0.064364471 2.350988e-38
-0.070449732 -0.071290016 -0.064364471 2.2956712e-38
-0.068454377 -0.071290016 -0.064364471 2.341769e-38
-0.066459037 -0.071290016 -0.064364471 2.3509886e-38
-0.064196296 -0.070529506 -0.060403265 2.3509886e-38
-0.0622079 -0.070529506 -0.060403265 2.3509886e-38
-0.059959672 -0.069749966 -0.056342997 2.3509886e-38
-0.057978384 -0.069749966 -0.056342997 2.3509886e-38
-0.055579074 -0.068423137 -0.049432077 2.3509886e-38
-0.0536099 -0.068423137 -0.049432077 2.3509886e-38
-0.051413827 -0.067658603 -0.04544989 2.3509886e-38
-0.049451642 -0.067658603 -0.04544989 2.3509886e-38
-0.047489472 -0.067658603 -0.04544989 2.3509886e-38
-0.045527287 -0.067658603 -0.04544989 2.3509886e-38
-0.043361373 -0.066875845 -0.041372813 2.3509886e-38
-0.041406348 -0.066875845 -0.041372813 2.3509886e-38
-0.039451316 -0.066875845 -0.041372813 2.3509886e-38
-0.037364542 -0.066310123 -0.038426198 2.3509886e-38
-0.035241723 -0.06553711 -0.034399904 2.3509886e-38
-0.033174045 -0.064955235 -0.031369127 2.3509886e-38
-0.031079717 -0.064191997 -0.027393734 2.3509886e-38
-0.029149201 -0.064191997 -0.027393734 2.3509886e-38
-0.027218681 -0.064191997 -0.027393734 2.3509886e-38
-0.02515322 -0.063434258 -0.023446953 2.3509886e-38
-0.023229618 -0.063434258 -0.023446953 2.3509886e-38
-0.021306016 -0.063434258 -0.023446953 2.3509886e-38
-0.019382417 -0.063434258 -0.023446953 2.3509886e-38
-0.017374843 -0.062841058 -0.020357167 2.3509886e-38
-0.015456662 -0.062841058 -0.020357167 2.3509886e-38
-0.01353848 -0.062841058 -0.020357167 2.3509886e-38
-0.011620298 -0.062841058 -0.020357167 2.3509886e-38
-0.0097021125 -0.062841058 -0.020357167 2.3509886e-38
-0.0077100247 -0.062070325 -0.016342795 2.3509886e-38
-0.0057500303 -0.06150724 -0.013409888 2.3509886e-38
-0.0038440265 -0.06150724 -0.013409888 2.3509886e-38
-0.0019380227 -0.06150724 -0.013409888 2.3509886e-38
-3.2022595e-05 -0.06150724 -0.013409888 2.3509886e-38
0.0019032359 -0.060924813 -0.01037625 2.3509886e-38
0.0038039181 -0.060924813 -0.01037625 2.3509886e-38
0.0057046004 -0.060924813 -0.01037625 2.3509886e-38
0.0076225623 -0.060168073 -0.0064347144 2.3509886e-38
0.0095163342 -0.060168073 -0.0064347144 2.3509886e-38
0.011412732 -0.059593096 -0.0034398194 2.3509886e-38
0.013301253 -0.059593096 -0.0034398194 2.3509883e-38
0.015179241 -0.058824107 0.00056549348 2.3509883e-38
0.0170344 -0.057670474 0.0065743569 2.3509883e-38
0.018905364 -0.057670474 0.0065743569 2.3509883e-38
0.020744424 -0.056894183 0.010617698 2.3509883e-38
0.022608299 -0.056894183 0.010617698 2.3509883e-38
0.024472173 -0.056894183 0.010617698 2.3509883e-38
0.026336048 -0.056894183 0.010617698 2.3509883e-38
0.02819992 -0.056894183 0.010617698 2.3509883e-38
0.030063795 -0.056894183 0.010617698 2.3509883e-38
0.031927668 -0.056894183 0.010617698 2.3509883e-38
0.033791542 -0.056894183 0.010617698 2.3509883e-38
0.035589397 -0.056315839 0.013630116 2.3509883e-38
0.037447989 -0.056315839 0.013630116 2.3509883e-38
0.039230429 -0.055740759 0.016625488 2.3509883e-38
0.041083768 -0.055740759 0.016625488 2.3509883e-38
0.042850941 -0.055168927 0.019603932 2.341805e-38
0.044699058 -0.055168927 0.019603932 2.341805e-38
0.046415661 -0.05439049 0.023658479 2.3509886e-38
0.048156179 -0.053826213 0.026597584 2.3509886e-38
0.049992036 -0.053826213 0.026597584 2.3509883e-38
0.051713653 -0.053244382 0.029628122 2.3509883e-38
0.053544194 -0.053244382 0.029628122 2.3509883e-38
0.055374738 -0.053244382 0.029628122 2.3509883e-38
0.057205278 -0.053244382 0.029628122 2.3509527e-38
0.059035823 -0.053244382 0.029628122 2.3141106e-38
0.060866363 -0.053244382 0.029628122 2.3232944e-38
0.062551618 -0.052665889 0.032641254 2.1574865e-38
0.064227186 -0.052090734 0.035636984 2.258902e-38
0.066047192 -0.052090734 0.035636984 2.1114252e-38
0.069687203 -0.052090734 0.035636984 3.657389e-43
-0.082091875 -0.072517902 -0.060403265 1.3921529e-38
-0.080103479 -0.072517902 -0.060403265 1.3921526e-38
-0.078115083 -0.072517902 -0.060403265 1.6871789e-38
-0.076126687 -0.072517902 -0.060403265 2.3509876e-38
-0.074675776 -0.073883221 -0.067450322 2.3232933e-38
-0.072675012 -0.073883221 -0.067450322 2.350988e-38
-0.070674263 -0.073883221 -0.067450322 2.341769e-38
-0.068673514 -0.073883221 -0.067450322 2.3509886e-38
-0.066459037 -0.073285356 -0.064364471 2.3509886e-38
-0.064196296 -0.072517902 -0.060403265 2.3509886e-38
-0.0622079 -0.072517902 -0.060403265 2.3509886e-38
-0.059959672 -0.071731254 -0.056342997 2.3509886e-38
-0.057978384 -0.071731254 -0.056342997 2.3509886e-38
-0.055579074 -0.070392311 -0.049432077 2.3509886e-38
-0.0536099 -0.070392311 -0.049432077 2.3509886e-38
-0.051413827 -0.069620788 -0.04544989 2.3509886e-38
-0.049451642 -0.069620788 -0.04544989 2.3509886e-38
-0.047271438 -0.068830878 -0.041372813 2.3509886e-38
-0.045316406 -0.068830878 -0.041372813 2.3509886e-38
-0.043361373 -0.068830878 -0.041372813 2.3509886e-38
-0.041264273 -0.068259984 -0.038426198 2.3509886e-38
-0.039314412 -0.068259984 -0.038426198 2.3509886e-38
-0.037364542 -0.068259984 -0.038426198 2.3509886e-38
-0.035241723 -0.067479923 -0.034399904 2.3509886e-38
-0.033174045 -0.066892728 -0.031369127 2.3509886e-38
-0.031079717 -0.066122517 -0.027393734 2.3509886e-38
-0.02900042 -0.065357864 -0.023446953 2.3509886e-38
-0.027076818 -0.065357864 -0.023446953 2.3509886e-38
-0.02515322 -0.065357864 -0.023446953 2.3509886e-38
-0.023229618 -0.065357864 -0.023446953 2.3509886e-38
-0.021306016 -0.065357864 -0.023446953 2.3509886e-38
-0.019293029 -0.06475924 -0.020357167 2.3509886e-38
-0.017374843 -0.06475924 -0.020357167 2.3509886e-38
-0.015456662 -0.06475924 -0.020357167 2.3509886e-38
-0.01353848 -0.06475924 -0.020357167 2.3509886e-38
-0.011620298 -0.06475924 -0.020357167 2.3509886e-38
-0.0096211694 -0.063981473 -0.016342795 2.3509886e-38
-0.0076560304 -0.063413247 -0.013409888 2.3509886e-38
-0.0057500303 -0.063413247 -0.013409888 2.3509886e-38
-0.0038440265 -0.063413247 -0.013409888 2.3509886e-38
-0.0019380227 -0.063413247 -0.013409888 2.3509886e-38
2.5518239e-06 -0.062825501 -0.01037625 2.3509886e-38
0.0019032359 -0.062825501 -0.01037625 2.3509886e-38
0.0038039181 -0.062825501 -0.01037625 2.3509886e-38
0.0057287887 -0.062061846 -0.0064347144 2.3509886e-38
0.0076225623 -0.062061846 -0.0064347144 2.3509886e-38
0.0095163342 -0.062061846 -0.0064347144 2.3509886e-38
0.011412732 -0.06148161 -0.0034398194 2.3509886e-38
0.013301253 -0.06148161 -0.0034398194 2.3509883e-38
0.015179241 -0.060705602 0.00056549348 2.3509883e-38
0.0170344 -0.059541434 0.0065743569 2.3509883e-38
0.018905364 -0.059541434 0.0065743569 2.3509883e-38
0.020744424 -0.058758065 0.010617698 2.3509883e-38
0.022608299 -0.058758065 0.010617698 2.3509883e-38
0.024472173 -0.058758065 0.010617698 2.3509883e-38
0.026336048 -0.058758065 0.010617698 2.3509883e-38
0.02819992 -0.058758065 0.010617698 2.3509883e-38
0.030063795 -0.058758065 0.010617698 2.3509883e-38
0.031927668 -0.058758065 0.010617698 2.3509883e-38
0.033730801 -0.058174431 0.013630116 2.3509883e-38
0.035589397 -0.058174431 0.013630116 2.3509883e-38
0.037447989 -0.058174431 0.013630116 2.3509883e-38
0.039154705 -0.057017043 0.019603932 2.3509883e-38
0.041002825 -0.057017043 0.019603932 2.3509883e-38
0.042850941 -0.057017043 0.019603932 2.3418045e-38
0.044574652 -0.056231499 0.023658479 2.3418045e-38
0.046415661 -0.056231499 0.023658479 2.350988e-38
0.048156179 -0.055662066 0.026597584 2.350988e-38
0.049883109 -0.055074915 0.029628122 2.350988e-38
0.051713653 -0.055074915 0.029628122 2.350988e-38
0.053425327 -0.054491147 0.032641254 2.3509521e-38
0.055250585 -0.054491147 0.032641254 2.3509524e-38
0.057075843 -0.054491147 0.032641254 2.3509527e-38
0.058901105 -0.054491147 0.032641254 2.3325494e-38
0.060726363 -0.054491147 0.032641254 2.3417691e-38
0.062551618 -0.054491147 0.032641254 2.0468875e-38
0.064227186 -0.053910747 0.035636984 2.1575222e-38
0.066047192 -0.053910747 0.035636984 2.2128757e-38
0.067867197 -0.053910747 0.035636984 1.53992e-38
0.069687203 -0.053910747 0.035636984 1.084605e-42
-0.080103479 -0.074506298 -0.060403265 6.6380741e-39
-0.078115083 -0.074506298 -0.060403265 1.355239e-38
-0.076126687 -0.074506298 -0.060403265 2.3509879e-38
-0.074138291 -0.074506298 -0.060403265 2.350988e-38
-0.072445072 -0.075280696 -0.064364471 2.3509883e-38
-0.070674263 -0.07588397 -0.067450322 2.3509886e-38
-0.068454377 -0.075280696 -0.064364471 2.3509886e-38
-0.066459037 -0.075280696 -0.064364471 2.3509886e-38
-0.064196296 -0.074506298 -0.060403265 2.3509886e-38
-0.0622079 -0.074506298 -0.060403265 2.3509886e-38
-0.059959672 -0.073712528 -0.056342997 2.3509886e-38
-0.057735287 -0.072948977 -0.052437343 2.3509886e-38
-0.055579074 -0.072361469 -0.049432077 2.3509886e-38
-0.053376012 -0.071582958 -0.04544989 2.3509886e-38
-0.051413827 -0.071582958 -0.04544989 2.3509886e-38
-0.04922647 -0.07078591 -0.041372813 2.3509886e-38
-0.047271438 -0.07078591 -0.041372813 2.3509886e-38
-0.045316406 -0.07078591 -0.041372813 2.3509886e-38
-0.043361373 -0.07078591 -0.041372813 2.3509886e-38
-0.041264273 -0.070209846 -0.038426198 2.3509886e-38
-0.039314412 -0.070209846 -0.038426198 2.3509886e-38
-0.037364542 -0.070209846 -0.038426198 2.3509886e-38
-0.035241723 -0.069422722 -0.034399904 2.3509886e-38
-0.033174045 -0.068830222 -0.031369127 2.3509886e-38
-0.031079717 -0.068053037 -0.027393734 2.3509886e-38
-0.02900042 -0.067281455 -0.023446953 2.3509886e-38
-0.027076818 -0.067281455 -0.023446953 2.3509886e-38
-0.02515322 -0.067281455 -0.023446953 2.3509886e-38
-0.023129396 -0.066677421 -0.020357167 2.3509886e-38
-0.021211211 -0.066677421 -0.020357167 2.3509886e-38
-0.019293029 -0.066677421 -0.020357167 2.3509886e-38
-0.017265748 -0.065892622 -0.016342795 2.3509886e-38
-0.015354604 -0.065892622 -0.016342795 2.3509886e-38
-0.01353848 -0.066677421 -0.020357167 2.3509886e-38
-0.011532314 -0.065892622 -0.016342795 2.3509886e-38
-0.0096211694 -0.065892622 -0.016342795 2.3509886e-38
-0.0076560304 -0.065319255 -0.013409888 2.3509886e-38
-0.0056995004 -0.064726189 -0.01037625 2.3509886e-38
-0.0037988126 -0.064726189 -0.01037625 2.3509886e-38
-0.0018981323 -0.064726189 -0.01037625 2.3509886e-38
2.5518239e-06 -0.064726189 -0.01037625 2.3509886e-38
0.0019032359 -0.064726189 -0.01037625 2.3509886e-38
0.0038350169 -0.06395562 -0.0064347144 2.3509886e-38
0.0057287887 -0.06395562 -0.0064347144 2.3509886e-38
0.0076225623 -0.06395562 -0.0064347144 2.3509886e-38
0.0095163342 -0.06395562 -0.0064347144 2.3509886e-38
0.011412732 -0.063370138 -0.0034398194 2.3509886e-38
0.013297742 -0.062587112 0.00056549348 2.3509883e-38
0.015179241 -0.062587112 0.00056549348 2.3509883e-38
0.0170344 -0.061412394 0.0065743569 2.3509883e-38
0.018905364 -0.061412394 0.0065743569 2.3509883e-38
0.020776328 -0.061412394 0.0065743569 2.3509883e-38
0.022608299 -0.060621932 0.010617698 2.3509883e-38
0.024472173 -0.060621932 0.010617698 2.3509883e-38
0.026336048 -0.060621932 0.010617698 2.3509883e-38
0.02819992 -0.060621932 0.010617698 2.3509883e-38
0.030063795 -0.060621932 0.010617698 2.3509883e-38
0.031927668 -0.060621932 0.010617698 2.3509883e-38
0.033730801 -0.060033023 0.013630116 2.3509883e-38
0.035589397 -0.060033023 0.013630116 2.3509883e-38
0.037377086 -0.059447438 0.016625488 2.3509883e-38
0.039154705 -0.05886516 0.019603932 2.3509883e-38
0.041002825 -0.05886516 0.019603932 2.3509883e-38
0.042733639 -0.058072507 0.023658479 2.3418045e-38
0.044574652 -0.058072507 0.023658479 2.3418045e-38
0.046320327 -0.057497919 0.026597584 2.350988e-38
0.048052568 -0.056905463 0.029628122 2.350988e-38
0.049774807 -0.056316406 0.032641254 2.350988e-38
0.051600065 -0.056316406 0.032641254 2.350988e-38
0.053425327 -0.056316406 0.032641254 2.3509521e-38
0.055250585 -0.056316406 0.032641254 2.3509524e-38
0.057075843 -0.056316406 0.032641254 2.3509883e-38
0.058901105 -0.056316406 0.032641254 2.3509527e-38
0.060726363 -0.056316406 0.032641254 2.3509886e-38
0.062551618 -0.056316406 0.032641254 1.9822779e-38
0.064376883 -0.056316406 0.032641254 2.1205358e-38
0.066047192 -0.055730745 0.035636984 2.3234379e-38
0.067867197 -0.055730745 0.035636984 1.8901909e-38
0.069687203 -0.055730745 0.035636984 7.3900698e-40
-0.082091875 -0.076494694 -0.060403265 2.9498944e-39
-0.080103479 -0.076494694 -0.060403265 6.0849088e-39
-0.078115083 -0.076494694 -0.060403265 1.3460559e-38
-0.076126687 -0.076494694 -0.060403265 2.3509883e-38
-0.074138291 -0.076494694 -0.060403265 2.3509883e-38
-0.072445072 -0.077276036 -0.064364471 2.3509886e-38
-0.070449732 -0.077276036 -0.064364471 2.3141103e-38
-0.068454377 -0.077276036 -0.064364471 2.3509886e-38
-0.066459037 -0.077276036 -0.064364471 2.3509886e-38
-0.064196296 -0.076494694 -0.060403265 2.3509886e-38
-0.0622079 -0.076494694 -0.060403265 2.3509886e-38
-0.059959672 -0.075693801 -0.056342997 2.3509886e-38
-0.057735287 -0.074923411 -0.052437343 2.3509886e-38
-0.055579074 -0.074330628 -0.049432077 2.3509886e-38
-0.053376012 -0.073545143 -0.04544989 2.3509886e-38
-0.051181503 -0.072740942 -0.041372813 2.3509886e-38
-0.04922647 -0.072740942 -0.041372813 2.3509886e-38
-0.047271438 -0.072740942 -0.041372813 2.3509886e-38
-0.045316406 -0.072740942 -0.041372813 2.3509886e-38
-0.043361373 -0.072740942 -0.041372813 2.3509886e-38
-0.041264273 -0.072159722 -0.038426198 2.3509886e-38
-0.039314412 -0.072159722 -0.038426198 2.3509886e-38
-0.037364542 -0.072159722 -0.038426198 2.3509886e-38
-0.035414681 -0.072159722 -0.038426198 2.3509886e-38
-0.033174045 -0.070767716 -0.031369127 2.3509886e-38
-0.031079717 -0.069983557 -0.027393734 2.3509886e-38
-0.02900042 -0.069205061 -0.023446953 2.3509886e-38
-0.026965763 -0.068595603 -0.020357167 2.3509886e-38
-0.025047578 -0.068595603 -0.020357167 2.3509886e-38
-0.023129396 -0.068595603 -0.020357167 2.3509886e-38
-0.021211211 -0.068595603 -0.020357167 2.3509886e-38
-0.019176893 -0.06780377 -0.016342795 2.3509886e-38
-0.017265748 -0.06780377 -0.016342795 2.3509886e-38
-0.015354604 -0.06780377 -0.016342795 2.3509886e-38
-0.013443459 -0.06780377 -0.016342795 2.3509886e-38
-0.011532314 -0.06780377 -0.016342795 2.3509886e-38
-0.0095620304 -0.067225248 -0.013409888 2.3509886e-38
-0.0076560304 -0.067225248 -0.013409888 2.3509886e-38
-0.0056995004 -0.066626862 -0.01037625 2.3509886e-38
-0.0037988126 -0.066626862 -0.01037625 2.3509886e-38
-0.0018981323 -0.066626862 -0.01037625 2.3509886e-38
2.5518239e-06 -0.066626862 -0.01037625 2.3509886e-38
0.001941245 -0.065849394 -0.0064347144 2.3509886e-38
0.0038350169 -0.065849394 -0.0064347144 2.3509886e-38
0.0057287887 -0.065849394 -0.0064347144 2.3509886e-38
0.0076356903 -0.065258652 -0.0034398194 2.3509886e-38
0.0095242113 -0.065258652 -0.0034398194 2.3509886e-38
0.011412732 -0.065258652 -0.0034398194 2.3509886e-38
0.013297742 -0.064468607 0.00056549348 2.3509886e-38
0.015179241 -0.064468607 0.00056549348 2.3509886e-38
0.0170344 -0.063283354 0.0065743569 2.3509886e-38
0.018905364 -0.063283354 0.0065743569 2.3509886e-38
0.020776328 -0.063283354 0.0065743569 2.3509886e-38
0.022608299 -0.062485814 0.010617698 2.3509886e-38
0.024472173 -0.062485814 0.010617698 2.3509886e-38
0.026336048 -0.062485814 0.010617698 2.3509886e-38
0.02819992 -0.062485814 0.010617698 2.3509886e-38
0.030063795 -0.062485814 0.010617698 2.3509886e-38
0.031872209 -0.061891615 0.013630116 2.3509886e-38
0.033730801 -0.061891615 0.013630116 2.3509886e-38
0.035523746 -0.061300769 0.016625488 2.3509886e-38
0.037377086 -0.061300769 0.016625488 2.3509886e-38
0.039154705 -0.060713276 0.019603932 2.3509886e-38
0.040892631 -0.059913516 0.023658479 2.3509886e-38
0.042733639 -0.059913516 0.023658479 2.3509883e-38
0.04448447 -0.059333771 0.026597584 2.3509883e-38
0.046320327 -0.059333771 0.026597584 2.3509883e-38
0.047949549 -0.058141664 0.032641254 2.3509883e-38
0.049774807 -0.058141664 0.032641254 2.3509883e-38
0.051487137 -0.057550758 0.035636984 2.3509883e-38
0.053307146 -0.057550758 0.035636984 2.3509883e-38
0.055127151 -0.057550758 0.035636984 2.3509883e-38
0.056947157 -0.057550758 0.035636984 2.3509883e-38
0.058767166 -0.057550758 0.035636984 2.3509883e-38
0.060587171 -0.057550758 0.035636984 2.3509883e-38
0.062407177 -0.057550758 0.035636984 1.9913893e-38
0.064376883 -0.058141664 0.032641254 2.166561e-38
0.066514738 -0.059333771 0.026597584 2.3232936e-38
0.068350598 -0.059333771 0.026597584 2.1020601e-38
0.070019074 -0.058735996 0.029628122 5.5317378e-40
-0.082091875 -0.07848309 -0.060403265 6.4500647e-40
-0.080103479 -0.07848309 -0.060403265 4.8863684e-39
-0.078115083 -0.07848309 -0.060403265 1.6226431e-38
-0.076126687 -0.07848309 -0.060403265 2.3325494e-38
-0.074138291 -0.07848309 -0.060403265 2.3233299e-38
-0.072445072 -0.079271376 -0.064364471 2.3509886e-38
-0.070449732 -0.079271376 -0.064364471 2.3509886e-38
-0.068454377 -0.079271376 -0.064364471 2.3509886e-38
-0.066184707 -0.07848309 -0.060403265 2.3509886e-38
-0.064196296 -0.07848309 -0.060403265 2.3509886e-38
-0.0622079 -0.07848309 -0.060403265 2.3509886e-38
-0.059959672 -0.077675089 -0.056342997 2.3509886e-38
-0.057735287 -0.076897845 -0.052437343 2.3509886e-38
-0.055579074 -0.076299787 -0.049432077 2.3509886e-38
-0.053376012 -0.075507313 -0.04544989 2.3509886e-38
-0.051181503 -0.074695975 -0.041372813 2.3509886e-38
-0.04922647 -0.074695975 -0.041372813 2.3509886e-38
-0.047271438 -0.074695975 -0.041372813 2.3509886e-38
-0.045316406 -0.074695975 -0.041372813 2.3509886e-38
-0.043361373 -0.074695975 -0.041372813 2.3509886e-38
-0.041264273 -0.074109584 -0.038426198 2.3509886e-38
-0.039314412 -0.074109584 -0.038426198 2.3509886e-38
-0.037364542 -0.074109584 -0.038426198 2.3509886e-38
-0.035414681 -0.074109584 -0.038426198 2.3509886e-38
-0.033010237 -0.071914092 -0.027393734 2.3509886e-38
-0.031079717 -0.071914092 -0.027393734 2.3509886e-38
-0.028883945 -0.070513785 -0.020357167 2.3509886e-38
-0.026965763 -0.070513785 -0.020357167 2.3509886e-38
-0.025047578 -0.070513785 -0.020357167 2.3509886e-38
-0.022999182 -0.069714904 -0.016342795 2.3509886e-38
-0.021088038 -0.069714904 -0.016342795 2.3509886e-38
-0.019176893 -0.069714904 -0.016342795 2.3509886e-38
-0.017265748 -0.069714904 -0.016342795 2.3509886e-38
-0.015354604 -0.069714904 -0.016342795 2.3509886e-38
-0.013443459 -0.069714904 -0.016342795 2.3509886e-38
-0.011532314 -0.069714904 -0.016342795 2.3509886e-38
-0.0095620304 -0.069131255 -0.013409888 2.3509886e-38
-0.0076001808 -0.06852755 -0.01037625 2.3509886e-38
-0.0056995004 -0.06852755 -0.01037625 2.3509886e-38
-0.0037988126 -0.06852755 -0.01037625 2.3509886e-38
-0.0018981323 -0.06852755 -0.01037625 2.3509886e-38
4.7471374e-05 -0.067743167 -0.0064347144 2.3509886e-38
0.001941245 -0.067743167 -0.0064347144 2.3509886e-38
0.0038350169 -0.067743167 -0.0064347144 2.3509886e-38
0.0057287887 -0.067743167 -0.0064347144 2.3509886e-38
0.0076356903 -0.06714718 -0.0034398194 2.3509886e-38
0.0095242113 -0.06714718 -0.0034398194 2.3509886e-38
0.011416243 -0.066350102 0.00056549348 2.3509886e-38
0.013297742 -0.066350102 0.00056549348 2.3509886e-38
0.015171168 -0.065739259 0.0036350135 2.3509886e-38
0.0170344 -0.065154314 0.0065743569 2.3509886e-38
0.018905364 -0.065154314 0.0065743569 2.3509886e-38
0.020776328 -0.065154314 0.0065743569 2.3509886e-38
0.022608299 -0.064349681 0.010617698 2.3509886e-38
0.024472173 -0.064349681 0.010617698 2.3509886e-38
0.026336048 -0.064349681 0.010617698 2.3509886e-38
0.02819992 -0.064349681 0.010617698 2.3509886e-38
0.030063795 -0.064349681 0.010617698 2.3509886e-38
0.031872209 -0.063750207 0.013630116 2.3509886e-38
0.033670403 -0.063154116 0.016625488 2.3509886e-38
0.035523746 -0.063154116 0.016625488 2.3509886e-38
0.037306584 -0.062561393 0.019603932 2.3509886e-38
0.039051622 -0.061754525 0.023658479 2.3509886e-38
0.040892631 -0.061754525 0.023658479 2.3509886e-38
0.042733639 -0.061754525 0.023658479 2.3509886e-38
0.04448447 -0.061169639 0.026597584 2.3509886e-38
0.046320327 -0.061169639 0.026597584 2.3509886e-38
0.047949549 -0.059966922 0.032641254 2.3509886e-38
0.049774807 -0.059966922 0.032641254 2.3509886e-38
0.051487137 -0.059370756 0.035636984 2.3509886e-38
0.053307146 -0.059370756 0.035636984 2.3509883e-38
0.055127151 -0.059370756 0.035636984 2.3509883e-38
0.056947157 -0.059370756 0.035636984 2.3509523e-38
0.058767166 -0.059370756 0.035636984 2.3509883e-38
0.060587171 -0.059370756 0.035636984 2.3509161e-38
0.062407177 -0.059370756 0.035636984 1.9544029e-38
0.064376883 -0.059966922 0.032641254 2.1572333e-38
0.066514738 -0.061169639 0.026597584 2.3508441e-38
0.068188533 -0.060566545 0.029628122 2.2033311e-38
0.070019074 -0.060566545 0.029628122 6.4392747e-40
0.071849614 -0.060566545 0.029628122 5.5246052e-40
-0.082091875 -0.080471486 -0.060403265 9.1835496e-41
-0.080103479 -0.080471486 -0.060403265 7.5600416e-39
-0.078115083 -0.080471486 -0.060403265 2.1112799e-38
-0.076126687 -0.080471486 -0.060403265 2.3509886e-38
-0.074138291 -0.080471486 -0.060403265 2.3325494e-38
-0.072445072 -0.081266731 -0.064364471 2.3325494e-38
-0.070161499 -0.080471486 -0.060403265 2.3509886e-38
-0.068173103 -0.080471486 -0.060403265 2.3048907e-38
-0.066184707 -0.080471486 -0.060403265 2.3509886e-38
-0.063922219 -0.079656363 -0.056342997 2.3509886e-38
-0.061940946 -0.079656363 -0.056342997 2.3509886e-38
-0.059959672 -0.079656363 -0.056342997 2.3509886e-38
-0.057735287 -0.078872278 -0.052437343 2.3509886e-38
-0.055579074 -0.078268945 -0.049432077 2.3509886e-38
-0.053376012 -0.077469498 -0.04544989 2.3509886e-38
-0.051181503 -0.076650992 -0.041372813 2.3509886e-38
-0.04922647 -0.076650992 -0.041372813 2.3509886e-38
-0.047271438 -0.076650992 -0.041372813 2.3509886e-38
-0.045316406 -0.076650992 -0.041372813 2.3509886e-38
-0.043361373 -0.076650992 -0.041372813 2.3509886e-38
-0.041264273 -0.076059446 -0.038426198 2.3509886e-38
-0.039314412 -0.076059446 -0.038426198 2.3509886e-38
-0.037364542 -0.076059446 -0.038426198 2.3509886e-38
-0.035414681 -0.076059446 -0.038426198 2.3509886e-38
-0.033010237 -0.073844612 -0.027393734 2.3509886e-38
-0.030924015 -0.073052257 -0.023446953 2.3509886e-38
-0.028883945 -0.072431967 -0.020357167 2.3509886e-38
-0.026965763 -0.072431967 -0.020357167 2.3509886e-38
-0.024910327 -0.071626052 -0.016342795 2.3509886e-38
-0.022999182 -0.071626052 -0.016342795 2.3509886e-38
-0.021088038 -0.071626052 -0.016342795 2.3509886e-38
-0.019176893 -0.071626052 -0.016342795 2.3509886e-38
-0.017186042 -0.071037248 -0.013409888 2.3509886e-38
-0.015280038 -0.071037248 -0.013409888 2.3509886e-38
-0.013374038 -0.071037248 -0.013409888 2.3509886e-38
-0.011468038 -0.071037248 -0.013409888 2.3509886e-38
-0.0095008649 -0.070428237 -0.01037625 2.3509886e-38
-0.0076001808 -0.070428237 -0.01037625 2.3509886e-38
-0.0056338459 -0.069636941 -0.0064347144 2.3509886e-38
-0.0037400723 -0.069636941 -0.0064347144 2.3509886e-38
-0.0018462986 -0.069636941 -0.0064347144 2.3509886e-38
4.7471374e-05 -0.069636941 -0.0064347144 2.3509886e-38
0.001941245 -0.069636941 -0.0064347144 2.3509886e-38
0.0038350169 -0.069636941 -0.0064347144 2.3509886e-38
0.0057471674 -0.069035694 -0.0034398194 2.3509886e-38
0.0076356903 -0.069035694 -0.0034398194 2.3509886e-38
0.0095347445 -0.068231598 0.00056549348 2.3509886e-38
0.011418935 -0.067615375 0.0036350135 2.3509886e-38
0.013295051 -0.067615375 0.0036350135 2.3509886e-38
0.015163438 -0.067025289 0.0065743569 2.3509886e-38
0.0170344 -0.067025289 0.0065743569 2.3509886e-38
0.018880552 -0.066213563 0.010617698 2.3509886e-38
0.020744424 -0.066213563 0.010617698 2.3509886e-38
0.022608299 -0.066213563 0.010617698 2.3509886e-38
0.024472173 -0.066213563 0.010617698 2.3509886e-38
0.026336048 -0.066213563 0.010617698 2.3509886e-38
0.02819992 -0.066213563 0.010617698 2.3509886e-38
0.030063795 -0.066213563 0.010617698 2.3509886e-38
0.031872209 -0.065608799 0.013630116 2.3509886e-38
0.033670403 -0.065007448 0.016625488 2.3509886e-38
0.035458468 -0.064409509 0.019603932 2.3509886e-38
0.037306584 -0.064409509 0.019603932 2.3509886e-38
0.039051622 -0.063595533 0.023658479 2.3509886e-38
0.040892631 -0.063595533 0.023658479 2.3509886e-38
0.042648613 -0.063005492 0.026597584 2.3509886e-38
0.04448447 -0.063005492 0.026597584 2.3509886e-38
0.046222024 -0.062397093 0.029628122 2.3509886e-38
0.047949549 -0.06179218 0.032641254 2.3509886e-38
0.049774807 -0.06179218 0.032641254 2.3509886e-38
0.051487137 -0.061190769 0.035636984 2.3509886e-38
0.053307146 -0.061190769 0.035636984 2.3509883e-38
0.055127151 -0.061190769 0.035636984 2.3509883e-38
0.056947157 -0.061190769 0.035636984 2.3509883e-38
0.058767166 -0.061190769 0.035636984 2.3417327e-38
0.060587171 -0.061190769 0.035636984 2.3509521e-38
0.062407177 -0.061190769 0.035636984 1.9083051e-38
0.064678885 -0.063005492 0.026597584 2.1387941e-38
0.06666676 -0.063595533 0.023658479 2.3509521e-38
0.068188533 -0.062397093 0.029628122 2.3047463e-38
0.070019074 -0.062397093 0.029628122 6.4392747e-40
0.071849614 -0.062397093 0.029628122 1.836752e-40
-0.082091875 -0.082459882 -0.060403265 3.6806365e-40
-0.080103479 -0.082459882 -0.060403265 1.3737149e-38
-0.078115083 -0.082459882 -0.060403265 2.3509886e-38
-0.076126687 -0.082459882 -0.060403265 2.3509886e-38
-0.074138291 -0.082459882 -0.060403265 2.3509886e-38
-0.072149895 -0.082459882 -0.060403265 2.3233299e-38
-0.070161499 -0.082459882 -0.060403265 2.3509886e-38
-0.068173103 -0.082459882 -0.060403265 2.3048907e-38
-0.066184707 -0.082459882 -0.060403265 2.3509886e-38
-0.063922219 -0.081637636 -0.056342997 2.3509886e-38
-0.061940946 -0.081637636 -0.056342997 2.3509886e-38
-0.05970972 -0.080846712 -0.052437343 2.3509886e-38
-0.057548232 -0.080238104 -0.049432077 2.3509886e-38
-0.055338182 -0.079431683 -0.04544989 2.3509886e-38
-0.053376012 -0.079431683 -0.04544989 2.3509886e-38
-0.051181503 -0.078606024 -0.041372813 2.3509886e-38
-0.04922647 -0.078606024 -0.041372813 2.3509886e-38
-0.047271438 -0.078606024 -0.041372813 2.3509886e-38
-0.045316406 -0.078606024 -0.041372813 2.3509886e-38
-0.043214135 -0.078009307 -0.038426198 2.3509886e-38
-0.041264273 -0.078009307 -0.038426198 2.3509886e-38
-0.039314412 -0.078009307 -0.038426198 2.3509886e-38
-0.037364542 -0.078009307 -0.038426198 2.3509886e-38
-0.035241723 -0.077193946 -0.034399904 2.3509886e-38
-0.033010237 -0.075775132 -0.027393734 2.3509886e-38
-0.030924015 -0.074975863 -0.023446953 2.3509886e-38
-0.028883945 -0.074350148 -0.020357167 2.3509886e-38
-0.026965763 -0.074350148 -0.020357167 2.3509886e-38
-0.024910327 -0.073537201 -0.016342795 2.3509886e-38
-0.022999182 -0.073537201 -0.016342795 2.3509886e-38
-0.021088038 -0.073537201 -0.016342795 2.3509886e-38
-0.019176893 -0.073537201 -0.016342795 2.3509886e-38
-0.017186042 -0.072943255 -0.013409888 2.3509886e-38
-0.015280038 -0.072943255 -0.013409888 2.3509886e-38
-0.013302229 -0.07232891 -0.01037625 2.3509886e-38
-0.011401549 -0.07232891 -0.01037625 2.3509886e-38
-0.0095008649 -0.07232891 -0.01037625 2.3509886e-38
-0.0075276196 -0.071530715 -0.0064347144 2.3509886e-38
-0.0056338459 -0.071530715 -0.0064347144 2.3509886e-38
-0.0037400723 -0.071530715 -0.0064347144 2.3509886e-38
-0.0018462986 -0.071530715 -0.0064347144 2.3509886e-38
4.7471374e-05 -0.071530715 -0.0064347144 2.3509886e-38
0.0019701254 -0.070924222 -0.0034398194 2.3509886e-38
0.0038586464 -0.070924222 -0.0034398194 2.3509886e-38
0.0057471674 -0.070924222 -0.0034398194 2.3509886e-38
0.0076532457 -0.070113108 0.00056549348 2.3509886e-38
0.0095428172 -0.069491491 0.0036350135 2.3509886e-38
0.011418935 -0.069491491 0.0036350135 2.3509886e-38
0.01328893 -0.06807743 0.010617698 2.3509886e-38
0.015152805 -0.06807743 0.010617698 2.3509886e-38
0.017016677 -0.06807743 0.010617698 2.3509886e-38
0.018880552 -0.06807743 0.010617698 2.3509886e-38
0.020744424 -0.06807743 0.010617698 2.3509886e-38
0.022608299 -0.06807743 0.010617698 2.3509886e-38
0.024437841 -0.067467391 0.013630116 2.3509886e-38
0.026296433 -0.067467391 0.013630116 2.3509886e-38
0.02819992 -0.06807743 0.010617698 2.3509886e-38
0.030013617 -0.067467391 0.013630116 2.3509886e-38
0.031817064 -0.066860795 0.016625488 2.3509886e-38
0.033670403 -0.066860795 0.016625488 2.3509886e-38
0.035458468 -0.066257626 0.019603932 2.3509886e-38
0.037306584 -0.066257626 0.019603932 2.3509886e-38
0.039051622 -0.065436542 0.023658479 2.3509886e-38
0.040812761 -0.064841345 0.026597584 2.3509886e-38
0.042648613 -0.064841345 0.026597584 2.3509886e-38
0.044391483 -0.064227626 0.029628122 2.3509886e-38
0.046222024 -0.064227626 0.029628122 2.3509886e-38
0.047949549 -0.063617438 0.032641254 2.3509886e-38
0.049667131 -0.063010782 0.035636984 2.3509886e-38
0.051487137 -0.063010782 0.035636984 2.3509886e-38
0.053307146 -0.063010782 0.035636984 2.3509883e-38
0.054965131 -0.062214464 0.039569221 2.3509883e-38
0.056778241 -0.062214464 0.039569221 2.3509883e-38
0.058767166 -0.063010782 0.035636984 2.3417327e-38
0.060587171 -0.063010782 0.035636984 2.3509521e-38
0.062407177 -0.063010782 0.035636984 1.8990855e-38
0.064678885 -0.064841345 0.026597584 2.1387941e-38
0.06666676 -0.065436542 0.023658479 2.3509521e-38
0.068188533 -0.064227626 0.029628122 2.3508801e-38
0.070019074 -0.064227626 0.029628122 9.2159336e-40
0.071849614 -0.064227626 0.029628122 2.8025969e-45
0.073680162 -0.064227626 0.029628122 3.2272128e-39
-0.080103479 -0.084448278 -0.060403265 1.9637669e-38
-0.078115083 -0.084448278 -0.060403265 2.3509886e-38
-0.076126687 -0.084448278 -0.060403265 2.3233299e-38
-0.074138291 -0.084448278 -0.060403265 2.3509886e-38
-0.072149895 -0.084448278 -0.060403265 2.341769e-38
-0.070161499 -0.084448278 -0.060403265 2.3509886e-38
-0.06788478 -0.083618924 -0.056342997 2.3509886e-38
-0.065903507 -0.083618924 -0.056342997 2.3509886e-38
-0.063922219 -0.083618924 -0.056342997 2.3509886e-38
-0.061684154 -0.082821131 -0.052437343 2.3509886e-38
-0.05970972 -0.082821131 -0.052437343 2.3509886e-38
-0.057548232 -0.082207277 -0.049432077 2.3509886e-38
-0.055338182 -0.081393853 -0.04544989 2.3509886e-38
-0.053376012 -0.081393853 -0.04544989 2.3509886e-38
-0.051181503 -0.080561057 -0.041372813 2.3509886e-38
-0.04922647 -0.080561057 -0.041372813 2.3509886e-38
-0.047271438 -0.080561057 -0.041372813 2.3509886e-38
-0.045316406 -0.080561057 -0.041372813 2.3509886e-38
-0.043214135 -0.079959169 -0.038426198 2.3509886e-38
-0.041264273 -0.079959169 -0.038426198 2.3509886e-38
-0.039314412 -0.079959169 -0.038426198 2.3509886e-38
-0.037184529 -0.079136744 -0.034399904 2.3509886e-38
