# .PCD v0.7 - Point Cloud Data file format
VERSION 0.7
FIELDS x y z rgb
SIZE 4 4 4 4
TYPE F F F F
COUNT 1 1 1 1
WIDTH 939
HEIGHT 1
VIEWPOINT 0 0 0 1 0 0 0
POINTS 939
DATA ascii
0.04140301 -0.12068425 -0.050653584 2.3509886e-38
0.043504685 -0.12160493 -0.054616578 2.3509886e-38
0.045620859 -0.12253194 -0.05860687 2.3509886e-38
0.047751673 -0.12346537 -0.06262482 2.3509886e-38
0.049897294 -0.12440531 -0.066670783 2.3509886e-38
0.051947147 -0.12440531 -0.066670783 2.341805e-38
0.054110914 -0.12532012 -0.070608504 2.3234379e-38
0.05653508 -0.12810193 -0.08258272 2.2589736e-38
0.058612831 -0.12810193 -0.08258272 2.323402e-38
0.060963366 -0.12995549 -0.090561278 5.347006e-39
0.063055106 -0.12995549 -0.090561278 2.3822074e-44
-0.055098534 -0.10092205 0.042412512 3.9662212e-39
-0.053239942 -0.10092205 0.042412512 1.1618456e-38
-0.05138135 -0.10092205 0.042412512 2.2497178e-38
-0.049522758 -0.10092205 0.042412512 2.341805e-38
-0.047664165 -0.10092205 0.042412512 2.0467783e-38
-0.045805573 -0.10092205 0.042412512 1.9453264e-38
-0.044129208 -0.10162716 0.039400093 1.8714974e-38
-0.04250282 -0.10257359 0.035356753 1.7977046e-38
-0.04063186 -0.10257359 0.035356753 1.6962892e-38
-0.039313972 -0.1049176 0.025342574 1.6870693e-38
-0.037796393 -0.1065412 0.018406143 1.5855821e-38
-0.035895705 -0.1065412 0.018406143 1.5302647e-38
-0.033995025 -0.1065412 0.018406143 1.502606e-38
-0.031904295 -0.10561861 0.022347679 1.5395566e-38
-0.030010521 -0.10561861 0.022347679 1.3275069e-38
-0.028292976 -0.1065412 0.018406143 1.4473257e-38
-0.024804018 -0.097886756 0.055379979 2.350987e-38
-0.022968166 -0.097886756 0.055379979 2.3509873e-38
-0.021132309 -0.097886756 0.055379979 2.3509876e-38
-0.019296452 -0.097886756 0.055379979 2.350988e-38
-0.017460596 -0.097886756 0.055379979 2.3509883e-38
-0.015624739 -0.097886756 0.055379979 2.3509886e-38
-0.013788886 -0.097886756 0.055379979 2.3509886e-38
-0.012043212 -0.098574698 0.052440874 2.341805e-38
-0.010405667 -0.10022092 0.045407884 2.341805e-38
-0.0087155998 -0.10162716 0.039400093 2.3509886e-38
-0.0068517253 -0.10162716 0.039400093 2.3509886e-38
-0.0050835535 -0.10257359 0.035356753 2.3509886e-38
-0.0032770112 -0.1032616 0.032417409 2.3509886e-38
-0.001543548 -0.1049176 0.025342574 2.3509886e-38
0.00028983504 -0.10561861 0.022347679 2.3509886e-38
0.0021179542 -0.1065412 0.018406143 2.3509886e-38
0.0039297193 -0.1079378 0.012439599 2.3509886e-38
0.005840864 -0.1079378 0.012439599 2.3509886e-38
0.0077062547 -0.10887744 0.0084252264 2.3509886e-38
0.0096244402 -0.10887744 0.0084252264 2.3509886e-38
0.011518244 -0.10960068 0.0053354409 2.3509886e-38
0.013417626 -0.11052449 0.0013886597 2.3509886e-38
0.015330721 -0.11145501 -0.0025867317 2.3509886e-38
0.01726024 -0.11216442 -0.0056175087 2.3509886e-38
0.019199515 -0.11310686 -0.0096438024 2.3509886e-38
0.021151964 -0.11379658 -0.012590418 2.3509886e-38
0.023128189 -0.115683 -0.020649681 2.3509886e-38
0.025110524 -0.11638646 -0.023654947 2.3509886e-38
0.027108923 -0.11730064 -0.027560601 2.3509886e-38
0.029122235 -0.11825104 -0.031620868 2.3509886e-38
0.031148832 -0.11917825 -0.035582073 2.3509886e-38
0.033144176 -0.11917825 -0.035582073 2.3509886e-38
0.035180096 -0.11990054 -0.038667925 2.3509886e-38
0.037298866 -0.12175412 -0.046586879 2.3509886e-38
0.039381243 -0.12270601 -0.050653584 2.3509886e-38
0.04140301 -0.12270601 -0.050653584 2.3509886e-38
0.043504685 -0.12363364 -0.054616578 2.3509886e-38
0.045620859 -0.12456764 -0.05860687 2.3509886e-38
0.04765657 -0.12456764 -0.05860687 2.3509886e-38
0.049794432 -0.12550814 -0.06262482 2.3509886e-38
0.051947147 -0.12645517 -0.066670783 2.341805e-38
0.053996995 -0.12645517 -0.066670783 2.2865961e-38
0.05616767 -0.12737687 -0.070608504 2.3142544e-38
0.058353018 -0.12830482 -0.074572928 2.2957438e-38
0.060416725 -0.12830482 -0.074572928 1.0879823e-38
-0.055098534 -0.10278064 0.042412512 8.4830882e-39
-0.053239942 -0.10278064 0.042412512 1.6965083e-38
-0.05138135 -0.10278064 0.042412512 2.3142544e-38
-0.049522758 -0.10278064 0.042412512 2.341805e-38
-0.047664165 -0.10278064 0.042412512 2.0928761e-38
-0.045805573 -0.10278064 0.042412512 1.9822046e-38
-0.044129208 -0.10349102 0.039400093 1.9175953e-38
-0.04250282 -0.10444455 0.035356753 1.8714611e-38
-0.04063186 -0.10444455 0.035356753 1.7608261e-38
-0.03947939 -0.1075124 0.022347679 1.6962889e-38
-0.037796393 -0.1084419 0.018406143 1.5579954e-38
-0.036052614 -0.10915731 0.015372505 1.5395563e-38
-0.034146622 -0.10915731 0.015372505 1.4750194e-38
-0.032240614 -0.10915731 0.015372505 1.5395566e-38
-0.030334607 -0.10915731 0.015372505 1.3736047e-38
-0.028739221 -0.11079563 0.0084252264 1.419667e-38
-0.024804018 -0.099722609 0.055379979 2.2955256e-38
-0.022968166 -0.099722609 0.055379979 2.3509873e-38
-0.021132309 -0.099722609 0.055379979 2.3509876e-38
-0.019296452 -0.099722609 0.055379979 2.350988e-38
-0.017460596 -0.099722609 0.055379979 2.3509883e-38
-0.015624739 -0.099722609 0.055379979 2.3509886e-38
-0.013788886 -0.099722609 0.055379979 2.3509886e-38
-0.012043212 -0.10041572 0.052440874 2.341805e-38
-0.010405667 -0.10207425 0.045407884 2.341805e-38
-0.0087155998 -0.10349102 0.039400093 2.3509886e-38
-0.0068517253 -0.10349102 0.039400093 2.3509886e-38
-0.0050835535 -0.10444455 0.035356753 2.3509886e-38
-0.0032770112 -0.10513772 0.032417409 2.3509886e-38
-0.0014627874 -0.10586159 0.029347887 2.3509886e-38
0.00034497306 -0.10680611 0.025342574 2.3509886e-38
0.0021179542 -0.1084419 0.018406143 2.3509886e-38
0.0039734282 -0.10915731 0.015372505 2.3509886e-38
0.005879432 -0.10915731 0.015372505 2.3509886e-38
0.0077520087 -0.10984896 0.012439599 2.3509886e-38
0.0096244402 -0.11079563 0.0084252264 2.3509886e-38
0.011518244 -0.11152427 0.0053354409 2.3509886e-38
0.013417626 -0.11245503 0.0013886597 2.3509886e-38
0.015330721 -0.11339252 -0.0025867317 2.3509886e-38
0.01726024 -0.11410724 -0.0056175087 2.3509886e-38
0.019199515 -0.11505674 -0.0096438024 2.3509886e-38
0.02114938 -0.11505674 -0.0096438024 2.3509886e-38
0.023117715 -0.11671309 -0.016667495 2.3509886e-38
0.02509735 -0.11765216 -0.020649681 2.3509886e-38
0.027084954 -0.11836089 -0.023654947 2.3509886e-38
0.0290902 -0.11928193 -0.027560601 2.3509886e-38
0.031110633 -0.12023942 -0.031620868 2.3509886e-38
0.033144176 -0.12117358 -0.035582073 2.3509886e-38
0.035180096 -0.12190129 -0.038667925 2.3509886e-38
0.037298866 -0.12376876 -0.046586879 2.3509886e-38
0.039381243 -0.1247278 -0.050653584 2.3509886e-38
0.04140301 -0.1247278 -0.050653584 2.3509886e-38
0.043424778 -0.1247278 -0.050653584 2.3509886e-38
0.045533404 -0.12566237 -0.054616578 2.3509886e-38
0.04765657 -0.12660335 -0.05860687 2.3509886e-38
0.049794432 -0.12755089 -0.06262482 2.3509886e-38
0.051837191 -0.12755089 -0.06262482 2.341805e-38
0.053996995 -0.12850504 -0.066670783 2.3234379e-38
0.056046847 -0.12850504 -0.066670783 2.2589734e-38
0.058224425 -0.12943362 -0.070608504 2.3142544e-38
0.060281184 -0.12943362 -0.070608504 1.4752757e-38
-0.055098534 -0.10463922 0.042412512 1.2078718e-38
-0.053239942 -0.10463922 0.042412512 1.9915343e-38
-0.05138135 -0.10463922 0.042412512 2.2864882e-38
-0.049522758 -0.10463922 0.042412512 2.2772321e-38
-0.047664165 -0.10463922 0.042412512 2.0467783e-38
-0.045805573 -0.10463922 0.042412512 1.9544381e-38
-0.044129208 -0.10535492 0.039400093 1.8622779e-38
-0.04250282 -0.10631551 0.035356753 1.853022e-38
-0.040974259 -0.10774307 0.029347887 1.7608261e-38
-0.03947939 -0.10940616 0.022347679 1.7055806e-38
-0.037796393 -0.11034258 0.018406143 1.5396282e-38
-0.036052614 -0.11106332 0.015372505 1.5396282e-38
-0.034146622 -0.11106332 0.015372505 1.4657998e-38
-0.032382026 -0.11176009 0.012439599 1.5118979e-38
-0.030657411 -0.1127138 0.0084252264 1.3736045e-38
-0.028877363 -0.11344786 0.0053354409 1.3643852e-38
-0.024804018 -0.10155846 0.055379979 2.1387929e-38
-0.022968166 -0.10155846 0.055379979 2.350987e-38
-0.021132309 -0.10155846 0.055379979 2.3509873e-38
-0.019296452 -0.10155846 0.055379979 2.3509879e-38
-0.017460596 -0.10155846 0.055379979 2.3509883e-38
-0.015624739 -0.10155846 0.055379979 2.3509886e-38
-0.013788886 -0.10155846 0.055379979 2.3509886e-38
-0.012043212 -0.10225673 0.052440874 2.341805e-38
-0.010405667 -0.1039276 0.045407884 2.341805e-38
-0.0087155998 -0.10535492 0.039400093 2.3509886e-38
-0.0068517253 -0.10535492 0.039400093 2.3509886e-38
-0.0050835535 -0.10631551 0.035356753 2.3509886e-38
-0.0032770112 -0.10701384 0.032417409 2.3509886e-38
-0.0014627874 -0.10774307 0.029347887 2.3509886e-38
0.00034497306 -0.10869466 0.025342574 2.3509886e-38
0.0021836087 -0.10940616 0.022347679 2.3509886e-38
0.004018642 -0.11034258 0.018406143 2.3509886e-38
0.005879432 -0.11106332 0.015372505 2.3509886e-38
0.0077520087 -0.11176009 0.012439599 2.3509886e-38
0.0096631534 -0.11176009 0.012439599 2.3509886e-38
0.011542622 -0.1127138 0.0084252264 2.3509886e-38
0.013441846 -0.11344786 0.0053354409 2.3509886e-38
0.015348146 -0.11438553 0.0013886597 2.3509886e-38
0.017268211 -0.11533 -0.0025867317 2.3509886e-38
0.019203044 -0.11605005 -0.0056175087 2.3509886e-38
0.02114585 -0.11605005 -0.0056175087 2.3509886e-38
0.023106994 -0.11770664 -0.012590418 2.3509886e-38
0.025079895 -0.11867525 -0.016667495 2.3509886e-38
0.027066512 -0.11962132 -0.020649681 2.3509886e-38
0.029059384 -0.12033533 -0.023654947 2.3509886e-38
0.031071479 -0.12126322 -0.027560601 2.3509886e-38
0.033144176 -0.12316893 -0.035582073 2.3509886e-38
0.035180096 -0.12390204 -0.038667925 2.3509886e-38
0.037298866 -0.1257834 -0.046586879 2.3509886e-38
0.039381243 -0.12674956 -0.050653584 2.3509886e-38
0.04140301 -0.12674956 -0.050653584 2.3509886e-38
0.043424778 -0.12674956 -0.050653584 2.3509886e-38
0.045533404 -0.12769108 -0.054616578 2.3509886e-38
0.04765657 -0.12863909 -0.05860687 2.3509886e-38
0.049794432 -0.12959366 -0.06262482 2.3509886e-38
0.051837191 -0.12959366 -0.06262482 2.341805e-38
0.053996995 -0.13055487 -0.066670783 2.3234379e-38
0.056046847 -0.13055487 -0.066670783 2.3050708e-38
0.058096699 -0.13055487 -0.066670783 2.3142544e-38
0.060146552 -0.13055487 -0.066670783 2.1206448e-38
-0.054885834 -0.10578094 0.045407884 1.8808999e-38
-0.053032488 -0.10578094 0.045407884 2.1205362e-38
-0.051179156 -0.10578094 0.045407884 2.3325856e-38
-0.049325809 -0.10578094 0.045407884 2.3233296e-38
-0.047664165 -0.10649781 0.042412512 1.9545825e-38
-0.045805573 -0.10649781 0.042412512 1.9452188e-38
-0.044129208 -0.10721879 0.039400093 1.8438389e-38
-0.042675465 -0.10888995 0.032417409 1.8253277e-38
-0.0412025 -0.11058317 0.025342574 1.760898e-38
-0.03947939 -0.11129995 0.022347679 1.6687744e-38
-0.037958622 -0.11296929 0.015372505 1.5489201e-38
-0.036052614 -0.11296929 0.015372505 1.5211891e-38
-0.034293175 -0.11367123 0.012439599 1.585726e-38
-0.032575592 -0.114632 0.0084252264 1.5579954e-38
-0.030800968 -0.11537148 0.0053354409 1.382824e-38
-0.028877363 -0.11537148 0.0053354409 1.4564726e-38
-0.026953772 -0.11537148 0.0053354409 1.7330598e-38
-0.022968166 -0.10339431 0.055379979 2.3322959e-38
-0.021132309 -0.10339431 0.055379979 2.3508432e-38
-0.019296452 -0.10339431 0.055379979 2.3509879e-38
-0.017460596 -0.10339431 0.055379979 2.3325129e-38
-0.015624739 -0.10339431 0.055379979 2.3509886e-38
-0.013788886 -0.10339431 0.055379979 2.3233302e-38
-0.012043212 -0.10409774 0.052440874 2.3049273e-38
-0.010319501 -0.1050681 0.048386328 2.341805e-38
-0.0086337328 -0.10649781 0.042412512 2.3509886e-38
-0.0068517253 -0.10721879 0.039400093 2.3509886e-38
-0.0050835535 -0.10818647 0.035356753 2.3509886e-38
-0.0032125935 -0.10818647 0.035356753 2.3509886e-38
-0.0014627874 -0.10962458 0.029347887 2.3509886e-38
0.00034497306 -0.11058317 0.025342574 2.3509886e-38
0.0021836087 -0.11129995 0.022347679 2.3509886e-38
0.004018642 -0.11224325 0.018406143 2.3509886e-38
0.0059193224 -0.11224325 0.018406143 2.3509886e-38
0.007785432 -0.11296929 0.015372505 2.3509886e-38
0.0096631534 -0.11367123 0.012439599 2.3509886e-38
0.011542622 -0.114632 0.0084252264 2.3509886e-38
0.013441846 -0.11537148 0.0053354409 2.3509886e-38
0.015348146 -0.11631607 0.0013886597 2.3509886e-38
0.017268211 -0.11726747 -0.0025867317 2.3509886e-38
0.019203044 -0.11799283 -0.0056175087 2.3509886e-38
0.02114585 -0.11799283 -0.0056175087 2.3509886e-38
0.023099244 -0.11895646 -0.0096438024 2.3509886e-38
0.025062025 -0.11966167 -0.012590418 2.3509886e-38
0.027042074 -0.12063743 -0.016667495 2.3509886e-38
0.029035673 -0.12159048 -0.020649681 2.3509886e-38
0.031033814 -0.12230973 -0.023654947 2.3509886e-38
0.033099029 -0.12421621 -0.031620868 2.3509886e-38
0.035180096 -0.12590279 -0.038667925 2.3509886e-38
0.037298866 -0.12779804 -0.046586879 2.3509886e-38
0.039381243 -0.12877132 -0.050653584 2.3509886e-38
0.04140301 -0.12877132 -0.050653584 2.3509886e-38
0.043424778 -0.12877132 -0.050653584 2.3509886e-38
0.045533404 -0.12971978 -0.054616578 2.3509886e-38
0.04765657 -0.13067479 -0.05860687 2.3509886e-38
0.049692281 -0.13067479 -0.05860687 2.3509886e-38
0.051837191 -0.1316364 -0.06262482 2.3418047e-38
0.053996995 -0.13260473 -0.066670783 2.3234376e-38
0.055922706 -0.1316364 -0.06262482 2.3234376e-38
0.057835132 -0.13067479 -0.05860687 2.2773763e-38
0.059870847 -0.13067479 -0.05860687 2.2404625e-38
0.061906558 -0.13067479 -0.05860687 1.5858739e-38
-0.056739166 -0.10763429 0.045407884 9.8090893e-45
-0.054885834 -0.10763429 0.045407884 1.9177778e-38
-0.053032488 -0.10763429 0.045407884 2.2496099e-38
-0.051179156 -0.10763429 0.045407884 2.341805e-38
-0.049325809 -0.10763429 0.045407884 2.2956709e-38
-0.047664165 -0.1083564 0.042412512 1.9084128e-38
-0.045805573 -0.1083564 0.042412512 1.899121e-38
-0.044129208 -0.10908265 0.039400093 1.8346193e-38
-0.04250282 -0.11005743 0.035356753 1.862206e-38
-0.041373156 -0.11319371 0.022347679 1.8253993e-38
-0.039697081 -0.11414395 0.018406143 1.7333113e-38
-0.037958622 -0.1148753 0.015372505 1.548992e-38
-0.036204323 -0.11558239 0.012439599 1.5028579e-38
-0.034293175 -0.11558239 0.012439599 1.5765065e-38
-0.032724567 -0.11729507 0.0053354409 1.5303368e-38
-0.030800968 -0.11729507 0.0053354409 1.4012629e-38
-0.028877363 -0.11729507 0.0053354409 1.4380335e-38
-0.027123302 -0.11824657 0.0013886597 1.5671074e-38
-0.022968166 -0.10523017 0.055379979 2.0004274e-38
-0.021132309 -0.10523017 0.055379979 2.2954177e-38
-0.019296452 -0.10523017 0.055379979 2.3509517e-38
-0.017460596 -0.10523017 0.055379979 2.3047463e-38
-0.015624739 -0.10523017 0.055379979 2.3509527e-38
-0.013788886 -0.10523017 0.055379979 2.3325497e-38
-0.012043212 -0.10593875 0.052440874 2.3325856e-38
-0.010319501 -0.10691623 0.048386328 2.341805e-38
-0.0085523278 -0.10763429 0.045407884 2.3509886e-38
-0.0067751408 -0.1083564 0.042412512 2.3509886e-38
-0.0049878508 -0.10908265 0.039400093 2.3509886e-38
-0.0032125935 -0.11005743 0.035356753 2.3509886e-38
-0.0014008954 -0.11076607 0.032417409 2.3509886e-38
0.00041871145 -0.11150609 0.029347887 2.3509886e-38
0.0022334941 -0.11247168 0.025342574 2.3509886e-38
0.0040773824 -0.11319371 0.022347679 2.3509886e-38
0.0059193224 -0.11414395 0.018406143 2.3509886e-38
0.007785432 -0.1148753 0.015372505 2.3509886e-38
0.0096914358 -0.1148753 0.015372505 2.3509886e-38
0.011574296 -0.11558239 0.012439599 2.3509886e-38
0.013460808 -0.11655019 0.0084252264 2.3509886e-38
0.015378989 -0.11655019 0.0084252264 2.3509886e-38
0.017278668 -0.11824657 0.0013886597 2.3509886e-38
0.019205702 -0.11920498 -0.0025867317 2.3509886e-38
0.02114585 -0.11993565 -0.0056175087 2.3509886e-38
0.023099244 -0.12090631 -0.0096438024 2.3509886e-38
0.025049109 -0.12090631 -0.0096438024 2.3509886e-38
0.027017055 -0.12161671 -0.012590418 2.3509886e-38
0.029004253 -0.12259962 -0.016667495 2.3509886e-38
0.030966431 -0.12259962 -0.016667495 2.3509886e-38
0.032973994 -0.12355967 -0.020649681 2.3509886e-38
0.035232835 -0.12887047 -0.042678602 2.3509886e-38
0.037298866 -0.12981267 -0.046586879 2.3509886e-38
0.039313506 -0.12981267 -0.046586879 2.3509886e-38
0.04140301 -0.13079311 -0.050653584 2.3509886e-38
0.043424778 -0.13079311 -0.050653584 2.3509886e-38
0.045533404 -0.13174851 -0.054616578 2.3509886e-38
0.04765657 -0.1327105 -0.05860687 2.3509886e-38
0.049692281 -0.1327105 -0.05860687 2.3509886e-38
0.051837191 -0.13367917 -0.06262482 2.3509883e-38
0.053879946 -0.13367917 -0.06262482 2.3326206e-38
0.055922706 -0.13367917 -0.06262482 2.2774111e-38
0.057835132 -0.1327105 -0.05860687 2.3234379e-38
0.059870847 -0.1327105 -0.05860687 2.3234379e-38
0.061906558 -0.1327105 -0.05860687 2.0929495e-38
-0.056957126 -0.11021499 0.042412512 3.6914966e-40
-0.054674327 -0.10876434 0.048386328 2.2035121e-38
-0.052826211 -0.10876434 0.048386328 2.3509886e-38
-0.051179156 -0.10948761 0.045407884 2.3509886e-38
-0.049325809 -0.10948761 0.045407884 2.2771958e-38
-0.047472477 -0.10948761 0.045407884 1.8991933e-38
-0.04561913 -0.10948761 0.045407884 1.8899014e-38
-0.044129208 -0.11094652 0.039400093 1.8438033e-38
-0.04250282 -0.11192839 0.035356753 1.8898648e-38
-0.041373156 -0.11508749 0.022347679 1.8346192e-38
-0.039864622 -0.11678131 0.015372505 1.7426031e-38
-0.037958622 -0.11678131 0.015372505 1.5305528e-38
-0.036204323 -0.11749353 0.012439599 1.5028579e-38
-0.034493774 -0.11846836 0.0084252264 1.5580673e-38
-0.032724567 -0.11921866 0.0053354409 1.4842747e-38
-0.030800968 -0.11921866 0.0053354409 1.4381769e-38
-0.028877363 -0.11921866 0.0053354409 1.4565082e-38
-0.027123302 -0.12017711 0.0013886597 1.4011192e-38
-0.025192782 -0.12017711 0.0013886597 1.7422075e-38
-0.023419097 -0.12114246 -0.0025867317 2.3508788e-38
-0.019407246 -0.10777976 0.052440874 2.3509513e-38
-0.017460596 -0.10706602 0.055379979 2.3324407e-38
-0.015624739 -0.10706602 0.055379979 2.3509883e-38
-0.013788886 -0.10706602 0.055379979 2.3417691e-38
-0.012043212 -0.10777976 0.052440874 2.341805e-38
-0.010319501 -0.10876434 0.048386328 2.341805e-38
-0.0085523278 -0.10948761 0.045407884 2.3509886e-38
-0.0067751408 -0.11021499 0.042412512 2.3509886e-38
-0.0049878508 -0.11094652 0.039400093 2.3509886e-38
-0.0032125935 -0.11192839 0.035356753 2.3509886e-38
-0.0013416298 -0.11192839 0.035356753 2.3509886e-38
0.00041871145 -0.11338757 0.029347887 2.3509886e-38
0.0022334941 -0.1143602 0.025342574 2.3509886e-38
0.0040773824 -0.11508749 0.022347679 2.3509886e-38
0.0059193224 -0.11604463 0.018406143 2.3509886e-38
0.007785432 -0.11678131 0.015372505 2.3509886e-38
0.0096914358 -0.11678131 0.015372505 2.3509886e-38
0.011574296 -0.11749353 0.012439599 2.3509886e-38
0.013460808 -0.11846836 0.0084252264 2.3509886e-38
0.015378989 -0.11846836 0.0084252264 2.3509886e-38
0.017289046 -0.11921866 0.0053354409 2.3509886e-38
0.019205702 -0.12114246 -0.0025867317 2.3509886e-38
0.021143192 -0.12114246 -0.0025867317 2.3509886e-38
0.023088655 -0.12187846 -0.0056175087 2.3509886e-38
0.025049109 -0.12285618 -0.0096438024 2.3509886e-38
0.027017055 -0.12357174 -0.012590418 2.3509886e-38
0.029004253 -0.1245618 -0.016667495 2.3509886e-38
0.030966431 -0.1245618 -0.016667495 2.3509886e-38
0.032928612 -0.1245618 -0.016667495 2.3509886e-38
0.035232835 -0.13087825 -0.042678602 2.3509886e-38
0.037240621 -0.13087825 -0.042678602 2.3509886e-38
0.039313506 -0.13182731 -0.046586879 2.3509886e-38
0.041328143 -0.13182731 -0.046586879 2.3509886e-38
0.043424778 -0.13281487 -0.050653584 2.3509886e-38
0.045446545 -0.13281487 -0.050653584 2.3509886e-38
0.047562119 -0.13377722 -0.054616578 2.3509886e-38
0.049692281 -0.13474621 -0.05860687 2.3509886e-38
0.051837191 -0.13572191 -0.06262482 2.3509883e-38
0.053879946 -0.13572191 -0.06262482 2.3418043e-38
0.055922706 -0.13572191 -0.06262482 2.2496801e-38
0.057965461 -0.13572191 -0.06262482 2.3418047e-38
0.059734419 -0.13377722 -0.054616578 2.341805e-38
0.06162069 -0.13281487 -0.050653584 2.3234379e-38
0.063642457 -0.13281487 -0.050653584 8.8522252e-39
-0.06067431 -0.11207359 0.042412512 2.8025969e-45
-0.056957126 -0.11207359 0.042412512 1.9364712e-39
-0.054674327 -0.11061247 0.048386328 2.2957075e-38
-0.052826211 -0.11061247 0.048386328 2.3509886e-38
-0.051179156 -0.11134095 0.045407884 2.3325492e-38
-0.049325809 -0.11134095 0.045407884 2.2403172e-38
-0.047472477 -0.11134095 0.045407884 1.9360715e-38
-0.04561913 -0.11134095 0.045407884 1.9452188e-38
-0.044129208 -0.11281042 0.039400093 1.8806815e-38
-0.04250282 -0.11379938 0.035356753 1.8990847e-38
-0.041373156 -0.11698125 0.022347679 1.7793018e-38
-0.039864622 -0.11868732 0.015372505 1.6965052e-38
-0.037958622 -0.11868732 0.015372505 1.4845269e-38
-0.036411956 -0.12038656 0.0084252264 1.4936743e-38
-0.034648165 -0.12114228 0.0053354409 1.5397361e-38
-0.032914869 -0.12210761 0.0013886597 1.456652e-38
-0.03098435 -0.12210761 0.0013886597 1.4750551e-38
-0.029053822 -0.12210761 0.0013886597 1.5117537e-38
-0.027123302 -0.12210761 0.0013886597 1.3273625e-38
-0.025356591 -0.12307997 -0.0025867317 1.5670714e-38
-0.021248255 -0.10962076 0.052440874 2.3509869e-38
-0.019407246 -0.10962076 0.052440874 2.3509514e-38
-0.017460596 -0.10890187 0.055379979 2.3509518e-38
-0.015624739 -0.10890187 0.055379979 2.3417327e-38
-0.013788886 -0.10890187 0.055379979 2.3509886e-38
-0.012043212 -0.10962076 0.052440874 2.341805e-38
-0.010319501 -0.11061247 0.048386328 2.3233662e-38
-0.0085523278 -0.11134095 0.045407884 2.3509886e-38
-0.0067751408 -0.11207359 0.042412512 2.3509886e-38
-0.0049878508 -0.11281042 0.039400093 2.3509886e-38
-0.0031239763 -0.11281042 0.039400093 2.3509886e-38
-0.0013416298 -0.11379938 0.035356753 2.3509886e-38
0.00047522038 -0.1145183 0.032417409 2.3509886e-38
0.0022334941 -0.11624874 0.025342574 2.3509886e-38
0.0040773824 -0.11698125 0.022347679 2.3509886e-38
0.0059193224 -0.11794533 0.018406143 2.3509886e-38
0.007785432 -0.11868732 0.015372505 2.3509886e-38
0.0096914358 -0.11868732 0.015372505 2.3509886e-38
0.011574296 -0.11940466 0.012439599 2.3509886e-38
0.013460808 -0.12038656 0.0084252264 2.3509886e-38
0.015378989 -0.12038656 0.0084252264 2.3509886e-38
0.017289046 -0.12114228 0.0053354409 2.3509886e-38
0.019205702 -0.12307997 -0.0025867317 2.3509886e-38
0.021143192 -0.12307997 -0.0025867317 2.3509886e-38
0.023088655 -0.12382124 -0.0056175087 2.3509886e-38
0.025031459 -0.12382124 -0.0056175087 2.3509886e-38
0.026998973 -0.12480606 -0.0096438024 2.3509886e-38
0.028972086 -0.12552677 -0.012590418 2.3509886e-38
0.030966431 -0.12652399 -0.016667495 2.3509886e-38
0.032928612 -0.12652399 -0.016667495 2.3509886e-38
0.034982674 -0.12823303 -0.023654947 2.3509886e-38
0.037240621 -0.13288604 -0.042678602 2.3509886e-38
0.039248407 -0.13288604 -0.042678602 2.3509886e-38
0.041328143 -0.13384195 -0.046586879 2.3509886e-38
0.04334278 -0.13384195 -0.046586879 2.3509886e-38
0.045446545 -0.13483663 -0.050653584 2.3509886e-38
0.047562119 -0.13580595 -0.054616578 2.3509886e-38
0.049692281 -0.13678192 -0.05860687 2.3509886e-38
0.051837191 -0.13776468 -0.06262482 2.3509883e-38
0.053879946 -0.13776468 -0.06262482 2.3509879e-38
0.055922706 -0.13776468 -0.06262482 2.3326203e-38
0.057965461 -0.13776468 -0.06262482 2.3418047e-38
0.059734419 -0.13580595 -0.054616578 2.2035474e-38
0.06162069 -0.13483663 -0.050653584 2.341805e-38
0.063642457 -0.13483663 -0.050653584 1.0696138e-38
0.065664232 -0.13483663 -0.050653584 8.2990514e-39
-0.058815718 -0.11393218 0.042412512 7.1886611e-43
-0.056957126 -0.11393218 0.042412512 5.1636741e-39
-0.054885834 -0.1131943 0.045407884 2.3141103e-38
-0.053032488 -0.1131943 0.045407884 2.3509523e-38
-0.051179156 -0.1131943 0.045407884 2.2587566e-38
-0.049325809 -0.1131943 0.045407884 2.1941115e-38
-0.047472477 -0.1131943 0.045407884 1.9544386e-38
-0.04561913 -0.1131943 0.045407884 1.9452188e-38
-0.044129208 -0.11467429 0.039400093 1.8899011e-38
-0.042675465 -0.11639442 0.032417409 1.9175238e-38
-0.041597754 -0.119846 0.018406143 1.7608628e-38
-0.039864622 -0.12059332 0.015372505 1.6412239e-38
-0.038115464 -0.12131582 0.012439599 1.4845269e-38
-0.036411956 -0.12230472 0.0084252264 1.5305526e-38
-0.034845389 -0.12403814 0.0013886597 1.5489557e-38
-0.032914869 -0.12403814 0.0013886597 1.4474324e-38
-0.03098435 -0.12403814 0.0013886597 1.4842747e-38
-0.029053822 -0.12403814 0.0013886597 1.5301927e-38
-0.027123302 -0.12403814 0.0013886597 1.3273625e-38
-0.025356591 -0.12501745 -0.0025867317 1.4195584e-38
-0.021132309 -0.11073773 0.055379979 2.3509866e-38
-0.019296452 -0.11073773 0.055379979 2.3509514e-38
-0.017460596 -0.11073773 0.055379979 2.3509158e-38
-0.015624739 -0.11073773 0.055379979 2.3232936e-38
-0.013788886 -0.11073773 0.055379979 2.3509886e-38
-0.01195303 -0.11073773 0.055379979 2.341805e-38
-0.010202199 -0.11146177 0.052440874 2.341805e-38
-0.0085523278 -0.1131943 0.045407884 2.3509886e-38
-0.0067751408 -0.11393218 0.042412512 2.3509886e-38
-0.0049165487 -0.11393218 0.042412512 2.3509886e-38
-0.0031239763 -0.11467429 0.039400093 2.3509886e-38
-0.0013416298 -0.11567034 0.035356753 2.3509886e-38
0.00052933395 -0.11567034 0.035356753 2.3509886e-38
0.0023002103 -0.11715056 0.029347887 2.3509886e-38
0.0040773824 -0.11887501 0.022347679 2.3509886e-38
0.0059193224 -0.119846 0.018406143 2.3509886e-38
0.007785432 -0.12059332 0.015372505 2.3509886e-38
0.0096631534 -0.12131582 0.012439599 2.3509886e-38
0.011574296 -0.12131582 0.012439599 2.3509886e-38
0.013460808 -0.12230472 0.0084252264 2.3509886e-38
0.015378989 -0.12230472 0.0084252264 2.3509886e-38
0.017289046 -0.12306587 0.0053354409 2.3509886e-38
0.019209187 -0.12403814 0.0013886597 2.3509886e-38
0.021143192 -0.12501745 -0.0025867317 2.3509886e-38
0.023088655 -0.12576406 -0.0056175087 2.3509886e-38
0.025031459 -0.12576406 -0.0056175087 2.3509886e-38
0.026998973 -0.12675591 -0.0096438024 2.3509886e-38
0.028972086 -0.1274818 -0.012590418 2.3509886e-38
0.030927116 -0.1274818 -0.012590418 2.3509886e-38
0.032928612 -0.12848614 -0.016667495 2.3509886e-38
0.034982674 -0.13020746 -0.023654947 2.3509886e-38
0.037180848 -0.13390581 -0.038667925 2.3509886e-38
0.039248407 -0.13489382 -0.042678602 2.3509886e-38
0.041256189 -0.13489382 -0.042678602 2.3509886e-38
0.04334278 -0.13585658 -0.046586879 2.3509886e-38
0.045533404 -0.13783465 -0.054616578 2.3509886e-38
0.04765657 -0.13881765 -0.05860687 2.3509886e-38
0.049692281 -0.13881765 -0.05860687 2.3509886e-38
0.051837191 -0.13980745 -0.06262482 2.3509883e-38
0.053996995 -0.14080413 -0.066670783 2.2957064e-38
0.056046847 -0.14080413 -0.066670783 2.3509879e-38
0.057965461 -0.13980745 -0.06262482 2.3509886e-38
0.06000822 -0.13980745 -0.06262482 2.3233662e-38
0.061763134 -0.13783465 -0.054616578 2.341805e-38
0.063791856 -0.13783465 -0.054616578 1.3276182e-38
0.065820567 -0.13783465 -0.054616578 7.9291913e-39
-0.058815718 -0.11579077 0.042412512 9.2375136e-40
-0.056957126 -0.11579077 0.042412512 9.1273646e-39
-0.054885834 -0.11504765 0.045407884 2.3509883e-38
-0.053032488 -0.11504765 0.045407884 2.3509883e-38
-0.051179156 -0.11504765 0.045407884 2.1942194e-38
-0.049325809 -0.11504765 0.045407884 2.1296103e-38
-0.047664165 -0.11579077 0.042412512 1.9175604e-38
-0.04624474 -0.1175413 0.035356753 1.8899014e-38
-0.04437378 -0.1175413 0.035356753 1.8530231e-38
-0.042675465 -0.11827053 0.032417409 1.9359629e-38
-0.041770622 -0.1224993 0.015372505 1.7977411e-38
-0.039864622 -0.1224993 0.015372505 1.6412239e-38
-0.038115464 -0.12322696 0.012439599 1.5122935e-38
-0.036571771 -0.12498946 0.0053354409 1.5306244e-38
-0.034845389 -0.12596865 0.0013886597 1.5305165e-38
-0.032914869 -0.12596865 0.0013886597 1.456652e-38
-0.03098435 -0.12596865 0.0013886597 1.4658355e-38
-0.029053822 -0.12596865 0.0013886597 1.4840949e-38
-0.027123302 -0.12596865 0.0013886597 1.3458014e-38
-0.025356591 -0.12695493 -0.0025867317 1.4287776e-38
-0.021132309 -0.11257361 0.055379979 2.2953813e-38
-0.019296452 -0.11257361 0.055379979 2.3509514e-38
-0.017351668 -0.11182173 0.058410518 2.350952e-38
-0.015521128 -0.11182173 0.058410518 2.3509164e-38
-0.013690583 -0.11182173 0.058410518 2.3417691e-38
-0.01195303 -0.11257361 0.055379979 2.3509527e-38
-0.010117173 -0.11257361 0.055379979 2.3325856e-38
-0.0084713846 -0.1143087 0.048386328 2.3509886e-38
-0.0066989884 -0.11504765 0.045407884 2.3509886e-38
-0.0049165487 -0.11579077 0.042412512 2.3509886e-38
-0.0031239763 -0.11653815 0.039400093 2.3509886e-38
-0.0013416298 -0.1175413 0.035356753 2.3509886e-38
0.00052933395 -0.1175413 0.035356753 2.3509886e-38
0.0023002103 -0.11903207 0.029347887 2.3509886e-38
0.0041220151 -0.12002577 0.025342574 2.3509886e-38
0.0059193224 -0.12174667 0.018406143 2.3509886e-38
0.007785432 -0.1224993 0.015372505 2.3509886e-38
0.0096631534 -0.12322696 0.012439599 2.3509886e-38
0.011574296 -0.12322696 0.012439599 2.3509886e-38
0.013460808 -0.12422292 0.0084252264 2.3509886e-38
0.015378989 -0.12422292 0.0084252264 2.3509886e-38
0.017297173 -0.12422292 0.0084252264 2.3509886e-38
0.019212646 -0.12498946 0.0053354409 2.3509886e-38
0.021139707 -0.12596865 0.0013886597 2.3509886e-38
0.023088655 -0.12770687 -0.0056175087 2.3509886e-38
0.025031459 -0.12770687 -0.0056175087 2.3509886e-38
0.026998973 -0.12870578 -0.0096438024 2.3509886e-38
0.028972086 -0.12943684 -0.012590418 2.3509886e-38
0.030927116 -0.12943684 -0.012590418 2.3509886e-38
0.032928612 -0.13044833 -0.016667495 2.3509886e-38
0.034982674 -0.1321819 -0.023654947 2.3509886e-38
0.037180848 -0.13590656 -0.038667925 2.3509886e-38
0.039248407 -0.1369016 -0.042678602 2.3509886e-38
0.041256189 -0.1369016 -0.042678602 2.3509886e-38
0.04334278 -0.13787122 -0.046586879 2.3509886e-38
0.045446545 -0.13888018 -0.050653584 2.3509886e-38
0.04765657 -0.14085336 -0.05860687 2.3509886e-38
0.049794432 -0.14185019 -0.06262482 2.3509886e-38
0.051837191 -0.14185019 -0.06262482 2.3509883e-38
0.053996995 -0.14285399 -0.066670783 2.350988e-38
0.056046847 -0.14285399 -0.066670783 2.314074e-38
0.058096699 -0.14285399 -0.066670783 2.3416974e-38
0.06000822 -0.14185019 -0.06262482 2.3509527e-38
0.061763134 -0.13986339 -0.054616578 2.3048197e-38
0.063791856 -0.13986339 -0.054616578 1.5304489e-38
0.066451445 -0.14383091 -0.070608504 8.1132266e-39
-0.058815718 -0.11764936 0.042412512 3.8740087e-39
-0.056957126 -0.11764936 0.042412512 1.1893589e-38
-0.054885834 -0.11690097 0.045407884 2.350988e-38
-0.053032488 -0.11690097 0.045407884 2.350988e-38
-0.051179156 -0.11690097 0.045407884 2.1573412e-38
-0.049522758 -0.11764936 0.042412512 2.1019516e-38
-0.047664165 -0.11764936 0.042412512 1.9083408e-38
-0.04624474 -0.11941226 0.035356753 1.8622427e-38
-0.04437378 -0.11941226 0.035356753 1.8253645e-38
-0.042675465 -0.12014665 0.032417409 1.9359629e-38
-0.041937754 -0.12513812 0.012439599 1.8069606e-38
-0.040026605 -0.12513812 0.012439599 1.6504434e-38
-0.038495369 -0.12691309 0.0053354409 1.5399522e-38
-0.036571771 -0.12691309 0.0053354409 1.4845266e-38
-0.035044044 -0.12889244 -0.0025867317 1.4844187e-38
-0.033106551 -0.12889244 -0.0025867317 1.4935302e-38
-0.031169057 -0.12889244 -0.0025867317 1.4658353e-38
-0.029367074 -0.12964968 -0.0056175087 1.4288131e-38
-0.027424268 -0.12964968 -0.0056175087 1.3734601e-38
-0.025481462 -0.12964968 -0.0056175087 1.4287058e-38
-0.021132309 -0.11440946 0.055379979 2.0833313e-38
-0.019182213 -0.11365227 0.058410518 2.3509511e-38
-0.017351668 -0.11365227 0.058410518 2.3509517e-38
-0.015521128 -0.11365227 0.058410518 2.3509524e-38
-0.013690583 -0.11365227 0.058410518 2.3417691e-38
-0.01195303 -0.11440946 0.055379979 2.3417333e-38
-0.010117173 -0.11440946 0.055379979 2.3141467e-38
-0.0084713846 -0.1161568 0.048386328 2.3509886e-38
-0.0066232644 -0.1161568 0.048386328 2.3509886e-38
-0.0048456453 -0.11690097 0.045407884 2.3509886e-38
-0.0030579567 -0.11764936 0.042412512 2.3509886e-38
-0.0012601018 -0.11840202 0.039400093 2.3509886e-38
0.0006037727 -0.11840202 0.039400093 2.3509886e-38
0.0023513362 -0.12014665 0.032417409 2.3509886e-38
0.0041220151 -0.12191428 0.025342574 2.3509886e-38
0.0059711561 -0.12266256 0.022347679 2.3509886e-38
0.007785432 -0.12440531 0.015372505 2.3509886e-38
0.0096631534 -0.12513812 0.012439599 2.3509886e-38
0.011574296 -0.12513812 0.012439599 2.3509886e-38
0.013485441 -0.12513812 0.012439599 2.3509886e-38
0.015396586 -0.12513812 0.012439599 2.3509886e-38
0.017297173 -0.12614109 0.0084252264 2.3509886e-38
0.019212646 -0.12691309 0.0053354409 2.3509886e-38
0.021139707 -0.12789918 0.0013886597 2.3509886e-38
0.023080684 -0.12889244 -0.0025867317 2.3509886e-38
0.025031459 -0.12964968 -0.0056175087 2.3509886e-38
0.026998973 -0.13065563 -0.0096438024 2.3509886e-38
0.028972086 -0.13139187 -0.012590418 2.3509886e-38
0.030927116 -0.13139187 -0.012590418 2.3509886e-38
0.032973994 -0.13340546 -0.020649681 2.3509886e-38
0.034982674 -0.13415633 -0.023654947 2.3509886e-38
0.03713486 -0.13713633 -0.035582073 2.3509886e-38
0.039181605 -0.13790731 -0.038667925 2.3509886e-38
0.041182354 -0.13790731 -0.038667925 2.3509886e-38
0.043263979 -0.13890938 -0.042678602 2.3509886e-38
0.045446545 -0.14090194 -0.050653584 2.3509886e-38
0.047562119 -0.14189209 -0.054616578 2.3509886e-38
0.049692281 -0.14288907 -0.05860687 2.3509886e-38
0.051837191 -0.14389296 -0.06262482 2.3509527e-38
0.053996995 -0.14490382 -0.066670783 2.3509524e-38
0.056046847 -0.14490382 -0.066670783 2.2770881e-38
0.058096699 -0.14490382 -0.066670783 2.3508092e-38
0.060146552 -0.14490382 -0.066670783 2.3324421e-38
0.062196404 -0.14490382 -0.066670783 2.2863809e-38
0.064394698 -0.14588766 -0.070608504 1.8991599e-38
0.066451445 -0.14588766 -0.070608504 1.1155688e-38
0.068508208 -0.14588766 -0.070608504 7.283466e-39
-0.058815718 -0.11950795 0.042412512 9.5890588e-39
-0.056957126 -0.11950795 0.042412512 1.4567263e-38
-0.054885834 -0.11875431 0.045407884 2.350988e-38
-0.053032488 -0.11875431 0.045407884 2.350988e-38
-0.051179156 -0.11875431 0.045407884 2.1389019e-38
-0.049522758 -0.11950795 0.042412512 2.0928041e-38
-0.047856957 -0.12026589 0.039400093 1.9268875e-38
-0.04624474 -0.12128322 0.035356753 1.8623506e-38
-0.04437378 -0.12128322 0.035356753 1.8070329e-38
-0.042855754 -0.12279506 0.029347887 1.9083402e-38
-0.041937754 -0.12704925 0.012439599 1.7517153e-38
-0.040026605 -0.12704925 0.012439599 1.6412595e-38
-0.038495369 -0.12883668 0.0053354409 1.5490636e-38
-0.036775909 -0.12982969 0.0013886597 1.4383569e-38
-0.035044044 -0.13082992 -0.0025867317 1.4383209e-38
-0.033106551 -0.13082992 -0.0025867317 1.5211891e-38
-0.031309873 -0.13159247 -0.0056175087 1.4842389e-38
-0.029367074 -0.13159247 -0.0056175087 1.4011908e-38
-0.027424268 -0.13159247 -0.0056175087 1.401119e-38
-0.025481462 -0.13159247 -0.0056175087 1.2720454e-38
-0.020893887 -0.11472471 0.061423652 1.7975249e-38
-0.019068625 -0.11472471 0.061423652 2.3508071e-38
-0.017243367 -0.11472471 0.061423652 2.3323685e-38
-0.015521128 -0.11548282 0.058410518 2.3509521e-38
-0.013690583 -0.11548282 0.058410518 2.3509527e-38
-0.01195303 -0.11624531 0.055379979 2.3509886e-38
-0.010117173 -0.11624531 0.055379979 2.3509527e-38
-0.0084713846 -0.11800493 0.048386328 2.3509886e-38
-0.0066232644 -0.11800493 0.048386328 2.3509886e-38
-0.0048456453 -0.11875431 0.045407884 2.3509886e-38
-0.0030579567 -0.11950795 0.042412512 2.3509886e-38
-0.0012601018 -0.12026589 0.039400093 2.3509886e-38
0.0006037727 -0.12026589 0.039400093 2.3509886e-38
0.0023513362 -0.12202276 0.032417409 2.3509886e-38
0.0041817054 -0.12279506 0.029347887 2.3509886e-38
0.0059711561 -0.12455635 0.022347679 2.3509886e-38
0.007785432 -0.12631132 0.015372505 2.3509886e-38
0.0096631534 -0.12704925 0.012439599 2.3509886e-38
0.011574296 -0.12704925 0.012439599 2.3509886e-38
0.013485441 -0.12704925 0.012439599 2.3509886e-38
0.015396586 -0.12704925 0.012439599 2.3509886e-38
0.017297173 -0.12805928 0.0084252264 2.3509886e-38
0.019212646 -0.12883668 0.0053354409 2.3509886e-38
0.021139707 -0.12982969 0.0013886597 2.3509886e-38
0.023080684 -0.13082992 -0.0025867317 2.3509886e-38
0.025031459 -0.13159247 -0.0056175087 2.3509886e-38
0.026998973 -0.13260551 -0.0096438024 2.3509886e-38
0.028972086 -0.13334687 -0.012590418 2.3509886e-38
0.030966431 -0.1343727 -0.016667495 2.3509886e-38
0.032973994 -0.13537462 -0.020649681 2.3509886e-38
0.034982674 -0.13613077 -0.023654947 2.3509886e-38
0.037075825 -0.138135 -0.031620868 2.3509886e-38
0.039130203 -0.13913165 -0.035582073 2.3509886e-38
0.041182354 -0.13990806 -0.038667925 2.3509886e-38
0.043263979 -0.14091717 -0.042678602 2.3509886e-38
0.045357421 -0.14190049 -0.046586879 2.3509886e-38
0.047468316 -0.1429237 -0.050653584 2.3509883e-38
0.049692281 -0.14492477 -0.05860687 2.3509886e-38
0.051837191 -0.1459357 -0.06262482 2.3509527e-38
0.053996995 -0.14695369 -0.066670783 2.3509527e-38
0.05616767 -0.14794444 -0.070608504 2.2862721e-38
0.058224425 -0.14794444 -0.070608504 2.3509168e-38
0.060281184 -0.14794444 -0.070608504 2.3324421e-38
0.062337939 -0.14794444 -0.070608504 2.3509168e-38
0.064394698 -0.14794444 -0.070608504 2.3232585e-38
0.066607848 -0.14894189 -0.074572928 1.5027183e-38
0.068671554 -0.14894189 -0.074572928 6.4533424e-39
-0.058815718 -0.12136655 0.042412512 1.6503371e-38
-0.056957126 -0.12136655 0.042412512 2.0559979e-38
-0.055098534 -0.12136655 0.042412512 2.3509879e-38
-0.053239942 -0.12136655 0.042412512 2.3509879e-38
-0.05138135 -0.12136655 0.042412512 2.1297539e-38
-0.049522758 -0.12136655 0.042412512 1.9730214e-38
-0.047856957 -0.12212978 0.039400093 1.9269591e-38
-0.04624474 -0.12315418 0.035356753 1.8716778e-38
-0.04437378 -0.12315418 0.035356753 1.9178112e-38
-0.043498442 -0.12744872 0.018406143 1.9085916e-38
-0.042342573 -0.13076027 0.0053354409 1.751787e-38
-0.040418968 -0.13076027 0.0053354409 1.66881e-38
-0.038706429 -0.13176022 0.0013886597 1.5949454e-38
-0.036775909 -0.13176022 0.0013886597 1.5119698e-38
-0.035044044 -0.13276742 -0.0025867317 1.4842755e-38
-0.033106551 -0.13276742 -0.0025867317 1.4749843e-38
-0.031309873 -0.13353528 -0.0056175087 1.4288867e-38
-0.029367074 -0.13353528 -0.0056175087 1.3827887e-38
-0.027723804 -0.1353019 -0.012590418 1.3919362e-38
-0.025768772 -0.1353019 -0.012590418 1.3827167e-38
-0.020893887 -0.11654995 0.061423652 1.2352037e-38
-0.019068625 -0.11654995 0.061423652 2.0004994e-38
-0.017243367 -0.11654995 0.061423652 2.3416234e-38
-0.015521128 -0.11731337 0.058410518 2.3509517e-38
-0.013690583 -0.11731337 0.058410518 2.267868e-38
-0.011860043 -0.11731337 0.058410518 2.3509527e-38
-0.010117173 -0.11808117 0.055379979 2.3324778e-38
-0.0084713846 -0.11985306 0.048386328 2.3509527e-38
-0.0066232644 -0.11985306 0.048386328 2.3509886e-38
-0.0049165487 -0.12136655 0.042412512 2.3509886e-38
-0.0030579567 -0.12136655 0.042412512 2.3509886e-38
-0.0012601018 -0.12212978 0.039400093 2.3509886e-38
0.0006037727 -0.12212978 0.039400093 2.3509886e-38
0.0024002977 -0.12315418 0.035356753 2.3509886e-38
0.0041817054 -0.12467657 0.029347887 2.3509886e-38
0.006063208 -0.12467657 0.029347887 2.3509886e-38
0.007785432 -0.12821732 0.015372505 2.3509886e-38
0.0096914358 -0.12821732 0.015372505 2.3509886e-38
0.011574296 -0.12896039 0.012439599 2.3509886e-38
0.013460808 -0.12997745 0.0084252264 2.3509886e-38
0.015378989 -0.12997745 0.0084252264 2.3509886e-38
0.017297173 -0.12997745 0.0084252264 2.3509886e-38
0.019212646 -0.13076027 0.0053354409 2.3509886e-38
0.021139707 -0.13176022 0.0013886597 2.3509886e-38
0.023080684 -0.13276742 -0.0025867317 2.3509886e-38
0.025031459 -0.13353528 -0.0056175087 2.3509527e-38
0.026998973 -0.13455538 -0.0096438024 2.3509886e-38
0.028972086 -0.1353019 -0.012590418 2.3509886e-38
0.030966431 -0.13633488 -0.016667495 2.3509886e-38
0.032973994 -0.13734378 -0.020649681 2.3509886e-38
0.034982674 -0.1381052 -0.023654947 2.3509886e-38
0.037015311 -0.13909473 -0.027560601 2.3509886e-38
0.039064221 -0.14012341 -0.031620868 2.3509886e-38
0.041125543 -0.14112701 -0.035582073 2.3509883e-38
0.043183111 -0.14190884 -0.038667925 2.3509883e-38
0.045271762 -0.14292495 -0.042678602 2.3509883e-38
0.047372058 -0.14391513 -0.046586879 2.350988e-38
0.049590833 -0.14594953 -0.054616578 2.3509883e-38
0.051727995 -0.14696048 -0.05860687 2.3509883e-38
0.053996995 -0.14900355 -0.066670783 2.3509527e-38
-0.058815718 -0.12322514 0.042412512 1.9360717e-38
-0.056957126 -0.12322514 0.042412512 2.1481935e-38
-0.055098534 -0.12322514 0.042412512 2.3325846e-38
-0.053239942 -0.12322514 0.042412512 2.3418039e-38
-0.05138135 -0.12322514 0.042412512 2.0744366e-38
-0.049720824 -0.12399365 0.039400093 1.9269952e-38
-0.048115715 -0.12502514 0.035356753 1.8808973e-38
-0.04624474 -0.12502514 0.035356753 1.8256156e-38
-0.04437378 -0.12502514 0.035356753 1.8717854e-38
-0.043498442 -0.12934943 0.018406143 1.8809329e-38
-0.041770622 -0.13012333 0.015372505 1.7241639e-38
-0.04024832 -0.13189565 0.0084252264 1.6687019e-38
-0.038495369 -0.13268389 0.0053354409 1.5949094e-38
-0.036775909 -0.13369073 0.0013886597 1.5211175e-38
-0.035195485 -0.13547809 -0.0056175087 1.4934235e-38
-0.033252686 -0.13547809 -0.0056175087 1.4657652e-38
-0.031309873 -0.13547809 -0.0056175087 1.4104122e-38
-0.029367074 -0.13547809 -0.0056175087 1.3735696e-38
-0.028070003 -0.13931294 -0.020649681 1.3643497e-38
-0.026100844 -0.13931294 -0.020649681 1.3090323e-38
-0.020893887 -0.11837523 0.061423652 1.207617e-38
-0.019068625 -0.11837523 0.061423652 1.502643e-38
-0.017243367 -0.11837523 0.061423652 2.350987e-38
-0.015418109 -0.11837523 0.061423652 2.3047454e-38
-0.013690583 -0.11914389 0.058410518 2.350952e-38
-0.011860043 -0.11914389 0.058410518 2.3508085e-38
-0.010117173 -0.11991702 0.055379979 2.3416251e-38
-0.0083611906 -0.12066682 0.052440874 2.3509527e-38
-0.0066232644 -0.12170117 0.048386328 2.3509886e-38
-0.0048456453 -0.12246101 0.045407884 2.3509886e-38
-0.0030579567 -0.12322514 0.042412512 2.3509886e-38
-0.0012601018 -0.12399365 0.039400093 2.3509886e-38
0.0006037727 -0.12399365 0.039400093 2.3509886e-38
0.0024002977 -0.12502514 0.035356753 2.3509886e-38
0.004227452 -0.12577499 0.032417409 2.3509886e-38
0.006063208 -0.12655805 0.029347887 2.3509886e-38
0.007864926 -0.1283439 0.022347679 2.3509886e-38
0.0096914358 -0.13012333 0.015372505 2.3509886e-38
0.011574296 -0.13087155 0.012439599 2.3509886e-38
0.013460808 -0.13189565 0.0084252264 2.3509886e-38
0.015378989 -0.13189565 0.0084252264 2.3509886e-38
0.017289046 -0.13268389 0.0053354409 2.3509886e-38
0.019212646 -0.13268389 0.0053354409 2.3509886e-38
0.021139707 -0.13369073 0.0013886597 2.3509527e-38
0.023080684 -0.1347049 -0.0025867317 2.3509527e-38
0.025031459 -0.13547809 -0.0056175087 2.3509527e-38
0.026998973 -0.13650523 -0.0096438024 2.3509527e-38
0.028948836 -0.13650523 -0.0096438024 2.3509886e-38
0.030966431 -0.13829704 -0.016667495 2.3509886e-38
0.032973994 -0.13931294 -0.020649681 2.3509886e-38
0.034982674 -0.14007963 -0.023654947 2.3509886e-38
0.037015311 -0.14107598 -0.027560601 2.3509886e-38
0.039064221 -0.14211179 -0.031620868 2.3509886e-38
0.041125543 -0.14312236 -0.035582073 2.3509883e-38
0.043120887 -0.14312236 -0.035582073 2.3509883e-38
0.04518386 -0.14390959 -0.038667925 2.350988e-38
0.047184616 -0.14390959 -0.038667925 2.350988e-38
0.049490083 -0.14696725 -0.050653584 2.350988e-38
0.051619552 -0.14797823 -0.054616578 2.350988e-38
-0.059040189 -0.12585752 0.039400093 2.1666326e-38
-0.057176322 -0.12585752 0.039400093 2.2496087e-38
-0.05531244 -0.12585752 0.039400093 2.3509879e-38
-0.053448573 -0.12585752 0.039400093 2.3141452e-38
-0.051584691 -0.12585752 0.039400093 2.0559974e-38
-0.049720824 -0.12585752 0.039400093 1.9269591e-38
-0.048115715 -0.1268961 0.035356753 1.8808611e-38
-0.046427697 -0.12765111 0.032417409 1.8255437e-38
-0.044737265 -0.12843956 0.029347887 1.8717134e-38
-0.043498442 -0.1312501 0.018406143 1.8808609e-38
-0.041770622 -0.13202934 0.015372505 1.7241639e-38
-0.04024832 -0.13381381 0.0084252264 1.6594824e-38
-0.038330138 -0.13381381 0.0084252264 1.5856899e-38
-0.036775909 -0.13562126 0.0013886597 1.5211175e-38
-0.035195485 -0.13742088 -0.0056175087 1.4842039e-38
-0.033252686 -0.13742088 -0.0056175087 1.4565456e-38
-0.031309873 -0.13742088 -0.0056175087 1.4011927e-38
-0.029678836 -0.13921197 -0.012590418 1.3551304e-38
-0.028070003 -0.1412821 -0.020649681 1.3551302e-38
-0.026224665 -0.14205404 -0.023654947 1.3182519e-38
-0.024404317 -0.14305727 -0.027560601 1.1615192e-38
-0.018955696 -0.11943097 0.064419381 1.3182874e-38
-0.017135691 -0.11943097 0.064419381 2.3508428e-38
-0.015418109 -0.12020047 0.061423652 2.3509873e-38
-0.013690583 -0.12097444 0.058410518 2.350952e-38
-0.011860043 -0.12097444 0.058410518 2.3509165e-38
-0.010029502 -0.12097444 0.058410518 2.3509527e-38
-0.0083611906 -0.12250783 0.052440874 2.3509527e-38
-0.0065201819 -0.12250783 0.052440874 2.3509886e-38
-0.0047751442 -0.1235493 0.048386328 2.3509886e-38
-0.0029923059 -0.12431435 0.045407884 2.3509886e-38
-0.0011993609 -0.12508373 0.042412512 2.3509886e-38
0.0006037727 -0.12585752 0.039400093 2.3509886e-38
0.0024002977 -0.1268961 0.035356753 2.3509886e-38
0.004227452 -0.12765111 0.032417409 2.3509886e-38
0.006063208 -0.12843956 0.029347887 2.3509886e-38
0.007864926 -0.13023765 0.022347679 2.3509886e-38
0.0097206905 -0.1312501 0.018406143 2.3509886e-38
0.011597436 -0.13202934 0.015372505 2.3509886e-38
0.013485441 -0.13278268 0.012439599 2.3509886e-38
0.015396586 -0.13278268 0.012439599 2.3509886e-38
0.017297173 -0.13381381 0.0084252264 2.3509886e-38
0.019212646 -0.13460748 0.0053354409 2.3509886e-38
0.021139707 -0.13562126 0.0013886597 2.3509527e-38
0.023080684 -0.13664238 -0.0025867317 2.3509527e-38
0.025031459 -0.13742088 -0.0056175087 2.3509886e-38
0.026974265 -0.13742088 -0.0056175087 2.3509886e-38
0.028948836 -0.13845511 -0.0096438024 2.3509886e-38
0.030927116 -0.13921197 -0.012590418 2.3509886e-38
0.032928612 -0.14025922 -0.016667495 2.3509886e-38
0.034943156 -0.1412821 -0.020649681 2.3509886e-38
0.036957107 -0.14205404 -0.023654947 2.3509886e-38
0.038996592 -0.14305727 -0.027560601 2.3509886e-38
0.041052617 -0.1441002 -0.031620868 2.3509883e-38
0.043120887 -0.14511769 -0.035582073 2.3509883e-38
0.04518386 -0.14591034 -0.038667925 2.3509883e-38
0.047184616 -0.14591034 -0.038667925 2.3509883e-38
0.049386695 -0.14794444 -0.046586879 2.350988e-38
-0.059040189 -0.12772138 0.039400093 2.2127304e-38
-0.057176322 -0.12772138 0.039400093 2.3233652e-38
-0.05531244 -0.12772138 0.039400093 2.3509879e-38
-0.053448573 -0.12772138 0.039400093 2.3325843e-38
-0.051584691 -0.12772138 0.039400093 2.0836917e-38
-0.049986675 -0.12876706 0.035356753 1.9638374e-38
-0.048115715 -0.12876706 0.035356753 1.9177393e-38
-0.046427697 -0.12952723 0.032417409 1.8532024e-38
-0.044737265 -0.13032107 0.029347887 1.8993e-38
-0.043498442 -0.13315077 0.018406143 1.899264e-38
-0.041770622 -0.13393532 0.015372505 1.7333116e-38
-0.04024832 -0.13573201 0.0084252264 1.6502628e-38
-0.038330138 -0.13573201 0.0084252264 1.5949094e-38
-0.036775909 -0.1375518 0.0013886597 1.530337e-38
-0.03539668 -0.14040495 -0.0096438024 1.4934235e-38
-0.033446819 -0.14040495 -0.0096438024 1.4473261e-38
-0.031633861 -0.141167 -0.012590418 1.3919731e-38
-0.030039161 -0.14325126 -0.020649681 1.3459109e-38
-0.028199092 -0.14402847 -0.023654947 1.3459106e-38
-0.026224665 -0.14402847 -0.023654947 1.2905931e-38
-0.024404317 -0.14503856 -0.027560601 1.207617e-38
-0.018955696 -0.121251 0.064419381 1.3551656e-38
-0.017135691 -0.121251 0.064419381 2.3416233e-38
-0.015315685 -0.121251 0.064419381 2.3509873e-38
-0.013690583 -0.12280498 0.058410518 2.3231492e-38
-0.011860043 -0.12280498 0.058410518 2.3509165e-38
-0.010029502 -0.12280498 0.058410518 2.3509527e-38
-0.0083611906 -0.12434883 0.052440874 2.3509527e-38
-0.0065201819 -0.12434883 0.052440874 2.3509886e-38
-0.0047751442 -0.1253974 0.048386328 2.3509886e-38
-0.0029923059 -0.12616767 0.045407884 2.3509886e-38
-0.0011993609 -0.12694232 0.042412512 2.3509886e-38
0.0006037727 -0.12772138 0.039400093 2.3509886e-38
0.0024002977 -0.12876706 0.035356753 2.3509886e-38
0.004227452 -0.12952723 0.032417409 2.3509886e-38
0.0061035715 -0.12952723 0.032417409 2.3509886e-38
0.0078990571 -0.13135691 0.025342574 2.3509886e-38
0.0097586997 -0.13213144 0.022347679 2.3509886e-38
0.011597436 -0.13393532 0.015372505 2.3509886e-38
0.013485441 -0.13469382 0.012439599 2.3509886e-38
0.015396586 -0.13469382 0.012439599 2.3509886e-38
0.017297173 -0.13573201 0.0084252264 2.3509886e-38
0.019212646 -0.13653107 0.0053354409 2.3509886e-38
0.021139707 -0.1375518 0.0013886597 2.3509886e-38
0.023080684 -0.13857989 -0.0025867317 2.3509527e-38
0.025031459 -0.13936369 -0.0056175087 2.3509886e-38
0.026974265 -0.13936369 -0.0056175087 2.3509886e-38
