# .PCD v0.7 - Point Cloud Data file format
VERSION 0.7
FIELDS x y z rgb
SIZE 4 4 4 4
TYPE F F F F
COUNT 1 1 1 1
WIDTH 925
HEIGHT 1
VIEWPOINT 0 0 0 1 0 0 0
POINTS 925
DATA ascii
-0.016783442 -0.066875845 -0.041691605 2.3509886e-38
-0.014486387 -0.064955235 -0.031687919 2.3509886e-38
-0.012548897 -0.064955235 -0.031687919 2.3509886e-38
-0.010368325 -0.063434258 -0.023765747 2.3509883e-38
-0.0082392022 -0.062070325 -0.016661588 2.3509883e-38
-0.0063280575 -0.062070325 -0.016661588 2.3509883e-38
-0.0044169128 -0.062070325 -0.016661588 2.3509883e-38
-0.0022003576 -0.059593096 -0.0037586121 2.3509883e-38
-9.2357397e-05 -0.057670474 0.0062555643 2.3509883e-38
0.0019208752 -0.056315839 0.013311324 2.3509886e-38
0.0037794672 -0.056315839 0.013311324 2.3509886e-38
0.005687952 -0.055740759 0.016306695 2.3509886e-38
0.0076461062 -0.05439049 0.023339685 2.341805e-38
0.0095257647 -0.053826213 0.02627879 2.341805e-38
0.011396158 -0.053244382 0.029309329 2.341805e-38
0.013255756 -0.052665889 0.032322463 2.341805e-38
0.015104653 -0.052090734 0.035318192 2.341805e-38
0.016948791 -0.051335782 0.03925043 2.341805e-38
0.018788204 -0.050183833 0.045250472 2.3234379e-38
0.020598754 -0.049602896 0.048276361 2.341805e-38
0.022396039 -0.049602896 0.048276361 2.3509883e-38
0.02419069 -0.049025342 0.051284607 2.3324404e-38
0.025974836 -0.04845117 0.054275211 1.4288869e-38
0.027748574 -0.047880381 0.057248291 1.9636576e-38
0.02953013 -0.047880381 0.057248291 2.2680114e-38
0.031311683 -0.047880381 0.057248291 2.3325846e-38
0.03309324 -0.047880381 0.057248291 1.3276884e-38
0.034874797 -0.047880381 0.057248291 1.3737862e-38
-0.039009422 -0.078524709 -0.091726005 2.350988e-38
-0.036966659 -0.078524709 -0.091726005 2.3325492e-38
-0.034923904 -0.078524709 -0.091726005 2.3233296e-38
-0.032495014 -0.07697317 -0.083717763 2.3509886e-38
-0.03028217 -0.076205358 -0.07975477 2.3509886e-38
-0.028078578 -0.075417459 -0.075688064 2.3232944e-38
-0.02572377 -0.073883221 -0.06776911 2.3509527e-38
-0.02343265 -0.072517902 -0.060722057 2.3509527e-38
-0.020854346 -0.069620788 -0.045768682 2.3509527e-38
-0.018738471 -0.068830878 -0.041691605 2.3509886e-38
-0.016677532 -0.068259984 -0.03874499 2.3509886e-38
-0.014486387 -0.066892728 -0.031687919 2.3509886e-38
-0.012419946 -0.066122517 -0.027712528 2.3509886e-38
-0.010368325 -0.065357864 -0.023765747 2.3509883e-38
-0.0082392022 -0.063981473 -0.016661588 2.3509883e-38
-0.0063280575 -0.063981473 -0.016661588 2.350988e-38
-0.0044169128 -0.063981473 -0.016661588 2.350988e-38
-0.002105549 -0.060705602 0.00024670083 2.350988e-38
-3.7401915e-06 -0.058758065 0.010298905 2.350988e-38
0.0019208752 -0.058174431 0.013311324 2.3509883e-38
0.0038346127 -0.057594091 0.016306695 2.3509883e-38
0.005687952 -0.057594091 0.016306695 2.3418047e-38
0.0076461062 -0.056231499 0.023339685 2.3418047e-38
0.0095257647 -0.055662066 0.02627879 2.341805e-38
0.011430498 -0.054491147 0.032322463 2.3234379e-38
0.013284646 -0.053910747 0.035318192 2.3234379e-38
0.015104653 -0.053910747 0.035318192 2.3234379e-38
0.016948791 -0.053148896 0.03925043 2.3234379e-38
0.018788204 -0.051986426 0.045250472 2.3142544e-38
0.020598754 -0.051400185 0.048276361 2.3234379e-38
0.022396039 -0.051400185 0.048276361 2.3418047e-38
0.02419069 -0.050817356 0.051284607 2.3509873e-38
0.025974836 -0.050237939 0.054275211 1.4749843e-38
0.027748574 -0.049661934 0.057248291 2.009791e-38
0.02953013 -0.049661934 0.057248291 2.3509873e-38
0.031311683 -0.049661934 0.057248291 2.3509876e-38
0.03309324 -0.049661934 0.057248291 1.4936763e-38
0.034874797 -0.049661934 0.057248291 1.3646024e-38
-0.044003211 -0.08368355 -0.10766536 1.4289216e-38
-0.041493125 -0.082128242 -0.09970969 1.6503007e-38
-0.039009422 -0.080567464 -0.091726005 2.3509883e-38
-0.036966659 -0.080567464 -0.091726005 2.3417687e-38
-0.034723125 -0.079781964 -0.087708056 2.3325494e-38
-0.032495014 -0.079001874 -0.083717763 2.3509886e-38
-0.03028217 -0.078227133 -0.07975477 2.3509886e-38
-0.028078578 -0.077432096 -0.075688064 2.3141106e-38
-0.02572377 -0.07588397 -0.06776911 2.3509886e-38
-0.02343265 -0.074506298 -0.060722057 2.3509527e-38
-0.020854346 -0.071582958 -0.045768682 2.3509886e-38
-0.018738471 -0.07078591 -0.041691605 2.3509886e-38
-0.016677532 -0.070209846 -0.03874499 2.3509886e-38
-0.014486387 -0.068830222 -0.031687919 2.3509886e-38
-0.012419946 -0.068053037 -0.027712528 2.3509886e-38
-0.010368325 -0.067281455 -0.023765747 2.3509883e-38
-0.0083553381 -0.066677421 -0.020675961 2.3509883e-38
-0.0064371526 -0.066677421 -0.020675961 2.3509883e-38
-0.0042652264 -0.064726189 -0.010695043 2.350988e-38
-0.0020328946 -0.061987028 0.0033162208 2.3509883e-38
-3.7401915e-06 -0.060621932 0.010298905 2.3509883e-38
0.0019208752 -0.060033023 0.013311324 2.3509883e-38
0.0038346127 -0.059447438 0.016306695 2.3509883e-38
0.0057375617 -0.05886516 0.019285139 2.3418047e-38
0.0076461062 -0.058072507 0.023339685 2.3418047e-38
0.0095257647 -0.057497919 0.02627879 2.341805e-38
0.011430498 -0.056316406 0.032322463 2.3234379e-38
0.013284646 -0.055730745 0.035318192 2.341805e-38
0.015104653 -0.055730745 0.035318192 2.3234379e-38
0.016948791 -0.054962009 0.03925043 2.3234379e-38
0.018788204 -0.05378902 0.045250472 2.3234379e-38
0.020590795 -0.05378902 0.045250472 2.3234379e-38
0.022396039 -0.053197473 0.048276361 2.3418045e-38
0.02419069 -0.052609369 0.051284607 2.3141444e-38
0.025974836 -0.052024707 0.054275211 1.4382133e-38
0.027748574 -0.051443487 0.057248291 1.6410081e-38
0.02953013 -0.051443487 0.057248291 2.2771582e-38
0.031311683 -0.051443487 0.057248291 2.3509873e-38
0.03309324 -0.051443487 0.057248291 2.065217e-38
0.034874797 -0.051443487 0.057248291 1.5489936e-38
-0.044003211 -0.08575426 -0.10766536 1.2451064e-38
-0.041493125 -0.084185004 -0.09970969 1.5951635e-38
-0.039009422 -0.08261022 -0.091726005 2.3325494e-38
-0.036758848 -0.081817687 -0.087708056 2.3509886e-38
-0.034723125 -0.081817687 -0.087708056 2.2956712e-38
-0.032303937 -0.080248892 -0.07975477 2.3509886e-38
-0.030093215 -0.079446733 -0.075688064 2.3141103e-38
-0.02790384 -0.078675836 -0.071779788 2.3141103e-38
-0.02572377 -0.077884719 -0.06776911 2.3509886e-38
-0.02343265 -0.076494694 -0.060722057 2.3509886e-38
-0.020693503 -0.072740942 -0.041691605 2.3509886e-38
-0.018627398 -0.072159722 -0.03874499 2.3509886e-38
-0.016532812 -0.071365535 -0.034718696 2.3509886e-38
-0.014486387 -0.070767716 -0.031687919 2.3509886e-38
-0.012419946 -0.069983557 -0.027712528 2.3509886e-38
-0.010368325 -0.069205061 -0.023765747 2.3509886e-38
-0.0083553381 -0.068595603 -0.020675961 2.3509886e-38
-0.0064371526 -0.068595603 -0.020675961 2.3509886e-38
-0.0041650161 -0.065849394 -0.0067535071 2.3509883e-38
-0.0019633174 -0.063283354 0.0062555643 2.3509886e-38
-3.7401915e-06 -0.062485814 0.010298905 2.3509886e-38
0.0019208752 -0.061891615 0.013311324 2.3509886e-38
0.0038346127 -0.061300769 0.016306695 2.3509886e-38
0.0057375617 -0.060713276 0.019285139 2.3509886e-38
0.0076461062 -0.059913516 0.023339685 2.3509886e-38
0.0095257647 -0.059333771 0.02627879 2.3509886e-38
0.011430498 -0.058141664 0.032322463 2.2957431e-38
0.013284646 -0.057550758 0.035318192 2.3509886e-38
0.015104653 -0.057550758 0.035318192 2.2865235e-38
0.016948791 -0.056775123 0.03925043 2.341805e-38
0.018788204 -0.055591613 0.045250472 2.341805e-38
0.020590795 -0.055591613 0.045250472 2.341805e-38
0.022396039 -0.054994762 0.048276361 2.350988e-38
0.02419069 -0.054401383 0.051284607 2.1297881e-38
0.025974836 -0.053811476 0.054275211 1.5304438e-38
0.027748574 -0.05322504 0.057248291 1.6502628e-38
0.02953013 -0.05322504 0.057248291 2.3509863e-38
0.031335145 -0.053811476 0.054275211 2.3509509e-38
0.033121914 -0.053811476 0.054275211 2.3509156e-38
-0.043775775 -0.087030694 -0.10367411 1.0793703e-38
-0.041493125 -0.086241767 -0.09970969 1.8349441e-38
-0.039009422 -0.084652975 -0.091726005 2.3509886e-38
-0.036758848 -0.083853394 -0.087708056 2.3509886e-38
-0.034523733 -0.083059311 -0.083717763 2.2956712e-38
-0.032303937 -0.082270667 -0.07975477 2.3509886e-38
-0.030093215 -0.08146137 -0.075688064 2.3233299e-38
-0.02790384 -0.080683619 -0.071779788 2.3325494e-38
-0.02572377 -0.079885483 -0.06776911 2.341769e-38
-0.02343265 -0.07848309 -0.060722057 2.3509886e-38
-0.020693503 -0.074695975 -0.041691605 2.3509886e-38
-0.018475618 -0.073308334 -0.034718696 2.3509886e-38
-0.016423877 -0.072705194 -0.031687919 2.3509886e-38
-0.014350466 -0.071914092 -0.027712528 2.3509886e-38
-0.012291927 -0.071128666 -0.023765747 2.3509886e-38
-0.01027352 -0.070513785 -0.020675961 2.3509886e-38
-0.0082392022 -0.069714904 -0.016661588 2.3509886e-38
-0.0063280575 -0.069714904 -0.016661588 2.3509886e-38
-0.0041650161 -0.067743167 -0.0067535071 2.3509886e-38
-0.0019633174 -0.065154314 0.0062555643 2.3509886e-38
-3.7401915e-06 -0.064349681 0.010298905 2.3509886e-38
0.0019208752 -0.063750207 0.013311324 2.3509886e-38
0.0038346127 -0.063154116 0.016306695 2.3509886e-38
0.0057375617 -0.062561393 0.019285139 2.3509886e-38
0.0076461062 -0.061754525 0.023339685 2.3509886e-38
0.0095656142 -0.060566545 0.029309329 2.3509886e-38
0.011430498 -0.059966922 0.032322463 2.3048907e-38
0.013284646 -0.059370756 0.035318192 2.3509886e-38
0.015135679 -0.058588237 0.03925043 2.3048907e-38
0.016948791 -0.058588237 0.03925043 2.3509886e-38
0.018788204 -0.057394207 0.045250472 2.3417691e-38
0.020590795 -0.057394207 0.045250472 2.3509527e-38
0.022396039 -0.056792036 0.048276361 2.2957064e-38
0.02419069 -0.056193396 0.051284607 1.8439815e-38
0.025974836 -0.055598259 0.054275211 1.4751617e-38
0.027761605 -0.055598259 0.054275211 1.6410067e-38
0.029548373 -0.055598259 0.054275211 2.2955605e-38
0.031335145 -0.055598259 0.054275211 2.3508788e-38
0.033121914 -0.055598259 0.054275211 2.3509873e-38
0.034977049 -0.056792036 0.048276361 2.0373789e-38
-0.043775775 -0.0890944 -0.10367411 1.4110952e-38
-0.041493125 -0.088298514 -0.09970969 2.1483374e-38
-0.038794555 -0.085889101 -0.087708056 2.3509886e-38
-0.036552452 -0.08508803 -0.083717763 2.3509886e-38
-0.034523733 -0.08508803 -0.083717763 2.3233299e-38
-0.032107852 -0.083476007 -0.075688064 2.3509886e-38
-0.029911622 -0.082691401 -0.071779788 2.341769e-38
-0.02790384 -0.082691401 -0.071779788 2.3509886e-38
-0.02572377 -0.081886232 -0.06776911 2.3141103e-38
-0.02343265 -0.080471486 -0.060722057 2.3509886e-38
-0.020693503 -0.076650992 -0.041691605 2.3509886e-38
-0.018475618 -0.075251147 -0.034718696 2.3509886e-38
-0.016423877 -0.074642688 -0.031687919 2.3509886e-38
-0.014350466 -0.073844612 -0.027712528 2.3509886e-38
-0.012291927 -0.073052257 -0.023765747 2.3509886e-38
-0.01027352 -0.072431967 -0.020675961 2.3509886e-38
-0.0082392022 -0.071626052 -0.016661588 2.3509886e-38
-0.0061659068 -0.070428237 -0.010695043 2.3509886e-38
-0.0040888786 -0.069035694 -0.0037586121 2.3509886e-38
-0.0020328946 -0.067615375 0.0033162208 2.3509886e-38
-9.2357397e-05 -0.067025289 0.0062555643 2.3509886e-38
0.0019208752 -0.065608799 0.013311324 2.3509886e-38
0.0038346127 -0.065007448 0.016306695 2.3509886e-38
0.0057375617 -0.064409509 0.019285139 2.3509886e-38
0.0076461062 -0.063595533 0.023339685 2.3509886e-38
0.0095656142 -0.062397093 0.029309329 2.3509886e-38
0.011430498 -0.06179218 0.032322463 2.3141103e-38
0.013322566 -0.06040135 0.03925043 2.3509886e-38
0.015135679 -0.06040135 0.03925043 2.3141103e-38
0.016967578 -0.059786752 0.042311843 2.3509886e-38
0.018788204 -0.0591968 0.045250472 2.3417691e-38
0.020590795 -0.0591968 0.045250472 2.3325497e-38
0.022396039 -0.058589324 0.048276361 2.1481933e-38
0.024193328 -0.058589324 0.048276361 1.6688098e-38
0.025982702 -0.05798541 0.051284607 1.4935653e-38
0.027774714 -0.05798541 0.051284607 1.6871048e-38
0.029585186 -0.058589324 0.048276361 2.2309515e-38
0.031382475 -0.058589324 0.048276361 2.3506989e-38
0.03317976 -0.058589324 0.048276361 2.3509514e-38
0.034977049 -0.058589324 0.048276361 2.2954907e-38
-0.053316243 -0.095226333 -0.12376314 9.1241023e-39
-0.046073921 -0.091966376 -0.10766536 5.4434812e-39
-0.043775775 -0.091158107 -0.10367411 1.7797342e-38
-0.041493125 -0.090355277 -0.09970969 2.3418047e-38
-0.038794555 -0.087924823 -0.087708056 2.3509886e-38
-0.036552452 -0.087116748 -0.083717763 2.3509886e-38
-0.034523733 -0.087116748 -0.083717763 2.3509886e-38
-0.032107852 -0.085490659 -0.075688064 2.3509886e-38
-0.029911622 -0.084699184 -0.071779788 2.3509886e-38
-0.02790384 -0.084699184 -0.071779788 2.3509886e-38
-0.02572377 -0.083886981 -0.06776911 2.3233299e-38
-0.022816524 -0.079431683 -0.045768682 2.3509886e-38
-0.020577259 -0.078009307 -0.03874499 2.3509886e-38
-0.018475618 -0.077193946 -0.034718696 2.3509886e-38
-0.016423877 -0.076580182 -0.031687919 2.3509886e-38
-0.014350466 -0.075775132 -0.027712528 2.3509886e-38
-0.012291927 -0.074975863 -0.023765747 2.3509886e-38
-0.01027352 -0.074350148 -0.020675961 2.3509886e-38
-0.0082392022 -0.073537201 -0.016661588 2.3509886e-38
-0.0061659068 -0.07232891 -0.010695043 2.3509886e-38
-0.0040888786 -0.070924222 -0.0037586121 2.3509886e-38
-0.0020328946 -0.069491491 0.0033162208 2.3509886e-38
-9.2357397e-05 -0.068896249 0.0062555643 2.3509886e-38
0.0019208752 -0.067467391 0.013311324 2.3509886e-38
0.0038346127 -0.066860795 0.016306695 2.3509886e-38
0.0057375617 -0.066257626 0.019285139 2.3509886e-38
0.0076461062 -0.065436542 0.023339685 2.3509886e-38
0.0095656142 -0.064227626 0.029309329 2.3509886e-38
0.01146464 -0.063010782 0.035318192 2.3325494e-38
0.013322566 -0.062214464 0.03925043 2.3509886e-38
0.015159834 -0.061594486 0.042311843 2.3141103e-38
0.016967578 -0.061594486 0.042311843 2.3509886e-38
0.018788204 -0.060999393 0.045250472 2.3417691e-38
0.020590795 -0.060999393 0.045250472 2.3233302e-38
0.022396039 -0.060386613 0.048276361 1.9638021e-38
0.024193328 -0.060386613 0.048276361 1.6042729e-38
0.025990613 -0.060386613 0.048276361 1.5027848e-38
0.027787901 -0.060386613 0.048276361 1.7146556e-38
0.029585186 -0.060386613 0.048276361 2.2125124e-38
0.031382475 -0.060386613 0.048276361 2.3506989e-38
0.03317976 -0.060386613 0.048276361 2.3415158e-38
-0.057514094 -0.097325265 -0.12376314 9.7662347e-39
-0.055415161 -0.097325265 -0.12376314 1.0411961e-38
-0.053316243 -0.097325265 -0.12376314 8.9382719e-39
-0.05121731 -0.097325265 -0.12376314 9.3088593e-39
-0.048387699 -0.094857916 -0.11168391 8.1131986e-39
-0.046073921 -0.094037086 -0.10766536 7.5618325e-39
-0.043775775 -0.093221813 -0.10367411 2.2958504e-38
-0.041275643 -0.09160769 -0.095771968 2.3418047e-38
-0.039009422 -0.090781257 -0.091726005 2.3048907e-38
-0.036758848 -0.08996053 -0.087708056 2.3509886e-38
-0.034523733 -0.089145467 -0.083717763 2.3509886e-38
-0.032107852 -0.087505296 -0.075688064 2.3325494e-38
-0.029911622 -0.086706966 -0.071779788 2.3509886e-38
-0.027724527 -0.085887745 -0.06776911 2.3509886e-38
-0.02559121 -0.085257411 -0.064683259 2.3509886e-38
-0.022816524 -0.081393853 -0.045768682 2.3509886e-38
-0.020418428 -0.079136744 -0.034718696 2.3509886e-38
-0.018475618 -0.079136744 -0.034718696 2.3509886e-38
-0.016423877 -0.078517675 -0.031687919 2.3509886e-38
-0.014350466 -0.077705652 -0.027712528 2.3509886e-38
-0.012291927 -0.076899469 -0.023765747 2.3509886e-38
-0.01027352 -0.07626833 -0.020675961 2.3509886e-38
-0.0082392022 -0.075448349 -0.016661588 2.3509886e-38
-0.0060587898 -0.073424488 -0.0067535071 2.3509886e-38
-0.0040888786 -0.072812736 -0.0037586121 2.3509886e-38
-0.0020328946 -0.071367607 0.0033162208 2.3509886e-38
-9.2357397e-05 -0.070767209 0.0062555643 2.3509886e-38
0.0019208752 -0.069325984 0.013311324 2.3509886e-38
0.0038346127 -0.068714127 0.016306695 2.3509886e-38
0.0057375617 -0.068105742 0.019285139 2.3509886e-38
0.0076461062 -0.067277551 0.023339685 2.3509886e-38
0.0096052401 -0.065442696 0.032322463 2.341769e-38
0.01146464 -0.06483078 0.035318192 2.341769e-38
0.013352089 -0.063402236 0.042311843 2.3509886e-38
0.015183019 -0.062801987 0.045250472 2.3233299e-38
0.01698561 -0.062801987 0.045250472 2.3509886e-38
0.018788204 -0.062801987 0.045250472 2.341769e-38
0.020590795 -0.062801987 0.045250472 2.3141103e-38
0.022393387 -0.062801987 0.045250472 1.7794105e-38
0.02419598 -0.062801987 0.045250472 1.4844186e-38
0.025990613 -0.062183902 0.048276361 1.4659069e-38
0.027787901 -0.062183902 0.048276361 1.6408991e-38
0.029621789 -0.063402236 0.042311843 2.0833666e-38
0.03140635 -0.062801987 0.045250472 2.350663e-38
0.03320894 -0.062801987 0.045250472 2.3507715e-38
-0.057514094 -0.099424198 -0.12376314 8.7524401e-39
-0.055415161 -0.099424198 -0.12376314 9.029027e-39
-0.053316243 -0.099424198 -0.12376314 8.2929025e-39
-0.05121731 -0.099424198 -0.12376314 9.7698403e-39
-0.048387699 -0.096935675 -0.11168391 9.0340815e-39
-0.046073921 -0.096107781 -0.10766536 8.3905184e-39
-0.043775775 -0.09528552 -0.10367411 2.3142542e-38
-0.041275643 -0.093657553 -0.095771968 2.3509886e-38
-0.038794555 -0.091996253 -0.087708056 2.2864516e-38
-0.036758848 -0.091996253 -0.087708056 2.3509886e-38
-0.034523733 -0.091174185 -0.083717763 2.3509886e-38
-0.032107852 -0.089519933 -0.075688064 2.3233299e-38
-0.029911622 -0.088714764 -0.071779788 2.3509886e-38
-0.027724527 -0.087888494 -0.06776911 2.3509886e-38
-0.025421046 -0.086436674 -0.060722057 2.3509886e-38
-0.022816524 -0.083356038 -0.045768682 2.3509886e-38
-0.020418428 -0.081079558 -0.034718696 2.3509886e-38
-0.018475618 -0.081079558 -0.034718696 2.3509886e-38
-0.016423877 -0.080455169 -0.031687919 2.3509886e-38
-0.014350466 -0.079636171 -0.027712528 2.3509886e-38
-0.012291927 -0.07882306 -0.023765747 2.3509886e-38
-0.01027352 -0.078186512 -0.020675961 2.3509886e-38
-0.0082392022 -0.077359483 -0.016661588 2.3509886e-38
-0.0060587898 -0.075318262 -0.0067535071 2.3509886e-38
-0.0040888786 -0.074701265 -0.0037586121 2.3509886e-38
-0.0020328946 -0.073243722 0.0033162208 2.3509886e-38
-9.2357397e-05 -0.072638169 0.0062555643 2.3509886e-38
0.0019208752 -0.071184576 0.013311324 2.3509886e-38
0.0038346127 -0.070567474 0.016306695 2.3509886e-38
0.0057375617 -0.069953859 0.019285139 2.3509886e-38
0.0076899081 -0.068513051 0.02627879 2.3509886e-38
0.0096052401 -0.067267954 0.032322463 2.3325494e-38
0.011509456 -0.065840676 0.03925043 2.3509886e-38
0.013352089 -0.065209985 0.042311843 2.3509886e-38
0.015183019 -0.06460458 0.045250472 2.3233299e-38
0.01698561 -0.06460458 0.045250472 2.3509886e-38
0.018788204 -0.06460458 0.045250472 2.3509883e-38
0.020590795 -0.06460458 0.045250472 2.3233296e-38
0.022393387 -0.06460458 0.045250472 1.6410808e-38
0.02419598 -0.06460458 0.045250472 1.4197737e-38
0.025998572 -0.06460458 0.045250472 1.5303719e-38
0.027801163 -0.06460458 0.045250472 1.6040208e-38
0.029640576 -0.065840676 0.03925043 1.8989754e-38
0.031382475 -0.06398119 0.048276361 2.2953096e-38
0.03317976 -0.06398119 0.048276361 2.3509153e-38
-0.055415161 -0.10152313 -0.12376314 9.0293872e-39
-0.053316243 -0.10152313 -0.12376314 8.9386349e-39
-0.05121731 -0.10152313 -0.12376314 1.0414852e-38
-0.048144631 -0.098178491 -0.10766536 9.4947051e-39
-0.045839481 -0.097349226 -0.10367411 9.4043172e-39
-0.043775775 -0.097349226 -0.10367411 2.2958155e-38
-0.041275643 -0.095707402 -0.095771968 2.3417691e-38
-0.038794555 -0.09403196 -0.087708056 2.3141103e-38
-0.036758848 -0.09403196 -0.087708056 2.3509886e-38
-0.034325704 -0.09237951 -0.07975477 2.3325494e-38
-0.032107852 -0.09153457 -0.075688064 2.3233299e-38
-0.029911622 -0.090722546 -0.071779788 2.3509886e-38
-0.027724527 -0.089889243 -0.06776911 2.3141103e-38
-0.025421046 -0.08842507 -0.060722057 2.3509886e-38
-0.022816524 -0.085318208 -0.045768682 2.3509886e-38
-0.020418428 -0.083022356 -0.034718696 2.3509886e-38
-0.018475618 -0.083022356 -0.034718696 2.3509886e-38
-0.016423877 -0.082392648 -0.031687919 2.3509886e-38
-0.014350466 -0.081566691 -0.027712528 2.3509886e-38
-0.012291927 -0.080746666 -0.023765747 2.3509886e-38
-0.010150347 -0.079270631 -0.016661588 2.3509886e-38
-0.008154355 -0.078661263 -0.013728681 2.3509886e-38
-0.0061659068 -0.078030959 -0.010695043 2.3509883e-38
-0.0040888786 -0.076589778 -0.0037586121 2.3509883e-38
-0.0020328946 -0.075119838 0.0033162208 2.3509886e-38
-9.2357397e-05 -0.074509144 0.0062555643 2.3509886e-38
0.0019208752 -0.073043168 0.013311324 2.3509886e-38
0.0038894452 -0.071801975 0.019285139 2.3509886e-38
0.0058050975 -0.070959568 0.023339685 2.3509886e-38
0.0076899081 -0.070348918 0.02627879 2.3509886e-38
0.0096052401 -0.069093212 0.032322463 2.3325494e-38
0.011509456 -0.06765379 0.03925043 2.3509886e-38
0.013352089 -0.067017719 0.042311843 2.3509883e-38
0.015183019 -0.066407159 0.045250472 2.3325492e-38
0.017004181 -0.065778479 0.048276361 2.3509883e-38
0.018801466 -0.065778479 0.048276361 2.350988e-38
0.020590795 -0.066407159 0.045250472 2.3418043e-38
0.022393387 -0.066407159 0.045250472 1.5396656e-38
0.02419598 -0.066407159 0.045250472 1.4289933e-38
0.0260063 -0.067017719 0.042311843 1.6041284e-38
0.027827464 -0.06765379 0.03925043 1.6316795e-38
0.029640576 -0.06765379 0.03925043 1.843658e-38
0.031382475 -0.065778479 0.048276361 2.2031137e-38
0.03317976 -0.065778479 0.048276361 2.3509153e-38
-0.055415161 -0.10362206 -0.12376314 8.4780113e-39
-0.053316243 -0.10362206 -0.12376314 7.8333663e-39
-0.05121731 -0.10362206 -0.12376314 8.3883492e-39
-0.048144631 -0.10024919 -0.10766536 7.9284612e-39
-0.045839481 -0.099412933 -0.10367411 9.6816285e-39
-0.043775775 -0.099412933 -0.10367411 2.3234379e-38
-0.041052185 -0.096909523 -0.091726005 2.341805e-38
-0.038794555 -0.096067667 -0.087708056 2.3509886e-38
-0.036552452 -0.095231608 -0.083717763 2.3509886e-38
-0.034325704 -0.09440127 -0.07975477 2.2956712e-38
-0.032107852 -0.093549207 -0.075688064 2.3233299e-38
-0.029725276 -0.091889992 -0.06776911 2.3509886e-38
-0.027586557 -0.091243446 -0.064683259 2.2864516e-38
-0.025421046 -0.090413481 -0.060722057 2.3509886e-38
-0.022816524 -0.087280393 -0.045768682 2.3509886e-38
-0.020577259 -0.085808769 -0.03874499 2.3509886e-38
-0.018475618 -0.084965169 -0.034718696 2.3509886e-38
-0.016423877 -0.084330142 -0.031687919 2.3509886e-38
-0.014350466 -0.083497211 -0.027712528 2.3509886e-38
-0.012291927 -0.082670271 -0.023765747 2.3509886e-38
-0.010150347 -0.08118178 -0.016661588 2.3509886e-38
-0.008154355 -0.080567271 -0.013728681 2.3509886e-38
-0.0061659068 -0.079931647 -0.010695043 2.3509883e-38
-0.0040888786 -0.078478307 -0.0037586121 2.3509883e-38
-0.0020328946 -0.076995969 0.0033162208 2.3509886e-38
-9.2357397e-05 -0.076380104 0.0062555643 2.3509886e-38
0.0019208752 -0.07490176 0.013311324 2.3509886e-38
0.0038894452 -0.073650107 0.019285139 2.3509886e-38
0.0058050975 -0.072800577 0.023339685 2.3509886e-38
0.0076899081 -0.072184771 0.02627879 2.3509886e-38
0.009644635 -0.070290804 0.035318192 2.341769e-38
0.011509456 -0.069466904 0.03925043 2.3509886e-38
0.013352089 -0.068825468 0.042311843 2.3509883e-38
0.015183019 -0.068209752 0.045250472 2.3325492e-38
0.017004181 -0.067575768 0.048276361 2.350988e-38
0.018801466 -0.067575768 0.048276361 2.3509879e-38
0.020590795 -0.068209752 0.045250472 2.3509879e-38
0.022393387 -0.068209752 0.045250472 1.484348e-38
0.024198556 -0.068825468 0.042311843 1.4474326e-38
0.0260063 -0.068825468 0.042311843 1.6041287e-38
0.027827464 -0.069466904 0.03925043 1.6501189e-38
0.029640576 -0.069466904 0.03925043 1.8897558e-38
0.031382475 -0.067575768 0.048276361 2.1570159e-38
0.033150751 -0.066945463 0.051284607 2.3322241e-38
0.034942765 -0.066945463 0.051284607 2.3508074e-38
-0.055145554 -0.1048546 -0.11966246 7.7418853e-39
-0.053053804 -0.1048546 -0.11966246 8.111035e-39
-0.050962068 -0.1048546 -0.11966246 8.0210086e-39
-0.048144631 -0.1023199 -0.10766536 8.0217387e-39
-0.045839481 -0.10147664 -0.10367411 1.0881614e-38
-0.043549873 -0.10063905 -0.09970969 2.2590454e-38
-0.041052185 -0.098952278 -0.091726005 2.341805e-38
-0.038794555 -0.098103389 -0.087708056 2.3509886e-38
-0.036552452 -0.097260326 -0.083717763 2.3509886e-38
-0.034325704 -0.096423045 -0.07975477 2.3509886e-38
-0.032107852 -0.095563844 -0.075688064 2.3509886e-38
-0.029581897 -0.093238786 -0.064683259 2.3509886e-38
-0.027409449 -0.092401877 -0.060722057 2.3509886e-38
-0.025246635 -0.091544032 -0.056661788 2.3509886e-38
-0.022816524 -0.089242578 -0.045768682 2.3509886e-38
-0.020418428 -0.086907968 -0.034718696 2.3509886e-38
-0.018475618 -0.086907968 -0.034718696 2.3509886e-38
-0.016423877 -0.086267635 -0.031687919 2.3509886e-38
-0.014350466 -0.085427731 -0.027712528 2.3509886e-38
-0.012291927 -0.084593862 -0.023765747 2.3509886e-38
-0.010150347 -0.083092928 -0.016661588 2.3509886e-38
-0.008154355 -0.082473263 -0.013728681 2.3509886e-38
-0.0060587898 -0.080999583 -0.0067535071 2.3509883e-38
-0.0040888786 -0.08036682 -0.0037586121 2.350988e-38
-0.0020328946 -0.078872085 0.0033162208 2.3509883e-38
-3.7401915e-06 -0.077396795 0.010298905 2.3509886e-38
0.0019812733 -0.076127499 0.016306695 2.3509886e-38
0.0038894452 -0.075498223 0.019285139 2.3509886e-38
0.0058050975 -0.074641585 0.023339685 2.3509886e-38
0.0077350736 -0.073380336 0.029309329 2.3509886e-38
0.009644635 -0.072110802 0.035318192 2.3509886e-38
0.011509456 -0.071280017 0.03925043 2.3509886e-38
0.013352089 -0.070633218 0.042311843 2.3233296e-38
0.015183019 -0.070012346 0.045250472 2.3233296e-38
0.01698561 -0.070012346 0.045250472 2.350988e-38
0.018788204 -0.070012346 0.045250472 2.2496085e-38
0.020583067 -0.070633218 0.042311843 2.3509876e-38
0.022390811 -0.070633218 0.042311843 1.4105915e-38
0.02420124 -0.071280017 0.03925043 1.4935304e-38
0.026014352 -0.071280017 0.03925043 1.641007e-38
0.027827464 -0.071280017 0.03925043 1.6777776e-38
0.029640576 -0.071280017 0.03925043 1.8252191e-38
0.031382475 -0.069373056 0.048276361 2.0002834e-38
0.033150751 -0.068737477 0.051284607 2.3507352e-38
0.034942765 -0.068737477 0.051284607 2.3509154e-38
0.036734775 -0.068737477 0.051284607 2.2955622e-38
-0.055145554 -0.10694633 -0.11966246 7.8355215e-39
-0.053053804 -0.10694633 -0.11966246 7.2827163e-39
-0.050962068 -0.10694633 -0.11966246 6.3618502e-39
-0.048144631 -0.10439061 -0.10766536 5.6260942e-39
-0.045839481 -0.10354035 -0.10367411 1.2449658e-38
-0.043549873 -0.10269581 -0.09970969 2.2683366e-38
-0.041052185 -0.10099503 -0.091726005 2.3234379e-38
-0.038794555 -0.1001391 -0.087708056 2.3509886e-38
-0.036552452 -0.099289045 -0.083717763 2.3509886e-38
-0.034325704 -0.098444805 -0.07975477 2.3509886e-38
-0.031919412 -0.096745893 -0.071779788 2.3509886e-38
-0.029581897 -0.095234126 -0.064683259 2.3509886e-38
-0.027227916 -0.093525305 -0.056661788 2.3509886e-38
-0.025078855 -0.092693284 -0.052756134 2.3509886e-38
-0.022648536 -0.090336218 -0.041691605 2.3509886e-38
-0.020418428 -0.088850766 -0.034718696 2.3509886e-38
-0.018361367 -0.088205129 -0.031687919 2.3509886e-38
-0.016423877 -0.088205129 -0.031687919 2.3509886e-38
-0.014350466 -0.087358251 -0.027712528 2.3509886e-38
-0.012291927 -0.086517468 -0.023765747 2.3509886e-38
-0.010150347 -0.085004061 -0.016661588 2.3509886e-38
-0.008154355 -0.084379271 -0.013728681 2.3509883e-38
-0.0060587898 -0.082893357 -0.0067535071 2.3509883e-38
-0.0039870478 -0.081402093 0.00024670083 2.350988e-38
-0.0019633174 -0.080122024 0.0062555643 2.3509883e-38
-3.7401915e-06 -0.079260677 0.010298905 2.3509883e-38
0.0019812733 -0.077980831 0.016306695 2.3509886e-38
0.0038894452 -0.07734634 0.019285139 2.3509886e-38
0.0058050975 -0.076482594 0.023339685 2.3509886e-38
0.0077350736 -0.075210884 0.029309329 2.3509886e-38
0.009644635 -0.073930815 0.035318192 2.3509886e-38
0.011509456 -0.073093131 0.03925043 2.3509886e-38
0.013352089 -0.072440952 0.042311843 2.3417687e-38
0.015183019 -0.071814939 0.045250472 2.3325847e-38
0.01698561 -0.071814939 0.045250472 2.3509879e-38
0.018788204 -0.071814939 0.045250472 2.3141452e-38
0.020590795 -0.071814939 0.045250472 2.3326199e-38
0.022384681 -0.073930815 0.035318192 1.4014436e-38
0.02420124 -0.073093131 0.03925043 1.4383209e-38
0.026014352 -0.073093131 0.03925043 1.6134202e-38
0.027827464 -0.073093131 0.03925043 1.6777777e-38
0.029640576 -0.073093131 0.03925043 1.8252191e-38
0.031382475 -0.07117033 0.048276361 1.963477e-38
0.033150751 -0.070529491 0.051284607 2.3322241e-38
0.034874797 -0.069259048 0.057248291 2.3509513e-38
0.036656354 -0.069259048 0.057248291 2.3417679e-38
-0.052286036 -0.1064613 -0.10766536 6.0856136e-39
-0.048144631 -0.1064613 -0.10766536 6.457294e-39
-0.045606636 -0.10475256 -0.09970969 1.6047086e-38
-0.043325491 -0.1039068 -0.095771968 2.2775202e-38
-0.041052185 -0.10303779 -0.091726005 2.3234379e-38
-0.038794555 -0.1021748 -0.087708056 2.3509886e-38
-0.036347471 -0.10046658 -0.07975477 2.3509886e-38
-0.034122489 -0.099593118 -0.075688064 2.3509886e-38
-0.031726025 -0.097892255 -0.06776911 2.3509886e-38
-0.029397845 -0.096378669 -0.060722057 2.3509886e-38
-0.027227916 -0.095506594 -0.056661788 2.3509886e-38
-0.025078855 -0.094667718 -0.052756134 2.3509886e-38
-0.022648536 -0.092291236 -0.041691605 2.3509886e-38
-0.020418428 -0.09079358 -0.034718696 2.3509886e-38
-0.018361367 -0.090142623 -0.031687919 2.3509886e-38
-0.01628099 -0.089288771 -0.027712528 2.3509886e-38
-0.014215529 -0.088441074 -0.023765747 2.3509886e-38
-0.012291927 -0.088441074 -0.023765747 2.3509886e-38
-0.010150347 -0.08691521 -0.016661588 2.3509886e-38
-0.0080665909 -0.085633695 -0.010695043 2.3509883e-38
-0.0058685467 -0.083283588 0.00024670083 2.3509883e-38
-0.0039090104 -0.082624316 0.0033162208 2.350988e-38
-0.0018676147 -0.081124544 0.010298905 2.3509883e-38
6.2279403e-05 -0.080477536 0.013311324 2.3509883e-38
0.002041325 -0.079194456 0.019285139 2.3509886e-38
0.0039640889 -0.078323603 0.023339685 2.3509886e-38
0.0058540553 -0.07769233 0.02627879 2.3509527e-38
0.0077350736 -0.077041432 0.029309329 2.3509527e-38
0.0096963421 -0.074906245 0.03925043 2.3509886e-38
0.011544343 -0.074248701 0.042311843 2.3509886e-38
0.013352089 -0.074248701 0.042311843 2.3509883e-38
0.015183019 -0.073617533 0.045250472 2.350988e-38
0.01698561 -0.073617533 0.045250472 2.3509876e-38
0.018788204 -0.073617533 0.045250472 2.3509873e-38
0.020590795 -0.073617533 0.045250472 2.1666675e-38
0.022384681 -0.075750828 0.035318192 1.4014792e-38
0.024204686 -0.075750828 0.035318192 1.4106621e-38
0.026024694 -0.075750828 0.035318192 1.594981e-38
0.027827464 -0.074906245 0.03925043 1.6594106e-38
0.029640576 -0.074906245 0.03925043 1.806816e-38
0.031382475 -0.072967619 0.048276361 1.9174511e-38
0.033150751 -0.072321504 0.051284607 2.267759e-38
0.034874797 -0.071040601 0.057248291 2.3509153e-38
0.036656354 -0.071040601 0.057248291 2.3509876e-38
-0.048144631 -0.108532 -0.10766536 1.2911344e-38
-0.045606636 -0.1068093 -0.09970969 2.0472473e-38
-0.04309494 -0.10508056 -0.091726005 2.2591531e-38
-0.040830262 -0.10421051 -0.087708056 2.3234379e-38
-0.038794555 -0.10421051 -0.087708056 2.3509886e-38
-0.036347471 -0.10248834 -0.07975477 2.3509886e-38
-0.034122489 -0.10160775 -0.075688064 2.3509886e-38
-0.031726025 -0.099893004 -0.06776911 2.3509886e-38
-0.029397845 -0.098367065 -0.060722057 2.3509886e-38
-0.027053289 -0.096642151 -0.052756134 2.3509886e-38
-0.024949767 -0.095991403 -0.049750868 2.3509886e-38
-0.022527121 -0.093608215 -0.03874499 2.3509886e-38
-0.020418428 -0.092736378 -0.034718696 2.3509886e-38
-0.018361367 -0.092080101 -0.031687919 2.3509886e-38
-0.016139127 -0.090364665 -0.023765747 2.3509886e-38
-0.014109887 -0.089695618 -0.020675961 2.3509886e-38
-0.012061492 -0.088826358 -0.016661588 2.3509886e-38
-0.010060355 -0.088191271 -0.013728681 2.3509886e-38
-0.0080665909 -0.087534383 -0.010695043 2.3509883e-38
-0.0058685467 -0.085165098 0.00024670083 2.350988e-38
-0.0039090104 -0.084500432 0.0033162208 2.350988e-38
-0.0018676147 -0.082988426 0.010298905 2.3509883e-38
6.2279403e-05 -0.082336128 0.013311324 2.3509883e-38
0.002041325 -0.081042573 0.019285139 2.3509886e-38
0.0039640889 -0.080164611 0.023339685 2.3509886e-38
0.0058540553 -0.079528198 0.02627879 2.3509527e-38
0.0077350736 -0.078871965 0.029309329 2.3509527e-38
0.0096963421 -0.076719359 0.03925043 2.3509886e-38
0.011544343 -0.076056451 0.042311843 2.3325494e-38
0.013352089 -0.076056451 0.042311843 2.3509883e-38
0.015183019 -0.075420126 0.045250472 2.3509879e-38
0.01698561 -0.075420126 0.045250472 2.3418039e-38
0.018788204 -0.075420126 0.045250472 2.350987e-38
0.020590795 -0.075420126 0.045250472 1.963837e-38
0.022384681 -0.077570826 0.035318192 1.4199184e-38
0.024204686 -0.077570826 0.035318192 1.4291731e-38
0.026024694 -0.077570826 0.035318192 1.5673944e-38
0.027827464 -0.076719359 0.03925043 1.6133847e-38
0.029621789 -0.076056451 0.042311843 1.7700457e-38
0.031382475 -0.074764907 0.048276361 1.8622416e-38
0.033150751 -0.074113518 0.051284607 2.20333e-38
0.034908682 -0.073465943 0.054275211 2.3048893e-38
0.036695451 -0.073465943 0.054275211 2.3509879e-38
-0.04537534 -0.10800649 -0.095771968 2.2591531e-38
-0.04309494 -0.1071233 -0.091726005 2.2775202e-38
-0.040830262 -0.10624625 -0.087708056 2.3234379e-38
-0.03858117 -0.10537519 -0.083717763 2.3509886e-38
-0.036347471 -0.10451011 -0.07975477 2.3509886e-38
-0.033927195 -0.10276926 -0.071779788 2.3509886e-38
-0.031577237 -0.10122015 -0.064683259 2.3509886e-38
-0.029209189 -0.09946914 -0.056661788 2.3509886e-38
-0.026918925 -0.097960562 -0.049750868 2.3509886e-38
-0.02447699 -0.095558092 -0.03874499 2.3509886e-38
-0.022361226 -0.094679192 -0.034718696 2.3509886e-38
-0.020298861 -0.094017595 -0.031687919 2.3509886e-38
-0.01821151 -0.093149811 -0.027712528 2.3509886e-38
-0.016028073 -0.091613799 -0.020675961 2.3509886e-38
-0.013972636 -0.090737507 -0.016661588 2.3509886e-38
-0.011966359 -0.090097278 -0.013728681 2.3509886e-38
-0.0098463334 -0.088574663 -0.0067535071 2.3509886e-38
-0.0078659207 -0.087920904 -0.0037586121 2.3509883e-38
-0.0058685467 -0.087046593 0.00024670083 2.350988e-38
-0.0039090104 -0.086376548 0.0033162208 2.350988e-38
-0.0018676147 -0.084852293 0.010298905 2.3509883e-38
6.2279403e-05 -0.08419472 0.013311324 2.3509883e-38
0.002041325 -0.082890689 0.019285139 2.3509886e-38
0.0039640889 -0.08200562 0.023339685 2.3509886e-38
0.005904533 -0.080702513 0.029309329 2.3509527e-38
0.0078246258 -0.079390839 0.035318192 2.3509527e-38
0.0097365975 -0.077864185 0.042311843 2.3509886e-38
0.011577833 -0.07722272 0.045250472 2.3233299e-38
0.013380427 -0.07722272 0.045250472 2.3509883e-38
0.015206892 -0.076562196 0.048276361 2.3509879e-38
0.017004181 -0.076562196 0.048276361 2.3326199e-38
0.018801466 -0.076562196 0.048276361 2.240424e-38
0.020598754 -0.076562196 0.048276361 1.7702262e-38
0.022382054 -0.080044776 0.032322463 1.4475768e-38
0.024207313 -0.080044776 0.032322463 1.49371e-38
0.026032573 -0.080044776 0.032322463 1.5674663e-38
0.027827464 -0.078532472 0.03925043 1.585726e-38
0.029621789 -0.077864185 0.042311843 1.7332393e-38
0.031382475 -0.076562196 0.048276361 1.8346189e-38
0.03317976 -0.076562196 0.048276361 2.1480845e-38
0.034908682 -0.075252712 0.054275211 2.249572e-38
0.036695451 -0.075252712 0.054275211 2.3326206e-38
0.040318802 -0.075905532 0.051284607 6.1810603e-39
0.042110812 -0.075905532 0.051284607 3.7839767e-39
-0.04537534 -0.11005636 -0.095771968 2.2775202e-38
-0.04309494 -0.10916607 -0.091726005 2.2591531e-38
-0.040830262 -0.10828196 -0.087708056 2.3234379e-38
-0.03858117 -0.10740392 -0.083717763 2.3509886e-38
-0.036347471 -0.10653187 -0.07975477 2.3509886e-38
-0.033726782 -0.10389452 -0.06776911 2.3509886e-38
-0.031386241 -0.10234386 -0.060722057 2.3509886e-38
-0.029027723 -0.100591 -0.052756134 2.3509886e-38
-0.026740886 -0.099053472 -0.045768682 2.3509886e-38
-0.02447699 -0.097507954 -0.03874499 2.3509886e-38
-0.022361226 -0.09662199 -0.034718696 2.3509886e-38
-0.020298861 -0.095955089 -0.031687919 2.3509886e-38
-0.01821151 -0.095080331 -0.027712528 2.3509886e-38
-0.016028073 -0.093531981 -0.020675961 2.3509886e-38
-0.013972636 -0.09264864 -0.016661588 2.3509886e-38
-0.011966359 -0.092003286 -0.013728681 2.3509886e-38
-0.0098463334 -0.090468436 -0.0067535071 2.3509886e-38
-0.0078659207 -0.089809433 -0.0037586121 2.3509883e-38
-0.00578513 -0.088252664 0.0033162208 2.350988e-38
-0.0038342848 -0.087605879 0.0062555643 2.3509879e-38
-0.0018676147 -0.086716175 0.010298905 2.3509883e-38
0.00012793019 -0.085394189 0.016306695 2.3509883e-38
0.0021230802 -0.083846629 0.023339685 2.3509886e-38
0.0040739924 -0.082533047 0.029309329 2.3509886e-38
0.0059547201 -0.081870034 0.032322463 2.3509527e-38
0.0078832284 -0.080345586 0.03925043 2.3509527e-38
0.0097365975 -0.079671934 0.042311843 2.3509886e-38
0.011577833 -0.079025313 0.045250472 2.3141103e-38
0.013409607 -0.078359485 0.048276361 2.3509883e-38
0.015206892 -0.078359485 0.048276361 2.3509879e-38
0.017004181 -0.078359485 0.048276361 2.3418036e-38
0.018801466 -0.078359485 0.048276361 2.0007152e-38
0.022376755 -0.083199903 0.02627879 1.4936746e-38
0.024209954 -0.082533047 0.029309329 1.5214047e-38
0.026040496 -0.082533047 0.029309329 1.5675381e-38
0.027844701 -0.081210837 0.035318192 1.5581751e-38
0.029621789 -0.079671934 0.042311843 1.7332393e-38
0.031382475 -0.078359485 0.048276361 1.8161798e-38
0.03317976 -0.078359485 0.048276361 2.0744e-38
0.034942765 -0.077697545 0.051284607 2.1851069e-38
0.036734775 -0.077697545 0.051284607 2.2774111e-38
0.038526788 -0.077697545 0.051284607 2.2130185e-38
0.040318802 -0.077697545 0.051284607 6.734597e-39
0.042110812 -0.077697545 0.051284607 7.4188384e-40
0.043902826 -0.077697545 0.051284607 3.1382542e-39
-0.045137696 -0.11120884 -0.091726005 2.27752e-38
-0.042865984 -0.11031766 -0.087708056 2.27752e-38
-0.040830262 -0.11031766 -0.087708056 2.3234379e-38
-0.038794555 -0.11031766 -0.087708056 2.3509886e-38
-0.036137126 -0.10765167 -0.075688064 2.3509886e-38
-0.033374645 -0.10433225 -0.060722057 2.3509886e-38
-0.03119047 -0.10343169 -0.056661788 2.3509886e-38
-0.028888084 -0.10189888 -0.049750868 2.3509886e-38
-0.026740886 -0.10101564 -0.045768682 2.3509886e-38
-0.02447699 -0.099457815 -0.03874499 2.3509886e-38
-0.022361226 -0.098564804 -0.034718696 2.3509886e-38
-0.020298861 -0.097892582 -0.031687919 2.3509886e-38
-0.01821151 -0.097010851 -0.027712528 2.3509886e-38
-0.016028073 -0.095450163 -0.020675961 2.3509886e-38
-0.013972636 -0.094559789 -0.016661588 2.3509886e-38
-0.011966359 -0.093909279 -0.013728681 2.3509886e-38
-0.0098463334 -0.09236221 -0.0067535071 2.3509886e-38
-0.0078659207 -0.091697961 -0.0037586121 2.3509883e-38
-0.00578513 -0.090128779 0.0033162208 2.350988e-38
-0.0038342848 -0.089476839 0.0062555643 2.3509879e-38
-0.0018676147 -0.088580042 0.010298905 2.3509883e-38
0.00012793019 -0.087247536 0.016306695 2.3509883e-38
0.0021230802 -0.085687637 0.023339685 2.3509886e-38
0.0040739924 -0.084363595 0.029309329 2.3509886e-38
0.0060046203 -0.08303085 0.035318192 2.3509527e-38
0.0079288557 -0.081479684 0.042311843 2.3509527e-38
0.0097752437 -0.080827907 0.045250472 2.3509886e-38
0.011612318 -0.080156773 0.048276361 2.3233299e-38
0.013438616 -0.079489544 0.051284607 2.3509883e-38
0.01523063 -0.079489544 0.051284607 2.3418042e-38
0.01702264 -0.079489544 0.051284607 2.3509873e-38
0.018814653 -0.079489544 0.051284607 1.751787e-38
0.022376755 -0.085035756 0.02627879 1.5305526e-38
0.024212612 -0.085035756 0.02627879 1.5121852e-38
0.026040496 -0.084363595 0.029309329 1.5675381e-38
0.027844701 -0.08303085 0.035318192 1.5674665e-38
0.029621789 -0.081479684 0.042311843 1.7333469e-38
0.031382475 -0.080156773 0.048276361 1.7701899e-38
0.03317976 -0.080156773 0.048276361 2.009863e-38
0.034942765 -0.079489544 0.051284607 2.1389735e-38
0.036734775 -0.079489544 0.051284607 2.2774111e-38
0.038526788 -0.079489544 0.051284607 2.2498968e-38
0.040318802 -0.079489544 0.051284607 1.152877e-38
0.042110812 -0.079489544 0.051284607 2.1248211e-39
0.044024494 -0.080827907 0.045250472 2.7698332e-39
-0.047180451 -0.11325158 -0.091726005 2.2313498e-38
-0.045137696 -0.11325158 -0.091726005 2.2958873e-38
-0.042865984 -0.11235337 -0.087708056 2.2958873e-38
-0.040830262 -0.11235337 -0.087708056 2.341805e-38
-0.03858117 -0.11146136 -0.083717763 2.3509886e-38
-0.035934977 -0.10879262 -0.071779788 2.3509886e-38
-0.033171751 -0.10541297 -0.056661788 2.3509886e-38
-0.031002156 -0.10453986 -0.052756134 2.3509886e-38
-0.028888084 -0.10386805 -0.049750868 2.3509886e-38
-0.026740886 -0.10297783 -0.045768682 2.3509886e-38
-0.02447699 -0.10140768 -0.03874499 2.3509886e-38
-0.022236355 -0.099830076 -0.031687919 2.3509886e-38
-0.020142026 -0.098941371 -0.027712528 2.3509886e-38
-0.018062729 -0.098059073 -0.023765747 2.3509886e-38
-0.016028073 -0.097368345 -0.020675961 2.3509886e-38
-0.013872359 -0.095815286 -0.013728681 2.3509886e-38
-0.011867955 -0.095137119 -0.010695043 2.3509886e-38
-0.0097544417 -0.093586475 -0.0037586121 2.3509886e-38
-0.0077500455 -0.092691094 0.00024670083 2.3509883e-38
-0.00578513 -0.092004895 0.0033162208 2.350988e-38
-0.0037314892 -0.090443924 0.010298905 2.350988e-38
-0.0017963126 -0.089770496 0.013311324 2.3509883e-38
0.00019320846 -0.088435039 0.019285139 2.3509886e-38
0.0021823421 -0.086871609 0.02627879 2.3509886e-38
0.0041294619 -0.085520551 0.032322463 2.3509527e-38
0.0060046203 -0.084850863 0.035318192 2.3509527e-38
0.0079288557 -0.083287418 0.042311843 2.3509527e-38
0.0097752437 -0.0826305 0.045250472 2.3417691e-38
0.011612318 -0.081954062 0.048276361 2.3233299e-38
0.013438616 -0.081281558 0.051284607 2.3509883e-38
0.015254224 -0.080613017 0.054275211 2.3325846e-38
0.017040994 -0.080613017 0.054275211 2.3509873e-38
0.018827762 -0.080613017 0.054275211 1.5858349e-38
0.020498872 -0.090443924 0.010298905 1.447577e-38
0.022376755 -0.086871609 0.02627879 1.5582112e-38
0.024212612 -0.086871609 0.02627879 1.49371e-38
0.026040496 -0.086194143 0.029309329 1.5766858e-38
0.027844701 -0.084850863 0.035318192 1.6042729e-38
0.029640576 -0.083971798 0.03925043 1.7517861e-38
0.03140635 -0.0826305 0.045250472 1.7517507e-38
0.03320894 -0.0826305 0.045250472 1.9637652e-38
0.034977049 -0.081954062 0.048276361 2.1113148e-38
0.036734775 -0.081281558 0.051284607 2.2958503e-38
0.038526788 -0.081281558 0.051284607 2.295887e-38
0.040368907 -0.081954062 0.048276361 1.6783561e-38
0.042166196 -0.081954062 0.048276361 5.1665552e-39
0.044024494 -0.0826305 0.045250472 4.0602105e-39
0.045827083 -0.0826305 0.045250472 3.4141236e-39
-0.049223207 -0.11529435 -0.091726005 9.8670876e-39
-0.047180451 -0.11529435 -0.091726005 2.2866671e-38
-0.045137696 -0.11529435 -0.091726005 2.2958873e-38
-0.042865984 -0.11438908 -0.087708056 2.3142544e-38
-0.040609889 -0.11349006 -0.083717763 2.341805e-38
-0.03858117 -0.11349006 -0.083717763 2.3509886e-38
-0.035727538 -0.10989676 -0.06776911 2.3509886e-38
-0.033171751 -0.10739426 -0.056661788 2.3509886e-38
-0.031002156 -0.10651429 -0.052756134 2.3509886e-38
-0.028703056 -0.10494001 -0.045768682 2.3509886e-38
-0.026740886 -0.10494001 -0.045768682 2.3509886e-38
-0.02447699 -0.10335754 -0.03874499 2.3509886e-38
-0.022236355 -0.10176755 -0.031687919 2.3509886e-38
-0.020142026 -0.10087189 -0.027712528 2.3509886e-38
-0.017946254 -0.099286526 -0.020675961 2.3509886e-38
-0.015883781 -0.098382086 -0.016661588 2.3509886e-38
-0.013872359 -0.097721294 -0.013728681 2.3509886e-38
-0.011867955 -0.097037792 -0.010695043 2.3509886e-38
-0.0097544417 -0.095475003 -0.0037586121 2.3509886e-38
-0.0077500455 -0.094572589 0.00024670083 2.3509886e-38
-0.00578513 -0.093881011 0.0033162208 2.3509883e-38
-0.0037314892 -0.092307791 0.010298905 2.3509886e-38
-0.0017963126 -0.091629088 0.013311324 2.3509886e-38
0.00019320846 -0.090283155 0.019285139 2.3509886e-38
0.0021823421 -0.088707477 0.02627879 2.3509527e-38
0.0041294619 -0.087345809 0.032322463 2.3509527e-38
0.0060701184 -0.085784912 0.03925043 2.3509527e-38
0.0079726502 -0.084433094 0.045250472 2.3509527e-38
0.0098150335 -0.083751351 0.048276361 2.3233302e-38
0.011612318 -0.083751351 0.048276361 2.3509886e-38
0.013438616 -0.083073571 0.051284607 2.3418047e-38
0.015254224 -0.082399786 0.054275211 2.2681196e-38
0.017040994 -0.082399786 0.054275211 2.3418038e-38
0.018827762 -0.082399786 0.054275211 1.4383938e-38
0.020498872 -0.092307791 0.010298905 1.2908805e-38
0.022362746 -0.092307791 0.010298905 1.548992e-38
0.02422398 -0.091629088 0.013311324 1.5673223e-38
0.02606686 -0.090283155 0.019285139 1.6502265e-38
0.027884323 -0.088707477 0.02627879 1.6133486e-38
0.029683091 -0.087345809 0.032322463 1.7608258e-38
0.031484716 -0.086670861 0.035318192 1.7977407e-38
0.03320894 -0.084433094 0.045250472 1.9361065e-38
0.034977049 -0.083751351 0.048276361 2.0559611e-38
0.036774334 -0.083751351 0.048276361 2.3141455e-38
0.038571622 -0.083751351 0.048276361 2.3234376e-38
0.040368907 -0.083751351 0.048276361 2.2036911e-38
0.042166196 -0.083751351 0.048276361 1.1618807e-38
0.044024494 -0.084433094 0.045250472 4.6119395e-39
0.045827083 -0.084433094 0.045250472 4.3364316e-39
0.047629677 -0.084433094 0.045250472 4.0598475e-39
-0.050753467 -0.11551876 -0.083717763 1.0145109e-38
-0.048724748 -0.11551876 -0.083717763 1.3002818e-38
-0.046937414 -0.11642478 -0.087708056 2.2222381e-38
-0.044901691 -0.11642478 -0.087708056 2.3142544e-38
-0.042638607 -0.11551876 -0.083717763 2.3050347e-38
-0.040609889 -0.11551876 -0.083717763 2.341805e-38
-0.038151763 -0.11369558 -0.075688064 2.3509886e-38
-0.035567924 -0.11119686 -0.064683259 2.3509886e-38
-0.033171751 -0.10937552 -0.056661788 2.3509886e-38
-0.030857243 -0.10780637 -0.049750868 2.3509886e-38
-0.028703056 -0.1069022 -0.045768682 2.3509886e-38
-0.0265586 -0.10597645 -0.041691605 2.3509886e-38
-0.024304032 -0.1043932 -0.034718696 2.3509886e-38
-0.022072546 -0.10280241 -0.027712528 2.3509886e-38
-0.019986324 -0.10190627 -0.023765747 2.3509886e-38
-0.017946254 -0.10120471 -0.020675961 2.3509886e-38
-0.015883781 -0.10029322 -0.016661588 2.3509886e-38
-0.013872359 -0.099627286 -0.013728681 2.3509886e-38
-0.011867955 -0.09893848 -0.010695043 2.3509886e-38
-0.0097544417 -0.097363517 -0.0037586121 2.3509886e-38
-0.0077500455 -0.096454084 0.00024670083 2.3509886e-38
-0.00578513 -0.095757127 0.0033162208 2.3509886e-38
-0.0036549047 -0.09348768 0.013311324 2.3509886e-38
-0.0017254092 -0.092807561 0.016306695 2.3509886e-38
0.00028207153 -0.091210663 0.023339685 2.3509886e-38
0.0021823421 -0.09054333 0.02627879 2.3509527e-38
0.0041294619 -0.089171067 0.032322463 2.3509527e-38
0.0060701184 -0.087598026 0.03925043 2.3509527e-38
0.0079726502 -0.086235672 0.045250472 2.3509527e-38
0.0098150335 -0.085548624 0.048276361 2.3417333e-38
0.011646602 -0.084865585 0.051284607 2.3509886e-38
0.013467455 -0.084186554 0.054275211 2.3418047e-38
0.015277682 -0.083511502 0.057248291 2.2865587e-38
0.017078001 -0.082817271 0.06030577 2.3418038e-38
0.018854195 -0.082817271 0.06030577 1.3830764e-38
0.020630391 -0.082817271 0.06030577 1.3185392e-38
0.022362746 -0.094171658 0.010298905 1.5582115e-38
0.02422398 -0.09348768 0.013311324 1.5856896e-38
0.026082572 -0.09348768 0.013311324 1.6685933e-38
0.027914979 -0.092131287 0.019285139 1.6408993e-38
0.029701581 -0.089855224 0.029309329 1.7608258e-38
0.031508349 -0.089171067 0.032322463 1.7885211e-38
0.033304721 -0.088490874 0.035318192 1.9360345e-38
0.035011534 -0.086235672 0.045250472 2.0283025e-38
0.036814123 -0.086235672 0.045250472 2.2864868e-38
0.038616717 -0.086235672 0.045250472 2.2403891e-38
0.04041931 -0.086235672 0.045250472 2.3418047e-38
0.042221904 -0.086235672 0.045250472 1.6873595e-38
0.044024494 -0.086235672 0.045250472 4.7959678e-39
0.045827083 -0.086235672 0.045250472 3.044611e-39
0.047558054 -0.085548624 0.048276361 4.2442332e-39
-0.052782185 -0.1175475 -0.083717763 8.761819e-39
-0.050753467 -0.1175475 -0.083717763 1.4385752e-38
-0.048724748 -0.1175475 -0.083717763 1.8625672e-38
-0.04669603 -0.1175475 -0.083717763 2.2774476e-38
-0.044901691 -0.11846052 -0.087708056 2.3142544e-38
-0.042638607 -0.1175475 -0.083717763 2.2958151e-38
-0.0401664 -0.11571021 -0.075688064 2.341805e-38
-0.03794276 -0.11481597 -0.071779788 2.3509886e-38
-0.035567924 -0.11319222 -0.064683259 2.3509886e-38
-0.033171751 -0.11135681 -0.056661788 2.3509886e-38
-0.030857243 -0.10977553 -0.049750868 2.3509886e-38
-0.028703056 -0.10886435 -0.045768682 2.3509886e-38
-0.0265586 -0.10793148 -0.041691605 2.3509886e-38
-0.024173841 -0.10564254 -0.031687919 2.3509886e-38
-0.022072546 -0.10473295 -0.027712528 2.3509886e-38
-0.019986324 -0.10382988 -0.023765747 2.3509886e-38
-0.017946254 -0.1031229 -0.020675961 2.3509886e-38
-0.015883781 -0.10220437 -0.016661588 2.3509886e-38
