# .PCD v0.7 - Point Cloud Data file format
VERSION 0.7
FIELDS x y z rgb
SIZE 4 4 4 4
TYPE F F F F
COUNT 1 1 1 1
WIDTH 935
HEIGHT 1
VIEWPOINT 0 0 0 1 0 0 0
POINTS 935
DATA ascii
-0.09321554 -0.11770664 -0.034155983 7.7447818e-39
-0.091260508 -0.11770664 -0.034155983 1.2169456e-38
-0.08930549 -0.11770664 -0.034155983 2.3509879e-38
-0.087350458 -0.11770664 -0.034155983 2.3325492e-38
-0.085093185 -0.11700659 -0.031209368 2.3325492e-38
-0.083143324 -0.11700659 -0.031209368 2.3233302e-38
-0.080794603 -0.11605005 -0.027183075 2.3509886e-38
-0.078851804 -0.11605005 -0.027183075 2.3509886e-38
-0.076619387 -0.11533 -0.024152298 2.3509886e-38
-0.074681893 -0.11533 -0.024152298 2.3509886e-38
-0.072744399 -0.11533 -0.024152298 2.3509886e-38
-0.070806906 -0.11533 -0.024152298 2.3509883e-38
-0.068517417 -0.11438553 -0.020176906 2.3509883e-38
-0.066586897 -0.11438553 -0.020176906 2.3509883e-38
-0.064656377 -0.11438553 -0.020176906 2.3509883e-38
-0.062725857 -0.11438553 -0.020176906 2.3509886e-38
-0.060795341 -0.11438553 -0.020176906 2.3509886e-38
-0.058864821 -0.11438553 -0.020176906 2.3509886e-38
-0.056626368 -0.11344786 -0.016230125 2.3509886e-38
-0.054702763 -0.11344786 -0.016230125 2.3509886e-38
-0.052779157 -0.11344786 -0.016230125 2.3509886e-38
-0.050630737 -0.1127138 -0.013140338 2.3509886e-38
-0.048712555 -0.1127138 -0.013140338 2.3509886e-38
-0.046516348 -0.11176009 -0.0091259656 2.3509886e-38
-0.044605199 -0.11176009 -0.0091259656 2.3509886e-38
-0.042694066 -0.11176009 -0.0091259656 2.3509886e-38
-0.040782917 -0.11176009 -0.0091259656 2.3509886e-38
-0.038871769 -0.11176009 -0.0091259656 2.3509886e-38
-0.03696062 -0.11176009 -0.0091259656 2.3509886e-38
-0.035049487 -0.11176009 -0.0091259656 2.3509886e-38
-0.033138338 -0.11176009 -0.0091259656 2.3509886e-38
-0.03122719 -0.11176009 -0.0091259656 2.3509886e-38
-0.029159207 -0.11106332 -0.0061930595 2.3509886e-38
-0.027253199 -0.11106332 -0.0061930595 2.3509886e-38
-0.025347207 -0.11106332 -0.0061930595 2.3509886e-38
-0.023441199 -0.11106332 -0.0061930595 2.3509886e-38
-0.021394242 -0.11034258 -0.0031594215 2.3509886e-38
-0.019493561 -0.11034258 -0.0031594215 2.3509886e-38
-0.017592881 -0.11034258 -0.0031594215 2.3509886e-38
-0.015529785 -0.10940616 0.00078211445 2.3509886e-38
-0.013517868 -0.10869466 0.0037770094 2.3509886e-38
-0.011629347 -0.10869466 0.0037770094 2.3509886e-38
-0.0097408257 -0.10869466 0.0037770094 2.3509886e-38
-0.0078523047 -0.10869466 0.0037770094 2.3509886e-38
-0.0059637837 -0.10869466 0.0037770094 2.3509886e-38
-0.0039523654 -0.10774307 0.0077823224 2.3509886e-38
-0.0020708665 -0.10774307 0.0077823224 2.3509886e-38
-0.00018936768 -0.10774307 0.0077823224 2.3509886e-38
0.0016921312 -0.10774307 0.0077823224 2.3509886e-38
0.0036462843 -0.10701384 0.010851842 2.3509886e-38
0.0055224039 -0.10701384 0.010851842 2.3509886e-38
0.0073985197 -0.10701384 0.010851842 2.3509886e-38
0.0092746355 -0.10701384 0.010851842 2.3509886e-38
0.011150751 -0.10701384 0.010851842 2.3509886e-38
0.013026867 -0.10701384 0.010851842 2.3509886e-38
0.014902987 -0.10701384 0.010851842 2.3509886e-38
0.016812604 -0.10631551 0.013791186 2.3509886e-38
0.018683564 -0.10631551 0.013791186 2.3509886e-38
0.020554528 -0.10631551 0.013791186 2.3509886e-38
0.022425491 -0.10631551 0.013791186 2.3509886e-38
0.024296455 -0.10631551 0.013791186 2.3509886e-38
0.026167417 -0.10631551 0.013791186 2.3509886e-38
0.028038381 -0.10631551 0.013791186 2.3509886e-38
0.029909344 -0.10631551 0.013791186 2.3509886e-38
0.03178031 -0.10631551 0.013791186 2.3509886e-38
0.033633545 -0.10535492 0.017834526 2.3509886e-38
0.03549742 -0.10535492 0.017834526 2.3509886e-38
0.037361294 -0.10535492 0.017834526 2.3509886e-38
0.039225169 -0.10535492 0.017834526 2.3509886e-38
0.041054711 -0.10463922 0.020846944 2.3509886e-38
0.042913303 -0.10463922 0.020846944 2.3509886e-38
0.044727255 -0.1039276 0.023842316 2.3509886e-38
0.046580594 -0.1039276 0.023842316 2.3509886e-38
0.048433937 -0.1039276 0.023842316 2.3509886e-38
0.050227217 -0.10322 0.02682076 2.3509886e-38
0.052075338 -0.10322 0.02682076 2.3509886e-38
0.053827487 -0.10225673 0.030875307 2.3509886e-38
0.055668496 -0.10225673 0.030875307 2.3509886e-38
0.057509504 -0.10225673 0.030875307 2.3509883e-38
0.059350513 -0.10225673 0.030875307 2.3509883e-38
0.061191522 -0.10225673 0.030875307 2.3509883e-38
0.06303253 -0.10225673 0.030875307 2.3509886e-38
0.064873539 -0.10225673 0.030875307 2.3141106e-38
0.066608906 -0.10155846 0.033814412 2.3509527e-38
0.068444759 -0.10155846 0.033814412 2.3509886e-38
0.070396565 -0.10225673 0.030875307 2.3509886e-38
0.072237574 -0.10225673 0.030875307 1.9545827e-38
0.075540602 -0.11034258 -0.0031594215 1.8624222e-38
0.07744129 -0.11034258 -0.0031594215 2.0375936e-38
0.079158828 -0.10940616 0.00078211445 2.0375936e-38
0.081052601 -0.10940616 0.00078211445 2.304961e-38
0.082946375 -0.10940616 0.00078211445 2.3325843e-38
0.084685244 -0.10869466 0.0037770094 6.1774603e-39
0.086573765 -0.10869466 0.0037770094 1.2907388e-39
0.088462286 -0.10869466 0.0037770094 2.2126979e-39
0.090350807 -0.10869466 0.0037770094 3.1346514e-39
-0.095170572 -0.11966167 -0.034155983 8.5745453e-39
-0.09321554 -0.11966167 -0.034155983 8.8518483e-39
-0.091260508 -0.11966167 -0.034155983 1.3737501e-38
-0.08930549 -0.11966167 -0.034155983 2.3141455e-38
-0.087043047 -0.11895646 -0.031209368 2.3509883e-38
-0.084680215 -0.11799283 -0.027183075 2.31411e-38
-0.082737401 -0.11799283 -0.027183075 2.3417691e-38
-0.080494359 -0.11726747 -0.024152298 2.3509886e-38
-0.078556865 -0.11726747 -0.024152298 2.3509886e-38
-0.076619387 -0.11726747 -0.024152298 2.3509886e-38
-0.074681893 -0.11726747 -0.024152298 2.3509886e-38
-0.072744399 -0.11726747 -0.024152298 2.3509886e-38
-0.070447952 -0.11631607 -0.020176906 2.3509883e-38
-0.068517417 -0.11631607 -0.020176906 2.3509883e-38
-0.066586897 -0.11631607 -0.020176906 2.3509883e-38
-0.064656377 -0.11631607 -0.020176906 2.3509883e-38
-0.062725857 -0.11631607 -0.020176906 2.3509886e-38
-0.060473565 -0.11537148 -0.016230125 2.3509886e-38
-0.058549959 -0.11537148 -0.016230125 2.3509886e-38
-0.056626368 -0.11537148 -0.016230125 2.3509886e-38
-0.054702763 -0.11537148 -0.016230125 2.3509886e-38
-0.052548919 -0.114632 -0.013140338 2.3509886e-38
-0.050630737 -0.114632 -0.013140338 2.3509886e-38
-0.048427496 -0.11367123 -0.0091259656 2.3509886e-38
-0.046516348 -0.11367123 -0.0091259656 2.3509886e-38
-0.044605199 -0.11367123 -0.0091259656 2.3509886e-38
-0.042694066 -0.11367123 -0.0091259656 2.3509886e-38
-0.040782917 -0.11367123 -0.0091259656 2.3509886e-38
-0.038871769 -0.11367123 -0.0091259656 2.3509886e-38
-0.03696062 -0.11367123 -0.0091259656 2.3509886e-38
-0.035049487 -0.11367123 -0.0091259656 2.3509886e-38
-0.033138338 -0.11367123 -0.0091259656 2.3509886e-38
-0.031065207 -0.11296929 -0.0061930595 2.3509886e-38
-0.029159207 -0.11296929 -0.0061930595 2.3509886e-38
-0.027253199 -0.11296929 -0.0061930595 2.3509886e-38
-0.025347207 -0.11296929 -0.0061930595 2.3509886e-38
-0.023294929 -0.11224325 -0.0031594215 2.3509886e-38
-0.021394242 -0.11224325 -0.0031594215 2.3509886e-38
-0.019317333 -0.11129995 0.00078211445 2.3509886e-38
-0.017423559 -0.11129995 0.00078211445 2.3509886e-38
-0.015529785 -0.11129995 0.00078211445 2.3509886e-38
-0.013517868 -0.11058317 0.0037770094 2.3509886e-38
-0.011629347 -0.11058317 0.0037770094 2.3509886e-38
-0.0097408257 -0.11058317 0.0037770094 2.3509886e-38
-0.0078523047 -0.11058317 0.0037770094 2.3509886e-38
-0.0059637837 -0.11058317 0.0037770094 2.3509886e-38
-0.0038581826 -0.10888995 0.010851842 2.3509886e-38
-0.0019820668 -0.10888995 0.010851842 2.3509886e-38
-0.00018936768 -0.10962458 0.0077823224 2.3509886e-38
0.0016921312 -0.10962458 0.0077823224 2.3509886e-38
0.0036462843 -0.10888995 0.010851842 2.3509886e-38
0.0055224039 -0.10888995 0.010851842 2.3509886e-38
0.0073985197 -0.10888995 0.010851842 2.3509886e-38
0.0092746355 -0.10888995 0.010851842 2.3509886e-38
0.011150751 -0.10888995 0.010851842 2.3509886e-38
0.013026867 -0.10888995 0.010851842 2.3509886e-38
0.014941636 -0.10818647 0.013791186 2.3509886e-38
0.016812604 -0.10818647 0.013791186 2.3509886e-38
0.018683564 -0.10818647 0.013791186 2.3509886e-38
0.020554528 -0.10818647 0.013791186 2.3509886e-38
0.022425491 -0.10818647 0.013791186 2.3509886e-38
0.024296455 -0.10818647 0.013791186 2.3509886e-38
0.026167417 -0.10818647 0.013791186 2.3509886e-38
0.028038381 -0.10818647 0.013791186 2.3509886e-38
0.029909344 -0.10818647 0.013791186 2.3509886e-38
0.03178031 -0.10818647 0.013791186 2.3509886e-38
0.033633545 -0.10721879 0.017834526 2.3509886e-38
0.03549742 -0.10721879 0.017834526 2.3509886e-38
0.037361294 -0.10721879 0.017834526 2.3509886e-38
0.039196119 -0.10649781 0.020846944 2.3509886e-38
0.041054711 -0.10649781 0.020846944 2.3509886e-38
0.042873915 -0.10578094 0.023842316 2.3509886e-38
0.044727255 -0.10578094 0.023842316 2.3509886e-38
0.046530984 -0.1050681 0.02682076 2.3509886e-38
0.048379101 -0.1050681 0.02682076 2.3509886e-38
0.050227217 -0.1050681 0.02682076 2.3509886e-38
0.052075338 -0.1050681 0.02682076 2.3509886e-38
0.053827487 -0.10409774 0.030875307 2.3509886e-38
0.055668496 -0.10409774 0.030875307 2.3509886e-38
0.057509504 -0.10409774 0.030875307 2.3509883e-38
0.059350513 -0.10409774 0.030875307 2.3417687e-38
0.06110134 -0.10339431 0.033814412 2.3417687e-38
0.0629372 -0.10339431 0.033814412 2.3233299e-38
0.064773053 -0.10339431 0.033814412 2.3509886e-38
0.066608906 -0.10339431 0.033814412 2.3325138e-38
0.068444759 -0.10339431 0.033814412 2.3509886e-38
0.070280619 -0.10339431 0.033814412 2.3233299e-38
0.072116479 -0.10339431 0.033814412 1.9545827e-38
0.075670913 -0.11296929 -0.0061930595 1.8623866e-38
0.07744129 -0.11224325 -0.0031594215 2.0283741e-38
0.07934197 -0.11224325 -0.0031594215 2.1021306e-38
0.081052601 -0.11129995 0.00078211445 2.268083e-38
0.082946375 -0.11129995 0.00078211445 2.3418042e-38
0.084840149 -0.11129995 0.00078211445 1.0418103e-38
0.086733922 -0.11129995 0.00078211445 4.6097843e-39
0.088627696 -0.11129995 0.00078211445 4.8863712e-39
-0.097125605 -0.12161671 -0.034155983 8.5745453e-39
-0.095170572 -0.12161671 -0.034155983 8.2986773e-39
-0.09321554 -0.12161671 -0.034155983 9.4972177e-39
-0.091260508 -0.12161671 -0.034155983 1.5674328e-38
-0.08930549 -0.12161671 -0.034155983 2.3234369e-38
-0.087043047 -0.12090631 -0.031209368 2.3509883e-38
-0.084680215 -0.11993565 -0.027183075 2.31411e-38
-0.082737401 -0.11993565 -0.027183075 2.3509886e-38
-0.080494359 -0.11920498 -0.024152298 2.3509886e-38
-0.078556865 -0.11920498 -0.024152298 2.3509886e-38
-0.076619387 -0.11920498 -0.024152298 2.3509886e-38
-0.074681893 -0.11920498 -0.024152298 2.3509886e-38
-0.072378471 -0.11824657 -0.020176906 2.3509886e-38
-0.070447952 -0.11824657 -0.020176906 2.3509883e-38
-0.068517417 -0.11824657 -0.020176906 2.3509883e-38
-0.066244364 -0.11729507 -0.016230125 2.3509883e-38
-0.064320758 -0.11729507 -0.016230125 2.3509883e-38
-0.062397171 -0.11729507 -0.016230125 2.3509886e-38
-0.060473565 -0.11729507 -0.016230125 2.3509886e-38
-0.058549959 -0.11729507 -0.016230125 2.3509886e-38
-0.056385282 -0.11655019 -0.013140338 2.3509886e-38
-0.054467101 -0.11655019 -0.013140338 2.3509886e-38
-0.052548919 -0.11655019 -0.013140338 2.3509886e-38
-0.050338645 -0.11558239 -0.0091259656 2.3509886e-38
-0.048427496 -0.11558239 -0.0091259656 2.3509886e-38
-0.046516348 -0.11558239 -0.0091259656 2.3509886e-38
-0.044605199 -0.11558239 -0.0091259656 2.3509886e-38
-0.042694066 -0.11558239 -0.0091259656 2.3509886e-38
-0.040782917 -0.11558239 -0.0091259656 2.3509886e-38
-0.038871769 -0.11558239 -0.0091259656 2.3509886e-38
-0.03696062 -0.11558239 -0.0091259656 2.3509886e-38
-0.035049487 -0.11558239 -0.0091259656 2.3509886e-38
-0.032971207 -0.1148753 -0.0061930595 2.3509886e-38
-0.031065207 -0.1148753 -0.0061930595 2.3509886e-38
-0.029159207 -0.1148753 -0.0061930595 2.3509886e-38
-0.027253199 -0.1148753 -0.0061930595 2.3509886e-38
-0.02519561 -0.11414395 -0.0031594215 2.3509886e-38
-0.023294929 -0.11414395 -0.0031594215 2.3509886e-38
-0.021394242 -0.11414395 -0.0031594215 2.3509886e-38
-0.019317333 -0.11319371 0.00078211445 2.3509886e-38
-0.017423559 -0.11319371 0.00078211445 2.3509886e-38
-0.015529785 -0.11319371 0.00078211445 2.3509886e-38
-0.013517868 -0.11247168 0.0037770094 2.3509886e-38
-0.011629347 -0.11247168 0.0037770094 2.3509886e-38
-0.0097408257 -0.11247168 0.0037770094 2.3509886e-38
-0.0078523047 -0.11247168 0.0037770094 2.3509886e-38
-0.0058338642 -0.11150609 0.0077823224 2.3509886e-38
-0.0038581826 -0.11076607 0.010851842 2.3509886e-38
-0.0019820668 -0.11076607 0.010851842 2.3509886e-38
-0.00010595098 -0.11076607 0.010851842 2.3509886e-38
0.0017701685 -0.11076607 0.010851842 2.3509886e-38
0.0036462843 -0.11076607 0.010851842 2.3509886e-38
0.0055224039 -0.11076607 0.010851842 2.3509886e-38
0.0073985197 -0.11076607 0.010851842 2.3509886e-38
0.0092746355 -0.11076607 0.010851842 2.3509886e-38
0.011150751 -0.11076607 0.010851842 2.3509886e-38
0.013026867 -0.11076607 0.010851842 2.3509886e-38
0.014941636 -0.11005743 0.013791186 2.3509886e-38
0.016812604 -0.11005743 0.013791186 2.3509886e-38
0.018683564 -0.11005743 0.013791186 2.3509886e-38
0.020554528 -0.11005743 0.013791186 2.3509886e-38
0.022425491 -0.11005743 0.013791186 2.3509886e-38
0.024296455 -0.11005743 0.013791186 2.3509886e-38
0.026167417 -0.11005743 0.013791186 2.3509886e-38
0.028038381 -0.11005743 0.013791186 2.3509886e-38
0.029909344 -0.11005743 0.013791186 2.3509886e-38
0.031769674 -0.10908265 0.017834526 2.3509886e-38
0.033633545 -0.10908265 0.017834526 2.3509886e-38
0.03549742 -0.10908265 0.017834526 2.3509886e-38
0.037337527 -0.1083564 0.020846944 2.3509886e-38
0.039196119 -0.1083564 0.020846944 2.3509886e-38
0.041020572 -0.10763429 0.023842316 2.3509886e-38
0.042834748 -0.10691623 0.02682076 2.3509886e-38
0.044682868 -0.10691623 0.02682076 2.3509886e-38
0.046530984 -0.10691623 0.02682076 2.3509886e-38
0.048379101 -0.10691623 0.02682076 2.3509886e-38
0.050227217 -0.10691623 0.02682076 2.3509886e-38
0.052075338 -0.10691623 0.02682076 2.3509886e-38
0.053827487 -0.10593875 0.030875307 2.3509886e-38
0.055668496 -0.10593875 0.030875307 2.3509886e-38
0.057509504 -0.10593875 0.030875307 2.3509883e-38
0.059350513 -0.10593875 0.030875307 2.3417687e-38
0.06110134 -0.10523017 0.033814412 2.3417687e-38
0.0629372 -0.10523017 0.033814412 2.3233299e-38
0.064773053 -0.10523017 0.033814412 2.3509886e-38
0.066608906 -0.10523017 0.033814412 2.3417333e-38
0.068444759 -0.10523017 0.033814412 2.3509886e-38
0.070280619 -0.10523017 0.033814412 2.341769e-38
0.072116479 -0.10523017 0.033814412 1.9822414e-38
0.075796902 -0.11558239 -0.0091259656 1.9545822e-38
0.07744129 -0.11414395 -0.0031594215 2.0652526e-38
0.07934197 -0.11414395 -0.0031594215 2.0283741e-38
0.081052601 -0.11319371 0.00078211445 2.2219852e-38
0.082946375 -0.11319371 0.00078211445 2.3141455e-38
0.084840149 -0.11319371 0.00078211445 1.2630798e-38
0.086733922 -0.11319371 0.00078211445 8.0210226e-39
0.088627696 -0.11319371 0.00078211445 8.6660361e-39
-0.095170572 -0.12357174 -0.034155983 7.9298948e-39
-0.09321554 -0.12357174 -0.034155983 1.0604644e-38
-0.091260508 -0.12357174 -0.034155983 1.8809699e-38
-0.08930549 -0.12357174 -0.034155983 2.3234372e-38
-0.087043047 -0.12285618 -0.031209368 2.3418047e-38
-0.084680215 -0.12187846 -0.027183075 2.3049624e-38
-0.082737401 -0.12187846 -0.027183075 2.341805e-38
-0.080494359 -0.12114246 -0.024152298 2.3325856e-38
-0.078556865 -0.12114246 -0.024152298 2.3509886e-38
-0.076619387 -0.12114246 -0.024152298 2.3509886e-38
-0.074681893 -0.12114246 -0.024152298 2.3509886e-38
-0.072378471 -0.12017711 -0.020176906 2.3509886e-38
-0.070447952 -0.12017711 -0.020176906 2.3509883e-38
-0.06816797 -0.11921866 -0.016230125 2.3509883e-38
-0.066244364 -0.11921866 -0.016230125 2.3509883e-38
-0.064320758 -0.11921866 -0.016230125 2.3509883e-38
-0.062397171 -0.11921866 -0.016230125 2.3509886e-38
-0.060473565 -0.11921866 -0.016230125 2.3509886e-38
-0.058303464 -0.11846836 -0.013140338 2.3509886e-38
-0.056385282 -0.11846836 -0.013140338 2.3509886e-38
-0.054467101 -0.11846836 -0.013140338 2.3509886e-38
-0.052249778 -0.11749353 -0.0091259656 2.3509886e-38
-0.050338645 -0.11749353 -0.0091259656 2.3509886e-38
-0.048427496 -0.11749353 -0.0091259656 2.3509886e-38
-0.046516348 -0.11749353 -0.0091259656 2.3509886e-38
-0.044605199 -0.11749353 -0.0091259656 2.3509886e-38
-0.042501215 -0.11678131 -0.0061930595 2.3509886e-38
-0.040595222 -0.11678131 -0.0061930595 2.3509886e-38
-0.038689215 -0.11678131 -0.0061930595 2.3509886e-38
-0.036783222 -0.11678131 -0.0061930595 2.3509886e-38
-0.034877215 -0.11678131 -0.0061930595 2.3509886e-38
-0.032971207 -0.11678131 -0.0061930595 2.3509886e-38
-0.030897666 -0.11604463 -0.0031594215 2.3509886e-38
-0.028996978 -0.11604463 -0.0031594215 2.3509886e-38
-0.02709629 -0.11604463 -0.0031594215 2.3509886e-38
-0.02519561 -0.11604463 -0.0031594215 2.3509886e-38
-0.023294929 -0.11604463 -0.0031594215 2.3509886e-38
-0.021211106 -0.11508749 0.00078211445 2.3509886e-38
-0.019317333 -0.11508749 0.00078211445 2.3509886e-38
-0.017423559 -0.11508749 0.00078211445 2.3509886e-38
-0.015529785 -0.11508749 0.00078211445 2.3509886e-38
-0.013517868 -0.1143602 0.0037770094 2.3509886e-38
-0.011629347 -0.1143602 0.0037770094 2.3509886e-38
-0.0097408257 -0.1143602 0.0037770094 2.3509886e-38
-0.0077153631 -0.11338757 0.0077823224 2.3509886e-38
-0.0058338642 -0.11338757 0.0077823224 2.3509886e-38
-0.0037679933 -0.11192839 0.013791186 2.3509886e-38
-0.0018970296 -0.11192839 0.013791186 2.3509886e-38
-0.00010595098 -0.11264218 0.010851842 2.3509886e-38
0.0017701685 -0.11264218 0.010851842 2.3509886e-38
0.0036462843 -0.11264218 0.010851842 2.3509886e-38
0.0055224039 -0.11264218 0.010851842 2.3509886e-38
0.0073985197 -0.11264218 0.010851842 2.3509886e-38
0.0092746355 -0.11264218 0.010851842 2.3509886e-38
0.011150751 -0.11264218 0.010851842 2.3509886e-38
0.013026867 -0.11264218 0.010851842 2.3509886e-38
0.014941636 -0.11192839 0.013791186 2.3509886e-38
0.016812604 -0.11192839 0.013791186 2.3509886e-38
0.018683564 -0.11192839 0.013791186 2.3509886e-38
0.020554528 -0.11192839 0.013791186 2.3509886e-38
0.022425491 -0.11192839 0.013791186 2.3509886e-38
0.024296455 -0.11192839 0.013791186 2.3509886e-38
0.026167417 -0.11192839 0.013791186 2.3509886e-38
0.028038381 -0.11192839 0.013791186 2.3509886e-38
0.0299058 -0.11094652 0.017834526 2.3509886e-38
0.031769674 -0.11094652 0.017834526 2.3509886e-38
0.033633545 -0.11094652 0.017834526 2.3509886e-38
0.035478935 -0.11021499 0.020846944 2.3509886e-38
0.037337527 -0.11021499 0.020846944 2.3509886e-38
0.039167233 -0.10948761 0.023842316 2.3509886e-38
0.041020572 -0.10948761 0.023842316 2.3509886e-38
0.042834748 -0.10876434 0.02682076 2.3509886e-38
0.044682868 -0.10876434 0.02682076 2.3509886e-38
0.046530984 -0.10876434 0.02682076 2.3509886e-38
0.048379101 -0.10876434 0.02682076 2.3509886e-38
0.050145466 -0.10777976 0.030875307 2.3509886e-38
0.051986478 -0.10777976 0.030875307 2.3509886e-38
0.053827487 -0.10777976 0.030875307 2.3509886e-38
0.055668496 -0.10777976 0.030875307 2.3509886e-38
0.057509504 -0.10777976 0.030875307 2.3509883e-38
0.059350513 -0.10777976 0.030875307 2.3417687e-38
0.06110134 -0.10706602 0.033814412 2.3509883e-38
0.0629372 -0.10706602 0.033814412 2.3325494e-38
0.064773053 -0.10706602 0.033814412 2.3509886e-38
0.066499978 -0.10633011 0.03684495 2.3417333e-38
0.068330526 -0.10633011 0.03684495 2.3509886e-38
0.070280619 -0.10706602 0.033814412 2.3509886e-38
0.073885761 -0.11749353 -0.0091259656 2.0099e-38
0.075796902 -0.11749353 -0.0091259656 1.9453627e-38
0.07744129 -0.11604463 -0.0031594215 2.0652526e-38
0.07934197 -0.11604463 -0.0031594215 2.0191548e-38
0.081052601 -0.11508749 0.00078211445 2.3141452e-38
0.082946375 -0.11508749 0.00078211445 2.350988e-38
0.084840149 -0.11508749 0.00078211445 1.4659105e-38
0.086733922 -0.11508749 0.00078211445 9.1270142e-39
0.088627696 -0.11508749 0.00078211445 8.3894492e-39
-0.094842508 -0.12480606 -0.031209368 6.9164631e-39
-0.092892647 -0.12480606 -0.031209368 1.2448557e-38
-0.090942785 -0.12480606 -0.031209368 2.1852155e-38
-0.088992923 -0.12480606 -0.031209368 2.3234372e-38
-0.087043047 -0.12480606 -0.031209368 2.3418047e-38
-0.084680215 -0.12382124 -0.027183075 2.3049624e-38
-0.082737401 -0.12382124 -0.027183075 2.341805e-38
-0.080494359 -0.12307997 -0.024152298 2.304927e-38
-0.078556865 -0.12307997 -0.024152298 2.3509886e-38
-0.076619387 -0.12307997 -0.024152298 2.3509886e-38
-0.074308991 -0.12210761 -0.020176906 2.3509886e-38
-0.072378471 -0.12210761 -0.020176906 2.3509886e-38
-0.070447952 -0.12210761 -0.020176906 2.3509883e-38
-0.06816797 -0.12114228 -0.016230125 2.3509883e-38
-0.066244364 -0.12114228 -0.016230125 2.3509883e-38
-0.064320758 -0.12114228 -0.016230125 2.3509883e-38
-0.062397171 -0.12114228 -0.016230125 2.3509886e-38
-0.060473565 -0.12114228 -0.016230125 2.3509886e-38
-0.058303464 -0.12038656 -0.013140338 2.3509886e-38
-0.056385282 -0.12038656 -0.013140338 2.3509886e-38
-0.054160926 -0.11940466 -0.0091259656 2.3509886e-38
-0.052249778 -0.11940466 -0.0091259656 2.3509886e-38
-0.05012523 -0.11868732 -0.0061930595 2.3509886e-38
-0.048219223 -0.11868732 -0.0061930595 2.3509886e-38
-0.04631323 -0.11868732 -0.0061930595 2.3509886e-38
-0.044407222 -0.11868732 -0.0061930595 2.3509886e-38
-0.042501215 -0.11868732 -0.0061930595 2.3509886e-38
-0.040595222 -0.11868732 -0.0061930595 2.3509886e-38
-0.038689215 -0.11868732 -0.0061930595 2.3509886e-38
-0.036783222 -0.11868732 -0.0061930595 2.3509886e-38
-0.034699026 -0.11794533 -0.0031594215 2.3509886e-38
-0.032798339 -0.11794533 -0.0031594215 2.3509886e-38
-0.030897666 -0.11794533 -0.0031594215 2.3509886e-38
-0.028996978 -0.11794533 -0.0031594215 2.3509886e-38
-0.02709629 -0.11794533 -0.0031594215 2.3509886e-38
-0.02519561 -0.11794533 -0.0031594215 2.3509886e-38
-0.02310488 -0.11698125 0.00078211445 2.3509886e-38
-0.021211106 -0.11698125 0.00078211445 2.3509886e-38
-0.019317333 -0.11698125 0.00078211445 2.3509886e-38
-0.017423559 -0.11698125 0.00078211445 2.3509886e-38
-0.015529785 -0.11698125 0.00078211445 2.3509886e-38
-0.013517868 -0.11624874 0.0037770094 2.3509886e-38
-0.011629347 -0.11624874 0.0037770094 2.3509886e-38
-0.0097408257 -0.11624874 0.0037770094 2.3509886e-38
-0.0077153631 -0.11526908 0.0077823224 2.3509886e-38
-0.0058338642 -0.11526908 0.0077823224 2.3509886e-38
-0.0037679933 -0.11379938 0.013791186 2.3509886e-38
-0.0018970296 -0.11379938 0.013791186 2.3509886e-38
-0.00010595098 -0.1145183 0.010851842 2.3509886e-38
0.0017701685 -0.1145183 0.010851842 2.3509886e-38
0.0036462843 -0.1145183 0.010851842 2.3509886e-38
0.0055224039 -0.1145183 0.010851842 2.3509886e-38
0.0073985197 -0.1145183 0.010851842 2.3509886e-38
0.0092746355 -0.1145183 0.010851842 2.3509886e-38
0.011150751 -0.1145183 0.010851842 2.3509886e-38
0.013070676 -0.11379938 0.013791186 2.3509886e-38
0.014941636 -0.11379938 0.013791186 2.3509886e-38
0.016812604 -0.11379938 0.013791186 2.3509886e-38
0.018683564 -0.11379938 0.013791186 2.3509886e-38
0.020554528 -0.11379938 0.013791186 2.3509886e-38
0.022425491 -0.11379938 0.013791186 2.3509886e-38
0.024296455 -0.11379938 0.013791186 2.3509886e-38
0.026178051 -0.11281042 0.017834526 2.3509886e-38
0.028041925 -0.11281042 0.017834526 2.3509886e-38
0.0299058 -0.11281042 0.017834526 2.3509886e-38
0.031769674 -0.11281042 0.017834526 2.3509886e-38
0.033633545 -0.11281042 0.017834526 2.3509886e-38
0.035478935 -0.11207359 0.020846944 2.3509886e-38
0.037313893 -0.11134095 0.023842316 2.3509886e-38
0.039167233 -0.11134095 0.023842316 2.3509886e-38
0.040986631 -0.11061247 0.02682076 2.3509886e-38
0.042834748 -0.11061247 0.02682076 2.3509886e-38
0.044682868 -0.11061247 0.02682076 2.3509886e-38
0.046530984 -0.11061247 0.02682076 2.3509886e-38
0.048379101 -0.11061247 0.02682076 2.3509886e-38
0.050145466 -0.10962076 0.030875307 2.3509886e-38
0.051986478 -0.10962076 0.030875307 2.3509886e-38
0.053827487 -0.10962076 0.030875307 2.3509886e-38
0.055668496 -0.10962076 0.030875307 2.3509886e-38
0.057509504 -0.10962076 0.030875307 2.3509883e-38
0.059350513 -0.10962076 0.030875307 2.3509883e-38
0.06110134 -0.10890187 0.033814412 2.350988e-38
0.0629372 -0.10890187 0.033814412 2.341769e-38
0.064773053 -0.10890187 0.033814412 2.3509886e-38
0.066499978 -0.10816063 0.03684495 2.3325138e-38
0.068330526 -0.10816063 0.03684495 2.3509886e-38
0.070161059 -0.10816063 0.03684495 2.3509886e-38
0.073885761 -0.11940466 -0.0091259656 2.0099e-38
0.075796902 -0.11940466 -0.0091259656 1.9269236e-38
0.07757692 -0.11868732 -0.0061930595 2.0652526e-38
0.07934197 -0.11794533 -0.0031594215 2.0283743e-38
0.081242651 -0.11794533 -0.0031594215 2.3509876e-38
0.083143339 -0.11794533 -0.0031594215 2.350988e-38
0.085044019 -0.11794533 -0.0031594215 1.5857648e-38
0.086944699 -0.11794533 -0.0031594215 9.2192099e-39
0.088845387 -0.11794533 -0.0031594215 6.2689497e-39
-0.094394237 -0.12576406 -0.027183075 5.7179199e-39
-0.092451423 -0.12576406 -0.027183075 1.4293188e-38
-0.090508625 -0.12576406 -0.027183075 2.3234372e-38
-0.088565826 -0.12576406 -0.027183075 2.3234372e-38
-0.086623013 -0.12576406 -0.027183075 2.3234376e-38
-0.084680215 -0.12576406 -0.027183075 2.2958507e-38
-0.082431853 -0.12501745 -0.024152298 2.341805e-38
-0.080494359 -0.12501745 -0.024152298 2.304927e-38
-0.078556865 -0.12501745 -0.024152298 2.341805e-38
-0.076619387 -0.12501745 -0.024152298 2.341805e-38
-0.074308991 -0.12403814 -0.020176906 2.3509886e-38
-0.072378471 -0.12403814 -0.020176906 2.3509886e-38
-0.070447952 -0.12403814 -0.020176906 2.3509883e-38
-0.06816797 -0.12306587 -0.016230125 2.3509883e-38
-0.066244364 -0.12306587 -0.016230125 2.3509883e-38
-0.064320758 -0.12306587 -0.016230125 2.3509883e-38
-0.062397171 -0.12306587 -0.016230125 2.3509886e-38
-0.060221661 -0.12230472 -0.013140338 2.3509886e-38
-0.058303464 -0.12230472 -0.013140338 2.3509886e-38
-0.056072075 -0.12131582 -0.0091259656 2.3509886e-38
-0.054160926 -0.12131582 -0.0091259656 2.3509886e-38
-0.052249778 -0.12131582 -0.0091259656 2.3509886e-38
-0.05012523 -0.12059332 -0.0061930595 2.3509886e-38
-0.048219223 -0.12059332 -0.0061930595 2.3509886e-38
-0.04631323 -0.12059332 -0.0061930595 2.3509886e-38
-0.044407222 -0.12059332 -0.0061930595 2.3509886e-38
-0.042501215 -0.12059332 -0.0061930595 2.3509886e-38
-0.040595222 -0.12059332 -0.0061930595 2.3509886e-38
-0.038689215 -0.12059332 -0.0061930595 2.3509886e-38
-0.036783222 -0.12059332 -0.0061930595 2.3509886e-38
-0.034699026 -0.119846 -0.0031594215 2.3509886e-38
-0.032798339 -0.119846 -0.0031594215 2.3509886e-38
-0.030897666 -0.119846 -0.0031594215 2.3509886e-38
-0.028996978 -0.119846 -0.0031594215 2.3509886e-38
-0.02709629 -0.119846 -0.0031594215 2.3509886e-38
-0.024998654 -0.11887501 0.00078211445 2.3509886e-38
-0.02310488 -0.11887501 0.00078211445 2.3509886e-38
-0.021211106 -0.11887501 0.00078211445 2.3509886e-38
-0.019317333 -0.11887501 0.00078211445 2.3509886e-38
-0.017423559 -0.11887501 0.00078211445 2.3509886e-38
-0.015529785 -0.11887501 0.00078211445 2.3509886e-38
-0.013517868 -0.11813726 0.0037770094 2.3509886e-38
-0.011629347 -0.11813726 0.0037770094 2.3509886e-38
-0.0097408257 -0.11813726 0.0037770094 2.3509886e-38
-0.0077153631 -0.11715056 0.0077823224 2.3509886e-38
-0.0058338642 -0.11715056 0.0077823224 2.3509886e-38
-0.0037679933 -0.11567034 0.013791186 2.3509886e-38
-0.0018970296 -0.11567034 0.013791186 2.3509886e-38
-0.00010595098 -0.11639442 0.010851842 2.3509886e-38
0.0017701685 -0.11639442 0.010851842 2.3509886e-38
0.0036462843 -0.11639442 0.010851842 2.3509886e-38
0.0055224039 -0.11639442 0.010851842 2.3509886e-38
0.0073985197 -0.11639442 0.010851842 2.3509886e-38
0.0092746355 -0.11639442 0.010851842 2.3509886e-38
0.011150751 -0.11639442 0.010851842 2.3509886e-38
0.013070676 -0.11567034 0.013791186 2.3509886e-38
0.014941636 -0.11567034 0.013791186 2.3509886e-38
0.016812604 -0.11567034 0.013791186 2.3509886e-38
0.018683564 -0.11567034 0.013791186 2.3509886e-38
0.020554528 -0.11567034 0.013791186 2.3509886e-38
0.022425491 -0.11567034 0.013791186 2.3509886e-38
0.024314178 -0.11467429 0.017834526 2.3509886e-38
0.026178051 -0.11467429 0.017834526 2.3509886e-38
0.028041925 -0.11467429 0.017834526 2.3509886e-38
0.029903159 -0.11393218 0.020846944 2.3509886e-38
0.031761751 -0.11393218 0.020846944 2.3509886e-38
0.033620343 -0.11393218 0.020846944 2.3509886e-38
0.035460554 -0.1131943 0.023842316 2.3509886e-38
0.037313893 -0.1131943 0.023842316 2.3509886e-38
0.039138511 -0.11246057 0.02682076 2.3509886e-38
0.040986631 -0.11246057 0.02682076 2.3509886e-38
0.042834748 -0.11246057 0.02682076 2.3509886e-38
0.044682868 -0.11246057 0.02682076 2.3509886e-38
0.046463449 -0.11146177 0.030875307 2.3509886e-38
0.048304457 -0.11146177 0.030875307 2.3509886e-38
0.050145466 -0.11146177 0.030875307 2.3509886e-38
0.051986478 -0.11146177 0.030875307 2.3509886e-38
0.053827487 -0.11146177 0.030875307 2.3509886e-38
0.055668496 -0.11146177 0.030875307 2.3509886e-38
0.057509504 -0.11146177 0.030875307 2.3509883e-38
0.059350513 -0.11146177 0.030875307 2.3509883e-38
0.06110134 -0.11073773 0.033814412 2.350988e-38
0.0629372 -0.11073773 0.033814412 2.3509886e-38
0.064773053 -0.11073773 0.033814412 2.3509886e-38
0.066499978 -0.10999118 0.03684495 2.314075e-38
0.068330526 -0.10999118 0.03684495 2.3509886e-38
0.070161059 -0.10999118 0.03684495 2.3325494e-38
0.073885761 -0.12131582 -0.0091259656 2.0006805e-38
0.075796902 -0.12131582 -0.0091259656 1.9914608e-38
0.07757692 -0.12059332 -0.0061930595 2.0559974e-38
0.07948292 -0.12059332 -0.0061930595 1.9914605e-38
0.081242651 -0.119846 -0.0031594215 2.3049259e-38
0.083143339 -0.119846 -0.0031594215 2.2956709e-38
0.085044019 -0.119846 -0.0031594215 1.714839e-38
0.086944699 -0.119846 -0.0031594215 1.1431906e-38
0.088845387 -0.119846 -0.0031594215 7.0987118e-39
0.090746067 -0.119846 -0.0031594215 7.467846e-39
-0.0940568 -0.12695493 -0.024152298 5.3491374e-39
-0.092119306 -0.12695493 -0.024152298 1.7059057e-38
-0.090181813 -0.12695493 -0.024152298 2.3234372e-38
-0.088244319 -0.12695493 -0.024152298 2.2866307e-38
-0.08630684 -0.12695493 -0.024152298 2.3234376e-38
-0.084369346 -0.12695493 -0.024152298 2.3050703e-38
-0.082031071 -0.12596865 -0.020176906 2.341805e-38
-0.080100551 -0.12596865 -0.020176906 2.3325856e-38
-0.078170031 -0.12596865 -0.020176906 2.341805e-38
-0.076239511 -0.12596865 -0.020176906 2.341805e-38
-0.074308991 -0.12596865 -0.020176906 2.3509886e-38
-0.072378471 -0.12596865 -0.020176906 2.3509886e-38
-0.07009156 -0.12498946 -0.016230125 2.3509883e-38
-0.06816797 -0.12498946 -0.016230125 2.3509883e-38
-0.066244364 -0.12498946 -0.016230125 2.3509883e-38
-0.064320758 -0.12498946 -0.016230125 2.3509883e-38
-0.062397171 -0.12498946 -0.016230125 2.3509886e-38
-0.060221661 -0.12422292 -0.013140338 2.3509886e-38
-0.058303464 -0.12422292 -0.013140338 2.3509886e-38
-0.056072075 -0.12322696 -0.0091259656 2.3509886e-38
-0.054160926 -0.12322696 -0.0091259656 2.3509886e-38
-0.052249778 -0.12322696 -0.0091259656 2.3509886e-38
-0.05012523 -0.1224993 -0.0061930595 2.3509886e-38
-0.048219223 -0.1224993 -0.0061930595 2.3509886e-38
-0.04631323 -0.1224993 -0.0061930595 2.3509886e-38
-0.044407222 -0.1224993 -0.0061930595 2.3509886e-38
-0.042501215 -0.1224993 -0.0061930595 2.3509886e-38
-0.040595222 -0.1224993 -0.0061930595 2.3509886e-38
-0.038689215 -0.1224993 -0.0061930595 2.3509886e-38
-0.036599714 -0.12174667 -0.0031594215 2.3509886e-38
-0.034699026 -0.12174667 -0.0031594215 2.3509886e-38
-0.032798339 -0.12174667 -0.0031594215 2.3509886e-38
-0.030897666 -0.12174667 -0.0031594215 2.3509886e-38
-0.028786201 -0.1207688 0.00078211445 2.3509886e-38
-0.026892427 -0.1207688 0.00078211445 2.3509886e-38
-0.024998654 -0.1207688 0.00078211445 2.3509886e-38
-0.02310488 -0.1207688 0.00078211445 2.3509886e-38
-0.021071959 -0.12002577 0.0037770094 2.3509886e-38
-0.019183431 -0.12002577 0.0037770094 2.3509886e-38
-0.017294917 -0.12002577 0.0037770094 2.3509886e-38
-0.015406389 -0.12002577 0.0037770094 2.3509886e-38
-0.013517868 -0.12002577 0.0037770094 2.3509886e-38
-0.011478361 -0.11903207 0.0077823224 2.3509886e-38
-0.0095968619 -0.11903207 0.0077823224 2.3509886e-38
-0.0076104179 -0.11827053 0.010851842 2.3509886e-38
-0.005638957 -0.1175413 0.013791186 2.3509886e-38
-0.00364393 -0.11653815 0.017834526 2.3509886e-38
-0.0017800592 -0.11653815 0.017834526 2.3509886e-38
-2.6065856e-05 -0.1175413 0.013791186 2.3509886e-38
0.0018448941 -0.1175413 0.013791186 2.3509886e-38
0.0036462843 -0.11827053 0.010851842 2.3509886e-38
0.0055224039 -0.11827053 0.010851842 2.3509886e-38
0.0073985197 -0.11827053 0.010851842 2.3509886e-38
0.0092746355 -0.11827053 0.010851842 2.3509886e-38
0.011150751 -0.11827053 0.010851842 2.3509886e-38
0.013070676 -0.1175413 0.013791186 2.3509886e-38
0.014941636 -0.1175413 0.013791186 2.3509886e-38
0.016812604 -0.1175413 0.013791186 2.3509886e-38
0.018683564 -0.1175413 0.013791186 2.3509886e-38
0.020554528 -0.1175413 0.013791186 2.3509886e-38
0.022450304 -0.11653815 0.017834526 2.3509886e-38
0.024314178 -0.11653815 0.017834526 2.3509886e-38
0.026178051 -0.11653815 0.017834526 2.3509886e-38
0.028044567 -0.11579077 0.020846944 2.3509886e-38
0.029903159 -0.11579077 0.020846944 2.3509886e-38
0.031761751 -0.11579077 0.020846944 2.3509886e-38
0.033620343 -0.11579077 0.020846944 2.3509886e-38
0.035442278 -0.1143087 0.02682076 2.3509886e-38
0.037290394 -0.1143087 0.02682076 2.3509886e-38
0.039138511 -0.1143087 0.02682076 2.3509886e-38
0.040986631 -0.1143087 0.02682076 2.3509886e-38
0.042834748 -0.1143087 0.02682076 2.3509886e-38
0.044682868 -0.1143087 0.02682076 2.3509886e-38
0.046463449 -0.11330278 0.030875307 2.3509886e-38
0.048304457 -0.11330278 0.030875307 2.3509886e-38
0.050145466 -0.11330278 0.030875307 2.3509886e-38
0.051986478 -0.11330278 0.030875307 2.3509886e-38
0.053827487 -0.11330278 0.030875307 2.3509886e-38
0.055668496 -0.11330278 0.030875307 2.3509886e-38
0.057429627 -0.11257361 0.033814412 2.3509883e-38
0.059265483 -0.11257361 0.033814412 2.3417687e-38
0.06110134 -0.11257361 0.033814412 2.350988e-38
0.0629372 -0.11257361 0.033814412 2.3509886e-38
0.064773053 -0.11257361 0.033814412 2.3509886e-38
0.066499978 -0.11182173 0.03684495 2.3048554e-38
0.068216935 -0.11107419 0.039858084 2.3417691e-38
0.070042193 -0.11107419 0.039858084 2.341769e-38
0.073885761 -0.12322696 -0.0091259656 2.0099e-38
0.075796902 -0.12322696 -0.0091259656 2.0191195e-38
0.077708051 -0.12322696 -0.0091259656 2.0375583e-38
0.07948292 -0.1224993 -0.0061930595 2.0191192e-38
0.081242651 -0.12174667 -0.0031594215 2.2496085e-38
0.083143339 -0.12174667 -0.0031594215 2.3048905e-38
0.085044019 -0.12174667 -0.0031594215 1.8162542e-38
0.087106928 -0.1224993 -0.0061930595 1.3368015e-38
0.089012936 -0.1224993 -0.0061930595 7.4674943e-39
-0.093614191 -0.12789918 -0.020176906 6.9164631e-39
-0.091683671 -0.12789918 -0.020176906 2.0931274e-38
-0.089753151 -0.12789918 -0.020176906 2.3142537e-38
-0.087822631 -0.12789918 -0.020176906 2.2682635e-38
-0.085892111 -0.12789918 -0.020176906 2.3234376e-38
-0.083961591 -0.12789918 -0.020176906 2.2958507e-38
-0.082031071 -0.12789918 -0.020176906 2.3234379e-38
-0.080100551 -0.12789918 -0.020176906 2.3234379e-38
-0.078170031 -0.12789918 -0.020176906 2.341805e-38
-0.076239511 -0.12789918 -0.020176906 2.341805e-38
-0.074308991 -0.12789918 -0.020176906 2.3509886e-38
-0.072378471 -0.12789918 -0.020176906 2.3509886e-38
-0.07009156 -0.12691309 -0.016230125 2.3509883e-38
-0.06816797 -0.12691309 -0.016230125 2.3509883e-38
-0.066244364 -0.12691309 -0.016230125 2.3509883e-38
-0.064320758 -0.12691309 -0.016230125 2.3509883e-38
-0.062139843 -0.12614109 -0.013140338 2.3509886e-38
-0.060221661 -0.12614109 -0.013140338 2.3509886e-38
-0.058303464 -0.12614109 -0.013140338 2.3509886e-38
-0.056385282 -0.12614109 -0.013140338 2.3509886e-38
-0.054160926 -0.12513812 -0.0091259656 2.3509886e-38
-0.052249778 -0.12513812 -0.0091259656 2.3509886e-38
-0.05012523 -0.12440531 -0.0061930595 2.3509886e-38
-0.048219223 -0.12440531 -0.0061930595 2.3509886e-38
-0.04631323 -0.12440531 -0.0061930595 2.3509886e-38
-0.044407222 -0.12440531 -0.0061930595 2.3509886e-38
-0.042501215 -0.12440531 -0.0061930595 2.3509886e-38
-0.040595222 -0.12440531 -0.0061930595 2.3509886e-38
-0.038500387 -0.12364738 -0.0031594215 2.3509886e-38
-0.036599714 -0.12364738 -0.0031594215 2.3509886e-38
-0.034699026 -0.12364738 -0.0031594215 2.3509886e-38
-0.032798339 -0.12364738 -0.0031594215 2.3509886e-38
-0.030679975 -0.12266256 0.00078211445 2.3509886e-38
-0.028786201 -0.12266256 0.00078211445 2.3509886e-38
-0.026892427 -0.12266256 0.00078211445 2.3509886e-38
-0.024849001 -0.12191428 0.0037770094 2.3509886e-38
-0.022960473 -0.12191428 0.0037770094 2.3509886e-38
-0.021071959 -0.12191428 0.0037770094 2.3509886e-38
-0.019183431 -0.12191428 0.0037770094 2.3509886e-38
-0.017294917 -0.12191428 0.0037770094 2.3509886e-38
-0.015406389 -0.12191428 0.0037770094 2.3509886e-38
-0.013517868 -0.12191428 0.0037770094 2.3509886e-38
-0.011478361 -0.12091358 0.0077823224 2.3509886e-38
-0.0095968619 -0.12091358 0.0077823224 2.3509886e-38
-0.0076104179 -0.12014665 0.010851842 2.3509886e-38
-0.005638957 -0.11941226 0.013791186 2.3509886e-38
-0.00364393 -0.11840202 0.017834526 2.3509886e-38
-0.0017800592 -0.11840202 0.017834526 2.3509886e-38
-2.6065856e-05 -0.11941226 0.013791186 2.3509886e-38
0.0018448941 -0.11941226 0.013791186 2.3509886e-38
0.0036462843 -0.12014665 0.010851842 2.3509886e-38
0.0055224039 -0.12014665 0.010851842 2.3509886e-38
0.0073985197 -0.12014665 0.010851842 2.3509886e-38
0.0092746355 -0.12014665 0.010851842 2.3509886e-38
0.011150751 -0.12014665 0.010851842 2.3509886e-38
0.013070676 -0.11941226 0.013791186 2.3509886e-38
0.014941636 -0.11941226 0.013791186 2.3509886e-38
0.016812604 -0.11941226 0.013791186 2.3509886e-38
0.018683564 -0.11941226 0.013791186 2.3509886e-38
0.020554528 -0.11941226 0.013791186 2.3509886e-38
0.022450304 -0.11840202 0.017834526 2.3509886e-38
0.024314178 -0.11840202 0.017834526 2.3509886e-38
0.026178051 -0.11840202 0.017834526 2.3509886e-38
0.028044567 -0.11764936 0.020846944 2.3509886e-38
0.029903159 -0.11764936 0.020846944 2.3509886e-38
0.031761751 -0.11764936 0.020846944 2.3509886e-38
0.033607215 -0.11690097 0.023842316 2.3509886e-38
0.035442278 -0.1161568 0.02682076 2.3509886e-38
0.037290394 -0.1161568 0.02682076 2.3509886e-38
0.039138511 -0.1161568 0.02682076 2.3509886e-38
0.040986631 -0.1161568 0.02682076 2.3509886e-38
0.042834748 -0.1161568 0.02682076 2.3509886e-38
0.044682868 -0.1161568 0.02682076 2.3509886e-38
0.046463449 -0.11514379 0.030875307 2.3509886e-38
0.048304457 -0.11514379 0.030875307 2.3509886e-38
0.050145466 -0.11514379 0.030875307 2.3509886e-38
0.051986478 -0.11514379 0.030875307 2.3509886e-38
0.053827487 -0.11514379 0.030875307 2.3509886e-38
0.055668496 -0.11514379 0.030875307 2.3509886e-38
0.057429627 -0.11440946 0.033814412 2.3509883e-38
0.059265483 -0.11440946 0.033814412 2.3325492e-38
0.06110134 -0.11440946 0.033814412 2.350988e-38
0.0629372 -0.11440946 0.033814412 2.3509886e-38
0.064669438 -0.11365227 0.03684495 2.3509886e-38
0.066499978 -0.11365227 0.03684495 2.314075e-38
0.068216935 -0.11289944 0.039858084 2.3509886e-38
0.070042193 -0.11289944 0.039858084 2.3509886e-38
0.071867451 -0.11289944 0.039858084 2.0559623e-38
0.075796902 -0.12513812 -0.0091259656 2.028339e-38
0.077708051 -0.12513812 -0.0091259656 2.0098996e-38
0.07948292 -0.12440531 -0.0061930595 2.0928757e-38
0.081242651 -0.12364738 -0.0031594215 2.240389e-38
0.083143339 -0.12364738 -0.0031594215 2.3417687e-38
0.085044019 -0.12364738 -0.0031594215 1.8531324e-38
0.087106928 -0.12440531 -0.0061930595 1.4382169e-38
0.089012936 -0.12440531 -0.0061930595 6.9143205e-39
-0.093614191 -0.12982969 -0.020176906 9.1284379e-39
-0.091683671 -0.12982969 -0.020176906 2.3234372e-38
-0.089753151 -0.12982969 -0.020176906 2.3234372e-38
-0.087822631 -0.12982969 -0.020176906 2.30507e-38
-0.085892111 -0.12982969 -0.020176906 2.3234376e-38
-0.083961591 -0.12982969 -0.020176906 2.2958507e-38
-0.082031071 -0.12982969 -0.020176906 2.3326213e-38
-0.080100551 -0.12982969 -0.020176906 2.341805e-38
-0.077785969 -0.12883668 -0.016230125 2.341805e-38
-0.075862363 -0.12883668 -0.016230125 2.341805e-38
-0.074308991 -0.12982969 -0.020176906 2.3509886e-38
-0.072015166 -0.12883668 -0.016230125 2.3509886e-38
-0.07009156 -0.12883668 -0.016230125 2.3509886e-38
-0.067894384 -0.12805928 -0.013140338 2.3509883e-38
-0.065976202 -0.12805928 -0.013140338 2.3509527e-38
-0.064058021 -0.12805928 -0.013140338 2.3509527e-38
-0.062139843 -0.12805928 -0.013140338 2.3509886e-38
-0.060221661 -0.12805928 -0.013140338 2.3509886e-38
-0.058303464 -0.12805928 -0.013140338 2.3509886e-38
-0.056385282 -0.12805928 -0.013140338 2.3509886e-38
-0.054160926 -0.12704925 -0.0091259656 2.3509886e-38
-0.052249778 -0.12704925 -0.0091259656 2.3509886e-38
-0.05012523 -0.12631132 -0.0061930595 2.3509886e-38
-0.048219223 -0.12631132 -0.0061930595 2.3509886e-38
-0.04631323 -0.12631132 -0.0061930595 2.3509886e-38
-0.044407222 -0.12631132 -0.0061930595 2.3509886e-38
-0.042301763 -0.12554805 -0.0031594215 2.3509886e-38
-0.040401075 -0.12554805 -0.0031594215 2.3509886e-38
-0.038500387 -0.12554805 -0.0031594215 2.3509886e-38
-0.036361281 -0.12455635 0.00078211445 2.3509886e-38
-0.034467507 -0.12455635 0.00078211445 2.3509886e-38
-0.032573741 -0.12455635 0.00078211445 2.3509886e-38
-0.030679975 -0.12455635 0.00078211445 2.3509886e-38
-0.028786201 -0.12455635 0.00078211445 2.3509886e-38
-0.026892427 -0.12455635 0.00078211445 2.3509886e-38
-0.024849001 -0.12380283 0.0037770094 2.3509886e-38
-0.022960473 -0.12380283 0.0037770094 2.3509886e-38
-0.021071959 -0.12380283 0.0037770094 2.3509886e-38
-0.019183431 -0.12380283 0.0037770094 2.3509886e-38
-0.017294917 -0.12380283 0.0037770094 2.3509886e-38
-0.015406389 -0.12380283 0.0037770094 2.3509886e-38
-0.013359863 -0.12279506 0.0077823224 2.3509886e-38
-0.011478361 -0.12279506 0.0077823224 2.3509886e-38
-0.0095968619 -0.12279506 0.0077823224 2.3509886e-38
-0.0076104179 -0.12202276 0.010851842 2.3509886e-38
-0.005638957 -0.12128322 0.013791186 2.3509886e-38
-0.00364393 -0.12026589 0.017834526 2.3509886e-38
-0.0017800592 -0.12026589 0.017834526 2.3509886e-38
-2.6065856e-05 -0.12128322 0.013791186 2.3509886e-38
0.0018448941 -0.12128322 0.013791186 2.3509886e-38
0.0036462843 -0.12202276 0.010851842 2.3509886e-38
0.0055224039 -0.12202276 0.010851842 2.3509886e-38
0.0073985197 -0.12202276 0.010851842 2.3509886e-38
0.0092746355 -0.12202276 0.010851842 2.3509886e-38
0.011150751 -0.12202276 0.010851842 2.3509886e-38
0.013070676 -0.12128322 0.013791186 2.3509886e-38
0.014941636 -0.12128322 0.013791186 2.3509886e-38
0.016812604 -0.12128322 0.013791186 2.3509886e-38
0.018683564 -0.12128322 0.013791186 2.3509886e-38
0.020586431 -0.12026589 0.017834526 2.3509886e-38
0.022450304 -0.12026589 0.017834526 2.3509886e-38
0.024327382 -0.11950795 0.020846944 2.3509886e-38
0.026185974 -0.11950795 0.020846944 2.3509886e-38
0.028044567 -0.11950795 0.020846944 2.3509886e-38
0.029900532 -0.11875431 0.023842316 2.3509886e-38
0.031753875 -0.11875431 0.023842316 2.3509886e-38
0.033607215 -0.11875431 0.023842316 2.3509886e-38
0.035442278 -0.11800493 0.02682076 2.3509886e-38
0.037290394 -0.11800493 0.02682076 2.3509886e-38
0.039138511 -0.11800493 0.02682076 2.3509886e-38
0.040986631 -0.11800493 0.02682076 2.3509886e-38
0.042834748 -0.11800493 0.02682076 2.3509886e-38
0.044682868 -0.11800493 0.02682076 2.3509886e-38
0.046463449 -0.1169848 0.030875307 2.3509886e-38
0.048304457 -0.1169848 0.030875307 2.3509886e-38
0.050145466 -0.1169848 0.030875307 2.3509886e-38
0.051986478 -0.1169848 0.030875307 2.3509886e-38
0.053827487 -0.1169848 0.030875307 2.3509886e-38
0.055593774 -0.11624531 0.033814412 2.3509886e-38
0.057429627 -0.11624531 0.033814412 2.3509886e-38
0.059265483 -0.11624531 0.033814412 2.31411e-38
0.06110134 -0.11624531 0.033814412 2.3509883e-38
0.0629372 -0.11624531 0.033814412 2.3509883e-38
0.064669438 -0.11548282 0.03684495 2.3509886e-38
0.066391677 -0.11472471 0.039858084 2.3233302e-38
0.068216935 -0.11472471 0.039858084 2.3509886e-38
0.070042193 -0.11472471 0.039858084 2.3509886e-38
0.071867451 -0.11472471 0.039858084 2.0928405e-38
0.075796902 -0.12704925 -0.0091259656 2.092876e-38
0.077708051 -0.12704925 -0.0091259656 2.0191192e-38
0.07948292 -0.12631132 -0.0061930595 2.1113148e-38
0.081242651 -0.12554805 -0.0031594215 2.175852e-38
0.083143339 -0.12554805 -0.0031594215 2.3233296e-38
0.085044019 -0.12554805 -0.0031594215 1.8715713e-38
0.087106928 -0.12631132 -0.0061930595 1.5672904e-38
0.089012936 -0.12631132 -0.0061930595 7.7440798e-39
-0.093614191 -0.13176022 -0.020176906 1.0971633e-38
-0.091683671 -0.13176022 -0.020176906 2.3418045e-38
-0.089753151 -0.13176022 -0.020176906 2.3141816e-38
-0.087822631 -0.13176022 -0.020176906 2.2957428e-38
-0.085892111 -0.13176022 -0.020176906 2.3418047e-38
-0.083961591 -0.13176022 -0.020176906 2.3049624e-38
-0.082031071 -0.13176022 -0.020176906 2.3509886e-38
-0.080100551 -0.13176022 -0.020176906 2.3325494e-38
-0.077785969 -0.13076027 -0.016230125 2.3509886e-38
-0.075862363 -0.13076027 -0.016230125 2.3509886e-38
-0.074308991 -0.13176022 -0.020176906 2.3509886e-38
-0.072015166 -0.13076027 -0.016230125 2.3509886e-38
-0.07009156 -0.13076027 -0.016230125 2.3509886e-38
-0.067894384 -0.12997745 -0.013140338 2.3509886e-38
-0.065976202 -0.12997745 -0.013140338 2.3509886e-38
-0.064058021 -0.12997745 -0.013140338 2.3509886e-38
-0.062139843 -0.12997745 -0.013140338 2.3509886e-38
-0.060221661 -0.12997745 -0.013140338 2.3509886e-38
-0.058303464 -0.12997745 -0.013140338 2.3509886e-38
-0.056385282 -0.12997745 -0.013140338 2.3509886e-38
-0.054160926 -0.12896039 -0.0091259656 2.3509886e-38
-0.052249778 -0.12896039 -0.0091259656 2.3509886e-38
-0.050338645 -0.12896039 -0.0091259656 2.3509886e-38
-0.048219223 -0.12821732 -0.0061930595 2.3509886e-38
-0.04631323 -0.12821732 -0.0061930595 2.3509886e-38
-0.044407222 -0.12821732 -0.0061930595 2.3509886e-38
-0.042301763 -0.12744872 -0.0031594215 2.3509886e-38
-0.040401075 -0.12744872 -0.0031594215 2.3509886e-38
-0.038500387 -0.12744872 -0.0031594215 2.3509886e-38
-0.036361281 -0.12645011 0.00078211445 2.3509886e-38
-0.034467507 -0.12645011 0.00078211445 2.3509886e-38
-0.032573741 -0.12645011 0.00078211445 2.3509886e-38
-0.030514557 -0.12569134 0.0037770094 2.3509886e-38
-0.028626043 -0.12569134 0.0037770094 2.3509886e-38
-0.026737515 -0.12569134 0.0037770094 2.3509886e-38
-0.024849001 -0.12569134 0.0037770094 2.3509886e-38
-0.022960473 -0.12569134 0.0037770094 2.3509886e-38
-0.021071959 -0.12569134 0.0037770094 2.3509886e-38
-0.019183431 -0.12569134 0.0037770094 2.3509886e-38
-0.017294917 -0.12569134 0.0037770094 2.3509886e-38
-0.015406389 -0.12569134 0.0037770094 2.3509886e-38
-0.013359863 -0.12467657 0.0077823224 2.3509886e-38
-0.01136265 -0.12389888 0.010851842 2.3509886e-38
-0.0094865337 -0.12389888 0.010851842 2.3509886e-38
-0.0076104179 -0.12389888 0.010851842 2.3509886e-38
-0.005638957 -0.12315418 0.013791186 2.3509886e-38
-0.00364393 -0.12212978 0.017834526 2.3509886e-38
-0.0017800592 -0.12212978 0.017834526 2.3509886e-38
-2.6065856e-05 -0.12315418 0.013791186 2.3509886e-38
0.0018448941 -0.12315418 0.013791186 2.3509886e-38
0.0036462843 -0.12389888 0.010851842 2.3509886e-38
0.0055224039 -0.12389888 0.010851842 2.3509886e-38
0.0074577853 -0.12315418 0.013791186 2.3509886e-38
0.009328749 -0.12315418 0.013791186 2.3509886e-38
0.011199713 -0.12315418 0.013791186 2.3509886e-38
0.013070676 -0.12315418 0.013791186 2.3509886e-38
0.014941636 -0.12315418 0.013791186 2.3509886e-38
0.016812604 -0.12315418 0.013791186 2.3509886e-38
0.018722557 -0.12212978 0.017834526 2.3509886e-38
0.020586431 -0.12212978 0.017834526 2.3509886e-38
0.022450304 -0.12212978 0.017834526 2.3509886e-38
0.024327382 -0.12136655 0.020846944 2.3509886e-38
0.026185974 -0.12136655 0.020846944 2.3509886e-38
0.028047193 -0.12060766 0.023842316 2.3509886e-38
0.029900532 -0.12060766 0.023842316 2.3509886e-38
0.031753875 -0.12060766 0.023842316 2.3509886e-38
0.033607215 -0.12060766 0.023842316 2.3509886e-38
0.035442278 -0.11985306 0.02682076 2.3509886e-38
0.037290394 -0.11985306 0.02682076 2.3509886e-38
