# .PCD v0.7 - Point Cloud Data file format
VERSION 0.7
FIELDS x y z rgb
SIZE 4 4 4 4
TYPE F F F F
COUNT 1 1 1 1
WIDTH 402
HEIGHT 1
VIEWPOINT 0 0 0 1 0 0 0
POINTS 402
DATA ascii
0.0028083604 -0.11022164 -0.048000731 2.3509527e-38
0.0047511645 -0.11022164 -0.048000731 2.3048189e-38
0.0066459589 -0.10767709 -0.037047781 2.3509886e-38
0.0085695591 -0.10767709 -0.037047781 2.341805e-38
0.00087786652 -0.10887744 -0.033957995 2.3509886e-38
0.0027960483 -0.10887744 -0.033957995 2.3232583e-38
0.0047327373 -0.11052449 -0.040994562 2.3509527e-38
0.0066459589 -0.10960068 -0.037047781 2.3509886e-38
0.0085695591 -0.10960068 -0.037047781 2.341805e-38
0.01049316 -0.10960068 -0.037047781 2.341805e-38
-0.0048340503 -0.10915731 -0.027010718 2.341805e-38
-0.0029280484 -0.10915731 -0.027010718 2.341805e-38
-0.0010220464 -0.10915731 -0.027010718 2.3509527e-38
0.00088138506 -0.10984896 -0.029943625 2.3509886e-38
0.0027960483 -0.11079563 -0.033957995 2.3509168e-38
0.0047223587 -0.11152427 -0.037047781 2.3509527e-38
0.0066632591 -0.11245503 -0.040994562 2.3325494e-38
0.0085937791 -0.11245503 -0.040994562 2.341805e-38
0.0105243 -0.11245503 -0.040994562 2.3233662e-38
-0.0048340503 -0.11106332 -0.027010718 2.341805e-38
-0.0029280484 -0.11106332 -0.027010718 2.341805e-38
-0.0010220464 -0.11106332 -0.027010718 2.3509527e-38
0.00088138506 -0.11176009 -0.029943625 2.3509886e-38
0.0027960483 -0.1127138 -0.033957995 2.3509527e-38
0.0047142319 -0.1127138 -0.033957995 2.3509527e-38
0.0066632591 -0.11438553 -0.040994562 2.2864516e-38
0.0085937791 -0.11438553 -0.040994562 2.341805e-38
0.0105243 -0.11438553 -0.040994562 2.3325856e-38
-0.011892112 -0.10266902 0.016027292 2.3509886e-38
-0.010061568 -0.10266902 0.016027292 2.3509886e-38
-0.0048340503 -0.11296929 -0.027010718 2.341805e-38
-0.0029280484 -0.11296929 -0.027010718 2.341805e-38
-0.0010220464 -0.11296929 -0.027010718 2.341805e-38
0.00088138506 -0.11367123 -0.029943625 2.3509886e-38
0.0027925298 -0.11367123 -0.029943625 2.3509527e-38
0.0047142319 -0.114632 -0.033957995 2.3509883e-38
0.0066632591 -0.11631607 -0.040994562 2.3509886e-38
0.0085937791 -0.11631607 -0.040994562 2.341805e-38
0.0105243 -0.11631607 -0.040994562 2.341805e-38
-0.015387608 -0.10210292 0.025968393 2.3141092e-38
-0.013574498 -0.10210292 0.025968393 2.350988e-38
-0.011852486 -0.10377313 0.019040426 2.3509886e-38
-0.010061568 -0.10449956 0.016027292 2.3509527e-38
-0.0082310252 -0.10449956 0.016027292 2.3509527e-38
-0.0067161173 -0.11414395 -0.02397708 2.341805e-38
-0.004815435 -0.11414395 -0.02397708 2.341805e-38
-0.0029147509 -0.11414395 -0.02397708 2.341805e-38
-0.0010140669 -0.11414395 -0.02397708 2.341805e-38
0.00088138506 -0.11558239 -0.029943625 2.341805e-38
0.0027925298 -0.11558239 -0.029943625 2.3509883e-38
0.0047142319 -0.11655019 -0.033957995 2.3509883e-38
0.0066632591 -0.11824657 -0.040994562 2.3509886e-38
0.0085937791 -0.11824657 -0.040994562 2.341805e-38
-0.015387608 -0.10391603 0.025968393 2.3509153e-38
-0.013574498 -0.10391603 0.025968393 2.3509879e-38
-0.011813091 -0.10487093 0.022036156 2.3509527e-38
-0.010061568 -0.10633011 0.016027292 2.3509527e-38
-0.0082602482 -0.10706602 0.012996754 2.3509527e-38
-0.0064243935 -0.10706602 0.012996754 2.341805e-38
-0.004815435 -0.11604463 -0.02397708 2.341805e-38
-0.0028843451 -0.1143602 -0.017040649 2.3234379e-38
-0.00099582411 -0.1143602 -0.017040649 2.3234379e-38
0.00088395551 -0.11678131 -0.027010718 2.3234376e-38
0.0027899593 -0.11678131 -0.027010718 2.3509883e-38
0.0047142319 -0.11846836 -0.033957995 2.3509883e-38
0.0066806842 -0.12114246 -0.044969954 2.3509886e-38
0.0086181751 -0.12114246 -0.044969954 2.341805e-38
-0.015336616 -0.10498036 0.029029807 2.3509869e-38
-0.01352887 -0.10498036 0.029029807 2.3508795e-38
-0.011761384 -0.10572915 0.025968393 2.3509524e-38
-0.010027228 -0.10742365 0.019040426 2.3509527e-38
-0.0082310252 -0.10816063 0.016027292 2.3509527e-38
-0.0064004827 -0.10816063 0.016027292 2.341805e-38
-0.0046497341 -0.11134095 0.0030246582 2.341805e-38
-0.0028843451 -0.11624874 -0.017040649 2.3234379e-38
-0.00099582411 -0.11624874 -0.017040649 2.3142541e-38
0.00088661537 -0.11794533 -0.02397708 2.3234374e-38
0.0027872995 -0.11794533 -0.02397708 2.3509883e-38
0.0047223587 -0.12114228 -0.037047781 2.3509883e-38
0.0066939685 -0.12382124 -0.048000731 2.3509886e-38
0.0086367745 -0.12382124 -0.048000731 2.341805e-38
-0.015287669 -0.10606419 0.031968437 2.3509866e-38
-0.013485076 -0.10606419 0.031968437 2.350879e-38
-0.011682482 -0.10606419 0.031968437 2.3509521e-38
-0.0099930856 -0.10851096 0.022036156 2.3509168e-38
-0.0082310252 -0.10999118 0.016027292 2.3509168e-38
-0.0064004827 -0.10999118 0.016027292 2.341805e-38
-0.0046497341 -0.1131943 0.0030246582 2.341805e-38
-0.0027963929 -0.1131943 0.0030246582 2.3234379e-38
-0.0010140669 -0.119846 -0.02397708 2.3142538e-38
0.00088661537 -0.119846 -0.02397708 2.3142537e-38
0.0027872995 -0.119846 -0.02397708 2.350988e-38
0.0047223587 -0.12306587 -0.037047781 2.3509883e-38
0.0066324156 -0.12230472 -0.033957995 2.3509886e-38
0.0085505983 -0.12230472 -0.033957995 2.341805e-38
0.012386965 -0.12230472 -0.033957995 2.3234379e-38
-0.018650936 -0.10489015 0.043966256 1.2444218e-38
-0.016869383 -0.10489015 0.043966256 2.1203163e-38
-0.015087822 -0.10489015 0.043966256 2.3509863e-38
-0.013439981 -0.10711606 0.034994327 2.3509869e-38
-0.011682482 -0.10786678 0.031968437 2.3509161e-38
-0.0099930856 -0.11033095 0.022036156 2.3509527e-38
-0.0082019698 -0.11107419 0.019040426 2.3509168e-38
-0.0064004827 -0.11182173 0.016027292 2.3509527e-38
-0.0047114138 -0.1175413 -0.0070264731 2.341805e-38
-0.00284045 -0.1175413 -0.0070264731 2.3142541e-38
-0.00097721815 -0.11827053 -0.0099658165 2.3142537e-38
0.00089007057 -0.1207688 -0.020035544 2.3142537e-38
0.0027838442 -0.1207688 -0.020035544 2.350988e-38
0.0046879817 -0.12174667 -0.02397708 2.3509883e-38
0.0065886658 -0.12174667 -0.02397708 2.3509886e-38
0.0085505983 -0.12422292 -0.033957995 2.341805e-38
0.010468782 -0.12422292 -0.033957995 2.341805e-38
-0.018650936 -0.10667174 0.043966256 1.1429345e-38
-0.016869383 -0.10667174 0.043966256 1.8436932e-38
-0.015087822 -0.10667174 0.043966256 2.3322229e-38
-0.013395147 -0.10816176 0.038002573 2.350951e-38
-0.011682482 -0.10966937 0.031968437 2.3509161e-38
-0.0099482704 -0.11116849 0.025968393 2.3509168e-38
-0.0082019698 -0.11289944 0.019040426 2.3509168e-38
-0.0063767079 -0.11289944 0.019040426 2.3509527e-38
-0.0047114138 -0.11941226 -0.0070264731 2.341805e-38
-0.00284045 -0.11941226 -0.0070264731 2.3142541e-38
-0.00097721815 -0.12014665 -0.0099658165 2.3142537e-38
0.00089007057 -0.12266256 -0.020035544 2.3142534e-38
0.0027838442 -0.12266256 -0.020035544 2.350988e-38
0.0046879817 -0.12364738 -0.02397708 2.3509883e-38
0.0065886658 -0.12364738 -0.02397708 2.3509886e-38
0.0085079651 -0.12440531 -0.027010718 2.341805e-38
-0.018650936 -0.10845329 0.043966256 1.0415559e-38
-0.016869383 -0.10845329 0.043966256 1.6131688e-38
-0.015087822 -0.10845329 0.043966256 2.1940017e-38
-0.013395147 -0.10995375 0.038002573 2.350807e-38
-0.011682482 -0.11147197 0.031968437 2.3509161e-38
-0.0099482704 -0.1129816 0.025968393 2.3509165e-38
-0.0082019698 -0.11472471 0.019040426 2.3509168e-38
-0.0063767079 -0.11472471 0.019040426 2.3509527e-38
-0.0047294516 -0.12202276 -0.0099658165 2.341805e-38
-0.0028533358 -0.12202276 -0.0099658165 2.3234376e-38
-0.00097721815 -0.12202276 -0.0099658165 2.3142538e-38
0.00089007057 -0.12455635 -0.020035544 2.3234372e-38
0.0027838442 -0.12455635 -0.020035544 2.3509883e-38
0.0046879817 -0.12554805 -0.02397708 2.3509883e-38
0.0066019632 -0.12631132 -0.027010718 2.3509886e-38
0.0085079651 -0.12631132 -0.027010718 2.3509886e-38
0.010413968 -0.12631132 -0.027010718 2.341805e-38
0.012522384 -0.13159247 -0.048000731 2.3234379e-38
0.014465189 -0.13159247 -0.048000731 2.3234379e-38
-0.010027228 -0.11654995 0.019040426 2.350952e-38
-0.0082019698 -0.11654995 0.019040426 2.3508804e-38
-0.0063767079 -0.11654995 0.019040426 2.3509527e-38
-0.0047482885 -0.12467657 -0.013035337 2.3509886e-38
-0.0028667897 -0.12467657 -0.013035337 2.341805e-38
-0.00098529086 -0.12467657 -0.013035337 2.3049626e-38
0.00089007057 -0.12645011 -0.020035544 2.341805e-38
0.0027838442 -0.12645011 -0.020035544 2.3509886e-38
0.0046879817 -0.12744872 -0.02397708 2.3509527e-38
0.0066019632 -0.12821732 -0.027010718 2.3509886e-38
0.0085079651 -0.12821732 -0.027010718 2.3509886e-38
0.010579579 -0.13353528 -0.048000731 2.3509886e-38
0.012522384 -0.13353528 -0.048000731 2.341805e-38
0.014465189 -0.13353528 -0.048000731 2.341805e-38
-0.010061568 -0.11914389 0.016027292 2.3509517e-38
-0.0082310252 -0.11914389 0.016027292 2.3509521e-38
-0.0064004827 -0.11914389 0.016027292 2.3417324e-38
-0.0047482885 -0.12655805 -0.013035337 2.3416971e-38
-0.0028667897 -0.12655805 -0.013035337 2.3509886e-38
-0.00098529086 -0.12655805 -0.013035337 2.341805e-38
0.00089007057 -0.1283439 -0.020035544 2.341805e-38
0.0027872995 -0.12934943 -0.02397708 2.3509527e-38
0.0046879817 -0.12934943 -0.02397708 2.3509527e-38
0.0066019632 -0.13012333 -0.027010718 2.3509886e-38
0.0085079651 -0.13012333 -0.027010718 2.3509886e-38
0.010579579 -0.13547809 -0.048000731 2.3509886e-38
0.012522384 -0.13547809 -0.048000731 2.3509886e-38
0.014465189 -0.13547809 -0.048000731 2.3418047e-38
0.016407993 -0.13547809 -0.048000731 2.3418047e-38
-0.010096105 -0.12175287 0.012996754 2.3509517e-38
-0.0082602482 -0.12175287 0.012996754 2.3509521e-38
-0.0064243935 -0.12175287 0.012996754 2.350952e-38
-0.0045885388 -0.12175287 0.012996754 2.3048189e-38
-0.0028667897 -0.12843956 -0.013035337 2.3509886e-38
-0.00098529086 -0.12843956 -0.013035337 2.341805e-38
0.00089007057 -0.13023765 -0.020035544 2.3233662e-38
0.0027872995 -0.1312501 -0.02397708 2.3509527e-38
0.0046879817 -0.1312501 -0.02397708 2.3509527e-38
0.0066019632 -0.13202934 -0.027010718 2.3509886e-38
0.0085079651 -0.13202934 -0.027010718 2.3509886e-38
0.010611346 -0.13845511 -0.052027024 2.3509886e-38
0.012522384 -0.13742088 -0.048000731 2.3509886e-38
0.014465189 -0.13742088 -0.048000731 2.3418047e-38
0.016407993 -0.13742088 -0.048000731 2.3418047e-38
-0.010061568 -0.12280498 0.016027292 2.3415881e-38
-0.0082310252 -0.12280498 0.016027292 2.3509879e-38
-0.0064243935 -0.12358873 0.012996754 2.350988e-38
-0.0045699403 -0.12280498 0.016027292 2.3417327e-38
-0.0027393978 -0.12280498 0.016027292 2.3509886e-38
-0.00098529086 -0.13032107 -0.013035337 2.341805e-38
0.00089007057 -0.13213144 -0.020035544 2.2957075e-38
0.0027872995 -0.13315077 -0.02397708 2.3509886e-38
0.0046879817 -0.13315077 -0.02397708 2.3509527e-38
0.0066019632 -0.13393532 -0.027010718 2.3509886e-38
0.0085079651 -0.13393532 -0.027010718 2.3509886e-38
0.010611346 -0.14040495 -0.052027024 2.3509886e-38
0.012522384 -0.13936369 -0.048000731 2.3509886e-38
0.014465189 -0.13936369 -0.048000731 2.3418047e-38
0.016499687 -0.141167 -0.05497364 2.3418047e-38
0.018515479 -0.14222141 -0.059050716 2.3141819e-38
-0.010061568 -0.12463553 0.016027292 2.3509153e-38
-0.0082310252 -0.12463553 0.016027292 2.3509158e-38
-0.0064243935 -0.12542458 0.012996754 2.350988e-38
-0.0045699403 -0.12463553 0.016027292 2.3509883e-38
-0.0027393978 -0.12463553 0.016027292 2.341769e-38
-0.00099582411 -0.13324542 -0.017040649 2.3325856e-38
0.0008926969 -0.13324542 -0.017040649 2.3141466e-38
0.0027838442 -0.1340252 -0.020035544 2.3509886e-38
0.0046776161 -0.1340252 -0.020035544 2.3509886e-38
0.0066148192 -0.13660498 -0.029943625 2.3509886e-38
0.0085259639 -0.13660498 -0.029943625 2.3509886e-38
0.010611346 -0.14235483 -0.052027024 2.3509886e-38
0.012522384 -0.1413065 -0.048000731 2.3509886e-38
0.014465189 -0.1413065 -0.048000731 2.3509883e-38
0.016499687 -0.14312203 -0.05497364 2.3509883e-38
0.018454717 -0.14312203 -0.05497364 2.3418047e-38
-0.010061568 -0.12646608 0.016027292 2.3509873e-38
-0.0082310252 -0.12646608 0.016027292 2.3509876e-38
-0.0064243935 -0.12726043 0.012996754 2.3232933e-38
-0.0045885388 -0.12726043 0.012996754 2.3509883e-38
-0.0027526822 -0.12726043 0.012996754 2.3233299e-38
-0.00099582411 -0.13513394 -0.017040649 2.2957078e-38
0.0008926969 -0.13513394 -0.017040649 2.341805e-38
0.0027812179 -0.13513394 -0.017040649 2.3509886e-38
0.0046697389 -0.13513394 -0.017040649 2.3509886e-38
0.0065582599 -0.13513394 -0.017040649 2.3509886e-38
0.0086614825 -0.14430468 -0.052027024 2.3509886e-38
0.010611346 -0.14430468 -0.052027024 2.3509886e-38
0.01256121 -0.14430468 -0.052027024 2.3509886e-38
0.014511075 -0.14430468 -0.052027024 2.3509883e-38
0.016499687 -0.14507706 -0.05497364 2.3509883e-38
0.018454717 -0.14507706 -0.05497364 2.3418047e-38
0.020409748 -0.14507706 -0.05497364 2.2680841e-38
-0.0081730802 -0.126711 0.022036156 2.3509876e-38
-0.0063530728 -0.126711 0.022036156 2.286415e-38
-0.0045514498 -0.1275015 0.019040426 2.3509883e-38
-0.0027261917 -0.1275015 0.019040426 2.3509886e-38
-0.00098529086 -0.13596557 -0.013035337 2.2772686e-38
0.00089620799 -0.13596557 -0.013035337 2.341805e-38
0.0027750153 -0.13515557 -0.0099658165 2.3509886e-38
0.004651133 -0.13515557 -0.0099658165 2.3509886e-38
0.0065272506 -0.13515557 -0.0099658165 2.3509886e-38
0.0086614825 -0.14625455 -0.052027024 2.3509886e-38
0.010611346 -0.14625455 -0.052027024 2.3509886e-38
0.01256121 -0.14625455 -0.052027024 2.3509886e-38
0.014544657 -0.1470321 -0.05497364 2.3509883e-38
0.016499687 -0.1470321 -0.05497364 2.3509883e-38
0.018454717 -0.1470321 -0.05497364 2.3233296e-38
0.020409748 -0.1470321 -0.05497364 2.2403535e-38
0.022364778 -0.1470321 -0.05497364 2.0836565e-38
-0.0080772992 -0.12589271 0.031968437 2.3509876e-38
-0.0062747076 -0.12589271 0.031968437 2.2771955e-38
-0.0045514498 -0.12932678 0.019040426 2.3509883e-38
-0.0027261917 -0.12932678 0.019040426 2.3509886e-38
-0.00090093166 -0.12932678 0.019040426 2.2772686e-38
0.00090766139 -0.13437669 2.928637e-05 2.3233662e-38
0.0027662534 -0.13437669 2.928637e-05 2.3509886e-38
0.0046327692 -0.13517688 -0.0029831324 2.3509886e-38
0.0064966418 -0.13517688 -0.0029831324 2.3509886e-38
0.0086367745 -0.14713491 -0.048000731 2.3509886e-38
0.010579579 -0.14713491 -0.048000731 2.3509886e-38
0.012522384 -0.14713491 -0.048000731 2.3509886e-38
0.014511075 -0.14820443 -0.052027024 2.3509883e-38
0.016460938 -0.14820443 -0.052027024 2.3509883e-38
0.018410804 -0.14820443 -0.052027024 2.3509883e-38
0.020360667 -0.14820443 -0.052027024 2.31411e-38
-0.0098454077 -0.12688623 0.034994327 2.350987e-38
-0.008048119 -0.12688623 0.034994327 2.2955619e-38
-0.0062747076 -0.12769531 0.031968437 2.3509879e-38
-0.004472116 -0.12769531 0.031968437 2.3509883e-38
-0.0026958231 -0.1292996 0.025968393 2.3509886e-38
-0.00088271126 -0.1292996 0.025968393 2.341805e-38
0.00091289915 -0.134638 0.0060031023 2.3233662e-38
0.0027610157 -0.134638 0.0060031023 2.3509886e-38
0.0046169683 -0.13543437 0.0030246582 2.3509886e-38
0.0064703077 -0.13543437 0.0030246582 2.3509886e-38
0.0086181751 -0.14826734 -0.044969954 2.3509886e-38
0.010555666 -0.14826734 -0.044969954 2.3509886e-38
0.012522384 -0.14907773 -0.048000731 2.3509886e-38
0.014465189 -0.14907773 -0.048000731 2.3509883e-38
-0.0098454077 -0.12868352 0.034994327 2.3324038e-38
-0.008048119 -0.12868352 0.034994327 2.3509873e-38
-0.0062508341 -0.12868352 0.034994327 2.3509879e-38
-0.0044535454 -0.12868352 0.034994327 2.3325131e-38
-0.0026958231 -0.13111271 0.025968393 2.3509886e-38
-0.00088271126 -0.13111271 0.025968393 2.341805e-38
0.00092168711 -0.13378824 0.016027292 2.3233662e-38
0.0027574617 -0.13539489 0.010057649 2.3509886e-38
0.0045984704 -0.13539489 0.010057649 2.3509886e-38
0.0064572524 -0.13648613 0.0060031023 2.3509886e-38
-0.0097431559 -0.1280504 0.043966256 2.1664517e-38
-0.0079615992 -0.1280504 0.043966256 2.3509873e-38
-0.0062035024 -0.12885578 0.040993176 2.3509879e-38
-0.0044167321 -0.12885578 0.040993176 2.3232933e-38
-0.0026169326 -0.1280504 0.043966256 2.3509886e-38
-0.00083537586 -0.1280504 0.043966256 2.341805e-38
0.00092168711 -0.13561879 0.016027292 2.3325856e-38
0.0027548857 -0.13643973 0.012996754 2.3509886e-38
0.0045907404 -0.13643973 0.012996754 2.3509886e-38
0.0064572524 -0.13833423 0.0060031023 2.3509886e-38
-0.0097431559 -0.12983195 0.043966256 1.8898648e-38
-0.0079615992 -0.12983195 0.043966256 2.3509513e-38
-0.0062035024 -0.13064255 0.040993176 2.3509518e-38
-0.0044167321 -0.13064255 0.040993176 2.350952e-38
-0.0026169326 -0.12983195 0.043966256 2.3509883e-38
-0.00083537586 -0.12983195 0.043966256 2.341805e-38
0.00091902912 -0.13827558 0.012996754 2.341805e-38
0.0027548857 -0.13827558 0.012996754 2.3509886e-38
0.0045907404 -0.13827558 0.012996754 2.3509886e-38
0.006426597 -0.13827558 0.012996754 2.3509886e-38
-0.0097431559 -0.13161351 0.043966256 1.5763997e-38
-0.0079615992 -0.13161351 0.043966256 2.0558532e-38
-0.0061800443 -0.13161351 0.043966256 2.3325127e-38
-0.0043984894 -0.13161351 0.043966256 2.350988e-38
-0.0026169326 -0.13161351 0.043966256 2.31411e-38
-0.00083537586 -0.13161351 0.043966256 2.3234018e-38
0.00092168711 -0.13927986 0.016027292 2.341805e-38
0.0027522277 -0.13927986 0.016027292 2.341805e-38
0.0045827702 -0.13927986 0.016027292 2.341805e-38
0.0064133126 -0.13927986 0.016027292 2.3509886e-38
-0.0097431559 -0.13339506 0.043966256 1.3735693e-38
-0.0079615992 -0.13339506 0.043966256 1.7147297e-38
-0.0061800443 -0.13339506 0.043966256 2.3233288e-38
-0.0043984894 -0.13339506 0.043966256 2.350988e-38
-0.0026169326 -0.13339506 0.043966256 2.2957065e-38
-0.00083537586 -0.13339506 0.043966256 2.3234015e-38
0.00092695467 -0.13945107 0.022036156 2.341805e-38
0.0027495865 -0.14027832 0.019040426 2.341805e-38
0.0045748465 -0.14027832 0.019040426 2.341805e-38
0.0064001065 -0.14027832 0.019040426 2.3509886e-38
-0.0097431559 -0.13517661 0.043966256 1.3182519e-38
-0.0079615992 -0.13517661 0.043966256 1.4750211e-38
-0.0061800443 -0.13517661 0.043966256 2.3325483e-38
-0.0043984894 -0.13517661 0.043966256 2.350988e-38
-0.0026169326 -0.13517661 0.043966256 2.2957065e-38
-0.00083537586 -0.13517661 0.043966256 2.3418047e-38
0.00092695467 -0.14127107 0.022036156 2.3234015e-38
0.0027495865 -0.1421036 0.019040426 2.341805e-38
0.0045748465 -0.1421036 0.019040426 2.341805e-38
0.0064001065 -0.1421036 0.019040426 2.3509886e-38
-0.0079321172 -0.13610314 0.047023736 1.3736412e-38
-0.0061559211 -0.13610314 0.047023736 2.3509516e-38
-0.0043984894 -0.13695817 0.043966256 2.3509879e-38
-0.0026169326 -0.13695817 0.043966256 2.3141456e-38
-0.00083537586 -0.13695817 0.043966256 2.3418047e-38
0.00092432834 -0.14392884 0.019040426 2.3049624e-38
0.0027495865 -0.14392884 0.019040426 2.341805e-38
0.0045748465 -0.14392884 0.019040426 2.341805e-38
0.0064133126 -0.1447715 0.016027292 2.3509886e-38
-0.0079321172 -0.13787933 0.047023736 1.2722256e-38
-0.0061559211 -0.13787933 0.047023736 2.3509149e-38
-0.0043797251 -0.13787933 0.047023736 2.3417679e-38
-0.0026035309 -0.13787933 0.047023736 2.3325846e-38
-0.00083537586 -0.13873972 0.043966256 2.3141816e-38
0.00092432834 -0.14575411 0.019040426 2.3234018e-38
0.0027495865 -0.14575411 0.019040426 2.341805e-38
0.0045748465 -0.14575411 0.019040426 2.3141466e-38
0.0064133126 -0.14660202 0.016027292 2.3049626e-38
-0.0079321172 -0.13965552 0.047023736 1.401335e-38
-0.0061319415 -0.13879494 0.050062858 2.1112061e-38
-0.0043610763 -0.13879494 0.050062858 2.3417676e-38
-0.0026035309 -0.13965552 0.047023736 2.3509518e-38
-0.00082733482 -0.13965552 0.047023736 2.350988e-38
0.00094885938 -0.13965552 0.047023736 2.3326213e-38
0.0027495865 -0.14757936 0.019040426 2.341805e-38
0.0045748465 -0.14757936 0.019040426 2.341805e-38
0.0064133126 -0.14843257 0.016027292 2.3049626e-38
-0.0061319415 -0.14056583 0.050062858 1.8161802e-38
-0.0043610763 -0.14056583 0.050062858 2.2587915e-38
-0.0026035309 -0.1414317 0.047023736 2.3509879e-38
-0.00082733482 -0.1414317 0.047023736 2.350988e-38
0.00094885938 -0.1414317 0.047023736 2.3325494e-38
0.0027469601 -0.14855109 0.022036156 2.2864879e-38
0.0045748465 -0.14940463 0.019040426 2.341805e-38
-0.0061319415 -0.14233668 0.050062858 1.6410085e-38
-0.0043610763 -0.14233668 0.050062858 2.0836198e-38
-0.0026035309 -0.14320792 0.047023736 2.3509879e-38
-0.00082733482 -0.14320792 0.047023736 2.3418043e-38
0.00094885938 -0.14320792 0.047023736 2.3325492e-38
0.0027435143 -0.14924385 0.025968393 2.2864879e-38
0.0045566261 -0.14924385 0.025968393 2.341805e-38
-0.0043797251 -0.14498411 0.047023736 1.890009e-38
-0.0026035309 -0.14498411 0.047023736 2.3509879e-38
-0.00082733482 -0.14498411 0.047023736 2.2957065e-38
0.00094617903 -0.14586596 0.043966256 2.3509883e-38
-0.0043797251 -0.1467603 0.047023736 1.7793745e-38
-0.0026035309 -0.1467603 0.047023736 2.3509879e-38
-0.00083537586 -0.14764751 0.043966256 2.3233652e-38
0.00094617903 -0.14764751 0.043966256 2.350988e-38
-0.061408281 -0.14942907 0.043966256 2.350988e-38
-0.059626721 -0.14942907 0.043966256 1.8899014e-38
-0.0043984894 -0.14942907 0.043966256 1.770191e-38
-0.0026169326 -0.14942907 0.043966256 2.2957064e-38
-0.00083537586 -0.14942907 0.043966256 2.350988e-38
