# .PCD v0.7 - Point Cloud Data file format
VERSION 0.7
FIELDS x y z rgb
SIZE 4 4 4 4
TYPE F F F F
COUNT 1 1 1 1
WIDTH 919
HEIGHT 1
VIEWPOINT 0 0 0 1 0 0 0
POINTS 919
DATA ascii
-0.020321935 -0.051472679 0.012528729 2.3509886e-38
-0.018473819 -0.051472679 0.012528729 2.3509886e-38
-0.016659647 -0.052034065 0.0095502846 2.3509886e-38
-0.014806304 -0.052034065 0.0095502846 2.3509886e-38
-0.013000365 -0.053166434 0.003542494 2.3509886e-38
-0.011136493 -0.053166434 0.003542494 2.3509886e-38
-0.0092903413 -0.053928539 -0.00050084665 2.3509886e-38
-0.0074193794 -0.053928539 -0.00050084665 2.3509886e-38
-0.0055536833 -0.055061117 -0.0065097101 2.3509886e-38
-0.0036721844 -0.055061117 -0.0065097101 2.3509886e-38
-0.0017906856 -0.055061117 -0.0065097101 2.3509886e-38
0.00010836869 -0.055816054 -0.010515023 2.3509886e-38
0.0019968916 -0.055816054 -0.010515023 2.3509886e-38
0.0039401408 -0.057123452 -0.017451454 2.3509886e-38
0.005840824 -0.057123452 -0.017451454 2.3509886e-38
0.0077760806 -0.05769524 -0.020485092 2.3509886e-38
0.0096820835 -0.05769524 -0.020485092 2.3509886e-38
0.011588085 -0.05769524 -0.020485092 2.3509886e-38
0.013542941 -0.058248043 -0.023417998 2.3509886e-38
0.015454086 -0.058248043 -0.023417998 2.3509886e-38
0.017446171 -0.059004679 -0.027432371 2.3509886e-38
0.019364355 -0.059004679 -0.027432371 2.3509886e-38
0.021355674 -0.059587061 -0.030522157 2.3509886e-38
0.023379615 -0.060330957 -0.034468938 2.3509886e-38
0.025418174 -0.061080262 -0.038444329 2.3509886e-38
0.027355663 -0.061080262 -0.038444329 2.3509886e-38
0.029293153 -0.061080262 -0.038444329 2.3509886e-38
0.031328954 -0.061651513 -0.041475106 2.3509886e-38
0.03327176 -0.061651513 -0.041475106 2.3509886e-38
0.035214562 -0.061651513 -0.041475106 2.3509886e-38
0.037309147 -0.062410399 -0.0455014 2.3509886e-38
0.039375253 -0.06296578 -0.048448015 2.3509886e-38
0.041498274 -0.063734248 -0.052525092 2.3509886e-38
0.043631513 -0.06448482 -0.056507278 2.3509886e-38
0.045600675 -0.06448482 -0.056507278 2.3509886e-38
0.047569837 -0.06448482 -0.056507278 2.3509886e-38
0.049683902 -0.065051258 -0.059512544 2.3509886e-38
0.051658332 -0.065051258 -0.059512544 2.3509886e-38
0.053632762 -0.065051258 -0.059512544 2.3509886e-38
0.055816054 -0.06578742 -0.063418195 2.3509886e-38
0.058021579 -0.066552714 -0.067478463 2.3509886e-38
0.060009975 -0.066552714 -0.067478463 2.3509886e-38
0.061998378 -0.066552714 -0.067478463 2.3325497e-38
0.063986778 -0.066552714 -0.067478463 2.3417691e-38
0.066221729 -0.067299321 -0.071439669 4.9785668e-39
0.068217069 -0.067299321 -0.071439669 0
0.070212409 -0.067299321 -0.071439669 3.2275659e-39
-0.063364632 -0.048940286 0.035555433 2.3324756e-38
-0.061556891 -0.048940286 0.035555433 2.3509879e-38
-0.059749141 -0.048940286 0.035555433 2.249645e-38
-0.0577894 -0.048381239 0.038494062 2.341805e-38
-0.055986807 -0.048381239 0.038494062 2.341805e-38
-0.054184213 -0.048381239 0.038494062 2.3141466e-38
-0.052381627 -0.048381239 0.038494062 2.341805e-38
-0.050579034 -0.048381239 0.038494062 2.3325856e-38
-0.048902676 -0.048940286 0.035555433 2.341805e-38
-0.047094926 -0.048940286 0.035555433 2.341805e-38
-0.045407958 -0.049522668 0.03249402 2.341805e-38
-0.043743078 -0.050270721 0.028561782 2.341805e-38
-0.041923072 -0.050270721 0.028561782 2.341805e-38
-0.040103067 -0.050270721 0.028561782 2.341805e-38
-0.038380232 -0.050840631 0.025566053 2.3418047e-38
-0.03655497 -0.050840631 0.025566053 2.3418047e-38
-0.034729712 -0.050840631 0.025566053 2.3418047e-38
-0.033068702 -0.05199036 0.01952238 2.3509886e-38
-0.031232841 -0.05199036 0.01952238 2.3509886e-38
-0.029466555 -0.052549481 0.016583275 2.3509886e-38
-0.027625546 -0.052549481 0.016583275 2.3509886e-38
-0.025866292 -0.053320795 0.012528729 2.3509886e-38
-0.024018172 -0.053320795 0.012528729 2.3509886e-38
-0.022170056 -0.053320795 0.012528729 2.3509886e-38
-0.020321935 -0.053320795 0.012528729 2.3509886e-38
-0.018473819 -0.053320795 0.012528729 2.3509886e-38
-0.016659647 -0.053887412 0.0095502846 2.3509886e-38
-0.014806304 -0.053887412 0.0095502846 2.3509886e-38
-0.013000365 -0.055030316 0.003542494 2.3509886e-38
-0.011136493 -0.055030316 0.003542494 2.3509886e-38
-0.0092903413 -0.055799499 -0.00050084665 2.3509886e-38
-0.0074193794 -0.055799499 -0.00050084665 2.3509886e-38
-0.0055509917 -0.05635868 -0.0034401901 2.3509886e-38
-0.0036748759 -0.05635868 -0.0034401901 2.3509886e-38
-0.0017906856 -0.056942612 -0.0065097101 2.3509886e-38
9.0813264e-05 -0.056942612 -0.0065097101 2.3509886e-38
0.0019723121 -0.056942612 -0.0065097101 2.3509886e-38
0.0039090421 -0.058274314 -0.013509918 2.3509886e-38
0.005840824 -0.059024125 -0.017451454 2.3509886e-38
0.0077415071 -0.059024125 -0.017451454 2.3509886e-38
0.0096820835 -0.059601247 -0.020485092 2.3509886e-38
0.011588085 -0.059601247 -0.020485092 2.3509886e-38
0.013542941 -0.060159191 -0.023417998 2.3509886e-38
0.015454086 -0.060159191 -0.023417998 2.3509886e-38
0.017446171 -0.060922861 -0.027432371 2.3509886e-38
0.019364355 -0.060922861 -0.027432371 2.3509886e-38
0.021355674 -0.061510652 -0.030522157 2.3509886e-38
0.023379615 -0.062261477 -0.034468938 2.3509886e-38
0.025418174 -0.063017741 -0.038444329 2.3509886e-38
0.027355663 -0.063017741 -0.038444329 2.3509886e-38
0.029293153 -0.063017741 -0.038444329 2.3509886e-38
0.031230647 -0.063017741 -0.038444329 2.3509886e-38
0.033168137 -0.063017741 -0.038444329 2.3509886e-38
0.035214562 -0.063594311 -0.041475106 2.3509886e-38
0.037309147 -0.064360261 -0.0455014 2.3509886e-38
0.039259009 -0.064360261 -0.0455014 2.3509886e-38
0.041498274 -0.065696418 -0.052525092 2.3509886e-38
0.043460451 -0.065696418 -0.052525092 2.3509886e-38
0.045600675 -0.066453978 -0.056507278 2.3509886e-38
0.047569837 -0.066453978 -0.056507278 2.3509886e-38
0.049538996 -0.066453978 -0.056507278 2.3509886e-38
0.051658332 -0.067025691 -0.059512544 2.3509886e-38
0.053632762 -0.067025691 -0.059512544 2.3509886e-38
0.055816054 -0.067768693 -0.063418195 2.3509886e-38
0.057797331 -0.067768693 -0.063418195 2.3509886e-38
0.060009975 -0.06854111 -0.067478463 2.2956712e-38
0.061998378 -0.06854111 -0.067478463 2.341769e-38
0.063986778 -0.06854111 -0.067478463 2.341805e-38
0.066221729 -0.069294676 -0.071439669 8.6671081e-39
0.068217069 -0.069294676 -0.071439669 7.3828391e-40
0.070212409 -0.069294676 -0.071439669 2.9516993e-39
-0.065172374 -0.05074802 0.035555433 1.6686302e-38
-0.063364632 -0.05074802 0.035555433 2.3509147e-38
-0.061556891 -0.05074802 0.035555433 2.3509879e-38
-0.059749141 -0.05074802 0.035555433 2.1390102e-38
-0.0577894 -0.050183833 0.038494062 2.3326213e-38
-0.055986807 -0.050183833 0.038494062 2.341805e-38
-0.054184213 -0.050183833 0.038494062 2.3233662e-38
-0.052381627 -0.050183833 0.038494062 2.341805e-38
-0.050579034 -0.050183833 0.038494062 2.3233662e-38
-0.04877644 -0.050183833 0.038494062 2.341805e-38
-0.047094926 -0.05074802 0.035555433 2.341805e-38
-0.045287184 -0.05074802 0.035555433 2.341805e-38
-0.043594845 -0.051335782 0.03249402 2.341805e-38
-0.041923072 -0.052090734 0.028561782 2.341805e-38
-0.040103067 -0.052090734 0.028561782 2.3418047e-38
-0.038283058 -0.052090734 0.028561782 2.3418047e-38
-0.036463052 -0.052090734 0.028561782 2.3418045e-38
-0.034643047 -0.052090734 0.028561782 2.3418045e-38
-0.032986339 -0.053244382 0.022552919 2.3509886e-38
-0.031155795 -0.053244382 0.022552919 2.3509886e-38
-0.029396988 -0.053826213 0.01952238 2.3509886e-38
-0.027625546 -0.05439049 0.016583275 2.3509886e-38
-0.025784537 -0.05439049 0.016583275 2.3509886e-38
-0.024018172 -0.055168927 0.012528729 2.3509886e-38
-0.022219665 -0.055740759 0.0095502846 2.3509886e-38
-0.020321935 -0.055168927 0.012528729 2.3509886e-38
-0.018473819 -0.055168927 0.012528729 2.3509886e-38
-0.016659647 -0.055740759 0.0095502846 2.3509886e-38
-0.01483519 -0.056315839 0.0065549128 2.3509886e-38
-0.013000365 -0.056894183 0.003542494 2.3509886e-38
-0.011136493 -0.056894183 0.003542494 2.3509886e-38
-0.0092903413 -0.057670474 -0.00050084665 2.3509886e-38
-0.0074193794 -0.057670474 -0.00050084665 2.3509886e-38
-0.0055509917 -0.058234796 -0.0034401901 2.3509886e-38
-0.0036748759 -0.058234796 -0.0034401901 2.3509886e-38
-0.0017987583 -0.058234796 -0.0034401901 2.3509886e-38
9.0813264e-05 -0.058824107 -0.0065097101 2.3509886e-38
0.0019723121 -0.058824107 -0.0065097101 2.3509886e-38
0.0039090421 -0.060168073 -0.013509918 2.3509886e-38
0.0058028148 -0.060168073 -0.013509918 2.3509886e-38
0.0077415071 -0.060924813 -0.017451454 2.3509886e-38
0.0096421903 -0.060924813 -0.017451454 2.3509886e-38
0.011631796 -0.062070325 -0.023417998 2.3509886e-38
0.013542941 -0.062070325 -0.023417998 2.3509886e-38
0.01552799 -0.062841058 -0.027432371 2.3509886e-38
0.017446171 -0.062841058 -0.027432371 2.3509886e-38
0.019364355 -0.062841058 -0.027432371 2.3509886e-38
0.021355674 -0.063434258 -0.030522157 2.3509886e-38
0.023379615 -0.064191997 -0.034468938 2.3509886e-38
0.025418174 -0.064955235 -0.038444329 2.3509886e-38
0.027355663 -0.064955235 -0.038444329 2.3509886e-38
0.029293153 -0.064955235 -0.038444329 2.3509886e-38
0.031230647 -0.064955235 -0.038444329 2.3509886e-38
0.033168137 -0.064955235 -0.038444329 2.3509886e-38
0.035214562 -0.06553711 -0.041475106 2.3509886e-38
0.037157368 -0.06553711 -0.041475106 2.3509886e-38
0.039100174 -0.06553711 -0.041475106 2.3509886e-38
0.041208874 -0.066310123 -0.0455014 2.3509886e-38
0.043460451 -0.067658603 -0.052525092 2.3509886e-38
0.045422632 -0.067658603 -0.052525092 2.3509886e-38
0.047569837 -0.068423137 -0.056507278 2.3509886e-38
0.049538996 -0.068423137 -0.056507278 2.3509886e-38
0.051658332 -0.069000125 -0.059512544 2.3509886e-38
0.053632762 -0.069000125 -0.059512544 2.3509886e-38
0.055816054 -0.069749966 -0.063418195 2.3509886e-38
0.057797331 -0.069749966 -0.063418195 2.3509886e-38
0.060009975 -0.070529506 -0.067478463 2.3325494e-38
0.061998378 -0.070529506 -0.067478463 2.341805e-38
0.063986778 -0.070529506 -0.067478463 2.2957431e-38
0.066221729 -0.071290016 -0.071439669 1.2540045e-38
0.068217069 -0.071290016 -0.071439669 2.1219386e-39
0.070212409 -0.071290016 -0.071439669 1.6609605e-39
-0.065172374 -0.05255577 0.035555433 1.604129e-38
-0.063364632 -0.05255577 0.035555433 2.3509866e-38
-0.061556891 -0.05255577 0.035555433 2.3509879e-38
-0.059591994 -0.051986426 0.038494062 2.0191559e-38
-0.0577894 -0.051986426 0.038494062 2.2588648e-38
-0.055986807 -0.051986426 0.038494062 2.341805e-38
-0.054184213 -0.051986426 0.038494062 2.3233662e-38
-0.052381627 -0.051986426 0.038494062 2.341805e-38
-0.050579034 -0.051986426 0.038494062 2.2864882e-38
-0.04877644 -0.051986426 0.038494062 2.341805e-38
-0.046973854 -0.051986426 0.038494062 2.341805e-38
-0.045287184 -0.05255577 0.035555433 2.341805e-38
-0.043594845 -0.053148896 0.03249402 2.341805e-38
-0.041923072 -0.053910747 0.028561782 2.341805e-38
-0.040103067 -0.053910747 0.028561782 2.3418047e-38
-0.038283058 -0.053910747 0.028561782 2.3418047e-38
-0.036463052 -0.053910747 0.028561782 2.3418045e-38
-0.034643047 -0.053910747 0.028561782 2.3418045e-38
-0.032986339 -0.055074915 0.022552919 2.3509886e-38
-0.031155795 -0.055074915 0.022552919 2.3509886e-38
-0.029396988 -0.055662066 0.01952238 2.3509886e-38
-0.027625546 -0.056231499 0.016583275 2.3509886e-38
-0.025784537 -0.056231499 0.016583275 2.3509886e-38
-0.024018172 -0.057017043 0.012528729 2.3509886e-38
-0.022170056 -0.057017043 0.012528729 2.3509886e-38
-0.020321935 -0.057017043 0.012528729 2.3509886e-38
-0.018473819 -0.057017043 0.012528729 2.3509886e-38
-0.016659647 -0.057594091 0.0095502846 2.3509886e-38
-0.01483519 -0.058174431 0.0065549128 2.3509886e-38
-0.012976598 -0.058174431 0.0065549128 2.3509886e-38
-0.011136493 -0.058758065 0.003542494 2.3509886e-38
-0.0092903413 -0.059541434 -0.00050084665 2.3509886e-38
-0.0074193794 -0.059541434 -0.00050084665 2.3509886e-38
-0.0055509917 -0.060110912 -0.0034401901 2.3509886e-38
-0.0036748759 -0.060110912 -0.0034401901 2.3509886e-38
-0.0017987583 -0.060110912 -0.0034401901 2.3509886e-38
9.0813264e-05 -0.060705602 -0.0065097101 2.3509886e-38
0.0019723121 -0.060705602 -0.0065097101 2.3509886e-38
0.0039090421 -0.062061846 -0.013509918 2.3509886e-38
0.0058028148 -0.062061846 -0.013509918 2.3509886e-38
0.0077415071 -0.062825501 -0.017451454 2.3509886e-38
0.0096421903 -0.062825501 -0.017451454 2.3509886e-38
0.011631796 -0.063981473 -0.023417998 2.3509886e-38
0.013542941 -0.063981473 -0.023417998 2.3509886e-38
0.015454086 -0.063981473 -0.023417998 2.3509886e-38
0.017365228 -0.063981473 -0.023417998 2.3509886e-38
0.019364355 -0.06475924 -0.027432371 2.3509886e-38
0.021282539 -0.06475924 -0.027432371 2.3509886e-38
0.023279274 -0.065357864 -0.030522157 2.3509886e-38
0.025202876 -0.065357864 -0.030522157 2.3509886e-38
0.027240656 -0.066122517 -0.034468938 2.3509886e-38
0.029171176 -0.066122517 -0.034468938 2.3509886e-38
0.031101696 -0.066122517 -0.034468938 2.3509886e-38
0.033032216 -0.066122517 -0.034468938 2.3509886e-38
0.035105627 -0.066892728 -0.038444329 2.3509886e-38
0.037157368 -0.067479923 -0.041475106 2.3509886e-38
0.039100174 -0.067479923 -0.041475106 2.3509886e-38
0.041208874 -0.068259984 -0.0455014 2.3509886e-38
0.043285314 -0.068830878 -0.048448015 2.3509886e-38
0.045422632 -0.069620788 -0.052525092 2.3509886e-38
0.04738481 -0.069620788 -0.052525092 2.3509886e-38
0.049538996 -0.070392311 -0.056507278 2.3509886e-38
0.051508158 -0.070392311 -0.056507278 2.3509886e-38
0.053632762 -0.070974559 -0.059512544 2.3509886e-38
0.055607192 -0.070974559 -0.059512544 2.3509886e-38
0.057797331 -0.071731254 -0.063418195 2.3509886e-38
0.060009975 -0.072517902 -0.067478463 2.341805e-38
0.061998378 -0.072517902 -0.067478463 2.341805e-38
0.063986778 -0.072517902 -0.067478463 2.2680844e-38
0.065975174 -0.072517902 -0.067478463 1.7795196e-38
0.068217069 -0.073285356 -0.071439669 5.4409813e-39
0.070212409 -0.073285356 -0.071439669 4.6313615e-40
-0.065172374 -0.054363519 0.035555433 1.521297e-38
-0.063364632 -0.054363519 0.035555433 2.3509866e-38
-0.061556891 -0.054363519 0.035555433 2.3509876e-38
-0.059591994 -0.05378902 0.038494062 1.9361796e-38
-0.0577894 -0.05378902 0.038494062 2.1943273e-38
-0.055986807 -0.05378902 0.038494062 2.3418047e-38
-0.054038316 -0.053197473 0.041519951 2.3141822e-38
-0.052241027 -0.053197473 0.041519951 2.341805e-38
-0.050443746 -0.053197473 0.041519951 2.2588292e-38
-0.04877644 -0.05378902 0.038494062 2.341805e-38
-0.046973854 -0.05378902 0.038494062 2.341805e-38
-0.045287184 -0.054363519 0.035555433 2.341805e-38
-0.043594845 -0.054962009 0.03249402 2.341805e-38
-0.041781735 -0.054962009 0.03249402 2.341805e-38
-0.040103067 -0.055730745 0.028561782 2.341805e-38
-0.038283058 -0.055730745 0.028561782 2.3418047e-38
-0.036463052 -0.055730745 0.028561782 2.3418047e-38
-0.034643047 -0.055730745 0.028561782 2.3418047e-38
-0.032986339 -0.056905463 0.022552919 2.3509886e-38
-0.031155795 -0.056905463 0.022552919 2.3509886e-38
-0.029325254 -0.056905463 0.022552919 2.3509886e-38
-0.027625546 -0.058072507 0.016583275 2.3509886e-38
-0.025866292 -0.05886516 0.012528729 2.3509886e-38
-0.024018172 -0.05886516 0.012528729 2.3509886e-38
-0.022170056 -0.05886516 0.012528729 2.3509886e-38
-0.020321935 -0.05886516 0.012528729 2.3509886e-38
-0.018473819 -0.05886516 0.012528729 2.3509886e-38
-0.016659647 -0.059447438 0.0095502846 2.3509886e-38
-0.01483519 -0.060033023 0.0065549128 2.3509886e-38
-0.012976598 -0.060033023 0.0065549128 2.3509886e-38
-0.011118006 -0.060033023 0.0065549128 2.3509886e-38
-0.0092726182 -0.060621932 0.003542494 2.3509886e-38
-0.0074193794 -0.061412394 -0.00050084665 2.3509886e-38
-0.0055509917 -0.061987028 -0.0034401901 2.3509886e-38
-0.0036748759 -0.061987028 -0.0034401901 2.3509886e-38
-0.0017987583 -0.061987028 -0.0034401901 2.3509886e-38
7.7359378e-05 -0.061987028 -0.0034401901 2.3509886e-38
0.0019968916 -0.063370138 -0.010515023 2.3509886e-38
0.0039090421 -0.06395562 -0.013509918 2.3509886e-38
0.0058028148 -0.06395562 -0.013509918 2.3509886e-38
0.0077415071 -0.064726189 -0.017451454 2.3509886e-38
0.0096820835 -0.065319255 -0.020485092 2.3509886e-38
0.011631796 -0.065892622 -0.023417998 2.3509886e-38
0.013542941 -0.065892622 -0.023417998 2.3509886e-38
0.015454086 -0.065892622 -0.023417998 2.3509886e-38
0.017365228 -0.065892622 -0.023417998 2.3509886e-38
0.019364355 -0.066677421 -0.027432371 2.3509886e-38
0.021282539 -0.066677421 -0.027432371 2.3509886e-38
0.023200722 -0.066677421 -0.027432371 2.3509886e-38
0.025202876 -0.067281455 -0.030522157 2.3509886e-38
0.027126476 -0.067281455 -0.030522157 2.3509886e-38
0.029171176 -0.068053037 -0.034468938 2.3509886e-38
0.031101696 -0.068053037 -0.034468938 2.3509886e-38
0.033032216 -0.068053037 -0.034468938 2.3509886e-38
0.03496274 -0.068053037 -0.034468938 2.3509886e-38
0.037043117 -0.068830222 -0.038444329 2.3509886e-38
0.038980607 -0.068830222 -0.038444329 2.3509886e-38
0.041042976 -0.069422722 -0.041475106 2.3509886e-38
0.042985782 -0.069422722 -0.041475106 2.3509886e-38
0.045240346 -0.07078591 -0.048448015 2.3509886e-38
0.04738481 -0.071582958 -0.052525092 2.3509886e-38
0.049346991 -0.071582958 -0.052525092 2.3509886e-38
0.051508158 -0.072361469 -0.056507278 2.3509886e-38
0.053477321 -0.072361469 -0.056507278 2.3509886e-38
0.055607192 -0.072948977 -0.059512544 2.3509886e-38
0.057581622 -0.072948977 -0.059512544 2.3509886e-38
0.059778612 -0.073712528 -0.063418195 2.2864513e-38
0.061759893 -0.073712528 -0.063418195 2.3418047e-38
0.063986778 -0.074506298 -0.067478463 2.332621e-38
0.065975174 -0.074506298 -0.067478463 2.341805e-38
0.068217069 -0.075280696 -0.071439669 9.6819803e-39
0.070212409 -0.075280696 -0.071439669 6.4680854e-40
-0.066619322 -0.054994762 0.041519951 1.2170524e-38
-0.06482204 -0.054994762 0.041519951 1.5674678e-38
-0.063197181 -0.055591613 0.038494062 2.3234361e-38
-0.061394587 -0.055591613 0.038494062 2.3326198e-38
-0.059430182 -0.054994762 0.041519951 2.0468135e-38
-0.057632893 -0.054994762 0.041519951 2.065217e-38
-0.055835605 -0.054994762 0.041519951 2.3509879e-38
-0.054038316 -0.054994762 0.041519951 2.3325847e-38
-0.052241027 -0.054994762 0.041519951 2.3509883e-38
-0.050443746 -0.054994762 0.041519951 2.3509886e-38
-0.048646457 -0.054994762 0.041519951 2.3509886e-38
-0.046849176 -0.054994762 0.041519951 2.3509886e-38
-0.045287184 -0.056171253 0.035555433 2.3509886e-38
-0.043594845 -0.056775123 0.03249402 2.3509886e-38
-0.041781735 -0.056775123 0.03249402 2.3509886e-38
-0.040103067 -0.057550758 0.028561782 2.3509886e-38
-0.038283058 -0.057550758 0.028561782 2.3509886e-38
-0.036463052 -0.057550758 0.028561782 2.3509886e-38
-0.034643047 -0.057550758 0.028561782 2.3509886e-38
-0.032904454 -0.058141664 0.025566053 2.3509886e-38
-0.031155795 -0.058735996 0.022552919 2.3509886e-38
-0.029325254 -0.058735996 0.022552919 2.3509886e-38
-0.027561132 -0.059333771 0.01952238 2.3509886e-38
-0.025866292 -0.060713276 0.012528729 2.3509886e-38
-0.024018172 -0.060713276 0.012528729 2.3509886e-38
-0.022170056 -0.060713276 0.012528729 2.3509886e-38
-0.020321935 -0.060713276 0.012528729 2.3509886e-38
-0.018473819 -0.060713276 0.012528729 2.3509886e-38
-0.016693782 -0.061891615 0.0065549128 2.3509886e-38
-0.01483519 -0.061891615 0.0065549128 2.3509886e-38
-0.012976598 -0.061891615 0.0065549128 2.3509886e-38
-0.011118006 -0.061891615 0.0065549128 2.3509886e-38
-0.0092726182 -0.062485814 0.003542494 2.3509886e-38
-0.0074087456 -0.062485814 0.003542494 2.3509886e-38
-0.0055484157 -0.063283354 -0.00050084665 2.3509886e-38
-0.003677452 -0.063283354 -0.00050084665 2.3509886e-38
-0.0017987583 -0.063863143 -0.0034401901 2.3509886e-38
7.7359378e-05 -0.063863143 -0.0034401901 2.3509886e-38
0.0019968916 -0.065258652 -0.010515023 2.3509886e-38
0.0039090421 -0.065849394 -0.013509918 2.3509886e-38
0.0058028148 -0.065849394 -0.013509918 2.3509886e-38
0.0077415071 -0.066626862 -0.017451454 2.3509886e-38
0.0096820835 -0.067225248 -0.020485092 2.3509886e-38
0.011588085 -0.067225248 -0.020485092 2.3509886e-38
0.013542941 -0.06780377 -0.023417998 2.3509886e-38
0.015454086 -0.06780377 -0.023417998 2.3509886e-38
0.017365228 -0.06780377 -0.023417998 2.3509886e-38
0.019364355 -0.068595603 -0.027432371 2.3509886e-38
0.021282539 -0.068595603 -0.027432371 2.3509886e-38
0.023200722 -0.068595603 -0.027432371 2.3509886e-38
0.025202876 -0.069205061 -0.030522157 2.3509886e-38
0.027126476 -0.069205061 -0.030522157 2.3509886e-38
0.029050075 -0.069205061 -0.030522157 2.3509886e-38
0.030973677 -0.069205061 -0.030522157 2.3509886e-38
0.033032216 -0.069983557 -0.034468938 2.3509886e-38
0.03496274 -0.069983557 -0.034468938 2.3509886e-38
0.037043117 -0.070767716 -0.038444329 2.3509886e-38
0.038980607 -0.070767716 -0.038444329 2.3509886e-38
0.040918101 -0.070767716 -0.038444329 2.3509886e-38
0.042985782 -0.071365535 -0.041475106 2.3509886e-38
0.044928588 -0.071365535 -0.041475106 2.3509886e-38
0.047195375 -0.072740942 -0.048448015 2.3509886e-38
0.049346991 -0.073545143 -0.052525092 2.3509886e-38
0.051309168 -0.073545143 -0.052525092 2.3509886e-38
0.053477321 -0.074330628 -0.056507278 2.3509886e-38
0.055607192 -0.074923411 -0.059512544 2.3509886e-38
0.057581622 -0.074923411 -0.059512544 2.3509883e-38
0.059556056 -0.074923411 -0.059512544 2.2864868e-38
0.061759893 -0.075693801 -0.063418195 2.3509879e-38
0.063986778 -0.076494694 -0.067478463 2.2957065e-38
0.065975174 -0.076494694 -0.067478463 2.3048905e-38
0.06796357 -0.076494694 -0.067478463 1.4751301e-38
0.069951966 -0.076494694 -0.067478463 3.6878532e-40
-0.06841661 -0.056792036 0.041519951 9.3124607e-39
-0.066619322 -0.056792036 0.041519951 9.6816061e-39
-0.06482204 -0.056792036 0.041519951 1.5951991e-38
-0.063197181 -0.057394207 0.038494062 2.3234367e-38
-0.061394587 -0.057394207 0.038494062 2.3142524e-38
-0.059430182 -0.056792036 0.041519951 1.9546174e-38
-0.057632893 -0.056792036 0.041519951 1.9453983e-38
-0.055835605 -0.056792036 0.041519951 2.3509873e-38
-0.054038316 -0.056792036 0.041519951 2.3325846e-38
-0.052241027 -0.056792036 0.041519951 2.350988e-38
-0.050443746 -0.056792036 0.041519951 2.3417687e-38
-0.048646457 -0.056792036 0.041519951 2.3325494e-38
-0.046849176 -0.056792036 0.041519951 2.3509886e-38
-0.045171257 -0.057394207 0.038494062 2.3509886e-38
-0.043594845 -0.058588237 0.03249402 2.3509886e-38
-0.041781735 -0.058588237 0.03249402 2.3509886e-38
-0.040103067 -0.059370756 0.028561782 2.3509886e-38
-0.038283058 -0.059370756 0.028561782 2.3509886e-38
-0.036463052 -0.059370756 0.028561782 2.3509886e-38
-0.034643047 -0.059370756 0.028561782 2.3509886e-38
-0.032904454 -0.059966922 0.025566053 2.3509886e-38
-0.031155795 -0.060566545 0.022552919 2.3509886e-38
-0.029325254 -0.060566545 0.022552919 2.3509886e-38
-0.027561132 -0.061169639 0.01952238 2.3509886e-38
-0.025866292 -0.062561393 0.012528729 2.3509886e-38
-0.024018172 -0.062561393 0.012528729 2.3509886e-38
-0.022170056 -0.062561393 0.012528729 2.3509886e-38
-0.020321935 -0.062561393 0.012528729 2.3509886e-38
-0.018512987 -0.063154116 0.0095502846 2.3509886e-38
-0.016693782 -0.063750207 0.0065549128 2.3509886e-38
-0.014806304 -0.063154116 0.0095502846 2.3509886e-38
-0.012952965 -0.063154116 0.0095502846 2.3509886e-38
-0.011099625 -0.063154116 0.0095502846 2.3509886e-38
-0.0092594139 -0.063750207 0.0065549128 2.3509886e-38
-0.0074087456 -0.064349681 0.003542494 2.3509886e-38
-0.0055484157 -0.065154314 -0.00050084665 2.3509886e-38
-0.003677452 -0.065154314 -0.00050084665 2.3509886e-38
-0.0017987583 -0.065739259 -0.0034401901 2.3509886e-38
7.7359378e-05 -0.065739259 -0.0034401901 2.3509886e-38
0.0019968916 -0.06714718 -0.010515023 2.3509886e-38
0.0039090421 -0.067743167 -0.013509918 2.3509886e-38
0.0058028148 -0.067743167 -0.013509918 2.3509886e-38
0.0077415071 -0.06852755 -0.017451454 2.3509886e-38
0.0096820835 -0.069131255 -0.020485092 2.3509886e-38
0.011588085 -0.069131255 -0.020485092 2.3509886e-38
0.013542941 -0.069714904 -0.023417998 2.3509886e-38
0.015454086 -0.069714904 -0.023417998 2.3509886e-38
0.017365228 -0.069714904 -0.023417998 2.3509886e-38
0.019364355 -0.070513785 -0.027432371 2.3509886e-38
0.021282539 -0.070513785 -0.027432371 2.3509886e-38
0.023200722 -0.070513785 -0.027432371 2.3509886e-38
0.025118904 -0.070513785 -0.027432371 2.3509886e-38
0.027037088 -0.070513785 -0.027432371 2.3509886e-38
0.029050075 -0.071128666 -0.030522157 2.3509886e-38
0.030973677 -0.071128666 -0.030522157 2.3509886e-38
0.032897279 -0.071128666 -0.030522157 2.3509886e-38
0.03496274 -0.071914092 -0.034468938 2.3509886e-38
0.03689326 -0.071914092 -0.034468938 2.3509886e-38
0.03882378 -0.071914092 -0.034468938 2.3509886e-38
0.040918101 -0.072705194 -0.038444329 2.3509886e-38
0.042855591 -0.072705194 -0.038444329 2.3509886e-38
0.044928588 -0.073308334 -0.041475106 2.3509886e-38
0.047058467 -0.074109584 -0.0455014 2.3509886e-38
0.049150407 -0.074695975 -0.048448015 2.3509886e-38
0.051309168 -0.075507313 -0.052525092 2.3509886e-38
0.053477321 -0.076299787 -0.056507278 2.3509886e-38
0.055607192 -0.076897845 -0.059512544 2.3509886e-38
0.057581622 -0.076897845 -0.059512544 2.3509883e-38
0.059556056 -0.076897845 -0.059512544 2.3509879e-38
0.061759893 -0.077675089 -0.063418195 2.3233288e-38
0.063986778 -0.07848309 -0.067478463 2.350988e-38
0.065975174 -0.07848309 -0.067478463 2.3232936e-38
0.06796357 -0.07848309 -0.067478463 2.0466714e-38
0.069951966 -0.07848309 -0.067478463 9.1841101e-41
-0.06841661 -0.058589324 0.041519951 8.8507637e-39
-0.066619322 -0.058589324 0.041519951 1.0695758e-38
-0.064999774 -0.0591968 0.038494062 1.7980295e-38
-0.063197181 -0.0591968 0.038494062 2.3234367e-38
-0.061394587 -0.0591968 0.038494062 2.3234361e-38
-0.059430182 -0.058589324 0.041519951 1.8716414e-38
-0.057632893 -0.058589324 0.041519951 1.825544e-38
-0.055835605 -0.058589324 0.041519951 2.3141808e-38
-0.054038316 -0.058589324 0.041519951 2.3509879e-38
-0.052241027 -0.058589324 0.041519951 2.350988e-38
-0.050443746 -0.058589324 0.041519951 2.3325492e-38
-0.048646457 -0.058589324 0.041519951 2.341769e-38
-0.046849176 -0.058589324 0.041519951 2.3509886e-38
-0.045171257 -0.0591968 0.038494062 2.3509886e-38
-0.043479443 -0.059786752 0.035555433 2.3509886e-38
-0.041781735 -0.06040135 0.03249402 2.3509886e-38
-0.039968621 -0.06040135 0.03249402 2.3509886e-38
-0.038155511 -0.06040135 0.03249402 2.3509886e-38
-0.036463052 -0.061190769 0.028561782 2.3509886e-38
-0.034643047 -0.061190769 0.028561782 2.3509886e-38
-0.032904454 -0.06179218 0.025566053 2.3509886e-38
-0.031155795 -0.062397093 0.022552919 2.3509886e-38
-0.029325254 -0.062397093 0.022552919 2.3509886e-38
-0.027561132 -0.063005492 0.01952238 2.3509886e-38
-0.025784537 -0.063595533 0.016583275 2.3509886e-38
-0.024018172 -0.064409509 0.012528729 2.3509886e-38
-0.022170056 -0.064409509 0.012528729 2.3509886e-38
-0.020321935 -0.064409509 0.012528729 2.3509886e-38
-0.018473819 -0.064409509 0.012528729 2.3509886e-38
-0.016659647 -0.065007448 0.0095502846 2.3509886e-38
-0.014806304 -0.065007448 0.0095502846 2.3509886e-38
-0.012952965 -0.065007448 0.0095502846 2.3509886e-38
-0.011099625 -0.065007448 0.0095502846 2.3509886e-38
-0.0092462841 -0.065007448 0.0095502846 2.3509886e-38
-0.0074008219 -0.065608799 0.0065549128 2.3509886e-38
-0.0055484157 -0.067025289 -0.00050084665 2.3509886e-38
-0.003677452 -0.067025289 -0.00050084665 2.3509886e-38
-0.0017987583 -0.067615375 -0.0034401901 2.3509886e-38
9.0813264e-05 -0.068231598 -0.0065097101 2.3509886e-38
0.0019968916 -0.069035694 -0.010515023 2.3509886e-38
0.0039090421 -0.069636941 -0.013509918 2.3509886e-38
0.0058028148 -0.069636941 -0.013509918 2.3509886e-38
0.0076965867 -0.069636941 -0.013509918 2.3509886e-38
0.0096421903 -0.070428237 -0.017451454 2.3509886e-38
0.011588085 -0.071037248 -0.020485092 2.3509886e-38
0.013494087 -0.071037248 -0.020485092 2.3509886e-38
0.015454086 -0.071626052 -0.023417998 2.3509886e-38
0.017365228 -0.071626052 -0.023417998 2.3509886e-38
0.019364355 -0.072431967 -0.027432371 2.3509886e-38
0.021282539 -0.072431967 -0.027432371 2.3509886e-38
0.023200722 -0.072431967 -0.027432371 2.3509886e-38
0.025118904 -0.072431967 -0.027432371 2.3509886e-38
0.027037088 -0.072431967 -0.027432371 2.3509886e-38
0.029050075 -0.073052257 -0.030522157 2.3509886e-38
0.030973677 -0.073052257 -0.030522157 2.3509886e-38
0.032897279 -0.073052257 -0.030522157 2.3509886e-38
0.034820877 -0.073052257 -0.030522157 2.3509886e-38
0.03689326 -0.073844612 -0.034468938 2.3509886e-38
0.03882378 -0.073844612 -0.034468938 2.3509886e-38
0.040918101 -0.074642688 -0.038444329 2.3509886e-38
0.042855591 -0.074642688 -0.038444329 2.3509886e-38
0.044928588 -0.075251147 -0.041475106 2.3509886e-38
0.047058467 -0.076059446 -0.0455014 2.3509886e-38
0.049150407 -0.076650992 -0.048448015 2.3509886e-38
0.051309168 -0.077469498 -0.052525092 2.3509886e-38
0.053477321 -0.078268945 -0.056507278 2.3509886e-38
0.055446479 -0.078268945 -0.056507278 2.3509886e-38
0.057581622 -0.078872278 -0.059512544 2.3509883e-38
0.059556056 -0.078872278 -0.059512544 2.3509879e-38
0.061530482 -0.078872278 -0.059512544 2.2588281e-38
0.063741162 -0.079656363 -0.063418195 2.350988e-38
0.065975174 -0.080471486 -0.067478463 2.3233296e-38
0.06796357 -0.080471486 -0.067478463 2.3509886e-38
0.069951966 -0.080471486 -0.067478463 5.6051939e-45
-0.070595607 -0.061594486 0.035555433 9.1266289e-39
-0.068787858 -0.061594486 0.035555433 8.4819811e-39
-0.066802368 -0.060999393 0.038494062 1.3092484e-38
-0.064999774 -0.060999393 0.038494062 1.936215e-38
-0.063197181 -0.060999393 0.038494062 2.2957777e-38
-0.061394587 -0.060999393 0.038494062 2.3418033e-38
-0.059430182 -0.060386613 0.041519951 1.8347631e-38
-0.057632893 -0.060386613 0.041519951 1.7886654e-38
-0.055835605 -0.060386613 0.041519951 2.3234004e-38
-0.054038316 -0.060386613 0.041519951 2.3509876e-38
-0.052241027 -0.060386613 0.041519951 2.3509879e-38
-0.050443746 -0.060386613 0.041519951 2.3325492e-38
-0.048646457 -0.060386613 0.041519951 2.3509883e-38
-0.046849176 -0.060386613 0.041519951 2.3509886e-38
-0.045171257 -0.060999393 0.038494062 2.3509886e-38
-0.043479443 -0.061594486 0.035555433 2.3509886e-38
-0.041781735 -0.062214464 0.03249402 2.3509886e-38
-0.039968621 -0.062214464 0.03249402 2.3509886e-38
-0.038155511 -0.062214464 0.03249402 2.3509886e-38
-0.036342397 -0.062214464 0.03249402 2.3509886e-38
-0.034643047 -0.063010782 0.028561782 2.3509886e-38
-0.032904454 -0.063617438 0.025566053 2.3509886e-38
-0.031155795 -0.064227626 0.022552919 2.3509886e-38
-0.029325254 -0.064227626 0.022552919 2.3509886e-38
-0.027561132 -0.064841345 0.01952238 2.3509886e-38
-0.025784537 -0.065436542 0.016583275 2.3509886e-38
-0.023943529 -0.065436542 0.016583275 2.3509886e-38
-0.02210252 -0.065436542 0.016583275 2.3509886e-38
-0.020261511 -0.065436542 0.016583275 2.3509886e-38
-0.018473819 -0.066257626 0.012528729 2.3509886e-38
-0.016625702 -0.066257626 0.012528729 2.3509886e-38
-0.014777582 -0.066257626 0.012528729 2.3509886e-38
-0.012929466 -0.066257626 0.012528729 2.3509886e-38
-0.011081347 -0.066257626 0.012528729 2.3509886e-38
-0.0092462841 -0.066860795 0.0095502846 2.3509886e-38
-0.0074008219 -0.067467391 0.0065549128 2.3509886e-38
-0.0055484157 -0.068896249 -0.00050084665 2.3509886e-38
-0.003677452 -0.068896249 -0.00050084665 2.3509886e-38
-0.0018064883 -0.068896249 -0.00050084665 2.3509886e-38
9.0813264e-05 -0.070113108 -0.0065097101 2.3509886e-38
0.0019968916 -0.070924222 -0.010515023 2.3509886e-38
0.0038854126 -0.070924222 -0.010515023 2.3509886e-38
0.0057739336 -0.070924222 -0.010515023 2.3509886e-38
0.0076965867 -0.071530715 -0.013509918 2.3509886e-38
0.0096421903 -0.07232891 -0.017451454 2.3509886e-38
0.011588085 -0.072943255 -0.020485092 2.3509886e-38
0.013494087 -0.072943255 -0.020485092 2.3509886e-38
0.015454086 -0.073537201 -0.023417998 2.3509886e-38
0.017365228 -0.073537201 -0.023417998 2.3509886e-38
0.019364355 -0.074350148 -0.027432371 2.3509886e-38
0.021282539 -0.074350148 -0.027432371 2.3509886e-38
0.023200722 -0.074350148 -0.027432371 2.3509886e-38
0.025118904 -0.074350148 -0.027432371 2.3509886e-38
0.027037088 -0.074350148 -0.027432371 2.3509886e-38
0.029050075 -0.074975863 -0.030522157 2.3509886e-38
0.030973677 -0.074975863 -0.030522157 2.3509886e-38
0.032897279 -0.074975863 -0.030522157 2.3509886e-38
0.034820877 -0.074975863 -0.030522157 2.3509886e-38
0.03689326 -0.075775132 -0.034468938 2.3509886e-38
0.03882378 -0.075775132 -0.034468938 2.3509886e-38
0.040918101 -0.076580182 -0.038444329 2.3509886e-38
0.042855591 -0.076580182 -0.038444329 2.3509886e-38
0.044928588 -0.077193946 -0.041475106 2.3509886e-38
0.047058467 -0.078009307 -0.0455014 2.3509886e-38
0.049150407 -0.078606024 -0.048448015 2.3509886e-38
0.051105436 -0.078606024 -0.048448015 2.3509886e-38
0.053477321 -0.080238104 -0.056507278 2.3509886e-38
0.055446479 -0.080238104 -0.056507278 2.3509886e-38
0.057581622 -0.080846712 -0.059512544 2.3509883e-38
0.059556056 -0.080846712 -0.059512544 2.3326208e-38
0.061530482 -0.080846712 -0.059512544 2.3418045e-38
0.063741162 -0.081637636 -0.063418195 2.3234015e-38
0.065975174 -0.082459882 -0.067478463 2.3325494e-38
0.06796357 -0.082459882 -0.067478463 2.3509527e-38
0.069951966 -0.082459882 -0.067478463 1.9357565e-39
-0.070595607 -0.063402236 0.035555433 8.850042e-39
-0.068787858 -0.063402236 0.035555433 7.4678292e-39
-0.066802368 -0.062801987 0.038494062 1.5950549e-38
-0.064999774 -0.062801987 0.038494062 2.0836561e-38
-0.063197181 -0.062801987 0.038494062 2.3418036e-38
-0.061394587 -0.062801987 0.038494062 2.3141805e-38
-0.059430182 -0.062183902 0.041519951 1.816324e-38
-0.057632893 -0.062183902 0.041519951 1.797885e-38
-0.055835605 -0.062183902 0.041519951 2.3418036e-38
-0.054038316 -0.062183902 0.041519951 2.3509876e-38
-0.052241027 -0.062183902 0.041519951 2.3418042e-38
-0.050443746 -0.062183902 0.041519951 2.3233296e-38
-0.048646457 -0.062183902 0.041519951 2.3509883e-38
-0.046849176 -0.062183902 0.041519951 2.3509886e-38
-0.045171257 -0.062801987 0.038494062 2.3509886e-38
-0.043368664 -0.062801987 0.038494062 2.3509886e-38
-0.041781735 -0.064027563 0.03249402 2.3509886e-38
-0.039968621 -0.064027563 0.03249402 2.3509886e-38
-0.038155511 -0.064027563 0.03249402 2.3509886e-38
-0.036342397 -0.064027563 0.03249402 2.3509886e-38
-0.034643047 -0.06483078 0.028561782 2.3509886e-38
-0.032904454 -0.065442696 0.025566053 2.3509886e-38
-0.031079195 -0.065442696 0.025566053 2.3509886e-38
-0.029325254 -0.066058174 0.022552919 2.3509886e-38
-0.027561132 -0.066677198 0.01952238 2.3509886e-38
-0.025725275 -0.066677198 0.01952238 2.3509886e-38
-0.023943529 -0.067277551 0.016583275 2.3509886e-38
-0.02210252 -0.067277551 0.016583275 2.3509886e-38
-0.020261511 -0.067277551 0.016583275 2.3509886e-38
-0.018473819 -0.068105742 0.012528729 2.3509886e-38
-0.016625702 -0.068105742 0.012528729 2.3509886e-38
-0.014777582 -0.068105742 0.012528729 2.3509886e-38
-0.012929466 -0.068105742 0.012528729 2.3509886e-38
-0.011081347 -0.068105742 0.012528729 2.3509886e-38
-0.0092462841 -0.068714127 0.0095502846 2.3509886e-38
-0.0074008219 -0.069325984 0.0065549128 2.3509886e-38
-0.0055484157 -0.070767209 -0.00050084665 2.3509886e-38
-0.003677452 -0.070767209 -0.00050084665 2.3509886e-38
-0.0018064883 -0.070767209 -0.00050084665 2.3509886e-38
9.0813264e-05 -0.071994603 -0.0065097101 2.3509886e-38
0.0019968916 -0.072812736 -0.010515023 2.3509886e-38
0.0038854126 -0.072812736 -0.010515023 2.3509886e-38
0.0057739336 -0.072812736 -0.010515023 2.3509886e-38
0.0076965867 -0.073424488 -0.013509918 2.3509886e-38
0.0096421903 -0.074229598 -0.017451454 2.3509886e-38
0.011542873 -0.074229598 -0.017451454 2.3509886e-38
0.013494087 -0.074849263 -0.020485092 2.3509886e-38
0.015400089 -0.074849263 -0.020485092 2.3509886e-38
0.017365228 -0.075448349 -0.023417998 2.3509886e-38
0.019276373 -0.075448349 -0.023417998 2.3509886e-38
0.021282539 -0.07626833 -0.027432371 2.3509886e-38
0.023200722 -0.07626833 -0.027432371 2.3509886e-38
0.025118904 -0.07626833 -0.027432371 2.3509886e-38
0.027037088 -0.07626833 -0.027432371 2.3509886e-38
0.029050075 -0.076899469 -0.030522157 2.3509886e-38
0.030973677 -0.076899469 -0.030522157 2.3509886e-38
0.032897279 -0.076899469 -0.030522157 2.3509886e-38
0.034820877 -0.076899469 -0.030522157 2.3509886e-38
0.03689326 -0.077705652 -0.034468938 2.3509886e-38
0.038980607 -0.078517675 -0.038444329 2.3509886e-38
0.040918101 -0.078517675 -0.038444329 2.3509886e-38
0.042855591 -0.078517675 -0.038444329 2.3509886e-38
0.044928588 -0.079136744 -0.041475106 2.3509886e-38
0.047058467 -0.079959169 -0.0455014 2.3509886e-38
0.049008332 -0.079959169 -0.0455014 2.3509886e-38
0.051105436 -0.080561057 -0.048448015 2.3509886e-38
0.053477321 -0.082207277 -0.056507278 2.3509886e-38
0.055446479 -0.082207277 -0.056507278 2.3509886e-38
0.057415642 -0.082207277 -0.056507278 2.3509886e-38
0.059384804 -0.082207277 -0.056507278 2.3049624e-38
0.061530482 -0.082821131 -0.059512544 2.3234376e-38
0.063741162 -0.083618924 -0.063418195 2.277376e-38
0.065722451 -0.083618924 -0.063418195 2.341805e-38
0.067703724 -0.083618924 -0.063418195 2.3141467e-38
0.069951966 -0.084448278 -0.067478463 3.3194098e-39
-0.070791528 -0.065840676 0.03249402 8.8493245e-39
-0.068787858 -0.065209985 0.035555433 8.204318e-39
-0.066802368 -0.06460458 0.038494062 1.9084481e-38
-0.064999774 -0.06460458 0.038494062 2.2311331e-38
-0.063364632 -0.065209985 0.035555433 2.3509873e-38
-0.061556891 -0.065209985 0.035555433 2.2496436e-38
-0.059591994 -0.06460458 0.038494062 1.7978848e-38
-0.0577894 -0.06460458 0.038494062 1.8071046e-38
-0.055835605 -0.06398119 0.041519951 2.3326199e-38
-0.054038316 -0.06398119 0.041519951 2.3509876e-38
-0.052241027 -0.06398119 0.041519951 2.323365e-38
-0.050443746 -0.06398119 0.041519951 2.3049261e-38
-0.048646457 -0.06398119 0.041519951 2.3509883e-38
-0.046849176 -0.06398119 0.041519951 2.3509886e-38
-0.045051884 -0.06398119 0.041519951 2.3509886e-38
-0.043368664 -0.06460458 0.038494062 2.3509886e-38
-0.041671697 -0.065209985 0.035555433 2.3509886e-38
-0.039968621 -0.065840676 0.03249402 2.3509886e-38
-0.038155511 -0.065840676 0.03249402 2.3509886e-38
-0.036342397 -0.065840676 0.03249402 2.3509886e-38
-0.034643047 -0.066650793 0.028561782 2.3509886e-38
-0.032904454 -0.067267954 0.025566053 2.3509886e-38
-0.031079195 -0.067267954 0.025566053 2.3509886e-38
-0.029325254 -0.067888707 0.022552919 2.3509886e-38
-0.027561132 -0.068513051 0.01952238 2.3509886e-38
-0.025725275 -0.068513051 0.01952238 2.3509886e-38
-0.023943529 -0.069118559 0.016583275 2.3509886e-38
-0.02210252 -0.069118559 0.016583275 2.3509886e-38
-0.020261511 -0.069118559 0.016583275 2.3509886e-38
-0.018473819 -0.069953859 0.012528729 2.3509886e-38
-0.016625702 -0.069953859 0.012528729 2.3509886e-38
-0.014777582 -0.069953859 0.012528729 2.3509886e-38
-0.012929466 -0.069953859 0.012528729 2.3509886e-38
-0.011081347 -0.069953859 0.012528729 2.3509886e-38
-0.0092332289 -0.069953859 0.012528729 2.3509886e-38
-0.0073929448 -0.070567474 0.0095502846 2.3509886e-38
-0.0055448711 -0.071805179 0.003542494 2.3509886e-38
-0.003677452 -0.072638169 -0.00050084665 2.3509886e-38
-0.0018064883 -0.072638169 -0.00050084665 2.3509886e-38
7.7359378e-05 -0.073243722 -0.0034401901 2.3509886e-38
0.0019723121 -0.073876098 -0.0065097101 2.3509886e-38
0.0038854126 -0.074701265 -0.010515023 2.3509886e-38
0.0057739336 -0.074701265 -0.010515023 2.3509886e-38
0.0076965867 -0.075318262 -0.013509918 2.3509886e-38
0.0096421903 -0.076130286 -0.017451454 2.3509886e-38
0.011542873 -0.076130286 -0.017451454 2.3509886e-38
0.013494087 -0.076755255 -0.020485092 2.3509886e-38
0.015400089 -0.076755255 -0.020485092 2.3509886e-38
0.017365228 -0.077359483 -0.023417998 2.3509886e-38
0.019276373 -0.077359483 -0.023417998 2.3509886e-38
0.021187518 -0.077359483 -0.023417998 2.3509886e-38
0.023200722 -0.078186512 -0.027432371 2.3509886e-38
0.025118904 -0.078186512 -0.027432371 2.3509886e-38
0.027037088 -0.078186512 -0.027432371 2.3509886e-38
0.029050075 -0.07882306 -0.030522157 2.3509886e-38
0.030973677 -0.07882306 -0.030522157 2.3509886e-38
0.032897279 -0.07882306 -0.030522157 2.3509886e-38
0.034820877 -0.07882306 -0.030522157 2.3509886e-38
0.03689326 -0.079636171 -0.034468938 2.3509886e-38
0.038980607 -0.080455169 -0.038444329 2.3509886e-38
0.040918101 -0.080455169 -0.038444329 2.3509886e-38
0.042855591 -0.080455169 -0.038444329 2.3509886e-38
0.044928588 -0.081079558 -0.041475106 2.3509886e-38
0.047058467 -0.081909031 -0.0455014 2.3509886e-38
0.049008332 -0.081909031 -0.0455014 2.3509886e-38
0.051105436 -0.082516089 -0.048448015 2.3509886e-38
0.053477321 -0.084176436 -0.056507278 2.3509886e-38
0.055446479 -0.084176436 -0.056507278 2.3509886e-38
0.057415642 -0.084176436 -0.056507278 2.341805e-38
0.059384804 -0.084176436 -0.056507278 2.3234379e-38
0.061530482 -0.084795564 -0.059512544 2.2865955e-38
0.063504919 -0.084795564 -0.059512544 2.3234379e-38
0.065722451 -0.085600197 -0.063418195 2.3234379e-38
0.067703724 -0.085600197 -0.063418195 2.341805e-38
0.069684997 -0.085600197 -0.063418195 4.9789312e-39
-0.070595607 -0.067017719 0.035555433 7.0976076e-39
-0.068787858 -0.067017719 0.035555433 8.4809049e-39
-0.066980124 -0.067017719 0.035555433 2.000644e-38
-0.065172374 -0.067017719 0.035555433 2.2403171e-38
-0.06353908 -0.06765379 0.03249402 2.2495722e-38
-0.061725974 -0.06765379 0.03249402 2.1943261e-38
-0.059591994 -0.066407159 0.038494062 1.7794457e-38
-0.0577894 -0.066407159 0.038494062 1.797885e-38
-0.055835605 -0.065778479 0.041519951 2.3049612e-38
-0.054038316 -0.065778479 0.041519951 2.3418039e-38
-0.052241027 -0.065778479 0.041519951 2.3509879e-38
-0.050443746 -0.065778479 0.041519951 2.3233652e-38
-0.048646457 -0.065778479 0.041519951 2.3509883e-38
-0.046849176 -0.065778479 0.041519951 2.3509886e-38
-0.045051884 -0.065778479 0.041519951 2.3509886e-38
-0.043368664 -0.066407159 0.038494062 2.3509886e-38
-0.041671697 -0.067017719 0.035555433 2.3509886e-38
-0.039968621 -0.06765379 0.03249402 2.3509886e-38
-0.038155511 -0.06765379 0.03249402 2.3509886e-38
-0.036342397 -0.06765379 0.03249402 2.3509886e-38
-0.034529284 -0.06765379 0.03249402 2.3509886e-38
-0.032904454 -0.069093212 0.025566053 2.3509886e-38
-0.031079195 -0.069093212 0.025566053 2.3509886e-38
-0.029325254 -0.069719255 0.022552919 2.3509886e-38
-0.027561132 -0.070348918 0.01952238 2.3509886e-38
-0.025725275 -0.070348918 0.01952238 2.3509886e-38
-0.023943529 -0.070959568 0.016583275 2.3509886e-38
-0.02210252 -0.070959568 0.016583275 2.3509886e-38
-0.020261511 -0.070959568 0.016583275 2.3509886e-38
-0.018473819 -0.071801975 0.012528729 2.3509886e-38
-0.016625702 -0.071801975 0.012528729 2.3509886e-38
-0.014777582 -0.071801975 0.012528729 2.3509886e-38
-0.012929466 -0.071801975 0.012528729 2.3509886e-38
-0.011081347 -0.071801975 0.012528729 2.3509886e-38
-0.0092332289 -0.071801975 0.012528729 2.3509886e-38
-0.0073929448 -0.072420821 0.0095502846 2.3509886e-38
-0.0055448711 -0.073669046 0.003542494 2.3509886e-38
-0.0036809966 -0.073669046 0.003542494 2.3509886e-38
-0.0018064883 -0.074509144 -0.00050084665 2.3509886e-38
6.4473599e-05 -0.074509144 -0.00050084665 2.3509886e-38
0.0019534752 -0.075119838 -0.0034401901 2.3509886e-38
0.003853811 -0.075757593 -0.0065097101 2.3509886e-38
0.0057353089 -0.075757593 -0.0065097101 2.3509886e-38
0.0076624556 -0.076589778 -0.010515023 2.3509886e-38
0.0095903594 -0.077212036 -0.013509918 2.3509886e-38
0.011542873 -0.078030959 -0.017451454 2.3509886e-38
0.013443558 -0.078030959 -0.017451454 2.3509886e-38
0.015400089 -0.078661263 -0.020485092 2.3509886e-38
0.017306091 -0.078661263 -0.020485092 2.3509886e-38
0.019276373 -0.079270631 -0.023417998 2.3509886e-38
0.021187518 -0.079270631 -0.023417998 2.3509886e-38
0.023098662 -0.079270631 -0.023417998 2.3509886e-38
0.025118904 -0.080104694 -0.027432371 2.3509886e-38
0.027037088 -0.080104694 -0.027432371 2.3509886e-38
0.029050075 -0.080746666 -0.030522157 2.3509886e-38
0.030973677 -0.080746666 -0.030522157 2.3509886e-38
0.032897279 -0.080746666 -0.030522157 2.3509886e-38
0.03496274 -0.081566691 -0.034468938 2.3509886e-38
0.037043117 -0.082392648 -0.038444329 2.3509886e-38
0.038980607 -0.082392648 -0.038444329 2.3509886e-38
0.040918101 -0.082392648 -0.038444329 2.3509886e-38
0.042855591 -0.082392648 -0.038444329 2.3509886e-38
0.044928588 -0.083022356 -0.041475106 2.3509886e-38
0.047058467 -0.083858907 -0.0455014 2.3509886e-38
0.049008332 -0.083858907 -0.0455014 2.3509886e-38
0.051105436 -0.084471121 -0.048448015 2.3509886e-38
0.053477321 -0.086145595 -0.056507278 2.3509886e-38
0.055446479 -0.086145595 -0.056507278 2.3509886e-38
0.057415642 -0.086145595 -0.056507278 2.341805e-38
0.059384804 -0.086145595 -0.056507278 2.3234379e-38
0.061530482 -0.086769998 -0.059512544 2.2497894e-38
0.063504919 -0.086769998 -0.059512544 2.3142544e-38
0.065722451 -0.087581471 -0.063418195 2.3142544e-38
0.067703724 -0.087581471 -0.063418195 2.3234379e-38
0.069684997 -0.087581471 -0.063418195 8.8518679e-39
-0.070595607 -0.068825468 0.035555433 5.2536978e-39
-0.068787858 -0.068825468 0.035555433 8.665299e-39
-0.066980124 -0.068825468 0.035555433 2.0558535e-38
-0.065172374 -0.068825468 0.035555433 2.3509518e-38
-0.06353908 -0.069466904 0.03249402 2.3233288e-38
-0.061725974 -0.069466904 0.03249402 2.1758869e-38
-0.059591994 -0.068209752 0.038494062 1.7702618e-38
-0.0577894 -0.068209752 0.038494062 1.7886653e-38
-0.055835605 -0.067575768 0.041519951 2.2957414e-38
-0.054038316 -0.067575768 0.041519951 2.3509873e-38
-0.052241027 -0.067575768 0.041519951 2.3509879e-38
-0.050443746 -0.067575768 0.041519951 2.350988e-38
-0.048646457 -0.067575768 0.041519951 2.3325492e-38
-0.046849176 -0.067575768 0.041519951 2.3509886e-38
-0.045051884 -0.067575768 0.041519951 2.3509886e-38
-0.043254599 -0.067575768 0.041519951 2.3509886e-38
-0.041566074 -0.068209752 0.038494062 2.3509886e-38
-0.039863952 -0.068825468 0.035555433 2.3509886e-38
-0.038056206 -0.068825468 0.035555433 2.3509886e-38
-0.036342397 -0.069466904 0.03249402 2.3509886e-38
-0.034529284 -0.069466904 0.03249402 2.3509886e-38
-0.032904454 -0.070918471 0.025566053 2.3509886e-38
-0.031079195 -0.070918471 0.025566053 2.3509886e-38
-0.029325254 -0.071549803 0.022552919 2.3509886e-38
-0.027561132 -0.072184771 0.01952238 2.3509886e-38
-0.025725275 -0.072184771 0.01952238 2.3509886e-38
-0.023889422 -0.072184771 0.01952238 2.3509886e-38
-0.022053562 -0.072184771 0.01952238 2.3509886e-38
-0.020261511 -0.072800577 0.016583275 2.3509886e-38
-0.018420503 -0.072800577 0.016583275 2.3509886e-38
-0.016625702 -0.073650107 0.012528729 2.3509886e-38
-0.014777582 -0.073650107 0.012528729 2.3509886e-38
-0.012929466 -0.073650107 0.012528729 2.3509886e-38
-0.011081347 -0.073650107 0.012528729 2.3509886e-38
-0.0092462841 -0.074274153 0.0095502846 2.3509886e-38
-0.0074008219 -0.07490176 0.0065549128 2.3509886e-38
-0.0055448711 -0.075532928 0.003542494 2.3509886e-38
-0.0036809966 -0.075532928 0.003542494 2.3509886e-38
-0.0018064883 -0.076380104 -0.00050084665 2.3509886e-38
6.4473599e-05 -0.076380104 -0.00050084665 2.3509886e-38
0.0019534752 -0.076995969 -0.0034401901 2.3509886e-38
0.0038295919 -0.076995969 -0.0034401901 2.3509886e-38
0.0057353089 -0.077639103 -0.0065097101 2.3509886e-38
0.0076624556 -0.078478307 -0.010515023 2.3509886e-38
0.0095903594 -0.079105809 -0.013509918 2.3509886e-38
0.011484131 -0.079105809 -0.013509918 2.3509886e-38
0.013443558 -0.079931647 -0.017451454 2.3509886e-38
0.01534424 -0.079931647 -0.017451454 2.3509886e-38
0.017306091 -0.080567271 -0.020485092 2.3509886e-38
0.019276373 -0.08118178 -0.023417998 2.3509886e-38
0.021187518 -0.08118178 -0.023417998 2.3509886e-38
0.023098662 -0.08118178 -0.023417998 2.3509886e-38
0.025118904 -0.08202289 -0.027432371 2.3509886e-38
0.027037088 -0.08202289 -0.027432371 2.3509886e-38
0.029050075 -0.082670271 -0.030522157 2.3509886e-38
0.030973677 -0.082670271 -0.030522157 2.3509886e-38
0.033032216 -0.083497211 -0.034468938 2.3509886e-38
0.03496274 -0.083497211 -0.034468938 2.3509886e-38
0.037043117 -0.084330142 -0.038444329 2.3509886e-38
0.038980607 -0.084330142 -0.038444329 2.3509886e-38
0.040918101 -0.084330142 -0.038444329 2.3509886e-38
0.042985782 -0.084965169 -0.041475106 2.3509886e-38
0.044928588 -0.084965169 -0.041475106 2.3509886e-38
0.047058467 -0.085808769 -0.0455014 2.3509886e-38
