# .PCD v0.7 - Point Cloud Data file format
VERSION 0.7
FIELDS x y z rgb
SIZE 4 4 4 4
TYPE F F F F
COUNT 1 1 1 1
WIDTH 909
HEIGHT 1
VIEWPOINT 0 0 0 1 0 0 0
POINTS 909
DATA ascii
0.037312467 -0.066650793 0.0074390955 2.2220237e-38
0.039132472 -0.066650793 0.0074390955 2.3234379e-38
-0.046266507 -0.06765379 0.011371333 5.6235663e-39
-0.044453394 -0.06765379 0.011371333 6.4533284e-39
-0.028428301 -0.070959568 -0.0045394115 2.3509883e-38
-0.026587293 -0.070959568 -0.0045394115 2.2956712e-38
-0.024746284 -0.070959568 -0.0045394115 2.3509886e-38
-0.022866625 -0.070348918 -0.0016003065 2.3509886e-38
-0.020996232 -0.069719255 0.0014302321 2.3509886e-38
-0.019136634 -0.069093212 0.0044433661 2.3509886e-38
-0.017311372 -0.069093212 0.0044433661 2.3509886e-38
-0.015467728 -0.068470791 0.0074390955 2.3509886e-38
-0.013647723 -0.068470791 0.0074390955 2.3509886e-38
-0.011827716 -0.068470791 0.0074390955 2.3509527e-38
-0.010007708 -0.068470791 0.0074390955 2.3509886e-38
-0.0081877029 -0.068470791 0.0074390955 2.3509886e-38
-0.0063676955 -0.068470791 0.0074390955 2.3141103e-38
-0.0045476882 -0.068470791 0.0074390955 2.2403538e-38
-0.0027276827 -0.068470791 0.0074390955 2.3509886e-38
-0.00090767536 -0.068470791 0.0074390955 2.3509886e-38
0.00094122067 -0.069093212 0.0044433661 2.0928408e-38
0.0027664797 -0.069093212 0.0044433661 1.8439126e-38
0.0045917388 -0.069093212 0.0044433661 2.2403538e-38
0.0063723521 -0.068470791 0.0074390955 2.2587929e-38
0.0081923576 -0.068470791 0.0074390955 2.3509886e-38
0.010012365 -0.068470791 0.0074390955 2.3509886e-38
0.011832372 -0.068470791 0.0074390955 2.3509886e-38
0.013652378 -0.068470791 0.0074390955 2.3141103e-38
0.019275699 -0.069719255 0.0014302321 2.341805e-38
0.021106243 -0.069719255 0.0014302321 2.341805e-38
0.022936784 -0.069719255 0.0014302321 2.341805e-38
0.024669591 -0.069093212 0.0044433661 2.3233303e-38
0.026392426 -0.068470791 0.0074390955 2.2957079e-38
0.028212432 -0.068470791 0.0074390955 2.3048914e-38
0.030032437 -0.068470791 0.0074390955 2.341805e-38
0.031697318 -0.06765379 0.011371333 2.3417691e-38
0.033510432 -0.06765379 0.011371333 2.3141467e-38
0.035323542 -0.06765379 0.011371333 2.3417691e-38
0.037136655 -0.06765379 0.011371333 2.2680492e-38
0.039132472 -0.068470791 0.0074390955 2.3417691e-38
0.041096922 -0.069093212 0.0044433661 2.341805e-38
0.042922184 -0.069093212 0.0044433661 2.2680136e-38
0.045421775 -0.071801975 -0.0085939579 2.3141467e-38
0.047269892 -0.071801975 -0.0085939579 2.3417691e-38
0.049118012 -0.071801975 -0.0085939579 1.69676e-38
-0.048079617 -0.069466904 0.011371333 2.3509879e-38
-0.046266507 -0.069466904 0.011371333 2.3509518e-38
-0.044453394 -0.069466904 0.011371333 2.350952e-38
-0.037633345 -0.072800577 -0.0045394115 2.2956709e-38
-0.035792336 -0.072800577 -0.0045394115 2.350988e-38
-0.03026931 -0.072800577 -0.0045394115 2.31411e-38
-0.028428301 -0.072800577 -0.0045394115 2.3509883e-38
-0.026587293 -0.072800577 -0.0045394115 2.2680125e-38
-0.024746284 -0.072800577 -0.0045394115 2.3509886e-38
-0.022866625 -0.072184771 -0.0016003065 2.3509886e-38
-0.020996232 -0.071549803 0.0014302321 2.341769e-38
-0.019136634 -0.070918471 0.0044433661 2.3417691e-38
-0.017311372 -0.070918471 0.0044433661 2.3417691e-38
-0.015486113 -0.070918471 0.0044433661 2.3509886e-38
-0.013660855 -0.070918471 0.0044433661 2.3509886e-38
-0.011835595 -0.070918471 0.0044433661 2.3509527e-38
-0.010010335 -0.070918471 0.0044433661 2.3417691e-38
-0.0081877029 -0.070290804 0.0074390955 2.341769e-38
-0.0063676955 -0.070290804 0.0074390955 2.3233299e-38
-0.0045476882 -0.070290804 0.0074390955 2.3509886e-38
-0.0027276827 -0.070290804 0.0074390955 2.341769e-38
-0.00090767536 -0.070290804 0.0074390955 2.3141103e-38
0.00094122067 -0.070918471 0.0044433661 2.3509886e-38
0.0027664797 -0.070918471 0.0044433661 2.3233299e-38
0.0045917388 -0.070918471 0.0044433661 2.3233299e-38
0.0063723521 -0.070290804 0.0074390955 2.3509886e-38
0.0081923576 -0.070290804 0.0074390955 2.3509886e-38
0.010012365 -0.070290804 0.0074390955 2.3048907e-38
0.011832372 -0.070290804 0.0074390955 2.3509886e-38
0.013652378 -0.070290804 0.0074390955 2.3048907e-38
0.015472385 -0.070290804 0.0074390955 2.3509886e-38
0.017368555 -0.070918471 0.0044433661 2.3048907e-38
0.019275699 -0.071549803 0.0014302321 2.3509886e-38
0.021106243 -0.071549803 0.0014302321 2.3141467e-38
0.022936784 -0.071549803 0.0014302321 2.341805e-38
0.024669591 -0.070918471 0.0044433661 2.341805e-38
0.026494849 -0.070918471 0.0044433661 2.341805e-38
0.028212432 -0.070290804 0.0074390955 2.341805e-38
0.030032437 -0.070290804 0.0074390955 2.341805e-38
0.031697318 -0.069466904 0.011371333 2.341805e-38
0.033510432 -0.069466904 0.011371333 2.3325856e-38
0.035323542 -0.069466904 0.011371333 2.2588295e-38
0.037136655 -0.069466904 0.011371333 2.341805e-38
0.039132472 -0.070290804 0.0074390955 2.2588295e-38
0.041096922 -0.070918471 0.0044433661 2.3325856e-38
0.042922184 -0.070918471 0.0044433661 2.3325856e-38
0.04521206 -0.072800577 -0.0045394115 2.341805e-38
0.047053069 -0.072800577 -0.0045394115 2.2957078e-38
0.048894078 -0.072800577 -0.0045394115 2.2867037e-38
0.050735086 -0.072800577 -0.0045394115 2.1673174e-38
0.052576095 -0.072800577 -0.0045394115 1.4946849e-38
0.054417107 -0.072800577 -0.0045394115 7.5704827e-39
0.056258116 -0.072800577 -0.0045394115 3.3276887e-39
-0.053687871 -0.072110802 0.0074390955 2.3509876e-38
-0.051867865 -0.072110802 0.0074390955 2.3509879e-38
-0.048079617 -0.071280017 0.011371333 2.350988e-38
-0.046266507 -0.071280017 0.011371333 2.350988e-38
-0.044587839 -0.072110802 0.0074390955 2.3509883e-38
-0.037633345 -0.074641585 -0.0045394115 2.3509883e-38
-0.035792336 -0.074641585 -0.0045394115 2.3509883e-38
-0.033951327 -0.074641585 -0.0045394115 2.3509883e-38
-0.032110319 -0.074641585 -0.0045394115 2.3509883e-38
-0.03026931 -0.074641585 -0.0045394115 2.3509886e-38
-0.028428301 -0.074641585 -0.0045394115 2.3509886e-38
-0.026538335 -0.074020624 -0.0016003065 2.3509886e-38
-0.024702482 -0.074020624 -0.0016003065 2.3509886e-38
-0.022866625 -0.074020624 -0.0016003065 2.3509886e-38
-0.020996232 -0.073380336 0.0014302321 2.3509886e-38
-0.019136634 -0.072743744 0.0044433661 2.3509886e-38
-0.017311372 -0.072743744 0.0044433661 2.3509886e-38
-0.015486113 -0.072743744 0.0044433661 2.3509886e-38
-0.013660855 -0.072743744 0.0044433661 2.3509886e-38
-0.011827716 -0.072110802 0.0074390955 2.3509886e-38
-0.010007708 -0.072110802 0.0074390955 2.3509886e-38
-0.0081877029 -0.072110802 0.0074390955 2.3509886e-38
-0.0063676955 -0.072110802 0.0074390955 2.3509886e-38
-0.0045476882 -0.072110802 0.0074390955 2.3509886e-38
-0.0027276827 -0.072110802 0.0074390955 2.3509886e-38
-0.00090767536 -0.072110802 0.0074390955 2.3509886e-38
0.00094122067 -0.072743744 0.0044433661 2.3509886e-38
0.0027664797 -0.072743744 0.0044433661 2.3509886e-38
0.0045917388 -0.072743744 0.0044433661 2.3509886e-38
0.0064169979 -0.072743744 0.0044433661 2.3509886e-38
0.0081923576 -0.072110802 0.0074390955 2.3509886e-38
0.010012365 -0.072110802 0.0074390955 2.3509886e-38
0.011892776 -0.072743744 0.0044433661 2.3509886e-38
0.013652378 -0.072110802 0.0074390955 2.3509886e-38
0.015472385 -0.072110802 0.0074390955 2.3509886e-38
0.017368555 -0.072743744 0.0044433661 2.3509886e-38
0.019275699 -0.073380336 0.0014302321 2.3509886e-38
0.021106243 -0.073380336 0.0014302321 2.341805e-38
0.022936784 -0.073380336 0.0014302321 2.341805e-38
0.024669591 -0.072743744 0.0044433661 2.341805e-38
0.026494849 -0.072743744 0.0044433661 2.341805e-38
0.028320108 -0.072743744 0.0044433661 2.341805e-38
0.030032437 -0.072110802 0.0074390955 2.341805e-38
0.031697318 -0.071280017 0.011371333 2.341805e-38
0.033510432 -0.071280017 0.011371333 2.341805e-38
0.035323542 -0.071280017 0.011371333 2.341805e-38
0.037136655 -0.071280017 0.011371333 2.341805e-38
0.039132472 -0.072110802 0.0074390955 2.341805e-38
0.041096922 -0.072743744 0.0044433661 2.341805e-38
0.042922184 -0.072743744 0.0044433661 2.341805e-38
0.04521206 -0.074641585 -0.0045394115 2.341805e-38
0.047053069 -0.074641585 -0.0045394115 2.341805e-38
0.048731752 -0.074020624 -0.0016003065 2.2958873e-38
0.050567608 -0.074020624 -0.0016003065 2.1671731e-38
0.052403465 -0.074020624 -0.0016003065 2.1120718e-38
-0.055912033 -0.075856477 -0.0016003065 2.3509876e-38
-0.053687871 -0.073930815 0.0074390955 2.3509879e-38
-0.051867865 -0.073930815 0.0074390955 2.3509879e-38
-0.04822785 -0.073930815 0.0074390955 2.350988e-38
-0.046407845 -0.073930815 0.0074390955 2.350988e-38
-0.044587839 -0.073930815 0.0074390955 2.3509883e-38
-0.039591655 -0.07734634 -0.0085939579 2.3509527e-38
-0.037633345 -0.076482594 -0.0045394115 2.3509883e-38
-0.035792336 -0.076482594 -0.0045394115 2.3509883e-38
-0.033951327 -0.076482594 -0.0045394115 2.3509883e-38
-0.032110319 -0.076482594 -0.0045394115 2.3509883e-38
-0.03026931 -0.076482594 -0.0045394115 2.3509886e-38
-0.028428301 -0.076482594 -0.0045394115 2.3509886e-38
-0.026538335 -0.075856477 -0.0016003065 2.3509886e-38
-0.024702482 -0.075856477 -0.0016003065 2.3509886e-38
-0.022866625 -0.075856477 -0.0016003065 2.3509886e-38
-0.020996232 -0.075210884 0.0014302321 2.3509886e-38
-0.019136634 -0.074569002 0.0044433661 2.3509886e-38
-0.017311372 -0.074569002 0.0044433661 2.3509886e-38
-0.015486113 -0.074569002 0.0044433661 2.3509886e-38
-0.013660855 -0.074569002 0.0044433661 2.3509886e-38
-0.011827716 -0.073930815 0.0074390955 2.3509886e-38
-0.010007708 -0.073930815 0.0074390955 2.3509886e-38
-0.0081877029 -0.073930815 0.0074390955 2.3509886e-38
-0.0063676955 -0.073930815 0.0074390955 2.3509886e-38
-0.0045476882 -0.073930815 0.0074390955 2.3509886e-38
-0.0027276827 -0.073930815 0.0074390955 2.3509886e-38
-0.00090767536 -0.073930815 0.0074390955 2.3509886e-38
0.00094122067 -0.074569002 0.0044433661 2.3509886e-38
0.0027664797 -0.074569002 0.0044433661 2.3509886e-38
0.0045917388 -0.074569002 0.0044433661 2.3509886e-38
0.0064169979 -0.074569002 0.0044433661 2.3509886e-38
0.0082422579 -0.074569002 0.0044433661 2.3509886e-38
0.010067516 -0.074569002 0.0044433661 2.3509886e-38
0.01195353 -0.075210884 0.0014302321 2.3509886e-38
0.013718034 -0.074569002 0.0044433661 2.3509886e-38
0.015543294 -0.074569002 0.0044433661 2.3509886e-38
0.017368555 -0.074569002 0.0044433661 2.3509886e-38
0.019358061 -0.075856477 -0.0016003065 2.3509886e-38
0.021193914 -0.075856477 -0.0016003065 2.3509883e-38
0.023029771 -0.075856477 -0.0016003065 2.3418045e-38
0.024767324 -0.075210884 0.0014302321 2.3418047e-38
0.026494849 -0.074569002 0.0044433661 2.3418045e-38
0.028320108 -0.074569002 0.0044433661 2.3418047e-38
0.030032437 -0.073930815 0.0074390955 2.3418045e-38
0.031697318 -0.073093131 0.011371333 2.3418047e-38
0.033510432 -0.073093131 0.011371333 2.3418045e-38
0.035323542 -0.073093131 0.011371333 2.3418047e-38
0.037136655 -0.073093131 0.011371333 2.3418045e-38
0.039132472 -0.073930815 0.0074390955 2.3418047e-38
0.041096922 -0.074569002 0.0044433661 2.3418045e-38
0.043072749 -0.075210884 0.0014302321 2.3418047e-38
0.04521206 -0.076482594 -0.0045394115 2.3418045e-38
0.046895895 -0.075856477 -0.0016003065 2.3418047e-38
0.048731752 -0.075856477 -0.0016003065 2.3234376e-38
0.050567608 -0.075856477 -0.0016003065 2.2867037e-38
0.052403465 -0.075856477 -0.0016003065 2.2499695e-38
0.054056 -0.075210884 0.0014302321 2.2407501e-38
-0.067313425 -0.079194456 -0.0085939579 1.8347279e-38
-0.065248482 -0.078323603 -0.0045394115 2.203546e-38
-0.063407473 -0.078323603 -0.0045394115 2.3509873e-38
-0.061566465 -0.078323603 -0.0045394115 2.3509873e-38
-0.059920952 -0.079194456 -0.0085939579 2.3325843e-38
-0.057884447 -0.078323603 -0.0045394115 2.3509879e-38
-0.055912033 -0.07769233 -0.0016003065 2.3509879e-38
-0.053945988 -0.077041432 0.0014302321 2.2403891e-38
-0.052115455 -0.077041432 0.0014302321 2.350988e-38
-0.050520409 -0.078323603 -0.0045394115 2.350988e-38
-0.048454367 -0.077041432 0.0014302321 2.3509883e-38
-0.046623822 -0.077041432 0.0014302321 2.3509883e-38
-0.044793282 -0.077041432 0.0014302321 2.3509886e-38
-0.043287888 -0.079194456 -0.0085939579 2.3509886e-38
-0.041315366 -0.078323603 -0.0045394115 2.3509886e-38
-0.039474353 -0.078323603 -0.0045394115 2.3509886e-38
-0.037633345 -0.078323603 -0.0045394115 2.3509886e-38
-0.035792336 -0.078323603 -0.0045394115 2.3509886e-38
-0.033951327 -0.078323603 -0.0045394115 2.3509886e-38
-0.032110319 -0.078323603 -0.0045394115 2.3509886e-38
-0.03026931 -0.078323603 -0.0045394115 2.3509886e-38
-0.028428301 -0.078323603 -0.0045394115 2.3509886e-38
-0.026538335 -0.07769233 -0.0016003065 2.3509886e-38
-0.024702482 -0.07769233 -0.0016003065 2.3509886e-38
-0.022866625 -0.07769233 -0.0016003065 2.3509886e-38
-0.021030769 -0.07769233 -0.0016003065 2.3509886e-38
-0.019165687 -0.077041432 0.0014302321 2.3509886e-38
-0.017311372 -0.07639426 0.0044433661 2.3509886e-38
-0.015486113 -0.07639426 0.0044433661 2.3509886e-38
-0.013660855 -0.07639426 0.0044433661 2.3509886e-38
-0.011827716 -0.075750828 0.0074390955 2.3509886e-38
-0.010007708 -0.075750828 0.0074390955 2.3509886e-38
-0.0081877029 -0.075750828 0.0074390955 2.3509527e-38
-0.0063676955 -0.075750828 0.0074390955 2.3509527e-38
-0.0045476882 -0.075750828 0.0074390955 2.3509527e-38
-0.0027276827 -0.075750828 0.0074390955 2.3509527e-38
-0.00090767536 -0.075750828 0.0074390955 2.3509527e-38
0.00094122067 -0.07639426 0.0044433661 2.3509883e-38
0.0027664797 -0.07639426 0.0044433661 2.3509883e-38
0.0045917388 -0.07639426 0.0044433661 2.3509883e-38
0.0064169979 -0.07639426 0.0044433661 2.3509883e-38
0.0082924468 -0.077041432 0.0014302321 2.3509883e-38
0.010122987 -0.077041432 0.0014302321 2.3509883e-38
0.01195353 -0.077041432 0.0014302321 2.3509527e-38
0.013784072 -0.077041432 0.0014302321 2.3509527e-38
0.015614615 -0.077041432 0.0014302321 2.3509527e-38
0.017445158 -0.077041432 0.0014302321 2.3509527e-38
0.019358061 -0.07769233 -0.0016003065 2.3509886e-38
0.021193914 -0.07769233 -0.0016003065 2.350988e-38
0.022936784 -0.077041432 0.0014302321 2.3509879e-38
0.024669591 -0.07639426 0.0044433661 2.350988e-38
0.026494849 -0.07639426 0.0044433661 2.3509879e-38
0.028320108 -0.07639426 0.0044433661 2.350988e-38
0.030032437 -0.075750828 0.0074390955 2.3509879e-38
0.031697318 -0.074906245 0.011371333 2.350988e-38
0.033510432 -0.074906245 0.011371333 2.3509879e-38
0.035323542 -0.074906245 0.011371333 2.350988e-38
0.037136655 -0.074906245 0.011371333 2.3509879e-38
0.039132472 -0.075750828 0.0074390955 2.350988e-38
0.041096922 -0.07639426 0.0044433661 2.3509879e-38
0.043072749 -0.077041432 0.0014302321 2.350988e-38
0.045060039 -0.07769233 -0.0016003065 2.3509879e-38
0.046895895 -0.07769233 -0.0016003065 2.350988e-38
0.048731752 -0.07769233 -0.0016003065 2.3418045e-38
0.050394919 -0.077041432 0.0014302321 2.268192e-38
0.052225459 -0.077041432 0.0014302321 2.3142544e-38
0.054056 -0.077041432 0.0014302321 2.286632e-38
0.055512536 -0.075750828 0.0074390955 2.1483035e-38
0.057332542 -0.075750828 0.0074390955 2.3142185e-38
0.059152547 -0.075750828 0.0074390955 2.2958873e-38
-0.067313425 -0.081042573 -0.0085939579 2.323365e-38
-0.065248482 -0.080164611 -0.0045394115 2.3509879e-38
-0.063407473 -0.080164611 -0.0045394115 2.3509879e-38
-0.061566465 -0.080164611 -0.0045394115 2.3509879e-38
-0.059920952 -0.081042573 -0.0085939579 2.3233652e-38
-0.057884447 -0.080164611 -0.0045394115 2.3141456e-38
-0.056043439 -0.080164611 -0.0045394115 2.350988e-38
-0.05420243 -0.080164611 -0.0045394115 2.350988e-38
-0.052361414 -0.080164611 -0.0045394115 2.3509883e-38
-0.050520409 -0.080164611 -0.0045394115 2.3509883e-38
-0.0486794 -0.080164611 -0.0045394115 2.3509883e-38
-0.046838392 -0.080164611 -0.0045394115 2.3509883e-38
-0.044997383 -0.080164611 -0.0045394115 2.3509886e-38
-0.043287888 -0.081042573 -0.0085939579 2.3509886e-38
-0.041315366 -0.080164611 -0.0045394115 2.3509886e-38
-0.039474353 -0.080164611 -0.0045394115 2.3509886e-38
-0.037743539 -0.081042573 -0.0085939579 2.3509886e-38
-0.035792336 -0.080164611 -0.0045394115 2.3509886e-38
-0.033951327 -0.080164611 -0.0045394115 2.3509886e-38
-0.032199182 -0.081042573 -0.0085939579 2.3509886e-38
-0.03026931 -0.080164611 -0.0045394115 2.3509886e-38
-0.028428301 -0.080164611 -0.0045394115 2.3509886e-38
-0.026587293 -0.080164611 -0.0045394115 2.3509886e-38
-0.024746284 -0.080164611 -0.0045394115 2.3509886e-38
-0.022905275 -0.080164611 -0.0045394115 2.3509886e-38
-0.021030769 -0.079528198 -0.0016003065 2.3509886e-38
-0.019194912 -0.079528198 -0.0016003065 2.3509886e-38
-0.017335147 -0.078871965 0.0014302321 2.3509886e-38
-0.015486113 -0.078219518 0.0044433661 2.3509886e-38
-0.013660855 -0.078219518 0.0044433661 2.3509886e-38
-0.011835595 -0.078219518 0.0044433661 2.3509886e-38
-0.010010335 -0.078219518 0.0044433661 2.3509886e-38
-0.0081877029 -0.077570826 0.0074390955 2.3509527e-38
-0.0063676955 -0.077570826 0.0074390955 2.3509527e-38
-0.0045345565 -0.078219518 0.0044433661 2.3509527e-38
-0.0027092984 -0.078219518 0.0044433661 2.3509527e-38
-0.00088403933 -0.078219518 0.0044433661 2.3509527e-38
0.00094122067 -0.078219518 0.0044433661 2.3509883e-38
0.0027664797 -0.078219518 0.0044433661 2.3509883e-38
0.0046313619 -0.078871965 0.0014302321 2.3509883e-38
0.0064619035 -0.078871965 0.0014302321 2.3509883e-38
0.0082924468 -0.078871965 0.0014302321 2.3509883e-38
0.010122987 -0.078871965 0.0014302321 2.3509883e-38
0.012014636 -0.079528198 -0.0016003065 2.3509883e-38
0.013850492 -0.079528198 -0.0016003065 2.3509527e-38
0.015686348 -0.079528198 -0.0016003065 2.3509527e-38
0.017522205 -0.079528198 -0.0016003065 2.3509527e-38
0.019358061 -0.079528198 -0.0016003065 2.3509527e-38
0.021193914 -0.079528198 -0.0016003065 2.350988e-38
0.022936784 -0.078871965 0.0014302321 2.3509879e-38
0.024669591 -0.078219518 0.0044433661 2.350988e-38
0.026494849 -0.078219518 0.0044433661 2.3509879e-38
0.028320108 -0.078219518 0.0044433661 2.350988e-38
0.030032437 -0.077570826 0.0074390955 2.3509879e-38
0.031697318 -0.076719359 0.011371333 2.350988e-38
0.03338429 -0.076056451 0.014432747 2.3509879e-38
0.035192035 -0.076056451 0.014432747 2.350988e-38
0.036999781 -0.076056451 0.014432747 2.3509879e-38
0.039132472 -0.077570826 0.0074390955 2.350988e-38
0.041096922 -0.078219518 0.0044433661 2.3509879e-38
0.043072749 -0.078871965 0.0014302321 2.350988e-38
0.045060039 -0.079528198 -0.0016003065 2.3509879e-38
0.046733834 -0.078871965 0.0014302321 2.350988e-38
0.048564374 -0.078871965 0.0014302321 2.350988e-38
0.05022322 -0.078219518 0.0044433661 2.3233652e-38
0.052048478 -0.078219518 0.0044433661 2.2680841e-38
0.053692523 -0.077570826 0.0074390955 2.3417333e-38
0.055512536 -0.077570826 0.0074390955 2.3417691e-38
0.057332542 -0.077570826 0.0074390955 2.314075e-38
0.059152547 -0.077570826 0.0074390955 2.1943301e-38
-0.067477927 -0.083540857 -0.011572402 2.3509883e-38
-0.065248482 -0.08200562 -0.0045394115 2.2956709e-38
-0.063407473 -0.08200562 -0.0045394115 2.31411e-38
-0.061566465 -0.08200562 -0.0045394115 2.3509883e-38
-0.059920952 -0.082890689 -0.0085939579 2.3509883e-38
-0.058072835 -0.082890689 -0.0085939579 2.31411e-38
-0.056224719 -0.082890689 -0.0085939579 2.2956709e-38
-0.054376602 -0.082890689 -0.0085939579 2.3509883e-38
-0.052528486 -0.082890689 -0.0085939579 2.3509886e-38
-0.050680362 -0.082890689 -0.0085939579 2.3509886e-38
-0.048944522 -0.083540857 -0.011572402 2.3509886e-38
-0.046984125 -0.082890689 -0.0085939579 2.3509886e-38
-0.045136008 -0.082890689 -0.0085939579 2.3509886e-38
-0.0433845 -0.083540857 -0.011572402 2.3509886e-38
-0.041439772 -0.082890689 -0.0085939579 2.3509886e-38
-0.039591655 -0.082890689 -0.0085939579 2.3509886e-38
-0.037743539 -0.082890689 -0.0085939579 2.3509886e-38
-0.035895418 -0.082890689 -0.0085939579 2.3509886e-38
-0.034047298 -0.082890689 -0.0085939579 2.3509886e-38
-0.032199182 -0.082890689 -0.0085939579 2.3509886e-38
-0.03026931 -0.08200562 -0.0045394115 2.3509886e-38
-0.028428301 -0.08200562 -0.0045394115 2.3509886e-38
-0.026587293 -0.08200562 -0.0045394115 2.3509886e-38
-0.024746284 -0.08200562 -0.0045394115 2.3509886e-38
-0.022905275 -0.08200562 -0.0045394115 2.3509886e-38
-0.021064267 -0.08200562 -0.0045394115 2.3509886e-38
-0.019223254 -0.08200562 -0.0045394115 2.3509886e-38
-0.017359056 -0.081364051 -0.0016003065 2.3509886e-38
-0.015504603 -0.080702513 0.0014302321 2.3509886e-38
-0.013674061 -0.080702513 0.0014302321 2.3509886e-38
-0.011835595 -0.080044776 0.0044433661 2.3509886e-38
-0.010010335 -0.080044776 0.0044433661 2.3509886e-38
-0.0081850765 -0.080044776 0.0044433661 2.3509527e-38
-0.0063598165 -0.080044776 0.0044433661 2.3509527e-38
-0.0045345565 -0.080044776 0.0044433661 2.3509527e-38
-0.0027092984 -0.080044776 0.0044433661 2.3509527e-38
-0.00088403933 -0.080044776 0.0044433661 2.3509527e-38
0.00094122067 -0.080044776 0.0044433661 2.3509883e-38
0.0027664797 -0.080044776 0.0044433661 2.350988e-38
0.0046313619 -0.080702513 0.0014302321 2.350988e-38
0.0064619035 -0.080702513 0.0014302321 2.350988e-38
0.0083429245 -0.081364051 -0.0016003065 2.350988e-38
0.010178781 -0.081364051 -0.0016003065 2.3509883e-38
0.012014636 -0.081364051 -0.0016003065 2.3509883e-38
0.013850492 -0.081364051 -0.0016003065 2.3509527e-38
0.015686348 -0.081364051 -0.0016003065 2.3509527e-38
0.017522205 -0.081364051 -0.0016003065 2.3509527e-38
0.019358061 -0.081364051 -0.0016003065 2.3509527e-38
0.021193914 -0.081364051 -0.0016003065 2.3509883e-38
0.022936784 -0.080702513 0.0014302321 2.350988e-38
0.024767324 -0.080702513 0.0014302321 2.3509883e-38
0.026597869 -0.080702513 0.0014302321 2.350988e-38
0.028428409 -0.080702513 0.0014302321 2.3509883e-38
0.030032437 -0.079390839 0.0074390955 2.350988e-38
0.031697318 -0.078532472 0.011371333 2.3509883e-38
0.03338429 -0.077864185 0.014432747 2.350988e-38
0.035192035 -0.077864185 0.014432747 2.3509883e-38
0.036999781 -0.077864185 0.014432747 2.350988e-38
0.039271664 -0.080044776 0.0044433661 2.3509883e-38
0.041096922 -0.080044776 0.0044433661 2.350988e-38
0.043072749 -0.080702513 0.0014302321 2.3509883e-38
0.045060039 -0.081364051 -0.0016003065 2.350988e-38
0.046733834 -0.080702513 0.0014302321 2.3509883e-38
0.048564374 -0.080702513 0.0014302321 2.350988e-38
0.050052512 -0.079390839 0.0074390955 2.3509879e-38
0.051872518 -0.079390839 0.0074390955 2.350988e-38
0.053692523 -0.079390839 0.0074390955 2.3509527e-38
0.055512536 -0.079390839 0.0074390955 2.3509527e-38
0.057332542 -0.079390839 0.0074390955 2.3509168e-38
0.059349518 -0.080044776 0.0044433661 2.3417333e-38
0.061174776 -0.080044776 0.0044433661 2.323402e-38
0.063208714 -0.080702513 0.0014302321 2.2312796e-38
0.065039262 -0.080702513 0.0014302321 2.1116047e-38
-0.071184605 -0.085394189 -0.011572402 2.3509886e-38
-0.069331259 -0.085394189 -0.011572402 2.3509886e-38
-0.067477927 -0.085394189 -0.011572402 2.3509886e-38
-0.06562458 -0.085394189 -0.011572402 2.3509886e-38
-0.063617185 -0.084738806 -0.0085939579 2.3417691e-38
-0.061769068 -0.084738806 -0.0085939579 2.3325494e-38
-0.060064562 -0.085394189 -0.011572402 2.3509886e-38
-0.058211222 -0.085394189 -0.011572402 2.3509886e-38
-0.056357883 -0.085394189 -0.011572402 2.3509886e-38
-0.054504544 -0.085394189 -0.011572402 2.3509886e-38
-0.052774623 -0.086053312 -0.014567774 2.3509886e-38
-0.050916027 -0.086053312 -0.014567774 2.3509886e-38
-0.049057435 -0.086053312 -0.014567774 2.3509886e-38
-0.047198843 -0.086053312 -0.014567774 2.3509886e-38
-0.045340251 -0.086053312 -0.014567774 2.3509886e-38
-0.043481659 -0.086053312 -0.014567774 2.3509886e-38
-0.04153116 -0.085394189 -0.011572402 2.3509886e-38
-0.039677821 -0.085394189 -0.011572402 2.3509886e-38
-0.037824482 -0.085394189 -0.011572402 2.3509886e-38
-0.035971142 -0.085394189 -0.011572402 2.3509886e-38
-0.034117799 -0.085394189 -0.011572402 2.3509886e-38
-0.03226446 -0.085394189 -0.011572402 2.3509886e-38
-0.030351065 -0.084738806 -0.0085939579 2.3509886e-38
-0.028502945 -0.084738806 -0.0085939579 2.3509886e-38
-0.026654828 -0.084738806 -0.0085939579 2.3509886e-38
-0.024806708 -0.084738806 -0.0085939579 2.3509886e-38
-0.022958592 -0.084738806 -0.0085939579 2.3509886e-38
-0.021110475 -0.084738806 -0.0085939579 2.3509886e-38
-0.019262355 -0.084738806 -0.0085939579 2.3509886e-38
-0.017414238 -0.084738806 -0.0085939579 2.3509886e-38
-0.015541238 -0.083846629 -0.0045394115 2.3509886e-38
-0.013687345 -0.083199903 -0.0016003065 2.3509886e-38
-0.011843518 -0.082533047 0.0014302321 2.3509886e-38
-0.010012976 -0.082533047 0.0014302321 2.3509886e-38
-0.0081850765 -0.081870034 0.0044433661 2.3509527e-38
-0.0063598165 -0.081870034 0.0044433661 2.3509527e-38
-0.0045213504 -0.082533047 0.0014302321 2.3509527e-38
-0.0027092984 -0.081870034 0.0044433661 2.3509527e-38
-0.00088403933 -0.081870034 0.0044433661 2.3509527e-38
0.000970277 -0.082533047 0.0014302321 2.3509883e-38
0.0028008195 -0.082533047 0.0014302321 2.350988e-38
0.0046313619 -0.082533047 0.0014302321 2.350988e-38
0.0065070689 -0.083199903 -0.0016003065 2.350988e-38
0.0083429245 -0.083199903 -0.0016003065 2.350988e-38
0.010178781 -0.083199903 -0.0016003065 2.3509883e-38
0.012014636 -0.083199903 -0.0016003065 2.3509883e-38
0.013850492 -0.083199903 -0.0016003065 2.3509527e-38
0.015686348 -0.083199903 -0.0016003065 2.3509527e-38
0.017522205 -0.083199903 -0.0016003065 2.3509527e-38
0.019358061 -0.083199903 -0.0016003065 2.3509527e-38
0.021193914 -0.083199903 -0.0016003065 2.3509886e-38
0.023029771 -0.083199903 -0.0016003065 2.3509886e-38
0.024865627 -0.083199903 -0.0016003065 2.3509886e-38
0.02670148 -0.083199903 -0.0016003065 2.3509886e-38
0.028537337 -0.083199903 -0.0016003065 2.3509886e-38
0.030258954 -0.082533047 0.0014302321 2.3509886e-38
0.031970628 -0.081870034 0.0044433661 2.3509886e-38
0.033672452 -0.081210837 0.0074390955 2.3509886e-38
0.035492457 -0.081210837 0.0074390955 2.3509886e-38
0.037312467 -0.081210837 0.0074390955 2.3509886e-38
0.040482819 -0.087605879 -0.021623533 2.3509886e-38
0.042353783 -0.087605879 -0.021623533 2.3509886e-38
0.043224186 -0.083199903 -0.0016003065 2.3509886e-38
0.045060039 -0.083199903 -0.0016003065 2.3509886e-38
0.046412498 -0.081210837 0.0074390955 2.3509886e-38
0.048232507 -0.081210837 0.0074390955 2.3509883e-38
0.04982844 -0.080345586 0.011371333 2.3509879e-38
0.051641554 -0.080345586 0.011371333 2.3140736e-38
0.053454664 -0.080345586 0.011371333 2.3325131e-38
0.055267777 -0.080345586 0.011371333 2.3416974e-38
0.057080891 -0.080345586 0.011371333 2.3048556e-38
0.059152547 -0.081210837 0.0074390955 2.3416974e-38
0.061174776 -0.081870034 0.0044433661 2.3417691e-38
0.063208714 -0.082533047 0.0014302321 2.3142185e-38
0.065039262 -0.082533047 0.0014302321 2.2958873e-38
0.066869803 -0.082533047 0.0014302321 2.1946163e-38
0.068700343 -0.082533047 0.0014302321 2.2591531e-38
-0.067477927 -0.087247536 -0.011572402 2.2864163e-38
-0.06562458 -0.087247536 -0.011572402 2.3509886e-38
-0.063617185 -0.086586922 -0.0085939579 2.3509527e-38
-0.061769068 -0.086586922 -0.0085939579 2.3325497e-38
-0.060064562 -0.087247536 -0.011572402 2.3417333e-38
-0.058211222 -0.087247536 -0.011572402 2.3509886e-38
-0.056357883 -0.087247536 -0.011572402 2.3509527e-38
-0.054504544 -0.087247536 -0.011572402 2.2864519e-38
-0.052774623 -0.087911904 -0.014567774 2.3509886e-38
-0.050916027 -0.087911904 -0.014567774 2.3509886e-38
-0.049170993 -0.088580042 -0.017580193 2.3509886e-38
-0.047307122 -0.088580042 -0.017580193 2.3509886e-38
-0.045340251 -0.087911904 -0.014567774 2.3509886e-38
-0.043481659 -0.087911904 -0.014567774 2.3509886e-38
-0.041623067 -0.087911904 -0.014567774 2.3509886e-38
-0.039764479 -0.087911904 -0.014567774 2.3509886e-38
-0.037905887 -0.087911904 -0.014567774 2.3509886e-38
-0.036047295 -0.087911904 -0.014567774 2.3509886e-38
-0.034188703 -0.087911904 -0.014567774 2.3509886e-38
-0.032330111 -0.087911904 -0.014567774 2.3509886e-38
-0.030411117 -0.087247536 -0.011572402 2.3509886e-38
-0.028502945 -0.086586922 -0.0085939579 2.3509886e-38
-0.026654828 -0.086586922 -0.0085939579 2.3509886e-38
-0.024806708 -0.086586922 -0.0085939579 2.3509886e-38
-0.022958592 -0.086586922 -0.0085939579 2.3509886e-38
-0.021110475 -0.086586922 -0.0085939579 2.3509886e-38
-0.019262355 -0.086586922 -0.0085939579 2.3509886e-38
-0.017414238 -0.086586922 -0.0085939579 2.3509886e-38
-0.015566119 -0.086586922 -0.0085939579 2.3509883e-38
-0.013700227 -0.085687637 -0.0045394115 2.3509883e-38
-0.011851489 -0.085035756 -0.0016003065 2.3509883e-38
-0.010015634 -0.085035756 -0.0016003065 2.3509886e-38
-0.0081824353 -0.084363595 0.0014302321 2.3509527e-38
-0.0063518928 -0.084363595 0.0014302321 2.3509527e-38
-0.0045213504 -0.084363595 0.0014302321 2.3509527e-38
-0.0026908079 -0.084363595 0.0014302321 2.3509527e-38
-0.00086026546 -0.084363595 0.0014302321 2.3509527e-38
0.000970277 -0.084363595 0.0014302321 2.3509883e-38
0.0028008195 -0.084363595 0.0014302321 2.350988e-38
0.0046313619 -0.084363595 0.0014302321 2.350988e-38
0.0065070689 -0.085035756 -0.0016003065 2.350988e-38
0.0083429245 -0.085035756 -0.0016003065 2.350988e-38
0.010178781 -0.085035756 -0.0016003065 2.3509883e-38
0.012014636 -0.085035756 -0.0016003065 2.3509883e-38
0.013850492 -0.085035756 -0.0016003065 2.3509527e-38
0.015686348 -0.085035756 -0.0016003065 2.3509527e-38
0.017522205 -0.085035756 -0.0016003065 2.3509527e-38
0.019437935 -0.085687637 -0.0045394115 2.3509527e-38
0.021278944 -0.085687637 -0.0045394115 2.3509886e-38
0.023119953 -0.085687637 -0.0045394115 2.3509886e-38
0.024960961 -0.085687637 -0.0045394115 2.3509886e-38
0.02680197 -0.085687637 -0.0045394115 2.3509886e-38
0.028788712 -0.086586922 -0.0085939579 2.3509886e-38
0.030636832 -0.086586922 -0.0085939579 2.3509886e-38
0.032602448 -0.087247536 -0.011572402 2.3509886e-38
0.034455787 -0.087247536 -0.011572402 2.3509886e-38
0.036867157 -0.090128779 -0.024562877 2.3509886e-38
0.038611855 -0.089476839 -0.021623533 2.3509886e-38
0.040482819 -0.089476839 -0.021623533 2.3509886e-38
0.042353783 -0.089476839 -0.021623533 2.3509886e-38
0.044525009 -0.090809584 -0.027632397 2.3509886e-38
0.044592492 -0.08303085 0.0074390955 2.3509886e-38
0.046412498 -0.08303085 0.0074390955 2.3509886e-38
0.048232507 -0.08303085 0.0074390955 2.3509886e-38
0.049653992 -0.081479684 0.014432747 2.3325843e-38
0.051461734 -0.081479684 0.014432747 2.3509876e-38
0.053269479 -0.081479684 0.014432747 2.3509883e-38
0.055077221 -0.081479684 0.014432747 2.3325497e-38
0.057080891 -0.082158685 0.011371333 2.3325138e-38
0.059152547 -0.08303085 0.0074390955 2.3509527e-38
0.060972553 -0.08303085 0.0074390955 2.341805e-38
0.063000038 -0.083695292 0.0044433661 2.268157e-38
0.064825296 -0.083695292 0.0044433661 2.1760329e-38
0.066869803 -0.084363595 0.0014302321 2.2958873e-38
0.068700343 -0.084363595 0.0014302321 2.2775202e-38
0.070530884 -0.084363595 0.0014302321 2.2132353e-38
-0.073538318 -0.098059073 -0.051644843 2.3509886e-38
-0.071614727 -0.098059073 -0.051644843 2.3325497e-38
-0.067643359 -0.089770496 -0.014567774 2.3509527e-38
-0.065784767 -0.089770496 -0.014567774 2.3509886e-38
-0.063771248 -0.089100882 -0.011572402 2.3509527e-38
-0.061917901 -0.089100882 -0.011572402 2.3509886e-38
-0.060208991 -0.089770496 -0.014567774 2.3509527e-38
-0.058350399 -0.089770496 -0.014567774 2.3325497e-38
-0.056491807 -0.089770496 -0.014567774 2.3509527e-38
-0.054633215 -0.089770496 -0.014567774 2.3509886e-38
-0.052898742 -0.090443924 -0.017580193 2.3509886e-38
-0.051034868 -0.090443924 -0.017580193 2.3509886e-38
-0.049170993 -0.090443924 -0.017580193 2.3509886e-38
-0.047307122 -0.090443924 -0.017580193 2.3509886e-38
-0.045443248 -0.090443924 -0.017580193 2.3509886e-38
-0.043579374 -0.090443924 -0.017580193 2.3509886e-38
-0.041623067 -0.089770496 -0.014567774 2.3509886e-38
-0.039764479 -0.089770496 -0.014567774 2.3509886e-38
-0.037987754 -0.090443924 -0.017580193 2.3509886e-38
-0.036123879 -0.090443924 -0.017580193 2.3509886e-38
-0.034260005 -0.090443924 -0.017580193 2.3509886e-38
-0.032330111 -0.089770496 -0.014567774 2.3509886e-38
-0.030411117 -0.089100882 -0.011572402 2.3509886e-38
-0.028557777 -0.089100882 -0.011572402 2.3509886e-38
-0.026704438 -0.089100882 -0.011572402 2.3509886e-38
-0.024851099 -0.089100882 -0.011572402 2.3509886e-38
-0.022997759 -0.089100882 -0.011572402 2.3509886e-38
-0.02114442 -0.089100882 -0.011572402 2.3509886e-38
-0.019262355 -0.088435039 -0.0085939579 2.3509886e-38
-0.017414238 -0.088435039 -0.0085939579 2.3509886e-38
-0.015566119 -0.088435039 -0.0085939579 2.3509883e-38
-0.013718001 -0.088435039 -0.0085939579 2.3509883e-38
-0.011859219 -0.087528646 -0.0045394115 2.3509883e-38
-0.010015634 -0.086871609 -0.0016003065 2.3509886e-38
-0.0081824353 -0.086194143 0.0014302321 2.3509527e-38
-0.0063518928 -0.086194143 0.0014302321 2.3509527e-38
-0.0045213504 -0.086194143 0.0014302321 2.3509527e-38
-0.0026908079 -0.086194143 0.0014302321 2.3509527e-38
-0.00086026546 -0.086194143 0.0014302321 2.3509527e-38
0.000970277 -0.086194143 0.0014302321 2.3509883e-38
0.0028353576 -0.086871609 -0.0016003065 2.3509883e-38
0.0046712132 -0.086871609 -0.0016003065 2.350988e-38
0.0065070689 -0.086871609 -0.0016003065 2.3509883e-38
0.0083429245 -0.086871609 -0.0016003065 2.3509883e-38
0.010178781 -0.086871609 -0.0016003065 2.3509883e-38
0.012014636 -0.086871609 -0.0016003065 2.3509527e-38
0.013850492 -0.086871609 -0.0016003065 2.3509527e-38
0.015686348 -0.086871609 -0.0016003065 2.3509527e-38
0.017522205 -0.086871609 -0.0016003065 2.3509527e-38
0.019437935 -0.087528646 -0.0045394115 2.3509527e-38
0.021278944 -0.087528646 -0.0045394115 2.3509886e-38
0.023119953 -0.087528646 -0.0045394115 2.3509886e-38
0.024960961 -0.087528646 -0.0045394115 2.3509886e-38
0.026940595 -0.088435039 -0.0085939579 2.3509886e-38
0.028788712 -0.088435039 -0.0085939579 2.3509886e-38
0.030749109 -0.089100882 -0.011572402 2.3509886e-38
0.032602448 -0.089100882 -0.011572402 2.3509886e-38
0.034455787 -0.089100882 -0.011572402 2.3509886e-38
0.036567204 -0.090443924 -0.017580193 2.3509886e-38
0.038611855 -0.091347814 -0.021623533 2.3509886e-38
0.040482819 -0.091347814 -0.021623533 2.3509886e-38
0.042495508 -0.092004895 -0.024562877 2.3509886e-38
0.044525009 -0.092691094 -0.027632397 2.3509886e-38
0.046613675 -0.093586475 -0.03163771 2.3509886e-38
0.048502196 -0.093586475 -0.03163771 2.3509886e-38
0.048232507 -0.084850863 0.0074390955 2.3509886e-38
0.049486537 -0.0826305 0.017371375 2.3326206e-38
0.05128913 -0.0826305 0.017371375 2.3418043e-38
0.053091723 -0.0826305 0.017371375 2.3233296e-38
0.054894317 -0.0826305 0.017371375 2.3141106e-38
0.056884971 -0.083287418 0.014432747 2.3509527e-38
0.058894005 -0.083971798 0.011371333 2.3417333e-38
0.060707111 -0.083971798 0.011371333 2.3049273e-38
0.062792562 -0.084850863 0.0074390955 2.341805e-38
0.064612567 -0.084850863 0.0074390955 2.3234379e-38
0.066650555 -0.085520551 0.0044433661 2.2774479e-38
0.068475813 -0.085520551 0.0044433661 2.2958873e-38
0.070530884 -0.086194143 0.0014302321 2.2683366e-38
0.073609643 -0.089770496 -0.014567774 2.2775202e-38
0.075468227 -0.089770496 -0.014567774 2.2591531e-38
-0.07738553 -0.099982664 -0.051644843 2.3509886e-38
-0.075461924 -0.099982664 -0.051644843 2.3509886e-38
-0.073538318 -0.099982664 -0.051644843 2.3509886e-38
-0.071614727 -0.099982664 -0.051644843 2.3509886e-38
-0.069691122 -0.099982664 -0.051644843 2.3509886e-38
-0.067602292 -0.099286526 -0.048555057 2.3509886e-38
-0.064081982 -0.092307791 -0.017580193 2.3509886e-38
-0.062218115 -0.092307791 -0.017580193 2.3509886e-38
-0.06035424 -0.092307791 -0.017580193 2.3509886e-38
-0.058490366 -0.092307791 -0.017580193 2.3509886e-38
-0.056626491 -0.092307791 -0.017580193 2.3509886e-38
-0.054762617 -0.092307791 -0.017580193 2.3509886e-38
-0.052898742 -0.092307791 -0.017580193 2.3509886e-38
-0.051034868 -0.092307791 -0.017580193 2.3509886e-38
-0.049170993 -0.092307791 -0.017580193 2.3509886e-38
-0.047307122 -0.092307791 -0.017580193 2.3509886e-38
-0.045443248 -0.092307791 -0.017580193 2.3509886e-38
-0.043579374 -0.092307791 -0.017580193 2.3509886e-38
-0.041623067 -0.091629088 -0.014567774 2.3509886e-38
-0.039764479 -0.091629088 -0.014567774 2.3509886e-38
-0.037987754 -0.092307791 -0.017580193 2.3509886e-38
-0.036123879 -0.092307791 -0.017580193 2.3509886e-38
-0.034260005 -0.092307791 -0.017580193 2.3509886e-38
-0.03239613 -0.092307791 -0.017580193 2.3509886e-38
-0.030471515 -0.091629088 -0.014567774 2.3509886e-38
-0.028612923 -0.091629088 -0.014567774 2.3509886e-38
-0.026754331 -0.091629088 -0.014567774 2.3509886e-38
-0.024895739 -0.091629088 -0.014567774 2.3509886e-38
-0.023037147 -0.091629088 -0.014567774 2.3509886e-38
-0.021178555 -0.091629088 -0.014567774 2.3509886e-38
-0.019291077 -0.090954214 -0.011572402 2.3509886e-38
-0.017437737 -0.090954214 -0.011572402 2.3509886e-38
-0.015584397 -0.090954214 -0.011572402 2.3509886e-38
-0.013731056 -0.090954214 -0.011572402 2.3509886e-38
-0.011869882 -0.090283155 -0.0085939579 2.3509886e-38
-0.01001821 -0.089369655 -0.0045394115 2.3509886e-38
-0.0081772013 -0.089369655 -0.0045394115 2.3509886e-38
-0.0063361926 -0.089369655 -0.0045394115 2.3509886e-38
-0.0044951839 -0.089369655 -0.0045394115 2.3509886e-38
-0.0026541734 -0.089369655 -0.0045394115 2.3509886e-38
-0.00081316475 -0.089369655 -0.0045394115 2.3509886e-38
0.00099950098 -0.088707477 -0.0016003065 2.3509886e-38
0.0028353576 -0.088707477 -0.0016003065 2.3509886e-38
0.0046712132 -0.088707477 -0.0016003065 2.3509883e-38
0.0065508718 -0.089369655 -0.0045394115 2.3509886e-38
0.0083918804 -0.089369655 -0.0045394115 2.3509886e-38
0.010232889 -0.089369655 -0.0045394115 2.3509886e-38
0.012073898 -0.089369655 -0.0045394115 2.3509886e-38
0.013914908 -0.089369655 -0.0045394115 2.3509886e-38
0.015755918 -0.089369655 -0.0045394115 2.3509886e-38
0.017596927 -0.089369655 -0.0045394115 2.3509886e-38
0.019437935 -0.089369655 -0.0045394115 2.3509886e-38
0.021396242 -0.090283155 -0.0085939579 2.3509886e-38
0.023244359 -0.090283155 -0.0085939579 2.3509886e-38
0.025092475 -0.090283155 -0.0085939579 2.3509886e-38
0.026940595 -0.090283155 -0.0085939579 2.3509886e-38
0.028895769 -0.090954214 -0.011572402 2.3509883e-38
0.030749109 -0.090954214 -0.011572402 2.3509883e-38
0.032839455 -0.092307791 -0.017580193 2.3509883e-38
0.034703329 -0.092307791 -0.017580193 2.3509883e-38
0.036567204 -0.092307791 -0.017580193 2.3509883e-38
0.038611855 -0.093218774 -0.021623533 2.3509883e-38
0.040482819 -0.093218774 -0.021623533 2.3509886e-38
0.042495508 -0.093881011 -0.024562877 2.3509886e-38
0.044525009 -0.094572589 -0.027632397 2.3509886e-38
0.046613675 -0.095475003 -0.03163771 2.3509886e-38
0.049035363 -0.097721294 -0.041607779 2.3509886e-38
0.050941363 -0.097721294 -0.041607779 2.3509886e-38
0.049486537 -0.084433094 0.017371375 2.3509883e-38
0.0511114 -0.083751351 0.020397265 2.3509883e-38
0.052908685 -0.083751351 0.020397265 2.3509886e-38
0.054894317 -0.084433094 0.017371375 2.3509886e-38
0.056884971 -0.085095167 0.014432747 2.3509886e-38
0.058692712 -0.085095167 0.014432747 2.3509886e-38
0.060500462 -0.085095167 0.014432747 2.3509886e-38
0.062792562 -0.086670861 0.0074390955 2.3509886e-38
0.064612567 -0.086670861 0.0074390955 2.341805e-38
0.06643258 -0.086670861 0.0074390955 2.341805e-38
0.068475813 -0.087345809 0.0044433661 2.341805e-38
0.070301078 -0.087345809 0.0044433661 2.3234379e-38
0.073609643 -0.091629088 -0.014567774 2.3142185e-38
0.075468227 -0.091629088 -0.014567774 2.3049991e-38
0.077326834 -0.091629088 -0.014567774 2.3049632e-38
0.079185426 -0.091629088 -0.014567774 2.2590813e-38
-0.07956171 -0.10280241 -0.055591624 2.3509886e-38
-0.07738553 -0.10190627 -0.051644843 2.3509886e-38
-0.075461924 -0.10190627 -0.051644843 2.3509886e-38
-0.073538318 -0.10190627 -0.051644843 2.3509886e-38
-0.071614727 -0.10190627 -0.051644843 2.3509886e-38
-0.069520473 -0.10120471 -0.048555057 2.3509886e-38
-0.067602292 -0.10120471 -0.048555057 2.3509886e-38
-0.065476477 -0.10029322 -0.044540685 2.3509886e-38
-0.062720418 -0.096454084 -0.027632397 2.341769e-38
-0.060690925 -0.095757127 -0.024562877 2.341769e-38
-0.058814809 -0.095757127 -0.024562877 2.341769e-38
-0.056807265 -0.095089734 -0.021623533 2.341769e-38
-0.054936305 -0.095089734 -0.021623533 2.341769e-38
-0.053065345 -0.095089734 -0.021623533 2.3509886e-38
-0.051194377 -0.095089734 -0.021623533 2.3509886e-38
-0.049323417 -0.095089734 -0.021623533 2.3509886e-38
-0.047307122 -0.094171658 -0.017580193 2.3509886e-38
-0.045443248 -0.094171658 -0.017580193 2.3509886e-38
-0.043579374 -0.094171658 -0.017580193 2.3509886e-38
-0.041623067 -0.09348768 -0.014567774 2.3509886e-38
-0.039764479 -0.09348768 -0.014567774 2.3509886e-38
-0.037987754 -0.094171658 -0.017580193 2.3509886e-38
-0.036123879 -0.094171658 -0.017580193 2.3509886e-38
-0.034260005 -0.094171658 -0.017580193 2.3509886e-38
-0.03239613 -0.094171658 -0.017580193 2.3509886e-38
-0.030532256 -0.094171658 -0.017580193 2.3509886e-38
-0.028612923 -0.09348768 -0.014567774 2.3509886e-38
-0.026754331 -0.09348768 -0.014567774 2.3509886e-38
-0.024895739 -0.09348768 -0.014567774 2.3509886e-38
-0.023037147 -0.09348768 -0.014567774 2.3509886e-38
-0.021178555 -0.09348768 -0.014567774 2.3509886e-38
-0.019319963 -0.09348768 -0.014567774 2.3509886e-38
-0.017437737 -0.092807561 -0.011572402 2.3509886e-38
-0.015584397 -0.092807561 -0.011572402 2.3509886e-38
-0.013731056 -0.092807561 -0.011572402 2.3509886e-38
-0.011869882 -0.092131287 -0.0085939579 2.3509886e-38
-0.010021764 -0.092131287 -0.0085939579 2.3509886e-38
-0.0081772013 -0.091210663 -0.0045394115 2.3509886e-38
-0.0063361926 -0.091210663 -0.0045394115 2.3509886e-38
-0.0044951839 -0.091210663 -0.0045394115 2.3509886e-38
-0.0026541734 -0.091210663 -0.0045394115 2.3509886e-38
-0.00081316475 -0.091210663 -0.0045394115 2.3509886e-38
0.0010278439 -0.091210663 -0.0045394115 2.3509886e-38
0.0028688535 -0.091210663 -0.0045394115 2.3509886e-38
0.0047098622 -0.091210663 -0.0045394115 2.3509886e-38
0.0066112978 -0.092131287 -0.0085939579 2.3509886e-38
0.0084594162 -0.092131287 -0.0085939579 2.3509886e-38
0.010232889 -0.091210663 -0.0045394115 2.3509886e-38
0.012073898 -0.091210663 -0.0045394115 2.3509886e-38
0.013914908 -0.091210663 -0.0045394115 2.3509886e-38
0.015755918 -0.091210663 -0.0045394115 2.3509886e-38
0.017596927 -0.091210663 -0.0045394115 2.3509886e-38
0.019437935 -0.091210663 -0.0045394115 2.3509886e-38
0.021396242 -0.092131287 -0.0085939579 2.3509883e-38
0.023244359 -0.092131287 -0.0085939579 2.3509883e-38
0.025092475 -0.092131287 -0.0085939579 2.3509883e-38
0.027042426 -0.092807561 -0.011572402 2.3509883e-38
0.028895769 -0.092807561 -0.011572402 2.350988e-38
0.031128004 -0.095089734 -0.021623533 2.350988e-38
0.032998964 -0.095089734 -0.021623533 2.350988e-38
0.034869928 -0.095089734 -0.021623533 2.350988e-38
0.036740892 -0.095089734 -0.021623533 2.350988e-38
0.038611855 -0.095089734 -0.021623533 2.350988e-38
0.040482819 -0.095089734 -0.021623533 2.3509883e-38
0.042495508 -0.095757127 -0.024562877 2.3509883e-38
0.044525009 -0.096454084 -0.027632397 2.3509883e-38
0.04676858 -0.098043531 -0.034632605 2.3509886e-38
0.049035363 -0.099627286 -0.041607779 2.3509886e-38
0.050941363 -0.099627286 -0.041607779 2.3509886e-38
0.053014494 -0.10029322 -0.044540685 2.3509886e-38
0.0511114 -0.085548624 0.020397265 2.3509886e-38
0.052908685 -0.085548624 0.020397265 2.3509886e-38
0.055077221 -0.086902916 0.014432747 2.3509886e-38
0.056884971 -0.086902916 0.014432747 2.3509886e-38
0.058692712 -0.086902916 0.014432747 2.3509886e-38
0.060500462 -0.086902916 0.014432747 2.3509886e-38
0.062520228 -0.087598026 0.011371333 2.3509886e-38
0.064612567 -0.088490874 0.0074390955 2.3509886e-38
0.06643258 -0.088490874 0.0074390955 2.3509886e-38
0.068252586 -0.088490874 0.0074390955 2.3509886e-38
0.070301078 -0.089171067 0.0044433661 2.3509886e-38
0.073609643 -0.09348768 -0.014567774 2.341769e-38
0.075468227 -0.09348768 -0.014567774 2.341769e-38
0.077326834 -0.09348768 -0.014567774 2.341769e-38
-0.07956171 -0.10473295 -0.055591624 2.3509886e-38
-0.07763119 -0.10473295 -0.055591624 2.3509886e-38
-0.07570067 -0.10473295 -0.055591624 2.3509886e-38
-0.073770151 -0.10473295 -0.055591624 2.3509886e-38
-0.071614727 -0.10382988 -0.051644843 2.3509886e-38
-0.069520473 -0.1031229 -0.048555057 2.3509886e-38
-0.067602292 -0.1031229 -0.048555057 2.3509886e-38
-0.065476477 -0.10220437 -0.044540685 2.3509886e-38
-0.063267179 -0.10083917 -0.038574141 2.341769e-38
-0.061032042 -0.099252045 -0.03163771 2.3325494e-38
-0.059143528 -0.099252045 -0.03163771 2.3325494e-38
-0.057075925 -0.098335579 -0.027632397 2.3325494e-38
-0.055194423 -0.098335579 -0.027632397 2.3325494e-38
-0.053186454 -0.097633243 -0.024562877 2.3509886e-38
-0.051310331 -0.097633243 -0.024562877 2.3509886e-38
-0.049434219 -0.097633243 -0.024562877 2.3509886e-38
-0.047307122 -0.09603554 -0.017580193 2.3509886e-38
-0.045443248 -0.09603554 -0.017580193 2.3509886e-38
-0.043579374 -0.09603554 -0.017580193 2.3509886e-38
-0.041715499 -0.09603554 -0.017580193 2.3509886e-38
-0.039851628 -0.09603554 -0.017580193 2.3509886e-38
-0.038097635 -0.096960694 -0.021623533 2.3509886e-38
-0.036226675 -0.096960694 -0.021623533 2.3509886e-38
-0.034260005 -0.09603554 -0.017580193 2.3509886e-38
-0.03239613 -0.09603554 -0.017580193 2.3509886e-38
-0.030532256 -0.09603554 -0.017580193 2.3509886e-38
-0.028668381 -0.09603554 -0.017580193 2.3509886e-38
-0.026804507 -0.09603554 -0.017580193 2.3509886e-38
-0.024940632 -0.09603554 -0.017580193 2.3509886e-38
-0.023037147 -0.095346272 -0.014567774 2.3509886e-38
-0.021178555 -0.095346272 -0.014567774 2.3509886e-38
-0.019319963 -0.095346272 -0.014567774 2.3509886e-38
-0.017461371 -0.095346272 -0.014567774 2.3509886e-38
-0.015602778 -0.095346272 -0.014567774 2.3509886e-38
-0.013731056 -0.094660893 -0.011572402 2.3509886e-38
-0.011869882 -0.093979403 -0.0085939579 2.3509886e-38
-0.010021764 -0.093979403 -0.0085939579 2.3509886e-38
-0.0081772013 -0.093051672 -0.0045394115 2.3509886e-38
-0.0063361926 -0.093051672 -0.0045394115 2.3509886e-38
-0.0044774106 -0.093979403 -0.0085939579 2.3509886e-38
-0.0026292922 -0.093979403 -0.0085939579 2.3509886e-38
-0.00078117475 -0.093979403 -0.0085939579 2.3509886e-38
0.0010669436 -0.093979403 -0.0085939579 2.3509886e-38
0.002915062 -0.093979403 -0.0085939579 2.3509886e-38
0.0047631795 -0.093979403 -0.0085939579 2.3509886e-38
0.0066112978 -0.093979403 -0.0085939579 2.3509886e-38
0.0084594162 -0.093979403 -0.0085939579 2.3509886e-38
0.010307533 -0.093979403 -0.0085939579 2.3509886e-38
0.012155651 -0.093979403 -0.0085939579 2.3509886e-38
0.014003769 -0.093979403 -0.0085939579 2.3509886e-38
0.015851889 -0.093979403 -0.0085939579 2.3509886e-38
0.017700005 -0.093979403 -0.0085939579 2.3509886e-38
0.019629069 -0.094660893 -0.011572402 2.3509886e-38
0.021569066 -0.095346272 -0.014567774 2.3509883e-38
0.023427654 -0.095346272 -0.014567774 2.3509883e-38
0.025515113 -0.096960694 -0.021623533 2.3509883e-38
0.027591519 -0.098335579 -0.027632397 2.3509883e-38
0.029473018 -0.098335579 -0.027632397 2.3509883e-38
0.031238806 -0.097633243 -0.024562877 2.3509883e-38
0.033114921 -0.097633243 -0.024562877 2.3509883e-38
0.034991041 -0.097633243 -0.024562877 2.3509883e-38
0.036867157 -0.097633243 -0.024562877 2.3509883e-38
0.038743272 -0.097633243 -0.024562877 2.3509883e-38
0.040619392 -0.097633243 -0.024562877 2.3509886e-38
0.042495508 -0.097633243 -0.024562877 2.3509886e-38
0.044725154 -0.099252045 -0.03163771 2.3509886e-38
0.04697245 -0.10083917 -0.038574141 2.3509886e-38
0.049035363 -0.10153329 -0.041607779 2.3509886e-38
0.05110335 -0.10220437 -0.044540685 2.3509886e-38
0.053014494 -0.10220437 -0.044540685 2.3509886e-38
0.054925639 -0.10220437 -0.044540685 2.3509886e-38
0.057079609 -0.1031229 -0.048555057 2.3509886e-38
0.058747929 -0.10220437 -0.044540685 2.3509886e-38
0.056884971 -0.088710666 0.014432747 2.3509886e-38
0.058692712 -0.088710666 0.014432747 2.3509886e-38
0.060500462 -0.088710666 0.014432747 2.3509886e-38
0.062520228 -0.089411139 0.011371333 2.3509886e-38
0.064612567 -0.090310872 0.0074390955 2.3509886e-38
0.06643258 -0.090310872 0.0074390955 2.3509886e-38
0.068252586 -0.090310872 0.0074390955 2.3509886e-38
0.070301078 -0.090996325 0.0044433661 2.3509886e-38
0.071892597 -0.090310872 0.0074390955 2.3509886e-38
0.073712602 -0.090310872 0.0074390955 2.3509886e-38
-0.07956171 -0.10666345 -0.055591624 2.3509886e-38
