# .PCD v0.7 - Point Cloud Data file format
VERSION 0.7
FIELDS x y z rgb
SIZE 4 4 4 4
TYPE F F F F
COUNT 1 1 1 1
WIDTH 939
HEIGHT 1
VIEWPOINT 0 0 0 1 0 0 0
POINTS 939
DATA ascii
-0.040900078 -0.095982388 0.0059910268 2.3509886e-38
-0.039118517 -0.095982388 0.0059910268 2.3509886e-38
-0.037336964 -0.095982388 0.0059910268 2.3509886e-38
-0.035555407 -0.095982388 0.0059910268 2.3509886e-38
-0.033773851 -0.095982388 0.0059910268 2.3509886e-38
-0.031882398 -0.095250636 0.0090485066 2.3509886e-38
-0.030106202 -0.095250636 0.0090485066 2.3509886e-38
-0.028231431 -0.094523281 0.012087628 2.3509886e-38
-0.026460562 -0.094523281 0.012087628 2.3509886e-38
-0.024689697 -0.094523281 0.012087628 2.3509886e-38
-0.022839461 -0.093824327 0.015008137 2.3509886e-38
-0.021073714 -0.093824327 0.015008137 2.3509886e-38
-0.019307967 -0.093824327 0.015008137 2.3325494e-38
-0.017606232 -0.094523281 0.012087628 2.3233299e-38
-0.015835363 -0.094523281 0.012087628 2.3325494e-38
-0.014064495 -0.094523281 0.012087628 2.3509886e-38
-0.012344252 -0.095250636 0.0090485066 2.3509886e-38
-0.010613624 -0.095982388 0.0059910268 2.341769e-38
-0.0088711642 -0.096693933 0.0030179471 2.3509886e-38
-0.0070843957 -0.096693933 0.0030179471 2.3509886e-38
-0.0052976254 -0.096693933 0.0030179471 2.3509886e-38
-0.003510857 -0.096693933 0.0030179471 2.3509886e-38
-0.0017240867 -0.096693933 0.0030179471 2.3509886e-38
6.2681735e-05 -0.096693933 0.0030179471 2.3509886e-38
0.0017073546 -0.10962458 -0.051010564 2.3509886e-38
0.0035888534 -0.10962458 -0.051010564 2.3509886e-38
0.0054703522 -0.10962458 -0.051010564 2.3509886e-38
0.0073518511 -0.10962458 -0.051010564 2.3509886e-38
0.0092333499 -0.10962458 -0.051010564 2.3509886e-38
0.011139428 -0.11058317 -0.055015877 2.3509886e-38
0.013161427 -0.114632 -0.071933225 2.3509886e-38
0.015185802 -0.11726747 -0.082945183 2.3509886e-38
0.017157834 -0.11799283 -0.08597596 2.3509886e-38
0.019245945 -0.12063743 -0.097025946 2.3509886e-38
0.021208124 -0.12063743 -0.097025946 2.2587929e-38
0.023170304 -0.12063743 -0.097025946 2.2864516e-38
0.023934841 -0.1050681 -0.031972125 2.3233299e-38
0.02578296 -0.1050681 -0.031972125 2.3509886e-38
0.027631078 -0.1050681 -0.031972125 2.3509886e-38
0.029929835 -0.10962458 -0.051010564 2.3509886e-38
0.031811334 -0.10962458 -0.051010564 2.3509886e-38
0.033692833 -0.10962458 -0.051010564 2.341769e-38
0.035574332 -0.10962458 -0.051010564 2.3509886e-38
0.037578728 -0.11058317 -0.055015877 2.3509886e-38
0.039467249 -0.11058317 -0.055015877 2.3509886e-38
0.04135577 -0.11058317 -0.055015877 2.3509886e-38
0.043244291 -0.11058317 -0.055015877 2.3509886e-38
0.045245711 -0.11129995 -0.058010772 2.3509886e-38
0.047139484 -0.11129995 -0.058010772 2.3509886e-38
0.049195658 -0.11224325 -0.061952308 2.3509886e-38
0.051096343 -0.11224325 -0.061952308 2.3509886e-38
0.052997027 -0.11224325 -0.061952308 2.3509886e-38
0.054714572 -0.11129995 -0.058010772 2.3509886e-38
0.056608345 -0.11129995 -0.058010772 2.3325494e-38
0.058502119 -0.11129995 -0.058010772 2.3509886e-38
0.060599759 -0.11224325 -0.061952308 2.3509886e-38
0.062662676 -0.11296929 -0.064985946 2.3509886e-38
0.064568669 -0.11296929 -0.064985946 2.3509876e-38
0.066474676 -0.11296929 -0.064985946 2.3509856e-38
0.068552949 -0.11367123 -0.067918852 2.1937831e-38
0.07046409 -0.11367123 -0.067918852 2.101586e-38
0.072625108 -0.114632 -0.071933225 1.9908777e-38
0.07454329 -0.114632 -0.071933225 1.8432191e-38
0.079354949 -0.12516426 -0.11594053 2.0275734e-38
0.081350297 -0.12516426 -0.11594053 2.1750139e-38
0.083837122 -0.12686269 -0.12303706 1.9168666e-38
0.086122431 -0.12779804 -0.12694533 1.8431475e-38
0.08813706 -0.12779804 -0.12694533 1.8800634e-38
0.090151697 -0.12779804 -0.12694533 1.6865267e-38
0.092166334 -0.12779804 -0.12694533 6.4482599e-39
0.094180971 -0.12779804 -0.12694533 4.7905574e-39
0.096195608 -0.12779804 -0.12694533 5.8987154e-39
-0.064870194 -0.10065642 -0.0060067922 8.8511182e-39
-0.0630676 -0.10065642 -0.0060067922 1.6963979e-38
-0.061071362 -0.099926919 -0.0029809028 2.2864505e-38
-0.059274074 -0.099926919 -0.0029809028 2.3509879e-38
-0.057476785 -0.099926919 -0.0029809028 2.3509883e-38
-0.055502813 -0.099201679 2.7343631e-05 2.3416971e-38
-0.0537108 -0.099201679 2.7343631e-05 2.2679406e-38
-0.051753614 -0.098480701 0.0030179471 2.3509886e-38
-0.049807858 -0.097763941 0.0059910268 2.3509886e-38
-0.047868159 -0.09702684 0.0090485066 2.3509886e-38
-0.046091955 -0.09702684 0.0090485066 2.3509886e-38
-0.044315767 -0.09702684 0.0090485066 2.3509886e-38
-0.04253957 -0.09702684 0.0090485066 2.3509886e-38
-0.040763374 -0.09702684 0.0090485066 2.3509886e-38
-0.038987178 -0.09702684 0.0090485066 2.3509886e-38
-0.037210982 -0.09702684 0.0090485066 2.3509886e-38
-0.03543479 -0.09702684 0.0090485066 2.3509886e-38
-0.033658594 -0.09702684 0.0090485066 2.3509886e-38
-0.031773161 -0.09629415 0.012087628 2.3509886e-38
-0.030002296 -0.09629415 0.012087628 2.3509886e-38
-0.028231431 -0.09629415 0.012087628 2.3509886e-38
-0.026460562 -0.09629415 0.012087628 2.3509886e-38
-0.024689697 -0.09629415 0.012087628 2.3509886e-38
-0.022839461 -0.09559007 0.015008137 2.3509886e-38
-0.021073714 -0.09559007 0.015008137 2.3509886e-38
-0.019307967 -0.09559007 0.015008137 2.3509886e-38
-0.017606232 -0.09629415 0.012087628 2.3509886e-38
-0.015835363 -0.09629415 0.012087628 2.3509886e-38
-0.014064495 -0.09629415 0.012087628 2.3509886e-38
-0.012344252 -0.09702684 0.0090485066 2.3509886e-38
-0.010613624 -0.097763941 0.0059910268 2.3509886e-38
-0.0088320673 -0.097763941 0.0059910268 2.3509886e-38
-0.0070505105 -0.097763941 0.0059910268 2.3509886e-38
-0.0052689537 -0.097763941 0.0059910268 2.3509886e-38
-0.003510857 -0.098480701 0.0030179471 2.3509886e-38
-0.0017240867 -0.098480701 0.0030179471 2.3509886e-38
6.2681735e-05 -0.098480701 0.0030179471 2.3509886e-38
0.0017073546 -0.11150609 -0.051010564 2.3509886e-38
0.0035888534 -0.11150609 -0.051010564 2.3509886e-38
0.0054676607 -0.11076607 -0.047941044 2.3509886e-38
0.0073437784 -0.11076607 -0.047941044 2.3509886e-38
0.0092333499 -0.11150609 -0.051010564 2.3509886e-38
0.011139428 -0.11247168 -0.055015877 2.3509886e-38
0.013027949 -0.11247168 -0.055015877 2.3509886e-38
0.015359989 -0.12355967 -0.10100813 2.3509886e-38
0.017329149 -0.12355967 -0.10100813 2.3509886e-38
0.019245945 -0.12259962 -0.097025946 2.3509886e-38
0.021208124 -0.12259962 -0.097025946 2.2956712e-38
0.023170304 -0.12259962 -0.097025946 2.3141103e-38
0.023934841 -0.10691623 -0.031972125 2.341769e-38
0.02578296 -0.10691623 -0.031972125 2.3509886e-38
0.027631078 -0.10691623 -0.031972125 2.3509886e-38
0.029929835 -0.11150609 -0.051010564 2.3509886e-38
0.031811334 -0.11150609 -0.051010564 2.341769e-38
0.033692833 -0.11150609 -0.051010564 2.3325494e-38
0.035574332 -0.11150609 -0.051010564 2.3509886e-38
0.037455831 -0.11150609 -0.051010564 2.3509886e-38
0.039467249 -0.11247168 -0.055015877 2.3509886e-38
0.041218828 -0.11150609 -0.051010564 2.3509886e-38
0.043100327 -0.11150609 -0.051010564 2.3509886e-38
0.045132812 -0.11247168 -0.055015877 2.3509886e-38
0.047021333 -0.11247168 -0.055015877 2.3509886e-38
0.049033254 -0.11319371 -0.058010772 2.3509886e-38
0.050927028 -0.11319371 -0.058010772 2.3509886e-38
0.0526869 -0.11247168 -0.055015877 2.3509886e-38
0.054575421 -0.11247168 -0.055015877 2.3509886e-38
0.056463942 -0.11247168 -0.055015877 2.3325494e-38
0.058352463 -0.11247168 -0.055015877 2.3509886e-38
0.060395889 -0.11319371 -0.058010772 2.3509886e-38
0.062500447 -0.11414395 -0.061952308 2.3509886e-38
0.064401127 -0.11414395 -0.061952308 2.3416597e-38
0.066474676 -0.1148753 -0.064985946 2.3507688e-38
0.068552949 -0.11558239 -0.067918852 2.1661595e-38
0.07046409 -0.11558239 -0.067918852 2.1199884e-38
0.072625108 -0.11655019 -0.071933225 2.05527e-38
0.074741021 -0.11729507 -0.07502301 1.8708413e-38
0.078570746 -0.12428416 -0.1040134 1.9998062e-38
0.080545172 -0.12428416 -0.1040134 2.1012214e-38
0.083559349 -0.12790357 -0.11902638 1.8891723e-38
0.086122431 -0.12981267 -0.12694533 1.7509884e-38
0.087852687 -0.12887047 -0.12303706 1.8985753e-38
0.089860469 -0.12887047 -0.12303706 1.7327333e-38
0.092166334 -0.12981267 -0.12694533 6.6340987e-39
0.094180971 -0.12981267 -0.12694533 4.975313e-39
0.096195608 -0.12981267 -0.12694533 5.7139682e-39
-0.064870194 -0.10245901 -0.0060067922 9.4042892e-39
-0.062868655 -0.10172421 -0.0029809028 1.6318967e-38
-0.061071362 -0.10172421 -0.0029809028 2.3417676e-38
-0.059086841 -0.10099369 2.7343631e-05 2.3417323e-38
-0.05729482 -0.10099369 2.7343631e-05 2.2864153e-38
-0.055502813 -0.10099369 2.7343631e-05 2.3509527e-38
-0.053540383 -0.10026747 0.0030179471 2.3509527e-38
-0.051589411 -0.099545494 0.0059910268 2.3509886e-38
-0.049644347 -0.098803028 0.0090485066 2.3509886e-38
-0.047868159 -0.098803028 0.0090485066 2.3509886e-38
-0.046091955 -0.098803028 0.0090485066 2.3509886e-38
-0.044315767 -0.098803028 0.0090485066 2.3509886e-38
-0.04239836 -0.098065019 0.012087628 2.3509886e-38
-0.040627491 -0.098065019 0.012087628 2.3509886e-38
-0.038856629 -0.098065019 0.012087628 2.3509886e-38
-0.03708576 -0.098065019 0.012087628 2.3509886e-38
-0.035314895 -0.098065019 0.012087628 2.3509886e-38
-0.03354403 -0.098065019 0.012087628 2.3509886e-38
-0.031773161 -0.098065019 0.012087628 2.3509886e-38
-0.030002296 -0.098065019 0.012087628 2.3509886e-38
-0.028136697 -0.097355813 0.015008137 2.3509886e-38
-0.026370954 -0.097355813 0.015008137 2.3509886e-38
-0.024605203 -0.097355813 0.015008137 2.3509886e-38
-0.022757836 -0.096626461 0.018011615 2.3325494e-38
-0.020997357 -0.096626461 0.018011615 2.3509886e-38
-0.019236874 -0.096626461 0.018011615 2.3509886e-38
-0.017476395 -0.096626461 0.018011615 2.3509886e-38
-0.015715916 -0.096626461 0.018011615 2.3325494e-38
-0.014010731 -0.097355813 0.015008137 2.3233299e-38
-0.012293629 -0.098065019 0.012087628 2.3325494e-38
-0.010568056 -0.098803028 0.0090485066 2.3509886e-38
-0.0088320673 -0.099545494 0.0059910268 2.3509886e-38
-0.0070505105 -0.099545494 0.0059910268 2.3509886e-38
-0.0052689537 -0.099545494 0.0059910268 2.3509886e-38
-0.003510857 -0.10026747 0.0030179471 2.3509886e-38
-0.0017240867 -0.10026747 0.0030179471 2.3509886e-38
2.3122877e-05 -0.10245901 -0.0060067922 2.3509886e-38
0.0018257145 -0.10245901 -0.0060067922 2.3509886e-38
0.0035915449 -0.11264218 -0.047941044 2.3509886e-38
0.0054676607 -0.11264218 -0.047941044 2.3509886e-38
0.0073437784 -0.11264218 -0.047941044 2.3509886e-38
0.0092333499 -0.11338757 -0.051010564 2.3509886e-38
0.011157807 -0.11508749 -0.058010772 2.3509886e-38
0.015359989 -0.12552883 -0.10100813 2.3509886e-38
0.017329149 -0.12552883 -0.10100813 2.3509886e-38
0.019298311 -0.12552883 -0.10100813 2.3509886e-38
0.021267472 -0.12552883 -0.10100813 2.3509886e-38
0.022086725 -0.10876434 -0.031972125 2.3509886e-38
0.023934841 -0.10876434 -0.031972125 2.3509886e-38
0.02578296 -0.10876434 -0.031972125 2.3509886e-38
0.027631078 -0.10876434 -0.031972125 2.3509886e-38
0.029479196 -0.10876434 -0.031972125 2.3509886e-38
0.031811334 -0.11338757 -0.051010564 2.341769e-38
0.033692833 -0.11338757 -0.051010564 2.3325494e-38
0.035574332 -0.11338757 -0.051010564 2.3509886e-38
0.037455831 -0.11338757 -0.051010564 2.3509886e-38
0.039467249 -0.1143602 -0.055015877 2.3509886e-38
0.041218828 -0.11338757 -0.051010564 2.3509886e-38
0.043100327 -0.11338757 -0.051010564 2.3509886e-38
0.045132812 -0.1143602 -0.055015877 2.3509886e-38
0.047021333 -0.1143602 -0.055015877 2.3509886e-38
0.048909854 -0.1143602 -0.055015877 2.3509886e-38
0.050798379 -0.1143602 -0.055015877 2.3509886e-38
0.052507821 -0.11338757 -0.051010564 2.3509886e-38
0.054246701 -0.11264218 -0.047941044 2.3509886e-38
0.056122817 -0.11264218 -0.047941044 2.3325494e-38
0.058152318 -0.11338757 -0.051010564 2.341769e-38
0.060240984 -0.1143602 -0.055015877 2.3509886e-38
0.062289663 -0.11508749 -0.058010772 2.3141103e-38
0.064183436 -0.11508749 -0.058010772 2.2863423e-38
0.066301808 -0.11604463 -0.061952308 2.2862673e-38
0.068380676 -0.11678131 -0.064985946 2.1477557e-38
0.07046409 -0.11749353 -0.067918852 2.1476826e-38
0.072625108 -0.11846836 -0.071933225 2.110623e-38
0.074741021 -0.11921866 -0.07502301 1.9076114e-38
0.077185504 -0.12114246 -0.082945183 1.9260497e-38
0.079599373 -0.12285618 -0.090002254 2.00899e-38
0.083559349 -0.12990431 -0.11902638 1.8891727e-38
0.086122431 -0.13182731 -0.12694533 1.7417697e-38
0.087852687 -0.13087825 -0.12303706 1.9263427e-38
0.089860469 -0.13087825 -0.12303706 1.7144029e-38
0.091868252 -0.13087825 -0.12303706 6.3585992e-39
0.093876034 -0.13087825 -0.12303706 5.6221243e-39
0.095883831 -0.13087825 -0.12303706 6.3600565e-39
-0.064665943 -0.10352151 -0.0029809028 6.8228115e-39
-0.062868655 -0.10352151 -0.0029809028 1.2538946e-38
-0.060878839 -0.10278571 2.7343631e-05 2.3509873e-38
-0.058900695 -0.10205424 0.0030179471 2.3509879e-38
-0.057113919 -0.10205424 0.0030179471 2.2587566e-38
-0.055152517 -0.10132705 0.0059910268 2.3416971e-38
-0.053023558 -0.099835888 0.012087628 2.3509527e-38
-0.051252697 -0.099835888 0.012087628 2.3509886e-38
-0.049481828 -0.099835888 0.012087628 2.3509886e-38
-0.047710966 -0.099835888 0.012087628 2.3509886e-38
-0.045940097 -0.099835888 0.012087628 2.3509886e-38
-0.044169229 -0.099835888 0.012087628 2.3509886e-38
-0.04239836 -0.099835888 0.012087628 2.3509886e-38
-0.040627491 -0.099835888 0.012087628 2.3509886e-38
-0.038856629 -0.099835888 0.012087628 2.3509886e-38
-0.03708576 -0.099835888 0.012087628 2.3509886e-38
-0.035314895 -0.099835888 0.012087628 2.3509886e-38
-0.03354403 -0.099835888 0.012087628 2.3509886e-38
-0.031773161 -0.099835888 0.012087628 2.3509886e-38
-0.030002296 -0.099835888 0.012087628 2.3509886e-38
-0.028136697 -0.099121556 0.015008137 2.3509886e-38
-0.026370954 -0.099121556 0.015008137 2.3509886e-38
-0.024605203 -0.099121556 0.015008137 2.3509886e-38
-0.022757836 -0.098386943 0.018011615 2.341769e-38
-0.020997357 -0.098386943 0.018011615 2.3509886e-38
-0.019236874 -0.098386943 0.018011615 2.3509886e-38
-0.017476395 -0.098386943 0.018011615 2.3233299e-38
-0.015715916 -0.098386943 0.018011615 2.2680125e-38
-0.014010731 -0.099121556 0.015008137 2.2403538e-38
-0.012293629 -0.099835888 0.012087628 2.2680125e-38
-0.010568056 -0.10057923 0.0090485066 2.2956712e-38
-0.0088320673 -0.10132705 0.0059910268 2.3509886e-38
-0.0070505105 -0.10132705 0.0059910268 2.3509886e-38
-0.0052689537 -0.10132705 0.0059910268 2.3509886e-38
-0.003510857 -0.10205424 0.0030179471 2.3509886e-38
-0.0017240867 -0.10205424 0.0030179471 2.3509886e-38
4.9572438e-05 -0.10278571 2.7343631e-05 2.3509886e-38
0.0018415842 -0.10278571 2.7343631e-05 2.3509886e-38
0.003633596 -0.10278571 2.7343631e-05 2.3509886e-38
0.0054764897 -0.11698125 -0.058010772 2.3509886e-38
0.0073702615 -0.11698125 -0.058010772 2.3509886e-38
0.0092640333 -0.11698125 -0.058010772 2.3509886e-38
0.011157807 -0.11698125 -0.058010772 2.3509886e-38
0.014269369 -0.099835888 0.012087628 2.3509886e-38
0.016542371 -0.11061247 -0.031972125 2.3509886e-38
0.018390488 -0.11061247 -0.031972125 2.3509886e-38
0.020238606 -0.11061247 -0.031972125 2.3509886e-38
0.022086725 -0.11061247 -0.031972125 2.3509886e-38
0.023694824 -0.10742365 -0.018934801 2.3509886e-38
0.025520084 -0.10742365 -0.018934801 2.3509886e-38
0.027631078 -0.11061247 -0.031972125 2.3509886e-38
0.029479196 -0.11061247 -0.031972125 2.3509886e-38
0.031327315 -0.11061247 -0.031972125 2.3509886e-38
0.033175431 -0.11061247 -0.031972125 2.3509886e-38
0.035574332 -0.11526908 -0.051010564 2.3509886e-38
0.035982121 -0.10352151 -0.0029809028 2.3509886e-38
0.037779409 -0.10352151 -0.0029809028 2.3509886e-38
0.041218828 -0.11526908 -0.051010564 2.3509886e-38
0.043100327 -0.11526908 -0.051010564 2.3509886e-38
0.043285333 -0.10426159 -0.0060067922 2.3509886e-38
0.045087926 -0.10426159 -0.0060067922 2.3509886e-38
0.048909854 -0.11624874 -0.055015877 2.3509886e-38
0.050798379 -0.11624874 -0.055015877 2.341769e-38
0.052370582 -0.1145183 -0.047941044 2.3509886e-38
0.054110128 -0.11379938 -0.045001701 2.3509886e-38
0.055981092 -0.11379938 -0.045001701 2.341769e-38
0.057852056 -0.11379938 -0.045001701 2.3509886e-38
0.060033817 -0.11526908 -0.051010564 2.3509886e-38
0.062129505 -0.11624874 -0.055015877 2.3048907e-38
0.064018026 -0.11624874 -0.055015877 2.2679388e-38
0.066077203 -0.11698125 -0.058010772 2.2678279e-38
0.068380676 -0.11868732 -0.064985946 2.1478635e-38
0.07046409 -0.11940466 -0.067918852 2.1753766e-38
0.072375238 -0.11940466 -0.067918852 2.1382814e-38
0.074741021 -0.12114228 -0.07502301 1.9260145e-38
0.076924123 -0.12210761 -0.078969792 1.8890637e-38
0.079599373 -0.12480606 -0.090002254 1.9628928e-38
0.084107794 -0.13384195 -0.12694533 1.9076488e-38
0.086122431 -0.13384195 -0.12694533 1.8432576e-38
0.087852687 -0.13288604 -0.12303706 1.9540744e-38
0.089860469 -0.13288604 -0.12303706 1.6223523e-38
0.091868252 -0.13288604 -0.12303706 5.5302818e-39
0.093876034 -0.13288604 -0.12303706 6.3600537e-39
0.095883831 -0.13288604 -0.12303706 7.1905403e-39
0.097891614 -0.13288604 -0.12303706 6.452255e-39
-0.064665943 -0.1053188 -0.0029809028 7.5607325e-39
-0.062670857 -0.10457774 2.7343631e-05 1.0602835e-38
-0.060878839 -0.10457774 2.7343631e-05 2.350987e-38
-0.058900695 -0.10384102 0.0030179471 2.3509879e-38
-0.056934077 -0.1031086 0.0059910268 2.3509883e-38
-0.054794427 -0.10160676 0.012087628 2.3509527e-38
-0.053023558 -0.10160676 0.012087628 2.3509527e-38
-0.051091399 -0.1008873 0.015008137 2.3509886e-38
-0.049325649 -0.1008873 0.015008137 2.3509886e-38
-0.047559898 -0.1008873 0.015008137 2.3509886e-38
-0.045794155 -0.1008873 0.015008137 2.3509886e-38
-0.044028413 -0.1008873 0.015008137 2.3509886e-38
-0.04226267 -0.1008873 0.015008137 2.3509886e-38
-0.040496919 -0.1008873 0.015008137 2.3509886e-38
-0.038731169 -0.1008873 0.015008137 2.3509886e-38
-0.036965426 -0.1008873 0.015008137 2.3509886e-38
-0.035314895 -0.10160676 0.012087628 2.3509886e-38
-0.03354403 -0.10160676 0.012087628 2.3509886e-38
-0.031773161 -0.10160676 0.012087628 2.3509886e-38
-0.030002296 -0.10160676 0.012087628 2.3509886e-38
-0.028136697 -0.1008873 0.015008137 2.3509886e-38
-0.026370954 -0.1008873 0.015008137 2.3509886e-38
-0.024605203 -0.1008873 0.015008137 2.3509886e-38
-0.022757836 -0.10014741 0.018011615 2.3509886e-38
-0.020997357 -0.10014741 0.018011615 2.3509886e-38
-0.019236874 -0.10014741 0.018011615 2.341769e-38
-0.017542224 -0.1008873 0.015008137 2.2864516e-38
-0.015776474 -0.1008873 0.015008137 2.2311342e-38
-0.014064495 -0.10160676 0.012087628 2.2219147e-38
-0.012293629 -0.10160676 0.012087628 2.2587929e-38
-0.010568056 -0.10235542 0.0090485066 2.3048907e-38
-0.0088320673 -0.1031086 0.0059910268 2.3509886e-38
-0.0070505105 -0.1031086 0.0059910268 2.3509886e-38
-0.0052689537 -0.1031086 0.0059910268 2.3509886e-38
-0.003510857 -0.10384102 0.0030179471 2.3509886e-38
-0.0017240867 -0.10384102 0.0030179471 2.3509886e-38
6.2681735e-05 -0.10384102 0.0030179471 2.3509886e-38
0.0018494502 -0.10384102 0.0030179471 2.3509886e-38
0.0036362186 -0.10384102 0.0030179471 2.3509886e-38
0.005422987 -0.10384102 0.0030179471 2.3509886e-38
0.0071859024 -0.10160676 0.012087628 2.3509886e-38
0.0089567695 -0.10160676 0.012087628 2.3509886e-38
0.010727637 -0.10160676 0.012087628 2.3509886e-38
0.012498503 -0.10160676 0.012087628 2.3509886e-38
0.020134378 -0.11073773 -0.024978474 2.3509886e-38
0.021970233 -0.11073773 -0.024978474 2.3509886e-38
0.023639673 -0.10851096 -0.015939072 2.3509886e-38
0.025380393 -0.10754226 -0.012006834 2.3509886e-38
0.027193505 -0.10754226 -0.012006834 2.3509886e-38
0.029006617 -0.10754226 -0.012006834 2.3509886e-38
0.030919701 -0.10851096 -0.015939072 2.3509886e-38
0.032469779 -0.10606419 -0.0060067922 2.3509886e-38
0.034272373 -0.10606419 -0.0060067922 2.3509886e-38
0.035982121 -0.1053188 -0.0029809028 2.3509886e-38
0.037779409 -0.1053188 -0.0029809028 2.3509886e-38
0.039680149 -0.10606419 -0.0060067922 2.3509886e-38
0.041588366 -0.10678811 -0.0089454204 2.3509886e-38
0.043285333 -0.10606419 -0.0060067922 2.3509886e-38
0.045087926 -0.10606419 -0.0060067922 2.3509886e-38
0.047011599 -0.10678811 -0.0089454204 2.3509886e-38
0.048950851 -0.10754226 -0.012006834 2.3325494e-38
0.052370582 -0.11639442 -0.047941044 2.3509886e-38
0.053643119 -0.1131943 -0.034950569 2.3509886e-38
0.055496458 -0.1131943 -0.034950569 2.3509886e-38
0.057650007 -0.11467429 -0.04095836 2.3509886e-38
0.059875049 -0.11639442 -0.047941044 2.3509886e-38
0.062129505 -0.11813726 -0.055015877 2.3233299e-38
0.064018026 -0.11813726 -0.055015877 2.2771583e-38
0.065906547 -0.11813726 -0.055015877 2.258644e-38
0.067970976 -0.11887501 -0.058010772 2.1755219e-38
0.070286684 -0.12059332 -0.064985946 2.1569375e-38
0.072192684 -0.12059332 -0.064985946 2.082964e-38
0.07454329 -0.12230472 -0.071933225 1.8983558e-38
0.076664627 -0.12306587 -0.07502301 1.8521501e-38
0.079599373 -0.12675591 -0.090002254 1.9351989e-38
0.083837122 -0.13489382 -0.12303706 1.9353442e-38
0.085844904 -0.13489382 -0.12303706 1.8802452e-38
0.087852687 -0.13489382 -0.12303706 1.9541834e-38
0.089860469 -0.13489382 -0.12303706 1.5579604e-38
0.091868252 -0.13489382 -0.12303706 4.8860012e-39
0.093876034 -0.13489382 -0.12303706 5.7161262e-39
0.095563874 -0.13390581 -0.11902638 6.9146722e-39
0.096990079 -0.13216983 -0.11197932 6.2689399e-39
0.098978475 -0.13216983 -0.11197932 6.3611355e-39
-0.06446287 -0.10636975 2.7343631e-05 1.1432949e-38
-0.062474232 -0.10562779 0.0030179471 1.4659443e-38
-0.060497191 -0.10489015 0.0059910268 2.3509869e-38
-0.05852532 -0.10413162 0.0090485066 2.2679758e-38
-0.056565296 -0.10337763 0.012087628 2.3509883e-38
-0.054622885 -0.10265306 0.015008137 2.3509527e-38
-0.052857142 -0.10265306 0.015008137 2.3509527e-38
-0.050925512 -0.10190789 0.018011615 2.3509886e-38
-0.049165037 -0.10190789 0.018011615 2.3509886e-38
-0.047559898 -0.10265306 0.015008137 2.3509886e-38
-0.045644071 -0.10190789 0.018011615 2.3509886e-38
-0.043883588 -0.10190789 0.018011615 2.3509886e-38
-0.042123113 -0.10190789 0.018011615 2.3509886e-38
-0.040362637 -0.10190789 0.018011615 2.3509886e-38
-0.038731169 -0.10265306 0.015008137 2.3509886e-38
-0.036965426 -0.10265306 0.015008137 2.3509886e-38
-0.035081193 -0.10190789 0.018011615 2.3509886e-38
-0.033320714 -0.10190789 0.018011615 2.3509886e-38
-0.03166819 -0.10265306 0.015008137 2.3509886e-38
-0.030002296 -0.10337763 0.012087628 2.3509886e-38
-0.028136697 -0.10265306 0.015008137 2.3509886e-38
-0.026370954 -0.10265306 0.015008137 2.3509886e-38
-0.024605203 -0.10265306 0.015008137 2.3509886e-38
-0.022757836 -0.10190789 0.018011615 2.3509886e-38
-0.020997357 -0.10190789 0.018011615 2.3509886e-38
-0.019236874 -0.10190789 0.018011615 2.3325494e-38
-0.017542224 -0.10265306 0.015008137 2.2956712e-38
-0.015776474 -0.10265306 0.015008137 2.2772321e-38
-0.014064495 -0.10337763 0.012087628 2.2864516e-38
-0.012293629 -0.10337763 0.012087628 2.3233299e-38
-0.010568056 -0.10413162 0.0090485066 2.3509886e-38
-0.0088320673 -0.10489015 0.0059910268 2.3509886e-38
-0.0070843957 -0.10562779 0.0030179471 2.3509886e-38
-0.0052976254 -0.10562779 0.0030179471 2.3509886e-38
-0.003510857 -0.10562779 0.0030179471 2.3509886e-38
-0.0017240867 -0.10562779 0.0030179471 2.3509886e-38
6.2681735e-05 -0.10562779 0.0030179471 2.3509886e-38
0.0018494502 -0.10562779 0.0030179471 2.3509886e-38
0.0036362186 -0.10562779 0.0030179471 2.3509886e-38
0.005422987 -0.10562779 0.0030179471 2.3509886e-38
0.0071859024 -0.10337763 0.012087628 2.3509886e-38
0.0089567695 -0.10337763 0.012087628 2.3509886e-38
0.010727637 -0.10337763 0.012087628 2.3509886e-38
0.012498503 -0.10337763 0.012087628 2.3509886e-38
0.020134378 -0.11257361 -0.024978474 2.3509886e-38
0.021970233 -0.11257361 -0.024978474 2.3509886e-38
0.023567282 -0.10935538 -0.012006834 2.3509886e-38
0.025318665 -0.10859586 -0.0089454204 2.3509886e-38
0.027126409 -0.10859586 -0.0089454204 2.3509886e-38
0.028934155 -0.10859586 -0.0089454204 2.3509886e-38
0.030741898 -0.10859586 -0.0089454204 2.3509886e-38
0.032469779 -0.10786678 -0.0060067922 2.3509886e-38
0.034272373 -0.10786678 -0.0060067922 2.3509886e-38
0.035982121 -0.10711606 -0.0029809028 2.3509886e-38
0.037779409 -0.10711606 -0.0029809028 2.3509886e-38
0.039680149 -0.10786678 -0.0060067922 2.3509886e-38
0.041482743 -0.10786678 -0.0060067922 2.3509886e-38
0.043285333 -0.10786678 -0.0060067922 2.3509886e-38
0.045087926 -0.10786678 -0.0060067922 2.3509886e-38
0.047011599 -0.10859586 -0.0089454204 2.3509886e-38
0.048819344 -0.10859586 -0.0089454204 2.3325494e-38
0.05062709 -0.10859586 -0.0089454204 2.3509886e-38
0.053179782 -0.11257361 -0.024978474 2.3509886e-38
0.055352848 -0.1143087 -0.031972125 2.3509886e-38
0.057200968 -0.1143087 -0.031972125 2.3509886e-38
0.059723016 -0.1175413 -0.045001701 2.3509886e-38
0.061915316 -0.11903207 -0.051010564 2.3325494e-38
0.064018026 -0.12002577 -0.055015877 2.2772304e-38
0.065906547 -0.12002577 -0.055015877 2.2402409e-38
0.067970976 -0.1207688 -0.058010772 2.1755935e-38
0.070286684 -0.1224993 -0.064985946 2.1108394e-38
0.072192684 -0.1224993 -0.064985946 1.9815488e-38
0.07454329 -0.12422292 -0.071933225 1.8338552e-38
0.076664627 -0.12498946 -0.07502301 1.8337833e-38
0.080808818 -0.13315089 -0.10791905 1.9260159e-38
0.083837122 -0.1369016 -0.12303706 1.9445649e-38
0.085844904 -0.1369016 -0.12303706 1.8710265e-38
0.087852687 -0.1369016 -0.12303706 1.9081948e-38
0.089860469 -0.1369016 -0.12303706 1.5765441e-38
0.091868252 -0.1369016 -0.12303706 4.8870872e-39
0.093876034 -0.1369016 -0.12303706 4.6101444e-39
0.095563874 -0.13590656 -0.11902638 5.7168479e-39
0.096990079 -0.13415821 -0.11197932 6.0849088e-39
0.098978475 -0.13415821 -0.11197932 6.7306341e-39
-0.06446287 -0.10816176 2.7343631e-05 1.5120773e-38
-0.062474232 -0.10741456 0.0030179471 2.0098985e-38
-0.060497191 -0.10667174 0.0059910268 2.350987e-38
-0.058336165 -0.10514848 0.012087628 2.3509879e-38
-0.056388628 -0.1044188 0.015008137 2.3509883e-38
-0.054622885 -0.1044188 0.015008137 2.3416974e-38
-0.052685995 -0.10366838 0.018011615 2.3140387e-38
-0.050760608 -0.10292239 0.020997331 2.3509886e-38
-0.049005371 -0.10292239 0.020997331 2.3509886e-38
-0.047404554 -0.10366838 0.018011615 2.3509886e-38
-0.045644071 -0.10366838 0.018011615 2.3509886e-38
-0.043883588 -0.10366838 0.018011615 2.3509886e-38
-0.042123113 -0.10366838 0.018011615 2.3509886e-38
-0.040362637 -0.10366838 0.018011615 2.3509886e-38
-0.038602155 -0.10366838 0.018011615 2.3509886e-38
-0.036841676 -0.10366838 0.018011615 2.3509886e-38
-0.035081193 -0.10366838 0.018011615 2.3509886e-38
-0.033320714 -0.10366838 0.018011615 2.3509886e-38
-0.031560235 -0.10366838 0.018011615 2.3509886e-38
-0.030002296 -0.10514848 0.012087628 2.3509886e-38
-0.028231431 -0.10514848 0.012087628 2.3509886e-38
-0.026278798 -0.10366838 0.018011615 2.3509886e-38
-0.024518315 -0.10366838 0.018011615 2.3509886e-38
-0.022757836 -0.10366838 0.018011615 2.3509886e-38
-0.020997357 -0.10366838 0.018011615 2.3509886e-38
-0.019236874 -0.10366838 0.018011615 2.341769e-38
-0.017476395 -0.10366838 0.018011615 2.341769e-38
-0.015715916 -0.10366838 0.018011615 2.341769e-38
-0.013955437 -0.10366838 0.018011615 2.3509886e-38
-0.012194958 -0.10366838 0.018011615 2.3509886e-38
-0.010568056 -0.10590781 0.0090485066 2.3509886e-38
-0.0088320673 -0.10667174 0.0059910268 2.3509886e-38
-0.0070505105 -0.10667174 0.0059910268 2.3509886e-38
-0.0052976254 -0.10741456 0.0030179471 2.3509886e-38
-0.003510857 -0.10741456 0.0030179471 2.3509886e-38
-0.0017240867 -0.10741456 0.0030179471 2.3509886e-38
7.57128e-05 -0.10667174 0.0059910268 2.3509886e-38
0.0018572696 -0.10667174 0.0059910268 2.3509886e-38
0.0036388244 -0.10667174 0.0059910268 2.3509886e-38
0.0054203812 -0.10667174 0.0059910268 2.3509886e-38
0.0071859024 -0.10514848 0.012087628 2.3509886e-38
0.0089567695 -0.10514848 0.012087628 2.3509886e-38
0.010727637 -0.10514848 0.012087628 2.3509886e-38
0.012498503 -0.10514848 0.012087628 2.3509886e-38
0.014212242 -0.10366838 0.018011615 2.3509886e-38
0.015972722 -0.10366838 0.018011615 2.3509886e-38
0.017733201 -0.10366838 0.018011615 2.3509886e-38
0.01949368 -0.10366838 0.018011615 2.3509886e-38
0.021654228 -0.10966937 -0.0060067922 2.3509886e-38
0.023456821 -0.10966937 -0.0060067922 2.3509886e-38
0.025259413 -0.10966937 -0.0060067922 2.3509886e-38
0.027062004 -0.10966937 -0.0060067922 2.3509886e-38
0.028864596 -0.10966937 -0.0060067922 2.3509886e-38
0.03066719 -0.10966937 -0.0060067922 2.3509886e-38
0.032387547 -0.10891335 -0.0029809028 2.3509886e-38
0.034184836 -0.10891335 -0.0029809028 2.3509886e-38
0.035982121 -0.10891335 -0.0029809028 2.3509886e-38
0.037681829 -0.10816176 2.7343631e-05 2.3509886e-38
0.039473843 -0.10816176 2.7343631e-05 2.3509886e-38
0.041373983 -0.10891335 -0.0029809028 2.3509886e-38
0.043285333 -0.10966937 -0.0060067922 2.3509886e-38
0.045087926 -0.10966937 -0.0060067922 2.3509886e-38
0.047011599 -0.11040358 -0.0089454204 2.3509886e-38
0.048819344 -0.11040358 -0.0089454204 2.341769e-38
0.05062709 -0.11040358 -0.0089454204 2.3509886e-38
0.052898973 -0.11289944 -0.018934801 2.3509886e-38
0.054869514 -0.11365227 -0.021947935 2.341769e-38
0.056998361 -0.11514379 -0.027917579 2.3509886e-38
0.05883937 -0.11514379 -0.027917579 2.3509886e-38
0.061915316 -0.12091358 -0.051010564 2.3325494e-38
0.063796818 -0.12091358 -0.051010564 2.2772304e-38
0.065906547 -0.12191428 -0.055015877 2.2126898e-38
0.067970976 -0.12266256 -0.058010772 2.184921e-38
0.070286684 -0.12440531 -0.064985946 2.074033e-38
0.072192684 -0.12440531 -0.064985946 1.9077923e-38
0.07454329 -0.12614109 -0.071933225 1.8246358e-38
0.076664627 -0.12691309 -0.07502301 1.8798815e-38
0.080073498 -0.13241051 -0.097025946 1.9445275e-38
0.083071299 -0.13614662 -0.11197932 1.9354179e-38
0.085560106 -0.13790731 -0.11902638 1.8988299e-38
0.087560847 -0.13790731 -0.11902638 1.8805728e-38
0.089860469 -0.13890938 -0.12303706 1.5765806e-38
0.091868252 -0.13890938 -0.12303706 5.2565956e-39
0.094180971 -0.13988586 -0.12694533 4.2424437e-39
0.096195608 -0.13988586 -0.12694533 5.5331797e-39
-0.066254884 -0.10995375 2.7343631e-05 2.3509866e-38
-0.06446287 -0.10995375 2.7343631e-05 2.3325835e-38
-0.062474232 -0.10920133 0.0030179471 2.3509873e-38
-0.060107034 -0.10691936 0.012087628 2.2680477e-38
-0.058154386 -0.10618456 0.015008137 2.3509883e-38
-0.056206953 -0.10542886 0.018011615 2.2956712e-38
-0.05444647 -0.10542886 0.018011615 2.3509886e-38
-0.052515861 -0.10467763 0.020997331 2.3509886e-38
-0.050760608 -0.10467763 0.020997331 2.3509883e-38
-0.049005371 -0.10467763 0.020997331 2.3418045e-38
-0.047250118 -0.10467763 0.020997331 2.3509883e-38
-0.045494881 -0.10467763 0.020997331 2.3509883e-38
-0.043739628 -0.10467763 0.020997331 2.3509886e-38
-0.04198439 -0.10467763 0.020997331 2.3509886e-38
-0.040229138 -0.10467763 0.020997331 2.3509883e-38
-0.038602155 -0.10542886 0.018011615 2.3509883e-38
-0.036841676 -0.10542886 0.018011615 2.350988e-38
-0.035081193 -0.10542886 0.018011615 2.350988e-38
-0.033320714 -0.10542886 0.018011615 2.350988e-38
-0.031560235 -0.10542886 0.018011615 2.350988e-38
-0.030002296 -0.10691936 0.012087628 2.350988e-38
-0.028231431 -0.10691936 0.012087628 2.3509883e-38
-0.026187185 -0.10467763 0.020997331 2.3509883e-38
-0.02443194 -0.10467763 0.020997331 2.3509883e-38
-0.022676695 -0.10467763 0.020997331 2.3509883e-38
-0.02092145 -0.10467763 0.020997331 2.350988e-38
-0.019093618 -0.10390608 0.02406393 2.3509883e-38
-0.017343748 -0.10390608 0.02406393 2.3509883e-38
-0.015655715 -0.10467763 0.020997331 2.3509883e-38
-0.01390047 -0.10467763 0.020997331 2.3509886e-38
-0.012194958 -0.10542886 0.018011615 2.3509527e-38
-0.010568056 -0.107684 0.0090485066 2.3325494e-38
-0.0088320673 -0.10845329 0.0059910268 2.3509527e-38
-0.0070505105 -0.10845329 0.0059910268 2.3509886e-38
-0.0052689537 -0.10845329 0.0059910268 2.3509527e-38
-0.003439296 -0.10691936 0.012087628 2.3509886e-38
-0.0016684309 -0.10691936 0.012087628 2.3509527e-38
0.00011523813 -0.10618456 0.015008137 2.3509886e-38
0.0018809848 -0.10618456 0.015008137 2.3509883e-38
0.0036467295 -0.10618456 0.015008137 2.3509883e-38
0.0054124761 -0.10618456 0.015008137 2.3509883e-38
0.0071703233 -0.10542886 0.018011615 2.3509886e-38
0.0089308023 -0.10542886 0.018011615 2.3509527e-38
0.010691282 -0.10542886 0.018011615 2.3509527e-38
0.012451762 -0.10542886 0.018011615 2.3509886e-38
0.014212242 -0.10542886 0.018011615 2.3509886e-38
0.015972722 -0.10542886 0.018011615 2.3509883e-38
0.017733201 -0.10542886 0.018011615 2.3509883e-38
0.01949368 -0.10542886 0.018011615 2.3509886e-38
0.021254161 -0.10542886 0.018011615 2.3509886e-38
0.023014642 -0.10542886 0.018011615 2.3509886e-38
0.025259413 -0.11147197 -0.0060067922 2.3509886e-38
0.027062004 -0.11147197 -0.0060067922 2.3509883e-38
0.028580608 -0.10845329 0.0059910268 2.3417687e-38
0.030362165 -0.10845329 0.0059910268 2.341769e-38
0.032143719 -0.10845329 0.0059910268 2.3325494e-38
0.034011289 -0.10920133 0.0030179471 2.3509886e-38
0.035798058 -0.10920133 0.0030179471 2.3509886e-38
0.037584826 -0.10920133 0.0030179471 2.3509886e-38
0.039371595 -0.10920133 0.0030179471 2.3509886e-38
0.041158363 -0.10920133 0.0030179471 2.3509527e-38
0.043171268 -0.11071064 -0.0029809028 2.3509527e-38
0.044968553 -0.11071064 -0.0029809028 2.3509886e-38
0.04689052 -0.11147197 -0.0060067922 2.3509886e-38
0.048819344 -0.11221133 -0.0089454204 2.3509886e-38
0.05062709 -0.11221133 -0.0089454204 2.3509883e-38
0.052898973 -0.11472471 -0.018934801 2.3509883e-38
0.054869514 -0.11548282 -0.021947935 2.3417687e-38
0.056851495 -0.11624531 -0.024978474 2.3417687e-38
0.05883937 -0.1169848 -0.027917579 2.3509886e-38
0.061751168 -0.12202276 -0.047941044 2.3141106e-38
0.063627288 -0.12202276 -0.047941044 2.2680111e-38
0.065678313 -0.12279506 -0.051010564 2.2402765e-38
0.067970976 -0.12455635 -0.058010772 2.2309109e-38
0.070286684 -0.12631132 -0.064985946 2.0831456e-38
0.072192684 -0.12631132 -0.064985946 1.889318e-38
0.074741021 -0.12883668 -0.07502301 1.8430393e-38
0.076924123 -0.12982969 -0.078969792 1.9260154e-38
0.080073498 -0.1343727 -0.097025946 1.9722579e-38
0.082311466 -0.13537462 -0.10100813 1.907939e-38
0.085340977 -0.13913165 -0.11594053 1.9727307e-38
0.087560847 -0.13990806 -0.11902638 1.8070332e-38
0.089860469 -0.14091717 -0.12303706 1.5213366e-38
0.091868252 -0.14091717 -0.12303706 5.2576859e-39
0.094180971 -0.14190049 -0.12694533 4.795979e-39
0.096195608 -0.14190049 -0.12694533 6.8228395e-39
-0.066047773 -0.1109881 0.0030179471 2.3232936e-38
-0.064261004 -0.1109881 0.0030179471 2.3233299e-38
-0.062474232 -0.1109881 0.0030179471 2.3234018e-38
-0.059727918 -0.10718934 0.018011615 2.3325856e-38
-0.057967436 -0.10718934 0.018011615 2.3325497e-38
-0.056206953 -0.10718934 0.018011615 2.3325856e-38
-0.054271098 -0.1064329 0.020997331 2.3142544e-38
-0.052515861 -0.1064329 0.020997331 2.3142537e-38
-0.050591242 -0.10565595 0.02406393 2.3142532e-38
-0.048841376 -0.10565595 0.02406393 2.3234367e-38
-0.04709151 -0.10565595 0.02406393 2.341804e-38
-0.045494881 -0.1064329 0.020997331 2.3418045e-38
-0.043591771 -0.10565595 0.02406393 2.3418047e-38
-0.041841906 -0.10565595 0.02406393 2.332621e-38
-0.040092032 -0.10565595 0.02406393 2.3418043e-38
-0.038342167 -0.10565595 0.02406393 2.3509879e-38
-0.036718652 -0.1064329 0.020997331 2.3509873e-38
-0.034963407 -0.1064329 0.020997331 2.350987e-38
-0.032228101 -0.099845976 0.046995923 2.3509869e-38
-0.030518442 -0.099845976 0.046995923 2.350987e-38
-0.030312389 -0.1109881 0.0030179471 2.3509873e-38
-0.028330009 -0.10946019 0.0090485066 2.3509876e-38
-0.026093092 -0.10565595 0.02406393 2.3509879e-38
-0.024343222 -0.10565595 0.02406393 2.3509879e-38
-0.022676695 -0.1064329 0.020997331 2.3509876e-38
-0.02092145 -0.1064329 0.020997331 2.3509873e-38
-0.019093618 -0.10565595 0.02406393 2.3509876e-38
-0.017343748 -0.10565595 0.02406393 2.3509879e-38
-0.015593883 -0.10565595 0.02406393 2.350988e-38
-0.013844013 -0.10565595 0.02406393 2.3509883e-38
-0.012094144 -0.10565595 0.02406393 2.3509527e-38
-0.010613624 -0.11023484 0.0059910268 2.3509527e-38
-0.0087918602 -0.10946019 0.0090485066 2.3508809e-38
-0.0069810301 -0.10869022 0.012087628 2.3509168e-38
-0.0052101631 -0.10869022 0.012087628 2.3508809e-38
-0.0033925567 -0.10718934 0.018011615 2.3509167e-38
-0.0016320758 -0.10718934 0.018011615 2.3509167e-38
0.00012840331 -0.10718934 0.018011615 2.3509523e-38
0.0018967353 -0.1064329 0.020997331 2.350952e-38
0.0036572553 -0.1049086 0.027013704 2.3418043e-38
0.0054019503 -0.1049086 0.027013704 2.3509879e-38
0.0071624704 -0.1064329 0.020997331 2.341805e-38
0.0089177154 -0.1064329 0.020997331 2.3417691e-38
0.01067296 -0.1064329 0.020997331 2.3417333e-38
0.012428205 -0.1064329 0.020997331 2.3417691e-38
0.014153877 -0.10565595 0.02406393 2.341805e-38
0.015870128 -0.1049086 0.027013704 2.3418043e-38
0.017614825 -0.1049086 0.027013704 2.3418045e-38
0.019403482 -0.10565595 0.02406393 2.341805e-38
0.021204429 -0.1064329 0.020997331 2.3417691e-38
0.022959674 -0.1064329 0.020997331 2.341805e-38
0.024835682 -0.10795029 0.015008137 2.3325856e-38
0.0265356 -0.10718934 0.018011615 2.3418043e-38
0.028296081 -0.10718934 0.018011615 2.3418043e-38
0.030284433 -0.10946019 0.0090485066 2.341769e-38
0.032060631 -0.10946019 0.0090485066 2.3417691e-38
0.033836823 -0.10946019 0.0090485066 2.3509883e-38
0.035798058 -0.1109881 0.0030179471 2.3509883e-38
0.03748839 -0.11023484 0.0059910268 2.3509168e-38
0.039269943 -0.11023484 0.0059910268 2.3508809e-38
0.041158363 -0.1109881 0.0030179471 2.3509168e-38
0.043057866 -0.11174576 2.7343631e-05 2.3509168e-38
0.044968553 -0.11250792 -0.0029809028 2.3509168e-38
0.046765842 -0.11250792 -0.0029809028 2.3509527e-38
0.048563126 -0.11250792 -0.0029809028 2.3509886e-38
0.05062709 -0.11401908 -0.0089454204 2.3233652e-38
0.052759781 -0.11579098 -0.015939072 2.3509876e-38
0.054724231 -0.11654995 -0.018934801 2.3509876e-38
0.056700058 -0.11731337 -0.021947935 2.3233652e-38
0.059049085 -0.11985306 -0.031972125 2.3509886e-38
0.06105648 -0.12060766 -0.034950569 2.3509527e-38
0.063627288 -0.12389888 -0.047941044 2.2402448e-38
0.065678313 -0.12467657 -0.051010564 2.2125457e-38
0.067795068 -0.12569134 -0.055015877 2.1477909e-38
0.070103176 -0.12744872 -0.061952308 2.1475043e-38
0.072375238 -0.12896039 -0.067918852 1.824639e-38
0.07454329 -0.12997745 -0.071933225 1.7784313e-38
0.076924123 -0.13176022 -0.078969792 1.9168314e-38
0.080342308 -0.13734378 -0.10100813 1.8064124e-38
0.082311466 -0.13734378 -0.10100813 1.9726547e-38
0.085340977 -0.14112701 -0.11594053 1.9821308e-38
0.087852687 -0.14292495 -0.12303706 1.7887394e-38
0.089860469 -0.14292495 -0.12303706 1.4753847e-38
0.092166334 -0.14391513 -0.12694533 5.3495382e-39
0.094180971 -0.14391513 -0.12694533 5.1644112e-39
0.096195608 -0.14391513 -0.12694533 7.0068679e-39
0.098210245 -0.14391513 -0.12694533 7.7419008e-39
-0.066047773 -0.11277486 0.0030179471 2.3509168e-38
-0.064261004 -0.11277486 0.0030179471 2.3509886e-38
-0.062474232 -0.11277486 0.0030179471 2.3509886e-38
-0.059536841 -0.10818814 0.020997331 2.341805e-38
-0.057781588 -0.10818814 0.020997331 2.3417691e-38
-0.056026351 -0.10818814 0.020997331 2.341805e-38
-0.054271098 -0.10818814 0.020997331 2.3234379e-38
-0.052341115 -0.10740583 0.02406393 2.3234372e-38
-0.050591242 -0.10740583 0.02406393 2.3234369e-38
-0.048841376 -0.10740583 0.02406393 2.3234369e-38
-0.04709151 -0.10740583 0.02406393 2.3234372e-38
-0.045341637 -0.10740583 0.02406393 2.3234376e-38
-0.043449547 -0.10665329 0.027013704 2.341805e-38
-0.041704845 -0.10665329 0.027013704 2.3326213e-38
-0.039824683 -0.10588033 0.030043587 2.3509883e-38
-0.037482824 -0.10230236 0.044068858 2.350988e-38
-0.035768028 -0.10230236 0.044068858 2.3417679e-38
-0.034053236 -0.10230236 0.044068858 2.3509869e-38
-0.032228101 -0.10155563 0.046995923 2.3509869e-38
-0.030518442 -0.10155563 0.046995923 2.3509873e-38
-0.028908856 -0.10230236 0.044068858 2.3509879e-38
-0.027194064 -0.10230236 0.044068858 2.350988e-38
-0.026002582 -0.10665329 0.027013704 2.3509167e-38
-0.024257887 -0.10665329 0.027013704 2.3509167e-38
-0.022513188 -0.10665329 0.027013704 2.3509879e-38
-0.02076849 -0.10665329 0.027013704 2.3509876e-38
-0.019023795 -0.10665329 0.027013704 2.3509879e-38
-0.0172791 -0.10665329 0.027013704 2.350952e-38
-0.015534405 -0.10665329 0.027013704 2.3509523e-38
-0.013733927 -0.10588033 0.030043587 2.3509167e-38
-0.011994544 -0.10588033 0.030043587 2.3508809e-38
-0.010255162 -0.10588033 0.030043587 2.3509168e-38
-0.0085157752 -0.10588033 0.030043587 2.3508809e-38
-0.0067763925 -0.10588033 0.030043587 2.3509168e-38
-0.0050370079 -0.10588033 0.030043587 2.3508809e-38
-0.0032976232 -0.10588033 0.030043587 2.3509168e-38
-0.0015582405 -0.10588033 0.030043587 2.3509167e-38
0.00018114224 -0.10588033 0.030043587 2.3509523e-38
0.0019205268 -0.10588033 0.030043587 2.350952e-38
0.0036599115 -0.10588033 0.030043587 2.3418042e-38
0.0053992942 -0.10588033 0.030043587 2.3509879e-38
0.0071466472 -0.10665329 0.027013704 2.341805e-38
0.0089177154 -0.10818814 0.020997331 2.3417333e-38
0.01067296 -0.10818814 0.020997331 2.3417333e-38
0.012428205 -0.10818814 0.020997331 2.3417691e-38
0.014153877 -0.10740583 0.02406393 2.341805e-38
0.015870128 -0.10665329 0.027013704 2.341804e-38
0.017614825 -0.10665329 0.027013704 2.3418043e-38
0.019403482 -0.10740583 0.02406393 2.3233662e-38
0.021204429 -0.10818814 0.020997331 2.3233303e-38
0.022903219 -0.10740583 0.02406393 2.3233303e-38
0.024653086 -0.10740583 0.02406393 2.3233662e-38
0.026402954 -0.10740583 0.02406393 2.3418042e-38
0.028152823 -0.10740583 0.02406393 2.3418042e-38
0.029902691 -0.10740583 0.02406393 2.3417691e-38
0.031652559 -0.10740583 0.02406393 2.3417333e-38
0.033491142 -0.10818814 0.020997331 2.3509883e-38
0.035613019 -0.11123641 0.0090485066 2.350988e-38
0.037389215 -0.11123641 0.0090485066 2.3509527e-38
0.039165407 -0.11123641 0.0090485066 2.3509168e-38
0.0410515 -0.11201639 0.0059910268 2.3416256e-38
0.042833056 -0.11201639 0.0059910268 2.3324062e-38
0.04484988 -0.11353777 2.7343631e-05 2.3324421e-38
0.04664189 -0.11353777 2.7343631e-05 2.3324421e-38
0.048433904 -0.11353777 2.7343631e-05 2.3509883e-38
0.050495703 -0.11507715 -0.0060067922 2.3418042e-38
0.052759781 -0.11761098 -0.015939072 2.3326199e-38
0.054724231 -0.11837523 -0.018934801 2.3234004e-38
0.056549493 -0.11837523 -0.018934801 2.323365e-38
0.05883937 -0.12066682 -0.027917579 2.3509886e-38
0.06105648 -0.12246101 -0.034950569 2.3509527e-38
0.06346494 -0.12502514 -0.045001701 2.2218059e-38
0.065335907 -0.12502514 -0.045001701 2.2677193e-38
0.067559808 -0.12655805 -0.051010564 2.1384997e-38
0.06986475 -0.1283439 -0.058010772 2.0829314e-38
0.072375238 -0.13087155 -0.067918852 1.7508825e-38
0.074286379 -0.13087155 -0.067918852 1.7415892e-38
0.076197527 -0.13087155 -0.067918852 1.9445624e-38
0.080545172 -0.14007963 -0.1040134 1.8802415e-38
0.082790099 -0.14107598 -0.10791905 2.0096054e-38
0.085340977 -0.14312236 -0.11594053 1.9545085e-38
0.087852687 -0.14493273 -0.12303706 1.7518614e-38
0.090151697 -0.14592977 -0.12694533 1.4477261e-38
0.092166334 -0.14592977 -0.12694533 5.6261251e-39
0.094180971 -0.14592977 -0.12694533 5.9012574e-39
0.095883831 -0.14493273 -0.12303706 7.0983446e-39
0.097891614 -0.14493273 -0.12303706 7.8333775e-39
-0.065701604 -0.10684617 0.033055112 2.3507722e-38
-0.063967496 -0.10684617 0.033055112 2.3508081e-38
-0.062233385 -0.10684617 0.033055112 2.3508798e-38
-0.060896512 -0.10839801 0.027013704 2.3508798e-38
-0.05915181 -0.10839801 0.027013704 2.3325129e-38
-0.057407107 -0.10839801 0.027013704 2.3233302e-38
-0.055479135 -0.10761972 0.030043587 2.3141103e-38
-0.053739753 -0.10761972 0.030043587 2.3049259e-38
-0.052173022 -0.10839801 0.027013704 2.3049256e-38
-0.050260987 -0.10761972 0.030043587 2.332621e-38
-0.048521604 -0.10761972 0.030043587 2.341805e-38
-0.046626452 -0.10684617 0.033055112 2.341805e-38
-0.044892352 -0.10684617 0.033055112 2.3325856e-38
-0.043303456 -0.10761972 0.030043587 2.3325138e-38
-0.041564073 -0.10761972 0.030043587 2.3325138e-38
-0.039690044 -0.10684617 0.033055112 2.3417333e-38
-0.037482824 -0.10401715 0.044068858 2.3509527e-38
-0.035768028 -0.10401715 0.044068858 2.341769e-38
-0.034053236 -0.10401715 0.044068858 2.341769e-38
-0.032338444 -0.10401715 0.044068858 2.3509167e-38
-0.030623652 -0.10401715 0.044068858 2.3509168e-38
-0.028908856 -0.10401715 0.044068858 2.3509168e-38
-0.027194064 -0.10401715 0.044068858 2.3508809e-38
-0.02557255 -0.104798 0.041028842 2.3508809e-38
-0.023938145 -0.10555913 0.038065776 2.3508809e-38
-0.022349004 -0.10684617 0.033055112 2.3509527e-38
-0.0206149 -0.10684617 0.033055112 2.3509886e-38
-0.018880796 -0.10684617 0.033055112 2.3509886e-38
-0.017146692 -0.10684617 0.033055112 2.3509886e-38
-0.015412588 -0.10684617 0.033055112 2.3509527e-38
-0.013678487 -0.10684617 0.033055112 2.3509527e-38
-0.01194438 -0.10684617 0.033055112 2.3509168e-38
-0.010210279 -0.10684617 0.033055112 2.3509527e-38
-0.0084761754 -0.10684617 0.033055112 2.3509168e-38
-0.0067420714 -0.10684617 0.033055112 2.3509527e-38
-0.0050079674 -0.10684617 0.033055112 2.3509168e-38
-0.0032738633 -0.10684617 0.033055112 2.3509527e-38
-0.0015397593 -0.10684617 0.033055112 2.3509527e-38
0.00018114224 -0.10761972 0.030043587 2.3509886e-38
0.0019205268 -0.10761972 0.030043587 2.3509886e-38
0.0036599115 -0.10761972 0.030043587 2.3509883e-38
0.0053992942 -0.10761972 0.030043587 2.3509879e-38
0.0071386788 -0.10761972 0.030043587 2.3509886e-38
0.0089177154 -0.10994337 0.020997331 2.3509168e-38
0.01067296 -0.10994337 0.020997331 2.3508809e-38
0.012428205 -0.10994337 0.020997331 2.3509527e-38
0.01418345 -0.10994337 0.020997331 2.3509886e-38
0.015870128 -0.10839801 0.027013704 2.3509879e-38
0.017614825 -0.10839801 0.027013704 2.3509879e-38
0.01949368 -0.11071031 0.018011615 2.3417333e-38
0.021204429 -0.10994337 0.020997331 2.3509527e-38
0.022793133 -0.10761972 0.030043587 2.3509527e-38
0.024471795 -0.10684617 0.033055112 2.3509886e-38
0.02603114 -0.104798 0.041028842 2.3509879e-38
0.027561104 -0.10273445 0.049062595 2.350988e-38
0.029267142 -0.10273445 0.049062595 2.3509168e-38
0.031191509 -0.104798 0.041028842 2.3509168e-38
0.032911632 -0.104798 0.041028842 2.3417327e-38
0.035246387 -0.10994337 0.020997331 2.350988e-38
0.037098482 -0.11071031 0.018011615 2.3509527e-38
0.038961649 -0.11148177 0.015008137 2.3509168e-38
0.040832367 -0.11223195 0.012087628 2.3509168e-38
0.0427178 -0.1130126 0.0090485066 2.3508451e-38
0.044493996 -0.1130126 0.0090485066 2.3509168e-38
0.04639617 -0.11379795 0.0059910268 2.3509527e-38
0.048177723 -0.11379795 0.0059910268 2.350952e-38
0.050225917 -0.11532979 2.7343631e-05 2.3509876e-38
0.052434832 -0.11763458 -0.0089454204 2.350987e-38
0.054579787 -0.11943097 -0.015939072 2.3326196e-38
0.056549493 -0.12020047 -0.018934801 2.3418039e-38
0.05883937 -0.12250783 -0.027917579 2.3509883e-38
0.06105648 -0.12431435 -0.034950569 2.2956359e-38
0.063241631 -0.12585752 -0.04095836 2.2401729e-38
0.065335907 -0.1268961 -0.045001701 2.2768317e-38
0.067206867 -0.1268961 -0.045001701 2.1384278e-38
0.069683589 -0.1294684 -0.055015877 2.0369039e-38
0.072003856 -0.1312501 -0.061952308 1.7233659e-38
0.073904544 -0.1312501 -0.061952308 1.7233295e-38
0.076197527 -0.13278268 -0.067918852 1.972294e-38
0.080808818 -0.14305727 -0.10791905 1.9631836e-38
0.083071299 -0.1441002 -0.11197932 2.0094996e-38
0.085340977 -0.14511769 -0.11594053 1.9635842e-38
0.087560847 -0.14591034 -0.11902638 1.8069978e-38
0.089860469 -0.14694051 -0.12303706 1.5028978e-38
0.092166334 -0.14794444 -0.12694533 6.5466268e-39
0.094180971 -0.14794444 -0.12694533 6.9143233e-39
0.095883831 -0.14694051 -0.12303706 6.9128772e-39
0.097891614 -0.14694051 -0.12303706 6.7273957e-39
-0.069169804 -0.10858028 0.033055112 2.3508382e-38
-0.067435697 -0.10858028 0.033055112 2.3506248e-38
-0.065701604 -0.10858028 0.033055112 2.3508057e-38
-0.063967496 -0.10858028 0.033055112 2.3509853e-38
-0.062233385 -0.10858028 0.033055112 2.3509851e-38
-0.060499277 -0.10858028 0.033055112 2.3509851e-38
-0.058765184 -0.10858028 0.033055112 2.3509856e-38
-0.057031076 -0.10858028 0.033055112 2.3509863e-38
-0.055296969 -0.10858028 0.033055112 2.3509863e-38
-0.053562868 -0.10858028 0.033055112 2.3509856e-38
-0.051828768 -0.10858028 0.033055112 2.3509856e-38
-0.05009466 -0.10858028 0.033055112 2.3509869e-38
