# .PCD v0.7 - Point Cloud Data file format
VERSION 0.7
FIELDS x y z rgb
SIZE 4 4 4 4
TYPE F F F F
COUNT 1 1 1 1
WIDTH 940
HEIGHT 1
VIEWPOINT 0 0 0 1 0 0 0
POINTS 940
DATA ascii
-0.064807162 -0.091656998 0.02837136 2.3233299e-38
-0.063057289 -0.091656998 0.02837136 2.3233299e-38
-0.061307423 -0.091656998 0.02837136 2.3509886e-38
-0.059557557 -0.091656998 0.02837136 2.3509886e-38
-0.057807684 -0.091656998 0.02837136 2.3509886e-38
-0.056189552 -0.092390925 0.025304761 2.3325494e-38
-0.054434303 -0.092390925 0.025304761 2.3509886e-38
-0.052796844 -0.093105495 0.022319045 2.3509886e-38
-0.051149588 -0.093824327 0.019315567 2.3509886e-38
-0.049488813 -0.094523281 0.016395058 2.3509886e-38
-0.047717948 -0.094523281 0.016395058 2.3509886e-38
-0.045947082 -0.094523281 0.016395058 2.3509886e-38
-0.044269465 -0.095250636 0.013355937 2.3509886e-38
-0.042493269 -0.095250636 0.013355937 2.3509886e-38
-0.040880963 -0.096693933 0.0073253773 2.3509886e-38
-0.039246708 -0.098129645 0.0013265274 2.3509886e-38
-0.037449419 -0.098129645 0.0013265274 2.3509886e-38
-0.036001787 -0.10194789 -0.014627371 2.3509886e-38
-0.034176528 -0.10194789 -0.014627371 2.3509886e-38
-0.03240674 -0.10266902 -0.017640505 2.3509886e-38
-0.030626675 -0.10339431 -0.020671044 2.3509886e-38
-0.028834624 -0.10409774 -0.023610149 2.3509886e-38
-0.026993616 -0.10409774 -0.023610149 2.3509886e-38
-0.025152607 -0.10409774 -0.023610149 2.3509886e-38
-0.023350695 -0.1050681 -0.027664695 2.3509886e-38
-0.021502579 -0.1050681 -0.027664695 2.3509886e-38
-0.01965446 -0.1050681 -0.027664695 2.3509886e-38
-0.017806342 -0.1050681 -0.027664695 2.3509886e-38
-0.015966058 -0.10578094 -0.030643139 2.3509886e-38
-0.014115343 -0.10649781 -0.033638511 2.3509886e-38
-0.012256751 -0.10649781 -0.033638511 2.3509886e-38
-0.010398159 -0.10649781 -0.033638511 2.3509886e-38
-0.0085395668 -0.10649781 -0.033638511 2.3509886e-38
-0.0066809752 -0.10649781 -0.033638511 2.3509886e-38
-0.0047986149 -0.10721879 -0.03665093 2.3509886e-38
-0.0029347413 -0.10721879 -0.03665093 2.3509886e-38
-0.0010708668 -0.10721879 -0.03665093 2.3509886e-38
0.00079300674 -0.10721879 -0.03665093 2.3509886e-38
0.0026568803 -0.10721879 -0.03665093 2.3509886e-38
0.0045207548 -0.10721879 -0.03665093 2.3509886e-38
0.0063846293 -0.10721879 -0.03665093 2.3509886e-38
0.0083300304 -0.10818647 -0.04069427 2.3509886e-38
0.010200994 -0.10818647 -0.04069427 2.3509886e-38
0.012141531 -0.10888995 -0.043633614 2.3509886e-38
0.014017647 -0.10888995 -0.043633614 2.3509886e-38
0.015893765 -0.10888995 -0.043633614 2.3509886e-38
0.017769881 -0.10888995 -0.043633614 2.3509886e-38
0.019645998 -0.10888995 -0.043633614 2.3509886e-38
0.021751599 -0.11058317 -0.050708447 2.3509886e-38
0.02364012 -0.11058317 -0.050708447 2.3509886e-38
0.025636287 -0.11129995 -0.053703342 2.3509886e-38
0.027530061 -0.11129995 -0.053703342 2.3509886e-38
0.029423835 -0.11129995 -0.053703342 2.3509886e-38
0.031317603 -0.11129995 -0.053703342 2.3509886e-38
0.033380691 -0.11224325 -0.057644878 2.3509886e-38
0.035281375 -0.11224325 -0.057644878 2.3509886e-38
0.03699892 -0.11129995 -0.053703342 2.3509886e-38
0.03874829 -0.11058317 -0.050708447 2.3509886e-38
0.040436666 -0.10962458 -0.046703134 2.3509886e-38
0.042318165 -0.10962458 -0.046703134 2.3509886e-38
0.050255325 -0.11129995 -0.053703342 2.3417333e-38
0.052149098 -0.11129995 -0.053703342 2.3417333e-38
0.054288205 -0.11224325 -0.057644878 2.3417691e-38
0.055936646 -0.11129995 -0.053703342 2.3509886e-38
0.057830419 -0.11129995 -0.053703342 2.3509886e-38
0.059251655 -0.10962458 -0.046703134 2.3509883e-38
0.06113315 -0.10962458 -0.046703134 2.3509883e-38
0.062587962 -0.10818647 -0.04069427 2.3325492e-38
0.064458929 -0.10818647 -0.04069427 2.3417687e-38
0.066028595 -0.10721879 -0.03665093 2.341769e-38
0.067892469 -0.10721879 -0.03665093 2.3509886e-38
0.069756344 -0.10721879 -0.03665093 2.3509527e-38
0.071379885 -0.10649781 -0.033638511 2.3509527e-38
0.073238492 -0.10649781 -0.033638511 2.3509527e-38
0.075097084 -0.10649781 -0.033638511 2.3509527e-38
0.076955676 -0.10649781 -0.033638511 2.3509883e-38
0.078814268 -0.10649781 -0.033638511 2.3509527e-38
0.080939576 -0.10721879 -0.03665093 2.3509168e-38
0.082803458 -0.10721879 -0.03665093 2.3417333e-38
0.084667325 -0.10721879 -0.03665093 2.3325138e-38
0.086531207 -0.10721879 -0.03665093 2.3417691e-38
0.088395074 -0.10721879 -0.03665093 2.3418045e-38
0.090258956 -0.10721879 -0.03665093 2.3326201e-38
0.092523366 -0.10818647 -0.04069427 2.2404603e-38
0.094690666 -0.10888995 -0.043633614 2.3418043e-38
0.096566781 -0.10888995 -0.043633614 2.2957078e-38
0.098442897 -0.10888995 -0.043633614 2.3233303e-38
0.10031903 -0.10888995 -0.043633614 2.341805e-38
0.10219514 -0.10888995 -0.043633614 1.982206e-38
0.10407126 -0.10888995 -0.043633614 1.3552741e-38
-0.098557174 -0.099926919 0.0013265274 2.3138956e-38
-0.096514627 -0.099201679 0.0043347739 2.3138598e-38
-0.094484031 -0.098480701 0.0073253773 1.7884535e-38
-0.092697263 -0.098480701 0.0073253773 1.0509601e-38
-0.090683728 -0.097763941 0.010298457 7.9295613e-39
-0.088674337 -0.09702684 0.013355937 9.0366249e-39
-0.086898148 -0.09702684 0.013355937 7.8395138e-39
-0.079593539 -0.09629415 0.016395058 7.7465545e-39
-0.077822685 -0.09629415 0.016395058 7.6543476e-39
-0.075683087 -0.094865978 0.022319045 7.7454531e-39
-0.073742002 -0.094146177 0.025304761 8.8514307e-39
-0.071806632 -0.093406871 0.02837136 1.0325475e-38
-0.070056766 -0.093406871 0.02837136 2.0282261e-38
-0.068306893 -0.093406871 0.02837136 2.1574118e-38
-0.066557027 -0.093406871 0.02837136 2.3141103e-38
-0.064807162 -0.093406871 0.02837136 2.3509886e-38
-0.063057289 -0.093406871 0.02837136 2.3509886e-38
-0.061307423 -0.093406871 0.02837136 2.3509886e-38
-0.059557557 -0.093406871 0.02837136 2.3233299e-38
-0.057807684 -0.093406871 0.02837136 2.3048907e-38
-0.056057818 -0.093406871 0.02837136 2.2956712e-38
-0.054434303 -0.094146177 0.025304761 2.3509886e-38
-0.052796844 -0.094865978 0.022319045 2.3509886e-38
-0.051036365 -0.094865978 0.022319045 2.3509886e-38
-0.049383841 -0.09559007 0.019315567 2.3509886e-38
-0.047717948 -0.09629415 0.016395058 2.3509886e-38
-0.045947082 -0.09629415 0.016395058 2.3509886e-38
-0.044176213 -0.09629415 0.016395058 2.3509886e-38
-0.042493269 -0.09702684 0.013355937 2.3509886e-38
-0.040880963 -0.098480701 0.0073253773 2.3509886e-38
-0.039170228 -0.099201679 0.0043347739 2.3509886e-38
-0.037378214 -0.099201679 0.0043347739 2.3509886e-38
-0.035718448 -0.10065642 -0.001699362 2.3509886e-38
-0.033975109 -0.10136487 -0.0046379901 2.3509886e-38
-0.032296121 -0.10305093 -0.011631642 2.3509886e-38
-0.03052601 -0.10377313 -0.014627371 2.3509886e-38
-0.028745657 -0.10449956 -0.017640505 2.3509886e-38
-0.026954966 -0.10523017 -0.020671044 2.3509886e-38
-0.025119109 -0.10523017 -0.020671044 2.3509886e-38
-0.023311596 -0.10593875 -0.023610149 2.3509886e-38
-0.021470588 -0.10593875 -0.023610149 2.3509886e-38
-0.019629579 -0.10593875 -0.023610149 2.3509886e-38
-0.017788569 -0.10593875 -0.023610149 2.3509886e-38
-0.015958223 -0.10691623 -0.027664695 2.3509886e-38
-0.014112717 -0.10763429 -0.030643139 2.3509886e-38
-0.012259377 -0.10763429 -0.030643139 2.3509886e-38
-0.010406036 -0.10763429 -0.030643139 2.3509886e-38
-0.0085395668 -0.1083564 -0.033638511 2.3509886e-38
-0.0066809752 -0.1083564 -0.033638511 2.3509886e-38
-0.0048223832 -0.1083564 -0.033638511 2.3509886e-38
-0.0029637911 -0.1083564 -0.033638511 2.3509886e-38
-0.0011051982 -0.1083564 -0.033638511 2.3509886e-38
0.00075339386 -0.1083564 -0.033638511 2.3509886e-38
0.002611985 -0.1083564 -0.033638511 2.3509886e-38
0.004470577 -0.1083564 -0.033638511 2.3509886e-38
0.006329169 -0.1083564 -0.033638511 2.3509886e-38
0.0082485024 -0.10908265 -0.03665093 2.3509886e-38
0.010112377 -0.10908265 -0.03665093 2.3509886e-38
0.011976251 -0.10908265 -0.03665093 2.3509886e-38
0.01394292 -0.11005743 -0.04069427 2.3509886e-38
0.015813883 -0.11005743 -0.04069427 2.3509886e-38
0.017684845 -0.11005743 -0.04069427 2.3509886e-38
0.019555809 -0.11005743 -0.04069427 2.3509886e-38
0.02162168 -0.11150609 -0.046703134 2.3509886e-38
0.02364012 -0.11247168 -0.050708447 2.3509886e-38
0.025528641 -0.11247168 -0.050708447 2.3509886e-38
0.027530061 -0.11319371 -0.053703342 2.3509886e-38
0.026898963 -0.097763941 0.010298457 2.3509886e-38
0.02868052 -0.097763941 0.010298457 2.3509886e-38
0.033211377 -0.11319371 -0.053703342 2.3509886e-38
0.03510515 -0.11319371 -0.053703342 2.3509886e-38
0.036859769 -0.11247168 -0.050708447 2.3509886e-38
0.03874829 -0.11247168 -0.050708447 2.3509886e-38
0.040436666 -0.11150609 -0.046703134 2.3509886e-38
0.042318165 -0.11150609 -0.046703134 2.3509886e-38
0.052387524 -0.11414395 -0.057644878 2.3509527e-38
0.054288205 -0.11414395 -0.057644878 2.3509527e-38
0.05574498 -0.11247168 -0.050708447 2.3509886e-38
0.057633501 -0.11247168 -0.050708447 2.3509886e-38
0.059251655 -0.11150609 -0.046703134 2.3509883e-38
0.06092057 -0.11076607 -0.043633614 2.3509883e-38
0.06279669 -0.11076607 -0.043633614 2.3509883e-38
0.064458929 -0.11005743 -0.04069427 2.3509883e-38
0.066028595 -0.10908265 -0.03665093 2.3509886e-38
0.067892469 -0.10908265 -0.03665093 2.3509886e-38
0.0695213 -0.1083564 -0.033638511 2.3509527e-38
0.071379885 -0.1083564 -0.033638511 2.3509527e-38
0.073238492 -0.1083564 -0.033638511 2.3509527e-38
0.075097084 -0.1083564 -0.033638511 2.3509527e-38
0.076955676 -0.1083564 -0.033638511 2.3416603e-38
0.078814268 -0.1083564 -0.033638511 2.3416245e-38
0.080939576 -0.10908265 -0.03665093 2.3325138e-38
0.082531452 -0.1083564 -0.033638511 2.3325497e-38
0.084390044 -0.1083564 -0.033638511 2.3416974e-38
0.086248636 -0.1083564 -0.033638511 2.3417327e-38
0.088107228 -0.1083564 -0.033638511 2.3509862e-38
0.090258956 -0.10908265 -0.03665093 2.3509851e-38
0.092523366 -0.11005743 -0.04069427 2.3509851e-38
0.094394341 -0.11005743 -0.04069427 2.3509859e-38
0.096566781 -0.11076607 -0.043633614 2.2864505e-38
0.098442897 -0.11076607 -0.043633614 2.3325494e-38
0.10031903 -0.11076607 -0.043633614 2.3509886e-38
0.10219514 -0.11076607 -0.043633614 1.779411e-38
0.10407126 -0.11076607 -0.043633614 1.0878699e-38
0.10594738 -0.11076607 -0.043633614 1.2903605e-39
-0.10009864 -0.10099369 0.0043347739 2.2771955e-38
-0.098306626 -0.10099369 0.0043347739 2.3509168e-38
-0.096514627 -0.10099369 0.0043347739 2.2402473e-38
-0.094484031 -0.10026747 0.0073253773 1.5948776e-38
-0.092697263 -0.10026747 0.0073253773 9.2192113e-39
-0.073742002 -0.095901415 0.025304761 6.4554009e-39
-0.071806632 -0.095156729 0.02837136 7.2855119e-39
-0.070056766 -0.095156729 0.02837136 1.8532322e-38
-0.068306893 -0.095156729 0.02837136 2.0191178e-38
-0.066557027 -0.095156729 0.02837136 2.2219147e-38
-0.064807162 -0.095156729 0.02837136 2.3509886e-38
-0.063057289 -0.095156729 0.02837136 2.341769e-38
-0.061307423 -0.095156729 0.02837136 2.2772321e-38
-0.059557557 -0.095156729 0.02837136 2.3048907e-38
-0.057807684 -0.095156729 0.02837136 2.3509886e-38
-0.056057818 -0.095156729 0.02837136 2.3509886e-38
-0.054434303 -0.095901415 0.025304761 2.3509886e-38
-0.052796844 -0.096626461 0.022319045 2.3509886e-38
-0.051036365 -0.096626461 0.022319045 2.3509886e-38
-0.049383841 -0.097355813 0.019315567 2.3509886e-38
-0.047717948 -0.098065019 0.016395058 2.3509886e-38
-0.045947082 -0.098065019 0.016395058 2.3509886e-38
-0.044176213 -0.098065019 0.016395058 2.3509886e-38
-0.042493269 -0.098803028 0.013355937 2.3509886e-38
-0.040880963 -0.10026747 0.0073253773 2.3509886e-38
-0.039170228 -0.10099369 0.0043347739 2.3509886e-38
-0.037378214 -0.10099369 0.0043347739 2.3509886e-38
-0.035718448 -0.10245901 -0.001699362 2.3509886e-38
-0.033975109 -0.10317262 -0.0046379901 2.3509886e-38
-0.032167368 -0.10317262 -0.0046379901 2.3509886e-38
-0.030410612 -0.10391603 -0.0076994039 2.3509886e-38
-0.028700752 -0.10559841 -0.014627371 2.3509886e-38
-0.026915116 -0.10633011 -0.017640505 2.3509886e-38
-0.025084572 -0.10633011 -0.017640505 2.3509886e-38
-0.023283252 -0.10706602 -0.020671044 2.3509886e-38
-0.021447398 -0.10706602 -0.020671044 2.3509886e-38
-0.019611543 -0.10706602 -0.020671044 2.3509886e-38
-0.017788569 -0.10777976 -0.023610149 2.3509886e-38
-0.01594756 -0.10777976 -0.023610149 2.3509886e-38
-0.014110105 -0.10876434 -0.027664695 2.3509886e-38
-0.012261989 -0.10876434 -0.027664695 2.3509886e-38
-0.010406036 -0.10948761 -0.030643139 2.3509886e-38
-0.0085526966 -0.10948761 -0.030643139 2.3509886e-38
-0.0066993567 -0.10948761 -0.030643139 2.3509886e-38
-0.0048223832 -0.11021499 -0.033638511 2.3509886e-38
-0.0029637911 -0.11021499 -0.033638511 2.3509886e-38
-0.0011393358 -0.10948761 -0.030643139 2.3509886e-38
0.00071400451 -0.10948761 -0.030643139 2.3509886e-38
0.0025673448 -0.10948761 -0.030643139 2.3509886e-38
0.0044206842 -0.10948761 -0.030643139 2.3509886e-38
0.0062740254 -0.10948761 -0.030643139 2.3509886e-38
0.0081273653 -0.10948761 -0.030643139 2.3509886e-38
0.0099807065 -0.10948761 -0.030643139 2.3509886e-38
0.011904947 -0.11021499 -0.033638511 2.3509886e-38
0.013840124 -0.11094652 -0.03665093 2.3509886e-38
0.015703999 -0.11094652 -0.03665093 2.3509886e-38
0.017684845 -0.11192839 -0.04069427 2.3509886e-38
0.019555809 -0.11192839 -0.04069427 2.3509886e-38
0.02162168 -0.11338757 -0.046703134 2.3509886e-38
0.02364012 -0.1143602 -0.050708447 2.3509886e-38
0.025528641 -0.1143602 -0.050708447 2.3509886e-38
0.025342217 -0.10099369 0.0043347739 2.3509886e-38
0.026898963 -0.099545494 0.010298457 2.3509886e-38
0.02868052 -0.099545494 0.010298457 2.3509886e-38
0.033211377 -0.11508749 -0.053703342 2.3509886e-38
0.03510515 -0.11508749 -0.053703342 2.3509886e-38
0.036859769 -0.1143602 -0.050708447 2.3509886e-38
0.03874829 -0.1143602 -0.050708447 2.3509886e-38
0.040636811 -0.1143602 -0.050708447 2.3509886e-38
0.042525332 -0.1143602 -0.050708447 2.3509886e-38
0.044413853 -0.1143602 -0.050708447 2.3509886e-38
0.050079416 -0.1143602 -0.050708447 2.3509527e-38
0.053856459 -0.1143602 -0.050708447 2.3509527e-38
0.05574498 -0.1143602 -0.050708447 2.3509886e-38
0.057633501 -0.1143602 -0.050708447 2.3509886e-38
0.058846038 -0.11192839 -0.04069427 2.3417687e-38
0.060436968 -0.11094652 -0.03665093 2.3418043e-38
0.062300842 -0.11094652 -0.03665093 2.350988e-38
0.063945524 -0.11021499 -0.033638511 2.3509883e-38
0.065580912 -0.10948761 -0.030643139 2.3509886e-38
0.067434251 -0.10948761 -0.030643139 2.3509886e-38
0.069287598 -0.10948761 -0.030643139 2.3509527e-38
0.070903316 -0.10876434 -0.027664695 2.3509527e-38
0.072751433 -0.10876434 -0.027664695 2.3509527e-38
0.074847609 -0.10948761 -0.030643139 2.3509527e-38
0.076700956 -0.10948761 -0.030643139 2.3509869e-38
0.078554288 -0.10948761 -0.030643139 2.3509869e-38
0.08067286 -0.11021499 -0.033638511 2.3509527e-38
0.082531452 -0.11021499 -0.033638511 2.3509527e-38
0.084390044 -0.11021499 -0.033638511 2.3509524e-38
0.086248636 -0.11021499 -0.033638511 2.3509507e-38
0.088107228 -0.11021499 -0.033638511 2.3509121e-38
0.08996582 -0.11021499 -0.033638511 2.3509825e-38
0.092122823 -0.11094652 -0.03665093 2.3508385e-38
0.094394341 -0.11192839 -0.04069427 2.3506595e-38
0.096265301 -0.11192839 -0.04069427 2.350986e-38
0.098442897 -0.11264218 -0.043633614 2.3509876e-38
0.10031903 -0.11264218 -0.043633614 2.350988e-38
0.10219514 -0.11264218 -0.043633614 1.8070332e-38
0.10407126 -0.11264218 -0.043633614 1.0693943e-38
0.10594738 -0.11264218 -0.043633614 2.7651192e-39
0.10782349 -0.11264218 -0.043633614 3.8714794e-39
-0.099844337 -0.10205424 0.0073253773 1.4565817e-38
-0.098057568 -0.10205424 0.0073253773 1.0325894e-38
-0.0962708 -0.10205424 0.0073253773 8.8514811e-39
-0.094484031 -0.10205424 0.0073253773 7.9295262e-39
-0.092697263 -0.10205424 0.0073253773 8.7600058e-39
-0.090218753 -0.099835888 0.016395058 9.4053752e-39
-0.075306371 -0.096906602 0.02837136 2.0654269e-38
-0.073556498 -0.096906602 0.02837136 2.2128671e-38
-0.071806632 -0.096906602 0.02837136 2.2221221e-38
-0.070056766 -0.096906602 0.02837136 2.3509825e-38
-0.068306893 -0.096906602 0.02837136 2.3418028e-38
-0.066557027 -0.096906602 0.02837136 2.3509886e-38
-0.064807162 -0.096906602 0.02837136 2.3509886e-38
-0.063057289 -0.096906602 0.02837136 2.3325494e-38
-0.061307423 -0.096906602 0.02837136 2.3141103e-38
-0.059557557 -0.096906602 0.02837136 2.3509886e-38
-0.057807684 -0.096906602 0.02837136 2.3509886e-38
-0.056057818 -0.096906602 0.02837136 2.3509886e-38
-0.054434303 -0.097656667 0.025304761 2.3509886e-38
-0.052796844 -0.098386943 0.022319045 2.3509886e-38
-0.051036365 -0.098386943 0.022319045 2.3509886e-38
-0.049383841 -0.099121556 0.019315567 2.3509886e-38
-0.047717948 -0.099835888 0.016395058 2.3509886e-38
-0.045947082 -0.099835888 0.016395058 2.3509886e-38
-0.044176213 -0.099835888 0.016395058 2.3509886e-38
-0.042493269 -0.10057923 0.013355937 2.3509886e-38
-0.040880963 -0.10205424 0.0073253773 2.3509886e-38
-0.039170228 -0.10278571 0.0043347739 2.3509886e-38
-0.037378214 -0.10278571 0.0043347739 2.3509886e-38
-0.035718448 -0.10426159 -0.001699362 2.3509886e-38
-0.033915859 -0.10426159 -0.001699362 2.3509886e-38
-0.032167368 -0.10498036 -0.0046379901 2.3509886e-38
-0.03035962 -0.10498036 -0.0046379901 2.3509886e-38
-0.028597502 -0.10572915 -0.0076994039 2.3509886e-38
-0.02687549 -0.10742365 -0.014627371 2.3509886e-38
-0.025050232 -0.10742365 -0.014627371 2.3509886e-38
-0.023254029 -0.10816063 -0.017640505 2.3509886e-38
-0.021447398 -0.10890187 -0.020671044 2.3509886e-38
-0.019611543 -0.10890187 -0.020671044 2.3509886e-38
-0.017775686 -0.10890187 -0.020671044 2.3509886e-38
-0.01594756 -0.10962076 -0.023610149 2.3509886e-38
-0.014110105 -0.11061247 -0.027664695 2.3509886e-38
-0.012261989 -0.11061247 -0.027664695 2.3509886e-38
-0.01041387 -0.11061247 -0.027664695 2.3509886e-38
-0.0085526966 -0.11134095 -0.030643139 2.3509886e-38
-0.0066993567 -0.11134095 -0.030643139 2.3509886e-38
-0.0048460164 -0.11134095 -0.030643139 2.3509886e-38
-0.0029926761 -0.11134095 -0.030643139 2.3509886e-38
-0.0011393358 -0.11134095 -0.030643139 2.3509886e-38
0.00071400451 -0.11134095 -0.030643139 2.3509886e-38
0.0025673448 -0.11134095 -0.030643139 2.3509886e-38
0.0043710745 -0.11061247 -0.027664695 2.3509886e-38
0.006219191 -0.11061247 -0.027664695 2.3509886e-38
0.0080673099 -0.11061247 -0.027664695 2.3509886e-38
0.0099154282 -0.11061247 -0.027664695 2.3509886e-38
0.011834046 -0.11134095 -0.030643139 2.3509886e-38
0.013763539 -0.11207359 -0.033638511 2.3509886e-38
0.015622132 -0.11207359 -0.033638511 2.3509886e-38
0.017480724 -0.11207359 -0.033638511 2.3509886e-38
0.019555809 -0.11379938 -0.04069427 2.3509886e-38
0.021848744 -0.11698125 -0.053703342 2.3509886e-38
0.0219645 -0.10426159 -0.001699362 2.3509886e-38
0.023767093 -0.10426159 -0.001699362 2.3509886e-38
0.025342217 -0.10278571 0.0043347739 2.3509886e-38
0.02701625 -0.10205424 0.0073253773 2.3509886e-38
0.028803019 -0.10205424 0.0073253773 2.3509886e-38
0.030589787 -0.10205424 0.0073253773 2.3509886e-38
0.03510515 -0.11698125 -0.053703342 2.3509886e-38
0.03699892 -0.11698125 -0.053703342 2.3509886e-38
0.038892694 -0.11698125 -0.053703342 2.3509886e-38
0.050617632 -0.10352151 0.0013265274 2.341769e-38
0.05510411 -0.11379938 -0.04069427 2.3417687e-38
0.05697507 -0.11379938 -0.04069427 2.3418043e-38
0.058846038 -0.11379938 -0.04069427 2.3418042e-38
0.060436968 -0.11281042 -0.03665093 2.3418042e-38
0.06166273 -0.11061247 -0.027664695 2.3418042e-38
0.06351085 -0.11061247 -0.027664695 2.3325846e-38
0.065358974 -0.11061247 -0.027664695 2.3325847e-38
0.067207091 -0.11061247 -0.027664695 2.3325492e-38
0.069055207 -0.11061247 -0.027664695 2.341769e-38
0.070903316 -0.11061247 -0.027664695 2.3509886e-38
0.072751433 -0.11061247 -0.027664695 2.3509527e-38
0.074599564 -0.11061247 -0.027664695 2.350988e-38
0.076447681 -0.11061247 -0.027664695 2.3509856e-38
0.078295797 -0.11061247 -0.027664695 2.3509488e-38
0.080407634 -0.11134095 -0.030643139 2.3049248e-38
0.082260966 -0.11134095 -0.030643139 2.2955619e-38
0.084114313 -0.11134095 -0.030643139 2.1848181e-38
0.08596766 -0.11134095 -0.030643139 2.0277956e-38
0.087820992 -0.11134095 -0.030643139 1.9537481e-38
0.08996582 -0.11207359 -0.033638511 1.9536025e-38
0.092122823 -0.11281042 -0.03665093 2.0549098e-38
0.094394341 -0.11379938 -0.04069427 2.1842371e-38
0.096265301 -0.11379938 -0.04069427 2.3509488e-38
0.098136261 -0.11379938 -0.04069427 2.3509866e-38
0.10031903 -0.1145183 -0.043633614 2.2863426e-38
0.10219514 -0.1145183 -0.043633614 1.8162525e-38
0.10407126 -0.1145183 -0.043633614 1.1153843e-38
0.10594738 -0.1145183 -0.043633614 3.6859965e-39
0.10782349 -0.1145183 -0.043633614 4.3317387e-39
-0.098057568 -0.10384102 0.0073253773 5.4420042e-39
-0.0962708 -0.10384102 0.0073253773 6.6426914e-39
-0.094484031 -0.10384102 0.0073253773 7.6564888e-39
-0.091989607 -0.10160676 0.016395058 8.8539586e-39
-0.090218753 -0.10160676 0.016395058 1.0789718e-38
-0.077822685 -0.10160676 0.016395058 2.3418031e-38
-0.076051816 -0.10160676 0.016395058 2.3509866e-38
-0.074280947 -0.10160676 0.016395058 2.3509863e-38
-0.072510079 -0.10160676 0.016395058 2.350986e-38
-0.070231512 -0.099411905 0.025304761 2.2681182e-38
-0.068306893 -0.098656476 0.02837136 2.3509879e-38
-0.066557027 -0.098656476 0.02837136 2.3509886e-38
-0.064807162 -0.098656476 0.02837136 2.3509886e-38
-0.063057289 -0.098656476 0.02837136 2.3509886e-38
-0.061165199 -0.09792982 0.031321134 2.3509886e-38
-0.059420496 -0.09792982 0.031321134 2.3509886e-38
-0.057807684 -0.098656476 0.02837136 2.3509886e-38
-0.056057818 -0.098656476 0.02837136 2.2772321e-38
-0.054434303 -0.099411905 0.025304761 2.3509886e-38
-0.052796844 -0.10014741 0.022319045 2.3509886e-38
-0.051149588 -0.1008873 0.019315567 2.3509886e-38
-0.049488813 -0.10160676 0.016395058 2.3509886e-38
-0.047717948 -0.10160676 0.016395058 2.3509886e-38
-0.045947082 -0.10160676 0.016395058 2.3509886e-38
-0.044269465 -0.10235542 0.013355937 2.3509886e-38
-0.042493269 -0.10235542 0.013355937 2.3509886e-38
-0.040880963 -0.10384102 0.0073253773 2.3509886e-38
-0.039170228 -0.10457774 0.0043347739 2.3509886e-38
-0.037378214 -0.10457774 0.0043347739 2.3509886e-38
-0.035718448 -0.10606419 -0.001699362 2.3509886e-38
-0.033915859 -0.10606419 -0.001699362 2.3509886e-38
-0.032113269 -0.10606419 -0.001699362 2.3509886e-38
-0.03035962 -0.10678811 -0.0046379901 2.3509886e-38
-0.028551875 -0.10678811 -0.0046379901 2.3509886e-38
-0.026836095 -0.10851096 -0.011631642 2.3509886e-38
-0.02501609 -0.10851096 -0.011631642 2.3509886e-38
-0.023224974 -0.10924892 -0.014627371 2.3509886e-38
-0.021399712 -0.10924892 -0.014627371 2.3509886e-38
-0.019592945 -0.10999118 -0.017640505 2.3509886e-38
-0.017762402 -0.10999118 -0.017640505 2.3509886e-38
-0.01593983 -0.11073773 -0.020671044 2.3509886e-38
-0.014106551 -0.11146177 -0.023610149 2.3509886e-38
-0.012261989 -0.11246057 -0.027664695 2.3509886e-38
-0.01041387 -0.11246057 -0.027664695 2.3509886e-38
-0.0085526966 -0.1131943 -0.030643139 2.3509886e-38
-0.0066993567 -0.1131943 -0.030643139 2.3509886e-38
-0.0048460164 -0.1131943 -0.030643139 2.3509886e-38
-0.0029926761 -0.1131943 -0.030643139 2.3509886e-38
-0.0011732797 -0.11246057 -0.027664695 2.3509886e-38
0.00067483773 -0.11246057 -0.027664695 2.3509886e-38
0.0025229561 -0.11246057 -0.027664695 2.3509886e-38
0.0043035387 -0.11146177 -0.023610149 2.3509886e-38
0.0061445474 -0.11146177 -0.023610149 2.3509886e-38
0.0079855565 -0.11146177 -0.023610149 2.3509886e-38
0.009826567 -0.11146177 -0.023610149 2.3509886e-38
0.011667576 -0.11146177 -0.023610149 2.3509886e-38
0.013508584 -0.11146177 -0.023610149 2.3509886e-38
0.015622132 -0.11393218 -0.033638511 2.3509886e-38
0.016556723 -0.10606419 -0.001699362 2.3509886e-38
0.018359317 -0.10606419 -0.001699362 2.3509886e-38
0.020161906 -0.10606419 -0.001699362 2.3509886e-38
0.0219645 -0.10606419 -0.001699362 2.3509886e-38
0.023767093 -0.10606419 -0.001699362 2.3509886e-38
0.025455618 -0.1053188 0.0013265274 2.3509886e-38
0.02713423 -0.10457774 0.0043347739 2.3509886e-38
0.028803019 -0.10384102 0.0073253773 2.3509886e-38
0.030589787 -0.10384102 0.0073253773 2.3509886e-38
0.032644764 -0.1053188 0.0013265274 2.3509886e-38
0.034442049 -0.1053188 0.0013265274 2.3509886e-38
0.036094289 -0.10457774 0.0043347739 2.3509886e-38
0.038036622 -0.1053188 0.0013265274 2.3509886e-38
0.039833911 -0.1053188 0.0013265274 2.3509886e-38
0.05241492 -0.1053188 0.0013265274 2.3509879e-38
0.054212201 -0.1053188 0.0013265274 2.3509876e-38
0.05600949 -0.1053188 0.0013265274 2.3509873e-38
0.059814613 -0.11246057 -0.027664695 2.350987e-38
0.06166273 -0.11246057 -0.027664695 2.350987e-38
0.063215829 -0.11146177 -0.023610149 2.3509873e-38
0.065056838 -0.11146177 -0.023610149 2.3509876e-38
0.066897847 -0.11146177 -0.023610149 2.3509879e-38
0.068738855 -0.11146177 -0.023610149 2.350988e-38
0.070579857 -0.11146177 -0.023610149 2.3509883e-38
0.072420865 -0.11146177 -0.023610149 2.3509886e-38
0.074261874 -0.11146177 -0.023610149 2.350987e-38
0.076447681 -0.11246057 -0.027664695 2.3509837e-38
0.078295797 -0.11246057 -0.027664695 2.3509828e-38
0.080407634 -0.1131943 -0.030643139 2.3509848e-38
0.082260966 -0.1131943 -0.030643139 2.3509851e-38
0.084114313 -0.1131943 -0.030643139 2.3414758e-38
0.08596766 -0.1131943 -0.030643139 2.1843812e-38
0.087820992 -0.1131943 -0.030643139 2.082531e-38
0.08996582 -0.11393218 -0.033638511 2.0453993e-38
0.092122823 -0.11467429 -0.03665093 2.0084494e-38
0.094394341 -0.11567034 -0.04069427 2.100935e-38
0.096265301 -0.11567034 -0.04069427 2.3505515e-38
0.098136261 -0.11567034 -0.04069427 2.3507702e-38
0.10000722 -0.11567034 -0.04069427 2.3047098e-38
0.10219514 -0.11639442 -0.043633614 1.834584e-38
0.10407126 -0.11639442 -0.043633614 1.1153125e-38
0.10594738 -0.11639442 -0.043633614 4.0540616e-39
0.10782349 -0.11639442 -0.043633614 4.8838362e-39
-0.097809955 -0.10489015 0.010298457 1.4477889e-38
-0.095779121 -0.10413162 0.013355937 1.7799076e-38
-0.093760476 -0.10337763 0.016395058 2.0748984e-38
-0.091989607 -0.10337763 0.016395058 2.2039013e-38
-0.090218753 -0.10337763 0.016395058 2.3234333e-38
-0.076051816 -0.10337763 0.016395058 2.2956712e-38
-0.073922604 -0.10190789 0.022319045 2.3234018e-38
-0.07198675 -0.10116716 0.025304761 2.3234015e-38
-0.070231512 -0.10116716 0.025304761 2.3418047e-38
-0.06847626 -0.10116716 0.025304761 2.3233299e-38
-0.066721022 -0.10116716 0.025304761 2.3141103e-38
-0.064807162 -0.10040633 0.02837136 2.3233299e-38
-0.063057289 -0.10040633 0.02837136 2.3325494e-38
-0.061165199 -0.099674508 0.031321134 2.341769e-38
-0.059420496 -0.099674508 0.031321134 2.3325494e-38
-0.057807684 -0.10040633 0.02837136 2.3509886e-38
-0.056189552 -0.10116716 0.025304761 2.3509886e-38
-0.054434303 -0.10116716 0.025304761 2.3509886e-38
-0.052796844 -0.10190789 0.022319045 2.3509886e-38
-0.051149588 -0.10265306 0.019315567 2.3509886e-38
-0.049488813 -0.10337763 0.016395058 2.3509886e-38
-0.047717948 -0.10337763 0.016395058 2.3509886e-38
-0.045947082 -0.10337763 0.016395058 2.3509886e-38
-0.044269465 -0.10413162 0.013355937 2.3509886e-38
-0.042493269 -0.10413162 0.013355937 2.3509886e-38
-0.040800165 -0.10489015 0.010298457 2.3509886e-38
-0.039094195 -0.10562779 0.0073253773 2.3509886e-38
-0.037378214 -0.10636975 0.0043347739 2.3509886e-38
-0.035652131 -0.10711606 0.0013265274 2.3509886e-38
-0.033915859 -0.10786678 -0.001699362 2.3509886e-38
-0.032113269 -0.10786678 -0.001699362 2.3509886e-38
-0.03035962 -0.10859586 -0.0046379901 2.3509886e-38
-0.028551875 -0.10859586 -0.0046379901 2.3509886e-38
-0.026744133 -0.10859586 -0.0046379901 2.3509886e-38
-0.024936387 -0.10859586 -0.0046379901 2.3509886e-38
-0.023158165 -0.10935538 -0.0076994039 2.3509886e-38
-0.021399712 -0.11107419 -0.014627371 2.3509886e-38
-0.019574454 -0.11107419 -0.014627371 2.3509886e-38
-0.017749196 -0.11107419 -0.014627371 2.3509886e-38
-0.015923936 -0.11107419 -0.014627371 2.3509886e-38
-0.014103975 -0.11257361 -0.020671044 2.3509886e-38
-0.012261989 -0.1143087 -0.027664695 2.3509886e-38
-0.01041387 -0.1143087 -0.027664695 2.3509886e-38
-0.0085526966 -0.11504765 -0.030643139 2.3509886e-38
-0.0066993567 -0.11504765 -0.030643139 2.3509886e-38
-0.0048460164 -0.11504765 -0.030643139 2.3509886e-38
-0.0029926761 -0.11504765 -0.030643139 2.3509886e-38
-0.0011732797 -0.1143087 -0.027664695 2.3509886e-38
0.00067483773 -0.1143087 -0.027664695 2.3509886e-38
0.0025229561 -0.1143087 -0.027664695 2.3509886e-38
0.0042545828 -0.11257361 -0.020671044 2.3509886e-38
0.0060904394 -0.11257361 -0.020671044 2.3509886e-38
0.0079855565 -0.11330278 -0.023610149 2.3509886e-38
0.009826567 -0.11330278 -0.023610149 2.3509886e-38
0.011667576 -0.11330278 -0.023610149 2.3509886e-38
0.013508584 -0.11330278 -0.023610149 2.3509886e-38
0.014754131 -0.10786678 -0.001699362 2.3509886e-38
0.016556723 -0.10786678 -0.001699362 2.3509886e-38
0.018266471 -0.10711606 0.0013265274 2.3509886e-38
0.02006376 -0.10711606 0.0013265274 2.3509886e-38
0.0219645 -0.10786678 -0.001699362 2.3509886e-38
0.023767093 -0.10786678 -0.001699362 2.3509886e-38
0.025569683 -0.10786678 -0.001699362 2.3509886e-38
0.027252903 -0.10711606 0.0013265274 2.3509886e-38
0.02892624 -0.10636975 0.0043347739 2.3509886e-38
0.030718254 -0.10636975 0.0043347739 2.3509886e-38
0.032510266 -0.10636975 0.0043347739 2.3509886e-38
0.034302276 -0.10636975 0.0043347739 2.3509886e-38
0.036094289 -0.10636975 0.0043347739 2.3509886e-38
0.038036622 -0.10711606 0.0013265274 2.3509886e-38
0.039833911 -0.10711606 0.0013265274 2.3509886e-38
0.05241492 -0.10711606 0.0013265274 2.3509873e-38
0.054212201 -0.10711606 0.0013265274 2.3509869e-38
0.05600949 -0.10711606 0.0013265274 2.3509866e-38
0.058911692 -0.11107419 -0.014627371 2.3509866e-38
0.06073695 -0.11107419 -0.014627371 2.3509866e-38
0.062781461 -0.11182173 -0.017640505 2.3509866e-38
0.064612001 -0.11182173 -0.017640505 2.3509869e-38
0.066673681 -0.11257361 -0.020671044 2.3509873e-38
0.068509541 -0.11257361 -0.020671044 2.3509876e-38
0.070345387 -0.11257361 -0.020671044 2.3509879e-38
0.072420865 -0.11330278 -0.023610149 2.3417687e-38
0.074261874 -0.11330278 -0.023610149 2.350986e-38
0.076102898 -0.11330278 -0.023610149 2.2679333e-38
0.077943906 -0.11330278 -0.023610149 2.2771515e-38
0.080143914 -0.1143087 -0.027664695 2.2772975e-38
0.08199203 -0.1143087 -0.027664695 2.3509824e-38
0.084114313 -0.11504765 -0.030643139 2.3509454e-38
0.08596766 -0.11504765 -0.030643139 2.350439e-38
0.087820992 -0.11504765 -0.030643139 2.3496437e-38
0.089674339 -0.11504765 -0.030643139 2.2663424e-38
0.092122823 -0.11653815 -0.03665093 2.2663073e-38
0.093986705 -0.11653815 -0.03665093 2.1098293e-38
0.096265301 -0.1175413 -0.04069427 2.2210086e-38
0.098136261 -0.1175413 -0.04069427 2.3507338e-38
0.10000722 -0.1175413 -0.04069427 2.3509161e-38
0.1018782 -0.1175413 -0.04069427 1.8437321e-38
0.10374916 -0.1175413 -0.04069427 1.1613031e-38
0.10562012 -0.1175413 -0.04069427 4.8831062e-39
0.10749108 -0.1175413 -0.04069427 5.1604231e-39
0.10936204 -0.1175413 -0.04069427 4.9767577e-39
-0.11709347 -0.10590781 0.013355937 9.6808817e-39
-0.11531727 -0.10590781 0.013355937 9.7719983e-39
-0.11354108 -0.10590781 0.013355937 9.4954086e-39
-0.11146915 -0.10514848 0.016395058 9.9560266e-39
-0.10969828 -0.10514848 0.016395058 9.2173826e-39
-0.10792741 -0.10514848 0.016395058 9.4010578e-39
-0.097555324 -0.10590781 0.013355937 2.1023452e-38
-0.095531344 -0.10514848 0.016395058 2.1855726e-38
-0.093527496 -0.1044188 0.019315567 2.3142518e-38
-0.091761738 -0.1044188 0.019315567 2.323436e-38
-0.076051816 -0.10514848 0.016395058 2.2772321e-38
-0.073922604 -0.10366838 0.022319045 2.3418047e-38
-0.07198675 -0.10292239 0.025304761 2.2866308e-38
-0.070231512 -0.10292239 0.025304761 2.2681917e-38
-0.068641163 -0.10366838 0.022319045 2.3418047e-38
-0.066880688 -0.10366838 0.022319045 2.3325494e-38
-0.06496577 -0.10292239 0.025304761 2.3233299e-38
-0.063057289 -0.10215621 0.02837136 2.3509886e-38
-0.061165199 -0.10141921 0.031321134 2.3509886e-38
-0.059420496 -0.10141921 0.031321134 2.3141103e-38
-0.057807684 -0.10215621 0.02837136 2.3233299e-38
-0.056189552 -0.10292239 0.025304761 2.3509886e-38
-0.054434303 -0.10292239 0.025304761 2.3509886e-38
-0.052796844 -0.10366838 0.022319045 2.3509886e-38
-0.051149588 -0.1044188 0.019315567 2.3509886e-38
-0.049488813 -0.10514848 0.016395058 2.3509886e-38
-0.047717948 -0.10514848 0.016395058 2.3509886e-38
-0.045947082 -0.10514848 0.016395058 2.3509886e-38
-0.044269465 -0.10590781 0.013355937 2.3509886e-38
-0.042493269 -0.10590781 0.013355937 2.3509886e-38
-0.040800165 -0.10667174 0.010298457 2.3509886e-38
-0.039018609 -0.10667174 0.010298457 2.3509886e-38
-0.037307426 -0.10741456 0.0073253773 2.3509886e-38
-0.035586201 -0.10816176 0.0043347739 2.3509886e-38
-0.033854846 -0.10891335 0.0013265274 2.3509886e-38
-0.032057561 -0.10891335 0.0013265274 2.3509886e-38
-0.03026027 -0.10891335 0.0013265274 2.3509886e-38
-0.02850808 -0.10966937 -0.001699362 2.3509886e-38
-0.026665697 -0.10891335 0.0013265274 2.3509886e-38
-0.024868412 -0.10891335 0.0013265274 2.3509886e-38
-0.023128642 -0.11040358 -0.0046379901 2.3509886e-38
-0.021345051 -0.11116849 -0.0076994039 2.3509886e-38
-0.01955607 -0.11215095 -0.011631642 2.3509886e-38
-0.017705409 -0.11040358 -0.0046379901 2.3509886e-38
-0.015897663 -0.11040358 -0.0046379901 2.3509886e-38
-0.014103975 -0.11440946 -0.020671044 2.3509886e-38
-0.012261989 -0.1161568 -0.027664695 2.3509886e-38
-0.01041387 -0.1161568 -0.027664695 2.3509886e-38
-0.0085526966 -0.11690097 -0.030643139 2.3509886e-38
-0.0066809752 -0.11764936 -0.033638511 2.3509886e-38
-0.0052638878 -0.10366838 0.022319045 2.3509886e-38
-0.0035034078 -0.10366838 0.022319045 2.3509886e-38
-0.0017429278 -0.10366838 0.022319045 2.3509886e-38
1.755124e-05 -0.10366838 0.022319045 2.3509886e-38
0.0017335345 -0.10292239 0.025304761 2.3509886e-38
0.0034887786 -0.10292239 0.025304761 2.3509886e-38
0.0056854631 -0.10891335 0.0013265274 2.3509886e-38
0.0074220947 -0.10816176 0.0043347739 2.3509886e-38
0.0092141069 -0.10816176 0.0043347739 2.3509886e-38
0.011077324 -0.10891335 0.0013265274 2.3509886e-38
0.012874611 -0.10891335 0.0013265274 2.3509886e-38
0.014754131 -0.10966937 -0.001699362 2.3509886e-38
0.016469184 -0.10891335 0.0013265274 2.3509886e-38
0.018266471 -0.10891335 0.0013265274 2.3509886e-38
0.02006376 -0.10891335 0.0013265274 2.3509886e-38
0.021861045 -0.10891335 0.0013265274 2.3509886e-38
0.023767093 -0.10966937 -0.001699362 2.3509886e-38
0.025569683 -0.10966937 -0.001699362 2.3509886e-38
0.027252903 -0.10891335 0.0013265274 2.3509886e-38
0.02892624 -0.10816176 0.0043347739 2.3509886e-38
0.030718254 -0.10816176 0.0043347739 2.3509886e-38
0.032510266 -0.10816176 0.0043347739 2.3509886e-38
0.034302276 -0.10816176 0.0043347739 2.3509886e-38
0.036094289 -0.10816176 0.0043347739 2.3509886e-38
0.037886303 -0.10816176 0.0043347739 2.3509886e-38
0.039523631 -0.10741456 0.0073253773 2.3509886e-38
0.0413104 -0.10741456 0.0073253773 2.3509886e-38
0.043097168 -0.10741456 0.0073253773 2.3509883e-38
0.045398194 -0.10966937 -0.001699362 2.3418045e-38
0.047023058 -0.10891335 0.0013265274 2.341804e-38
0.048820343 -0.10891335 0.0013265274 2.341804e-38
0.050617632 -0.10891335 0.0013265274 2.3418035e-38
0.05241492 -0.10891335 0.0013265274 2.3326194e-38
0.054212201 -0.10891335 0.0013265274 2.3326191e-38
0.056213748 -0.10966937 -0.001699362 2.3234351e-38
0.058219861 -0.11040358 -0.0046379901 2.323435e-38
0.060027603 -0.11040358 -0.0046379901 2.3142513e-38
0.06205811 -0.11116849 -0.0076994039 2.3234351e-38
0.064164244 -0.11215095 -0.011631642 2.3418028e-38
0.066442542 -0.11365227 -0.017640505 2.3418031e-38
0.06827309 -0.11365227 -0.017640505 2.3418035e-38
0.07010363 -0.11365227 -0.017640505 2.3418038e-38
0.071934164 -0.11365227 -0.017640505 2.3326206e-38
0.074017107 -0.11440946 -0.020671044 2.3418015e-38
0.07585296 -0.11440946 -0.020671044 2.3509799e-38
0.077688813 -0.11440946 -0.020671044 2.3509786e-38
0.080143914 -0.1161568 -0.027664695 2.3509803e-38
0.08199203 -0.1161568 -0.027664695 2.3509446e-38
0.083840147 -0.1161568 -0.027664695 2.3509433e-38
0.08596766 -0.11690097 -0.030643139 2.3506532e-38
0.087820992 -0.11690097 -0.030643139 2.3497138e-38
0.089674339 -0.11690097 -0.030643139 2.2476854e-38
0.091824412 -0.11764936 -0.033638511 2.2292112e-38
0.093683004 -0.11764936 -0.033638511 2.091137e-38
0.095850572 -0.11840202 -0.03665093 2.0824987e-38
0.098136261 -0.11941226 -0.04069427 2.350374e-38
0.10000722 -0.11941226 -0.04069427 2.3508802e-38
0.1018782 -0.11941226 -0.04069427 1.7882715e-38
0.10374916 -0.11941226 -0.04069427 1.1889266e-38
0.10516994 -0.11840202 -0.03665093 4.9738711e-39
0.10703382 -0.11840202 -0.03665093 5.0682303e-39
0.10889769 -0.11840202 -0.03665093 4.9767577e-39
-0.11709347 -0.107684 0.013355937 2.2680474e-38
-0.11531727 -0.107684 0.013355937 2.3509873e-38
-0.11324002 -0.10691936 0.016395058 2.3509873e-38
-0.11118495 -0.10618456 0.019315567 2.350987e-38
-0.1091322 -0.10542886 0.022319045 2.350987e-38
-0.10737172 -0.10542886 0.022319045 2.350987e-38
-0.10561123 -0.10542886 0.022319045 2.3509514e-38
-0.10385077 -0.10542886 0.022319045 2.2585044e-38
-0.10155439 -0.10390608 0.02837136 2.3508446e-38
-0.099804521 -0.10390608 0.02837136 2.3508451e-38
-0.098054647 -0.10390608 0.02837136 2.3509168e-38
-0.096304789 -0.10390608 0.02837136 2.2958503e-38
-0.095048368 -0.10542886 0.022319045 2.2958866e-38
-0.093287885 -0.10542886 0.022319045 2.3234374e-38
-0.091527402 -0.10542886 0.022319045 2.2957431e-38
-0.08976692 -0.10542886 0.022319045 2.3325138e-38
-0.088006437 -0.10542886 0.022319045 2.3508809e-38
-0.086245969 -0.10542886 0.022319045 2.3508451e-38
-0.084485486 -0.10542886 0.022319045 2.3508451e-38
-0.082933009 -0.10618456 0.019315567 2.3508092e-38
-0.081364408 -0.10691936 0.016395058 2.3507016e-38
-0.079593539 -0.10691936 0.016395058 2.2770177e-38
-0.077822685 -0.10691936 0.016395058 2.3509527e-38
-0.076051816 -0.10691936 0.016395058 2.0467796e-38
-0.074280947 -0.10691936 0.016395058 1.98235e-38
-0.072510079 -0.10691936 0.016395058 1.8810064e-38
-0.07073921 -0.10691936 0.016395058 1.825689e-38
-0.068807051 -0.10618456 0.019315567 1.8900823e-38
-0.0670413 -0.10618456 0.019315567 1.834693e-38
-0.065120205 -0.10542886 0.022319045 1.9545474e-38
-0.063210532 -0.10467763 0.025304761 2.2587929e-38
-0.061307423 -0.10390608 0.02837136 2.3509886e-38
-0.059557557 -0.10390608 0.02837136 2.3509886e-38
-0.057807684 -0.10390608 0.02837136 2.3141103e-38
-0.056189552 -0.10467763 0.025304761 2.3325494e-38
-0.054557327 -0.10542886 0.022319045 2.3509886e-38
-0.052915335 -0.10618456 0.019315567 2.3509886e-38
-0.051149588 -0.10618456 0.019315567 2.3509886e-38
-0.049488813 -0.10691936 0.016395058 2.3509886e-38
-0.047821853 -0.107684 0.013355937 2.3509886e-38
-0.046045661 -0.107684 0.013355937 2.3509886e-38
-0.044269465 -0.107684 0.013355937 2.3509886e-38
-0.042493269 -0.107684 0.013355937 2.3509883e-38
-0.040800165 -0.10845329 0.010298457 2.3509886e-38
-0.039018609 -0.10845329 0.010298457 2.3509886e-38
-0.037307426 -0.10920133 0.0073253773 2.3509886e-38
-0.035586201 -0.10995375 0.0043347739 2.3509886e-38
-0.033794191 -0.10995375 0.0043347739 2.3509886e-38
-0.032002177 -0.10995375 0.0043347739 2.3509886e-38
-0.030210165 -0.10995375 0.0043347739 2.3509886e-38
-0.028462986 -0.11071064 0.0013265274 2.3509886e-38
-0.026665697 -0.11071064 0.0013265274 2.3509886e-38
-0.024868412 -0.11071064 0.0013265274 2.3509886e-38
-0.023071123 -0.11071064 0.0013265274 2.3509886e-38
-0.021320896 -0.11221133 -0.0046379901 2.3509886e-38
-0.01949512 -0.11147197 -0.001699362 2.3509886e-38
-0.017639937 -0.10845329 0.010298457 2.3509886e-38
-0.015850339 -0.107684 0.013355937 2.3509886e-38
-0.014074145 -0.107684 0.013355937 2.3509886e-38
-0.012259377 -0.11875431 -0.030643139 2.3509883e-38
-0.010537429 -0.10618456 0.019315567 2.3509883e-38
-0.0087716822 -0.10618456 0.019315567 2.3509883e-38
-0.007005936 -0.10618456 0.019315567 2.3509886e-38
-0.0052638878 -0.10542886 0.022319045 2.3509886e-38
-0.0035034078 -0.10542886 0.022319045 2.3509886e-38
-0.0017429278 -0.10542886 0.022319045 2.3509886e-38
1.755124e-05 -0.10542886 0.022319045 2.3509886e-38
0.0017335345 -0.10467763 0.025304761 2.3509886e-38
0.0034887786 -0.10467763 0.025304761 2.3509886e-38
0.0054080519 -0.10691936 0.016395058 2.3509886e-38
0.0073018461 -0.10845329 0.010298457 2.3509886e-38
0.0090834033 -0.10845329 0.010298457 2.3509886e-38
0.010864958 -0.10845329 0.010298457 2.3509883e-38
0.012646515 -0.10845329 0.010298457 2.3509883e-38
0.01442807 -0.10845329 0.010298457 2.3509883e-38
0.016295638 -0.10920133 0.0073253773 2.3509886e-38
0.01817417 -0.10995375 0.0043347739 2.3509886e-38
0.01996618 -0.10995375 0.0043347739 2.3509886e-38
0.021758193 -0.10995375 0.0043347739 2.3509886e-38
0.023658333 -0.11071064 0.0013265274 2.3509886e-38
0.025455618 -0.11071064 0.0013265274 2.3509886e-38
0.02701625 -0.10920133 0.0073253773 2.3509886e-38
0.02868052 -0.10845329 0.010298457 2.3509886e-38
0.030200185 -0.10691936 0.016395058 2.3509886e-38
0.031971049 -0.10691936 0.016395058 2.3509886e-38
0.034025185 -0.10845329 0.010298457 2.3509886e-38
0.035806742 -0.10845329 0.010298457 2.3509886e-38
0.037736863 -0.10920133 0.0073253773 2.3509886e-38
0.039523631 -0.10920133 0.0073253773 2.3509886e-38
0.0413104 -0.10920133 0.0073253773 2.3509886e-38
0.043097168 -0.10920133 0.0073253773 2.3509886e-38
0.044883937 -0.10920133 0.0073253773 2.3509883e-38
0.046670705 -0.10920133 0.0073253773 2.3509879e-38
0.048457474 -0.10920133 0.0073253773 2.3326203e-38
0.050244246 -0.10920133 0.0073253773 2.3142524e-38
0.052031014 -0.10920133 0.0073253773 2.2958484e-38
0.054212201 -0.11071064 0.0013265274 2.2866641e-38
0.056213748 -0.11147197 -0.001699362 2.2774431e-38
0.058016341 -0.11147197 -0.001699362 2.2866259e-38
0.060027603 -0.11221133 -0.0046379901 2.2588949e-38
0.061835352 -0.11221133 -0.0046379901 2.2957013e-38
0.063871227 -0.1129816 -0.0076994039 2.3325793e-38
0.066212736 -0.11472471 -0.014627371 2.3509841e-38
0.068037994 -0.11472471 -0.014627371 2.3509866e-38
0.069863245 -0.11472471 -0.014627371 2.3509876e-38
0.071688503 -0.11472471 -0.014627371 2.3418035e-38
0.073764712 -0.11548282 -0.017640505 2.3418009e-38
0.07585296 -0.11624531 -0.020671044 2.3142084e-38
0.077688813 -0.11624531 -0.020671044 2.3417937e-38
0.080143914 -0.11800493 -0.027664695 2.2958049e-38
0.08199203 -0.11800493 -0.027664695 2.3232119e-38
0.083840147 -0.11800493 -0.027664695 2.3509776e-38
0.085688263 -0.11800493 -0.027664695 2.3509761e-38
0.087820992 -0.11875431 -0.030643139 2.3501816e-38
0.089674339 -0.11875431 -0.030643139 2.3123665e-38
0.091824412 -0.11950795 -0.033638511 2.0818067e-38
0.093683004 -0.11950795 -0.033638511 2.1834768e-38
0.095850572 -0.12026589 -0.03665093 2.2207918e-38
0.097714454 -0.12026589 -0.03665093 2.3506615e-38
0.10000722 -0.12128322 -0.04069427 2.35088e-38
0.1018782 -0.12128322 -0.04069427 1.8251498e-38
0.10374916 -0.12128322 -0.04069427 1.3088177e-38
0.10516994 -0.12026589 -0.03665093 4.9749599e-39
0.10703382 -0.12026589 -0.03665093 4.7001723e-39
0.10889769 -0.12026589 -0.03665093 4.9767591e-39
-0.11709347 -0.10946019 0.013355937 2.3233662e-38
-0.11531727 -0.10946019 0.013355937 2.341805e-38
-0.11324002 -0.10869022 0.016395058 2.3233662e-38
-0.11118495 -0.10795029 0.019315567 2.3049624e-38
-0.1091322 -0.10718934 0.022319045 2.3049621e-38
-0.10709165 -0.1064329 0.025304761 2.3234012e-38
-0.10533641 -0.1064329 0.025304761 2.3418047e-38
-0.10330425 -0.10565595 0.02837136 2.341805e-38
-0.10155439 -0.10565595 0.02837136 2.3417691e-38
-0.099804521 -0.10565595 0.02837136 2.3417333e-38
-0.098054647 -0.10565595 0.02837136 2.3233303e-38
-0.096304789 -0.10565595 0.02837136 2.3509886e-38
-0.095048368 -0.10718934 0.022319045 2.3509883e-38
-0.093287885 -0.10718934 0.022319045 2.3509886e-38
-0.091527402 -0.10718934 0.022319045 2.3509886e-38
-0.08976692 -0.10718934 0.022319045 2.3509527e-38
-0.088006437 -0.10718934 0.022319045 2.3509527e-38
-0.086245969 -0.10718934 0.022319045 2.3509168e-38
-0.084485486 -0.10718934 0.022319045 2.3416974e-38
-0.082725003 -0.10718934 0.022319045 2.3048556e-38
-0.081364408 -0.10869022 0.016395058 2.3325138e-38
-0.079204038 -0.10718934 0.022319045 2.323402e-38
-0.07744357 -0.10718934 0.022319045 2.1944016e-38
-0.076051816 -0.10869022 0.016395058 1.9363614e-38
-0.074280947 -0.10869022 0.016395058 1.834946e-38
-0.072510079 -0.10869022 0.016395058 1.8257983e-38
-0.07073921 -0.10869022 0.016395058 1.7796642e-38
-0.068807051 -0.10795029 0.019315567 1.8623883e-38
-0.0670413 -0.10795029 0.019315567 1.8992303e-38
-0.06527555 -0.10795029 0.019315567 1.9268168e-38
-0.063210532 -0.1064329 0.025304761 2.0835849e-38
-0.06145528 -0.1064329 0.025304761 2.3417327e-38
-0.059700042 -0.1064329 0.025304761 2.3509883e-38
-0.05794479 -0.1064329 0.025304761 2.3509527e-38
-0.056189552 -0.1064329 0.025304761 2.3416974e-38
-0.054434303 -0.1064329 0.025304761 2.3509527e-38
-0.052796844 -0.10718934 0.022319045 2.3509527e-38
-0.051149588 -0.10795029 0.019315567 2.3509527e-38
-0.049488813 -0.10869022 0.016395058 2.3509527e-38
-0.047821853 -0.10946019 0.013355937 2.341805e-38
-0.046045661 -0.10946019 0.013355937 2.341805e-38
-0.044269465 -0.10946019 0.013355937 2.3418047e-38
-0.042493269 -0.10946019 0.013355937 2.3418045e-38
-0.040800165 -0.11023484 0.010298457 2.3509883e-38
-0.039018609 -0.11023484 0.010298457 2.3509883e-38
-0.037307426 -0.1109881 0.0073253773 2.3509886e-38
-0.035586201 -0.11174576 0.0043347739 2.3509886e-38
-0.033794191 -0.11174576 0.0043347739 2.3509886e-38
-0.032002177 -0.11174576 0.0043347739 2.3509527e-38
-0.030210165 -0.11174576 0.0043347739 2.3509527e-38
-0.028462986 -0.11250792 0.0013265274 2.3509527e-38
-0.026231425 -0.10414095 0.034351017 2.3509527e-38
-0.024492042 -0.10414095 0.034351017 2.3509527e-38
-0.022752658 -0.10414095 0.034351017 2.3509527e-38
-0.021013273 -0.10414095 0.034351017 2.3509886e-38
-0.01927389 -0.10414095 0.034351017 2.3509886e-38
-0.017600412 -0.10795029 0.019315567 2.3509886e-38
-0.015834665 -0.10795029 0.019315567 2.3509883e-38
-0.014074145 -0.10946019 0.013355937 2.3509883e-38
-0.012303174 -0.10795029 0.019315567 2.350988e-38
-0.010545326 -0.10718934 0.022319045 2.3509879e-38
-0.0087848473 -0.10718934 0.022319045 2.350988e-38
-0.0070243678 -0.10718934 0.022319045 2.3509883e-38
-0.0052874456 -0.1064329 0.025304761 2.3509886e-38
-0.0035322006 -0.1064329 0.025304761 2.3509886e-38
-0.0017429278 -0.10718934 0.022319045 2.3509886e-38
1.755124e-05 -0.10718934 0.022319045 2.3509886e-38
0.0017780312 -0.10718934 0.022319045 2.3509886e-38
0.0035385112 -0.10718934 0.022319045 2.3509886e-38
0.0053542848 -0.10795029 0.019315567 2.3509886e-38
0.0072401981 -0.10946019 0.013355937 2.3509886e-38
0.0090163928 -0.10946019 0.013355937 2.3509883e-38
0.010792589 -0.10946019 0.013355937 2.350988e-38
0.012568783 -0.10946019 0.013355937 2.3509879e-38
0.014344979 -0.10946019 0.013355937 2.350988e-38
0.016209627 -0.11023484 0.010298457 2.3509883e-38
0.018082408 -0.1109881 0.0073253773 2.3509886e-38
0.019869177 -0.1109881 0.0073253773 2.3509886e-38
0.021554293 -0.11023484 0.010298457 2.3509886e-38
0.02333585 -0.11023484 0.010298457 2.3509886e-38
0.025117407 -0.11023484 0.010298457 2.3509886e-38
0.026898963 -0.11023484 0.010298457 2.3509886e-38
0.028429316 -0.10869022 0.016395058 2.3509886e-38
0.030200185 -0.10869022 0.016395058 2.3509886e-38
0.031971049 -0.10869022 0.016395058 2.3509886e-38
0.033883125 -0.10946019 0.013355937 2.3509886e-38
0.035659321 -0.10946019 0.013355937 2.3509886e-38
0.037588295 -0.11023484 0.010298457 2.3509886e-38
0.039369851 -0.11023484 0.010298457 2.3509886e-38
0.041151408 -0.11023484 0.010298457 2.3509886e-38
0.042932965 -0.11023484 0.010298457 2.3509886e-38
0.044883937 -0.1109881 0.0073253773 2.3509527e-38
0.046670705 -0.1109881 0.0073253773 2.3509527e-38
0.048457474 -0.1109881 0.0073253773 2.3509883e-38
0.050244246 -0.1109881 0.0073253773 2.3326203e-38
0.052031014 -0.1109881 0.0073253773 2.314252e-38
0.054014411 -0.11174576 0.0043347739 2.3050662e-38
0.05600949 -0.11250792 0.0013265274 2.3050627e-38
0.058016341 -0.11327456 -0.001699362 2.3326112e-38
0.060027603 -0.11401908 -0.0046379901 2.332323e-38
0.061835352 -0.11401908 -0.0046379901 2.2861883e-38
0.063871227 -0.11479472 -0.0076994039 2.2401257e-38
0.065984249 -0.11579098 -0.011631642 2.3509802e-38
0.068037994 -0.11654995 -0.014627371 2.3414425e-38
