# .PCD v0.7 - Point Cloud Data file format
VERSION 0.7
FIELDS x y z rgb
SIZE 4 4 4 4
TYPE F F F F
COUNT 1 1 1 1
WIDTH 947
HEIGHT 1
VIEWPOINT 0 0 0 1 0 0 0
POINTS 947
DATA ascii
0.038788561 -0.10667257 0.046286769 2.3509156e-38
0.040475424 -0.10667257 0.046286769 2.3508441e-38
0.042268794 -0.10718144 0.044358321 2.3508795e-38
0.044132605 -0.10798518 0.041312344 2.3418022e-38
0.046002764 -0.10876949 0.038340159 2.3418012e-38
0.047703557 -0.10876949 0.038340159 2.3509845e-38
0.049590487 -0.1095586 0.035349734 2.3509837e-38
0.051428784 -0.11010392 0.033283062 2.3417995e-38
0.053138442 -0.11010392 0.033283062 2.3509823e-38
0.054848105 -0.11010392 0.033283062 2.3417981e-38
0.056557767 -0.11010392 0.033283062 2.3509809e-38
0.058475278 -0.11087631 0.030355997 2.332577e-38
0.060190067 -0.11087631 0.030355997 2.34176e-38
0.061904863 -0.11087631 0.030355997 2.3417958e-38
0.063619658 -0.11087631 0.030355997 2.3509789e-38
0.065571643 -0.1116785 0.027315982 2.3509789e-38
0.067291766 -0.1116785 0.027315982 2.3509786e-38
0.069253467 -0.11246039 0.024352916 2.3509786e-38
0.071227051 -0.11324702 0.021371908 2.3509783e-38
0.07313019 -0.1137826 0.019342251 2.3417948e-38
0.074864298 -0.1137826 0.019342251 2.3234267e-38
0.077133328 -0.11537679 0.013300844 2.3234256e-38
0.078878015 -0.11537679 0.013300844 2.3050572e-38
0.080622718 -0.11537679 0.013300844 2.2958721e-38
0.082644105 -0.11615516 0.010351069 2.3142382e-38
0.084687009 -0.11696436 0.0072844699 2.3234212e-38
0.08673279 -0.11775221 0.004298754 2.3417879e-38
0.088790804 -0.11854477 0.001295276 2.3509359e-38
0.090556562 -0.11854477 0.001295276 2.350864e-38
0.092621863 -0.11931543 -0.0016252324 2.3507922e-38
0.094392732 -0.11931543 -0.0016252324 2.3506843e-38
0.096163586 -0.11931543 -0.0016252324 2.3505763e-38
0.097934455 -0.11931543 -0.0016252324 2.3321372e-38
0.10003836 -0.12011738 -0.004664354 2.3320651e-38
0.10181455 -0.12011738 -0.004664354 2.3411769e-38
0.10324706 -0.11931543 -0.0016252324 2.3225589e-38
0.10468252 -0.11854477 0.001295276 1.4465243e-38
0.10644826 -0.11854477 0.001295276 1.0132121e-38
0.10821402 -0.11854477 0.001295276 1.059493e-38
0.10997976 -0.11854477 0.001295276 9.3067125e-39
-0.12143306 -0.14898713 -0.10666173 1.1707039e-38
-0.1191913 -0.14820443 -0.10371511 1.576436e-38
-0.11724144 -0.14820443 -0.10371511 1.9822044e-38
-0.1149139 -0.14713491 -0.099688821 2.0652522e-38
-0.11297108 -0.14713491 -0.099688821 2.0745436e-38
-0.11075461 -0.14632986 -0.096658044 2.0746158e-38
-0.10846512 -0.14527388 -0.092682652 1.9917119e-38
-0.1065346 -0.14527388 -0.092682652 2.0285548e-38
-0.10400572 -0.14340474 -0.085646085 2.0193709e-38
-0.10175321 -0.14233841 -0.081631713 2.1299332e-38
-0.099602938 -0.14155935 -0.078698806 2.175959e-38
-0.097696945 -0.14155935 -0.078698806 2.1113151e-38
-0.095554247 -0.14075352 -0.075665168 2.2955993e-38
-0.093352944 -0.13970654 -0.071723633 2.3508809e-38
-0.09145917 -0.13970654 -0.071723633 2.2401028e-38
-0.089347482 -0.13891099 -0.068728738 2.3137513e-38
-0.087458953 -0.13891099 -0.068728738 2.2768365e-38
-0.08529304 -0.13784705 -0.064723425 2.2031151e-38
-0.083411545 -0.13784705 -0.064723425 2.101735e-38
-0.081328213 -0.13703169 -0.061653905 1.9081233e-38
-0.079005241 -0.13517688 -0.05467122 1.7514978e-38
-0.076953858 -0.13437669 -0.051658802 1.4749106e-38
-0.075095266 -0.13437669 -0.051658802 1.2721521e-38
-0.073060736 -0.13358103 -0.04866343 1.3551282e-38
-0.071037665 -0.13278987 -0.045684986 1.3459812e-38
-0.068965614 -0.13171287 -0.041630439 1.5581399e-38
-0.066967443 -0.13093217 -0.038691334 2.2865218e-38
-0.065131575 -0.13093217 -0.038691334 2.3326199e-38
-0.063144296 -0.13012715 -0.035660796 2.3233648e-38
-0.061168458 -0.12932678 -0.032647662 2.3509879e-38
-0.0593432 -0.12932678 -0.032647662 2.3049261e-38
-0.05738401 -0.12853102 -0.029651932 2.3509886e-38
-0.055563997 -0.12853102 -0.029651932 2.3509886e-38
-0.053743992 -0.12853102 -0.029651932 2.3509886e-38
-0.051768858 -0.12748651 -0.025719695 2.3509527e-38
-0.049840342 -0.1266733 -0.022658281 2.3509527e-38
-0.048032597 -0.1266733 -0.022658281 2.3509527e-38
-0.04612438 -0.12589271 -0.019719653 2.3509527e-38
-0.04422364 -0.12508895 -0.016693763 2.3509527e-38
-0.042426351 -0.12508895 -0.016693763 2.3509527e-38
-0.040542036 -0.12428986 -0.013685517 2.3509886e-38
-0.038668748 -0.12349547 -0.010694914 2.341805e-38
-0.036806393 -0.12270571 -0.0077218339 2.341805e-38
-0.03502484 -0.12270571 -0.0077218339 2.3418047e-38
-0.033243284 -0.12270571 -0.0077218339 2.3418047e-38
-0.031400081 -0.12189357 -0.004664354 2.3418043e-38
-0.029567931 -0.12108628 -0.0016252324 2.3325846e-38
-0.027748421 -0.1203105 0.001295276 2.3325483e-38
-0.025937911 -0.11951269 0.004298754 2.3325478e-38
-0.024177432 -0.11951269 0.004298754 2.3509863e-38
-0.022382926 -0.11871959 0.0072844699 2.350949e-38
-0.020627681 -0.11871959 0.0072844699 2.3509112e-38
-0.01884824 -0.11790501 0.010351069 2.350982e-38
-0.01708027 -0.11712147 0.013300844 2.3509796e-38
-0.015322294 -0.11631663 0.016330726 2.2955884e-38
-0.013582909 -0.11631663 0.016330726 2.2772194e-38
-0.011840886 -0.11551671 0.019342251 2.2956611e-38
-0.01010856 -0.11497755 0.021371908 2.3509853e-38
-0.0083858557 -0.11418571 0.024352916 2.3509524e-38
-0.0066605378 -0.11418571 0.024352916 2.3509883e-38
-0.004953403 -0.11339863 0.027315982 2.3509883e-38
-0.0032572653 -0.1125911 0.030355997 2.350988e-38
-0.0015706997 -0.11181359 0.033283062 2.3509879e-38
0.00013896078 -0.11181359 0.033283062 2.341804e-38
0.0018214453 -0.11126463 0.035349734 2.3509869e-38
0.003527482 -0.11126463 0.035349734 2.3509863e-38
0.0051837098 -0.11047028 0.038340159 2.3325461e-38
0.0068297852 -0.10968079 0.041312344 2.2955231e-38
0.0085253678 -0.10968079 0.041312344 2.2586084e-38
0.010154193 -0.10887168 0.044358321 2.2861585e-38
0.011798788 -0.10835941 0.046286769 2.3505871e-38
0.01348565 -0.10835941 0.046286769 2.350803e-38
0.015172509 -0.10835941 0.046286769 2.3509846e-38
0.016772153 -0.10755859 0.049301572 2.3509873e-38
0.018453728 -0.10755859 0.049301572 2.3509886e-38
0.020135302 -0.10755859 0.049301572 2.3509527e-38
0.021714445 -0.10676278 0.05229754 2.3509527e-38
0.023390766 -0.10676278 0.05229754 2.3509527e-38
0.025067091 -0.10676278 0.05229754 2.3509883e-38
0.026743412 -0.10676278 0.05229754 2.3509873e-38
0.028419733 -0.10676278 0.05229754 2.3509866e-38
0.030096054 -0.10676278 0.05229754 2.3509859e-38
0.031772379 -0.10676278 0.05229754 2.3509853e-38
0.0334487 -0.10676278 0.05229754 2.3509846e-38
0.035125021 -0.10676278 0.05229754 2.3509845e-38
0.03695105 -0.10755859 0.049301572 2.3417654e-38
0.038632628 -0.10755859 0.049301572 2.3325461e-38
0.040475424 -0.10835941 0.046286769 2.3324387e-38
0.042162284 -0.10835941 0.046286769 2.3233262e-38
0.043959036 -0.10887168 0.044358321 2.3417997e-38
0.045828186 -0.10968079 0.041312344 2.3417984e-38
0.04752377 -0.10968079 0.041312344 2.3417983e-38
0.049404353 -0.11047028 0.038340159 2.3326143e-38
0.051296521 -0.11126463 0.035349734 2.3326136e-38
0.053002559 -0.11126463 0.035349734 2.3234295e-38
0.054848105 -0.11181359 0.033283062 2.341796e-38
0.056557767 -0.11181359 0.033283062 2.3417959e-38
0.058475278 -0.1125911 0.030355997 2.3509789e-38
0.060190067 -0.1125911 0.030355997 2.3509786e-38
0.061904863 -0.1125911 0.030355997 2.3509782e-38
0.063619658 -0.1125911 0.030355997 2.3509781e-38
0.065571643 -0.11339863 0.027315982 2.3417944e-38
0.067291766 -0.11339863 0.027315982 2.3325748e-38
0.069253467 -0.11418571 0.024352916 2.350906e-38
0.071227051 -0.11497755 0.021371908 2.3325393e-38
0.07313019 -0.11551671 0.019342251 2.3141013e-38
0.074864298 -0.11551671 0.019342251 2.2957341e-38
0.077133328 -0.11712147 0.013300844 2.2957327e-38
0.078878015 -0.11712147 0.013300844 2.2865835e-38
0.080622718 -0.11712147 0.013300844 2.323388e-38
0.082644105 -0.11790501 0.010351069 2.3417899e-38
0.084687009 -0.11871959 0.0072844699 2.3509726e-38
0.08673279 -0.11951269 0.004298754 2.3509723e-38
0.088493273 -0.11951269 0.004298754 2.3508997e-38
0.090556562 -0.1203105 0.001295276 2.3508637e-38
0.092322305 -0.1203105 0.001295276 2.3507558e-38
0.094392732 -0.12108628 -0.0016252324 2.3506479e-38
0.096163586 -0.12108628 -0.0016252324 2.3505759e-38
0.097934455 -0.12108628 -0.0016252324 2.350468e-38
0.10003836 -0.12189357 -0.004664354 2.3503961e-38
0.10181455 -0.12189357 -0.004664354 2.3503245e-38
0.10359076 -0.12189357 -0.004664354 2.3224507e-38
0.10536695 -0.12189357 -0.004664354 1.4649274e-38
0.10749963 -0.12270571 -0.0077218339 1.0407989e-38
0.1092812 -0.12270571 -0.0077218339 1.1608003e-38
-0.11685669 -0.14907773 -0.099688821 1.9914958e-38
-0.1149139 -0.14907773 -0.099688821 2.0099348e-38
-0.1126921 -0.14826734 -0.096658044 2.0376654e-38
-0.11075461 -0.14826734 -0.096658044 2.0561767e-38
-0.10846512 -0.14720438 -0.092682652 1.9917119e-38
-0.1065346 -0.14720438 -0.092682652 2.1207505e-38
-0.10400572 -0.14532293 -0.085646085 2.001004e-38
-0.10175321 -0.14424954 -0.081631713 1.8810769e-38
-0.099602938 -0.14346536 -0.078698806 1.9179551e-38
-0.097696945 -0.14346536 -0.078698806 2.0377025e-38
-0.095554247 -0.1426542 -0.075665168 2.185108e-38
-0.093352944 -0.1416003 -0.071723633 2.2772323e-38
-0.09145917 -0.1416003 -0.071723633 2.2955999e-38
-0.089347482 -0.14079951 -0.068728738 2.314039e-38
-0.087458953 -0.14079951 -0.068728738 2.3508809e-38
-0.08529304 -0.13972856 -0.064723425 2.3509161e-38
-0.083411545 -0.13972856 -0.064723425 2.3508795e-38
-0.081328213 -0.13890781 -0.061653905 2.1941103e-38
-0.079005241 -0.13704078 -0.05467122 1.8530933e-38
-0.076953858 -0.13623528 -0.051658802 1.512005e-38
-0.075095266 -0.13623528 -0.051658802 1.3277213e-38
-0.073060736 -0.13543437 -0.04866343 1.3369409e-38
-0.071037665 -0.134638 -0.045684986 1.392223e-38
-0.068965614 -0.13355388 -0.041630439 1.4567966e-38
-0.066967443 -0.13276802 -0.038691334 1.9546176e-38
-0.065131575 -0.13276802 -0.038691334 2.1390091e-38
-0.063144296 -0.13195769 -0.035660796 2.3049256e-38
-0.061168458 -0.13115202 -0.032647662 2.3509879e-38
-0.059204008 -0.13035102 -0.029651932 2.2957065e-38
-0.05738401 -0.13035102 -0.029651932 2.3509886e-38
-0.055563997 -0.13035102 -0.029651932 2.3509886e-38
-0.053581972 -0.1292996 -0.025719695 2.3509886e-38
-0.051768858 -0.1292996 -0.025719695 2.3509886e-38
-0.049840342 -0.12848105 -0.022658281 2.3509886e-38
-0.047926974 -0.12769531 -0.019719653 2.3509886e-38
-0.04612438 -0.12769531 -0.019719653 2.3509886e-38
-0.04422364 -0.12688623 -0.016693763 2.3509886e-38
-0.04233405 -0.12608187 -0.013685517 2.3509886e-38
-0.040542036 -0.12608187 -0.013685517 2.3509527e-38
-0.038668748 -0.12528224 -0.010694914 2.3509168e-38
-0.036806393 -0.1244873 -0.0077218339 2.3509168e-38
-0.03502484 -0.1244873 -0.0077218339 2.3417691e-38
-0.033243284 -0.1244873 -0.0077218339 2.341805e-38
-0.031400081 -0.12366976 -0.004664354 2.341805e-38
-0.029567931 -0.12285714 -0.0016252324 2.332621e-38
-0.027748421 -0.12207626 0.001295276 2.3418043e-38
-0.025937911 -0.12127317 0.004298754 2.3509874e-38
-0.024177432 -0.12127317 0.004298754 2.3509869e-38
-0.022382926 -0.12047486 0.0072844699 2.2955962e-38
-0.020598108 -0.11965488 0.010351069 2.3508763e-38
-0.01884824 -0.11965488 0.010351069 2.3509824e-38
-0.017061677 -0.11805601 0.016330726 2.3509804e-38
-0.015322294 -0.11805601 0.016330726 2.3509059e-38
-0.013582909 -0.11805601 0.016330726 2.2770036e-38
-0.011840886 -0.11725079 0.019342251 2.3231756e-38
-0.01010856 -0.11670811 0.021371908 2.3509848e-38
-0.0083858557 -0.11591102 0.024352916 2.3509876e-38
-0.0066605378 -0.11591102 0.024352916 2.3509518e-38
-0.004953403 -0.11511876 0.027315982 2.3509879e-38
-0.0032572653 -0.1143059 0.030355997 2.350988e-38
-0.0015706997 -0.11352326 0.033283062 2.3418045e-38
0.00011540763 -0.11297067 0.035349734 2.3234369e-38
0.0017821211 -0.11217107 0.038340159 2.3141808e-38
0.0034829155 -0.11217107 0.038340159 2.3509865e-38
0.0051837098 -0.11217107 0.038340159 2.3324742e-38
0.0068297852 -0.11137636 0.041312344 2.3509838e-38
0.0084639508 -0.11056192 0.044358321 2.3509461e-38
0.010111928 -0.11004628 0.046286769 2.2031434e-38
0.011798788 -0.11004628 0.046286769 2.2860462e-38
0.013409004 -0.10924016 0.049301572 2.3136678e-38
0.015090577 -0.10924016 0.049301572 2.3509809e-38
0.016772153 -0.10924016 0.049301572 2.3509869e-38
0.018361801 -0.1084391 0.05229754 2.3509168e-38
0.020038124 -0.1084391 0.05229754 2.3508809e-38
0.02164343 -0.10788374 0.054374583 2.3509168e-38
0.023316111 -0.10788374 0.054374583 2.3509527e-38
0.024988793 -0.10788374 0.054374583 2.3509876e-38
0.026661471 -0.10788374 0.054374583 2.3509504e-38
0.028419733 -0.1084391 0.05229754 2.3417654e-38
0.030096054 -0.1084391 0.05229754 2.3509842e-38
0.031772379 -0.1084391 0.05229754 2.3509831e-38
0.0334487 -0.1084391 0.05229754 2.3509824e-38
0.035125021 -0.1084391 0.05229754 2.3509823e-38
0.03695105 -0.10924016 0.049301572 2.3417986e-38
0.038632628 -0.10924016 0.049301572 2.3325796e-38
0.040475424 -0.11004628 0.046286769 2.3509111e-38
0.042162284 -0.11004628 0.046286769 2.3325793e-38
0.043959036 -0.11056192 0.044358321 2.3234299e-38
0.045828186 -0.11137636 0.041312344 2.3326129e-38
0.04752377 -0.11137636 0.041312344 2.3326126e-38
0.049404353 -0.11217107 0.038340159 2.3326125e-38
0.051296521 -0.11297067 0.035349734 2.3142451e-38
0.053002559 -0.11297067 0.035349734 2.3142451e-38
0.054848105 -0.11352326 0.033283062 2.3326119e-38
0.056557767 -0.11352326 0.033283062 2.3417956e-38
0.058475278 -0.1143059 0.030355997 2.3233564e-38
0.060190067 -0.1143059 0.030355997 2.3233561e-38
0.061904863 -0.1143059 0.030355997 2.332504e-38
0.063619658 -0.1143059 0.030355997 2.332504e-38
0.065571643 -0.11511876 0.027315982 2.332504e-38
0.067291766 -0.11511876 0.027315982 2.332504e-38
0.069253467 -0.11591102 0.024352916 2.332504e-38
0.071227051 -0.11670811 0.021371908 2.3324691e-38
0.07313019 -0.11725079 0.019342251 2.3509468e-38
0.074864298 -0.11725079 0.019342251 2.3509831e-38
0.077133328 -0.11886616 0.013300844 2.3509818e-38
0.078878015 -0.11886616 0.013300844 2.35098e-38
0.080894247 -0.11965488 0.010351069 2.3509778e-38
0.082644105 -0.11965488 0.010351069 2.3509758e-38
0.084687009 -0.12047486 0.0072844699 2.3509738e-38
0.08673279 -0.12127317 0.004298754 2.3509367e-38
0.088493273 -0.12127317 0.004298754 2.3507562e-38
0.090556562 -0.12207626 0.001295276 2.3508278e-38
0.092322305 -0.12207626 0.001295276 2.350828e-38
0.094088048 -0.12207626 0.001295276 2.3507558e-38
0.095853791 -0.12207626 0.001295276 2.3505399e-38
0.097934455 -0.12285714 -0.0016252324 2.3503954e-38
0.10003836 -0.12366976 -0.004664354 2.3410679e-38
0.10181455 -0.12366976 -0.004664354 2.331777e-38
0.10393652 -0.1244873 -0.0077218339 2.2946841e-38
0.10571808 -0.1244873 -0.0077218339 1.4832946e-38
0.10749963 -0.1244873 -0.0077218339 1.1882399e-38
0.1092812 -0.1244873 -0.0077218339 1.040946e-38
-0.10846512 -0.14913492 -0.092682652 2.0377378e-38
-0.1065346 -0.14913492 -0.092682652 2.1483729e-38
-0.10400572 -0.1472411 -0.085646085 2.0285904e-38
-0.10175321 -0.14616071 -0.081631713 1.899516e-38
-0.099842057 -0.14616071 -0.081631713 1.8627456e-38
-0.097696945 -0.14537133 -0.078698806 1.8718579e-38
-0.095554247 -0.14455487 -0.075665168 1.8718224e-38
-0.093352944 -0.14349405 -0.071723633 1.8717152e-38
-0.09145917 -0.14349405 -0.071723633 1.9177054e-38
-0.089347482 -0.14268802 -0.068728738 2.0191206e-38
-0.087458953 -0.14268802 -0.068728738 2.1389386e-38
-0.08529304 -0.14161004 -0.064723425 2.2495731e-38
-0.083411545 -0.14161004 -0.064723425 2.2127303e-38
-0.081328213 -0.14078392 -0.061653905 2.1574479e-38
-0.079005241 -0.13890465 -0.05467122 2.0376291e-38
-0.077141359 -0.13890465 -0.05467122 1.816359e-38
-0.075095266 -0.13809387 -0.051658802 1.6320395e-38
-0.073060736 -0.13728772 -0.04866343 1.6873925e-38
-0.071037665 -0.13648613 -0.045684986 1.8625287e-38
-0.068965614 -0.13539489 -0.041630439 1.7149088e-38
-0.067124605 -0.13539489 -0.041630439 2.1021308e-38
-0.065131575 -0.13460387 -0.038691334 2.21273e-38
-0.063144296 -0.13378824 -0.035660796 2.3418042e-38
-0.061168458 -0.13297729 -0.032647662 2.350988e-38
-0.059204008 -0.13217102 -0.029651932 2.3417687e-38
-0.05738401 -0.13217102 -0.029651932 2.3509886e-38
-0.055563997 -0.13217102 -0.029651932 2.3325494e-38
-0.053581972 -0.13111271 -0.025719695 2.3509886e-38
-0.051768858 -0.13111271 -0.025719695 2.3509886e-38
-0.049840342 -0.13028879 -0.022658281 2.3509886e-38
-0.047926974 -0.1294979 -0.019719653 2.3509886e-38
-0.04612438 -0.1294979 -0.019719653 2.3509886e-38
-0.04422364 -0.12868352 -0.016693763 2.3509886e-38
-0.04233405 -0.12787388 -0.013685517 2.3509886e-38
-0.040542036 -0.12787388 -0.013685517 2.3509886e-38
-0.038668748 -0.12706901 -0.010694914 2.3509168e-38
-0.036806393 -0.12626885 -0.0077218339 2.3509168e-38
-0.03502484 -0.12626885 -0.0077218339 2.3509527e-38
-0.033176273 -0.12544595 -0.004664354 2.341805e-38
-0.031400081 -0.12544595 -0.004664354 2.341805e-38
-0.029567931 -0.12462802 -0.0016252324 2.341805e-38
-0.027748421 -0.12384202 0.001295276 2.341769e-38
-0.025937911 -0.12303366 0.004298754 2.3509523e-38
-0.024138171 -0.1222301 0.0072844699 2.3416603e-38
-0.022382926 -0.1222301 0.0072844699 2.3509866e-38
-0.020598108 -0.12140475 0.010351069 2.3509851e-38
-0.01880106 -0.1197954 0.016330726 2.3508388e-38
-0.017061677 -0.1197954 0.016330726 2.3508362e-38
-0.015322294 -0.1197954 0.016330726 2.3509781e-38
-0.01357499 -0.11898489 0.019342251 2.2860429e-38
-0.011840886 -0.11898489 0.019342251 2.1478233e-38
-0.01010856 -0.11843865 0.021371908 2.3509116e-38
-0.0083858557 -0.11763634 0.024352916 2.3509147e-38
-0.0066605378 -0.11763634 0.024352916 2.3509872e-38
-0.004953403 -0.11683889 0.027315982 2.3509876e-38
-0.0032572653 -0.11602069 0.030355997 2.3509879e-38
-0.0015706997 -0.11523293 0.033283062 2.3418043e-38
0.00011540763 -0.1146767 0.035349734 2.3326206e-38
0.0017821211 -0.11387186 0.038340159 2.3326199e-38
0.0034829155 -0.11387186 0.038340159 2.3233636e-38
0.0051837098 -0.11387186 0.038340159 2.350913e-38
0.0068297852 -0.11307193 0.041312344 2.3509828e-38
0.0084639508 -0.11225216 0.044358321 2.3508368e-38
0.010111928 -0.11173315 0.046286769 2.2031772e-38
0.011727428 -0.11092176 0.049301572 2.2583843e-38
0.013409004 -0.11092176 0.049301572 2.2306881e-38
0.015090577 -0.11092176 0.049301572 2.3508697e-38
0.01668548 -0.11011542 0.05229754 2.350986e-38
0.018361801 -0.11011542 0.05229754 2.3509168e-38
0.01997075 -0.10955642 0.054374583 2.3508809e-38
0.02154208 -0.10875858 0.05733896 2.3509527e-38
0.023209561 -0.10875858 0.05733896 2.3509883e-38
0.024988793 -0.10955642 0.054374583 2.3509869e-38
0.026661471 -0.10955642 0.054374583 2.3509852e-38
0.028334152 -0.10955642 0.054374583 2.3418e-38
0.030006833 -0.10955642 0.054374583 2.3326149e-38
0.031772379 -0.11011542 0.05229754 2.3326139e-38
0.0334487 -0.11011542 0.05229754 2.3234295e-38
0.035125021 -0.11011542 0.05229754 2.3142455e-38
0.03695105 -0.11092176 0.049301572 2.3233931e-38
0.038632628 -0.11092176 0.049301572 2.3233575e-38
0.040475424 -0.11173315 0.046286769 2.3233579e-38
0.042162284 -0.11173315 0.046286769 2.3233578e-38
0.043959036 -0.11225216 0.044358321 2.3326122e-38
0.045828186 -0.11307193 0.041312344 2.3142446e-38
0.04752377 -0.11307193 0.041312344 2.3234282e-38
0.049219351 -0.11307193 0.041312344 2.3142448e-38
0.051105145 -0.11387186 0.038340159 2.3142451e-38
0.053002559 -0.1146767 0.035349734 2.3050616e-38
0.054848105 -0.11523293 0.033283062 2.3326126e-38
0.056557767 -0.11523293 0.033283062 2.332577e-38
0.058475278 -0.11602069 0.030355997 2.3325054e-38
0.060190067 -0.11602069 0.030355997 2.3325056e-38
0.061904863 -0.11602069 0.030355997 2.3325059e-38
0.063619658 -0.11602069 0.030355997 2.3325059e-38
0.065571643 -0.11683889 0.027315982 2.3416538e-38
0.067291766 -0.11683889 0.027315982 2.3324703e-38
0.069253467 -0.11763634 0.024352916 2.3508734e-38
0.071227051 -0.11843865 0.021371908 2.3416552e-38
0.07313019 -0.11898489 0.019342251 2.3509497e-38
0.074864298 -0.11898489 0.019342251 2.3509503e-38
0.077133328 -0.12061088 0.013300844 2.3509845e-38
0.079144374 -0.12140475 0.010351069 2.3509821e-38
0.080894247 -0.12140475 0.010351069 2.3509796e-38
0.082931772 -0.1222301 0.0072844699 2.3509409e-38
0.084687009 -0.1222301 0.0072844699 2.350939e-38
0.08673279 -0.12303366 0.004298754 2.3509374e-38
0.088493273 -0.12303366 0.004298754 2.3509006e-38
0.090556562 -0.12384202 0.001295276 2.3507922e-38
0.092322305 -0.12384202 0.001295276 2.3506839e-38
0.094088048 -0.12384202 0.001295276 2.3505039e-38
0.095853791 -0.12384202 0.001295276 2.3503595e-38
0.097934455 -0.12462802 -0.0016252324 2.340996e-38
0.10003836 -0.12544595 -0.004664354 2.3133731e-38
0.10181455 -0.12544595 -0.004664354 2.3040462e-38
0.10393652 -0.12626885 -0.0077218339 2.257734e-38
0.10571808 -0.12626885 -0.0077218339 1.4832946e-38
0.10749963 -0.12626885 -0.0077218339 1.1237026e-38
0.1092812 -0.12626885 -0.0077218339 8.2882418e-39
-0.10426846 -0.1499963 -0.088735871 1.9914958e-38
-0.10175321 -0.14807184 -0.081631713 2.0653962e-38
-0.099842057 -0.14807184 -0.081631713 2.0378452e-38
-0.097696945 -0.14727734 -0.078698806 1.9917119e-38
-0.095554247 -0.14645557 -0.075665168 1.9179557e-38
-0.093352944 -0.14538784 -0.071723633 1.8440917e-38
-0.09145917 -0.14538784 -0.071723633 1.8348723e-38
-0.089347482 -0.14457656 -0.068728738 1.9362877e-38
-0.087458953 -0.14457656 -0.068728738 2.0744733e-38
-0.08529304 -0.14349155 -0.064723425 2.1021317e-38
-0.083411545 -0.14349155 -0.064723425 2.0837283e-38
-0.081328213 -0.14266007 -0.061653905 2.1943628e-38
-0.079264 -0.14186381 -0.058714561 2.2866657e-38
-0.077141359 -0.14076851 -0.05467122 2.1391885e-38
-0.075095266 -0.13995247 -0.051658802 1.8534173e-38
-0.073236674 -0.13995247 -0.051658802 1.7980997e-38
-0.071207389 -0.13914107 -0.04866343 1.9640521e-38
-0.068965614 -0.13723589 -0.041630439 2.1022025e-38
-0.067124605 -0.13723589 -0.041630439 2.3141452e-38
-0.065131575 -0.13643973 -0.038691334 2.3233648e-38
-0.063144296 -0.13561879 -0.035660796 2.3509879e-38
-0.061168458 -0.13480256 -0.032647662 2.350988e-38
-0.059204008 -0.13399105 -0.029651932 2.3509883e-38
-0.05738401 -0.13399105 -0.029651932 2.3509886e-38
-0.055563997 -0.13399105 -0.029651932 2.3233299e-38
-0.053581972 -0.13292582 -0.025719695 2.3509886e-38
-0.051768858 -0.13292582 -0.025719695 2.3509886e-38
-0.049840342 -0.13209651 -0.022658281 2.3509886e-38
-0.047926974 -0.13130049 -0.019719653 2.3509886e-38
-0.04612438 -0.13130049 -0.019719653 2.3509886e-38
-0.04422364 -0.13048081 -0.016693763 2.3509883e-38
-0.04233405 -0.1296659 -0.013685517 2.3509883e-38
-0.040455516 -0.12885578 -0.010694914 2.3509883e-38
-0.038668748 -0.12885578 -0.010694914 2.3509527e-38
-0.036806393 -0.1280504 -0.0077218339 2.3509527e-38
-0.03502484 -0.1280504 -0.0077218339 2.3509527e-38
-0.033176273 -0.12722217 -0.004664354 2.3509886e-38
-0.031400081 -0.12722217 -0.004664354 2.341805e-38
-0.029567931 -0.12639888 -0.0016252324 2.341805e-38
-0.027748421 -0.12560774 0.001295276 2.3509527e-38
-0.025937911 -0.12479414 0.004298754 2.3508809e-38
-0.024138171 -0.12398534 0.0072844699 2.3509168e-38
-0.022347976 -0.12315463 0.010351069 2.3508081e-38
-0.020569663 -0.12235557 0.013300844 2.3507339e-38
-0.01880106 -0.12153481 0.016330726 2.3412959e-38
-0.017061677 -0.12153481 0.016330726 2.350908e-38
-0.015309092 -0.120719 0.019342251 2.3509774e-38
-0.01357499 -0.120719 0.019342251 2.3227755e-38
-0.011840886 -0.120719 0.019342251 2.2307256e-38
-0.01010856 -0.12016918 0.021371908 2.3231442e-38
-0.0083858557 -0.11936165 0.024352916 2.3232913e-38
-0.0066605378 -0.11936165 0.024352916 2.3418031e-38
-0.004953403 -0.11855899 0.027315982 2.350987e-38
-0.0032572653 -0.11773549 0.030355997 2.3509873e-38
-0.0015706997 -0.11694257 0.033283062 2.3326203e-38
0.00011540763 -0.11638273 0.035349734 2.3326203e-38
0.0018214453 -0.11638273 0.035349734 2.3509873e-38
0.0034829155 -0.11557265 0.038340159 2.35095e-38
0.0051837098 -0.11557265 0.038340159 2.3509848e-38
0.0068297852 -0.11476754 0.041312344 2.3509825e-38
0.0084639508 -0.1139424 0.044358321 2.3509077e-38
0.010111928 -0.11341999 0.046286769 2.2952991e-38
0.011727428 -0.11260332 0.049301572 2.2767856e-38
0.013409004 -0.11260332 0.049301572 2.1661486e-38
0.015090577 -0.11260332 0.049301572 2.3507239e-38
0.01668548 -0.11179174 0.05229754 2.3509856e-38
0.018361801 -0.11179174 0.05229754 2.3509168e-38
0.01997075 -0.11122911 0.054374583 2.3508809e-38
0.02154208 -0.11042608 0.05733896 2.3509527e-38
0.023209561 -0.11042608 0.05733896 2.3509879e-38
0.024877045 -0.11042608 0.05733896 2.3509865e-38
0.026544526 -0.11042608 0.05733896 2.3509844e-38
0.028212011 -0.11042608 0.05733896 2.3417988e-38
0.030006833 -0.11122911 0.054374583 2.3233579e-38
0.031679511 -0.11122911 0.054374583 2.3234285e-38
0.0334487 -0.11179174 0.05229754 2.314244e-38
0.035125021 -0.11179174 0.05229754 2.3142436e-38
0.03695105 -0.11260332 0.049301572 2.3234271e-38
0.038632628 -0.11260332 0.049301572 2.3233914e-38
0.040314201 -0.11260332 0.049301572 2.3233561e-38
0.042162284 -0.11341999 0.046286769 2.323428e-38
0.043849144 -0.11341999 0.046286769 2.323428e-38
0.045649275 -0.1139424 0.044358321 2.323428e-38
0.04752377 -0.11476754 0.041312344 2.3234282e-38
0.049219351 -0.11476754 0.041312344 2.3326124e-38
0.051105145 -0.11557265 0.038340159 2.3325773e-38
0.053002559 -0.11638273 0.035349734 2.3325421e-38
0.054848105 -0.11694257 0.033283062 2.3325067e-38
0.056760482 -0.11773549 0.030355997 2.3324717e-38
0.058475278 -0.11773549 0.030355997 2.3509832e-38
0.060190067 -0.11773549 0.030355997 2.3509839e-38
0.061904863 -0.11773549 0.030355997 2.3509842e-38
0.063619658 -0.11773549 0.030355997 2.3509485e-38
0.065571643 -0.11855899 0.027315982 2.3509845e-38
0.067291766 -0.11855899 0.027315982 2.3509845e-38
0.069253467 -0.11936165 0.024352916 2.3509846e-38
0.071227051 -0.12016918 0.021371908 2.3509859e-38
0.07313019 -0.120719 0.019342251 2.3509163e-38
0.075125664 -0.12153481 0.016330726 2.3509165e-38
0.077133328 -0.12235557 0.013300844 2.3509863e-38
0.079144374 -0.12315463 0.010351069 2.3509838e-38
0.080894247 -0.12315463 0.010351069 2.341689e-38
0.082931772 -0.12398534 0.0072844699 2.332395e-38
0.084687009 -0.12398534 0.0072844699 2.3508675e-38
0.08673279 -0.12479414 0.004298754 2.350938e-38
0.088493273 -0.12479414 0.004298754 2.350973e-38
0.090556562 -0.12560774 0.001295276 2.3507922e-38
0.092322305 -0.12560774 0.001295276 2.35054e-38
0.094392732 -0.12639888 -0.0016252324 2.3503598e-38
0.096163586 -0.12639888 -0.0016252324 2.3502875e-38
0.097934455 -0.12639888 -0.0016252324 2.3502156e-38
0.10003836 -0.12722217 -0.004664354 2.3317405e-38
0.10181455 -0.12722217 -0.004664354 2.3315973e-38
0.10393652 -0.1280504 -0.0077218339 2.2669891e-38
0.10571808 -0.1280504 -0.0077218339 1.5938215e-38
0.10749963 -0.1280504 -0.0077218339 1.2527765e-38
0.1092812 -0.1280504 -0.0077218339 8.4726331e-39
-0.10175321 -0.14998297 -0.081631713 2.0837269e-38
-0.099842057 -0.14998297 -0.081631713 2.1023102e-38
-0.097696945 -0.14918335 -0.078698806 2.1667393e-38
-0.095554247 -0.14835624 -0.075665168 2.1667394e-38
-0.09365356 -0.14835624 -0.075665168 2.1113864e-38
-0.09145917 -0.1472816 -0.071723633 2.083728e-38
-0.089347482 -0.14646508 -0.068728738 2.1113867e-38
-0.087458953 -0.14646508 -0.068728738 2.1574848e-38
-0.08529304 -0.14537306 -0.064723425 2.111387e-38
-0.083411545 -0.14537306 -0.064723425 1.9731656e-38
-0.081328213 -0.14453618 -0.061653905 1.963946e-38
-0.079264 -0.14373477 -0.058714561 2.0746164e-38
-0.077141359 -0.14263238 -0.05467122 2.0561769e-38
-0.075095266 -0.14181106 -0.051658802 1.9640529e-38
-0.073236674 -0.14181106 -0.051658802 2.0655038e-38
-0.071207389 -0.14099441 -0.04866343 2.2958852e-38
-0.069189548 -0.14018236 -0.045684986 2.3326203e-38
-0.067124605 -0.1390769 -0.041630439 2.3509879e-38
-0.065131575 -0.13827558 -0.038691334 2.3509879e-38
-0.063144296 -0.13744931 -0.035660796 2.3418043e-38
-0.061168458 -0.13662781 -0.032647662 2.3509883e-38
-0.059204008 -0.13581105 -0.029651932 2.3509883e-38
-0.05738401 -0.13581105 -0.029651932 2.3509886e-38
-0.055563997 -0.13581105 -0.029651932 2.3509886e-38
-0.053581972 -0.13473894 -0.025719695 2.3509886e-38
-0.051768858 -0.13473894 -0.025719695 2.3509886e-38
-0.049840342 -0.13390426 -0.022658281 2.3509886e-38
-0.047926974 -0.13310309 -0.019719653 2.3509883e-38
-0.046020925 -0.1322781 -0.016693763 2.3509883e-38
-0.04412606 -0.13145791 -0.013685517 2.350988e-38
-0.04233405 -0.13145791 -0.013685517 2.350988e-38
-0.040455516 -0.13064255 -0.010694914 2.3509879e-38
-0.038668748 -0.13064255 -0.010694914 2.3509876e-38
-0.036806393 -0.12983195 -0.0077218339 2.3509873e-38
-0.034952469 -0.12899835 -0.004664354 2.3509873e-38
-0.033176273 -0.12899835 -0.004664354 2.3509873e-38
-0.031400081 -0.12899835 -0.004664354 2.3509876e-38
-0.029567931 -0.12816976 -0.0016252324 2.3326208e-38
-0.027748421 -0.1273735 0.001295276 2.3417691e-38
-0.025937911 -0.12655462 0.004298754 2.3509168e-38
-0.024138171 -0.12574057 0.0072844699 2.3508809e-38
-0.022347976 -0.1249045 0.010351069 2.3508442e-38
-0.020569663 -0.12410025 0.013300844 2.3508063e-38
-0.01880106 -0.12327419 0.016330726 2.3508395e-38
-0.017061677 -0.12327419 0.016330726 2.3509799e-38
-0.015309092 -0.12245311 0.019342251 2.3508322e-38
-0.01357499 -0.12245311 0.019342251 2.0921771e-38
-0.011840886 -0.12245311 0.019342251 1.9355547e-38
-0.01010856 -0.12189974 0.021371908 2.3047404e-38
-0.0083858557 -0.12108697 0.024352916 2.3140718e-38
-0.0066605378 -0.12108697 0.024352916 2.3509862e-38
-0.004953403 -0.12027912 0.027315982 2.3509866e-38
-0.0032572653 -0.11945029 0.030355997 2.323436e-38
-0.0015706997 -0.11865224 0.033283062 2.3142523e-38
0.00013896078 -0.11865224 0.033283062 2.3234361e-38
0.0018214453 -0.11808877 0.035349734 2.3509866e-38
0.0034829155 -0.11727346 0.038340159 2.3509496e-38
0.0051837098 -0.11727346 0.038340159 2.3509846e-38
0.0068297852 -0.11646311 0.041312344 2.350982e-38
0.0084639508 -0.11563264 0.044358321 2.3509792e-38
0.010111928 -0.11510687 0.046286769 2.35076e-38
0.011727428 -0.11428489 0.049301572 2.3412498e-38
0.013409004 -0.11428489 0.049301572 2.1383453e-38
0.015009157 -0.11346807 0.05229754 2.3505069e-38
0.01668548 -0.11346807 0.05229754 2.3509853e-38
0.018298071 -0.11290176 0.054374583 2.3509168e-38
0.01997075 -0.11290176 0.054374583 2.3509168e-38
0.02154208 -0.11209355 0.05733896 2.3509527e-38
0.023209561 -0.11209355 0.05733896 2.3509873e-38
0.024877045 -0.11209355 0.05733896 2.3509858e-38
0.026544526 -0.11209355 0.05733896 2.3509835e-38
0.028212011 -0.11209355 0.05733896 2.3233949e-38
0.030006833 -0.11290176 0.054374583 2.3233928e-38
0.031679511 -0.11290176 0.054374583 2.3234274e-38
0.0334487 -0.11346807 0.05229754 2.3234267e-38
0.035125021 -0.11346807 0.05229754 2.3234263e-38
0.03695105 -0.11428489 0.049301572 2.33261e-38
0.038632628 -0.11428489 0.049301572 2.3417939e-38
0.040314201 -0.11428489 0.049301572 2.3509779e-38
0.042162284 -0.11510687 0.046286769 2.3509782e-38
0.043849144 -0.11510687 0.046286769 2.332611e-38
0.045649275 -0.11563264 0.044358321 2.323428e-38
0.04752377 -0.11646311 0.041312344 2.3233928e-38
0.049219351 -0.11646311 0.041312344 2.3325773e-38
0.051105145 -0.11727346 0.038340159 2.3509816e-38
0.053002559 -0.11808877 0.035349734 2.3509468e-38
0.054848105 -0.11865224 0.033283062 2.3509119e-38
0.056760482 -0.11945029 0.030355997 2.350841e-38
0.058475278 -0.11945029 0.030355997 2.350986e-38
0.060190067 -0.11945029 0.030355997 2.3509866e-38
0.061904863 -0.11945029 0.030355997 2.3509511e-38
0.06385152 -0.12027912 0.027315982 2.350987e-38
0.065571643 -0.12027912 0.027315982 2.350987e-38
0.067291766 -0.12027912 0.027315982 2.350987e-38
0.069253467 -0.12108697 0.024352916 2.3509869e-38
0.071227051 -0.12189974 0.021371908 2.3509517e-38
0.07313019 -0.12245311 0.019342251 2.3508809e-38
0.075125664 -0.12327419 0.016330726 2.3509168e-38
0.077133328 -0.12410025 0.013300844 2.3509866e-38
0.079144374 -0.1249045 0.010351069 2.3509837e-38
0.081176519 -0.12574057 0.0072844699 2.3140303e-38
0.082931772 -0.12574057 0.0072844699 2.2955524e-38
0.084972322 -0.12655462 0.004298754 2.3232085e-38
0.08673279 -0.12655462 0.004298754 2.3509376e-38
0.088493273 -0.12655462 0.004298754 2.3508645e-38
0.090556562 -0.1273735 0.001295276 2.3506119e-38
0.092322305 -0.1273735 0.001295276 2.3319926e-38
0.094392732 -0.12816976 -0.0016252324 2.3318486e-38
0.096163586 -0.12816976 -0.0016252324 2.3502519e-38
0.098262161 -0.12899835 -0.004664354 2.350216e-38
0.10037342 -0.12983195 -0.0077218339 2.350144e-38
0.10215497 -0.12983195 -0.0077218339 2.3499648e-38
0.10393652 -0.12983195 -0.0077218339 2.257734e-38
0.10571808 -0.12983195 -0.0077218339 1.6308076e-38
0.10749963 -0.12983195 -0.0077218339 1.4556069e-38
0.1092812 -0.12983195 -0.0077218339 1.1147025e-38
0.11141983 -0.13064255 -0.010694914 9.6754951e-39
-0.09145917 -0.14917539 -0.071723633 2.2127289e-38
-0.089347482 -0.14835359 -0.068728738 2.2035456e-38
-0.087458953 -0.14835359 -0.068728738 2.1943262e-38
-0.08557044 -0.14835359 -0.068728738 2.21273e-38
-0.083411545 -0.14725454 -0.064723425 2.1021674e-38
-0.081328213 -0.1464123 -0.061653905 2.0468143e-38
-0.079264 -0.14560573 -0.058714561 2.0745809e-38
-0.077141359 -0.14449625 -0.05467122 2.1206786e-38
-0.075277492 -0.14449625 -0.05467122 2.1391533e-38
-0.073236674 -0.14366965 -0.051658802 2.1852511e-38
-0.071207389 -0.14284773 -0.04866343 2.2682272e-38
-0.069189548 -0.14203046 -0.045684986 2.2404609e-38
-0.067124605 -0.14091791 -0.041630439 2.2772674e-38
-0.065131575 -0.14011143 -0.038691334 2.350988e-38
-0.063144296 -0.13927986 -0.035660796 2.3417687e-38
-0.061168458 -0.13845308 -0.032647662 2.31411e-38
-0.059204008 -0.13763104 -0.029651932 2.3509886e-38
-0.05738401 -0.13763104 -0.029651932 2.3509886e-38
-0.055395078 -0.13655205 -0.025719695 2.3509886e-38
-0.053581972 -0.13655205 -0.025719695 2.3509883e-38
-0.051768858 -0.13655205 -0.025719695 2.3509883e-38
-0.049840342 -0.13571201 -0.022658281 2.3509883e-38
-0.047926974 -0.13490568 -0.019719653 2.350988e-38
-0.046020925 -0.13407536 -0.016693763 2.3509879e-38
-0.04412606 -0.13324992 -0.013685517 2.3509876e-38
-0.04233405 -0.13324992 -0.013685517 2.3509876e-38
-0.040455516 -0.13242932 -0.010694914 2.350987e-38
-0.038668748 -0.13242932 -0.010694914 2.3509859e-38
-0.036806393 -0.13161351 -0.0077218339 2.3509855e-38
-0.034952469 -0.13077454 -0.004664354 2.3509855e-38
-0.033176273 -0.13077454 -0.004664354 2.3509855e-38
-0.031400081 -0.13077454 -0.004664354 2.3418023e-38
-0.029567931 -0.12994061 -0.0016252324 2.3326195e-38
-0.027748421 -0.12913923 0.001295276 2.3417679e-38
-0.025937911 -0.12831511 0.004298754 2.3508801e-38
-0.024138171 -0.12749584 0.0072844699 2.3507362e-38
-0.022347976 -0.12665437 0.010351069 2.3508793e-38
-0.020569663 -0.12584494 0.013300844 2.3509136e-38
-0.01880106 -0.12501357 0.016330726 2.3506223e-38
-0.017061677 -0.12501357 0.016330726 2.3506545e-38
-0.015309092 -0.12418722 0.019342251 2.2948294e-38
-0.01357499 -0.12418722 0.019342251 2.0182753e-38
-0.011840886 -0.12418722 0.019342251 2.0553e-38
-0.01010856 -0.12363027 0.021371908 2.3507303e-38
-0.0083858557 -0.12281232 0.024352916 2.3324753e-38
-0.0066605378 -0.12281232 0.024352916 2.3509863e-38
-0.004953403 -0.12199925 0.027315982 2.350986e-38
-0.0032572653 -0.12116508 0.030355997 2.3142513e-38
-0.0015424732 -0.12116508 0.030355997 2.2866285e-38
0.00013896078 -0.12036191 0.033283062 2.295848e-38
0.0018214453 -0.1197948 0.035349734 2.3326182e-38
0.0034829155 -0.11897425 0.038340159 2.3233259e-38
0.0051837098 -0.11897425 0.038340159 2.3509839e-38
0.0068297852 -0.11815868 0.041312344 2.3508019e-38
0.0084639508 -0.11732288 0.044358321 2.3509076e-38
0.010111928 -0.11679374 0.046286769 2.3507606e-38
0.011727428 -0.11596648 0.049301572 2.350362e-38
0.013409004 -0.11596648 0.049301572 2.1289464e-38
0.015009157 -0.11514439 0.05229754 2.3134855e-38
0.016625391 -0.11457445 0.054374583 2.3509853e-38
0.018298071 -0.11457445 0.054374583 2.3508809e-38
0.019874597 -0.11376105 0.05733896 2.3509527e-38
0.02154208 -0.11376105 0.05733896 2.350988e-38
0.023209561 -0.11376105 0.05733896 2.3509869e-38
0.024877045 -0.11376105 0.05733896 2.3509851e-38
0.026544526 -0.11376105 0.05733896 2.3417994e-38
0.028212011 -0.11376105 0.05733896 2.3142106e-38
0.030006833 -0.11457445 0.054374583 2.3326119e-38
0.031679511 -0.11457445 0.054374583 2.3326107e-38
0.0334487 -0.11514439 0.05229754 2.3417935e-38
0.035125021 -0.11514439 0.05229754 2.3417932e-38
0.03695105 -0.11596648 0.049301572 2.3509771e-38
0.038632628 -0.11596648 0.049301572 2.3509774e-38
0.040475424 -0.11679374 0.046286769 2.3509781e-38
0.042162284 -0.11679374 0.046286769 2.3509785e-38
0.043849144 -0.11679374 0.046286769 2.3509782e-38
0.045649275 -0.11732288 0.044358321 2.3325756e-38
0.04752377 -0.11815868 0.041312344 2.3325407e-38
0.049219351 -0.11815868 0.041312344 2.350945e-38
0.051105145 -0.11897425 0.038340159 2.3509828e-38
0.053002559 -0.1197948 0.035349734 2.3509844e-38
0.054848105 -0.12036191 0.033283062 2.3509499e-38
0.056557767 -0.12036191 0.033283062 2.350879e-38
0.058475278 -0.12116508 0.030355997 2.3508801e-38
0.060190067 -0.12116508 0.030355997 2.3508807e-38
0.061904863 -0.12116508 0.030355997 2.3508808e-38
0.06385152 -0.12199925 0.027315982 2.3509167e-38
0.065571643 -0.12199925 0.027315982 2.3509167e-38
0.067528144 -0.12281232 0.024352916 2.3509524e-38
0.069253467 -0.12281232 0.024352916 2.350988e-38
0.071227051 -0.12363027 0.021371908 2.350988e-38
0.07313019 -0.12418722 0.019342251 2.3509883e-38
0.075125664 -0.12501357 0.016330726 2.3509873e-38
0.077133328 -0.12584494 0.013300844 2.3509853e-38
0.079421282 -0.12749584 0.0072844699 2.3509827e-38
0.081176519 -0.12749584 0.0072844699 2.3140649e-38
0.082931772 -0.12749584 0.0072844699 2.2864393e-38
0.084972322 -0.12831511 0.004298754 2.3232434e-38
0.08673279 -0.12831511 0.004298754 2.3509724e-38
0.088493273 -0.12831511 0.004298754 2.3323163e-38
0.090556562 -0.12913923 0.001295276 2.3229525e-38
0.092322305 -0.12913923 0.001295276 2.313589e-38
0.094392732 -0.12994061 -0.0016252324 2.3318486e-38
0.096163586 -0.12994061 -0.0016252324 2.3502162e-38
0.098262161 -0.13077454 -0.004664354 2.3501806e-38
0.10037342 -0.13161351 -0.0077218339 2.3408171e-38
0.10215497 -0.13161351 -0.0077218339 2.3038674e-38
0.10393652 -0.13161351 -0.0077218339 2.2208557e-38
0.10571808 -0.13161351 -0.0077218339 1.5201729e-38
0.10784629 -0.13242932 -0.010694914 1.4187287e-38
0.10963306 -0.13242932 -0.010694914 1.2161177e-38
0.11141983 -0.13242932 -0.010694914 1.0229748e-38
-0.083411545 -0.14913605 -0.064723425 2.2496083e-38
-0.081328213 -0.14828841 -0.061653905 2.2957065e-38
-0.079264 -0.14747669 -0.058714561 2.3418047e-38
-0.077141359 -0.14636014 -0.05467122 2.3418047e-38
-0.075277492 -0.14636014 -0.05467122 2.3141819e-38
-0.073236674 -0.14552824 -0.051658802 2.1666686e-38
-0.071207389 -0.14470108 -0.04866343 2.0283752e-38
-0.069189548 -0.14387859 -0.045684986 2.0928761e-38
-0.067124605 -0.14275892 -0.041630439 2.1113152e-38
-0.065131575 -0.14194728 -0.038691334 2.3325492e-38
-0.063144296 -0.14111041 -0.035660796 2.3509883e-38
-0.061168458 -0.14027832 -0.032647662 2.3325494e-38
-0.059204008 -0.13945107 -0.029651932 2.3509886e-38
-0.05738401 -0.13945107 -0.029651932 2.3509886e-38
-0.055395078 -0.13836516 -0.025719695 2.3509886e-38
-0.053581972 -0.13836516 -0.025719695 2.3417687e-38
-0.051768858 -0.13836516 -0.025719695 2.3417687e-38
-0.049840342 -0.13751976 -0.022658281 2.3418043e-38
-0.047926974 -0.13670824 -0.019719653 2.3418042e-38
-0.046020925 -0.13587265 -0.016693763 2.3418039e-38
-0.04412606 -0.13504194 -0.013685517 2.3418036e-38
-0.04233405 -0.13504194 -0.013685517 2.3418036e-38
-0.040455516 -0.13421609 -0.010694914 2.3509867e-38
-0.038668748 -0.13421609 -0.010694914 2.3509499e-38
-0.036806393 -0.13339506 -0.0077218339 2.3509851e-38
-0.034952469 -0.13255073 -0.004664354 2.3509845e-38
-0.033176273 -0.13255073 -0.004664354 2.3509839e-38
-0.031400081 -0.13255073 -0.004664354 2.3326168e-38
-0.029567931 -0.1317115 -0.0016252324 2.3234333e-38
-0.027797066 -0.1317115 -0.0016252324 2.3326175e-38
-0.025937911 -0.13007559 0.004298754 2.3417654e-38
-0.024138171 -0.12925108 0.0072844699 2.3509855e-38
-0.022347976 -0.12840421 0.010351069 2.3414051e-38
-0.020540444 -0.12675296 0.016330726 2.3508036e-38
-0.01880106 -0.12675296 0.016330726 2.3509814e-38
-0.017061677 -0.12675296 0.016330726 2.350402e-38
-0.015309092 -0.12592132 0.019342251 1.925939e-38
-0.01357499 -0.12592132 0.019342251 1.8705825e-38
-0.011840886 -0.12592132 0.019342251 2.3506869e-38
-0.01010856 -0.12536083 0.021371908 2.3509111e-38
-0.0083780158 -0.12536083 0.021371908 2.3418031e-38
-0.0066605378 -0.12453763 0.024352916 2.3509863e-38
-0.004953403 -0.12371938 0.027315982 2.3418022e-38
-0.0032572653 -0.12287988 0.030355997 2.305067e-38
-0.0015706997 -0.12207155 0.033283062 2.2866991e-38
0.00011540763 -0.12150083 0.035349734 2.2866991e-38
0.0018214453 -0.12150083 0.035349734 2.3050662e-38
0.003527482 -0.12150083 0.035349734 2.3233611e-38
0.0051837098 -0.12067504 0.038340159 2.3509472e-38
0.0068297852 -0.11985429 0.041312344 2.3508376e-38
0.0084639508 -0.11901312 0.044358321 2.35098e-38
0.010111928 -0.11848058 0.046286769 2.3505456e-38
0.011727428 -0.11764805 0.049301572 2.3502192e-38
0.013332836 -0.11682071 0.05229754 2.1841573e-38
0.015009157 -0.11682071 0.05229754 2.350293e-38
0.016625391 -0.11624713 0.054374583 2.3509493e-38
0.018207114 -0.11542852 0.05733896 2.3509168e-38
0.019874597 -0.11542852 0.05733896 2.3509883e-38
0.021438312 -0.11459039 0.060374029 2.3509876e-38
0.023100473 -0.11459039 0.060374029 2.3509866e-38
0.024877045 -0.11542852 0.05733896 2.3509848e-38
0.026544526 -0.11542852 0.05733896 2.3325793e-38
0.028212011 -0.11542852 0.05733896 2.3049908e-38
0.030006833 -0.11624713 0.054374583 2.323428e-38
0.031679511 -0.11624713 0.054374583 2.323427e-38
0.033352192 -0.11624713 0.054374583 2.3326098e-38
0.035125021 -0.11682071 0.05229754 2.3326096e-38
0.036801342 -0.11682071 0.05229754 2.3417935e-38
0.038632628 -0.11764805 0.049301572 2.3509775e-38
0.040314201 -0.11764805 0.049301572 2.3509782e-38
0.042162284 -0.11848058 0.046286769 2.3509783e-38
0.043959036 -0.11901312 0.044358321 2.3509782e-38
0.045649275 -0.11901312 0.044358321 2.3417589e-38
0.04752377 -0.11985429 0.041312344 2.3325405e-38
0.049219351 -0.11985429 0.041312344 2.350981e-38
0.051105145 -0.12067504 0.038340159 2.3509834e-38
0.052805938 -0.12067504 0.038340159 2.3509853e-38
0.0547086 -0.12150083 0.035349734 2.3509869e-38
0.056557767 -0.12207155 0.033283062 2.3509161e-38
0.058475278 -0.12287988 0.030355997 2.3509168e-38
0.060190067 -0.12287988 0.030355997 2.3509168e-38
0.061904863 -0.12287988 0.030355997 2.3509168e-38
0.06385152 -0.12371938 0.027315982 2.3509168e-38
0.065571643 -0.12371938 0.027315982 2.3509527e-38
0.067528144 -0.12453763 0.024352916 2.3509886e-38
0.069496505 -0.12536083 0.021371908 2.350988e-38
0.071227051 -0.12536083 0.021371908 2.3509876e-38
0.07313019 -0.12592132 0.019342251 2.350987e-38
0.075125664 -0.12675296 0.016330726 2.3509859e-38
0.077133328 -0.12758966 0.013300844 2.3509838e-38
0.079421282 -0.12925108 0.0072844699 2.350981e-38
0.081176519 -0.12925108 0.0072844699 2.3234266e-38
0.083211839 -0.13007559 0.004298754 2.3049486e-38
0.084972322 -0.13007559 0.004298754 2.3325691e-38
0.08673279 -0.13007559 0.004298754 2.350971e-38
0.088493273 -0.13007559 0.004298754 2.3508266e-38
0.090556562 -0.13090499 0.001295276 2.3507184e-38
0.092322305 -0.13090499 0.001295276 2.3505392e-38
0.094392732 -0.1317115 -0.0016252324 2.3504318e-38
0.096163586 -0.1317115 -0.0016252324 2.3503246e-38
0.098262161 -0.13255073 -0.004664354 2.3501448e-38
0.10037342 -0.13339506 -0.0077218339 2.34071e-38
0.10215497 -0.13339506 -0.0077218339 2.3038321e-38
0.10393652 -0.13339506 -0.0077218339 2.2761734e-38
0.10571808 -0.13339506 -0.0077218339 1.4095381e-38
0.10784629 -0.13421609 -0.010694914 1.2344453e-38
0.10963306 -0.13421609 -0.010694914 1.059493e-38
-0.079264 -0.14934768 -0.058714561 2.2771602e-38
-0.077141359 -0.14822401 -0.05467122 2.3416971e-38
-0.075277492 -0.14822401 -0.05467122 2.3509886e-38
-0.073236674 -0.14738683 -0.051658802 2.3509886e-38
-0.071207389 -0.14655443 -0.04866343 2.3325494e-38
-0.069189548 -0.1457267 -0.045684986 2.1758166e-38
-0.067124605 -0.14459993 -0.041630439 2.1204992e-38
-0.065131575 -0.14378314 -0.038691334 2.3509886e-38
-0.063144296 -0.14294095 -0.035660796 2.3509886e-38
-0.061168458 -0.1421036 -0.032647662 2.3233299e-38
-0.059204008 -0.14127107 -0.029651932 2.3509886e-38
-0.05738401 -0.14127107 -0.029651932 2.341769e-38
-0.055395078 -0.14017828 -0.025719695 2.3325494e-38
-0.053581972 -0.14017828 -0.025719695 2.3417687e-38
-0.051768858 -0.14017828 -0.025719695 2.3417687e-38
-0.049729563 -0.13851084 -0.019719653 2.3418043e-38
-0.047926974 -0.13851084 -0.019719653 2.3418042e-38
-0.046020925 -0.13766994 -0.016693763 2.3418039e-38
-0.04412606 -0.13683395 -0.013685517 2.3418036e-38
-0.04233405 -0.13683395 -0.013685517 2.3418033e-38
-0.040455516 -0.13600285 -0.010694914 2.3509869e-38
-0.038668748 -0.13600285 -0.010694914 2.3508071e-38
-0.036806393 -0.13517661 -0.0077218339 2.3508425e-38
-0.03502484 -0.13517661 -0.0077218339 2.3509486e-38
-0.033176273 -0.13432692 -0.004664354 2.3417995e-38
-0.031400081 -0.13432692 -0.004664354 2.3142472e-38
-0.029567931 -0.13348235 -0.0016252324 2.3142462e-38
-0.027797066 -0.13348235 -0.0016252324 2.314246e-38
-0.025937911 -0.13183604 0.004298754 2.3326131e-38
-0.024138171 -0.13100632 0.0072844699 2.3509813e-38
-0.022347976 -0.13015409 0.010351069 2.3508364e-38
-0.020540444 -0.12849234 0.016330726 2.3509444e-38
-0.01880106 -0.12849234 0.016330726 2.3509796e-38
-0.017061677 -0.12849234 0.016330726 2.3501137e-38
-0.015309092 -0.12765543 0.019342251 1.7506242e-38
-0.01357499 -0.12765543 0.019342251 1.6767939e-38
-0.011840886 -0.12765543 0.019342251 2.3501848e-38
-0.01010856 -0.12709136 0.021371908 2.3509844e-38
-0.0083780158 -0.12709136 0.021371908 2.3509873e-38
-0.0066605378 -0.12626295 0.024352916 2.3509862e-38
-0.004953403 -0.12543948 0.027315982 2.3234345e-38
-0.0032572653 -0.12459467 0.030355997 2.3050663e-38
-0.0015706997 -0.12378122 0.033283062 2.2958821e-38
0.00011540763 -0.1232069 0.035349734 2.2958817e-38
0.0018214453 -0.1232069 0.035349734 2.3050651e-38
0.003527482 -0.1232069 0.035349734 2.3509832e-38
0.0051837098 -0.12237583 0.038340159 2.3509465e-38
0.0068297852 -0.12154986 0.041312344 2.3509818e-38
0.0084639508 -0.12070335 0.044358321 2.3509807e-38
0.010111928 -0.12016745 0.046286769 2.3133804e-38
0.011727428 -0.11932962 0.049301572 2.2855401e-38
0.013332836 -0.11849703 0.05229754 2.2576999e-38
0.015009157 -0.11849703 0.05229754 2.3506186e-38
0.016625391 -0.11791982 0.054374583 2.3509496e-38
0.018207114 -0.11709599 0.05733896 2.3509167e-38
0.019776149 -0.11625256 0.060374029 2.3509521e-38
0.021438312 -0.11625256 0.060374029 2.350987e-38
0.023100473 -0.11625256 0.060374029 2.350986e-38
0.024762634 -0.11625256 0.060374029 2.3509844e-38
0.026544526 -0.11709599 0.05733896 2.3233597e-38
0.028212011 -0.11709599 0.05733896 2.3141382e-38
0.030006833 -0.11791982 0.054374583 2.3325759e-38
0.031679511 -0.11791982 0.054374583 2.3326108e-38
0.033352192 -0.11791982 0.054374583 2.3417935e-38
0.035125021 -0.11849703 0.05229754 2.3326098e-38
0.036801342 -0.11849703 0.05229754 2.3509418e-38
0.038632628 -0.11932962 0.049301572 2.3509422e-38
0.040314201 -0.11932962 0.049301572 2.3509429e-38
0.042162284 -0.12016745 0.046286769 2.3509426e-38
0.043959036 -0.12070335 0.044358321 2.3509778e-38
0.045828186 -0.12154986 0.041312344 2.3325745e-38
0.04752377 -0.12154986 0.041312344 2.3232845e-38
0.049219351 -0.12154986 0.041312344 2.3509447e-38
0.051105145 -0.12237583 0.038340159 2.3509831e-38
0.052805938 -0.12237583 0.038340159 2.3509851e-38
0.0547086 -0.1232069 0.035349734 2.3509869e-38
0.056557767 -0.12378122 0.033283062 2.3509161e-38
0.058475278 -0.12459467 0.030355997 2.3509168e-38
0.060190067 -0.12459467 0.030355997 2.3509168e-38
0.061904863 -0.12459467 0.030355997 2.3509168e-38
0.06385152 -0.12543948 0.027315982 2.3509886e-38
0.065571643 -0.12543948 0.027315982 2.3509883e-38
0.067528144 -0.12626295 0.024352916 2.3418043e-38
0.069496505 -0.12709136 0.021371908 2.3418038e-38
0.071227051 -0.12709136 0.021371908 2.3418028e-38
0.07313019 -0.12765543 0.019342251 2.3142503e-38
0.075125664 -0.12849234 0.016330726 2.3326161e-38
