# .PCD v0.7 - Point Cloud Data file format
VERSION 0.7
FIELDS x y z rgb
SIZE 4 4 4 4
TYPE F F F F
COUNT 1 1 1 1
WIDTH 951
HEIGHT 1
VIEWPOINT 0 0 0 1 0 0 0
POINTS 951
DATA ascii
-0.046936262 -0.10665329 0.024837375 2.3509167e-38
-0.045018915 -0.10588033 0.027867258 2.3509168e-38
-0.043113206 -0.10511206 0.030878782 2.3509168e-38
-0.041379098 -0.10511206 0.030878782 2.3417333e-38
-0.039644998 -0.10511206 0.030878782 2.3509527e-38
-0.038061384 -0.10588033 0.027867258 2.3509886e-38
-0.03617679 -0.10511206 0.030878782 2.3509527e-38
-0.034442689 -0.10511206 0.030878782 2.3509883e-38
-0.032708589 -0.10511206 0.030878782 2.3509883e-38
-0.030759234 -0.10383381 0.035889447 2.350988e-38
-0.028911833 -0.1030779 0.038852513 2.350952e-38
-0.02719171 -0.1030779 0.038852513 2.3418043e-38
-0.025356989 -0.10230236 0.041892529 2.3509167e-38
-0.023642197 -0.10230236 0.041892529 2.3325494e-38
-0.021927401 -0.10230236 0.041892529 2.3416974e-38
-0.020311218 -0.1030779 0.038852513 2.3325138e-38
-0.018773478 -0.10459428 0.03290844 2.3416974e-38
-0.017276432 -0.10665329 0.024837375 2.3325138e-38
-0.015531734 -0.10665329 0.024837375 2.3325138e-38
-0.013787035 -0.10665329 0.024837375 2.3325497e-38
-0.011970624 -0.10588033 0.027867258 2.3325497e-38
-0.010231238 -0.10588033 0.027867258 2.3325497e-38
-0.0084918551 -0.10588033 0.027867258 2.3325494e-38
-0.0067524724 -0.10588033 0.027867258 2.3325494e-38
-0.0050130896 -0.10588033 0.027867258 2.3325492e-38
-0.0032737069 -0.10588033 0.027867258 2.3325492e-38
-0.0015343204 -0.10588033 0.027867258 2.3509883e-38
0.00020506233 -0.10588033 0.027867258 2.3509886e-38
0.0019444469 -0.10588033 0.027867258 2.3509886e-38
0.0036599245 -0.10665329 0.024837375 2.3509886e-38
0.0054046214 -0.10665329 0.024837375 2.3509886e-38
0.0071493164 -0.10665329 0.024837375 2.3509527e-38
0.0088940132 -0.10665329 0.024837375 2.3509527e-38
0.010636123 -0.10740583 0.0218876 2.3509886e-38
0.01238868 -0.10818814 0.018821001 2.341804e-38
0.014151778 -0.10894983 0.015835285 2.3234367e-38
0.015912257 -0.10894983 0.015835285 2.3418043e-38
0.017654415 -0.10818814 0.018821001 2.341805e-38
0.01940966 -0.10818814 0.018821001 2.3509527e-38
0.021164905 -0.10818814 0.018821001 2.3509527e-38
0.02292015 -0.10818814 0.018821001 2.3509527e-38
0.024635069 -0.10740583 0.0218876 2.3509527e-38
0.026384937 -0.10740583 0.0218876 2.3509527e-38
0.028235616 -0.10894983 0.015835285 2.3509886e-38
0.029996097 -0.10894983 0.015835285 2.3509886e-38
0.031756576 -0.10894983 0.015835285 2.3509886e-38
0.033646889 -0.11046107 0.0099112988 2.3509886e-38
0.035417758 -0.11046107 0.0099112988 2.3509527e-38
0.037343621 -0.11201639 0.0038146973 2.3509527e-38
0.039125174 -0.11201639 0.0038146973 2.3509527e-38
0.04107926 -0.11353777 -0.0021489859 2.3509511e-38
0.042963576 -0.11430521 -0.0051572323 2.3509514e-38
0.044859011 -0.11507715 -0.0081831217 2.341518e-38
0.046661604 -0.11507715 -0.0081831217 2.3508451e-38
0.048569821 -0.11582683 -0.01112175 2.3508809e-38
0.050377566 -0.11582683 -0.01112175 2.3048914e-38
0.052306082 -0.11660783 -0.014183164 2.3234374e-38
0.054281216 -0.11761098 -0.018115401 2.3234364e-38
0.056229908 -0.11837523 -0.021111131 2.323436e-38
0.058905158 -0.12322514 -0.040122271 2.3234364e-38
0.060903717 -0.12399365 -0.043134689 2.3418047e-38
0.062962547 -0.12502514 -0.04717803 2.3509886e-38
0.064980388 -0.12577499 -0.050117373 2.3508807e-38
0.067222439 -0.12757985 -0.057192206 2.3508437e-38
0.069271117 -0.1283439 -0.060187101 2.3415861e-38
0.071712114 -0.13087155 -0.070095181 2.3506214e-38
0.07385201 -0.13189565 -0.074109554 2.350255e-38
0.076416999 -0.1347049 -0.085121512 2.1746134e-38
0.078354493 -0.1347049 -0.085121512 2.1749039e-38
0.080914646 -0.13725694 -0.095125198 2.2304403e-38
0.083130591 -0.13829704 -0.099202275 2.1476837e-38
0.085552201 -0.14007963 -0.10618973 2.276976e-38
0.08806435 -0.14211179 -0.11415565 2.3509507e-38
0.090327092 -0.14312236 -0.11811686 2.3509158e-38
0.092541561 -0.14390959 -0.12120271 2.350484e-38
0.094834149 -0.14493273 -0.12521338 1.8986891e-38
0.09713316 -0.14592977 -0.12912166 1.5391616e-38
0.099147797 -0.14592977 -0.12912166 8.4765861e-39
0.10116243 -0.14592977 -0.12912166 7.7404658e-39
0.10286529 -0.14493273 -0.12521338 8.1110546e-39
0.10487308 -0.14493273 -0.12521338 7.8355579e-39
-0.07888405 -0.10994337 0.018821001 2.3509824e-38
-0.077128813 -0.10994337 0.018821001 2.3509825e-38
-0.07537356 -0.10994337 0.018821001 2.3509832e-38
-0.073618323 -0.10994337 0.018821001 2.3509846e-38
-0.071607679 -0.10915567 0.0218876 2.3509849e-38
-0.069857806 -0.10915567 0.0218876 2.3509855e-38
-0.068107933 -0.10915567 0.0218876 2.350986e-38
-0.066597342 -0.10994337 0.018821001 2.3509869e-38
-0.06484209 -0.10994337 0.018821001 2.3509873e-38
-0.063086852 -0.10994337 0.018821001 2.3509518e-38
-0.061331604 -0.10994337 0.018821001 2.3418043e-38
-0.059358601 -0.10915567 0.0218876 2.3234369e-38
-0.057608727 -0.10915567 0.0218876 2.341804e-38
-0.055858869 -0.10915567 0.0218876 2.3418038e-38
-0.054108996 -0.10915567 0.0218876 2.3418038e-38
-0.052170355 -0.10839801 0.024837375 2.3509873e-38
-0.050237063 -0.10761972 0.027867258 2.3509876e-38
-0.048497681 -0.10761972 0.027867258 2.3509879e-38
-0.046758298 -0.10761972 0.027867258 2.3509521e-38
-0.044847313 -0.10684617 0.030878782 2.3509524e-38
-0.043001104 -0.10632484 0.03290844 2.3509886e-38
-0.041270558 -0.10632484 0.03290844 2.341805e-38
-0.039540019 -0.10632484 0.03290844 2.3509883e-38
-0.037809473 -0.10632484 0.03290844 2.3418047e-38
-0.036078934 -0.10632484 0.03290844 2.350988e-38
-0.034348387 -0.10632484 0.03290844 2.3326208e-38
-0.032617841 -0.10632484 0.03290844 2.3418043e-38
-0.030759234 -0.10555913 0.035889447 2.3326208e-38
-0.028911833 -0.104798 0.038852513 2.350988e-38
-0.02719171 -0.104798 0.038852513 2.3418045e-38
-0.025356989 -0.10401715 0.041892529 2.3509886e-38
-0.023642197 -0.10401715 0.041892529 2.341805e-38
-0.021927401 -0.10401715 0.041892529 2.3509527e-38
-0.020311218 -0.104798 0.038852513 2.341805e-38
-0.018682014 -0.10555913 0.035889447 2.3509527e-38
-0.017042931 -0.10632484 0.03290844 2.3509527e-38
-0.015312389 -0.10632484 0.03290844 2.3509527e-38
-0.013581846 -0.10632484 0.03290844 2.3509527e-38
-0.0118513 -0.10632484 0.03290844 2.3509527e-38
-0.010120753 -0.10632484 0.03290844 2.3509527e-38
-0.0083902068 -0.10632484 0.03290844 2.3509527e-38
-0.0066596642 -0.10632484 0.03290844 2.3509527e-38
-0.0049291216 -0.10632484 0.03290844 2.3509886e-38
-0.0031985752 -0.10632484 0.03290844 2.3509886e-38
-0.0014680289 -0.10632484 0.03290844 2.3509886e-38
0.00023938343 -0.10684617 0.030878782 2.3509886e-38
0.0019444469 -0.10761972 0.027867258 2.3509886e-38
0.0036838315 -0.10761972 0.027867258 2.3509886e-38
0.0054232143 -0.10761972 0.027867258 2.3509886e-38
0.007162597 -0.10761972 0.027867258 2.3509886e-38
0.0089019816 -0.10761972 0.027867258 2.3509886e-38
0.010660661 -0.10196631 0.04987669 2.3509883e-38
0.012349218 -0.098381177 0.063834071 2.3418045e-38
0.014025541 -0.098381177 0.063834071 2.3418045e-38
0.01589917 -0.10994337 0.018821001 2.341805e-38
0.017654415 -0.10994337 0.018821001 2.341805e-38
0.019385464 -0.10915567 0.0218876 2.3509527e-38
0.021106888 -0.10839801 0.024837375 2.3509527e-38
0.022851583 -0.10839801 0.024837375 2.3509527e-38
0.024556436 -0.10761972 0.027867258 2.3509527e-38
0.02629582 -0.10761972 0.027867258 2.3509886e-38
0.028235616 -0.11071031 0.015835285 2.3509883e-38
0.029884674 -0.10915567 0.0218876 2.350988e-38
0.031634539 -0.10915567 0.0218876 2.350988e-38
0.033451617 -0.10994337 0.018821001 2.3509883e-38
0.035206862 -0.10994337 0.018821001 2.3509886e-38
0.037038013 -0.11071031 0.015835285 2.3509886e-38
0.038798496 -0.11071031 0.015835285 2.3509883e-38
0.04107926 -0.11532979 -0.0021489859 2.350987e-38
0.042871274 -0.11532979 -0.0021489859 2.3508434e-38
0.044760864 -0.1161025 -0.0051572323 2.3507374e-38
0.046661604 -0.11687975 -0.0081831217 2.3509168e-38
0.048464198 -0.11687975 -0.0081831217 2.3509168e-38
0.050377566 -0.11763458 -0.01112175 2.341805e-38
0.052185308 -0.11763458 -0.01112175 2.30507e-38
0.054281216 -0.11943097 -0.018115401 2.314253e-38
0.056229908 -0.12020047 -0.021111131 2.3234364e-38
0.058771234 -0.12431435 -0.037126899 2.2773388e-38
0.060903717 -0.12585752 -0.043134689 2.341769e-38
0.062962547 -0.1268961 -0.04717803 2.3509527e-38
0.064833507 -0.1268961 -0.04717803 2.3508801e-38
0.067015275 -0.12843956 -0.053186893 2.3509149e-38
0.06911096 -0.1294684 -0.057192206 2.3509485e-38
0.071382582 -0.1312501 -0.064128637 2.322854e-38
0.07385201 -0.13381381 -0.074109554 2.3314553e-38
0.076416999 -0.13664238 -0.085121512 2.2944317e-38
0.078354493 -0.13664238 -0.085121512 2.2393337e-38
0.080914646 -0.13921197 -0.095125198 2.2027467e-38
0.083130591 -0.14025922 -0.099202275 2.1847068e-38
0.085552201 -0.14205404 -0.10618973 2.3323666e-38
0.08806435 -0.1441002 -0.11415565 2.350987e-38
0.090327092 -0.14511769 -0.11811686 2.3325127e-38
0.092541561 -0.14591034 -0.12120271 2.2863429e-38
0.094834149 -0.14694051 -0.12521338 1.7423165e-38
0.09713316 -0.14794444 -0.12912166 1.4656576e-38
0.099147797 -0.14794444 -0.12912166 7.7419036e-39
0.10116243 -0.14794444 -0.12912166 8.1114064e-39
0.10286529 -0.14694051 -0.12521338 7.6511499e-39
0.10487308 -0.14694051 -0.12521338 8.1135672e-39
-0.086195573 -0.11247079 0.015835285 1.3088542e-38
-0.08443509 -0.11247079 0.015835285 1.3548419e-38
-0.08239454 -0.11169861 0.018821001 1.7421324e-38
-0.080639303 -0.11169861 0.018821001 2.3229623e-38
-0.07888405 -0.11169861 0.018821001 2.286262e-38
-0.077128813 -0.11169861 0.018821001 2.3323952e-38
-0.075107411 -0.11090554 0.0218876 2.3325393e-38
-0.073357537 -0.11090554 0.0218876 2.34176e-38
-0.071362004 -0.11014269 0.024837375 2.3509451e-38
-0.069370285 -0.1093591 0.027867258 2.3509462e-38
-0.067630902 -0.1093591 0.027867258 2.3509828e-38
-0.066358075 -0.11090554 0.0218876 2.3509838e-38
-0.064608201 -0.11090554 0.0218876 2.3509851e-38
-0.062858328 -0.11090554 0.0218876 2.3509856e-38
-0.061108474 -0.11090554 0.0218876 2.3509859e-38
-0.059358601 -0.11090554 0.0218876 2.3509859e-38
-0.057608727 -0.11090554 0.0218876 2.3509859e-38
-0.055858869 -0.11090554 0.0218876 2.3509856e-38
-0.054108996 -0.11090554 0.0218876 2.3509856e-38
-0.051976446 -0.1093591 0.027867258 2.3509856e-38
-0.050237063 -0.1093591 0.027867258 2.3509859e-38
-0.048315514 -0.10858028 0.030878782 2.350986e-38
-0.046581414 -0.10858028 0.030878782 2.3509866e-38
-0.044847313 -0.10858028 0.030878782 2.3509869e-38
-0.043001104 -0.10805537 0.03290844 2.350987e-38
-0.041270558 -0.10805537 0.03290844 2.3418038e-38
-0.039385829 -0.10728444 0.035889447 2.3418035e-38
-0.037660513 -0.10728444 0.035889447 2.3418035e-38
-0.035935197 -0.10728444 0.035889447 2.3418035e-38
-0.034209881 -0.10728444 0.035889447 2.3418035e-38
-0.032484557 -0.10728444 0.035889447 2.3418035e-38
-0.030759234 -0.10728444 0.035889447 2.3418035e-38
-0.028911833 -0.10651813 0.038852513 2.3418038e-38
-0.02719171 -0.10651813 0.038852513 2.341804e-38
-0.025471587 -0.10651813 0.038852513 2.3418043e-38
-0.023642197 -0.10573195 0.041892529 2.3418047e-38
-0.021927401 -0.10573195 0.041892529 2.341805e-38
-0.020212609 -0.10573195 0.041892529 2.341805e-38
-0.018591095 -0.10651813 0.038852513 2.341805e-38
-0.016956691 -0.10728444 0.035889447 2.3509527e-38
-0.015231375 -0.10728444 0.035889447 2.3509527e-38
-0.013506059 -0.10728444 0.035889447 2.3509886e-38
-0.011780739 -0.10728444 0.035889447 2.3509527e-38
-0.010055419 -0.10728444 0.035889447 2.3509527e-38
-0.008330103 -0.10728444 0.035889447 2.3509527e-38
-0.0066047832 -0.10728444 0.035889447 2.3509527e-38
-0.0048794635 -0.10728444 0.035889447 2.3509527e-38
-0.0031541474 -0.10728444 0.035889447 2.3509886e-38
-0.0014288314 -0.10728444 0.035889447 2.3509168e-38
0.00026251748 -0.10805537 0.03290844 2.341769e-38
0.0019930601 -0.10805537 0.03290844 2.3509167e-38
0.0037236065 -0.10805537 0.03290844 2.3417687e-38
0.0054416955 -0.10858028 0.030878782 2.3509523e-38
0.0072459653 -0.10444047 0.046886265 2.3418043e-38
0.0089598671 -0.1036671 0.04987669 2.350952e-38
0.010663265 -0.10289843 0.052848876 2.3418043e-38
0.012349218 -0.1000575 0.063834071 2.3509883e-38
0.014025541 -0.1000575 0.063834071 2.341805e-38
0.015714996 -0.1008323 0.060838103 2.341805e-38
0.017654415 -0.11169861 0.018821001 2.341805e-38
0.019385464 -0.11090554 0.0218876 2.3509527e-38
0.021106888 -0.11014269 0.024837375 2.3509527e-38
0.022851583 -0.11014269 0.024837375 2.3509527e-38
0.02441198 -0.10651813 0.038852513 2.3509527e-38
0.026132103 -0.10651813 0.038852513 2.3509883e-38
0.027852226 -0.10651813 0.038852513 2.3509879e-38
0.029681779 -0.10805537 0.03290844 2.3509876e-38
0.031513974 -0.1093591 0.027867258 2.3509876e-38
0.033384409 -0.11090554 0.0218876 2.3509879e-38
0.035134278 -0.11090554 0.0218876 2.350988e-38
0.036884144 -0.11090554 0.0218876 2.3509883e-38
0.038798496 -0.11247079 0.015835285 2.350988e-38
0.04107926 -0.1171218 -0.0021489859 2.3509873e-38
0.042871274 -0.1171218 -0.0021489859 2.3509513e-38
0.044760864 -0.11789979 -0.0051572323 2.3509527e-38
0.046558149 -0.11789979 -0.0051572323 2.3232227e-38
0.048464198 -0.11868234 -0.0081831217 2.3325138e-38
0.050377566 -0.11944233 -0.01112175 2.341805e-38
0.052185308 -0.11944233 -0.01112175 2.3234372e-38
0.054281216 -0.121251 -0.018115401 2.3050693e-38
0.056229908 -0.12202574 -0.021111131 2.3234369e-38
0.058638066 -0.1253974 -0.034148455 2.2680838e-38
0.060903717 -0.12772138 -0.043134689 2.3509527e-38
0.062962547 -0.12876706 -0.04717803 2.3509527e-38
0.064833507 -0.12876706 -0.04717803 2.3508077e-38
0.067015275 -0.13032107 -0.053186893 2.3509859e-38
0.06911096 -0.13135691 -0.057192206 2.3509472e-38
0.071164891 -0.13213144 -0.060187101 2.1568647e-38
0.073283263 -0.13315077 -0.064128637 2.2299322e-38
0.076416999 -0.13857989 -0.085121512 2.3498218e-38
0.078354493 -0.13857989 -0.085121512 2.3131272e-38
0.080731235 -0.14040495 -0.092178583 2.2949438e-38
0.082869671 -0.141167 -0.095125198 2.3045626e-38
0.085354604 -0.14325126 -0.10318446 2.3140362e-38
0.08806435 -0.14608859 -0.11415565 2.3142171e-38
0.090327092 -0.14711304 -0.11811686 2.2037265e-38
0.092826359 -0.14894833 -0.12521338 2.2221294e-38
0.095118523 -0.14995907 -0.12912166 1.7241653e-38
0.09713316 -0.14995907 -0.12912166 1.5120436e-38
0.099147797 -0.14995907 -0.12912166 7.7440672e-39
0.10116243 -0.14995907 -0.12912166 8.3894352e-39
0.10317707 -0.14995907 -0.12912166 6.730267e-39
-0.082674608 -0.11423124 0.015835285 1.9079399e-38
-0.080639303 -0.11345388 0.018821001 2.3508713e-38
-0.07888405 -0.11345388 0.018821001 2.3507601e-38
-0.077128813 -0.11345388 0.018821001 2.3509745e-38
-0.075107411 -0.11265542 0.0218876 2.3509381e-38
-0.073106706 -0.11188738 0.024837375 2.2679985e-38
-0.071109667 -0.11109848 0.027867258 2.3325374e-38
-0.069370285 -0.11109848 0.027867258 2.323355e-38
-0.067630902 -0.11109848 0.027867258 2.3417592e-38
-0.065891519 -0.11109848 0.027867258 2.3509796e-38
-0.064152136 -0.11109848 0.027867258 2.3509809e-38
-0.062638521 -0.11188738 0.024837375 2.3509818e-38
-0.060673375 -0.11109848 0.027867258 2.3509821e-38
-0.058933992 -0.11109848 0.027867258 2.3509824e-38
-0.057404447 -0.11188738 0.024837375 2.3509824e-38
-0.055659745 -0.11188738 0.024837375 2.3509821e-38
-0.053715829 -0.11109848 0.027867258 2.3509821e-38
-0.051783729 -0.11031438 0.030878782 2.3509823e-38
-0.050049622 -0.11031438 0.030878782 2.3509825e-38
-0.048315514 -0.11031438 0.030878782 2.3509828e-38
-0.046581414 -0.11031438 0.030878782 2.3509835e-38
-0.044731651 -0.10978593 0.03290844 2.3509839e-38
-0.043001104 -0.10978593 0.03290844 2.3418009e-38
-0.041270558 -0.10978593 0.03290844 2.3326177e-38
-0.039385829 -0.10900976 0.035889447 2.3326177e-38
-0.037660513 -0.10900976 0.035889447 2.3418014e-38
-0.035935197 -0.10900976 0.035889447 2.3509851e-38
-0.034209881 -0.10900976 0.035889447 2.3509853e-38
-0.032484557 -0.10900976 0.035889447 2.3509856e-38
-0.030631956 -0.10823826 0.038852513 2.3509859e-38
-0.028911833 -0.10823826 0.038852513 2.3326187e-38
-0.02719171 -0.10823826 0.038852513 2.3326189e-38
-0.025356989 -0.10744675 0.041892529 2.3326195e-38
-0.023642197 -0.10744675 0.041892529 2.3326199e-38
-0.021927401 -0.10744675 0.041892529 2.3418039e-38
-0.020212609 -0.10744675 0.041892529 2.3418042e-38
-0.018497817 -0.10744675 0.041892529 2.3418043e-38
-0.016783025 -0.10744675 0.041892529 2.3418043e-38
-0.015068229 -0.10744675 0.041892529 2.350952e-38
-0.013353441 -0.10744675 0.041892529 2.350952e-38
-0.011638645 -0.10744675 0.041892529 2.3509164e-38
-0.0099904798 -0.10823826 0.038852513 2.3509523e-38
-0.0082703568 -0.10823826 0.038852513 2.3509167e-38
-0.006494265 -0.10744675 0.041892529 2.3509167e-38
-0.0047794767 -0.10744675 0.041892529 2.3509167e-38
-0.0030646808 -0.10744675 0.041892529 2.3509167e-38
-0.0013898648 -0.10823826 0.038852513 2.3509527e-38
0.00033025816 -0.10823826 0.038852513 2.3509883e-38
0.0020796973 -0.10744675 0.041892529 2.3509521e-38
0.0038175844 -0.10668461 0.044819593 2.3509879e-38
0.0055582784 -0.10536788 0.04987669 2.3509876e-38
0.0072721019 -0.10459404 0.052848876 2.3509873e-38
0.0089676827 -0.10459404 0.052848876 2.350987e-38
0.010663265 -0.10459404 0.052848876 2.3509876e-38
0.012354488 -0.10329883 0.0578233 2.3509883e-38
0.01403342 -0.10251388 0.060838103 2.3509527e-38
0.015714996 -0.10251388 0.060838103 2.3509527e-38
0.017426904 -0.10380094 0.055894852 2.3509527e-38
0.019188225 -0.1061465 0.046886265 2.3509168e-38
0.020942418 -0.10744675 0.041892529 2.3509527e-38
0.022657212 -0.10744675 0.041892529 2.3509527e-38
0.024372004 -0.10744675 0.041892529 2.3509886e-38
0.026086796 -0.10744675 0.041892529 2.350988e-38
0.027852226 -0.10823826 0.038852513 2.3509876e-38
0.029572349 -0.10823826 0.038852513 2.3509873e-38
0.031513974 -0.11109848 0.027867258 2.350987e-38
0.033384409 -0.11265542 0.0218876 2.3509873e-38
0.035134278 -0.11265542 0.0218876 2.3509876e-38
0.036884144 -0.11265542 0.0218876 2.350988e-38
0.038798496 -0.11423124 0.015835285 2.350988e-38
0.040906731 -0.11736105 0.0038146973 2.3509876e-38
0.042688288 -0.11736105 0.0038146973 2.3508795e-38
0.044760864 -0.11969708 -0.0051572323 2.3509524e-38
0.046558149 -0.11969708 -0.0051572323 2.323258e-38
0.048464198 -0.12048493 -0.0081831217 2.2956712e-38
0.050377566 -0.12125005 -0.01112175 2.3418047e-38
0.052185308 -0.12125005 -0.01112175 2.2958859e-38
0.05440465 -0.12385099 -0.021111131 2.3234369e-38
0.056359343 -0.12463553 -0.024124265 2.3418045e-38
0.058638066 -0.12724553 -0.034148455 2.3233299e-38
0.060903717 -0.12958528 -0.043134689 2.3509168e-38
0.062962547 -0.13063805 -0.04717803 2.3509168e-38
0.064833507 -0.13063805 -0.04717803 2.3414794e-38
0.066856503 -0.13140334 -0.050117373 2.3509848e-38
0.06889677 -0.13220255 -0.053186893 2.3230349e-38
0.070999481 -0.13324542 -0.057192206 1.9263745e-38
0.073058665 -0.1340252 -0.060187101 2.1286249e-38
0.076416999 -0.14051737 -0.085121512 2.349931e-38
0.078354493 -0.14051737 -0.085121512 2.3500071e-38
0.080731235 -0.14235483 -0.092178583 2.3504428e-38
0.082869671 -0.14312203 -0.095125198 2.3508781e-38
0.085092776 -0.14418359 -0.099202275 2.2956701e-38
0.087790273 -0.14701982 -0.11009538 2.2775186e-38
0.090327092 -0.14910837 -0.11811686 2.2039058e-38
0.092541561 -0.14991184 -0.12120271 2.084087e-38
-0.08443509 -0.11599173 0.015835285 1.4468215e-38
-0.082674608 -0.11599173 0.015835285 1.8340746e-38
-0.080914125 -0.11599173 0.015835285 2.3505462e-38
-0.07888405 -0.11520912 0.018821001 2.2861133e-38
-0.076857284 -0.11440529 0.0218876 2.2954027e-38
-0.074851394 -0.11363207 0.024837375 2.3323879e-38
-0.07284905 -0.11283787 0.027867258 2.3509715e-38
-0.071109667 -0.11283787 0.027867258 2.3325335e-38
-0.069370285 -0.11283787 0.027867258 2.3141673e-38
-0.067390651 -0.11204849 0.030878782 2.3141685e-38
-0.065656543 -0.11204849 0.030878782 2.3233529e-38
-0.064152136 -0.11283787 0.027867258 2.304951e-38
-0.062412757 -0.11283787 0.027867258 2.3049158e-38
-0.060673375 -0.11283787 0.027867258 2.2957327e-38
-0.058933992 -0.11283787 0.027867258 2.295733e-38
-0.057194609 -0.11283787 0.027867258 2.3049525e-38
-0.05525193 -0.11204849 0.030878782 2.3049523e-38
-0.053517822 -0.11204849 0.030878782 2.3049523e-38
-0.051783729 -0.11204849 0.030878782 2.3141718e-38
-0.04992329 -0.11151646 0.03290844 2.3325393e-38
-0.048192743 -0.11151646 0.03290844 2.3325396e-38
-0.046462197 -0.11151646 0.03290844 2.3508355e-38
-0.044731651 -0.11151646 0.03290844 2.3325407e-38
-0.043001104 -0.11151646 0.03290844 2.3234303e-38
-0.041270558 -0.11151646 0.03290844 2.3050638e-38
-0.039385829 -0.11073507 0.035889447 2.3142476e-38
-0.037660513 -0.11073507 0.035889447 2.3234313e-38
-0.035935197 -0.11073507 0.035889447 2.3326153e-38
-0.034209881 -0.11073507 0.035889447 2.3326156e-38
-0.032352079 -0.1099584 0.038852513 2.3417995e-38
-0.030501369 -0.10916151 0.041892529 2.3417998e-38
-0.028786574 -0.10916151 0.041892529 2.3509839e-38
-0.027071781 -0.10916151 0.041892529 2.3509842e-38
-0.025356989 -0.10916151 0.041892529 2.3509849e-38
-0.023536988 -0.10839428 0.044819593 2.3509853e-38
-0.021827325 -0.10839428 0.044819593 2.3509859e-38
-0.020117667 -0.10839428 0.044819593 2.350986e-38
-0.018497817 -0.10916151 0.041892529 2.3509863e-38
-0.016783025 -0.10916151 0.041892529 2.3509863e-38
-0.015068229 -0.10916151 0.041892529 2.3509863e-38
-0.013353441 -0.10916151 0.041892529 2.3509863e-38
-0.011638645 -0.10916151 0.041892529 2.3509866e-38
-0.0098596998 -0.10839428 0.044819593 2.3509869e-38
-0.0081500411 -0.10839428 0.044819593 2.350987e-38
-0.0064023323 -0.10785256 0.046886265 2.3509873e-38
-0.0046962947 -0.10785256 0.046886265 2.3509876e-38
-0.002990257 -0.10785256 0.046886265 2.3509876e-38
-0.001284223 -0.10785256 0.046886265 2.3509876e-38
0.00042181835 -0.10785256 0.046886265 2.3509873e-38
0.0021566898 -0.1070687 0.04987669 2.350987e-38
0.0038574859 -0.1070687 0.04987669 2.3509869e-38
0.0055765174 -0.10628961 0.052848876 2.3509866e-38
0.0072854534 -0.10549118 0.055894852 2.3509863e-38
0.008975694 -0.10549118 0.055894852 2.350986e-38
0.010665936 -0.10549118 0.055894852 2.3509866e-38
0.012354488 -0.1049857 0.0578233 2.3509879e-38
0.014041349 -0.1049857 0.0578233 2.3509527e-38
0.015736662 -0.10549118 0.055894852 2.3509527e-38
0.017426904 -0.10549118 0.055894852 2.3509527e-38
0.019188225 -0.10785256 0.046886265 2.3509527e-38
0.020914191 -0.10839428 0.044819593 2.3509527e-38
0.022623852 -0.10839428 0.044819593 2.3509527e-38
0.024333514 -0.10839428 0.044819593 2.3509886e-38
0.026043173 -0.10839428 0.044819593 2.3509879e-38
0.02780159 -0.10916151 0.041892529 2.3509873e-38
0.029572349 -0.1099584 0.038852513 2.350987e-38
0.031513974 -0.11283787 0.027867258 2.350987e-38
0.033384409 -0.11440529 0.0218876 2.3509873e-38
0.035134278 -0.11440529 0.0218876 2.3509876e-38
0.036884144 -0.11440529 0.0218876 2.350988e-38
0.038798496 -0.11599173 0.015835285 2.350988e-38
0.040906731 -0.11914261 0.0038146973 2.3509879e-38
0.042688288 -0.11914261 0.0038146973 2.2864149e-38
0.044760864 -0.12149437 -0.0051572323 2.350988e-38
0.046558149 -0.12149437 -0.0051572323 2.350988e-38
0.048464198 -0.12228753 -0.0081831217 2.3418043e-38
0.050377566 -0.1230578 -0.01112175 2.341804e-38
0.052185308 -0.1230578 -0.01112175 2.2405685e-38
0.05440465 -0.12567626 -0.021111131 2.3418043e-38
0.056229908 -0.12567626 -0.021111131 2.341769e-38
0.05845679 -0.12803085 -0.030093908 2.3509527e-38
0.06076375 -0.13065951 -0.040122271 2.3508809e-38
0.062767595 -0.13144915 -0.043134689 2.3509163e-38
0.064833507 -0.13250901 -0.04717803 2.3508421e-38
0.066704467 -0.13250901 -0.04717803 2.3509837e-38
0.068732619 -0.13327946 -0.050117373 2.3229978e-38
0.070778266 -0.13408406 -0.053186893 1.9632878e-38
0.073058665 -0.13591899 -0.060187101 2.0734883e-38
0.076595016 -0.14324932 -0.088152289 2.3500765e-38
0.078537822 -0.14324932 -0.088152289 2.3409334e-38
0.080731235 -0.14430468 -0.092178583 2.3506248e-38
0.082869671 -0.14507706 -0.095125198 2.3509153e-38
0.085092776 -0.14614578 -0.099202275 2.3416603e-38
0.087790273 -0.14900111 -0.11009538 2.3234364e-38
-0.084149793 -0.11696436 0.018821001 1.3730287e-38
-0.08239454 -0.11696436 0.018821001 1.8339302e-38
-0.080639303 -0.11696436 0.018821001 2.3506895e-38
-0.07888405 -0.11696436 0.018821001 2.3505777e-38
-0.076857284 -0.11615516 0.0218876 2.3321719e-38
-0.074851394 -0.11537679 0.024837375 2.3230947e-38
-0.07284905 -0.11457725 0.027867258 2.3508971e-38
-0.071109667 -0.11457725 0.027867258 2.3141633e-38
-0.069124758 -0.1137826 0.030878782 2.3049801e-38
-0.067390651 -0.1137826 0.030878782 2.3141645e-38
-0.065656543 -0.1137826 0.030878782 2.3233492e-38
-0.06392245 -0.1137826 0.030878782 2.3049474e-38
-0.062188346 -0.1137826 0.030878782 2.3049478e-38
-0.060454238 -0.1137826 0.030878782 2.2956929e-38
-0.058720145 -0.1137826 0.030878782 2.2956929e-38
-0.056986038 -0.1137826 0.030878782 2.2957648e-38
-0.055114929 -0.11324702 0.03290844 2.2957645e-38
-0.053384382 -0.11324702 0.03290844 2.2957645e-38
-0.051653836 -0.11324702 0.03290844 2.3049844e-38
-0.04992329 -0.11324702 0.03290844 2.3233159e-38
-0.048012424 -0.11246039 0.035889447 2.3233161e-38
-0.046287108 -0.11246039 0.035889447 2.332536e-38
-0.044731651 -0.11324702 0.03290844 2.3233173e-38
-0.042836469 -0.11246039 0.035889447 2.3142427e-38
-0.041111145 -0.11246039 0.035889447 2.2958765e-38
-0.039232571 -0.1116785 0.038852513 2.3050603e-38
-0.037512448 -0.1116785 0.038852513 2.3050606e-38
-0.035792325 -0.1116785 0.038852513 2.3142446e-38
-0.033930954 -0.11087631 0.041892529 2.3142448e-38
-0.032216165 -0.11087631 0.041892529 2.3142451e-38
-0.030501369 -0.11087631 0.041892529 2.3142455e-38
-0.028786574 -0.11087631 0.041892529 2.350981e-38
-0.027071781 -0.11087631 0.041892529 2.3509811e-38
-0.025246646 -0.11010392 0.044819593 2.350982e-38
-0.023536988 -0.11010392 0.044819593 2.3509823e-38
-0.021827325 -0.11010392 0.044819593 2.350983e-38
-0.020117667 -0.11010392 0.044819593 2.3509835e-38
-0.018408004 -0.11010392 0.044819593 2.3509837e-38
-0.016698342 -0.11010392 0.044819593 2.3509837e-38
-0.014932517 -0.1095586 0.046886265 2.3509837e-38
-0.013226483 -0.1095586 0.046886265 2.3509838e-38
-0.011520442 -0.1095586 0.046886265 2.3509841e-38
-0.0098144077 -0.1095586 0.046886265 2.3509846e-38
-0.00810837 -0.1095586 0.046886265 2.3509848e-38
-0.00634728 -0.10876949 0.04987669 2.3509853e-38
-0.0045969784 -0.10798518 0.052848876 2.3509856e-38
-0.0029013939 -0.10798518 0.052848876 2.3509859e-38
-0.0012058131 -0.10798518 0.052848876 2.3509858e-38
0.00048977137 -0.10798518 0.052848876 2.3509858e-38
0.0021853521 -0.10798518 0.052848876 2.3509855e-38
0.0039049685 -0.10718144 0.055894852 2.3509852e-38
0.0055952109 -0.10718144 0.055894852 2.3509849e-38
0.0072939061 -0.10667257 0.0578233 2.3509846e-38
0.0089807659 -0.10667257 0.0578233 2.3509845e-38
0.010667628 -0.10667257 0.0578233 2.3509852e-38
0.012356179 -0.10718144 0.055894852 2.3509866e-38
0.014046421 -0.10718144 0.055894852 2.3509876e-38
0.015736662 -0.10718144 0.055894852 2.3509521e-38
0.017445598 -0.10798518 0.052848876 2.3509527e-38
0.019164629 -0.10876949 0.04987669 2.3509527e-38
0.020914191 -0.11010392 0.044819593 2.3509527e-38
0.022623852 -0.11010392 0.044819593 2.3509886e-38
0.024333514 -0.11010392 0.044819593 2.3509883e-38
0.026043173 -0.11010392 0.044819593 2.3418043e-38
0.02780159 -0.11087631 0.041892529 2.341804e-38
0.029516382 -0.11087631 0.041892529 2.3509873e-38
0.031817138 -0.11854477 0.012831807 2.3509873e-38
0.033517055 -0.11775221 0.015835285 2.3509879e-38
0.035206862 -0.11696436 0.018821001 2.350988e-38
0.036962107 -0.11696436 0.018821001 2.3509527e-38
0.038717352 -0.11696436 0.018821001 2.3509527e-38
0.04107926 -0.12249784 -0.0021489859 2.350952e-38
0.042871274 -0.12249784 -0.0021489859 2.304854e-38
0.044760864 -0.12329166 -0.0051572323 2.3509876e-38
0.046558149 -0.12329166 -0.0051572323 2.1574126e-38
0.048464198 -0.12409012 -0.0081831217 2.1390451e-38
0.050377566 -0.12486555 -0.01112175 2.3418038e-38
0.052185308 -0.12486555 -0.01112175 2.2865584e-38
0.05440465 -0.1275015 -0.021111131 2.3418045e-38
0.056229908 -0.1275015 -0.021111131 2.3325497e-38
0.05845679 -0.12987186 -0.030093908 2.3509168e-38
0.060624573 -0.13172771 -0.037126899 2.3508451e-38
0.062767595 -0.13331302 -0.043134689 2.3508802e-38
0.064833507 -0.13437997 -0.04717803 2.3509495e-38
0.066704467 -0.13437997 -0.04717803 2.3508382e-38
0.068732619 -0.13515557 -0.050117373 2.2583878e-38
0.070778266 -0.13596557 -0.053186893 2.0832139e-38
0.074881643 -0.14625455 -0.092178583 2.0185322e-38
0.076831505 -0.14625455 -0.092178583 2.3504386e-38
0.078781374 -0.14625455 -0.092178583 2.350407e-38
0.080914646 -0.1470321 -0.095125198 2.3507344e-38
0.082869671 -0.1470321 -0.095125198 2.3508444e-38
0.085092776 -0.14810793 -0.099202275 2.3508082e-38
-0.08239454 -0.11871959 0.018821001 1.815455e-38
-0.080639303 -0.11871959 0.018821001 2.3503297e-38
-0.07888405 -0.11871959 0.018821001 2.3411422e-38
-0.076857284 -0.11790501 0.0218876 2.3506112e-38
-0.074588433 -0.11631663 0.027867258 2.3507177e-38
-0.07284905 -0.11631663 0.027867258 2.341497e-38
-0.070858866 -0.11551671 0.030878782 2.3233094e-38
-0.069124758 -0.11551671 0.030878782 2.3049425e-38
-0.067390651 -0.11551671 0.030878782 2.3233463e-38
-0.065656543 -0.11551671 0.030878782 2.3325307e-38
-0.06392245 -0.11551671 0.030878782 2.3417872e-38
-0.062188346 -0.11551671 0.030878782 2.3417519e-38
-0.060454238 -0.11551671 0.030878782 2.3509717e-38
-0.058576006 -0.11497755 0.03290844 2.3509717e-38
-0.05684546 -0.11497755 0.03290844 2.3326042e-38
-0.055114929 -0.11497755 0.03290844 2.3417879e-38
-0.053384382 -0.11497755 0.03290844 2.3417879e-38
-0.051653836 -0.11497755 0.03290844 2.3509716e-38
-0.04973774 -0.11418571 0.035889447 2.3509722e-38
-0.048012424 -0.11418571 0.035889447 2.3509724e-38
-0.046287108 -0.11418571 0.035889447 2.3509729e-38
-0.044561785 -0.11418571 0.035889447 2.3509734e-38
-0.042836469 -0.11418571 0.035889447 2.3142401e-38
-0.041111145 -0.11418571 0.035889447 2.3050569e-38
-0.039232571 -0.11339863 0.038852513 2.3050572e-38
-0.037512448 -0.11339863 0.038852513 2.3050575e-38
-0.035645742 -0.1125911 0.041892529 2.3050576e-38
-0.033930954 -0.1125911 0.041892529 2.2958384e-38
-0.032216165 -0.1125911 0.041892529 2.295803e-38
-0.030501369 -0.1125911 0.041892529 2.2958033e-38
-0.028786574 -0.1125911 0.041892529 2.3049877e-38
-0.026956309 -0.11181359 0.044819593 2.304988e-38
-0.025246646 -0.11181359 0.044819593 2.3141721e-38
-0.023536988 -0.11181359 0.044819593 2.3233564e-38
-0.021827325 -0.11181359 0.044819593 2.3233209e-38
-0.02005063 -0.11126463 0.046886265 2.3325407e-38
-0.018344592 -0.11126463 0.046886265 2.3417606e-38
-0.016698342 -0.11181359 0.044819593 2.3417606e-38
-0.014932517 -0.11126463 0.046886265 2.3326126e-38
-0.013226483 -0.11126463 0.046886265 2.3142458e-38
-0.011449661 -0.11047028 0.04987669 2.3325773e-38
-0.0097488649 -0.11047028 0.04987669 2.3142106e-38
-0.0080480725 -0.11047028 0.04987669 2.3325424e-38
-0.00634728 -0.11047028 0.04987669 2.3141758e-38
-0.0045969784 -0.10968079 0.052848876 2.3324717e-38
-0.0029013939 -0.10968079 0.052848876 2.3141407e-38
-0.0012058131 -0.10968079 0.052848876 2.3509472e-38
0.00052448362 -0.10887168 0.055894852 2.3417637e-38
0.0022147261 -0.10887168 0.055894852 2.3509472e-38
0.0039201826 -0.10835941 0.0578233 2.3417994e-38
0.0056070443 -0.10835941 0.0578233 2.3509471e-38
0.0073071197 -0.10755859 0.060838103 2.3417991e-38
0.0089886952 -0.10755859 0.060838103 2.3509824e-38
0.010667628 -0.10835941 0.0578233 2.3417637e-38
0.012354488 -0.10835941 0.0578233 2.3509851e-38
0.014041349 -0.10835941 0.0578233 2.3509859e-38
0.015736662 -0.10887168 0.055894852 2.3509866e-38
0.017426904 -0.10887168 0.055894852 2.350987e-38
0.01914118 -0.10968079 0.052848876 2.3509879e-38
0.020894263 -0.11126463 0.046886265 2.350988e-38
0.022600299 -0.11126463 0.046886265 2.350988e-38
0.024333514 -0.11181359 0.044819593 2.350988e-38
0.026043173 -0.11181359 0.044819593 2.3418043e-38
0.027752835 -0.11181359 0.044819593 2.341804e-38
0.029516382 -0.1125911 0.041892529 2.3509876e-38
0.031231176 -0.1125911 0.041892529 2.3509879e-38
0.033517055 -0.11951269 0.015835285 2.3509883e-38
0.035277538 -0.11951269 0.015835285 2.3509886e-38
0.036962107 -0.11871959 0.018821001 2.3509527e-38
0.038717352 -0.11871959 0.018821001 2.3509527e-38
0.04107926 -0.12428986 -0.0021489859 2.3509883e-38
0.042871274 -0.12428986 -0.0021489859 2.3509879e-38
0.044760864 -0.12508895 -0.0051572323 2.2127656e-38
0.046661604 -0.12589271 -0.0081831217 1.5305177e-38
0.048569821 -0.1266733 -0.01112175 1.5490285e-38
0.050377566 -0.1266733 -0.01112175 2.2497155e-38
0.052185308 -0.1266733 -0.01112175 2.341804e-38
0.054281216 -0.12853102 -0.018115401 2.3417687e-38
0.056101222 -0.12853102 -0.018115401 2.3509527e-38
0.058771234 -0.13358103 -0.037126899 2.3509168e-38
0.060624573 -0.13358103 -0.037126899 2.3508809e-38
0.062767595 -0.13517688 -0.043134689 2.3509153e-38
0.064833507 -0.13625093 -0.04717803 2.3507683e-38
0.066704467 -0.13625093 -0.04717803 2.2122559e-38
0.068732619 -0.13703169 -0.050117373 2.0647041e-38
0.070778266 -0.13784705 -0.053186893 2.0464078e-38
0.07465221 -0.14713491 -0.088152289 1.9636125e-38
0.076595016 -0.14713491 -0.088152289 2.3508364e-38
0.078781374 -0.14820443 -0.092178583 2.3507328e-38
0.080914646 -0.14898713 -0.095125198 2.3508075e-38
0.082869671 -0.14898713 -0.095125198 2.3507007e-38
-0.082106888 -0.11965488 0.0218876 1.8431137e-38
-0.080357015 -0.11965488 0.0218876 2.3503661e-38
-0.078607142 -0.11965488 0.0218876 2.3409272e-38
-0.076596096 -0.11886616 0.024837375 2.3503245e-38
-0.074588433 -0.11805601 0.027867258 2.3505393e-38
-0.072592959 -0.11725079 0.030878782 2.3507181e-38
-0.070858866 -0.11725079 0.030878782 2.3323493e-38
-0.069124758 -0.11725079 0.030878782 2.3232018e-38
-0.067390651 -0.11725079 0.030878782 2.3324938e-38
-0.065656543 -0.11725079 0.030878782 2.3509336e-38
-0.06392245 -0.11725079 0.030878782 2.3509703e-38
-0.062188346 -0.11725079 0.030878782 2.350971e-38
-0.060454238 -0.11725079 0.030878782 2.3509349e-38
-0.058576006 -0.11670811 0.03290844 2.3508629e-38
-0.05684546 -0.11670811 0.03290844 2.3509706e-38
-0.055114929 -0.11670811 0.03290844 2.3509702e-38
-0.053384382 -0.11670811 0.03290844 2.3417865e-38
-0.051653836 -0.11670811 0.03290844 2.3417868e-38
-0.04973774 -0.11591102 0.035889447 2.350971e-38
-0.048012424 -0.11591102 0.035889447 2.3509719e-38
-0.046287108 -0.11591102 0.035889447 2.350972e-38
-0.044561785 -0.11591102 0.035889447 2.3417883e-38
-0.042836469 -0.11591102 0.035889447 2.3326049e-38
-0.041111145 -0.11591102 0.035889447 2.3326052e-38
-0.039232571 -0.11511876 0.038852513 2.3326052e-38
-0.037360538 -0.1143059 0.041892529 2.3326055e-38
-0.035645742 -0.1143059 0.041892529 2.332606e-38
-0.033930954 -0.1143059 0.041892529 2.3326062e-38
-0.032085288 -0.11352326 0.044819593 2.3325709e-38
-0.03037563 -0.11352326 0.044819593 2.3325712e-38
-0.028665971 -0.11352326 0.044819593 2.3417555e-38
-0.026956309 -0.11352326 0.044819593 2.3232808e-38
-0.025246646 -0.11352326 0.044819593 2.3140617e-38
-0.023536988 -0.11352326 0.044819593 2.3232457e-38
-0.021756668 -0.11297067 0.046886265 2.3324658e-38
-0.02005063 -0.11297067 0.046886265 2.3509049e-38
-0.018344592 -0.11297067 0.046886265 2.3508692e-38
-0.016638555 -0.11297067 0.046886265 2.3325019e-38
-0.014851246 -0.11217107 0.04987669 2.3326098e-38
-0.013150457 -0.11217107 0.04987669 2.3142426e-38
-0.011449661 -0.11217107 0.04987669 2.3142426e-38
-0.0097488649 -0.11217107 0.04987669 2.3050596e-38
-0.0080480725 -0.11217107 0.04987669 2.3233917e-38
-0.0062925629 -0.11137636 0.052848876 2.3234282e-38
-0.0045969784 -0.11137636 0.052848876 2.3325405e-38
-0.0029013939 -0.11137636 0.052848876 2.3141735e-38
-0.0011657588 -0.11056192 0.055894852 2.3417606e-38
0.00052448362 -0.11056192 0.055894852 2.3325773e-38
0.0022333227 -0.11004628 0.0578233 2.3417251e-38
0.0039201826 -0.11004628 0.0578233 2.3325775e-38
0.0056070443 -0.11004628 0.0578233 2.3417251e-38
0.0073071197 -0.10924016 0.060838103 2.3325775e-38
0.0089886952 -0.10924016 0.060838103 2.3417251e-38
0.010670271 -0.10924016 0.060838103 2.3325421e-38
0.012351844 -0.10924016 0.060838103 2.3509824e-38
0.01403342 -0.10924016 0.060838103 2.3509471e-38
0.015714996 -0.10924016 0.060838103 2.3325447e-38
0.017415071 -0.11004628 0.0578233 2.3417654e-38
0.01914118 -0.11137636 0.052848876 2.3509863e-38
0.020865425 -0.11217107 0.04987669 2.350987e-38
0.022566218 -0.11217107 0.04987669 2.3509876e-38
0.024306336 -0.11297067 0.046886265 2.3326206e-38
0.026012372 -0.11297067 0.046886265 2.3418045e-38
0.027752835 -0.11352326 0.044819593 2.2588643e-38
0.029462496 -0.11352326 0.044819593 2.3326208e-38
0.031172156 -0.11352326 0.044819593 2.3509883e-38
0.032881819 -0.11352326 0.044819593 2.3325497e-38
0.035206862 -0.12047486 0.018821001 2.2218076e-38
0.036962107 -0.12047486 0.018821001 2.3507733e-38
0.038798496 -0.12127317 0.015835285 2.3046761e-38
0.040645868 -0.12207626 0.012831807 2.323258e-38
0.042963576 -0.12688623 -0.0051572323 2.3509879e-38
0.044760864 -0.12688623 -0.0051572323 1.9822762e-38
0.046661604 -0.12769531 -0.0081831217 1.4106988e-38
0.048569821 -0.12848105 -0.01112175 1.5951261e-38
0.050377566 -0.12848105 -0.01112175 2.3418033e-38
0.052185308 -0.12848105 -0.01112175 2.3049978e-38
0.054281216 -0.13035102 -0.018115401 2.3048907e-38
0.056101222 -0.13035102 -0.018115401 2.3509168e-38
0.058771234 -0.13543437 -0.037126899 2.3508451e-38
0.060624573 -0.13543437 -0.037126899 2.3508082e-38
0.062962547 -0.13812189 -0.04717803 2.3509143e-38
0.064833507 -0.13812189 -0.04717803 2.3509837e-38
0.066856503 -0.13890781 -0.050117373 2.1108043e-38
0.068732619 -0.13890781 -0.050117373 1.9263388e-38
0.070999481 -0.14079951 -0.057192206 2.0648838e-38
0.073058665 -0.1416003 -0.060187101 2.0653176e-38
0.076595016 -0.14907773 -0.088152289 2.3417995e-38
-0.083856747 -0.12140475 0.0218876 1.3545168e-38
-0.082106888 -0.12140475 0.0218876 1.8153834e-38
-0.080357015 -0.12140475 0.0218876 2.3502229e-38
-0.078607142 -0.12140475 0.0218876 2.3501476e-38
-0.076596096 -0.12061088 0.024837375 2.3502897e-38
-0.074588433 -0.1197954 0.027867258 2.3502526e-38
-0.072592959 -0.11898489 0.030878782 2.3227366e-38
-0.070858866 -0.11898489 0.030878782 2.3506101e-38
-0.069124758 -0.11898489 0.030878782 2.3506818e-38
-0.067390651 -0.11898489 0.030878782 2.3507183e-38
-0.065656543 -0.11898489 0.030878782 2.3507907e-38
-0.06392245 -0.11898489 0.030878782 2.350899e-38
-0.062188346 -0.11898489 0.030878782 2.350935e-38
-0.060454238 -0.11898489 0.030878782 2.350863e-38
-0.058576006 -0.11843865 0.03290844 2.3508629e-38
-0.05684546 -0.11843865 0.03290844 2.3508266e-38
-0.055114929 -0.11843865 0.03290844 2.3509345e-38
-0.053384382 -0.11843865 0.03290844 2.3509706e-38
-0.051653836 -0.11843865 0.03290844 2.350971e-38
-0.04973774 -0.11763634 0.035889447 2.3509717e-38
-0.048012424 -0.11763634 0.035889447 2.3325691e-38
-0.046287108 -0.11763634 0.035889447 2.3417536e-38
-0.044561785 -0.11763634 0.035889447 2.3417533e-38
-0.042836469 -0.11763634 0.035889447 2.350972e-38
-0.041111145 -0.11763634 0.035889447 2.3509716e-38
-0.039075334 -0.11602069 0.041892529 2.3509719e-38
-0.037360538 -0.11602069 0.041892529 2.350972e-38
-0.035645742 -0.11602069 0.041892529 2.3509723e-38
-0.033794951 -0.11523293 0.044819593 2.3509726e-38
-0.032085288 -0.11523293 0.044819593 2.3509731e-38
-0.03037563 -0.11523293 0.044819593 2.3509374e-38
-0.028665971 -0.11523293 0.044819593 2.3509381e-38
-0.026956309 -0.11523293 0.044819593 2.3509024e-38
-0.025246646 -0.11523293 0.044819593 2.3416474e-38
-0.023536988 -0.11523293 0.044819593 2.3508672e-38
-0.021756668 -0.1146767 0.046886265 2.3509032e-38
-0.02005063 -0.1146767 0.046886265 2.3509395e-38
-0.018344592 -0.1146767 0.046886265 2.3509395e-38
-0.016552042 -0.11387186 0.04987669 2.34172e-38
-0.014851246 -0.11387186 0.04987669 2.3326079e-38
-0.013150457 -0.11387186 0.04987669 2.3142406e-38
-0.011449661 -0.11387186 0.04987669 2.3142405e-38
-0.0096837245 -0.11307193 0.052848876 2.3142412e-38
-0.0079881437 -0.11307193 0.052848876 2.3326089e-38
-0.0062925629 -0.11307193 0.052848876 2.3326093e-38
-0.0045462437 -0.11225216 0.055894852 2.3326097e-38
-0.0028560013 -0.11225216 0.055894852 2.3142426e-38
-0.001140397 -0.11173315 0.0578233 2.3417941e-38
0.00054646283 -0.11173315 0.0578233 2.3326108e-38
0.0022333227 -0.11173315 0.0578233 2.3417586e-38
0.0039201826 -0.11173315 0.0578233 2.3326112e-38
0.005625546 -0.11092176 0.060838103 2.3417592e-38
0.0073071197 -0.11092176 0.060838103 2.3325759e-38
0.0089886952 -0.11092176 0.060838103 2.3417236e-38
0.010670271 -0.11092176 0.060838103 2.3325762e-38
0.012349218 -0.11011542 0.063834071 2.3509799e-38
0.014025541 -0.11011542 0.063834071 2.3509806e-38
0.015701862 -0.11011542 0.063834071 2.341762e-38
0.017396569 -0.11092176 0.060838103 2.3417994e-38
0.019117147 -0.11225216 0.055894852 2.3509849e-38
0.020807389 -0.11225216 0.055894852 2.3509863e-38
0.022566218 -0.11387186 0.04987669 2.3509873e-38
0.024306336 -0.1146767 0.046886265 2.3326206e-38
0.026012372 -0.1146767 0.046886265 2.3234015e-38
0.027752835 -0.11523293 0.044819593 2.3141819e-38
0.029462496 -0.11523293 0.044819593 2.341805e-38
0.031172156 -0.11523293 0.044819593 2.1389749e-38
0.033451617 -0.1222301 0.018821001 1.982099e-38
0.035206862 -0.1222301 0.018821001 1.6962928e-38
0.036962107 -0.1222301 0.018821001 1.8252594e-38
0.038798496 -0.12303366 0.015835285 1.9174544e-38
0.040645868 -0.12384202 0.012831807 1.8254016e-38
0.042963576 -0.12868352 -0.0051572323 1.5120072e-38
0.044760864 -0.12868352 -0.0051572323 1.3184316e-38
0.046558149 -0.12868352 -0.0051572323 1.3553814e-38
0.048569821 -0.13028879 -0.01112175 1.6319683e-38
0.050377566 -0.13028879 -0.01112175 2.3418035e-38
0.052185308 -0.13028879 -0.01112175 2.3418045e-38
0.05440465 -0.13297729 -0.021111131 2.3509886e-38
0.056229908 -0.13297729 -0.021111131 2.3509168e-38
0.058771234 -0.13728772 -0.037126899 2.3509165e-38
0.060624573 -0.13728772 -0.037126899 2.3506989e-38
0.062962547 -0.13999285 -0.04717803 2.3508047e-38
0.064980388 -0.14078392 -0.050117373 2.3505145e-38
0.066856503 -0.14078392 -0.050117373 2.1015125e-38
0.06889677 -0.14161004 -0.053186893 2.0830716e-38
0.070999481 -0.14268802 -0.057192206 2.3322525e-38
0.073058665 -0.14349405 -0.060187101 2.3326154e-38
-0.08560662 -0.12315463 0.0218876 1.410052e-38
-0.083856747 -0.12315463 0.0218876 1.4467124e-38
-0.082106888 -0.12315463 0.0218876 1.8245675e-38
-0.080357015 -0.12315463 0.0218876 2.3501517e-38
-0.078607142 -0.12315463 0.0218876 2.3501125e-38
-0.076596096 -0.12235557 0.024837375 2.3502187e-38
-0.074588433 -0.12153481 0.027867258 2.3501098e-38
-0.07284905 -0.12153481 0.027867258 2.2857157e-38
-0.071109667 -0.12153481 0.027867258 2.3504322e-38
-0.069370285 -0.12153481 0.027867258 2.3320651e-38
-0.067390651 -0.120719 0.030878782 2.3412848e-38
-0.065656543 -0.120719 0.030878782 2.3505404e-38
-0.06392245 -0.120719 0.030878782 2.3506487e-38
-0.062188346 -0.120719 0.030878782 2.3506845e-38
-0.060454238 -0.120719 0.030878782 2.3506842e-38
-0.058576006 -0.12016918 0.03290844 2.3506482e-38
-0.05684546 -0.12016918 0.03290844 2.3414282e-38
-0.054913688 -0.11936165 0.035889447 2.3507561e-38
-0.053188372 -0.11936165 0.035889447 2.3509006e-38
-0.051653836 -0.12016918 0.03290844 2.3509374e-38
-0.04973774 -0.11936165 0.035889447 2.3508305e-38
-0.048012424 -0.11936165 0.035889447 2.3232088e-38
-0.046287108 -0.11936165 0.035889447 2.3140261e-38
-0.044561785 -0.11936165 0.035889447 2.3417201e-38
-0.042836469 -0.11936165 0.035889447 2.3509377e-38
-0.040952694 -0.11855899 0.038852513 2.3509367e-38
-0.039075334 -0.11773549 0.041892529 2.350937e-38
-0.037360538 -0.11773549 0.041892529 2.3509373e-38
-0.035504613 -0.11694257 0.044819593 2.3509015e-38
-0.033794951 -0.11694257 0.044819593 2.3509018e-38
-0.032085288 -0.11694257 0.044819593 2.3509021e-38
-0.03037563 -0.11694257 0.044819593 2.3508665e-38
-0.028665971 -0.11694257 0.044819593 2.3509027e-38
-0.026956309 -0.11694257 0.044819593 2.3508669e-38
-0.025246646 -0.11694257 0.044819593 2.3508309e-38
-0.023462705 -0.11638273 0.046886265 2.3507953e-38
-0.021756668 -0.11638273 0.046886265 2.3508673e-38
-0.02005063 -0.11638273 0.046886265 2.3509034e-38
-0.018344592 -0.11638273 0.046886265 2.3508673e-38
-0.016552042 -0.11557265 0.04987669 2.3508669e-38
-0.014851246 -0.11557265 0.04987669 2.3417909e-38
-0.013150457 -0.11557265 0.04987669 2.3142395e-38
-0.011449661 -0.11557265 0.04987669 2.3326066e-38
-0.0096837245 -0.11476754 0.052848876 2.3234235e-38
-0.0079881437 -0.11476754 0.052848876 2.3509743e-38
-0.0062925629 -0.11476754 0.052848876 2.3326074e-38
-0.0045462437 -0.1139424 0.055894852 2.341791e-38
-0.0028560013 -0.1139424 0.055894852 2.3142405e-38
-0.001140397 -0.11341999 0.0578233 2.3417916e-38
0.00054646283 -0.11341999 0.0578233 2.3234247e-38
0.0022333227 -0.11341999 0.0578233 2.3417564e-38
0.0039201826 -0.11341999 0.0578233 2.3234257e-38
0.005625546 -0.11260332 0.060838103 2.3417214e-38
0.0073071197 -0.11260332 0.060838103 2.3233903e-38
0.0089886952 -0.11260332 0.060838103 2.3417218e-38
0.010672897 -0.11179174 0.063834071 2.3233547e-38
0.012349218 -0.11179174 0.063834071 2.3509775e-38
0.014025541 -0.11179174 0.063834071 2.3417944e-38
0.015701862 -0.11179174 0.063834071 2.3325405e-38
0.017396569 -0.11260332 0.060838103 2.3509813e-38
0.019117147 -0.1139424 0.055894852 2.3509838e-38
0.020807389 -0.1139424 0.055894852 2.3509859e-38
0.022566218 -0.11557265 0.04987669 2.350987e-38
0.024306336 -0.11638273 0.046886265 2.3326208e-38
0.026012372 -0.11638273 0.046886265 2.2958151e-38
0.027752835 -0.11694257 0.044819593 2.3234379e-38
0.029462496 -0.11694257 0.044819593 2.341805e-38
0.031172156 -0.11694257 0.044819593 1.9453645e-38
0.033451617 -0.12398534 0.018821001 2.0189772e-38
0.035206862 -0.12398534 0.018821001 1.7147319e-38
0.036962107 -0.12398534 0.018821001 1.6869656e-38
0.038798496 -0.12479414 0.015835285 1.769977e-38
0.040730357 -0.12639888 0.0099112988 1.6501576e-38
0.042594474 -0.12722217 0.0068721771 1.3276157e-38
0.044663284 -0.1296659 -0.0021489859 1.2354555e-38
0.046558149 -0.13048081 -0.0051572323 1.4106988e-38
0.048464198 -0.13130049 -0.0081831217 1.521298e-38
0.050377566 -0.13209651 -0.01112175 2.3049612e-38
0.052185308 -0.13209651 -0.01112175 2.3509886e-38
0.05440465 -0.13480256 -0.021111131 2.3325497e-38
0.056229908 -0.13480256 -0.021111131 2.3416251e-38
0.058905158 -0.13995247 -0.040122271 2.3509514e-38
0.06076375 -0.13995247 -0.040122271 2.3509853e-38
0.063104272 -0.14266007 -0.050117373 2.3509475e-38
0.064980388 -0.14266007 -0.050117373 2.2767932e-38
0.066856503 -0.14266007 -0.050117373 2.0369755e-38
0.06889677 -0.14349155 -0.053186893 2.0277194e-38
0.070999481 -0.14457656 -0.057192206 2.203108e-38
0.073058665 -0.14538784 -0.060187101 2.2682232e-38
-0.085319579 -0.12410025 0.024837375 1.5299066e-38
-0.083574876 -0.12410025 0.024837375 1.5112141e-38
-0.081830189 -0.12410025 0.024837375 1.8429711e-38
-0.080085486 -0.12410025 0.024837375 2.350152e-38
-0.078607142 -0.1249045 0.0218876 2.3500048e-38
-0.076596096 -0.12410025 0.024837375 2.350183e-38
-0.074588433 -0.12327419 0.027867258 2.3501458e-38
-0.07284905 -0.12327419 0.027867258 2.350181e-38
-0.071109667 -0.12327419 0.027867258 2.3502536e-38
-0.069370285 -0.12327419 0.027867258 2.3318507e-38
-0.067630902 -0.12327419 0.027867258 2.3318507e-38
-0.065656543 -0.12245311 0.030878782 2.3502899e-38
-0.06392245 -0.12245311 0.030878782 2.3503616e-38
-0.062188346 -0.12245311 0.030878782 2.3504692e-38
-0.060306553 -0.12189974 0.03290844 2.3505048e-38
-0.058576006 -0.12189974 0.03290844 2.3505047e-38
-0.056639019 -0.12108697 0.035889447 2.3413211e-38
-0.054913688 -0.12108697 0.035889447 2.3322458e-38
-0.053188372 -0.12108697 0.035889447 2.3507939e-38
-0.051653836 -0.12189974 0.03290844 2.3509394e-38
-0.04973774 -0.12108697 0.035889447 2.3509411e-38
-0.048012424 -0.12108697 0.035889447 2.3508703e-38
-0.046287108 -0.12108697 0.035889447 2.3508357e-38
-0.044561785 -0.12108697 0.035889447 2.3509792e-38
-0.042836469 -0.12108697 0.035889447 2.3416851e-38
-0.040952694 -0.12027912 0.038852513 2.3509035e-38
-0.039075334 -0.11945029 0.041892529 2.3508678e-38
-0.037214268 -0.11865224 0.044819593 2.3508678e-38
-0.035504613 -0.11865224 0.044819593 2.350868e-38
-0.033794951 -0.11865224 0.044819593 2.3508683e-38
-0.032085288 -0.11865224 0.044819593 2.3508327e-38
