# .PCD v0.7 - Point Cloud Data file format
VERSION 0.7
FIELDS x y z rgb
SIZE 4 4 4 4
TYPE F F F F
COUNT 1 1 1 1
WIDTH 945
HEIGHT 1
VIEWPOINT 0 0 0 1 0 0 0
POINTS 945
DATA ascii
0.049653724 -0.11150609 0.0062152115 2.3509883e-38
0.051050536 -0.10908265 0.016267415 2.3509886e-38
0.052914411 -0.10908265 0.016267415 2.3509886e-38
0.054467544 -0.10763429 0.022275206 2.3509886e-38
0.056161605 -0.10691623 0.02525365 2.3509527e-38
0.058009721 -0.10691623 0.02525365 2.3509527e-38
0.059626795 -0.10593875 0.029308196 2.332621e-38
0.061467804 -0.10593875 0.029308196 2.3142539e-38
0.06330882 -0.10593875 0.029308196 2.3142542e-38
0.06658721 -0.11150609 0.0062152115 2.3234379e-38
0.068468712 -0.11150609 0.0062152115 2.3234379e-38
0.070350207 -0.11150609 0.0062152115 2.3234379e-38
0.072024502 -0.11076607 0.009284731 2.3234379e-38
0.073900625 -0.11076607 0.009284731 2.3234379e-38
0.075776741 -0.11076607 0.009284731 2.3417691e-38
0.077652857 -0.11076607 0.009284731 2.3417691e-38
0.07930994 -0.11005743 0.012224074 2.3417691e-38
0.081180908 -0.11005743 0.012224074 2.3417691e-38
0.083281197 -0.11076607 0.009284731 2.3417333e-38
0.085157312 -0.11076607 0.009284731 2.3417333e-38
0.086793788 -0.11005743 0.012224074 2.3417333e-38
0.088664748 -0.11005743 0.012224074 2.3509164e-38
0.090785675 -0.11076607 0.009284731 2.3509514e-38
0.092661791 -0.11076607 0.009284731 2.3509863e-38
0.094537906 -0.11076607 0.009284731 2.3509853e-38
0.096414022 -0.11076607 0.009284731 2.3509838e-38
0.098941378 -0.11247168 0.0022098986 2.3233949e-38
0.10111082 -0.11319371 -0.00078499643 2.3049894e-38
0.10338124 -0.11414395 -0.0047265324 2.3048435e-38
0.10586254 -0.11558239 -0.010693077 2.3322847e-38
0.10777367 -0.11558239 -0.010693077 2.3412874e-38
0.11008953 -0.11655019 -0.01470745 2.3503632e-38
0.11200771 -0.11655019 -0.01470745 2.3040865e-38
0.11350711 -0.11558239 -0.010693077 2.0090266e-38
0.11541825 -0.11558239 -0.010693077 1.575746e-38
0.1173294 -0.11558239 -0.010693077 3.8653417e-39
-0.12480437 -0.1245618 -0.039800171 1.9360717e-38
-0.12284219 -0.1245618 -0.039800171 2.3509883e-38
-0.12088002 -0.1245618 -0.039800171 2.3509883e-38
-0.11848535 -0.12357174 -0.035723094 2.3509883e-38
-0.11622291 -0.12285618 -0.032776479 2.3233299e-38
-0.11427305 -0.12285618 -0.032776479 2.3509886e-38
-0.11191726 -0.12187846 -0.028750185 2.3326213e-38
-0.10997447 -0.12187846 -0.028750185 2.341805e-38
-0.10803167 -0.12187846 -0.028750185 2.3509886e-38
-0.10608885 -0.12187846 -0.028750185 2.3509886e-38
-0.10386176 -0.12114246 -0.025719408 2.3509883e-38
-0.10192426 -0.12114246 -0.025719408 2.2126588e-38
-0.099986769 -0.12114246 -0.025719408 2.3509521e-38
-0.098049276 -0.12114246 -0.025719408 2.3509879e-38
-0.096111797 -0.12114246 -0.025719408 2.3509521e-38
-0.094174303 -0.12114246 -0.025719408 2.3509517e-38
-0.091905721 -0.12017711 -0.021744017 2.350987e-38
-0.089975201 -0.12017711 -0.021744017 2.3509869e-38
-0.087729819 -0.11921866 -0.017797235 2.3509149e-38
-0.085565142 -0.11846836 -0.01470745 2.314001e-38
-0.083646961 -0.11846836 -0.01470745 2.2956345e-38
-0.081429638 -0.11749353 -0.010693077 2.350988e-38
-0.079518504 -0.11749353 -0.010693077 2.3509886e-38
-0.077399082 -0.11678131 -0.0077601704 2.3048907e-38
-0.07549309 -0.11678131 -0.0077601704 2.341805e-38
-0.073587082 -0.11678131 -0.0077601704 2.341805e-38
-0.071681075 -0.11678131 -0.0077601704 2.3509886e-38
-0.069775082 -0.11678131 -0.0077601704 2.341769e-38
-0.067869075 -0.11678131 -0.0077601704 2.3417687e-38
-0.065779574 -0.11604463 -0.0047265324 2.350988e-38
-0.063878886 -0.11604463 -0.0047265324 2.350988e-38
-0.061978199 -0.11604463 -0.0047265324 2.350988e-38
-0.059859835 -0.11508749 -0.00078499643 2.3509883e-38
-0.057805903 -0.1143602 0.0022098986 2.3509886e-38
-0.055917375 -0.1143602 0.0022098986 2.3509886e-38
-0.054028861 -0.1143602 0.0022098986 2.3509886e-38
-0.052140333 -0.1143602 0.0022098986 2.3509886e-38
-0.050251819 -0.1143602 0.0022098986 2.3509886e-38
-0.048184216 -0.11338757 0.0062152115 2.3509886e-38
-0.046302713 -0.11338757 0.0062152115 2.3509886e-38
-0.044421218 -0.11338757 0.0062152115 2.3509886e-38
-0.042539723 -0.11338757 0.0062152115 2.3509886e-38
-0.040658221 -0.11338757 0.0062152115 2.3509886e-38
-0.038776718 -0.11338757 0.0062152115 2.3509886e-38
-0.036790274 -0.11264218 0.009284731 2.3509886e-38
-0.034914158 -0.11264218 0.009284731 2.3509886e-38
-0.032947853 -0.11192839 0.012224074 2.3509886e-38
-0.031076888 -0.11192839 0.012224074 2.3509886e-38
-0.029205924 -0.11192839 0.012224074 2.3509886e-38
-0.027334964 -0.11192839 0.012224074 2.3509886e-38
-0.025463996 -0.11192839 0.012224074 2.3509886e-38
-0.023593036 -0.11192839 0.012224074 2.3509886e-38
-0.021722073 -0.11192839 0.012224074 2.3509886e-38
-0.019851109 -0.11192839 0.012224074 2.3509886e-38
-0.019345054 -0.13182731 -0.069719553 2.3509886e-38
-0.016109182 -0.11192839 0.012224074 2.3509886e-38
-0.014238222 -0.11192839 0.012224074 2.3509886e-38
-0.012367254 -0.11192839 0.012224074 2.3509886e-38
-0.010496294 -0.11192839 0.012224074 2.3509886e-38
-0.0086253304 -0.11192839 0.012224074 2.3509886e-38
-0.0067543667 -0.11192839 0.012224074 2.3509886e-38
-0.0048962887 -0.11264218 0.009284731 2.3509886e-38
-0.0030282438 -0.11338757 0.0062152115 2.3509886e-38
-0.0011440534 -0.11264218 0.009284731 2.3509883e-38
0.00073206238 -0.11264218 0.009284731 2.3509883e-38
0.00260818 -0.11264218 0.009284731 2.350988e-38
0.0044714119 -0.11192839 0.012224074 2.350988e-38
0.0063423757 -0.11192839 0.012224074 2.3418043e-38
0.0081814369 -0.11094652 0.016267415 2.3417687e-38
0.01004531 -0.11094652 0.016267415 2.3417687e-38
0.011909185 -0.11094652 0.016267415 2.3417687e-38
0.013773059 -0.11094652 0.016267415 2.3417687e-38
0.015636932 -0.11094652 0.016267415 2.3509883e-38
0.017500807 -0.11094652 0.016267415 2.3509883e-38
0.020064471 -0.12017711 -0.021744017 2.3509883e-38
0.021994991 -0.12017711 -0.021744017 2.3509883e-38
0.023771293 -0.11846836 -0.01470745 2.3509886e-38
0.025525035 -0.11678131 -0.0077601704 2.3509886e-38
0.027431037 -0.11678131 -0.0077601704 2.3509886e-38
0.029416746 -0.11749353 -0.010693077 2.3509886e-38
0.029824115 -0.10487093 0.041286703 2.3509527e-38
0.031644121 -0.10487093 0.041286703 2.3509527e-38
0.033464126 -0.10487093 0.041286703 2.3509886e-38
0.035593189 -0.10706602 0.032247301 2.3509886e-38
0.03721182 -0.10559841 0.038290974 2.3509883e-38
0.038097456 -0.099545494 0.063216805 2.350988e-38
0.039879017 -0.099545494 0.063216805 2.3509879e-38
0.04166057 -0.099545494 0.063216805 2.3509876e-38
0.046062782 -0.1143602 0.0022098986 2.3509879e-38
0.047951303 -0.1143602 0.0022098986 2.3509879e-38
0.049653724 -0.11338757 0.0062152115 2.350988e-38
0.050760858 -0.10948761 0.022275206 2.3509883e-38
0.052614205 -0.10948761 0.022275206 2.3509886e-38
0.054313488 -0.10876434 0.02525365 2.3417691e-38
0.055944778 -0.10777976 0.029308196 2.3417333e-38
0.057785787 -0.10777976 0.029308196 2.3417691e-38
0.059626795 -0.10777976 0.029308196 2.3326213e-38
0.061467804 -0.10777976 0.029308196 2.3142539e-38
0.06330882 -0.10777976 0.029308196 2.3142542e-38
0.065149829 -0.10777976 0.029308196 2.3142544e-38
0.067825407 -0.11094652 0.016267415 2.3142544e-38
0.069689274 -0.11094652 0.016267415 2.3142544e-38
0.071553148 -0.11094652 0.016267415 2.3142544e-38
0.073697053 -0.11192839 0.012224074 2.3142544e-38
0.075568013 -0.11192839 0.012224074 2.3234379e-38
0.077144772 -0.11094652 0.016267415 2.3234379e-38
0.078339025 -0.10876434 0.02525365 2.341805e-38
0.080187142 -0.10876434 0.02525365 2.341805e-38
0.082035258 -0.10876434 0.02525365 2.3509883e-38
0.084120981 -0.10948761 0.022275206 2.350988e-38
0.085974328 -0.10948761 0.022275206 2.3509879e-38
0.088077135 -0.11021499 0.019279834 2.3509869e-38
0.090191893 -0.11094652 0.016267415 2.3509851e-38
0.092406683 -0.11192839 0.012224074 2.3509838e-38
0.094277643 -0.11192839 0.012224074 2.350983e-38
0.096148603 -0.11192839 0.012224074 2.3509088e-38
0.098572694 -0.11338757 0.0062152115 2.2955538e-38
0.10045419 -0.11338757 0.0062152115 2.2586014e-38
0.1030046 -0.11508749 -0.00078499643 2.2584555e-38
0.10528193 -0.11604463 -0.0047265324 2.3043718e-38
0.10748313 -0.11678131 -0.0077601704 2.3501448e-38
0.10968482 -0.11749353 -0.010693077 2.3501092e-38
0.11200771 -0.11846836 -0.01470745 2.3222004e-38
0.11350711 -0.11749353 -0.010693077 2.0180293e-38
0.11541825 -0.11749353 -0.010693077 1.6032961e-38
0.1173294 -0.11749353 -0.010693077 4.1419244e-39
-0.12480437 -0.12652399 -0.039800171 1.9176324e-38
-0.12284219 -0.12652399 -0.039800171 2.3509523e-38
-0.12088002 -0.12652399 -0.039800171 2.3509883e-38
-0.11848535 -0.12552677 -0.035723094 2.3509883e-38
-0.11622291 -0.12480606 -0.032776479 2.3141103e-38
-0.11427305 -0.12480606 -0.032776479 2.3509886e-38
-0.11191726 -0.12382124 -0.028750185 2.3326213e-38
-0.10967422 -0.12307997 -0.025719408 2.341805e-38
-0.10773673 -0.12307997 -0.025719408 2.3325494e-38
-0.10579925 -0.12307997 -0.025719408 2.31411e-38
-0.10414606 -0.12382124 -0.028750185 2.3232936e-38
-0.10192426 -0.12307997 -0.025719408 2.0190477e-38
-0.099986769 -0.12307997 -0.025719408 2.304782e-38
-0.098049276 -0.12307997 -0.025719408 2.3509876e-38
-0.096111797 -0.12307997 -0.025719408 2.3415881e-38
-0.094174303 -0.12307997 -0.025719408 2.1111346e-38
-0.091905721 -0.12210761 -0.021744017 1.9543296e-38
-0.089975201 -0.12210761 -0.021744017 1.9451097e-38
-0.087729819 -0.12114228 -0.017797235 2.2032578e-38
-0.085565142 -0.12038656 -0.01470745 2.350987e-38
-0.083646961 -0.12038656 -0.01470745 2.3509876e-38
-0.081429638 -0.11940466 -0.010693077 2.3509518e-38
-0.079518504 -0.11940466 -0.010693077 2.3509883e-38
-0.077399082 -0.11868732 -0.0077601704 2.3233299e-38
-0.07549309 -0.11868732 -0.0077601704 2.3509886e-38
-0.073587082 -0.11868732 -0.0077601704 2.341805e-38
-0.071481623 -0.11794533 -0.0047265324 2.341769e-38
-0.069580935 -0.11794533 -0.0047265324 2.3417687e-38
-0.067680247 -0.11794533 -0.0047265324 2.3418043e-38
-0.065779574 -0.11794533 -0.0047265324 2.3418042e-38
-0.063647367 -0.11698125 -0.00078499643 2.3509879e-38
-0.061753601 -0.11698125 -0.00078499643 2.3509879e-38
-0.059694417 -0.11624874 0.0022098986 2.3509883e-38
-0.057805903 -0.11624874 0.0022098986 2.3509886e-38
-0.055917375 -0.11624874 0.0022098986 2.3509886e-38
-0.054028861 -0.11624874 0.0022098986 2.3509886e-38
-0.051947214 -0.11526908 0.0062152115 2.3509886e-38
-0.050065719 -0.11526908 0.0062152115 2.3509886e-38
-0.048184216 -0.11526908 0.0062152115 2.3509886e-38
-0.046302713 -0.11526908 0.0062152115 2.3509886e-38
-0.044421218 -0.11526908 0.0062152115 2.3509886e-38
-0.042539723 -0.11526908 0.0062152115 2.3509886e-38
-0.040658221 -0.11526908 0.0062152115 2.3509886e-38
-0.038776718 -0.11526908 0.0062152115 2.3509886e-38
-0.036790274 -0.1145183 0.009284731 2.3509886e-38
-0.034914158 -0.1145183 0.009284731 2.3509886e-38
-0.032947853 -0.11379938 0.012224074 2.3509886e-38
-0.031076888 -0.11379938 0.012224074 2.3509886e-38
-0.029205924 -0.11379938 0.012224074 2.3509886e-38
-0.027334964 -0.11379938 0.012224074 2.3509886e-38
-0.025463996 -0.11379938 0.012224074 2.3509886e-38
-0.023593036 -0.11379938 0.012224074 2.3509886e-38
-0.021640545 -0.11281042 0.016267415 2.3509886e-38
-0.01977667 -0.11281042 0.016267415 2.3509886e-38
-0.01786262 -0.11207359 0.019279834 2.3509886e-38
-0.016004028 -0.11207359 0.019279834 2.3509886e-38
-0.014185051 -0.11281042 0.016267415 2.3509886e-38
-0.012321176 -0.11281042 0.016267415 2.3509886e-38
-0.010428252 -0.11207359 0.019279834 2.3509886e-38
-0.0085696597 -0.11207359 0.019279834 2.3509886e-38
-0.0067295544 -0.11281042 0.016267415 2.3509886e-38
-0.004883403 -0.11379938 0.012224074 2.3509886e-38
-0.0030018073 -0.11281042 0.016267415 2.3509886e-38
-0.0011379328 -0.11281042 0.016267415 2.3509883e-38
0.00072594173 -0.11281042 0.016267415 2.3418042e-38
0.0026004501 -0.11379938 0.012224074 2.3418039e-38
0.0044714119 -0.11379938 0.012224074 2.3509876e-38
0.0063175634 -0.11281042 0.016267415 2.3509876e-38
0.0081576686 -0.11207359 0.019279834 2.3509879e-38
0.010016261 -0.11207359 0.019279834 2.3509879e-38
0.011909185 -0.11281042 0.016267415 2.3509879e-38
0.013733446 -0.11207359 0.019279834 2.350988e-38
0.015592037 -0.11207359 0.019279834 2.350988e-38
0.017351126 -0.11061247 0.02525365 2.3509883e-38
0.018959226 -0.10742365 0.038290974 2.3509883e-38
0.020784486 -0.10742365 0.038290974 2.3509883e-38
0.022609744 -0.10742365 0.038290974 2.3509886e-38
0.024506325 -0.10816063 0.03527784 2.3509886e-38
0.026336867 -0.10816063 0.03527784 2.3509886e-38
0.028085522 -0.10742365 0.038290974 2.3509886e-38
0.029824115 -0.10669093 0.041286703 2.3509886e-38
0.031644121 -0.10669093 0.041286703 2.3509886e-38
0.033464126 -0.10669093 0.041286703 2.3509886e-38
0.035489582 -0.10816063 0.03527784 2.3509883e-38
0.03721182 -0.10742365 0.038290974 2.350988e-38
0.038435668 -0.10352151 0.054244872 2.3509879e-38
0.039879017 -0.10132705 0.063216805 2.3509876e-38
0.04166057 -0.10132705 0.063216805 2.3509873e-38
0.043442123 -0.10132705 0.063216805 2.3509876e-38
0.047951303 -0.11624874 0.0022098986 2.3509876e-38
0.049839824 -0.11624874 0.0022098986 2.3509879e-38
0.050421752 -0.10962076 0.029308196 2.350988e-38
0.052262761 -0.10962076 0.029308196 2.3509883e-38
0.054313488 -0.11061247 0.02525365 2.341769e-38
0.055944778 -0.10962076 0.029308196 2.3417691e-38
0.057785787 -0.10962076 0.029308196 2.3417691e-38
0.059459321 -0.10890187 0.032247301 2.3326213e-38
0.061117172 -0.10816063 0.03527784 2.3234376e-38
0.062947713 -0.10816063 0.03527784 2.3234379e-38
0.064778261 -0.10816063 0.03527784 2.3234379e-38
0.067825407 -0.11281042 0.016267415 2.3234379e-38
0.069689274 -0.11281042 0.016267415 2.3234379e-38
0.071553148 -0.11281042 0.016267415 2.3234379e-38
0.073697053 -0.11379938 0.012224074 2.3234379e-38
0.075280897 -0.11281042 0.016267415 2.332621e-38
0.076707624 -0.11134095 0.022275206 2.3418043e-38
0.078036889 -0.10962076 0.029308196 2.3509873e-38
0.079877898 -0.10962076 0.029308196 2.3509869e-38
0.081718907 -0.10962076 0.029308196 2.3509863e-38
0.083559908 -0.10962076 0.029308196 2.3509859e-38
0.085731484 -0.11061247 0.02525365 2.3509856e-38
0.08782766 -0.11134095 0.022275206 2.3509844e-38
0.089681007 -0.11134095 0.022275206 2.3508022e-38
0.09205576 -0.11281042 0.016267415 2.3508008e-38
0.093919627 -0.11281042 0.016267415 2.3508357e-38
0.096148603 -0.11379938 0.012224074 2.3507264e-38
0.098290138 -0.1145183 0.009284731 2.2769686e-38
0.10045419 -0.11526908 0.0062152115 2.2399448e-38
0.10271842 -0.11624874 0.0022098986 2.2857529e-38
0.10460693 -0.11624874 0.0022098986 2.3500727e-38
0.10718261 -0.11794533 -0.0047265324 2.3498922e-38
0.10968482 -0.11940466 -0.010693077 2.349821e-38
0.11200771 -0.12038656 -0.01470745 2.3495346e-38
0.1139259 -0.12038656 -0.01470745 2.0453996e-38
0.11584408 -0.12038656 -0.01470745 1.6124792e-38
-0.12480437 -0.12848614 -0.039800171 1.8992289e-38
-0.12284219 -0.12848614 -0.039800171 2.3417324e-38
-0.12088002 -0.12848614 -0.039800171 2.350988e-38
-0.11848535 -0.1274818 -0.035723094 2.350988e-38
-0.11622291 -0.12675591 -0.032776479 2.3049624e-38
-0.11427305 -0.12675591 -0.032776479 2.3418047e-38
-0.11191726 -0.12576406 -0.028750185 2.3326213e-38
-0.10967422 -0.12501745 -0.025719408 2.341805e-38
-0.10773673 -0.12501745 -0.025719408 2.3418047e-38
-0.10579925 -0.12501745 -0.025719408 2.3509883e-38
-0.10414606 -0.12576406 -0.028750185 2.350988e-38
-0.10220324 -0.12576406 -0.028750185 1.8346563e-38
-0.10026044 -0.12576406 -0.028750185 2.0005361e-38
-0.098049276 -0.12501745 -0.025719408 2.0373781e-38
-0.096111797 -0.12501745 -0.025719408 1.9727333e-38
-0.094174303 -0.12501745 -0.025719408 1.7054014e-38
-0.091905721 -0.12403814 -0.021744017 1.5485604e-38
-0.089975201 -0.12403814 -0.021744017 1.7881608e-38
-0.087729819 -0.12306587 -0.017797235 2.2307724e-38
-0.085565142 -0.12230472 -0.01470745 2.350951e-38
-0.083646961 -0.12230472 -0.01470745 2.3509154e-38
-0.081429638 -0.12131582 -0.010693077 2.323149e-38
-0.079518504 -0.12131582 -0.010693077 2.350988e-38
-0.077399082 -0.12059332 -0.0077601704 2.3509883e-38
-0.07549309 -0.12059332 -0.0077601704 2.341769e-38
-0.073587082 -0.12059332 -0.0077601704 2.3509886e-38
-0.071481623 -0.119846 -0.0047265324 2.3509886e-38
-0.069580935 -0.119846 -0.0047265324 2.3509883e-38
-0.067680247 -0.119846 -0.0047265324 2.3509879e-38
-0.065779574 -0.119846 -0.0047265324 2.3509876e-38
-0.063647367 -0.11887501 -0.00078499643 2.3509876e-38
-0.061753601 -0.11887501 -0.00078499643 2.3509518e-38
-0.059694417 -0.11813726 0.0022098986 2.3509883e-38
-0.057805903 -0.11813726 0.0022098986 2.3509886e-38
-0.055917375 -0.11813726 0.0022098986 2.3509886e-38
-0.053828709 -0.11715056 0.0062152115 2.3509886e-38
-0.051947214 -0.11715056 0.0062152115 2.3509886e-38
-0.050065719 -0.11715056 0.0062152115 2.3509886e-38
-0.048184216 -0.11715056 0.0062152115 2.3509886e-38
-0.046302713 -0.11715056 0.0062152115 2.3509886e-38
-0.044421218 -0.11715056 0.0062152115 2.3509886e-38
-0.042539723 -0.11715056 0.0062152115 2.3509886e-38
-0.040658221 -0.11715056 0.0062152115 2.3509886e-38
-0.038776718 -0.11715056 0.0062152115 2.3509886e-38
-0.036790274 -0.11639442 0.009284731 2.3509886e-38
-0.034818813 -0.11567034 0.012224074 2.3509886e-38
-0.032823786 -0.11467429 0.016267415 2.3509886e-38
-0.030959917 -0.11467429 0.016267415 2.3509886e-38
-0.029096043 -0.11467429 0.016267415 2.3509886e-38
-0.027232168 -0.11467429 0.016267415 2.3509886e-38
-0.025368294 -0.11467429 0.016267415 2.3509886e-38
-0.023504419 -0.11467429 0.016267415 2.3509886e-38
-0.021640545 -0.11467429 0.016267415 2.3509886e-38
-0.019721212 -0.11393218 0.019279834 2.3509886e-38
-0.01786262 -0.11393218 0.019279834 2.3509886e-38
-0.016004028 -0.11393218 0.019279834 2.3509886e-38
-0.014145436 -0.11393218 0.019279834 2.3509886e-38
-0.012252709 -0.1131943 0.022275206 2.3509886e-38
-0.010399366 -0.1131943 0.022275206 2.3509886e-38
-0.0085460264 -0.1131943 0.022275206 2.3509886e-38
-0.006692687 -0.1131943 0.022275206 2.3509886e-38
-0.0048393458 -0.1131943 0.022275206 2.3509886e-38
-0.0029781722 -0.11246057 0.02525365 2.3509886e-38
-0.0011300538 -0.11246057 0.02525365 2.350988e-38
0.00071806274 -0.11246057 0.02525365 2.3325843e-38
0.0025740154 -0.1131943 0.022275206 2.3418033e-38
0.0044273548 -0.1131943 0.022275206 2.3418033e-38
0.0062806951 -0.1131943 0.022275206 2.350987e-38
0.0081105353 -0.11246057 0.02525365 2.3509873e-38
0.009919554 -0.11146177 0.029308196 2.3509873e-38
0.011760564 -0.11146177 0.029308196 2.3509876e-38
0.013601572 -0.11146177 0.029308196 2.3509879e-38
0.015398779 -0.11073773 0.032247301 2.3509879e-38
0.017184157 -0.10999118 0.03527784 2.350988e-38
0.018959226 -0.10924892 0.038290974 2.3509883e-38
0.020724082 -0.10851096 0.041286703 2.3509883e-38
0.022544088 -0.10851096 0.041286703 2.3509886e-38
0.024435004 -0.10924892 0.038290974 2.3509886e-38
0.026260264 -0.10924892 0.038290974 2.3509886e-38
0.028004108 -0.10851096 0.041286703 2.3509886e-38
0.029710356 -0.10754226 0.045218941 2.3509886e-38
0.031523466 -0.10754226 0.045218941 2.3509886e-38
0.03333658 -0.10754226 0.045218941 2.3509886e-38
0.035149693 -0.10754226 0.045218941 2.3509883e-38
0.036962807 -0.10754226 0.045218941 2.3509879e-38
0.038549736 -0.10606419 0.051218983 2.3509876e-38
0.04035233 -0.10606419 0.051218983 2.3509873e-38
0.04166057 -0.1031086 0.063216805 2.350987e-38
0.043442123 -0.1031086 0.063216805 2.3509873e-38
0.045624815 -0.1053188 0.054244872 2.3509873e-38
0.047422104 -0.1053188 0.054244872 2.3509876e-38
0.050421752 -0.11146177 0.029308196 2.3509879e-38
0.052262761 -0.11146177 0.029308196 2.3509883e-38
0.054103769 -0.11146177 0.029308196 2.3509886e-38
0.055944778 -0.11146177 0.029308196 2.3509886e-38
0.057785787 -0.11146177 0.029308196 2.3509886e-38
0.059286632 -0.10999118 0.03527784 2.3509886e-38
0.061117172 -0.10999118 0.03527784 2.3509886e-38
0.062947713 -0.10999118 0.03527784 2.3509886e-38
0.064778261 -0.10999118 0.03527784 2.341805e-38
0.065202452 -0.10457774 0.057253119 2.3418047e-38
0.066994466 -0.10457774 0.057253119 2.3418045e-38
0.06878648 -0.10457774 0.057253119 2.3418043e-38
0.070578493 -0.10457774 0.057253119 2.3326201e-38
0.075280897 -0.11467429 0.016267415 2.3509869e-38
0.075761512 -0.10999118 0.03527784 2.350986e-38
0.077592053 -0.10999118 0.03527784 2.3509851e-38
0.079422593 -0.10999118 0.03527784 2.3509844e-38
0.081489593 -0.11073773 0.032247301 2.3509837e-38
0.083559908 -0.11146177 0.029308196 2.3509825e-38
0.085400917 -0.11146177 0.029308196 2.3509818e-38
0.087579615 -0.11246057 0.02525365 2.3509804e-38
0.089427732 -0.11246057 0.02525365 2.3505822e-38
0.091794319 -0.11393218 0.019279834 2.3505448e-38
0.093919627 -0.11467429 0.016267415 2.3505446e-38
0.096148603 -0.11567034 0.012224074 2.3413248e-38
0.098290138 -0.11639442 0.009284731 2.3044097e-38
0.10016625 -0.11639442 0.009284731 2.2764985e-38
0.10271842 -0.11813726 0.0022098986 2.3130516e-38
0.10460693 -0.11813726 0.0022098986 2.3498211e-38
0.10718261 -0.119846 -0.0047265324 2.3495689e-38
0.10968482 -0.12131582 -0.010693077 2.3494977e-38
0.11200771 -0.12230472 -0.01470745 2.3491751e-38
0.1139259 -0.12230472 -0.01470745 2.0359283e-38
0.11584408 -0.12230472 -0.01470745 1.6307385e-38
-0.12480437 -0.13044833 -0.039800171 1.8807897e-38
-0.12284219 -0.13044833 -0.039800171 2.3417323e-38
-0.12088002 -0.13044833 -0.039800171 2.350988e-38
-0.11848535 -0.12943684 -0.035723094 2.350988e-38
-0.11622291 -0.12870578 -0.032776479 2.3049624e-38
-0.11427305 -0.12870578 -0.032776479 2.3418047e-38
-0.11191726 -0.12770687 -0.028750185 2.3326213e-38
-0.10997447 -0.12770687 -0.028750185 2.3418047e-38
-0.10803167 -0.12770687 -0.028750185 2.2680841e-38
-0.10608885 -0.12770687 -0.028750185 2.2588643e-38
-0.10386176 -0.12695493 -0.025719408 2.1942193e-38
-0.10192426 -0.12695493 -0.025719408 1.2354203e-38
-0.10026044 -0.12770687 -0.028750185 1.2444957e-38
-0.098049276 -0.12695493 -0.025719408 1.3643497e-38
-0.096111797 -0.12695493 -0.025719408 1.530194e-38
-0.094174303 -0.12695493 -0.025719408 1.4379619e-38
-0.091905721 -0.12596865 -0.021744017 1.5852944e-38
-0.089975201 -0.12596865 -0.021744017 1.843442e-38
-0.087729819 -0.12498946 -0.017797235 2.1845304e-38
-0.085565142 -0.12422292 -0.01470745 2.3505907e-38
-0.083646961 -0.12422292 -0.01470745 2.3507352e-38
-0.081429638 -0.12322696 -0.010693077 2.3509157e-38
-0.079518504 -0.12322696 -0.010693077 2.3509521e-38
-0.077399082 -0.1224993 -0.0077601704 2.2864153e-38
-0.07549309 -0.1224993 -0.0077601704 2.3509883e-38
-0.073587082 -0.1224993 -0.0077601704 2.3509883e-38
-0.071481623 -0.12174667 -0.0047265324 2.3509883e-38
-0.069580935 -0.12174667 -0.0047265324 2.350988e-38
-0.067680247 -0.12174667 -0.0047265324 2.3509879e-38
-0.065779574 -0.12174667 -0.0047265324 2.3509873e-38
-0.063647367 -0.1207688 -0.00078499643 2.3509873e-38
-0.061753601 -0.1207688 -0.00078499643 2.3509876e-38
-0.059694417 -0.12002577 0.0022098986 2.3509883e-38
-0.057805903 -0.12002577 0.0022098986 2.3509886e-38
-0.055917375 -0.12002577 0.0022098986 2.3509886e-38
-0.053828709 -0.11903207 0.0062152115 2.3509886e-38
-0.051947214 -0.11903207 0.0062152115 2.3509886e-38
-0.050065719 -0.11903207 0.0062152115 2.3509886e-38
-0.048184216 -0.11903207 0.0062152115 2.3509886e-38
-0.046302713 -0.11903207 0.0062152115 2.3509886e-38
-0.044421218 -0.11903207 0.0062152115 2.3509886e-38
-0.042539723 -0.11903207 0.0062152115 2.3509886e-38
-0.040542506 -0.11827053 0.009284731 2.3509886e-38
-0.03841541 -0.11653815 0.016267415 2.3509886e-38
-0.036551535 -0.11653815 0.016267415 2.3509886e-38
-0.034589946 -0.11579077 0.019279834 2.3509886e-38
-0.032731354 -0.11579077 0.019279834 2.3509886e-38
-0.030872768 -0.11579077 0.019279834 2.3509886e-38
-0.029014176 -0.11579077 0.019279834 2.3509886e-38
-0.027155584 -0.11579077 0.019279834 2.3509886e-38
-0.025368294 -0.11653815 0.016267415 2.3509886e-38
-0.023504419 -0.11653815 0.016267415 2.3509886e-38
-0.021579804 -0.11579077 0.019279834 2.3509886e-38
-0.019721212 -0.11579077 0.019279834 2.3509886e-38
-0.017812727 -0.11504765 0.022275206 2.3509886e-38
-0.015959388 -0.11504765 0.022275206 2.3509886e-38
-0.014106048 -0.11504765 0.022275206 2.3509886e-38
-0.012218764 -0.1143087 0.02525365 2.3509886e-38
-0.010370644 -0.1143087 0.02525365 2.3509886e-38
-0.0085225273 -0.1143087 0.02525365 2.3509886e-38
-0.0066744089 -0.1143087 0.02525365 2.3509886e-38
-0.0048085172 -0.11330278 0.029308196 2.3509886e-38
-0.0029675085 -0.11330278 0.029308196 2.3509886e-38
-0.0011264998 -0.11330278 0.029308196 2.350988e-38
0.00071450882 -0.11330278 0.029308196 2.3326196e-38
0.0025555175 -0.11330278 0.029308196 2.3326192e-38
0.0043965261 -0.11330278 0.029308196 2.3418029e-38
0.0062375367 -0.11330278 0.029308196 2.3418032e-38
0.0080785453 -0.11330278 0.029308196 2.3509869e-38
0.0098912111 -0.11257361 0.032247301 2.350987e-38
0.011727068 -0.11257361 0.032247301 2.3509873e-38
0.013523072 -0.11182173 0.03527784 2.3509876e-38
0.015353614 -0.11182173 0.03527784 2.3509876e-38
0.017133968 -0.11107419 0.038290974 2.3509879e-38
0.018904075 -0.11033095 0.041286703 2.350988e-38
0.020724082 -0.11033095 0.041286703 2.3509883e-38
0.022544088 -0.11033095 0.041286703 2.3509886e-38
0.024364095 -0.11033095 0.041286703 2.3509886e-38
0.026184103 -0.11033095 0.041286703 2.3509886e-38
0.027897244 -0.10935538 0.045218941 2.3509886e-38
0.029710356 -0.10935538 0.045218941 2.3509886e-38
0.031429537 -0.10859586 0.048280355 2.3509886e-38
0.033237278 -0.10859586 0.048280355 2.3509883e-38
0.03504502 -0.10859586 0.048280355 2.350988e-38
0.036962807 -0.10935538 0.045218941 2.3418042e-38
0.038549736 -0.10786678 0.051218983 2.3418036e-38
0.04035233 -0.10786678 0.051218983 2.3418033e-38
0.042030245 -0.10711606 0.054244872 2.3418032e-38
0.043827526 -0.10711606 0.054244872 2.3418033e-38
0.045624815 -0.10711606 0.054244872 2.3418033e-38
0.047422104 -0.10711606 0.054244872 2.3418036e-38
0.049219392 -0.10711606 0.054244872 2.3509876e-38
0.051016673 -0.10711606 0.054244872 2.350988e-38
0.054103769 -0.11330278 0.029308196 2.3509883e-38
0.055944778 -0.11330278 0.029308196 2.3509886e-38
0.057456084 -0.11182173 0.03527784 2.3509886e-38
0.058720149 -0.10935538 0.045218941 2.3509527e-38
0.060180843 -0.10786678 0.051218983 2.3509527e-38
0.061800398 -0.10711606 0.054244872 2.3509527e-38
0.063597687 -0.10711606 0.054244872 2.3509883e-38
0.065202452 -0.10636975 0.057253119 2.350988e-38
0.066994466 -0.10636975 0.057253119 2.3509874e-38
0.06878648 -0.10636975 0.057253119 2.3509867e-38
0.070786834 -0.10711606 0.054244872 2.3509859e-38
0.07279899 -0.10786678 0.051218983 2.3509853e-38
0.07532429 -0.11033095 0.041286703 2.3509841e-38
0.077144295 -0.11033095 0.041286703 2.3509831e-38
0.079192787 -0.11107419 0.038290974 2.3509816e-38
0.081253141 -0.11182173 0.03527784 2.35098e-38
0.083083682 -0.11182173 0.03527784 2.3508353e-38
0.085161291 -0.11257361 0.032247301 2.3507264e-38
0.087241925 -0.11330278 0.029308196 2.3414693e-38
0.089427732 -0.1143087 0.02525365 2.3505425e-38
0.091275848 -0.1143087 0.02525365 2.3320303e-38
0.093652911 -0.11579077 0.019279834 2.3136276e-38
0.096148603 -0.1175413 0.012224074 2.3411791e-38
0.098290138 -0.11827053 0.009284731 2.3318156e-38
0.10016625 -0.11827053 0.009284731 2.2762821e-38
0.10233568 -0.11903207 0.0062152115 2.3127279e-38
0.10460693 -0.12002577 0.0022098986 2.349426e-38
0.10718261 -0.12174667 -0.0047265324 2.349174e-38
0.10968482 -0.12322696 -0.010693077 2.3490668e-38
0.11200771 -0.12422292 -0.01470745 2.3304489e-38
0.1139259 -0.12422292 -0.01470745 2.008126e-38
0.11584408 -0.12422292 -0.01470745 1.6122275e-38
0.11776226 -0.12422292 -0.01470745 4.8798369e-39
-0.12480437 -0.13241051 -0.039800171 1.8715699e-38
-0.12284219 -0.13241051 -0.039800171 2.3325483e-38
-0.12088002 -0.13241051 -0.039800171 2.3509879e-38
-0.11848535 -0.13139187 -0.035723094 2.350988e-38
-0.11622291 -0.13065563 -0.032776479 2.3049624e-38
-0.11427305 -0.13065563 -0.032776479 2.3418047e-38
-0.11191726 -0.12964968 -0.028750185 2.3050703e-38
-0.10997447 -0.12964968 -0.028750185 2.3234376e-38
-0.10803167 -0.12964968 -0.028750185 2.3418047e-38
-0.10608885 -0.12964968 -0.028750185 2.3418045e-38
-0.10386176 -0.12889244 -0.025719408 2.2679758e-38
-0.10192426 -0.12889244 -0.025719408 1.1340051e-38
-0.10026044 -0.12964968 -0.028750185 1.1707392e-38
-0.098049276 -0.12889244 -0.025719408 1.4381062e-38
-0.096111797 -0.12889244 -0.025719408 1.7514992e-38
-0.094174303 -0.12889244 -0.025719408 1.7513907e-38
-0.091905721 -0.12789918 -0.021744017 1.6681624e-38
-0.089653425 -0.12691309 -0.017797235 1.8340783e-38
-0.087729819 -0.12691309 -0.017797235 2.101482e-38
-0.085565142 -0.12614109 -0.01470745 2.3506986e-38
-0.083646961 -0.12614109 -0.01470745 2.3509151e-38
-0.081429638 -0.12513812 -0.010693077 2.3509156e-38
-0.079518504 -0.12513812 -0.010693077 2.3508439e-38
-0.077399082 -0.12440531 -0.0077601704 2.3509521e-38
-0.07549309 -0.12440531 -0.0077601704 2.3509883e-38
-0.073587082 -0.12440531 -0.0077601704 2.3509883e-38
-0.071481623 -0.12364738 -0.0047265324 2.3417687e-38
-0.069580935 -0.12364738 -0.0047265324 2.3325846e-38
-0.067680247 -0.12364738 -0.0047265324 2.3325843e-38
-0.065541141 -0.12266256 -0.00078499643 2.3418036e-38
-0.063647367 -0.12266256 -0.00078499643 2.350987e-38
-0.061753601 -0.12266256 -0.00078499643 2.3509873e-38
-0.059694417 -0.12191428 0.0022098986 2.350988e-38
-0.057805903 -0.12191428 0.0022098986 2.3509886e-38
-0.055917375 -0.12191428 0.0022098986 2.3509886e-38
-0.054028861 -0.12191428 0.0022098986 2.3509886e-38
-0.051947214 -0.12091358 0.0062152115 2.3509886e-38
-0.050065719 -0.12091358 0.0062152115 2.3509886e-38
-0.048184216 -0.12091358 0.0062152115 2.3509886e-38
-0.046302713 -0.12091358 0.0062152115 2.3509886e-38
-0.044421218 -0.12091358 0.0062152115 2.3509886e-38
-0.042539723 -0.12091358 0.0062152115 2.3509886e-38
-0.040542506 -0.12014665 0.009284731 2.3509886e-38
-0.03841541 -0.11840202 0.016267415 2.3509886e-38
-0.036551535 -0.11840202 0.016267415 2.3509886e-38
-0.034589946 -0.11764936 0.019279834 2.3509886e-38
-0.032731354 -0.11764936 0.019279834 2.3509886e-38
-0.030872768 -0.11764936 0.019279834 2.3509886e-38
-0.029014176 -0.11764936 0.019279834 2.3509886e-38
-0.027155584 -0.11764936 0.019279834 2.3509886e-38
-0.025226088 -0.11690097 0.022275206 2.3509886e-38
-0.023372749 -0.11690097 0.022275206 2.3509886e-38
-0.021519406 -0.11690097 0.022275206 2.3509886e-38
-0.019666066 -0.11690097 0.022275206 2.3509886e-38
-0.017812727 -0.11690097 0.022275206 2.3509886e-38
-0.015959388 -0.11690097 0.022275206 2.3509886e-38
-0.014066881 -0.1161568 0.02525365 2.3509886e-38
-0.012218764 -0.1161568 0.02525365 2.3509886e-38
-0.010370644 -0.1161568 0.02525365 2.3509886e-38
-0.0085225273 -0.1161568 0.02525365 2.3509886e-38
-0.0066495277 -0.11514379 0.029308196 2.3509886e-38
-0.0048085172 -0.11514379 0.029308196 2.3509886e-38
-0.0029597785 -0.11440946 0.032247301 2.3509886e-38
-0.0011239238 -0.11440946 0.032247301 2.350988e-38
0.00071193278 -0.11440946 0.032247301 2.3418032e-38
0.0025477875 -0.11440946 0.032247301 2.3326189e-38
0.0043836441 -0.11440946 0.032247301 2.3326189e-38
0.0062194997 -0.11440946 0.032247301 2.3326189e-38
0.0080553554 -0.11440946 0.032247301 2.3234355e-38
0.0098619871 -0.11365227 0.03527784 2.3233999e-38
0.01169253 -0.11365227 0.03527784 2.3141805e-38
0.013483449 -0.11289944 0.038290974 2.3141808e-38
0.015308708 -0.11289944 0.038290974 2.3509876e-38
0.017133968 -0.11289944 0.038290974 2.3509879e-38
0.018904075 -0.11215095 0.041286703 2.350988e-38
0.020644795 -0.11116849 0.045218941 2.3509883e-38
0.022457907 -0.11116849 0.045218941 2.3509886e-38
0.024271019 -0.11116849 0.045218941 2.3509886e-38
0.026084132 -0.11116849 0.045218941 2.3509886e-38
0.027814046 -0.11040358 0.048280355 2.3509886e-38
0.029621789 -0.11040358 0.048280355 2.3509886e-38
0.031429537 -0.11040358 0.048280355 2.3509886e-38
0.033237278 -0.11040358 0.048280355 2.3509883e-38
0.03504502 -0.11040358 0.048280355 2.3418042e-38
0.036747143 -0.10966937 0.051218983 2.3325843e-38
0.038549736 -0.10966937 0.051218983 2.3234004e-38
0.04035233 -0.10966937 0.051218983 2.3233999e-38
0.042030245 -0.10891335 0.054244872 2.314216e-38
0.043827526 -0.10891335 0.054244872 2.3326195e-38
0.045624815 -0.10891335 0.054244872 2.3326195e-38
0.047422104 -0.10891335 0.054244872 2.3418036e-38
0.049219392 -0.10891335 0.054244872 2.3418039e-38
0.051016673 -0.10891335 0.054244872 2.350988e-38
0.052813962 -0.10891335 0.054244872 2.3509883e-38
0.054611251 -0.10891335 0.054244872 2.3509886e-38
0.056737959 -0.11040358 0.048280355 2.3509527e-38
0.058545701 -0.11040358 0.048280355 2.3509168e-38
0.060003109 -0.10891335 0.054244872 2.3508809e-38
0.061800398 -0.10891335 0.054244872 2.3509168e-38
0.063597687 -0.10891335 0.054244872 2.3509521e-38
0.065202452 -0.10816176 0.057253119 2.3509876e-38
0.066994466 -0.10816176 0.057253119 2.3509867e-38
0.06878648 -0.10816176 0.057253119 2.3509859e-38
0.070786834 -0.10891335 0.054244872 2.3509849e-38
0.07279899 -0.10966937 0.051218983 2.3509834e-38
0.075038165 -0.11116849 0.045218941 2.3509818e-38
0.076851279 -0.11116849 0.045218941 2.3509802e-38
0.0789643 -0.11215095 0.041286703 2.3509426e-38
0.081018046 -0.11289944 0.038290974 2.3508692e-38
0.082843296 -0.11289944 0.038290974 2.332321e-38
0.084914215 -0.11365227 0.03527784 2.3046615e-38
0.087241925 -0.11514379 0.029308196 2.3045876e-38
0.089082949 -0.11514379 0.029308196 2.3505392e-38
0.091275848 -0.1161568 0.02525365 2.3043327e-38
0.093387686 -0.11690097 0.022275206 2.2766752e-38
0.095783509 -0.11840202 0.016267415 2.3226662e-38
0.098019578 -0.11941226 0.012224074 2.3408907e-38
0.10016625 -0.12014665 0.009284731 2.3128367e-38
0.10233568 -0.12091358 0.0062152115 2.3031855e-38
0.10421718 -0.12091358 0.0062152115 2.3489593e-38
0.10718261 -0.12364738 -0.0047265324 2.3487796e-38
0.10938913 -0.12440531 -0.0077601704 2.3487082e-38
0.11159597 -0.12513812 -0.010693077 2.3209423e-38
0.11350711 -0.12513812 -0.010693077 1.9895076e-38
0.11584408 -0.12614109 -0.01470745 1.6030081e-38
0.11776226 -0.12614109 -0.01470745 4.9731074e-39
-0.12480437 -0.1343727 -0.039800171 1.8806815e-38
-0.12284219 -0.1343727 -0.039800171 2.3508798e-38
-0.12088002 -0.1343727 -0.039800171 2.3509521e-38
-0.11848535 -0.13334687 -0.035723094 2.3509883e-38
-0.11622291 -0.13260551 -0.032776479 2.3141103e-38
-0.11427305 -0.13260551 -0.032776479 2.3509886e-38
-0.11191726 -0.13159247 -0.028750185 2.3234018e-38
-0.10997447 -0.13159247 -0.028750185 2.3418047e-38
-0.10803167 -0.13159247 -0.028750185 2.3049621e-38
-0.10608885 -0.13159247 -0.028750185 2.3049259e-38
-0.10414606 -0.13159247 -0.028750185 2.2864505e-38
-0.10220324 -0.13159247 -0.028750185 1.2262008e-38
-0.10026044 -0.13159247 -0.028750185 1.3828254e-38
-0.098049276 -0.13082992 -0.025719408 1.6777796e-38
-0.096111797 -0.13082992 -0.025719408 1.8528792e-38
-0.094174303 -0.13082992 -0.025719408 1.6960742e-38
-0.091905721 -0.12982969 -0.021744017 1.4285979e-38
-0.089653425 -0.12883668 -0.017797235 1.3364377e-38
-0.087729819 -0.12883668 -0.017797235 1.3548414e-38
-0.085565142 -0.12805928 -0.01470745 1.530121e-38
-0.083646961 -0.12805928 -0.01470745 1.4933146e-38
-0.081429638 -0.12704925 -0.010693077 1.2628258e-38
-0.079518504 -0.12704925 -0.010693077 1.5486331e-38
-0.077607356 -0.12704925 -0.010693077 2.2494278e-38
-0.07549309 -0.12631132 -0.0077601704 2.3509866e-38
-0.073587082 -0.12631132 -0.0077601704 2.3509504e-38
-0.071481623 -0.12554805 -0.0047265324 2.3232562e-38
-0.069580935 -0.12554805 -0.0047265324 2.2955973e-38
-0.067680247 -0.12554805 -0.0047265324 2.2956324e-38
-0.065541141 -0.12455635 -0.00078499643 2.3232909e-38
-0.063647367 -0.12455635 -0.00078499643 2.3509856e-38
-0.061753601 -0.12455635 -0.00078499643 2.3509863e-38
-0.059694417 -0.12380283 0.0022098986 2.3509873e-38
-0.057805903 -0.12380283 0.0022098986 2.350988e-38
-0.055917375 -0.12380283 0.0022098986 2.350988e-38
-0.054028861 -0.12380283 0.0022098986 2.350988e-38
-0.051947214 -0.12279506 0.0062152115 2.350988e-38
-0.050065719 -0.12279506 0.0062152115 2.3509883e-38
-0.048184216 -0.12279506 0.0062152115 2.3509883e-38
-0.046302713 -0.12279506 0.0062152115 2.3509883e-38
-0.044421218 -0.12279506 0.0062152115 2.3509883e-38
-0.042539723 -0.12279506 0.0062152115 2.3418047e-38
-0.040542506 -0.12202276 0.009284731 2.3418047e-38
-0.03841541 -0.12026589 0.016267415 2.3418047e-38
-0.036551535 -0.12026589 0.016267415 2.3418047e-38
-0.034589946 -0.11950795 0.019279834 2.3418047e-38
-0.032731354 -0.11950795 0.019279834 2.3418047e-38
-0.030872768 -0.11950795 0.019279834 2.341805e-38
-0.029014176 -0.11950795 0.019279834 2.341805e-38
-0.027155584 -0.11950795 0.019279834 2.341805e-38
-0.025226088 -0.11875431 0.022275206 2.341805e-38
-0.023372749 -0.11875431 0.022275206 2.341805e-38
-0.021459354 -0.11800493 0.02525365 2.3509886e-38
-0.019611234 -0.11800493 0.02525365 2.341805e-38
-0.017763117 -0.11800493 0.02525365 2.3509886e-38
-0.015914997 -0.11800493 0.02525365 2.341805e-38
-0.014066881 -0.11800493 0.02525365 2.3509886e-38
-0.012218764 -0.11800493 0.02525365 2.341805e-38
-0.010331545 -0.1169848 0.029308196 2.3509886e-38
-0.0084905364 -0.1169848 0.029308196 2.341805e-38
-0.0066314917 -0.11624531 0.032247301 2.3509886e-38
-0.0047956351 -0.11624531 0.032247301 2.3509886e-38
-0.0029597785 -0.11624531 0.032247301 2.3509886e-38
-0.0011212658 -0.11548282 0.03527784 2.350988e-38
0.00070927478 -0.11548282 0.03527784 2.3509867e-38
0.0025398172 -0.11548282 0.03527784 2.3509862e-38
0.0043703597 -0.11548282 0.03527784 2.3509504e-38
0.0062009022 -0.11548282 0.03527784 2.3416949e-38
0.0080076708 -0.11472471 0.038290974 2.3325109e-38
0.0098329308 -0.11472471 0.038290974 2.3140714e-38
0.011624048 -0.11397095 0.041286703 2.3049224e-38
0.013444055 -0.11397095 0.041286703 2.2865556e-38
0.015264062 -0.11397095 0.041286703 2.3509863e-38
0.017084068 -0.11397095 0.041286703 2.350987e-38
0.018831683 -0.1129816 0.045218941 2.3509873e-38
0.020644795 -0.1129816 0.045218941 2.3509879e-38
0.022390811 -0.11221133 0.048280355 2.3509883e-38
0.024198556 -0.11221133 0.048280355 2.3509886e-38
0.0260063 -0.11221133 0.048280355 2.3509886e-38
0.027814046 -0.11221133 0.048280355 2.3509883e-38
0.029536774 -0.11147197 0.051218983 2.350988e-38
0.03133937 -0.11147197 0.051218983 2.3509883e-38
0.033141956 -0.11147197 0.051218983 2.3509886e-38
0.034944549 -0.11147197 0.051218983 2.3325856e-38
0.036747143 -0.11147197 0.051218983 2.3141819e-38
0.038549736 -0.11147197 0.051218983 2.3050328e-38
0.040232956 -0.11071064 0.054244872 2.3050313e-38
0.042030245 -0.11071064 0.054244872 2.332581e-38
0.043698303 -0.10995375 0.057253119 2.3509834e-38
0.045490317 -0.10995375 0.057253119 2.3509837e-38
0.047282331 -0.10995375 0.057253119 2.3509851e-38
0.049074344 -0.10995375 0.057253119 2.3509503e-38
0.050866358 -0.10995375 0.057253119 2.3509873e-38
0.052503683 -0.10920133 0.060243722 2.350988e-38
0.054290451 -0.10920133 0.060243722 2.3418047e-38
0.05607722 -0.10920133 0.060243722 2.341805e-38
0.058034405 -0.10995375 0.057253119 2.3509527e-38
0.059650756 -0.10920133 0.060243722 2.3509168e-38
0.061437525 -0.10920133 0.060243722 2.3508809e-38
0.063410446 -0.10995375 0.057253119 2.3509521e-38
0.065202452 -0.10995375 0.057253119 2.350986e-38
0.066994466 -0.10995375 0.057253119 2.3509842e-38
0.06878648 -0.10995375 0.057253119 2.3509832e-38
0.070786834 -0.11071064 0.054244872 2.350982e-38
0.072584122 -0.11071064 0.054244872 2.341616e-38
0.074601583 -0.11147197 0.051218983 2.3508341e-38
0.076623149 -0.11221133 0.048280355 2.3508692e-38
0.0789643 -0.11397095 0.041286703 2.3508683e-38
0.080784306 -0.11397095 0.041286703 2.3415406e-38
0.082843296 -0.11472471 0.038290974 2.3046623e-38
0.084914215 -0.11548282 0.03527784 2.2770042e-38
0.087241925 -0.1169848 0.029308196 2.2677476e-38
0.089082949 -0.1169848 0.029308196 2.2769284e-38
0.091275848 -0.11800493 0.02525365 2.2123189e-38
0.093387686 -0.11875431 0.022275206 2.1846251e-38
0.095783509 -0.12026589 0.016267415 2.2583105e-38
0.098019578 -0.12128322 0.012224074 2.3224885e-38
0.10016625 -0.12202276 0.009284731 2.276103e-38
0.10204237 -0.12202276 0.009284731 2.2755634e-38
0.10421718 -0.12279506 0.0062152115 2.3304489e-38
0.10679214 -0.12455635 -0.00078499643 2.3486719e-38
0.10908329 -0.12554805 -0.0047265324 2.3486724e-38
0.11159597 -0.12704925 -0.010693077 2.3024679e-38
0.11350711 -0.12704925 -0.010693077 1.9894722e-38
0.11584408 -0.12805928 -0.01470745 1.6214119e-38
0.11776226 -0.12805928 -0.01470745 5.4337296e-39
0.11968046 -0.12805928 -0.01470745 5.6238998e-39
-0.12480437 -0.13633488 -0.039800171 1.9450024e-38
-0.12284219 -0.13633488 -0.039800171 2.3508804e-38
-0.12088002 -0.13633488 -0.039800171 2.3508449e-38
-0.11848535 -0.1353019 -0.035723094 2.3508809e-38
-0.11622291 -0.13455538 -0.032776479 2.3508809e-38
-0.11427305 -0.13455538 -0.032776479 2.3509168e-38
-0.11232319 -0.13455538 -0.032776479 2.314039e-38
-0.10997447 -0.13353528 -0.028750185 2.3509886e-38
-0.10803167 -0.13353528 -0.028750185 2.3509879e-38
-0.10608885 -0.13353528 -0.028750185 2.3509876e-38
-0.10414606 -0.13353528 -0.028750185 2.2126937e-38
-0.10220324 -0.13353528 -0.028750185 1.1893225e-38
-0.10026044 -0.13353528 -0.028750185 1.3090338e-38
-0.098049276 -0.13276742 -0.025719408 1.7515014e-38
-0.096111797 -0.13276742 -0.025719408 1.8805043e-38
-0.094174303 -0.13276742 -0.025719408 1.7146232e-38
-0.091905721 -0.13176022 -0.021744017 1.1432596e-38
-0.089653425 -0.13076027 -0.017797235 1.1617339e-38
-0.087729819 -0.13076027 -0.017797235 1.0049659e-38
-0.085565142 -0.12997745 -0.01470745 1.4105542e-38
-0.083646961 -0.12997745 -0.01470745 1.4382471e-38
-0.081429638 -0.12896039 -0.010693077 1.0325863e-38
-0.079518504 -0.12896039 -0.010693077 1.0785057e-38
-0.077607356 -0.12896039 -0.010693077 1.8621323e-38
-0.07549309 -0.12821732 -0.0077601704 2.157264e-38
-0.073587082 -0.12821732 -0.0077601704 2.3508745e-38
-0.071481623 -0.12744872 -0.0047265324 2.3507684e-38
-0.069580935 -0.12744872 -0.0047265324 1.7699001e-38
-0.067680247 -0.12744872 -0.0047265324 1.2353077e-38
-0.065541141 -0.12645011 -0.00078499643 2.2678984e-38
-0.063471459 -0.12569134 0.0022098986 2.3509837e-38
-0.061582945 -0.12569134 0.0022098986 2.3416566e-38
-0.059694417 -0.12569134 0.0022098986 2.350986e-38
-0.057805903 -0.12569134 0.0022098986 2.2219847e-38
-0.055917375 -0.12569134 0.0022098986 2.350987e-38
-0.054028861 -0.12569134 0.0022098986 2.350987e-38
-0.051947214 -0.12467657 0.0062152115 2.3142168e-38
-0.050065719 -0.12467657 0.0062152115 2.341804e-38
-0.048184216 -0.12467657 0.0062152115 2.3326206e-38
-0.046302713 -0.12467657 0.0062152115 2.3418043e-38
-0.044421218 -0.12467657 0.0062152115 2.3418045e-38
-0.042418621 -0.12389888 0.009284731 2.3234374e-38
-0.040542506 -0.12389888 0.009284731 2.3234374e-38
-0.03841541 -0.12212978 0.016267415 2.3234374e-38
-0.036551535 -0.12212978 0.016267415 2.3234372e-38
-0.034589946 -0.12136655 0.019279834 2.3234372e-38
-0.032731354 -0.12136655 0.019279834 2.3142537e-38
-0.030872768 -0.12136655 0.019279834 2.3142541e-38
-0.029014176 -0.12136655 0.019279834 2.3234379e-38
-0.027155584 -0.12136655 0.019279834 2.323402e-38
-0.025226088 -0.12060766 0.022275206 2.323402e-38
-0.023372749 -0.12060766 0.022275206 2.3234379e-38
-0.021459354 -0.11985306 0.02525365 2.3417691e-38
-0.019611234 -0.11985306 0.02525365 2.3234379e-38
-0.017763117 -0.11985306 0.02525365 2.341805e-38
-0.015914997 -0.11985306 0.02525365 2.3234379e-38
-0.014066881 -0.11985306 0.02525365 2.341805e-38
-0.012218764 -0.11985306 0.02525365 2.3234376e-38
-0.010331545 -0.11882581 0.029308196 2.3418047e-38
-0.0084905364 -0.11882581 0.029308196 2.3234376e-38
-0.0066314917 -0.11808117 0.032247301 2.341805e-38
-0.0047956351 -0.11808117 0.032247301 2.341805e-38
-0.0029597785 -0.11808117 0.032247301 2.341805e-38
-0.0011212658 -0.11731337 0.03527784 2.3509883e-38
0.00070927478 -0.11731337 0.03527784 2.350915e-38
0.0025318936 -0.11654995 0.038290974 2.3509869e-38
0.0043571535 -0.11654995 0.038290974 2.3507358e-38
0.0061824117 -0.11654995 0.038290974 2.3509153e-38
0.0079840347 -0.11579098 0.041286703 2.350986e-38
0.0098040411 -0.11579098 0.041286703 2.2955219e-38
0.011579234 -0.11479472 0.045218941 2.2956622e-38
0.013392346 -0.11479472 0.045218941 2.2957341e-38
0.015205459 -0.11479472 0.045218941 2.3509838e-38
0.01701857 -0.11479472 0.045218941 2.3509853e-38
0.018831683 -0.11479472 0.045218941 2.3509863e-38
0.020583067 -0.11401908 0.048280355 2.3509509e-38
0.022390811 -0.11401908 0.048280355 2.350988e-38
0.024198556 -0.11401908 0.048280355 2.3509527e-38
0.025931591 -0.11327456 0.051218983 2.3417687e-38
0.027734183 -0.11327456 0.051218983 2.3509879e-38
0.029536774 -0.11327456 0.051218983 2.3509509e-38
0.03133937 -0.11327456 0.051218983 2.3509158e-38
0.033141956 -0.11327456 0.051218983 2.3325497e-38
0.034944549 -0.11327456 0.051218983 2.3142185e-38
0.036638387 -0.11250792 0.054244872 2.3142544e-38
0.038435668 -0.11250792 0.054244872 2.3050693e-38
0.040232956 -0.11250792 0.054244872 2.3050648e-38
0.04190629 -0.11174576 0.057253119 2.3233566e-38
0.043698303 -0.11174576 0.057253119 2.3322864e-38
0.045490317 -0.11174576 0.057253119 2.350582e-38
0.047282331 -0.11174576 0.057253119 2.3507292e-38
0.049074344 -0.11174576 0.057253119 2.3509479e-38
0.050716914 -0.1109881 0.060243722 2.3509146e-38
0.052503683 -0.1109881 0.060243722 2.3508439e-38
0.054131463 -0.11023484 0.063216805 2.2866311e-38
0.055913016 -0.11023484 0.063216805 2.2958873e-38
0.057694577 -0.11023484 0.063216805 2.3142544e-38
0.05947613 -0.11023484 0.063216805 2.3050349e-38
0.061257683 -0.11023484 0.063216805 2.3416615e-38
0.063039243 -0.11023484 0.063216805 2.3509527e-38
0.065011069 -0.1109881 0.060243722 2.350983e-38
0.066797838 -0.1109881 0.060243722 2.3509796e-38
0.06878648 -0.11174576 0.057253119 2.3509783e-38
0.070786834 -0.11250792 0.054244872 2.3508682e-38
0.072584122 -0.11250792 0.054244872 2.3508659e-38
0.074601583 -0.11327456 0.051218983 2.3508291e-38
0.076404169 -0.11327456 0.051218983 2.3416098e-38
0.078664385 -0.11479472 0.045218941 2.341683e-38
0.080784306 -0.11579098 0.041286703 2.3509049e-38
0.082843296 -0.11654995 0.038290974 2.3508355e-38
0.084914215 -0.11731337 0.03527784 2.3139246e-38
0.087241925 -0.11882581 0.029308196 2.2771183e-38
0.089082949 -0.11882581 0.029308196 2.1205627e-38
0.091275848 -0.11985306 0.02525365 2.1390723e-38
0.093387686 -0.12060766 0.022275206 2.2496352e-38
0.095783509 -0.12212978 0.016267415 2.2125408e-38
0.098019578 -0.12315418 0.012224074 2.2767892e-38
0.10016625 -0.12389888 0.009284731 2.1841969e-38
0.10204237 -0.12389888 0.009284731 2.2482648e-38
0.10421718 -0.12467657 0.0062152115 2.2478684e-38
0.10679214 -0.12645011 -0.00078499643 2.3028255e-38
0.10908329 -0.12744872 -0.0047265324 2.321157e-38
0.11159597 -0.12896039 -0.010693077 2.1737177e-38
0.11350711 -0.12896039 -0.010693077 1.897421e-38
0.11584408 -0.12997745 -0.01470745 1.5568398e-38
0.11776226 -0.12997745 -0.01470745 6.2620651e-39
0.11968046 -0.12997745 -0.01470745 5.1604203e-39
-0.12480437 -0.13829704 -0.039800171 1.9173795e-38
-0.12284219 -0.13829704 -0.039800171 2.3508442e-38
-0.12088002 -0.13829704 -0.039800171 2.3508446e-38
-0.11848535 -0.13725694 -0.035723094 2.3508809e-38
-0.11653032 -0.13725694 -0.035723094 2.3508451e-38
-0.11457529 -0.13725694 -0.035723094 2.3509168e-38
-0.11232319 -0.13650523 -0.032776479 2.314075e-38
-0.11037333 -0.13650523 -0.032776479 2.341805e-38
-0.10842346 -0.13650523 -0.032776479 2.341804e-38
-0.1064736 -0.13650523 -0.032776479 2.3049972e-38
-0.10414606 -0.13547809 -0.028750185 2.120606e-38
-0.10220324 -0.13547809 -0.028750185 1.2078695e-38
-0.10026044 -0.13547809 -0.028750185 1.3183972e-38
-0.098317631 -0.13547809 -0.028750185 1.641047e-38
-0.096111797 -0.1347049 -0.025719408 1.6593794e-38
-0.094174303 -0.1347049 -0.025719408 1.4382167e-38
-0.091905721 -0.13369073 -0.021744017 1.05128e-38
-0.089975201 -0.13369073 -0.021744017 1.3739996e-38
-0.087729819 -0.13268389 -0.017797235 1.2355631e-38
-0.085565142 -0.13189565 -0.01470745 1.410734e-38
-0.083646961 -0.13189565 -0.01470745 1.3461228e-38
-0.081429638 -0.13087155 -0.010693077 1.0141823e-38
-0.079518504 -0.13087155 -0.010693077 1.2628604e-38
-0.077607356 -0.13087155 -0.010693077 1.6777043e-38
-0.07549309 -0.13012333 -0.0077601704 1.2167592e-38
-0.073587082 -0.13012333 -0.0077601704 1.2813315e-38
-0.071481623 -0.12934943 -0.0047265324 1.6130583e-38
