# .PCD v0.7 - Point Cloud Data file format
VERSION 0.7
FIELDS x y z rgb
SIZE 4 4 4 4
TYPE F F F F
COUNT 1 1 1 1
WIDTH 943
HEIGHT 1
VIEWPOINT 0 0 0 1 0 0 0
POINTS 943
DATA ascii
-0.056826595 -0.11414395 -0.014184115 2.3509886e-38
-0.054925915 -0.11414395 -0.014184115 2.3509527e-38
-0.052855913 -0.11319371 -0.01024258 2.3509886e-38
-0.050838742 -0.11247168 -0.0072476845 2.3509886e-38
-0.048792217 -0.11150609 -0.0032423716 2.3509886e-38
-0.046684202 -0.11005743 0.0027664918 2.3509886e-38
-0.044813238 -0.11005743 0.0027664918 2.3509883e-38
-0.043042772 -0.11076607 -0.00017285161 2.3509879e-38
-0.041166652 -0.11076607 -0.00017285161 2.3509876e-38
-0.039290536 -0.11076607 -0.00017285161 2.3509873e-38
-0.03741442 -0.11076607 -0.00017285161 2.3509879e-38
-0.035621721 -0.11150609 -0.0032423716 2.3508809e-38
-0.033842053 -0.11247168 -0.0072476845 2.3508451e-38
-0.031953532 -0.11247168 -0.0072476845 2.3508809e-38
-0.030065011 -0.11247168 -0.0072476845 2.3509168e-38
-0.028176486 -0.11247168 -0.0072476845 2.3509168e-38
-0.026287965 -0.11247168 -0.0072476845 2.3509168e-38
-0.024332728 -0.11150609 -0.0032423716 2.3509168e-38
-0.022451233 -0.11150609 -0.0032423716 2.3509527e-38
-0.020569731 -0.11150609 -0.0032423716 2.3509527e-38
-0.018688232 -0.11150609 -0.0032423716 2.3509527e-38
-0.016806733 -0.11150609 -0.0032423716 2.3509886e-38
-0.014743031 -0.10593875 0.019850614 2.3509883e-38
-0.012902022 -0.10593875 0.019850614 2.350988e-38
-0.01104813 -0.10523017 0.022789719 2.350988e-38
-0.0092122732 -0.10523017 0.022789719 2.350988e-38
-0.0073764184 -0.10523017 0.022789719 2.350988e-38
-0.0055379858 -0.10593875 0.019850614 2.3509883e-38
-0.0036969772 -0.10593875 0.019850614 2.3509886e-38
-0.0018559685 -0.10593875 0.019850614 2.3509886e-38
-1.4957972e-05 -0.10593875 0.019850614 2.3509886e-38
0.002284131 -0.11993565 -0.038207769 2.3509886e-38
0.0041977093 -0.11920498 -0.035176992 2.3509886e-38
0.0061352002 -0.11920498 -0.035176992 2.3509886e-38
0.008020414 -0.11824657 -0.031201599 2.3509886e-38
0.0098921144 -0.11729507 -0.027254818 2.3509886e-38
0.011648531 -0.1148753 -0.017217753 2.3509886e-38
0.013498683 -0.11414395 -0.014184115 2.3509886e-38
0.015319892 -0.11319371 -0.01024258 2.3509886e-38
0.017148029 -0.11247168 -0.0072476845 2.3509886e-38
0.01903655 -0.11247168 -0.0072476845 2.3509886e-38
0.02082324 -0.11150609 -0.0032423716 2.3509886e-38
0.022704739 -0.11150609 -0.0032423716 2.3509886e-38
0.024412401 -0.11005743 0.0027664918 2.3509886e-38
0.026283365 -0.11005743 0.0027664918 2.3509886e-38
0.028154328 -0.11005743 0.0027664918 2.3509886e-38
0.030025292 -0.11005743 0.0027664918 2.3509886e-38
0.031750925 -0.10908265 0.0068098325 2.3509886e-38
0.033614796 -0.10908265 0.0068098325 2.3509886e-38
0.03547867 -0.10908265 0.0068098325 2.3509886e-38
0.037342545 -0.10908265 0.0068098325 2.3509886e-38
0.039380107 -0.11005743 0.0027664918 2.3509886e-38
0.041070294 -0.10908265 0.0068098325 2.3509886e-38
0.042934168 -0.10908265 0.0068098325 2.3509886e-38
0.044652794 -0.1083564 0.0098222513 2.3509886e-38
0.046511386 -0.1083564 0.0098222513 2.3509886e-38
0.048215047 -0.10763429 0.012817623 2.3509886e-38
0.049692284 -0.10593875 0.019850614 2.3509886e-38
0.051533293 -0.10593875 0.019850614 2.3509883e-38
0.052862436 -0.10377313 0.028833391 2.3509524e-38
0.054687694 -0.10377313 0.028833391 2.3509521e-38
0.058876656 -0.11319371 -0.01024258 2.3509524e-38
0.060584016 -0.11247168 -0.0072476845 2.3509527e-38
0.062472537 -0.11247168 -0.0072476845 2.3509527e-38
0.06409771 -0.11150609 -0.0032423716 2.3509886e-38
0.065979213 -0.11150609 -0.0032423716 2.341805e-38
0.067648128 -0.11076607 -0.00017285161 2.3234379e-38
0.069315515 -0.11005743 0.0027664918 2.3234379e-38
0.070892274 -0.10908265 0.0068098325 2.3234379e-38
0.072086528 -0.10691623 0.015796067 2.3234379e-38
0.073401235 -0.10523017 0.022789719 2.3234379e-38
0.075237095 -0.10523017 0.022789719 2.3234379e-38
0.076831192 -0.10449956 0.025820257 2.3142542e-38
0.078661725 -0.10449956 0.025820257 2.3142542e-38
0.080241323 -0.10377313 0.028833391 2.2958514e-38
0.081811845 -0.10305093 0.031829119 2.2867037e-38
0.083631843 -0.10305093 0.031829119 2.2591531e-38
0.085451856 -0.10305093 0.031829119 2.2129483e-38
0.08754237 -0.10377313 0.028833391 2.3142544e-38
-0.1116605 -0.13572191 -0.095215082 1.9176674e-38
-0.10926197 -0.13474621 -0.091197133 2.1020587e-38
-0.10722627 -0.13474621 -0.091197133 2.0836196e-38
-0.10519056 -0.13474621 -0.091197133 2.0098988e-38
-0.10282251 -0.13377722 -0.087206841 1.7518221e-38
-0.10013914 -0.13182731 -0.079177141 1.1894645e-38
-0.097812712 -0.13087825 -0.075268865 1.4383208e-38
-0.095251232 -0.12915494 -0.068172336 1.309247e-38
-0.092953771 -0.12819304 -0.06421113 1.2353107e-38
-0.090662822 -0.12720706 -0.060150862 2.0834029e-38
-0.088397354 -0.1262586 -0.056245208 2.3046724e-38
-0.086209521 -0.12552883 -0.053239942 2.3507705e-38
-0.084240347 -0.12552883 -0.053239942 2.2953813e-38
-0.082002386 -0.1245618 -0.049257755 2.3509509e-38
-0.07977213 -0.12357174 -0.045180678 2.3509509e-38
-0.077628523 -0.12285618 -0.042234063 2.3509509e-38
-0.075428054 -0.12187846 -0.038207769 2.3141086e-38
-0.073301926 -0.12114246 -0.035176992 2.2957414e-38
-0.071130931 -0.12017711 -0.031201599 2.350987e-38
-0.069200411 -0.12017711 -0.031201599 2.3509873e-38
-0.067051902 -0.11921866 -0.027254818 2.3509879e-38
-0.064963073 -0.11846836 -0.024165032 2.350988e-38
-0.062837258 -0.11749353 -0.02015066 2.3509883e-38
-0.06077956 -0.11678131 -0.017217753 2.3509883e-38
-0.058727283 -0.11604463 -0.014184115 2.3509886e-38
-0.056826595 -0.11604463 -0.014184115 2.3509886e-38
-0.054749686 -0.11508749 -0.01024258 2.3509886e-38
-0.052727271 -0.1143602 -0.0072476845 2.3509886e-38
-0.050673712 -0.11338757 -0.0032423716 2.3417691e-38
-0.048671115 -0.11264218 -0.00017285161 2.341769e-38
-0.046684202 -0.11192839 0.0027664918 2.3418043e-38
-0.044667907 -0.11094652 0.0068098325 2.3509879e-38
-0.042804033 -0.11094652 0.0068098325 2.3509873e-38
-0.040940158 -0.11094652 0.0068098325 2.350987e-38
-0.039200347 -0.11192839 0.0027664918 2.3509869e-38
-0.037329383 -0.11192839 0.0027664918 2.350987e-38
-0.035538305 -0.11264218 -0.00017285161 2.3509517e-38
-0.033740222 -0.11338757 -0.0032423716 2.3509163e-38
-0.031953532 -0.1143602 -0.0072476845 2.3508807e-38
-0.030065011 -0.1143602 -0.0072476845 2.3508808e-38
-0.028176486 -0.1143602 -0.0072476845 2.3508809e-38
-0.026287965 -0.1143602 -0.0072476845 2.3509168e-38
-0.024332728 -0.11338757 -0.0032423716 2.3509168e-38
-0.022451233 -0.11338757 -0.0032423716 2.3509168e-38
-0.020569731 -0.11338757 -0.0032423716 2.3509527e-38
-0.018505204 -0.10948761 0.012817623 2.3509527e-38
-0.016623139 -0.10876434 0.015796067 2.3509886e-38
-0.014743031 -0.10777976 0.019850614 2.3509886e-38
-0.012902022 -0.10777976 0.019850614 2.3509883e-38
-0.01104813 -0.10706602 0.022789719 2.350988e-38
-0.0092122732 -0.10706602 0.022789719 2.3418043e-38
-0.0073789945 -0.10777976 0.019850614 2.3418043e-38
-0.0055379858 -0.10777976 0.019850614 2.3509883e-38
-0.0037047071 -0.10706602 0.022789719 2.3509886e-38
-0.0018688506 -0.10706602 0.022789719 2.3509886e-38
-3.2994896e-05 -0.10706602 0.022789719 2.3509886e-38
0.0018028608 -0.10706602 0.022789719 2.3509886e-38
0.0036387164 -0.10706602 0.022789719 2.3509886e-38
0.005474573 -0.10706602 0.022789719 2.3509886e-38
0.011648531 -0.11678131 -0.017217753 2.3509886e-38
0.013498683 -0.11604463 -0.014184115 2.3509886e-38
0.015319892 -0.11508749 -0.01024258 2.3509886e-38
0.017060243 -0.11338757 -0.0032423716 2.3509886e-38
0.018941741 -0.11338757 -0.0032423716 2.3509886e-38
0.020745203 -0.11264218 -0.00017285161 2.3509886e-38
0.022541441 -0.11192839 0.0027664918 2.3509886e-38
0.024295431 -0.11094652 0.0068098325 2.3509886e-38
0.026159301 -0.11094652 0.0068098325 2.3509886e-38
0.028023176 -0.11094652 0.0068098325 2.3509886e-38
0.02988705 -0.11094652 0.0068098325 2.3509886e-38
0.031534985 -0.10948761 0.012817623 2.3509886e-38
0.033388324 -0.10948761 0.012817623 2.3509886e-38
0.03535983 -0.11021499 0.0098222513 2.3509886e-38
0.037218425 -0.11021499 0.0098222513 2.3509886e-38
0.039206419 -0.11094652 0.0068098325 2.3509886e-38
0.041070294 -0.11094652 0.0068098325 2.3509886e-38
0.042794202 -0.11021499 0.0098222513 2.3509886e-38
0.044364754 -0.10876434 0.015796067 2.3509886e-38
0.046212874 -0.10876434 0.015796067 2.3509886e-38
0.047851276 -0.10777976 0.019850614 2.3509886e-38
0.049535111 -0.10706602 0.022789719 2.3509886e-38
0.051037174 -0.10559841 0.028833391 2.3509883e-38
0.052467655 -0.10391603 0.035761356 2.3509524e-38
0.054280769 -0.10391603 0.035761356 2.3509521e-38
0.056093879 -0.10391603 0.035761356 2.3509524e-38
0.057906993 -0.10391603 0.035761356 2.3509883e-38
0.059720106 -0.10391603 0.035761356 2.3509527e-38
0.061138712 -0.10245901 0.041761398 2.3509886e-38
0.065772004 -0.11264218 -0.00017285161 2.3509886e-38
0.067648128 -0.11264218 -0.00017285161 2.341805e-38
0.0690284 -0.11094652 0.0068098325 2.3325856e-38
0.069729522 -0.10706602 0.022789719 2.341805e-38
0.071339555 -0.10633011 0.025820257 2.341805e-38
0.073170096 -0.10633011 0.025820257 2.3418047e-38
0.075000644 -0.10633011 0.025820257 2.3418045e-38
0.076590806 -0.10559841 0.028833391 2.3418043e-38
0.078416064 -0.10559841 0.028833391 2.3326206e-38
0.080241323 -0.10559841 0.028833391 2.3142539e-38
0.081811845 -0.10487093 0.031829119 2.3142544e-38
0.083631843 -0.10487093 0.031829119 2.1852894e-38
0.085451856 -0.10487093 0.031829119 2.3234379e-38
0.08754237 -0.10559841 0.028833391 2.3326208e-38
0.089644983 -0.10633011 0.025820257 2.350986e-38
0.091475531 -0.10633011 0.025820257 2.3325811e-38
0.093306065 -0.10633011 0.025820257 1.7793709e-38
0.095136613 -0.10633011 0.025820257 4.9781618e-39
0.096967146 -0.10633011 0.025820257 4.3320932e-39
-0.1116605 -0.13776468 -0.095215082 1.9176677e-38
-0.10926197 -0.13678192 -0.091197133 2.1112782e-38
-0.10722627 -0.13678192 -0.091197133 2.0928391e-38
-0.10485123 -0.13580595 -0.087206841 2.0191183e-38
-0.10249247 -0.13483663 -0.083243847 1.5674311e-38
-0.10013914 -0.13384195 -0.079177141 1.1986123e-38
-0.097492754 -0.13190506 -0.071258187 1.4936383e-38
-0.095251232 -0.13115029 -0.068172336 1.3367978e-38
-0.092953771 -0.13018142 -0.06421113 1.216764e-38
-0.090662822 -0.12918831 -0.060150862 1.4103388e-38
-0.088178679 -0.12749799 -0.053239942 1.2720454e-38
-0.086209521 -0.12749799 -0.053239942 1.6960378e-38
-0.083964556 -0.12652399 -0.049257755 2.3137485e-38
-0.082002386 -0.12652399 -0.049257755 2.3508067e-38
-0.07977213 -0.12552677 -0.045180678 2.3507707e-38
-0.077628523 -0.12480606 -0.042234063 2.3509866e-38
-0.075428054 -0.12382124 -0.038207769 2.3509869e-38
-0.073301926 -0.12307997 -0.035176992 2.2864857e-38
-0.071130931 -0.12210761 -0.031201599 2.3418031e-38
-0.068975508 -0.12114228 -0.027254818 2.2957414e-38
-0.066881254 -0.12038656 -0.024165032 2.3509879e-38
-0.064748399 -0.11940466 -0.02015066 2.350988e-38
-0.062685549 -0.11868732 -0.017217753 2.3509883e-38
-0.06077956 -0.11868732 -0.017217753 2.3509886e-38
-0.058727283 -0.11794533 -0.014184115 2.3509886e-38
-0.05664346 -0.11698125 -0.01024258 2.3509886e-38
-0.054749686 -0.11698125 -0.01024258 2.3509886e-38
-0.052727271 -0.11624874 -0.0072476845 2.3509886e-38
-0.050673712 -0.11526908 -0.0032423716 2.3509886e-38
-0.048671115 -0.1145183 -0.00017285161 2.3417687e-38
-0.046684202 -0.11379938 0.0027664918 2.3418042e-38
-0.044667907 -0.11281042 0.0068098325 2.3418036e-38
-0.042804033 -0.11281042 0.0068098325 2.3418032e-38
-0.040940158 -0.11281042 0.0068098325 2.3418026e-38
-0.039200347 -0.11379938 0.0027664918 2.3418023e-38
-0.037038606 -0.11134095 0.012817623 2.3509858e-38
-0.035104323 -0.11061247 0.015796067 2.3509859e-38
-0.033256203 -0.11061247 0.015796067 2.350986e-38
-0.031953532 -0.11624874 -0.0072476845 2.3509866e-38
-0.030065011 -0.11624874 -0.0072476845 2.3509511e-38
-0.028176486 -0.11624874 -0.0072476845 2.350952e-38
-0.026214227 -0.11526908 -0.0032423716 2.3509165e-38
-0.024332728 -0.11526908 -0.0032423716 2.3508809e-38
-0.022451233 -0.11526908 -0.0032423716 2.3508451e-38
-0.020319376 -0.11061247 0.015796067 2.3509168e-38
-0.01847126 -0.11061247 0.015796067 2.3509168e-38
-0.016584039 -0.10962076 0.019850614 2.3509527e-38
-0.014743031 -0.10962076 0.019850614 2.3509886e-38
-0.012883986 -0.10890187 0.022789719 2.3509883e-38
-0.011034845 -0.10816063 0.025820257 2.350988e-38
-0.0092043029 -0.10816063 0.025820257 2.3418043e-38
-0.0073764184 -0.10890187 0.022789719 2.3418043e-38
-0.0055405619 -0.10890187 0.022789719 2.3509883e-38
-0.0037047071 -0.10890187 0.022789719 2.3509886e-38
-0.0018688506 -0.10890187 0.022789719 2.3509886e-38
-3.2994896e-05 -0.10890187 0.022789719 2.3509886e-38
0.0018028608 -0.10890187 0.022789719 2.3509886e-38
0.0085938759 -0.099835888 0.059855819 2.3509886e-38
0.017060243 -0.11526908 -0.0032423716 2.3509886e-38
0.018941741 -0.11526908 -0.0032423716 2.3509886e-38
0.020745203 -0.1145183 -0.00017285161 2.3509886e-38
0.022541441 -0.11379938 0.0027664918 2.3509886e-38
0.024295431 -0.11281042 0.0068098325 2.3509886e-38
0.026159301 -0.11281042 0.0068098325 2.3509886e-38
0.028023176 -0.11281042 0.0068098325 2.3509886e-38
0.02988705 -0.11281042 0.0068098325 2.3509886e-38
0.030494649 -0.10426159 0.041761398 2.3509886e-38
0.032297239 -0.10426159 0.041761398 2.3509886e-38
0.033980459 -0.10352151 0.044787288 2.3509886e-38
0.035777748 -0.10352151 0.044787288 2.3509886e-38
0.039206419 -0.11281042 0.0068098325 2.3509886e-38
0.040935609 -0.11207359 0.0098222513 2.3509886e-38
0.042655025 -0.11134095 0.012817623 2.3509886e-38
0.044364754 -0.11061247 0.015796067 2.3509886e-38
0.046010267 -0.10962076 0.019850614 2.3509886e-38
0.047699254 -0.10890187 0.022789719 2.3509886e-38
0.049373049 -0.10816063 0.025820257 2.3509886e-38
0.050871722 -0.10669093 0.031829119 2.3509886e-38
0.052293207 -0.10498036 0.03882277 2.3509883e-38
0.054100949 -0.10498036 0.03882277 2.350988e-38
0.055908695 -0.10498036 0.03882277 2.3509883e-38
0.057716437 -0.10498036 0.03882277 2.3509883e-38
0.059336118 -0.10426159 0.041761398 2.3509527e-38
0.061138712 -0.10426159 0.041761398 2.3509527e-38
0.062941305 -0.10426159 0.041761398 2.3509886e-38
0.064743899 -0.10426159 0.041761398 2.3509883e-38
0.066546492 -0.10426159 0.041761398 2.3325492e-38
0.069071792 -0.10669093 0.031829119 2.3418043e-38
0.070891798 -0.10669093 0.031829119 2.3509518e-38
0.07294029 -0.10742365 0.028833391 2.3509876e-38
0.074765548 -0.10742365 0.028833391 2.3509873e-38
0.076590806 -0.10742365 0.028833391 2.3418033e-38
0.078416064 -0.10742365 0.028833391 2.3509867e-38
0.080241323 -0.10742365 0.028833391 2.3326196e-38
0.082066581 -0.10742365 0.028833391 2.3142171e-38
0.083891839 -0.10742365 0.028833391 2.3418043e-38
0.085717112 -0.10742365 0.028833391 2.3049259e-38
0.087814435 -0.10816063 0.025820257 2.3049245e-38
0.089644983 -0.10816063 0.025820257 2.3509844e-38
0.091475531 -0.10816063 0.025820257 2.3417986e-38
0.093306065 -0.10816063 0.025820257 2.3140676e-38
0.095136613 -0.10816063 0.025820257 5.8997454e-39
0.096967146 -0.10816063 0.025820257 4.5157572e-39
-0.1116605 -0.13980745 -0.095215082 1.9361071e-38
-0.10926197 -0.13881765 -0.091197133 2.1204981e-38
-0.10722627 -0.13881765 -0.091197133 2.102059e-38
-0.10485123 -0.13783465 -0.087206841 2.0283022e-38
-0.10249247 -0.13685839 -0.083243847 1.7701899e-38
-0.10013914 -0.13585658 -0.079177141 1.3276506e-38
-0.097492754 -0.13390581 -0.071258187 1.4842755e-38
-0.095251232 -0.13314565 -0.068172336 1.1431157e-38
-0.092953771 -0.13216983 -0.06421113 9.0322724e-39
-0.090147838 -0.12946714 -0.053239942 9.4925317e-39
-0.088178679 -0.12946714 -0.053239942 9.0308333e-39
-0.085926741 -0.12848614 -0.049257755 1.3179281e-38
-0.083964556 -0.12848614 -0.049257755 1.972517e-38
-0.082002386 -0.12848614 -0.049257755 1.9448584e-38
-0.07977213 -0.1274818 -0.045180678 1.9910641e-38
-0.077628523 -0.12675591 -0.042234063 2.2585033e-38
-0.075428054 -0.12576406 -0.038207769 2.3509869e-38
-0.073301926 -0.12501745 -0.035176992 2.3509869e-38
-0.071130931 -0.12403814 -0.031201599 2.3509869e-38
-0.068975508 -0.12306587 -0.027254818 2.350987e-38
-0.066881254 -0.12230472 -0.024165032 2.3509879e-38
-0.064748399 -0.12131582 -0.02015066 2.3509883e-38
-0.062685549 -0.12059332 -0.017217753 2.3509886e-38
-0.06077956 -0.12059332 -0.017217753 2.3509886e-38
-0.058727283 -0.119846 -0.014184115 2.3509886e-38
-0.05664346 -0.11887501 -0.01024258 2.3509886e-38
-0.054615784 -0.11813726 -0.0072476845 2.3509886e-38
-0.052423354 -0.11639442 -0.00017285161 2.3509886e-38
-0.050426129 -0.11567034 0.0027664918 2.3509883e-38
-0.048555162 -0.11567034 0.0027664918 2.3509879e-38
-0.046531778 -0.11467429 0.0068098325 2.3509873e-38
-0.044667907 -0.11467429 0.0068098325 2.3418032e-38
-0.042701036 -0.11393218 0.0098222513 2.3326187e-38
-0.040745284 -0.1131943 0.012817623 2.3234348e-38
-0.038891945 -0.1131943 0.012817623 2.3142506e-38
-0.03695244 -0.11246057 0.015796067 2.3234334e-38
-0.035104323 -0.11246057 0.015796067 2.350983e-38
-0.03315312 -0.11146177 0.019850614 2.3509825e-38
-0.031312112 -0.11146177 0.019850614 2.3509837e-38
-0.029471103 -0.11146177 0.019850614 2.3509846e-38
-0.028176486 -0.11813726 -0.0072476845 2.350986e-38
-0.026214227 -0.11715056 -0.0032423716 2.350987e-38
-0.023948077 -0.11146177 0.019850614 2.3509521e-38
-0.022063266 -0.11073773 0.022789719 2.3508451e-38
-0.02022741 -0.11073773 0.022789719 2.3509168e-38
-0.018391553 -0.11073773 0.022789719 2.3509168e-38
-0.016555697 -0.11073773 0.022789719 2.3509527e-38
-0.014719841 -0.11073773 0.022789719 2.3509527e-38
-0.012865388 -0.10999118 0.025820257 2.341805e-38
-0.011021639 -0.10924892 0.028833391 2.3418047e-38
-0.0091885002 -0.10851096 0.031829119 2.3418043e-38
-0.0073684929 -0.10851096 0.031829119 2.3418043e-38
-0.0055484874 -0.10851096 0.031829119 2.3509883e-38
-0.0037546018 -0.10606419 0.041761398 2.3509886e-38
-0.0019520102 -0.10606419 0.041761398 2.3509886e-38
-0.00014941767 -0.10606419 0.041761398 2.3509886e-38
0.0015104096 -0.10160676 0.059855819 2.3509886e-38
0.0032812757 -0.10160676 0.059855819 2.3509886e-38
0.0050521428 -0.10160676 0.059855819 2.3509886e-38
0.015810959 -0.1031086 0.053759217 2.3509886e-38
0.017592516 -0.1031086 0.053759217 2.3509886e-38
0.019679096 -0.10606419 0.041761398 2.3509886e-38
0.021481689 -0.10606419 0.041761398 2.3509886e-38
0.023284279 -0.10606419 0.041761398 2.3509886e-38
0.025086872 -0.10606419 0.041761398 2.3509886e-38
0.026889462 -0.10606419 0.041761398 2.3509886e-38
0.0285886 -0.1053188 0.044787288 2.3509886e-38
0.030385889 -0.1053188 0.044787288 2.3509886e-38
0.032183174 -0.1053188 0.044787288 2.3509886e-38
0.033861786 -0.10457774 0.047795534 2.3509886e-38
0.035530575 -0.10384102 0.050786138 2.3509886e-38
0.037189629 -0.1031086 0.053759217 2.3509886e-38
0.038971186 -0.1031086 0.053759217 2.3509886e-38
0.042655025 -0.1131943 0.012817623 2.3509886e-38
0.044364754 -0.11246057 0.015796067 2.3509886e-38
0.045863401 -0.11073773 0.022789719 2.3509886e-38
0.047699254 -0.11073773 0.022789719 2.3509886e-38
0.049211916 -0.10924892 0.028833391 2.3509886e-38
0.050654545 -0.10754226 0.035761356 2.3509886e-38
0.052293207 -0.10678811 0.03882277 2.3509883e-38
0.054100949 -0.10678811 0.03882277 2.3509883e-38
0.055730939 -0.10606419 0.041761398 2.3509883e-38
0.057533532 -0.10606419 0.041761398 2.3509883e-38
0.059336118 -0.10606419 0.041761398 2.3509883e-38
0.060939759 -0.1053188 0.044787288 2.3509883e-38
0.062737048 -0.1053188 0.044787288 2.3509883e-38
0.064743899 -0.10606419 0.041761398 2.350988e-38
0.066546492 -0.10606419 0.041761398 2.3509518e-38
0.06856291 -0.10678811 0.03882277 2.3509876e-38
0.070370652 -0.10678811 0.03882277 2.350987e-38
0.072711803 -0.10851096 0.031829119 2.3509869e-38
0.074765548 -0.10924892 0.028833391 2.3509863e-38
0.076590806 -0.10924892 0.028833391 2.350986e-38
0.078416064 -0.10924892 0.028833391 2.3509858e-38
0.080241323 -0.10924892 0.028833391 2.3418018e-38
0.082066581 -0.10924892 0.028833391 2.3325458e-38
0.083891839 -0.10924892 0.028833391 2.3509853e-38
0.085717112 -0.10924892 0.028833391 2.3509852e-38
0.087814435 -0.10999118 0.025820257 2.3509844e-38
0.089923948 -0.11073773 0.022789719 2.3509816e-38
0.091475531 -0.10999118 0.025820257 2.3233209e-38
0.093306065 -0.10999118 0.025820257 2.35098e-38
0.095136613 -0.10999118 0.025820257 6.6369307e-39
0.096967146 -0.10999118 0.025820257 4.6994198e-39
-0.1116605 -0.14185019 -0.095215082 1.8991933e-38
-0.10926197 -0.14085336 -0.091197133 2.0559614e-38
-0.10687995 -0.13986339 -0.087206841 2.0283027e-38
-0.10485123 -0.13986339 -0.087206841 1.9914242e-38
-0.10249247 -0.13888018 -0.083243847 1.6687392e-38
-0.10013914 -0.13787122 -0.079177141 1.226128e-38
-0.097492754 -0.13590656 -0.071258187 1.4657649e-38
-0.095251232 -0.13514097 -0.068172336 1.1890701e-38
-0.092953771 -0.13415821 -0.06421113 8.3861884e-39
-0.090147838 -0.1314363 -0.053239942 1.0505609e-38
-0.088178679 -0.1314363 -0.053239942 1.1703433e-38
-0.085926741 -0.13044833 -0.049257755 9.9517162e-39
-0.083964556 -0.13044833 -0.049257755 1.0135387e-38
-0.082002386 -0.13044833 -0.049257755 1.0689639e-38
-0.07977213 -0.12943684 -0.045180678 1.3824652e-38
-0.077628523 -0.12870578 -0.042234063 1.5670361e-38
-0.075428054 -0.12770687 -0.038207769 1.7145852e-38
-0.073301926 -0.12695493 -0.035176992 1.8714256e-38
-0.071130931 -0.12596865 -0.031201599 2.0282301e-38
-0.068975508 -0.12498946 -0.027254818 2.3048893e-38
-0.066881254 -0.12422292 -0.024165032 2.350988e-38
-0.064748399 -0.12322696 -0.02015066 2.3509883e-38
-0.062685549 -0.1224993 -0.017217753 2.3509886e-38
-0.06077956 -0.1224993 -0.017217753 2.3509886e-38
-0.058727283 -0.12174667 -0.014184115 2.3509886e-38
-0.056504313 -0.12002577 -0.0072476845 2.3509886e-38
-0.05443671 -0.11903207 -0.0032423716 2.3509886e-38
-0.052423354 -0.11827053 -0.00017285161 2.3509883e-38
-0.050426129 -0.1175413 0.0027664918 2.350988e-38
-0.048395652 -0.11653815 0.0068098325 2.3509876e-38
-0.04641822 -0.11579077 0.0098222513 2.350987e-38
-0.044451967 -0.11504765 0.012817623 2.3418026e-38
-0.042496793 -0.1143087 0.015796067 2.3234348e-38
-0.040517159 -0.11330278 0.019850614 2.3142503e-38
-0.03867615 -0.11330278 0.019850614 2.3050663e-38
-0.036835138 -0.11330278 0.019850614 2.3050651e-38
-0.034994129 -0.11330278 0.019850614 2.3049184e-38
-0.033078399 -0.11257361 0.022789719 2.3141371e-38
-0.031242546 -0.11257361 0.022789719 2.3141383e-38
-0.029406689 -0.11257361 0.022789719 2.3509461e-38
-0.027448971 -0.11107419 0.028833391 2.3509844e-38
-0.025623713 -0.11107419 0.028833391 2.3509859e-38
-0.023798455 -0.11107419 0.028833391 2.3509873e-38
-0.022018101 -0.11182173 0.025820257 2.3509524e-38
-0.02018756 -0.11182173 0.025820257 2.3509527e-38
-0.018357016 -0.11182173 0.025820257 2.3509168e-38
-0.016526472 -0.11182173 0.025820257 2.3509527e-38
-0.01469593 -0.11182173 0.025820257 2.3509527e-38
-0.012865388 -0.11182173 0.025820257 2.341805e-38
-0.011021639 -0.11107419 0.028833391 2.341805e-38
-0.0091701066 -0.10859586 0.03882277 2.3418045e-38
-0.0073623629 -0.10859586 0.03882277 2.3418045e-38
-0.0055546174 -0.10859586 0.03882277 2.3509883e-38
-0.0037704716 -0.10636975 0.047795534 2.3509886e-38
-0.0020046001 -0.10489015 0.053759217 2.3509886e-38
-0.00024180766 -0.10413162 0.056816697 2.3509886e-38
0.0015104096 -0.10337763 0.059855819 2.3509886e-38
0.0032812757 -0.10337763 0.059855819 2.3509886e-38
0.0050521428 -0.10337763 0.059855819 2.3509886e-38
0.0067846049 -0.10265306 0.062776327 2.3509886e-38
0.015810959 -0.10489015 0.053759217 2.3509886e-38
0.017592516 -0.10489015 0.053759217 2.3509886e-38
0.019374073 -0.10489015 0.053759217 2.3509886e-38
0.021399453 -0.10711606 0.044787288 2.3509886e-38
0.023196742 -0.10711606 0.044787288 2.3509886e-38
0.024994027 -0.10711606 0.044787288 2.3509886e-38
0.026791316 -0.10711606 0.044787288 2.3509886e-38
0.0285886 -0.10711606 0.044787288 2.3509886e-38
0.030385889 -0.10711606 0.044787288 2.3509886e-38
0.032183174 -0.10711606 0.044787288 2.3509886e-38
0.033861786 -0.10636975 0.047795534 2.3509886e-38
0.035530575 -0.10562779 0.050786138 2.3509886e-38
0.037189629 -0.10489015 0.053759217 2.3509886e-38
0.038971186 -0.10489015 0.053759217 2.3509886e-38
0.040752742 -0.10489015 0.053759217 2.3509886e-38
0.042534299 -0.10489015 0.053759217 2.3509886e-38
0.044464421 -0.10562779 0.050786138 2.3509886e-38
0.046251189 -0.10562779 0.050786138 2.3509886e-38
0.048520569 -0.10786678 0.041761398 2.3509886e-38
0.050485462 -0.10859586 0.03882277 2.3509886e-38
0.052125752 -0.10786678 0.041761398 2.3509883e-38
0.053928345 -0.10786678 0.041761398 2.3509883e-38
0.055730939 -0.10786678 0.041761398 2.3509883e-38
0.057533532 -0.10786678 0.041761398 2.3509883e-38
0.059336118 -0.10786678 0.041761398 2.3509883e-38
0.060939759 -0.10711606 0.044787288 2.350988e-38
0.062737048 -0.10711606 0.044787288 2.350988e-38
0.064743899 -0.10786678 0.041761398 2.3509879e-38
0.066546492 -0.10786678 0.041761398 2.3509873e-38
0.068349086 -0.10786678 0.041761398 2.3509869e-38
0.070370652 -0.10859586 0.03882277 2.3509866e-38
0.072411887 -0.10935538 0.035761356 2.350986e-38
0.074531808 -0.11033095 0.031829119 2.3509859e-38
0.076590806 -0.11107419 0.028833391 2.3509852e-38
0.078416064 -0.11107419 0.028833391 2.3509848e-38
0.080241323 -0.11107419 0.028833391 2.3509841e-38
0.082066581 -0.11107419 0.028833391 2.350983e-38
0.083891839 -0.11107419 0.028833391 2.2771896e-38
0.085717112 -0.11107419 0.028833391 2.3509831e-38
0.08808808 -0.11257361 0.022789719 2.295592e-38
0.089923948 -0.11257361 0.022789719 2.277222e-38
0.091759801 -0.11257361 0.022789719 2.3509779e-38
0.093595654 -0.11257361 0.022789719 2.3417215e-38
0.095431507 -0.11257361 0.022789719 1.0693163e-38
0.097267359 -0.11257361 0.022789719 5.7128416e-39
-0.1116605 -0.14389296 -0.095215082 1.8899737e-38
-0.10926197 -0.14288907 -0.091197133 2.0283027e-38
-0.10687995 -0.14189209 -0.087206841 2.000644e-38
-0.10451424 -0.14090194 -0.083243847 1.9822049e-38
-0.10249247 -0.14090194 -0.083243847 1.8899014e-38
-0.10013914 -0.13988586 -0.079177141 1.4934602e-38
-0.097492754 -0.13790731 -0.071258187 1.5487057e-38
-0.095251232 -0.13713633 -0.068172336 1.2167294e-38
-0.092953771 -0.13614662 -0.06421113 9.1233975e-39
-0.090147838 -0.13340546 -0.053239942 1.1150981e-38
-0.088178679 -0.13340546 -0.053239942 1.4007248e-38
-0.085926741 -0.13241051 -0.049257755 1.0411618e-38
-0.083964556 -0.13241051 -0.049257755 9.8580842e-39
-0.082002386 -0.13241051 -0.049257755 1.0780757e-38
-0.07977213 -0.13139187 -0.045180678 1.4470024e-38
-0.077628523 -0.13065563 -0.042234063 1.3272557e-38
-0.075428054 -0.12964968 -0.038207769 1.3549507e-38
-0.073301926 -0.12889244 -0.035176992 1.7239127e-38
-0.071130931 -0.12789918 -0.031201599 1.9636576e-38
-0.068975508 -0.12691309 -0.027254818 2.3509876e-38
-0.066881254 -0.12614109 -0.024165032 2.350988e-38
-0.064748399 -0.12513812 -0.02015066 2.3509883e-38
-0.062837258 -0.12513812 -0.02015066 2.3509886e-38
-0.06077956 -0.12440531 -0.017217753 2.3509886e-38
-0.058727283 -0.12364738 -0.014184115 2.3509886e-38
-0.056504313 -0.12191428 -0.0072476845 2.3509886e-38
-0.05443671 -0.12091358 -0.0032423716 2.3509886e-38
-0.052423354 -0.12014665 -0.00017285161 2.3509883e-38
-0.050426129 -0.11941226 0.0027664918 2.3509879e-38
-0.048395652 -0.11840202 0.0068098325 2.3509873e-38
-0.04641822 -0.11764936 0.0098222513 2.3418032e-38
-0.044451967 -0.11690097 0.012817623 2.3326187e-38
-0.042496793 -0.1161568 0.015796067 2.3234343e-38
-0.040517159 -0.11514379 0.019850614 2.31425e-38
-0.03867615 -0.11514379 0.019850614 2.3050662e-38
-0.036835138 -0.11514379 0.019850614 2.3142476e-38
-0.034914259 -0.11440946 0.022789719 2.305024e-38
-0.033001352 -0.11365227 0.025820257 2.2865835e-38
-0.031170812 -0.11365227 0.025820257 2.2773293e-38
-0.029274229 -0.11289944 0.028833391 2.3048821e-38
-0.027448971 -0.11289944 0.028833391 2.3509461e-38
-0.025568563 -0.11215095 0.031829119 2.3509846e-38
-0.023748554 -0.11215095 0.031829119 2.3509866e-38
-0.021928549 -0.11215095 0.031829119 2.3509879e-38
-0.02010854 -0.11215095 0.031829119 2.3509527e-38
-0.018288534 -0.11215095 0.031829119 2.3509168e-38
-0.016497418 -0.11289944 0.028833391 2.3509168e-38
-0.014672155 -0.11289944 0.028833391 2.3509527e-38
-0.012846897 -0.11289944 0.028833391 2.341805e-38
-0.010991271 -0.11116849 0.035761356 2.341805e-38
-0.0091544194 -0.10891335 0.044787288 2.3418047e-38
-0.007354497 -0.10816176 0.047795534 2.3418047e-38
-0.0055651059 -0.10741456 0.050786138 2.3509886e-38
-0.0037861569 -0.10667174 0.053759217 2.3509886e-38
-0.0020180019 -0.10590781 0.056816697 2.3509886e-38
-0.00026045647 -0.10514848 0.059855819 2.3509886e-38
0.0014873669 -0.1044188 0.062776327 2.3509886e-38
0.0032531125 -0.1044188 0.062776327 2.3509886e-38
0.0050188582 -0.1044188 0.062776327 2.3509886e-38
0.014029403 -0.10667174 0.053759217 2.3509886e-38
0.015810959 -0.10667174 0.053759217 2.3509886e-38
0.017592516 -0.10667174 0.053759217 2.3509886e-38
0.019374073 -0.10667174 0.053759217 2.3509886e-38
0.021317702 -0.10816176 0.047795534 2.3509886e-38
0.023109712 -0.10816176 0.047795534 2.3509886e-38
0.024901725 -0.10816176 0.047795534 2.3509886e-38
0.026693735 -0.10816176 0.047795534 2.3509886e-38
0.028485749 -0.10816176 0.047795534 2.3509886e-38
0.030277763 -0.10816176 0.047795534 2.3509886e-38
0.032069772 -0.10816176 0.047795534 2.3509886e-38
0.033743806 -0.10741456 0.050786138 2.3509886e-38
0.035408076 -0.10667174 0.053759217 2.3509886e-38
0.037189629 -0.10667174 0.053759217 2.3509886e-38
0.038971186 -0.10667174 0.053759217 2.3509886e-38
0.040752742 -0.10667174 0.053759217 2.3509886e-38
0.042534299 -0.10667174 0.053759217 2.3509886e-38
0.044464421 -0.10741456 0.050786138 2.3509886e-38
0.046251189 -0.10741456 0.050786138 2.3509886e-38
0.048197884 -0.10816176 0.047795534 2.3509886e-38
0.050323162 -0.10966937 0.041761398 2.3509886e-38
0.052125752 -0.10966937 0.041761398 2.3418047e-38
0.053928345 -0.10966937 0.041761398 2.3418047e-38
0.055730939 -0.10966937 0.041761398 2.3418047e-38
0.057533532 -0.10966937 0.041761398 2.3418047e-38
0.059336118 -0.10966937 0.041761398 2.350988e-38
0.061138712 -0.10966937 0.041761398 2.350988e-38
0.062941305 -0.10966937 0.041761398 2.3509879e-38
0.064743899 -0.10966937 0.041761398 2.3509876e-38
0.066546492 -0.10966937 0.041761398 2.350951e-38
0.068349086 -0.10966937 0.041761398 2.3509865e-38
0.070370652 -0.11040358 0.03882277 2.3509859e-38
0.072178394 -0.11040358 0.03882277 2.3509853e-38
0.074531808 -0.11215095 0.031829119 2.3509488e-38
0.076351814 -0.11215095 0.031829119 2.3509483e-38
0.078416064 -0.11289944 0.028833391 2.3508762e-38
0.080241323 -0.11289944 0.028833391 2.3509108e-38
0.082066581 -0.11289944 0.028833391 2.3233215e-38
0.083891839 -0.11289944 0.028833391 2.3509804e-38
0.085717112 -0.11289944 0.028833391 2.3231773e-38
0.08808808 -0.11440946 0.022789719 2.3509797e-38
0.089923948 -0.11440946 0.022789719 2.3509774e-38
0.091759801 -0.11440946 0.022789719 2.2219009e-38
0.093595654 -0.11440946 0.022789719 2.3509764e-38
0.095431507 -0.11440946 0.022789719 1.0139975e-38
0.097267359 -0.11440946 0.022789719 7.1879633e-39
0.099399537 -0.11514379 0.019850614 6.1727632e-39
-0.1116605 -0.1459357 -0.095215082 1.9545106e-38
-0.10926197 -0.14492477 -0.091197133 2.0835845e-38
-0.10687995 -0.14392079 -0.087206841 2.0467419e-38
-0.10451424 -0.1429237 -0.083243847 2.0559614e-38
-0.10249247 -0.1429237 -0.083243847 2.1112788e-38
-0.10013914 -0.14190049 -0.079177141 2.1296097e-38
-0.097492754 -0.13990806 -0.071258187 2.175636e-38
-0.095251232 -0.13913165 -0.068172336 1.9358553e-38
-0.092953771 -0.138135 -0.06421113 1.7145139e-38
-0.090371773 -0.13613077 -0.056245208 1.3640986e-38
-0.088178679 -0.13537462 -0.053239942 1.2533562e-38
-0.085926741 -0.1343727 -0.049257755 9.5829393e-39
-0.083964556 -0.1343727 -0.049257755 9.398548e-39
-0.082002386 -0.1343727 -0.049257755 8.7538947e-39
-0.07977213 -0.13334687 -0.045180678 1.1704155e-38
-0.077628523 -0.13260551 -0.042234063 9.1241135e-39
-0.075428054 -0.13159247 -0.038207769 1.1429723e-38
-0.073301926 -0.13082992 -0.035176992 1.8529864e-38
-0.071130931 -0.12982969 -0.031201599 2.0373777e-38
-0.068975508 -0.12883668 -0.027254818 2.350987e-38
-0.066881254 -0.12805928 -0.024165032 2.3509879e-38
-0.064748399 -0.12704925 -0.02015066 2.3509883e-38
-0.062837258 -0.12704925 -0.02015066 2.3509527e-38
-0.06077956 -0.12631132 -0.017217753 2.3509886e-38
-0.058727283 -0.12554805 -0.014184115 2.3509886e-38
-0.056504313 -0.12380283 -0.0072476845 2.3509886e-38
-0.05443671 -0.12279506 -0.0032423716 2.3509886e-38
-0.052423354 -0.12202276 -0.00017285161 2.3509883e-38
-0.050426129 -0.12128322 0.0027664918 2.3325846e-38
-0.048395652 -0.12026589 0.0068098325 2.3326196e-38
-0.04641822 -0.11950795 0.0098222513 2.3326192e-38
-0.044451967 -0.11875431 0.012817623 2.3326185e-38
-0.042496793 -0.11800493 0.015796067 2.323434e-38
-0.040517159 -0.1169848 0.019850614 2.3234333e-38
-0.03867615 -0.1169848 0.019850614 2.3142493e-38
-0.036835138 -0.1169848 0.019850614 2.3234309e-38
-0.034914259 -0.11624531 0.022789719 2.3509781e-38
-0.033001352 -0.11548282 0.025820257 2.3142416e-38
-0.031170812 -0.11548282 0.025820257 2.2773276e-38
-0.029274229 -0.11472471 0.028833391 2.2956237e-38
-0.027388569 -0.11397095 0.031829119 2.341651e-38
-0.025568563 -0.11397095 0.031829119 2.3509811e-38
-0.023748554 -0.11397095 0.031829119 2.3509495e-38
-0.021869946 -0.1129816 0.035761356 2.3508801e-38
-0.020056833 -0.1129816 0.035761356 2.3509168e-38
-0.018243719 -0.1129816 0.035761356 2.3417691e-38
-0.016372748 -0.11147197 0.041761398 2.3234379e-38
-0.014570155 -0.11147197 0.041761398 2.3234376e-38
-0.012730534 -0.10995375 0.047795534 2.341805e-38
-0.010925411 -0.10920133 0.050786138 2.350988e-38
-0.0091308234 -0.10845329 0.053759217 2.3509866e-38
-0.0073492685 -0.10845329 0.053759217 2.350986e-38
-0.0055703921 -0.107684 0.056816697 2.3509866e-38
-0.0038021905 -0.10691936 0.059855819 2.3509873e-38
-0.0020313235 -0.10691936 0.059855819 2.3509527e-38
-0.00026045647 -0.10691936 0.059855819 2.3509886e-38
0.0014873669 -0.10618456 0.062776327 2.3509886e-38
0.0032241493 -0.10542886 0.065779805 2.3509883e-38
0.0049846293 -0.10542886 0.065779805 2.3509883e-38
0.012247848 -0.10845329 0.053759217 2.3509527e-38
0.014029403 -0.10845329 0.053759217 2.3509527e-38
0.015810959 -0.10845329 0.053759217 2.3509527e-38
0.017592516 -0.10845329 0.053759217 2.3509883e-38
0.019296341 -0.107684 0.056816697 2.3509886e-38
0.021072537 -0.107684 0.056816697 2.3509886e-38
0.022848729 -0.107684 0.056816697 2.3509886e-38
0.024809964 -0.10920133 0.050786138 2.3509886e-38
0.026500296 -0.10845329 0.053759217 2.3509886e-38
0.028281849 -0.10845329 0.053759217 2.3509886e-38
0.030170269 -0.10920133 0.050786138 2.3509886e-38
0.031957038 -0.10920133 0.050786138 2.3509883e-38
0.033626519 -0.10845329 0.053759217 2.3509883e-38
0.035408076 -0.10845329 0.053759217 2.3509883e-38
0.037189629 -0.10845329 0.053759217 2.3509883e-38
0.038971186 -0.10845329 0.053759217 2.350988e-38
0.040752742 -0.10845329 0.053759217 2.3509883e-38
0.042534299 -0.10845329 0.053759217 2.350988e-38
0.044315852 -0.10845329 0.053759217 2.3509883e-38
0.046251189 -0.10920133 0.050786138 2.350988e-38
0.048037957 -0.10920133 0.050786138 2.3509883e-38
0.049824726 -0.10920133 0.050786138 2.350988e-38
0.051953327 -0.11071064 0.044787288 2.3509879e-38
0.053750616 -0.11071064 0.044787288 2.3509876e-38
0.0555479 -0.11071064 0.044787288 2.3509873e-38
0.057533532 -0.11147197 0.041761398 2.350987e-38
0.059336118 -0.11147197 0.041761398 2.3509869e-38
0.061138712 -0.11147197 0.041761398 2.3509863e-38
0.062941305 -0.11147197 0.041761398 2.350986e-38
0.064743899 -0.11147197 0.041761398 2.3509859e-38
0.066546492 -0.11147197 0.041761398 2.3509133e-38
0.068349086 -0.11147197 0.041761398 2.3509486e-38
0.070370652 -0.11221133 0.03882277 2.3509122e-38
0.072178394 -0.11221133 0.03882277 2.3508756e-38
0.074225001 -0.1129816 0.035761356 2.3416912e-38
0.076351814 -0.11397095 0.031829119 2.3232874e-38
0.078171819 -0.11397095 0.031829119 2.3140314e-38
0.080241323 -0.11472471 0.028833391 2.3048823e-38
0.082066581 -0.11472471 0.028833391 2.3509781e-38
0.083891839 -0.11472471 0.028833391 2.2496336e-38
0.085717112 -0.11472471 0.028833391 2.3509776e-38
0.08808808 -0.11624531 0.022789719 2.3231736e-38
0.089923948 -0.11624531 0.022789719 2.3509747e-38
0.091759801 -0.11624531 0.022789719 2.3509741e-38
0.093595654 -0.11624531 0.022789719 2.3046961e-38
0.095431507 -0.11624531 0.022789719 1.1982437e-38
0.097267359 -0.11624531 0.022789719 8.2925102e-39
0.099399537 -0.1169848 0.019850614 6.1720471e-39
0.10124055 -0.1169848 0.019850614 5.0675086e-39
-0.11370327 -0.14797847 -0.095215082 1.806889e-38
-0.1112977 -0.14696048 -0.091197133 1.9267796e-38
-0.10926197 -0.14696048 -0.091197133 2.0098636e-38
-0.10722627 -0.14696048 -0.091197133 2.1020236e-38
-0.10451424 -0.14494546 -0.083243847 2.0652526e-38
-0.10249247 -0.14494546 -0.083243847 2.0560326e-38
-0.10013914 -0.14391513 -0.079177141 2.1574115e-38
-0.097812712 -0.14292495 -0.075268865 2.2219487e-38
-0.095251232 -0.14112701 -0.068172336 2.2034018e-38
-0.092953771 -0.14012341 -0.06421113 2.046634e-38
-0.090371773 -0.1381052 -0.056245208 1.8252928e-38
-0.088178679 -0.13734378 -0.053239942 1.5762569e-38
-0.085926741 -0.13633488 -0.049257755 1.3826461e-38
-0.083964556 -0.13633488 -0.049257755 1.3734265e-38
-0.082002386 -0.13633488 -0.049257755 9.9545987e-39
-0.07977213 -0.1353019 -0.045180678 1.1798506e-38
-0.077628523 -0.13455538 -0.042234063 9.9549504e-39
-0.075678661 -0.13455538 -0.042234063 9.3106544e-39
-0.073485255 -0.13353528 -0.038207769 1.7700811e-38
-0.071130931 -0.13176022 -0.031201599 2.3232546e-38
-0.068975508 -0.13076027 -0.027254818 2.3509858e-38
-0.066881254 -0.12997745 -0.024165032 2.3509516e-38
-0.064748399 -0.12896039 -0.02015066 2.3509523e-38
-0.062685549 -0.12821732 -0.017217753 2.3509167e-38
-0.06077956 -0.12821732 -0.017217753 2.3509167e-38
-0.058727283 -0.12744872 -0.014184115 2.3509167e-38
-0.05664346 -0.12645011 -0.01024258 2.3509167e-38
-0.05443671 -0.12467657 -0.0032423716 2.3416971e-38
-0.052423354 -0.12389888 -0.00017285161 2.3417324e-38
-0.050547238 -0.12389888 -0.00017285161 2.3417679e-38
-0.048395652 -0.12212978 0.0068098325 2.3417673e-38
-0.04641822 -0.12136655 0.0098222513 2.3326189e-38
-0.044451967 -0.12060766 0.012817623 2.3326182e-38
-0.042496793 -0.11985306 0.015796067 2.3326173e-38
-0.040517159 -0.11882581 0.019850614 2.3326167e-38
-0.03867615 -0.11882581 0.019850614 2.3326164e-38
-0.036835138 -0.11882581 0.019850614 2.332615e-38
-0.034914259 -0.11808117 0.022789719 2.3142453e-38
-0.033001352 -0.11731337 0.025820257 2.2403789e-38
-0.031099491 -0.11654995 0.028833391 2.3509765e-38
-0.029274229 -0.11654995 0.028833391 2.2954771e-38
-0.027388569 -0.11579098 0.031829119 2.1848049e-38
-0.02549617 -0.11479472 0.035761356 2.3507966e-38
-0.023683056 -0.11479472 0.035761356 2.3508406e-38
-0.021824319 -0.11401908 0.03882277 2.3508809e-38
-0.019977931 -0.11327456 0.041761398 2.3416974e-38
-0.018175341 -0.11327456 0.041761398 2.2775202e-38
-0.016314559 -0.11174576 0.047795534 2.2224152e-38
-0.01449895 -0.1109881 0.050786138 2.2958838e-38
-0.01271218 -0.1109881 0.050786138 2.3418033e-38
-0.01091238 -0.11023484 0.053759217 2.3139996e-38
-0.0091308234 -0.11023484 0.053759217 2.350983e-38
-0.0073465882 -0.10946019 0.056816697 2.3509818e-38
-0.0055730576 -0.10869022 0.059855819 2.3509824e-38
-0.0038098721 -0.10795029 0.062776327 2.3509846e-38
-0.0020572906 -0.10718934 0.065779805 2.3508804e-38
-0.00029681064 -0.10718934 0.065779805 2.3509168e-38
0.0014401115 -0.1064329 0.068765521 2.3418047e-38
0.0031953566 -0.1064329 0.068765521 2.3326206e-38
0.0049506016 -0.1064329 0.068765521 2.3234012e-38
0.0067058466 -0.1064329 0.068765521 2.350988e-38
0.0084610917 -0.1064329 0.068765521 2.350988e-38
0.010266068 -0.10718934 0.065779805 2.3509168e-38
0.012081842 -0.10795029 0.062776327 2.3508092e-38
0.013906476 -0.10869022 0.059855819 2.3508451e-38
0.015743949 -0.10946019 0.056816697 2.3509524e-38
0.017520145 -0.10946019 0.056816697 2.3509879e-38
0.019219074 -0.10869022 0.059855819 2.3509527e-38
0.020989943 -0.10869022 0.059855819 2.3417691e-38
0.022848729 -0.10946019 0.056816697 2.341805e-38
0.024718739 -0.11023484 0.053759217 2.341805e-38
0.026500296 -0.11023484 0.053759217 2.341805e-38
0.028177314 -0.10946019 0.056816697 2.341805e-38
0.02995351 -0.10946019 0.056816697 2.3418047e-38
0.031729706 -0.10946019 0.056816697 2.3418045e-38
0.033626519 -0.11023484 0.053759217 2.3509879e-38
0.035282094 -0.10946019 0.056816697 2.3509879e-38
0.03705829 -0.10946019 0.056816697 2.3417679e-38
0.038834486 -0.10946019 0.056816697 2.3509513e-38
0.040752742 -0.11023484 0.053759217 2.3509876e-38
0.042534299 -0.11023484 0.053759217 2.3509873e-38
0.044315852 -0.11023484 0.053759217 2.3509517e-38
0.046097409 -0.11023484 0.053759217 2.3509873e-38
0.048037957 -0.1109881 0.050786138 2.3509157e-38
0.049824726 -0.1109881 0.050786138 2.3508794e-38
0.051781908 -0.11174576 0.047795534 2.350915e-38
0.053573921 -0.11174576 0.047795534 2.3509503e-38
0.055365931 -0.11174576 0.047795534 2.3509856e-38
0.057345189 -0.11250792 0.044787288 2.3509848e-38
0.059142478 -0.11250792 0.044787288 2.3509839e-38
0.060939759 -0.11250792 0.044787288 2.3509832e-38
0.062941305 -0.11327456 0.041761398 2.3509828e-38
0.064743899 -0.11327456 0.041761398 2.3509824e-38
0.066546492 -0.11327456 0.041761398 2.3509461e-38
0.068349086 -0.11327456 0.041761398 2.3509817e-38
0.070370652 -0.11401908 0.03882277 2.3509814e-38
0.072178394 -0.11401908 0.03882277 2.3509806e-38
0.074225001 -0.11479472 0.035761356 2.3417958e-38
0.076351814 -0.11579098 0.031829119 2.332611e-38
0.078171819 -0.11579098 0.031829119 2.3326098e-38
0.079991832 -0.11579098 0.031829119 2.3234253e-38
0.081811845 -0.11579098 0.031829119 2.2775063e-38
0.083631843 -0.11579098 0.031829119 2.3326077e-38
0.085717112 -0.11654995 0.028833391 2.3326069e-38
0.087814435 -0.11731337 0.025820257 2.3509015e-38
0.089923948 -0.11808117 0.022789719 2.350865e-38
0.091759801 -0.11808117 0.022789719 2.3509008e-38
0.093595654 -0.11808117 0.022789719 2.3506127e-38
0.095431507 -0.11808117 0.022789719 1.29937e-38
0.097267359 -0.11808117 0.022789719 9.2123141e-39
0.099399537 -0.11882581 0.019850614 5.6170811e-39
0.10124055 -0.11882581 0.019850614 5.3433767e-39
-0.11536913 -0.14899619 -0.091197133 1.2167646e-38
-0.1133334 -0.14899619 -0.091197133 1.8253279e-38
-0.1112977 -0.14899619 -0.091197133 1.9452541e-38
-0.10926197 -0.14899619 -0.091197133 2.0097554e-38
-0.10687995 -0.14797823 -0.087206841 2.0190829e-38
-0.10451424 -0.14696725 -0.083243847 1.945398e-38
-0.10215378 -0.14592977 -0.079177141 1.8440183e-38
-0.10013914 -0.14592977 -0.079177141 1.8716767e-38
-0.097812712 -0.14493273 -0.075268865 1.9269587e-38
-0.095492005 -0.14390959 -0.071258187 2.0191545e-38
-0.092953771 -0.14211179 -0.06421113 2.1389735e-38
-0.090662822 -0.14107598 -0.060150862 2.2127303e-38
-0.088397354 -0.14007963 -0.056245208 2.1758166e-38
-0.086209521 -0.13931294 -0.053239942 2.1020241e-38
-0.083964556 -0.13829704 -0.049257755 2.0651458e-38
-0.082002386 -0.13829704 -0.049257755 1.6041672e-38
-0.07977213 -0.13725694 -0.045180678 1.4750208e-38
-0.077817097 -0.13725694 -0.045180678 1.1800299e-38
-0.075678661 -0.13650523 -0.042234063 1.1154564e-38
-0.073485255 -0.13547809 -0.038207769 1.5488111e-38
-0.071130931 -0.13369073 -0.031201599 1.963727e-38
-0.068975508 -0.13268389 -0.027254818 2.3509856e-38
-0.066881254 -0.13189565 -0.024165032 2.3509516e-38
-0.064748399 -0.13087155 -0.02015066 2.3509167e-38
-0.062685549 -0.13012333 -0.017217753 2.3509167e-38
-0.06077956 -0.13012333 -0.017217753 2.3509167e-38
-0.058537234 -0.1283439 -0.01024258 2.3509167e-38
-0.056504313 -0.12757985 -0.0072476845 2.3509167e-38
-0.05443671 -0.12655805 -0.0032423716 2.3509523e-38
-0.052555207 -0.12655805 -0.0032423716 2.350952e-38
-0.050426129 -0.12502514 0.0027664918 2.3509876e-38
-0.048395652 -0.12399365 0.0068098325 2.3509869e-38
-0.04641822 -0.12322514 0.0098222513 2.3509863e-38
-0.044451967 -0.12246101 0.012817623 2.3418016e-38
-0.042496793 -0.12170117 0.015796067 2.3326173e-38
-0.040517159 -0.12066682 0.019850614 2.3234327e-38
-0.03867615 -0.12066682 0.019850614 2.3234326e-38
-0.036835138 -0.12066682 0.019850614 2.3234313e-38
-0.034914259 -0.11991702 0.022789719 2.3326132e-38
-0.033001352 -0.11914389 0.025820257 2.3140999e-38
-0.031099491 -0.11837523 0.028833391 2.3509767e-38
-0.029274229 -0.11837523 0.028833391 2.3230268e-38
-0.027388569 -0.11761098 0.031829119 2.2215725e-38
-0.02549617 -0.11660783 0.035761356 2.3507935e-38
-0.023683056 -0.11660783 0.035761356 2.3509834e-38
-0.021824319 -0.11582683 0.03882277 2.3508807e-38
-0.019977931 -0.11507715 0.041761398 2.3417691e-38
-0.018140856 -0.11430521 0.044787288 2.295887e-38
-0.016314559 -0.11353777 0.047795534 2.2132294e-38
-0.01449895 -0.11277486 0.050786138 2.2683302e-38
-0.01271218 -0.11277486 0.050786138 2.3142496e-38
-0.01091238 -0.11201639 0.053759217 2.2770827e-38
-0.0091308234 -0.11201639 0.053759217 2.3506555e-38
-0.0073465882 -0.11123641 0.056816697 2.3413262e-38
-0.0055730576 -0.11046107 0.059855819 2.3508344e-38
-0.0038098721 -0.10971604 0.062776327 2.3509098e-38
-0.0020572906 -0.10894983 0.065779805 2.3508794e-38
-0.00031513255 -0.10818814 0.068765521 2.3509168e-38
0.0014401115 -0.10818814 0.068765521 2.3326208e-38
0.0031657843 -0.10740583 0.07183212 2.3142532e-38
0.0048820348 -0.10665329 0.074781895 2.3326206e-38
0.0066267317 -0.10665329 0.074781895 2.3418043e-38
0.0083714277 -0.10665329 0.074781895 2.3509518e-38
0.010216336 -0.10818814 0.068765521 2.3509167e-38
0.011915126 -0.10740583 0.07183212 2.3508092e-38
0.013664993 -0.10740583 0.07183212 2.3508451e-38
0.015482071 -0.10818814 0.068765521 2.3509876e-38
0.017237317 -0.10818814 0.068765521 2.350987e-38
0.019068468 -0.10894983 0.065779805 2.3509886e-38
0.020828947 -0.10894983 0.065779805 2.341805e-38
0.022676319 -0.10971604 0.062776327 2.341805e-38
0.024531674 -0.11046107 0.059855819 2.3418047e-38
0.026302543 -0.11046107 0.059855819 2.3418045e-38
0.027973555 -0.10971604 0.062776327 2.341804e-38
0.029739302 -0.10971604 0.062776327 2.3418038e-38
0.031615142 -0.11046107 0.059855819 2.350987e-38
0.033505902 -0.11123641 0.056816697 2.3509869e-38
0.035282094 -0.11123641 0.056816697 2.3509865e-38
0.03705829 -0.11123641 0.056816697 2.350986e-38
0.038834486 -0.11123641 0.056816697 2.350986e-38
0.040610682 -0.11123641 0.056816697 2.3509502e-38
0.042386878 -0.11123641 0.056816697 2.3509502e-38
0.044315852 -0.11201639 0.053759217 2.3509143e-38
0.046097409 -0.11201639 0.053759217 2.3509499e-38
0.047878966 -0.11201639 0.053759217 2.3509499e-38
0.049824726 -0.11277486 0.050786138 2.350914e-38
0.051611494 -0.11277486 0.050786138 2.3508776e-38
0.053573921 -0.11353777 0.047795534 2.350913e-38
0.055365931 -0.11353777 0.047795534 2.3509841e-38
0.057157949 -0.11353777 0.047795534 2.3509832e-38
0.059142478 -0.11430521 0.044787288 2.3509824e-38
0.060939759 -0.11430521 0.044787288 2.3509816e-38
0.062737048 -0.11430521 0.044787288 2.350981e-38
0.064743899 -0.11507715 0.041761398 2.3509806e-38
0.066546492 -0.11507715 0.041761398 2.3417969e-38
0.068349086 -0.11507715 0.041761398 2.35098e-38
0.070370652 -0.11582683 0.03882277 2.3509796e-38
0.072178394 -0.11582683 0.03882277 2.3509786e-38
0.074225001 -0.11660783 0.035761356 2.3509772e-38
0.076351814 -0.11761098 0.031829119 2.3326089e-38
0.078171819 -0.11761098 0.031829119 2.3326079e-38
0.079991832 -0.11761098 0.031829119 2.3234236e-38
0.081811845 -0.11761098 0.031829119 2.2683213e-38
0.083631843 -0.11761098 0.031829119 2.3050557e-38
0.085717112 -0.11837523 0.028833391 2.3234217e-38
0.087814435 -0.11914389 0.025820257 2.3509359e-38
0.089644983 -0.11914389 0.025820257 2.3508283e-38
0.091475531 -0.11914389 0.025820257 2.3508285e-38
0.093306065 -0.11914389 0.025820257 2.3505043e-38
0.095136613 -0.11914389 0.025820257 1.3361042e-38
0.096967146 -0.11914389 0.025820257 9.3027118e-39
0.099399537 -0.12066682 0.019850614 6.9071024e-39
0.10124055 -0.12066682 0.019850614 6.9107052e-39
-0.10451424 -0.14898901 -0.083243847 1.97302e-38
-0.10215378 -0.14794444 -0.079177141 1.8901521e-38
-0.10013914 -0.14794444 -0.079177141 1.8626016e-38
-0.097812712 -0.14694051 -0.075268865 1.8625661e-38
-0.095492005 -0.14591034 -0.071258187 1.8994447e-38
-0.092953771 -0.1441002 -0.06421113 2.010044e-38
