# .PCD v0.7 - Point Cloud Data file format
VERSION 0.7
FIELDS x y z rgb
SIZE 4 4 4 4
TYPE F F F F
COUNT 1 1 1 1
WIDTH 945
HEIGHT 1
VIEWPOINT 0 0 0 1 0 0 0
POINTS 945
DATA ascii
0.079002962 -0.12772138 -0.0026461165 2.3509886e-38
0.080866829 -0.12772138 -0.0026461165 2.3509886e-38
0.08300364 -0.12876706 -0.0066894572 2.3509883e-38
0.0848746 -0.12876706 -0.0066894572 2.350988e-38
0.08674556 -0.12876706 -0.0066894572 2.3508795e-38
0.088616535 -0.12876706 -0.0066894572 2.350987e-38
0.090487495 -0.12876706 -0.0066894572 2.3509863e-38
0.092358455 -0.12876706 -0.0066894572 2.3509495e-38
0.094458751 -0.12952723 -0.0096288007 2.3416209e-38
0.096334867 -0.12952723 -0.0096288007 2.3232169e-38
0.098210998 -0.12952723 -0.0096288007 2.3324001e-38
0.10034274 -0.13032107 -0.012698321 2.3416198e-38
0.10222425 -0.13032107 -0.012698321 2.3509846e-38
0.10445336 -0.13135691 -0.016703634 2.3509856e-38
0.10634189 -0.13135691 -0.016703634 2.3509506e-38
0.1082304 -0.13135691 -0.016703634 2.3509873e-38
0.11011893 -0.13135691 -0.016703634 2.3509524e-38
0.11200745 -0.13135691 -0.016703634 2.3509168e-38
0.11389598 -0.13135691 -0.016703634 2.3509527e-38
0.11578449 -0.13135691 -0.016703634 2.3417687e-38
0.11767302 -0.13135691 -0.016703634 2.3509879e-38
0.11956153 -0.13135691 -0.016703634 1.023442e-38
0.12145006 -0.13135691 -0.016703634 7.1919598e-39
0.12333859 -0.13135691 -0.016703634 6.6391419e-39
-0.11694788 -0.13845469 -0.036710769 1.5756406e-38
-0.11502429 -0.13845469 -0.036710769 1.6215574e-38
-0.11310069 -0.13845469 -0.036710769 1.7230077e-38
-0.11083307 -0.13765021 -0.033620983 1.7324787e-38
-0.10891489 -0.13765021 -0.033620983 1.8430773e-38
-0.10128189 -0.12385099 0.019377442 1.9073265e-38
-0.099138848 -0.123071 0.022373172 1.7688878e-38
-0.096589245 -0.12125005 0.029366823 1.7595942e-38
-0.094781496 -0.12125005 0.029366823 1.7596291e-38
-0.092372425 -0.11969708 0.035331339 1.7045285e-38
-0.090277143 -0.11891381 0.038339585 1.9075768e-38
-0.088194109 -0.11813517 0.041330189 2.267468e-38
-0.086407341 -0.11813517 0.041330189 2.3508427e-38
-0.084341682 -0.11736105 0.044303268 2.350988e-38
-0.082560129 -0.11736105 0.044303268 2.3142539e-38
-0.080778576 -0.11736105 0.044303268 2.3050698e-38
-0.078997023 -0.11736105 0.044303268 2.3050698e-38
-0.07695011 -0.11656497 0.047360748 2.3417691e-38
-0.075173907 -0.11656497 0.047360748 2.341805e-38
-0.073397718 -0.11656497 0.047360748 2.286702e-38
-0.071870796 -0.11736105 0.044303268 2.295886e-38
-0.070326425 -0.11813517 0.041330189 2.295887e-38
-0.068539657 -0.11813517 0.041330189 2.2958514e-38
-0.066752888 -0.11813517 0.041330189 2.3049991e-38
-0.065188967 -0.11891381 0.038339585 2.341805e-38
-0.063396953 -0.11891381 0.038339585 2.350988e-38
-0.061604939 -0.11891381 0.038339585 2.350987e-38
-0.059812926 -0.11891381 0.038339585 2.350986e-38
-0.058020912 -0.11891381 0.038339585 2.3509863e-38
-0.056228898 -0.11891381 0.038339585 2.3141455e-38
-0.054436885 -0.11891381 0.038339585 2.3509527e-38
-0.052644886 -0.11891381 0.038339585 2.267942e-38
-0.050671965 -0.11813517 0.041330189 2.3417691e-38
-0.048885196 -0.11813517 0.041330189 2.341805e-38
-0.047268845 -0.11891381 0.038339585 2.2865584e-38
-0.045476831 -0.11891381 0.038339585 2.2865925e-38
-0.043684818 -0.11891381 0.038339585 2.3509856e-38
-0.041892804 -0.11891381 0.038339585 2.2496071e-38
-0.040251113 -0.11969708 0.035331339 2.3509876e-38
-0.038453825 -0.11969708 0.035331339 2.3417691e-38
-0.036797136 -0.12048493 0.032305449 2.3325138e-38
-0.034994543 -0.12048493 0.032305449 2.2771614e-38
-0.033191949 -0.12048493 0.032305449 2.3509168e-38
-0.031389363 -0.12048493 0.032305449 2.3233303e-38
-0.029586766 -0.12048493 0.032305449 2.3417691e-38
-0.027784172 -0.12048493 0.032305449 2.3234379e-38
-0.025981583 -0.12048493 0.032305449 2.3142542e-38
-0.024178989 -0.12048493 0.032305449 2.3234376e-38
-0.022376396 -0.12048493 0.032305449 2.3142538e-38
-0.020573806 -0.12048493 0.032305449 2.3142538e-38
-0.018856227 -0.12125005 0.029366823 2.2866307e-38
-0.017131682 -0.12204717 0.026305409 2.2773386e-38
-0.015318573 -0.12204717 0.026305409 2.350987e-38
-0.013505459 -0.12204717 0.026305409 2.3234004e-38
-0.011778526 -0.123071 0.022373172 2.3233648e-38
-0.0099585205 -0.123071 0.022373172 2.3509879e-38
-0.0081385151 -0.123071 0.022373172 2.350988e-38
-0.0063185059 -0.123071 0.022373172 2.2772318e-38
-0.0044985004 -0.123071 0.022373172 2.3509886e-38
-0.0026784912 -0.123071 0.022373172 2.3509886e-38
-0.0008584857 -0.123071 0.022373172 2.3509886e-38
0.00096151978 -0.123071 0.022373172 2.3509886e-38
0.002757892 -0.12385099 0.019377442 2.3509886e-38
0.0045831501 -0.12385099 0.019377442 2.3509886e-38
0.0063952021 -0.12463553 0.016364308 2.3509886e-38
0.0082257446 -0.12463553 0.016364308 2.3509886e-38
0.010056287 -0.12463553 0.016364308 2.3509883e-38
0.011886828 -0.12463553 0.016364308 2.3509879e-38
0.01372534 -0.12542458 0.01333377 2.3509876e-38
0.015561197 -0.12542458 0.01333377 2.3509879e-38
0.017397054 -0.12542458 0.01333377 2.3509879e-38
0.019232908 -0.12542458 0.01333377 2.3509879e-38
0.021068763 -0.12542458 0.01333377 2.350988e-38
0.022870082 -0.12463553 0.016364308 2.350988e-38
0.024700625 -0.12463553 0.016364308 2.350988e-38
0.026576333 -0.12542458 0.01333377 2.3509883e-38
0.028412187 -0.12542458 0.01333377 2.3509883e-38
0.030302152 -0.12618984 0.010394664 2.3509886e-38
0.032143161 -0.12618984 0.010394664 2.3509886e-38
0.033984169 -0.12618984 0.010394664 2.3509886e-38
0.035921149 -0.12724553 0.0063401181 2.3509886e-38
0.037769269 -0.12724553 0.0063401181 2.3509886e-38
0.039617389 -0.12724553 0.0063401181 2.3509886e-38
0.041465506 -0.12724553 0.0063401181 2.350988e-38
0.043313622 -0.12724553 0.0063401181 2.350988e-38
0.045258351 -0.12802102 0.003361674 2.3509527e-38
0.047009859 -0.12724553 0.0063401181 2.3508809e-38
0.048857976 -0.12724553 0.0063401181 2.3508092e-38
0.050818373 -0.12802102 0.003361674 2.3507733e-38
0.052554213 -0.12724553 0.0063401181 2.3507733e-38
0.054402333 -0.12724553 0.0063401181 2.3508092e-38
0.056378394 -0.12802102 0.003361674 2.3507733e-38
0.058231734 -0.12802102 0.003361674 2.3508432e-38
0.06022425 -0.12880091 0.00036630221 2.3509848e-38
0.062082842 -0.12880091 0.00036630221 2.3508382e-38
0.063941434 -0.12880091 0.00036630221 2.2309463e-38
0.065800026 -0.12880091 0.00036630221 1.9636139e-38
0.067819715 -0.12958528 -0.0026461165 1.9451385e-38
0.069683582 -0.12958528 -0.0026461165 2.3509816e-38
0.071547464 -0.12958528 -0.0026461165 2.350986e-38
0.073411331 -0.12958528 -0.0026461165 2.3418045e-38
0.075275213 -0.12958528 -0.0026461165 2.350988e-38
0.07713908 -0.12958528 -0.0026461165 2.350988e-38
0.079002962 -0.12958528 -0.0026461165 2.350988e-38
0.08113268 -0.13063805 -0.0066894572 2.350988e-38
0.08300364 -0.13063805 -0.0066894572 2.3509879e-38
0.0848746 -0.13063805 -0.0066894572 2.3509876e-38
0.08674556 -0.13063805 -0.0066894572 2.3509873e-38
0.088616535 -0.13063805 -0.0066894572 2.3509507e-38
0.090487495 -0.13063805 -0.0066894572 2.3416589e-38
0.092358455 -0.13063805 -0.0066894572 2.3232192e-38
0.094458751 -0.13140334 -0.0096288007 2.3415858e-38
0.096334867 -0.13140334 -0.0096288007 2.3508407e-38
0.098210998 -0.13140334 -0.0096288007 2.3509128e-38
0.10034274 -0.13220255 -0.012698321 2.3509852e-38
0.10222425 -0.13220255 -0.012698321 2.3509863e-38
0.10445336 -0.13324542 -0.016703634 2.3509511e-38
0.10634189 -0.13324542 -0.016703634 2.3508441e-38
0.1082304 -0.13324542 -0.016703634 2.3508448e-38
0.11011893 -0.13324542 -0.016703634 2.3509168e-38
0.11200745 -0.13324542 -0.016703634 2.3509168e-38
0.11389598 -0.13324542 -0.016703634 2.3509168e-38
0.11578449 -0.13324542 -0.016703634 2.3509527e-38
0.11767302 -0.13324542 -0.016703634 2.350988e-38
0.11956153 -0.13324542 -0.016703634 1.023442e-38
0.12145006 -0.13324542 -0.016703634 7.0075685e-39
0.12333859 -0.13324542 -0.016703634 6.362555e-39
-0.11694788 -0.14037828 -0.036710769 1.6032993e-38
-0.11466945 -0.13956837 -0.033620983 1.6307769e-38
-0.11275125 -0.13956837 -0.033620983 1.7137161e-38
-0.1116165 -0.14141284 -0.04065755 1.6678699e-38
-0.10968598 -0.14141284 -0.04065755 1.7969795e-38
-0.10128189 -0.12567626 0.019377442 1.9165461e-38
-0.099138848 -0.124891 0.022373172 1.8242054e-38
-0.096589245 -0.1230578 0.029366823 1.805692e-38
-0.094781496 -0.1230578 0.029366823 1.7596294e-38
-0.092372425 -0.12149437 0.035331339 1.6860895e-38
-0.090277143 -0.12070583 0.038339585 1.8707709e-38
-0.088194109 -0.11992194 0.041330189 2.2859074e-38
-0.086407341 -0.11992194 0.041330189 2.350951e-38
-0.084341682 -0.11914261 0.044303268 2.3509883e-38
-0.082560129 -0.11914261 0.044303268 2.3050347e-38
-0.080778576 -0.11914261 0.044303268 2.2958504e-38
-0.078997023 -0.11914261 0.044303268 2.3418045e-38
-0.07695011 -0.11834116 0.047360748 2.3509527e-38
-0.075173907 -0.11834116 0.047360748 2.3509886e-38
-0.073397718 -0.11834116 0.047360748 2.3050701e-38
-0.071870796 -0.11914261 0.044303268 2.2958863e-38
-0.070089243 -0.11914261 0.044303268 2.2958863e-38
-0.068539657 -0.11992194 0.041330189 2.2867027e-38
-0.066752888 -0.11992194 0.041330189 2.3142185e-38
-0.065188967 -0.12070583 0.038339585 2.3417691e-38
-0.063396953 -0.12070583 0.038339585 2.3509886e-38
-0.061604939 -0.12070583 0.038339585 2.3233639e-38
-0.059812926 -0.12070583 0.038339585 2.3326173e-38
-0.058020912 -0.12070583 0.038339585 2.3509848e-38
-0.056228898 -0.12070583 0.038339585 2.3141441e-38
-0.054436885 -0.12070583 0.038339585 2.2956349e-38
-0.052458741 -0.11992194 0.041330189 1.9636248e-38
-0.050671965 -0.11992194 0.041330189 2.0927343e-38
-0.048885196 -0.11992194 0.041330189 2.0467782e-38
-0.047098428 -0.11992194 0.041330189 2.0099338e-38
-0.04531166 -0.11992194 0.041330189 2.0559942e-38
-0.043684818 -0.12070583 0.038339585 2.3509846e-38
-0.041892804 -0.12070583 0.038339585 2.2679735e-38
-0.040251113 -0.12149437 0.035331339 2.3509507e-38
-0.038453825 -0.12149437 0.035331339 2.3509521e-38
-0.036797136 -0.12228753 0.032305449 2.3509527e-38
-0.034994543 -0.12228753 0.032305449 2.3509168e-38
-0.033191949 -0.12228753 0.032305449 2.2955644e-38
-0.031389363 -0.12228753 0.032305449 2.2956362e-38
-0.029586766 -0.12228753 0.032305449 2.341805e-38
-0.027784172 -0.12228753 0.032305449 2.341805e-38
-0.025981583 -0.12228753 0.032305449 2.3142539e-38
-0.024178989 -0.12228753 0.032305449 2.2958504e-38
-0.022471715 -0.1230578 0.029366823 2.3234374e-38
-0.020663973 -0.1230578 0.029366823 2.3234374e-38
-0.018944792 -0.12386028 0.026305409 2.3050696e-38
-0.017131682 -0.12386028 0.026305409 2.2865937e-38
-0.015418541 -0.124891 0.022373172 2.3509869e-38
-0.013598531 -0.124891 0.022373172 2.350987e-38
-0.011778526 -0.124891 0.022373172 2.12057e-38
-0.0099585205 -0.124891 0.022373172 2.1389735e-38
-0.0081385151 -0.124891 0.022373172 2.3049259e-38
-0.0063185059 -0.124891 0.022373172 2.350988e-38
-0.0044985004 -0.124891 0.022373172 2.3509883e-38
-0.0026784912 -0.124891 0.022373172 2.3509886e-38
-0.0008584857 -0.124891 0.022373172 2.3509886e-38
0.00096151978 -0.124891 0.022373172 2.3509886e-38
0.002757892 -0.12567626 0.019377442 2.3509886e-38
0.0045831501 -0.12567626 0.019377442 2.3509886e-38
0.0063952021 -0.12646608 0.016364308 2.3509886e-38
0.0082257446 -0.12646608 0.016364308 2.3509886e-38
0.010056287 -0.12646608 0.016364308 2.3509883e-38
0.011886828 -0.12646608 0.016364308 2.3509879e-38
0.01372534 -0.12726043 0.01333377 2.3509873e-38
0.015561197 -0.12726043 0.01333377 2.3509876e-38
0.017397054 -0.12726043 0.01333377 2.3509879e-38
0.019232908 -0.12726043 0.01333377 2.3509879e-38
0.021068763 -0.12726043 0.01333377 2.350988e-38
0.022870082 -0.12646608 0.016364308 2.350988e-38
0.024700625 -0.12646608 0.016364308 2.3509883e-38
0.026576333 -0.12726043 0.01333377 2.3509886e-38
0.028412187 -0.12726043 0.01333377 2.3509886e-38
0.030302152 -0.12803085 0.010394664 2.3509886e-38
0.032143161 -0.12803085 0.010394664 2.3509886e-38
0.033984169 -0.12803085 0.010394664 2.3509886e-38
0.035921149 -0.12909363 0.0063401181 2.3509886e-38
0.037769269 -0.12909363 0.0063401181 2.3509886e-38
0.039617389 -0.12909363 0.0063401181 2.3509886e-38
0.041465506 -0.12909363 0.0063401181 2.350988e-38
0.043313622 -0.12909363 0.0063401181 2.350988e-38
0.045161739 -0.12909363 0.0063401181 2.3509527e-38
0.047009859 -0.12909363 0.0063401181 2.3508451e-38
0.048857976 -0.12909363 0.0063401181 2.3507733e-38
0.050706096 -0.12909363 0.0063401181 2.3507016e-38
0.052554213 -0.12909363 0.0063401181 2.3507016e-38
0.054402333 -0.12909363 0.0063401181 2.3507733e-38
0.056250449 -0.12909363 0.0063401181 2.3508794e-38
0.058231734 -0.12987436 0.003361674 2.3509844e-38
0.060085073 -0.12987436 0.003361674 2.3508008e-38
0.062082842 -0.13065951 0.00036630221 1.8346479e-38
0.063941434 -0.13065951 0.00036630221 1.8621988e-38
0.065800026 -0.13065951 0.00036630221 2.2771166e-38
0.067819715 -0.13144915 -0.0026461165 2.3509838e-38
0.069683582 -0.13144915 -0.0026461165 2.3508057e-38
0.071547464 -0.13144915 -0.0026461165 2.3509872e-38
0.073411331 -0.13144915 -0.0026461165 2.3326208e-38
0.075275213 -0.13144915 -0.0026461165 2.3418043e-38
0.07713908 -0.13144915 -0.0026461165 2.3418042e-38
0.079002962 -0.13144915 -0.0026461165 2.3418042e-38
0.08113268 -0.13250901 -0.0066894572 2.3418039e-38
0.08300364 -0.13250901 -0.0066894572 2.3509874e-38
0.0848746 -0.13250901 -0.0066894572 2.3509872e-38
0.08674556 -0.13250901 -0.0066894572 2.350987e-38
0.088616535 -0.13250901 -0.0066894572 2.3416952e-38
0.090487495 -0.13250901 -0.0066894572 2.3140002e-38
0.092358455 -0.13250901 -0.0066894572 2.3232195e-38
0.094458751 -0.13327946 -0.0096288007 2.3508781e-38
0.096334867 -0.13327946 -0.0096288007 2.3508783e-38
0.098210998 -0.13327946 -0.0096288007 2.3509863e-38
0.10034274 -0.13408406 -0.012698321 2.3509866e-38
0.10222425 -0.13408406 -0.012698321 2.3509517e-38
0.10445336 -0.13513394 -0.016703634 2.3509165e-38
0.10634189 -0.13513394 -0.016703634 2.3508451e-38
0.1082304 -0.13513394 -0.016703634 2.3508451e-38
0.11011893 -0.13513394 -0.016703634 2.3508451e-38
0.11200745 -0.13513394 -0.016703634 2.3508809e-38
0.11389598 -0.13513394 -0.016703634 2.3509168e-38
0.11578449 -0.13513394 -0.016703634 2.3509527e-38
0.11767302 -0.13513394 -0.016703634 2.3509883e-38
0.11956153 -0.13513394 -0.016703634 1.0234067e-38
0.12145006 -0.13513394 -0.016703634 6.9153743e-39
0.12333859 -0.13513394 -0.016703634 6.0856122e-39
-0.11694788 -0.14230187 -0.036710769 1.6125188e-38
-0.11466945 -0.14148657 -0.033620983 1.5846794e-38
-0.11275125 -0.14148657 -0.033620983 1.6214849e-38
-0.11083307 -0.14148657 -0.033620983 1.6309916e-38
-0.1040915 -0.12987186 0.010394664 1.7047838e-38
-0.10128189 -0.1275015 0.019377442 1.815131e-38
-0.099138848 -0.126711 0.022373172 1.8057306e-38
-0.096589245 -0.12486555 0.029366823 1.8610097e-38
-0.094781496 -0.12486555 0.029366823 1.8057275e-38
-0.092372425 -0.12329166 0.035331339 1.6860898e-38
-0.090277143 -0.12249784 0.038339585 1.8523319e-38
-0.088194109 -0.12170871 0.041330189 2.2766522e-38
-0.086123236 -0.12092416 0.044303268 2.3508791e-38
-0.084341682 -0.12092416 0.044303268 2.3509886e-38
-0.082560129 -0.12092416 0.044303268 2.2958154e-38
-0.080778576 -0.12092416 0.044303268 2.30507e-38
-0.078997023 -0.12092416 0.044303268 2.3418045e-38
-0.07695011 -0.12011738 0.047360748 2.3509527e-38
-0.075173907 -0.12011738 0.047360748 2.3509527e-38
-0.073397718 -0.12011738 0.047360748 2.3050707e-38
-0.071870796 -0.12092416 0.044303268 2.2958866e-38
-0.070089243 -0.12092416 0.044303268 2.3142527e-38
-0.068539657 -0.12170871 0.041330189 2.3050693e-38
-0.066752888 -0.12170871 0.041330189 2.341805e-38
-0.065188967 -0.12249784 0.038339585 2.3509527e-38
-0.063396953 -0.12249784 0.038339585 2.3324775e-38
-0.061604939 -0.12249784 0.038339585 2.2402797e-38
-0.059812926 -0.12249784 0.038339585 1.6872104e-38
-0.058020912 -0.12249784 0.038339585 2.3509825e-38
-0.056228898 -0.12249784 0.038339585 2.3509851e-38
-0.054245509 -0.12170871 0.041330189 2.2309889e-38
-0.052458741 -0.12170871 0.041330189 1.7237717e-38
-0.050671965 -0.12170871 0.041330189 1.6869289e-38
-0.048885196 -0.12170871 0.041330189 1.650263e-38
-0.047098428 -0.12170871 0.041330189 2.0190795e-38
-0.04531166 -0.12170871 0.041330189 2.0650692e-38
-0.043684818 -0.12249784 0.038339585 2.3509844e-38
-0.041892804 -0.12249784 0.038339585 2.3509851e-38
-0.040251113 -0.12329166 0.035331339 2.3509139e-38
-0.038453825 -0.12329166 0.035331339 2.3509514e-38
-0.036797136 -0.12409012 0.032305449 2.2216263e-38
-0.034994543 -0.12409012 0.032305449 2.3509168e-38
-0.033191949 -0.12409012 0.032305449 2.3509168e-38
-0.031389363 -0.12409012 0.032305449 2.3509527e-38
-0.029586766 -0.12409012 0.032305449 2.2864153e-38
-0.027784172 -0.12409012 0.032305449 2.2956346e-38
-0.025981583 -0.12409012 0.032305449 2.3509879e-38
-0.024178989 -0.12409012 0.032305449 2.240389e-38
-0.022471715 -0.12486555 0.029366823 1.9085209e-38
-0.020663973 -0.12486555 0.029366823 1.9453994e-38
-0.018944792 -0.1256734 0.026305409 2.2496804e-38
-0.017238546 -0.126711 0.022373172 2.3509869e-38
-0.015418541 -0.126711 0.022373172 2.2681182e-38
-0.013598531 -0.126711 0.022373172 2.258863e-38
-0.011778526 -0.126711 0.022373172 2.1851066e-38
-0.0099585205 -0.126711 0.022373172 2.1020953e-38
-0.0081385151 -0.126711 0.022373172 2.2957064e-38
-0.0063185059 -0.126711 0.022373172 2.350988e-38
-0.0044985004 -0.126711 0.022373172 2.2956709e-38
-0.0026784912 -0.126711 0.022373172 2.3509886e-38
-0.0008584857 -0.126711 0.022373172 2.3509886e-38
0.00096151978 -0.126711 0.022373172 2.3509886e-38
0.002757892 -0.1275015 0.019377442 2.3509886e-38
0.0045831501 -0.1275015 0.019377442 2.3509886e-38
0.0064084083 -0.1275015 0.019377442 2.3509886e-38
0.0082336683 -0.1275015 0.019377442 2.3509886e-38
0.010056287 -0.1282966 0.016364308 2.3509883e-38
0.011886828 -0.1282966 0.016364308 2.3509879e-38
0.01372534 -0.12909628 0.01333377 2.3509876e-38
0.015561197 -0.12909628 0.01333377 2.3509879e-38
0.017397054 -0.12909628 0.01333377 2.3509879e-38
0.019232908 -0.12909628 0.01333377 2.350988e-38
0.021068763 -0.12909628 0.01333377 2.3509883e-38
0.02290462 -0.12909628 0.01333377 2.3509886e-38
0.024740476 -0.12909628 0.01333377 2.3509886e-38
0.026620135 -0.12987186 0.010394664 2.3509527e-38
0.028461143 -0.12987186 0.010394664 2.3509527e-38
0.030302152 -0.12987186 0.010394664 2.3509527e-38
0.032143161 -0.12987186 0.010394664 2.3509527e-38
0.033984169 -0.12987186 0.010394664 2.3509527e-38
0.035921149 -0.13094176 0.0063401181 2.3509527e-38
0.037769269 -0.13094176 0.0063401181 2.3509527e-38
0.039617389 -0.13094176 0.0063401181 2.3509886e-38
0.041551672 -0.13172771 0.003361674 2.3509886e-38
0.043313622 -0.13094176 0.0063401181 2.3509886e-38
0.045161739 -0.13094176 0.0063401181 2.3509527e-38
0.047009859 -0.13094176 0.0063401181 2.3508451e-38
0.048857976 -0.13094176 0.0063401181 2.3507733e-38
0.050706096 -0.13094176 0.0063401181 2.3507374e-38
0.052554213 -0.13094176 0.0063401181 2.3507374e-38
0.054402333 -0.13094176 0.0063401181 2.3508085e-38
0.056250449 -0.13094176 0.0063401181 2.3509128e-38
0.058098566 -0.13094176 0.0063401181 2.350657e-38
0.060085073 -0.13172771 0.003361674 2.1941016e-38
0.062082842 -0.1325181 0.00036630221 1.8622689e-38
0.063941434 -0.1325181 0.00036630221 1.8899298e-38
0.065800026 -0.1325181 0.00036630221 2.3509113e-38
0.067819715 -0.13331302 -0.0026461165 2.3509163e-38
0.069683582 -0.13331302 -0.0026461165 2.3507016e-38
0.071547464 -0.13331302 -0.0026461165 2.3509167e-38
0.073411331 -0.13331302 -0.0026461165 2.3418043e-38
0.075275213 -0.13331302 -0.0026461165 2.3418042e-38
0.07713908 -0.13331302 -0.0026461165 2.3418042e-38
0.07926172 -0.13437997 -0.0066894572 2.3418039e-38
0.08113268 -0.13437997 -0.0066894572 2.3418036e-38
0.08300364 -0.13437997 -0.0066894572 2.3509869e-38
0.0848746 -0.13437997 -0.0066894572 2.3509869e-38
0.08674556 -0.13437997 -0.0066894572 2.3509869e-38
0.088616535 -0.13437997 -0.0066894572 2.3233639e-38
0.090487495 -0.13437997 -0.0066894572 2.3324756e-38
0.092358455 -0.13437997 -0.0066894572 2.3509507e-38
0.094229423 -0.13437997 -0.0066894572 2.3509869e-38
0.096334867 -0.13515557 -0.0096288007 2.3509153e-38
0.098210998 -0.13515557 -0.0096288007 2.3509513e-38
0.10034274 -0.13596557 -0.012698321 2.350952e-38
0.10222425 -0.13596557 -0.012698321 2.3509165e-38
0.10410575 -0.13596557 -0.012698321 2.3509168e-38
0.10598724 -0.13596557 -0.012698321 2.3509168e-38
0.1082304 -0.13702248 -0.016703634 2.3508809e-38
0.10975025 -0.13596557 -0.012698321 2.3508809e-38
0.11163174 -0.13596557 -0.012698321 2.3509168e-38
0.11351324 -0.13596557 -0.012698321 2.3509168e-38
0.11539473 -0.13596557 -0.012698321 2.3509168e-38
0.11727624 -0.13596557 -0.012698321 2.3509527e-38
0.11915774 -0.13596557 -0.012698321 1.0325548e-38
0.12145006 -0.13702248 -0.016703634 7.0065007e-39
0.12333859 -0.13702248 -0.016703634 6.1770932e-39
-0.1159341 -0.14632986 -0.044632941 1.5846794e-38
-0.1139966 -0.14632986 -0.044632941 1.5846067e-38
-0.10593251 -0.13171287 0.010394664 1.6033329e-38
-0.1040915 -0.13171287 0.010394664 1.6032607e-38
-0.10160679 -0.13012715 0.016364308 1.649107e-38
-0.098396994 -0.1266733 0.029366823 1.6858763e-38
-0.096589245 -0.1266733 0.029366823 1.8333154e-38
-0.094781496 -0.1266733 0.029366823 1.7965802e-38
-0.092372425 -0.12508895 0.035331339 1.6769063e-38
-0.090277143 -0.12428986 0.038339585 1.8338572e-38
-0.088194109 -0.12349547 0.041330189 2.2306264e-38
-0.086123236 -0.12270571 0.044303268 2.3508074e-38
-0.084341682 -0.12270571 0.044303268 2.3509886e-38
-0.082560129 -0.12270571 0.044303268 2.2958155e-38
-0.080778576 -0.12270571 0.044303268 2.3234376e-38
-0.078997023 -0.12270571 0.044303268 2.3418047e-38
-0.07695011 -0.12189357 0.047360748 2.3509527e-38
-0.075173907 -0.12189357 0.047360748 2.3508809e-38
-0.073652349 -0.12270571 0.044303268 2.3049991e-38
-0.071870796 -0.12270571 0.044303268 2.3142541e-38
-0.070089243 -0.12270571 0.044303268 2.3418031e-38
-0.068539657 -0.12349547 0.041330189 2.3326196e-38
-0.066752888 -0.12349547 0.041330189 2.3509527e-38
-0.06496612 -0.12349547 0.041330189 2.3509168e-38
-0.063179351 -0.12349547 0.041330189 2.3046749e-38
-0.061392583 -0.12349547 0.041330189 2.1480478e-38
-0.059605815 -0.12349547 0.041330189 1.6225642e-38
-0.058020912 -0.12428986 0.038339585 2.3509813e-38
-0.056228898 -0.12428986 0.038339585 2.3231805e-38
-0.054245509 -0.12349547 0.041330189 2.2677579e-38
-0.052458741 -0.12349547 0.041330189 2.2676169e-38
-0.050671965 -0.12349547 0.041330189 2.31375e-38
-0.048885196 -0.12349547 0.041330189 1.9267763e-38
-0.047098428 -0.12349547 0.041330189 2.1849224e-38
-0.04531166 -0.12349547 0.041330189 2.2401684e-38
-0.043524891 -0.12349547 0.041330189 2.2215862e-38
-0.041892804 -0.12428986 0.038339585 2.3506249e-38
-0.040251113 -0.12508895 0.035331339 2.3507697e-38
-0.038453825 -0.12508895 0.035331339 2.3508424e-38
-0.036797136 -0.12589271 0.032305449 1.3364751e-38
-0.034994543 -0.12589271 0.032305449 1.7790503e-38
-0.033191949 -0.12589271 0.032305449 2.3508071e-38
-0.031389363 -0.12589271 0.032305449 2.3415155e-38
-0.029586766 -0.12589271 0.032305449 1.8437669e-38
-0.027784172 -0.12589271 0.032305449 1.8991563e-38
-0.025981583 -0.12589271 0.032305449 2.3509873e-38
-0.024178989 -0.12589271 0.032305449 2.1942549e-38
-0.022471715 -0.1266733 0.029366823 1.54885e-38
-0.020663973 -0.1266733 0.029366823 1.68718e-38
-0.018944792 -0.12748651 0.026305409 2.3509883e-38
-0.017238546 -0.12853102 0.022373172 1.8347632e-38
-0.015418541 -0.12853102 0.022373172 1.1156725e-38
-0.013598531 -0.12853102 0.022373172 1.4752001e-38
-0.011778526 -0.12853102 0.022373172 2.3418033e-38
-0.0099585205 -0.12853102 0.022373172 2.3509873e-38
-0.0081385151 -0.12853102 0.022373172 2.2680474e-38
-0.0063185059 -0.12853102 0.022373172 2.350988e-38
-0.0044985004 -0.12853102 0.022373172 2.350988e-38
-0.0026784912 -0.12853102 0.022373172 2.3509886e-38
-0.0008584857 -0.12853102 0.022373172 2.3509886e-38
0.00096151978 -0.12853102 0.022373172 2.3509886e-38
0.002757892 -0.12932678 0.019377442 2.3509886e-38
0.0045831501 -0.12932678 0.019377442 2.3509886e-38
0.0064084083 -0.12932678 0.019377442 2.3509886e-38
0.0082336683 -0.12932678 0.019377442 2.3509886e-38
0.010058928 -0.12932678 0.019377442 2.3509886e-38
0.011886828 -0.13012715 0.016364308 2.350988e-38
0.01371737 -0.13012715 0.016364308 2.3509879e-38
0.015561197 -0.13093217 0.01333377 2.350988e-38
0.017397054 -0.13093217 0.01333377 2.350988e-38
0.019232908 -0.13093217 0.01333377 2.3509886e-38
0.021068763 -0.13093217 0.01333377 2.3509886e-38
0.02290462 -0.13093217 0.01333377 2.3509527e-38
0.024740476 -0.13093217 0.01333377 2.3509527e-38
0.026620135 -0.13171287 0.010394664 2.3509168e-38
0.028461143 -0.13171287 0.010394664 2.3509168e-38
0.030302152 -0.13171287 0.010394664 2.3509168e-38
0.032143161 -0.13171287 0.010394664 2.3509168e-38
0.033984169 -0.13171287 0.010394664 2.3509168e-38
0.035825178 -0.13171287 0.010394664 2.3509168e-38
0.037769269 -0.13278987 0.0063401181 2.3509527e-38
0.039617389 -0.13278987 0.0063401181 2.3509527e-38
0.041465506 -0.13278987 0.0063401181 2.3509527e-38
0.043313622 -0.13278987 0.0063401181 2.3509886e-38
0.045161739 -0.13278987 0.0063401181 2.3509524e-38
0.047009859 -0.13278987 0.0063401181 2.350952e-38
0.048857976 -0.13278987 0.0063401181 2.3508804e-38
0.050706096 -0.13278987 0.0063401181 2.3508444e-38
0.052554213 -0.13278987 0.0063401181 2.3508079e-38
0.054402333 -0.13278987 0.0063401181 2.3508783e-38
0.056250449 -0.13278987 0.0063401181 2.2121857e-38
0.058098566 -0.13278987 0.0063401181 1.8988979e-38
0.060085073 -0.13358103 0.003361674 2.1202373e-38
0.062082842 -0.13437669 0.00036630221 2.3509789e-38
0.063941434 -0.13437669 0.00036630221 2.3509816e-38
0.065955833 -0.13517688 -0.0026461165 2.3508774e-38
0.067819715 -0.13517688 -0.0026461165 2.3507374e-38
0.069683582 -0.13517688 -0.0026461165 2.3508092e-38
0.071547464 -0.13517688 -0.0026461165 2.3509168e-38
0.073411331 -0.13517688 -0.0026461165 2.3418043e-38
0.075519785 -0.13625093 -0.0066894572 2.3418042e-38
0.077390745 -0.13625093 -0.0066894572 2.3418039e-38
0.07926172 -0.13625093 -0.0066894572 2.3418039e-38
0.08113268 -0.13625093 -0.0066894572 2.3418036e-38
0.08300364 -0.13625093 -0.0066894572 2.3509869e-38
0.084594578 -0.13517688 -0.0026461165 2.3509867e-38
0.086458445 -0.13517688 -0.0026461165 2.3418031e-38
0.088616535 -0.13625093 -0.0066894572 2.3325478e-38
0.090487495 -0.13625093 -0.0066894572 2.3509869e-38
0.092358455 -0.13625093 -0.0066894572 2.3509873e-38
0.094229423 -0.13625093 -0.0066894572 2.3509879e-38
0.096100383 -0.13625093 -0.0066894572 2.3508801e-38
0.097971343 -0.13625093 -0.0066894572 2.3508444e-38
0.10034274 -0.13784705 -0.012698321 2.3509527e-38
0.10222425 -0.13784705 -0.012698321 2.3509168e-38
0.10410575 -0.13784705 -0.012698321 2.3509527e-38
0.10598724 -0.13784705 -0.012698321 2.3509168e-38
0.1082304 -0.13891099 -0.016703634 2.3509168e-38
0.10975025 -0.13784705 -0.012698321 2.3509168e-38
0.11163174 -0.13784705 -0.012698321 2.3508809e-38
0.11351324 -0.13784705 -0.012698321 2.3509168e-38
0.11539473 -0.13784705 -0.012698321 2.3509168e-38
0.11727624 -0.13784705 -0.012698321 2.3509527e-38
0.11915774 -0.13784705 -0.012698321 1.041739e-38
0.12103923 -0.13784705 -0.012698321 7.0987006e-39
0.12292073 -0.13784705 -0.012698321 6.3611327e-39
-0.10453583 -0.134638 0.0063401181 1.6216999e-38
-0.10193358 -0.13276802 0.01333377 1.7044244e-38
-0.097445183 -0.12608187 0.038339585 1.6213393e-38
-0.095653169 -0.12608187 0.038339585 1.7226807e-38
-0.09448009 -0.12769531 0.032305449 1.7781413e-38
-0.092069156 -0.12608187 0.038339585 1.7045652e-38
-0.089980878 -0.12528224 0.041330189 1.8154902e-38
-0.088194109 -0.12528224 0.041330189 2.2121517e-38
-0.086123236 -0.1244873 0.044303268 2.3509157e-38
-0.08405488 -0.12366976 0.047360748 2.3509886e-38
-0.082278691 -0.12366976 0.047360748 2.3142544e-38
-0.080502488 -0.12366976 0.047360748 2.3142539e-38
-0.078726299 -0.12366976 0.047360748 2.3141819e-38
-0.07695011 -0.12366976 0.047360748 2.3509168e-38
-0.075173907 -0.12366976 0.047360748 2.3508451e-38
-0.073397718 -0.12366976 0.047360748 2.3509168e-38
-0.071870796 -0.1244873 0.044303268 2.341805e-38
-0.070089243 -0.1244873 0.044303268 2.3509869e-38
-0.068539657 -0.12528224 0.041330189 2.3418028e-38
-0.066752888 -0.12528224 0.041330189 2.3508091e-38
-0.06496612 -0.12528224 0.041330189 2.3508809e-38
-0.063179351 -0.12528224 0.041330189 2.350701e-38
-0.061392583 -0.12528224 0.041330189 2.2032208e-38
-0.059605815 -0.12528224 0.041330189 1.2628922e-38
-0.058020912 -0.12608187 0.038339585 2.037406e-38
-0.056032278 -0.12528224 0.041330189 2.1294962e-38
-0.054245509 -0.12528224 0.041330189 2.3509846e-38
-0.052458741 -0.12528224 0.041330189 2.350556e-38
-0.050671965 -0.12528224 0.041330189 2.3136409e-38
-0.048885196 -0.12528224 0.041330189 1.7239079e-38
-0.047098428 -0.12528224 0.041330189 1.9266653e-38
-0.04531166 -0.12528224 0.041330189 2.1200265e-38
-0.043524891 -0.12528224 0.041330189 1.5759658e-38
-0.041892804 -0.12608187 0.038339585 1.5483434e-38
-0.040251113 -0.12688623 0.035331339 2.0461998e-38
-0.038453825 -0.12688623 0.035331339 2.1937852e-38
-0.036797136 -0.12769531 0.032305449 1.4930984e-38
-0.034994543 -0.12769531 0.032305449 1.5577069e-38
-0.033191949 -0.12769531 0.032305449 2.3230741e-38
-0.031389363 -0.12769531 0.032305449 2.2493176e-38
-0.029586766 -0.12769531 0.032305449 1.6408628e-38
-0.027784172 -0.12769531 0.032305449 1.345873e-38
-0.025981583 -0.12769531 0.032305449 2.1479399e-38
-0.024178989 -0.12769531 0.032305449 2.175636e-38
-0.022376396 -0.12769531 0.032305449 1.7422813e-38
-0.020573806 -0.12769531 0.032305449 2.1755659e-38
-0.018856227 -0.12848105 0.029366823 2.2586134e-38
-0.017238546 -0.13035102 0.022373172 1.6042023e-38
-0.015418541 -0.13035102 0.022373172 1.0695747e-38
-0.013598531 -0.13035102 0.022373172 1.456761e-38
-0.011778526 -0.13035102 0.022373172 2.2680827e-38
-0.0099585205 -0.13035102 0.022373172 2.3509873e-38
-0.0081385151 -0.13035102 0.022373172 2.2772669e-38
-0.0063185059 -0.13035102 0.022373172 2.350988e-38
-0.0044985004 -0.13035102 0.022373172 2.3233652e-38
-0.0026784912 -0.13035102 0.022373172 2.3509886e-38
-0.00089262798 -0.13115202 0.019377442 2.3509886e-38
0.00093263015 -0.13115202 0.019377442 2.3509886e-38
0.002757892 -0.13115202 0.019377442 2.3509886e-38
0.0045831501 -0.13115202 0.019377442 2.3509886e-38
0.0064084083 -0.13115202 0.019377442 2.3509886e-38
0.0082336683 -0.13115202 0.019377442 2.3509886e-38
0.010058928 -0.13115202 0.019377442 2.3509886e-38
0.011886828 -0.13195769 0.016364308 2.3509886e-38
0.01371737 -0.13195769 0.016364308 2.3509883e-38
0.015561197 -0.13276802 0.01333377 2.3509886e-38
0.017397054 -0.13276802 0.01333377 2.3509886e-38
0.019232908 -0.13276802 0.01333377 2.3509527e-38
0.021068763 -0.13276802 0.01333377 2.3509527e-38
0.02290462 -0.13276802 0.01333377 2.3509168e-38
0.024740476 -0.13276802 0.01333377 2.3509168e-38
0.026576333 -0.13276802 0.01333377 2.3416615e-38
0.028412187 -0.13276802 0.01333377 2.3416615e-38
0.030248044 -0.13276802 0.01333377 2.3508092e-38
0.032083899 -0.13276802 0.01333377 2.3508092e-38
0.033984169 -0.13355388 0.010394664 2.3508809e-38
0.035825178 -0.13355388 0.010394664 2.3509168e-38
0.037666187 -0.13355388 0.010394664 2.3509168e-38
0.039617389 -0.134638 0.0063401181 2.3509168e-38
0.041465506 -0.134638 0.0063401181 2.3509168e-38
0.043313622 -0.134638 0.0063401181 2.3233302e-38
0.045161739 -0.134638 0.0063401181 2.3048166e-38
0.047009859 -0.134638 0.0063401181 2.3509128e-38
0.048857976 -0.134638 0.0063401181 2.3509838e-38
0.050706096 -0.134638 0.0063401181 2.3509837e-38
0.052554213 -0.134638 0.0063401181 2.3509481e-38
0.054402333 -0.134638 0.0063401181 2.3509482e-38
0.056250449 -0.134638 0.0063401181 2.0093556e-38
0.058098566 -0.134638 0.0063401181 2.0831835e-38
0.060085073 -0.13543437 0.003361674 2.2122925e-38
0.062082842 -0.13623528 0.00036630221 2.3230713e-38
0.063941434 -0.13623528 0.00036630221 2.3509481e-38
0.065955833 -0.13704078 -0.0026461165 2.3509866e-38
0.067819715 -0.13704078 -0.0026461165 2.3509168e-38
0.069683582 -0.13704078 -0.0026461165 2.3508809e-38
0.071777865 -0.13812189 -0.0066894572 2.3509527e-38
0.073411331 -0.13704078 -0.0026461165 2.350988e-38
0.075275213 -0.13704078 -0.0026461165 2.3509879e-38
0.07713908 -0.13704078 -0.0026461165 2.3509876e-38
0.079002962 -0.13704078 -0.0026461165 2.3509876e-38
0.080866829 -0.13704078 -0.0026461165 2.3509873e-38
0.082730696 -0.13704078 -0.0026461165 2.350987e-38
0.084594578 -0.13704078 -0.0026461165 2.350987e-38
0.086458445 -0.13704078 -0.0026461165 2.350987e-38
0.088616535 -0.13812189 -0.0066894572 2.350987e-38
0.090487495 -0.13812189 -0.0066894572 2.3509876e-38
0.092358455 -0.13812189 -0.0066894572 2.3509879e-38
0.094229423 -0.13812189 -0.0066894572 2.3509883e-38
0.096100383 -0.13812189 -0.0066894572 2.3509527e-38
0.097971343 -0.13812189 -0.0066894572 2.3509527e-38
0.10008711 -0.13890781 -0.0096288007 2.3509527e-38
0.10222425 -0.13972856 -0.012698321 2.3509527e-38
0.10410575 -0.13972856 -0.012698321 2.3509886e-38
0.10634189 -0.14079951 -0.016703634 2.3509527e-38
0.10850085 -0.1416003 -0.019698529 2.3509527e-38
0.11011893 -0.14079951 -0.016703634 2.3509527e-38
0.11200745 -0.14079951 -0.016703634 2.3509527e-38
0.11389598 -0.14079951 -0.016703634 2.3509527e-38
0.11539473 -0.13972856 -0.012698321 2.3509527e-38
0.11727624 -0.13972856 -0.012698321 2.3232585e-38
0.11915774 -0.13972856 -0.012698321 1.0601784e-38
0.12103923 -0.13972856 -0.012698321 6.5451765e-39
-0.10453583 -0.13648613 0.0063401181 1.6585062e-38
-0.10193358 -0.13460387 0.01333377 1.7043884e-38
-0.097445183 -0.12787388 0.038339585 1.6305589e-38
-0.095653169 -0.12787388 0.038339585 1.7134611e-38
-0.094169714 -0.12868352 0.035331339 1.7044208e-38
-0.092069156 -0.12787388 0.038339585 1.6032222e-38
-0.089980878 -0.12706901 0.041330189 1.7324785e-38
-0.087904803 -0.12626885 0.044303268 2.2029321e-38
-0.086123236 -0.12626885 0.044303268 2.3508797e-38
-0.08405488 -0.12544595 0.047360748 2.3509527e-38
-0.082278691 -0.12544595 0.047360748 2.3142544e-38
-0.080502488 -0.12544595 0.047360748 2.3234376e-38
-0.078726299 -0.12544595 0.047360748 2.3141816e-38
-0.07695011 -0.12544595 0.047360748 2.3509168e-38
-0.075173907 -0.12544595 0.047360748 2.3508092e-38
-0.073397718 -0.12544595 0.047360748 2.3508451e-38
-0.071870796 -0.12626885 0.044303268 2.3324421e-38
-0.070089243 -0.12626885 0.044303268 2.3509869e-38
-0.068539657 -0.12706901 0.041330189 2.3509509e-38
-0.066752888 -0.12706901 0.041330189 2.3508092e-38
-0.06496612 -0.12706901 0.041330189 2.3508092e-38
-0.063179351 -0.12706901 0.041330189 2.3507728e-38
-0.061392583 -0.12706901 0.041330189 2.258394e-38
-0.059605815 -0.12706901 0.041330189 1.3642708e-38
-0.057819046 -0.12706901 0.041330189 1.9543931e-38
-0.056032278 -0.12706901 0.041330189 1.926629e-38
-0.054245509 -0.12706901 0.041330189 2.3507676e-38
-0.052458741 -0.12706901 0.041330189 2.3508072e-38
-0.050671965 -0.12706901 0.041330189 2.3505542e-38
-0.048885196 -0.12706901 0.041330189 1.6777371e-38
-0.047098428 -0.12706901 0.041330189 1.9266289e-38
-0.045476831 -0.12787388 0.038339585 2.01854e-38
-0.043684818 -0.12787388 0.038339585 1.5390525e-38
-0.041892804 -0.12787388 0.038339585 1.5482718e-38
-0.040251113 -0.12868352 0.035331339 2.0001023e-38
-0.038453825 -0.12868352 0.035331339 2.0738585e-38
-0.036656536 -0.12868352 0.035331339 1.3363288e-38
-0.034994543 -0.1294979 0.032305449 1.7513166e-38
-0.033191949 -0.1294979 0.032305449 2.0279032e-38
-0.031389363 -0.1294979 0.032305449 1.9819129e-38
-0.029586766 -0.1294979 0.032305449 1.5947636e-38
-0.027784172 -0.1294979 0.032305449 1.4472154e-38
-0.025981583 -0.1294979 0.032305449 2.0464882e-38
-0.024178989 -0.1294979 0.032305449 2.1109548e-38
-0.022376396 -0.1294979 0.032305449 1.7698324e-38
-0.020573806 -0.1294979 0.032305449 1.9910314e-38
-0.018856227 -0.13028879 0.029366823 1.9727355e-38
-0.017131682 -0.13111271 0.026305409 1.5396656e-38
-0.015318573 -0.13111271 0.026305409 1.2078684e-38
-0.013598531 -0.13217102 0.022373172 1.604274e-38
-0.011778526 -0.13217102 0.022373172 2.3234001e-38
-0.0099585205 -0.13217102 0.022373172 2.3509876e-38
-0.0081385151 -0.13217102 0.022373172 2.3509879e-38
-0.0063185059 -0.13217102 0.022373172 2.350988e-38
-0.0044985004 -0.13217102 0.022373172 2.3509883e-38
-0.0027178861 -0.13297729 0.019377442 2.3509886e-38
-0.00089262798 -0.13297729 0.019377442 2.3509886e-38
0.00093263015 -0.13297729 0.019377442 2.3509886e-38
0.002757892 -0.13297729 0.019377442 2.3509886e-38
0.0045831501 -0.13297729 0.019377442 2.3509886e-38
0.0064084083 -0.13297729 0.019377442 2.3509886e-38
0.0082336683 -0.13297729 0.019377442 2.3509886e-38
0.010058928 -0.13297729 0.019377442 2.3509886e-38
0.011884186 -0.13297729 0.019377442 2.3509886e-38
0.01371737 -0.13378824 0.016364308 2.3509886e-38
0.015547913 -0.13378824 0.016364308 2.3509886e-38
0.017397054 -0.13460387 0.01333377 2.3509527e-38
0.019232908 -0.13460387 0.01333377 2.3509527e-38
0.021068763 -0.13460387 0.01333377 2.3509527e-38
0.02290462 -0.13460387 0.01333377 2.3509168e-38
0.024740476 -0.13460387 0.01333377 2.3509168e-38
0.026576333 -0.13460387 0.01333377 2.3509168e-38
0.028412187 -0.13460387 0.01333377 2.3509168e-38
0.030248044 -0.13460387 0.01333377 2.3509168e-38
0.032083899 -0.13460387 0.01333377 2.3509168e-38
0.033919755 -0.13460387 0.01333377 2.3509168e-38
0.035755612 -0.13460387 0.01333377 2.3509168e-38
0.037666187 -0.13539489 0.010394664 2.3508808e-38
0.039507195 -0.13539489 0.010394664 2.3508088e-38
0.041465506 -0.13648613 0.0063401181 2.3140384e-38
0.043313622 -0.13648613 0.0063401181 2.3509873e-38
0.045161739 -0.13648613 0.0063401181 2.3509848e-38
0.047009859 -0.13648613 0.0063401181 2.3509831e-38
0.048857976 -0.13648613 0.0063401181 2.3509811e-38
0.050706096 -0.13648613 0.0063401181 2.2124717e-38
0.052554213 -0.13648613 0.0063401181 2.1016223e-38
0.054402333 -0.13648613 0.0063401181 2.0647092e-38
0.056250449 -0.13648613 0.0063401181 2.3504806e-38
0.058098566 -0.13648613 0.0063401181 2.3505888e-38
0.060085073 -0.13728772 0.003361674 2.3507688e-38
0.062082842 -0.13809387 0.00036630221 2.3509851e-38
0.063941434 -0.13809387 0.00036630221 2.350986e-38
0.065800026 -0.13809387 0.00036630221 2.3509873e-38
0.067819715 -0.13890465 -0.0026461165 2.3509168e-38
0.069683582 -0.13890465 -0.0026461165 2.3232944e-38
0.071547464 -0.13890465 -0.0026461165 2.3509886e-38
0.073411331 -0.13890465 -0.0026461165 2.3509883e-38
0.075275213 -0.13890465 -0.0026461165 2.350988e-38
0.07713908 -0.13890465 -0.0026461165 2.3509879e-38
0.079002962 -0.13890465 -0.0026461165 2.3509876e-38
0.080866829 -0.13890465 -0.0026461165 2.3509873e-38
0.082730696 -0.13890465 -0.0026461165 2.3509873e-38
0.084594578 -0.13890465 -0.0026461165 2.3509873e-38
0.086458445 -0.13890465 -0.0026461165 2.3509873e-38
0.088616535 -0.13999285 -0.0066894572 2.3509876e-38
0.090487495 -0.13999285 -0.0066894572 2.3509879e-38
0.092358455 -0.13999285 -0.0066894572 2.350988e-38
0.094229423 -0.13999285 -0.0066894572 2.3509527e-38
0.096100383 -0.13999285 -0.0066894572 2.3509527e-38
0.097971343 -0.13999285 -0.0066894572 2.3509527e-38
0.10008711 -0.14078392 -0.0096288007 2.3509527e-38
0.10222425 -0.14161004 -0.012698321 2.3509886e-38
0.10410575 -0.14161004 -0.012698321 2.3509886e-38
0.10634189 -0.14268802 -0.016703634 2.3509883e-38
0.10850085 -0.14349405 -0.019698529 2.3509883e-38
0.1103946 -0.14349405 -0.019698529 2.3509883e-38
0.11228838 -0.14349405 -0.019698529 2.3509883e-38
0.11418215 -0.14349405 -0.019698529 2.3509527e-38
0.11578449 -0.14268802 -0.016703634 2.3509527e-38
0.11767302 -0.14268802 -0.016703634 2.3416974e-38
0.11956153 -0.14268802 -0.016703634 1.0140449e-38
0.12145006 -0.14268802 -0.016703634 5.4384744e-39
-0.10453583 -0.13833423 0.0063401181 1.5755299e-38
-0.10193358 -0.13643973 0.01333377 1.6214122e-38
-0.097445183 -0.1296659 0.038339585 1.6121198e-38
-0.095653169 -0.1296659 0.038339585 1.7319002e-38
-0.094169714 -0.13048081 0.035331339 1.6952012e-38
-0.092069156 -0.1296659 0.038339585 1.6032222e-38
-0.089980878 -0.12885578 0.041330189 1.7509896e-38
-0.087904803 -0.1280504 0.044303268 2.1661618e-38
-0.085831083 -0.12722217 0.047360748 2.3508437e-38
-0.08405488 -0.12722217 0.047360748 2.341805e-38
-0.082278691 -0.12722217 0.047360748 2.3234379e-38
-0.080502488 -0.12722217 0.047360748 2.3234374e-38
-0.078726299 -0.12722217 0.047360748 2.3325847e-38
-0.07695011 -0.12722217 0.047360748 2.3509168e-38
-0.075173907 -0.12722217 0.047360748 2.3508092e-38
-0.073652349 -0.1280504 0.044303268 2.3508092e-38
-0.071870796 -0.1280504 0.044303268 2.3507374e-38
-0.070089243 -0.1280504 0.044303268 2.3509873e-38
-0.068539657 -0.12885578 0.041330189 2.3509514e-38
-0.066752888 -0.12885578 0.041330189 2.3508092e-38
-0.065188967 -0.1296659 0.038339585 2.3508092e-38
-0.063179351 -0.12885578 0.041330189 2.3507369e-38
-0.061392583 -0.12885578 0.041330189 2.2860164e-38
-0.059605815 -0.12885578 0.041330189 1.2997336e-38
-0.057819046 -0.12885578 0.041330189 1.4104389e-38
-0.055836789 -0.1280504 0.044303268 1.290479e-38
-0.054055236 -0.1280504 0.044303268 2.2860866e-38
-0.052273683 -0.1280504 0.044303268 2.350879e-38
-0.050492123 -0.1280504 0.044303268 2.2491028e-38
-0.048710562 -0.1280504 0.044303268 1.4103698e-38
-0.047098428 -0.12885578 0.041330189 1.8528725e-38
-0.04531166 -0.12885578 0.041330189 1.9816626e-38
-0.043684818 -0.1296659 0.038339585 1.5390534e-38
-0.041892804 -0.1296659 0.038339585 1.622065e-38
-0.040251113 -0.13048081 0.035331339 2.2305559e-38
-0.038453825 -0.13048081 0.035331339 2.2213715e-38
-0.036656536 -0.13048081 0.035331339 1.3732791e-38
-0.034859255 -0.13048081 0.035331339 2.074001e-38
-0.033061966 -0.13048081 0.035331339 1.9449626e-38
-0.031389363 -0.13130049 0.032305449 9.8619967e-39
-0.029586766 -0.13130049 0.032305449 1.1337851e-38
-0.027784172 -0.13130049 0.032305449 1.4379957e-38
-0.025981583 -0.13130049 0.032305449 1.8713165e-38
-0.024178989 -0.13130049 0.032305449 1.9357831e-38
-0.022376396 -0.13130049 0.032305449 1.7605412e-38
-0.020573806 -0.13130049 0.032305449 1.8803251e-38
-0.018856227 -0.13209651 0.029366823 2.000251e-38
-0.017131682 -0.13292582 0.026305409 1.5488499e-38
-0.015318573 -0.13292582 0.026305409 1.4291023e-38
-0.013598531 -0.13399105 0.022373172 1.7425676e-38
-0.011778526 -0.13399105 0.022373172 2.203546e-38
-0.0099585205 -0.13399105 0.022373172 2.3233648e-38
-0.0081385151 -0.13399105 0.022373172 2.2864868e-38
-0.0063185059 -0.13399105 0.022373172 2.2957065e-38
-0.0044985004 -0.13399105 0.022373172 2.2587927e-38
-0.0026784912 -0.13399105 0.022373172 2.3509886e-38
-0.0008584857 -0.13399105 0.022373172 2.3509886e-38
0.00096151978 -0.13399105 0.022373172 2.3509886e-38
0.0027815271 -0.13399105 0.022373172 2.3509886e-38
0.0045831501 -0.13480256 0.019377442 2.3509886e-38
0.0064215399 -0.13399105 0.022373172 2.3509886e-38
0.0082415473 -0.13399105 0.022373172 2.3509886e-38
0.010058928 -0.13480256 0.019377442 2.3509886e-38
0.011884186 -0.13480256 0.019377442 2.341805e-38
0.013709446 -0.13480256 0.019377442 2.341805e-38
0.015547913 -0.13561879 0.016364308 2.3509527e-38
0.017397054 -0.13643973 0.01333377 2.3509527e-38
0.019232908 -0.13643973 0.01333377 2.3509527e-38
0.021068763 -0.13643973 0.01333377 2.3509527e-38
0.02290462 -0.13643973 0.01333377 2.3509168e-38
0.024740476 -0.13643973 0.01333377 2.3509168e-38
0.026576333 -0.13643973 0.01333377 2.3508092e-38
0.028412187 -0.13643973 0.01333377 2.3508451e-38
0.030248044 -0.13643973 0.01333377 2.3508451e-38
0.032083899 -0.13643973 0.01333377 2.3509168e-38
0.033919755 -0.13643973 0.01333377 2.3508805e-38
0.035755612 -0.13643973 0.01333377 2.3508441e-38
0.037666187 -0.13723589 0.010394664 2.3508077e-38
0.039507195 -0.13723589 0.010394664 2.3416233e-38
0.041465506 -0.13833423 0.0063401181 2.3509856e-38
0.043313622 -0.13833423 0.0063401181 2.3509842e-38
0.045161739 -0.13833423 0.0063401181 2.3509831e-38
0.047009859 -0.13833423 0.0063401181 2.3509814e-38
0.048857976 -0.13833423 0.0063401181 2.267897e-38
0.050706096 -0.13833423 0.0063401181 2.1571192e-38
0.052554213 -0.13833423 0.0063401181 2.1200989e-38
0.054402333 -0.13833423 0.0063401181 2.1200642e-38
0.056250449 -0.13833423 0.0063401181 2.3508787e-38
0.058098566 -0.13833423 0.0063401181 2.3508793e-38
0.060085073 -0.13914107 0.003361674 2.3509151e-38
0.062082842 -0.13995247 0.00036630221 2.350951e-38
0.063941434 -0.13995247 0.00036630221 2.350987e-38
0.065800026 -0.13995247 0.00036630221 2.3509873e-38
0.067819715 -0.14076851 -0.0026461165 2.350988e-38
0.069683582 -0.14076851 -0.0026461165 2.3509886e-38
0.071547464 -0.14076851 -0.0026461165 2.3509883e-38
0.073411331 -0.14076851 -0.0026461165 2.3509883e-38
0.075275213 -0.14076851 -0.0026461165 2.3509883e-38
0.07713908 -0.14076851 -0.0026461165 2.350988e-38
0.079002962 -0.14076851 -0.0026461165 2.350988e-38
0.080866829 -0.14076851 -0.0026461165 2.3509879e-38
0.082730696 -0.14076851 -0.0026461165 2.3509879e-38
0.084594578 -0.14076851 -0.0026461165 2.3509876e-38
0.086458445 -0.14076851 -0.0026461165 2.3509879e-38
0.088616535 -0.14186381 -0.0066894572 2.3509879e-38
0.090487495 -0.14186381 -0.0066894572 2.350988e-38
0.092358455 -0.14186381 -0.0066894572 2.3509883e-38
0.094229423 -0.14186381 -0.0066894572 2.3509886e-38
0.096100383 -0.14186381 -0.0066894572 2.3509886e-38
0.097971343 -0.14186381 -0.0066894572 2.3509527e-38
0.099842303 -0.14186381 -0.0066894572 2.3509527e-38
0.10196323 -0.14266007 -0.0096288007 2.341805e-38
0.10410575 -0.14349155 -0.012698321 2.3418047e-38
0.10634189 -0.14457656 -0.016703634 2.3418045e-38
0.10850085 -0.14538784 -0.019698529 2.3418043e-38
0.1103946 -0.14538784 -0.019698529 2.3509879e-38
0.11228838 -0.14538784 -0.019698529 2.3509879e-38
0.11418215 -0.14538784 -0.019698529 2.350988e-38
0.11578449 -0.14457656 -0.016703634 2.3509527e-38
0.11767302 -0.14457656 -0.016703634 2.3509168e-38
0.11956153 -0.14457656 -0.016703634 1.0323764e-38
0.12145006 -0.14457656 -0.016703634 5.0696947e-39
0.1226005 -0.14266007 -0.0096288007 4.7009121e-39
0.12447663 -0.14266007 -0.0096288007 5.8994497e-39
-0.1078346 -0.14373477 -0.0066894572 1.5478715e-38
-0.10552055 -0.14263238 -0.0026461165 1.5017734e-38
-0.10300887 -0.14099441 0.003361674 1.5476554e-38
-0.097445183 -0.13145791 0.038339585 1.6029359e-38
-0.095653169 -0.13145791 0.038339585 1.7595589e-38
-0.094169714 -0.1322781 0.035331339 1.7136403e-38
-0.092069156 -0.13145791 0.038339585 1.6216613e-38
-0.089980878 -0.13064255 0.041330189 1.8155265e-38
-0.087904803 -0.12983195 0.044303268 2.1477227e-38
-0.085831083 -0.12899835 0.047360748 2.3508077e-38
-0.08405488 -0.12899835 0.047360748 2.341805e-38
-0.082278691 -0.12899835 0.047360748 2.3142544e-38
-0.080502488 -0.12899835 0.047360748 2.3418045e-38
-0.078726299 -0.12899835 0.047360748 2.3418042e-38
-0.07695011 -0.12899835 0.047360748 2.3509168e-38
-0.075173907 -0.12899835 0.047360748 2.3508092e-38
-0.073652349 -0.12983195 0.044303268 2.3508451e-38
-0.071870796 -0.12983195 0.044303268 2.3508451e-38
-0.070089243 -0.12983195 0.044303268 2.350952e-38
-0.068539657 -0.13064255 0.041330189 2.3509517e-38
-0.066752888 -0.13064255 0.041330189 2.3507733e-38
-0.06496612 -0.13064255 0.041330189 2.3508092e-38
-0.063179351 -0.13064255 0.041330189 2.3506649e-38
-0.061392583 -0.13064255 0.041330189 2.2676133e-38
-0.059605815 -0.13064255 0.041330189 1.5210397e-38
-0.057819046 -0.13064255 0.041330189 2.1203821e-38
-0.055836789 -0.12983195 0.044303268 2.0373003e-38
-0.054055236 -0.12983195 0.044303268 2.3414405e-38
-0.052273683 -0.12983195 0.044303268 2.1937867e-38
-0.050492123 -0.12983195 0.044303268 2.0648203e-38
-0.048710562 -0.12983195 0.044303268 1.594834e-38
-0.047098428 -0.13064255 0.041330189 2.0558119e-38
-0.04531166 -0.13064255 0.041330189 1.8988313e-38
-0.043684818 -0.13145791 0.038339585 1.4746611e-38
-0.041892804 -0.13145791 0.038339585 1.5668564e-38
-0.040100791 -0.13145791 0.038339585 2.2767626e-38
-0.038308777 -0.13145791 0.038339585 2.1569433e-38
-0.036656536 -0.1322781 0.035331339 1.2812282e-38
-0.034859255 -0.1322781 0.035331339 1.7974509e-38
-0.033061966 -0.1322781 0.035331339 1.6777399e-38
-0.031389363 -0.13310309 0.032305449 2.1479373e-38
-0.029586766 -0.13310309 0.032305449 2.2677916e-38
-0.027784172 -0.13310309 0.032305449 2.3139262e-38
-0.025981583 -0.13310309 0.032305449 2.1755622e-38
-0.024178989 -0.13310309 0.032305449 2.000392e-38
-0.022376396 -0.13310309 0.032305449 1.8712479e-38
