# .PCD v0.7 - Point Cloud Data file format
VERSION 0.7
FIELDS x y z rgb
SIZE 4 4 4 4
TYPE F F F F
COUNT 1 1 1 1
WIDTH 935
HEIGHT 1
VIEWPOINT 0 0 0 1 0 0 0
POINTS 935
DATA ascii
-0.032832325 -0.12355967 -0.037132982 2.3140737e-38
-0.030839453 -0.12428416 -0.040138248 2.314074e-38
-0.028865021 -0.12428416 -0.040138248 2.3509883e-38
-0.026924841 -0.12355967 -0.037132982 2.3141819e-38
-0.024955681 -0.12355967 -0.037132982 2.1851803e-38
-0.023045868 -0.12259962 -0.033150796 2.295887e-38
-0.021083688 -0.12259962 -0.033150796 2.2958873e-38
-0.019121509 -0.12259962 -0.033150796 2.2867037e-38
-0.01715933 -0.12259962 -0.033150796 2.2683366e-38
-0.0058183018 -0.11920498 -0.019070033 2.2221676e-38
-0.0038808081 -0.11920498 -0.019070033 1.834946e-38
-0.0018396955 -0.11993565 -0.02210081 1.3832593e-38
-5.8282167e-06 -0.11920498 -0.019070033 9.0384227e-39
0.0019316617 -0.11920498 -0.019070033 2.8613155e-39
0.0038691517 -0.11920498 -0.019070033 4.635103e-40
0.0058066454 -0.11920498 -0.019070033 3.0439089e-39
0.0077441353 -0.11920498 -0.019070033 3.504171e-39
0.0096816253 -0.11920498 -0.019070033 3.7800348e-39
-0.040695794 -0.12187846 -0.02210081 2.3141466e-38
-0.038739808 -0.12552883 -0.037132982 2.3140387e-38
-0.036770649 -0.12552883 -0.037132982 2.3509168e-38
-0.034801487 -0.12552883 -0.037132982 2.3509168e-38
-0.032832325 -0.12552883 -0.037132982 2.3509527e-38
-0.030839453 -0.1262586 -0.040138248 2.3509167e-38
-0.028865021 -0.1262586 -0.040138248 2.3509886e-38
-0.026890591 -0.1262586 -0.040138248 2.341805e-38
-0.024955681 -0.12552883 -0.037132982 2.341805e-38
-0.023045868 -0.1245618 -0.033150796 2.3234379e-38
-0.021151599 -0.12357174 -0.029073719 2.2866674e-38
-0.019250816 -0.12285618 -0.026127104 2.2036914e-38
-0.017382134 -0.12187846 -0.02210081 2.2222384e-38
-0.015505753 -0.12114246 -0.019070033 2.295887e-38
-0.013662361 -0.12017711 -0.015094643 2.2867034e-38
-0.011832181 -0.11921866 -0.011147861 2.2867034e-38
-0.0099085793 -0.11921866 -0.011147861 2.2867037e-38
-0.0079849791 -0.11921866 -0.011147861 2.2958873e-38
-0.0058183018 -0.12114246 -0.019070033 2.2867037e-38
-0.0038808081 -0.12114246 -0.019070033 2.2682649e-38
-0.0018396955 -0.12187846 -0.02210081 2.2958873e-38
-5.8282167e-06 -0.12114246 -0.019070033 2.249826e-38
0.0019316617 -0.12114246 -0.019070033 1.5214814e-38
0.0038691517 -0.12114246 -0.019070033 6.9161282e-39
0.0058066454 -0.12114246 -0.019070033 3.228303e-39
0.0077441353 -0.12114246 -0.019070033 3.8729549e-39
-0.042638596 -0.12382124 -0.02210081 2.3141466e-38
-0.040695794 -0.12382124 -0.02210081 2.341805e-38
-0.038739808 -0.12749799 -0.037132982 2.3416974e-38
-0.036770649 -0.12749799 -0.037132982 2.314039e-38
-0.034801487 -0.12749799 -0.037132982 2.3232585e-38
-0.032832325 -0.12749799 -0.037132982 2.3509886e-38
-0.030839453 -0.12823303 -0.040138248 2.3509886e-38
-0.028894003 -0.12749799 -0.037132982 2.3509886e-38
-0.026924841 -0.12749799 -0.037132982 2.3049626e-38
-0.024955681 -0.12749799 -0.037132982 2.2773039e-38
-0.023106629 -0.12552677 -0.029073719 2.2957431e-38
-0.021200679 -0.12480606 -0.026127104 2.3234379e-38
-0.01932494 -0.12382124 -0.02210081 2.3234376e-38
-0.017382134 -0.12382124 -0.02210081 2.3234376e-38
-0.015505753 -0.12307997 -0.019070033 2.3142541e-38
-0.013662361 -0.12210761 -0.015094643 2.2313854e-38
-0.011832181 -0.12114228 -0.011147861 2.1853954e-38
-0.0099085793 -0.12114228 -0.011147861 2.3142541e-38
-0.0079849791 -0.12114228 -0.011147861 2.286632e-38
-0.0060613807 -0.12114228 -0.011147861 2.3142544e-38
-0.0040097591 -0.12210761 -0.015094643 2.286632e-38
-0.0020792391 -0.12210761 -0.015094643 2.2774843e-38
-0.00014871545 -0.12210761 -0.015094643 2.3142544e-38
0.0017818045 -0.12210761 -0.015094643 2.3142544e-38
0.0037123244 -0.12210761 -0.015094643 2.1944016e-38
0.0053529162 -0.12038656 -0.0080580758 2.1021341e-38
0.007271098 -0.12038656 -0.0080580758 1.8162556e-38
0.0091892797 -0.12038656 -0.0080580758 1.6133533e-38
-0.044581398 -0.12576406 -0.02210081 2.3509886e-38
-0.042638596 -0.12576406 -0.02210081 2.3509886e-38
-0.040695794 -0.12576406 -0.02210081 2.2680128e-38
-0.038743302 -0.12848614 -0.033150796 2.3509886e-38
-0.036781121 -0.12848614 -0.033150796 2.3233302e-38
-0.03481894 -0.12848614 -0.033150796 2.2772323e-38
-0.032832325 -0.12946714 -0.037132982 2.304927e-38
-0.030863164 -0.12946714 -0.037132982 2.341805e-38
-0.028894003 -0.12946714 -0.037132982 2.341805e-38
-0.026924841 -0.12946714 -0.037132982 2.3509886e-38
-0.025008045 -0.12848614 -0.033150796 2.3509886e-38
-0.023106629 -0.1274818 -0.029073719 2.3141103e-38
-0.021200679 -0.12675591 -0.026127104 2.341805e-38
-0.01932494 -0.12576406 -0.02210081 2.3141822e-38
-0.017382134 -0.12576406 -0.02210081 2.2957428e-38
-0.015505753 -0.12501745 -0.019070033 2.3418047e-38
-0.013662361 -0.12403814 -0.015094643 2.3418047e-38
-0.011832181 -0.12306587 -0.011147861 2.332621e-38
-0.0099085793 -0.12306587 -0.011147861 2.3418047e-38
-0.0079849791 -0.12306587 -0.011147861 2.2588648e-38
-0.0060613807 -0.12306587 -0.011147861 2.3234379e-38
-0.0041377787 -0.12306587 -0.011147861 2.3234379e-38
-0.0022141766 -0.12306587 -0.011147861 2.286632e-38
-0.00040163286 -0.12230472 -0.0080580758 2.2681212e-38
0.0015165489 -0.12230472 -0.0080580758 2.2957796e-38
0.0034347307 -0.12230472 -0.0080580758 2.3234379e-38
0.0053529162 -0.12230472 -0.0080580758 2.3234379e-38
0.007271098 -0.12230472 -0.0080580758 2.3417691e-38
0.0091892797 -0.12230472 -0.0080580758 2.2679776e-38
0.011107465 -0.12230472 -0.0080580758 2.0558558e-38
0.017875513 -0.11813726 0.0088592721 2.1385433e-38
0.019764034 -0.11813726 0.0088592721 2.0740064e-38
-0.046548914 -0.12870578 -0.026127104 2.2587932e-38
-0.044599049 -0.12870578 -0.026127104 2.2311345e-38
-0.042638596 -0.12770687 -0.02210081 2.3509886e-38
-0.040695794 -0.12770687 -0.02210081 2.3509886e-38
-0.038749456 -0.12870578 -0.026127104 2.341805e-38
-0.036791842 -0.12943684 -0.029073719 2.341805e-38
-0.034836814 -0.12943684 -0.029073719 2.341805e-38
-0.032856762 -0.13044833 -0.033150796 2.341805e-38
-0.030894583 -0.13044833 -0.033150796 2.341805e-38
-0.028932404 -0.13044833 -0.033150796 2.3234018e-38
-0.026970226 -0.13044833 -0.033150796 2.3509886e-38
-0.025008045 -0.13044833 -0.033150796 2.3509886e-38
-0.023150543 -0.12870578 -0.026127104 2.3509886e-38
-0.021267744 -0.12770687 -0.02210081 2.3509886e-38
-0.01932494 -0.12770687 -0.02210081 2.3509527e-38
-0.017382134 -0.12770687 -0.02210081 2.2863797e-38
-0.015505753 -0.12695493 -0.019070033 2.323258e-38
-0.013662361 -0.12596865 -0.015094643 2.3509527e-38
-0.011731841 -0.12596865 -0.015094643 2.3416971e-38
-0.0099085793 -0.12498946 -0.011147861 2.3324775e-38
-0.0079849791 -0.12498946 -0.011147861 2.3509883e-38
-0.0060613807 -0.12498946 -0.011147861 2.3141819e-38
-0.0041377787 -0.12498946 -0.011147861 2.2680844e-38
-0.0023198184 -0.12422292 -0.0080580758 2.3234379e-38
-0.00040163286 -0.12422292 -0.0080580758 2.3234379e-38
0.0015165489 -0.12422292 -0.0080580758 2.3234379e-38
0.0032763649 -0.12322696 -0.004043703 2.2865602e-38
0.0051875096 -0.12322696 -0.004043703 2.2772688e-38
0.0070986543 -0.12322696 -0.004043703 2.3325138e-38
0.009009799 -0.12322696 -0.004043703 2.3509168e-38
0.010920944 -0.12322696 -0.004043703 2.3509168e-38
0.012832088 -0.12322696 -0.004043703 2.3415535e-38
0.017875513 -0.12002577 0.0088592721 2.3508448e-38
0.019764034 -0.12002577 0.0088592721 2.3508448e-38
0.021652555 -0.12002577 0.0088592721 2.3508451e-38
0.023305817 -0.11903207 0.012864585 2.3505214e-38
0.025187319 -0.11903207 0.012864585 2.1844969e-38
-0.048522025 -0.13139187 -0.029073719 2.3509886e-38
-0.046566997 -0.13139187 -0.029073719 2.3509527e-38
-0.044599049 -0.13065563 -0.026127104 2.3509527e-38
-0.042649187 -0.13065563 -0.026127104 2.28638e-38
-0.040699322 -0.13065563 -0.026127104 2.3509886e-38
-0.038749456 -0.13065563 -0.026127104 2.268192e-38
-0.036791842 -0.13139187 -0.029073719 2.3234374e-38
-0.034836814 -0.13139187 -0.029073719 2.3234374e-38
-0.032881781 -0.13139187 -0.029073719 2.3234374e-38
-0.030894583 -0.13241051 -0.033150796 2.3418045e-38
-0.02897172 -0.13139187 -0.029073719 2.3234015e-38
-0.02701669 -0.13139187 -0.029073719 2.3233296e-38
-0.02506166 -0.13139187 -0.029073719 2.3141103e-38
-0.023210548 -0.12964968 -0.02210081 2.2863797e-38
-0.021267744 -0.12964968 -0.02210081 2.3509527e-38
-0.019380735 -0.12889244 -0.019070033 2.3509168e-38
-0.017443245 -0.12889244 -0.019070033 2.3509168e-38
-0.015592882 -0.12789918 -0.015094643 2.3508809e-38
-0.013755782 -0.12691309 -0.011147861 2.3508809e-38
-0.011832181 -0.12691309 -0.011147861 2.3508451e-38
-0.0099085793 -0.12691309 -0.011147861 2.3509168e-38
-0.0080743674 -0.12614109 -0.0080580758 2.350988e-38
-0.0061561856 -0.12614109 -0.0080580758 2.3325846e-38
-0.0042380001 -0.12614109 -0.0080580758 2.350988e-38
-0.0023198184 -0.12614109 -0.0080580758 2.3418045e-38
-0.00054592453 -0.12513812 -0.004043703 2.341805e-38
0.0013652202 -0.12513812 -0.004043703 2.3234018e-38
0.0031606611 -0.12440531 -0.0011107967 2.341805e-38
0.0050666649 -0.12440531 -0.0011107967 2.341805e-38
0.006972665 -0.12440531 -0.0011107967 2.157378e-38
0.0088786688 -0.12440531 -0.0011107967 2.3048191e-38
0.010784669 -0.12440531 -0.0011107967 2.3509527e-38
0.012354353 -0.12266256 0.0058643771 2.3509165e-38
0.014248127 -0.12266256 0.0058643771 2.3508446e-38
0.015986992 -0.12191428 0.0088592721 2.3508804e-38
0.017875513 -0.12191428 0.0088592721 2.3508802e-38
0.019764034 -0.12191428 0.0088592721 2.3508802e-38
0.021652555 -0.12191428 0.0088592721 2.3506651e-38
0.023305817 -0.12091358 0.012864585 2.3504493e-38
0.025187319 -0.12091358 0.012864585 2.248962e-38
0.027068814 -0.12091358 0.012864585 1.9170933e-38
0.028950317 -0.12091358 0.012864585 1.4284562e-38
-0.052523933 -0.13537462 -0.037132982 2.341805e-38
-0.050516374 -0.1343727 -0.033150796 2.341805e-38
-0.048522025 -0.13334687 -0.029073719 2.3141106e-38
-0.046566997 -0.13334687 -0.029073719 2.3509527e-38
-0.044611968 -0.13334687 -0.029073719 2.3509527e-38
-0.042649187 -0.13260551 -0.026127104 2.3509167e-38
-0.040699322 -0.13260551 -0.026127104 2.3509886e-38
-0.038749456 -0.13260551 -0.026127104 2.30507e-38
-0.036799595 -0.13260551 -0.026127104 2.3142538e-38
-0.034849726 -0.13260551 -0.026127104 2.2958864e-38
-0.032899864 -0.13260551 -0.026127104 2.2957425e-38
-0.030950001 -0.13260551 -0.026127104 2.3233296e-38
-0.029000137 -0.13260551 -0.026127104 2.3509883e-38
-0.027050272 -0.13260551 -0.026127104 2.3509883e-38
-0.025153354 -0.13159247 -0.02210081 2.3416971e-38
-0.023210548 -0.13159247 -0.02210081 2.3509886e-38
-0.021318227 -0.13082992 -0.019070033 2.3509886e-38
-0.019380735 -0.13082992 -0.019070033 2.350773e-38
-0.017523402 -0.12982969 -0.015094643 2.3508092e-38
-0.015679382 -0.12883668 -0.011147861 2.3508451e-38
-0.013755782 -0.12883668 -0.011147861 2.3508451e-38
-0.011832181 -0.12883668 -0.011147861 2.3415898e-38
-0.0099925511 -0.12805928 -0.0080580758 2.3417333e-38
-0.0080743674 -0.12805928 -0.0080580758 2.3049261e-38
-0.0061561856 -0.12805928 -0.0080580758 2.3509879e-38
-0.0042380001 -0.12805928 -0.0080580758 2.350988e-38
-0.0024570692 -0.12704925 -0.004043703 2.3509523e-38
-0.00065134279 -0.12631132 -0.0011107967 2.2956709e-38
0.001254661 -0.12631132 -0.0011107967 2.341805e-38
0.0030409861 -0.12554805 0.0019228413 2.3049626e-38
0.0049416665 -0.12554805 0.0019228413 2.1021322e-38
0.0068423506 -0.12554805 0.0019228413 2.3324055e-38
0.0087430347 -0.12554805 0.0019228413 2.3509165e-38
0.010643719 -0.12554805 0.0019228413 2.3509165e-38
0.012354353 -0.12455635 0.0058643771 2.3509521e-38
0.014248127 -0.12455635 0.0058643771 2.350952e-38
0.015986992 -0.12380283 0.0088592721 2.3509157e-38
0.017875513 -0.12380283 0.0088592721 2.3137133e-38
0.019764034 -0.12380283 0.0088592721 2.1937151e-38
0.021652555 -0.12380283 0.0088592721 2.1288547e-38
0.023305817 -0.12279506 0.012864585 1.9903815e-38
0.025187319 -0.12279506 0.012864585 1.88893e-38
0.027068814 -0.12279506 0.012864585 1.8151735e-38
0.028950317 -0.12279506 0.012864585 1.6953908e-38
-0.056462258 -0.13734378 -0.037132982 1.1987238e-38
-0.054493099 -0.13734378 -0.037132982 1.4753106e-38
-0.052523933 -0.13734378 -0.037132982 2.3142544e-38
-0.050516374 -0.13633488 -0.033150796 2.3234379e-38
-0.048554197 -0.13633488 -0.033150796 2.2957075e-38
-0.046566997 -0.1353019 -0.029073719 2.3509886e-38
-0.044611968 -0.1353019 -0.029073719 2.3140384e-38
-0.042656936 -0.1353019 -0.029073719 2.3509524e-38
-0.040699322 -0.13455538 -0.026127104 2.3417687e-38
-0.038749456 -0.13455538 -0.026127104 2.3142541e-38
-0.036799595 -0.13455538 -0.026127104 2.2958873e-38
-0.034867376 -0.13353528 -0.02210081 2.295887e-38
-0.03292457 -0.13353528 -0.02210081 2.3141466e-38
-0.031005681 -0.13276742 -0.019070033 2.3507733e-38
-0.029068191 -0.13276742 -0.019070033 2.3508451e-38
-0.027130699 -0.13276742 -0.019070033 2.3508809e-38
-0.025245484 -0.13176022 -0.015094643 2.3509527e-38
-0.023314964 -0.13176022 -0.015094643 2.3234376e-38
-0.021384444 -0.13176022 -0.015094643 2.3234374e-38
-0.019453922 -0.13176022 -0.015094643 2.3508441e-38
-0.017523402 -0.13176022 -0.015094643 2.3508448e-38
-0.015679382 -0.13076027 -0.011147861 2.3507733e-38
-0.013828916 -0.12997745 -0.0080580758 2.3507014e-38
-0.011910733 -0.12997745 -0.0080580758 2.3142544e-38
-0.0099925511 -0.12997745 -0.0080580758 2.2223111e-38
-0.0080743674 -0.12997745 -0.0080580758 2.2958873e-38
-0.0062793586 -0.12896039 -0.004043703 2.341769e-38
-0.0043682139 -0.12896039 -0.004043703 2.3508809e-38
-0.0025573466 -0.12821732 -0.0011107967 2.3508451e-38
-0.00065134279 -0.12821732 -0.0011107967 2.3509527e-38
0.001140302 -0.12744872 0.0019228413 2.2680844e-38
0.0028854925 -0.12645011 0.0058643771 2.1022043e-38
0.0047792625 -0.12645011 0.0058643771 2.1297909e-38
0.0066730361 -0.12645011 0.0058643771 2.3508807e-38
0.0085668098 -0.12645011 0.0058643771 2.3508088e-38
0.01046058 -0.12645011 0.0058643771 2.3508804e-38
0.012354353 -0.12645011 0.0058643771 2.350952e-38
0.014248127 -0.12645011 0.0058643771 2.3325483e-38
0.015986992 -0.12569134 0.0088592721 2.2955619e-38
0.017875513 -0.12569134 0.0088592721 2.2307373e-38
0.019764034 -0.12569134 0.0088592721 2.147329e-38
0.021652555 -0.12569134 0.0088592721 2.2112177e-38
0.023305817 -0.12467657 0.012864585 1.9528173e-38
0.025187319 -0.12467657 0.012864585 1.8789886e-38
0.027068814 -0.12467657 0.012864585 1.925122e-38
0.028950317 -0.12467657 0.012864585 1.8698407e-38
0.031750694 -0.12821732 -0.0011107967 1.8331066e-38
0.033656701 -0.12821732 -0.0011107967 1.6119816e-38
-0.058431424 -0.13931294 -0.037132982 9.9582154e-39
-0.056462258 -0.13931294 -0.037132982 1.4292129e-38
-0.054493099 -0.13931294 -0.037132982 1.7979954e-38
-0.052523933 -0.13931294 -0.037132982 2.3142544e-38
-0.050516374 -0.13829704 -0.033150796 2.3050349e-38
-0.048554197 -0.13829704 -0.033150796 2.3141466e-38
-0.046592016 -0.13829704 -0.033150796 2.3509886e-38
-0.044611968 -0.13725694 -0.029073719 2.2955993e-38
-0.042649187 -0.13650523 -0.026127104 2.3509883e-38
-0.040699322 -0.13650523 -0.026127104 2.350988e-38
-0.038749456 -0.13650523 -0.026127104 2.2958507e-38
-0.036799595 -0.13650523 -0.026127104 2.295887e-38
-0.034867376 -0.13547809 -0.02210081 2.3142544e-38
-0.032943171 -0.1347049 -0.019070033 2.3509527e-38
-0.031005681 -0.1347049 -0.019070033 2.3508092e-38
-0.029068191 -0.1347049 -0.019070033 2.3507733e-38
-0.027130699 -0.1347049 -0.019070033 2.3507733e-38
-0.025245484 -0.13369073 -0.015094643 2.3416251e-38
-0.023314964 -0.13369073 -0.015094643 2.2958867e-38
-0.021450184 -0.13268389 -0.011147861 2.2499322e-38
-0.019526582 -0.13268389 -0.011147861 2.3508437e-38
-0.017602982 -0.13268389 -0.011147861 2.3508444e-38
-0.0157471 -0.13189565 -0.0080580758 2.3507728e-38
-0.013828916 -0.13189565 -0.0080580758 2.3508088e-38
-0.011910733 -0.13189565 -0.0080580758 2.2867037e-38
-0.010101648 -0.13087155 -0.004043703 2.2316024e-38
-0.0081905033 -0.13087155 -0.004043703 2.2867037e-38
-0.0062793586 -0.13087155 -0.004043703 2.2772684e-38
-0.0044633467 -0.13012333 -0.0011107967 2.3508451e-38
-0.0026610661 -0.12934943 0.0019228413 2.3508092e-38
-0.00076038204 -0.12934943 0.0019228413 2.2862721e-38
0.00099171884 -0.1283439 0.0058643771 2.341805e-38
0.0028854925 -0.1283439 0.0058643771 2.3142542e-38
0.0047792625 -0.1283439 0.0058643771 2.3509883e-38
0.006544387 -0.12757985 0.0088592721 2.1384344e-38
0.008432908 -0.12757985 0.0088592721 2.2858034e-38
0.010321429 -0.12757985 0.0088592721 2.3506644e-38
0.01220995 -0.12757985 0.0088592721 2.3508437e-38
0.014098471 -0.12757985 0.0088592721 2.3231846e-38
0.015779825 -0.12655805 0.012864585 2.2769786e-38
0.017661324 -0.12655805 0.012864585 2.0922276e-38
0.019764034 -0.12757985 0.0088592721 1.8519427e-38
0.021652555 -0.12757985 0.0088592721 2.0447966e-38
0.023305817 -0.12655805 0.012864585 1.9983739e-38
0.025187319 -0.12655805 0.012864585 2.0352521e-38
0.027068814 -0.12655805 0.012864585 2.0261041e-38
0.028950317 -0.12655805 0.012864585 1.9155772e-38
0.031750694 -0.13012333 -0.0011107967 1.9065739e-38
0.033656701 -0.13012333 -0.0011107967 1.7316191e-38
0.035765827 -0.13087155 -0.004043703 1.3262116e-38
0.037676968 -0.13087155 -0.004043703 1.0407305e-38
0.039588116 -0.13087155 -0.004043703 6.9064004e-39
0.041499257 -0.13087155 -0.004043703 7.3699023e-39
0.043410406 -0.13087155 -0.004043703 8.8468302e-39
-0.056462258 -0.1412821 -0.037132982 1.9270693e-38
-0.054493099 -0.1412821 -0.037132982 2.1759975e-38
-0.052523933 -0.1412821 -0.037132982 2.3142544e-38
-0.050516374 -0.14025922 -0.033150796 2.2589374e-38
-0.048554197 -0.14025922 -0.033150796 2.3234379e-38
-0.046592016 -0.14025922 -0.033150796 2.341805e-38
-0.044611968 -0.13921197 -0.029073719 2.2772321e-38
-0.042649187 -0.13845511 -0.026127104 2.3509883e-38
-0.040699322 -0.13845511 -0.026127104 2.350988e-38
-0.038749456 -0.13845511 -0.026127104 2.3325847e-38
-0.036799595 -0.13845511 -0.026127104 2.3325847e-38
-0.034867376 -0.13742088 -0.02210081 2.3509883e-38
-0.032943171 -0.13664238 -0.019070033 2.3509527e-38
-0.031005681 -0.13664238 -0.019070033 2.3508092e-38
-0.029068191 -0.13664238 -0.019070033 2.3508092e-38
-0.027176004 -0.13562126 -0.015094643 2.3508451e-38
-0.025297385 -0.13460748 -0.011147861 2.3509523e-38
-0.023373784 -0.13460748 -0.011147861 2.2407488e-38
-0.021501649 -0.13381381 -0.0080580758 2.2407843e-38
-0.019583466 -0.13381381 -0.0080580758 2.3509873e-38
-0.017665284 -0.13381381 -0.0080580758 2.3506996e-38
-0.0157471 -0.13381381 -0.0080580758 2.3504478e-38
-0.013828916 -0.13381381 -0.0080580758 2.3508441e-38
-0.011910733 -0.13381381 -0.0080580758 2.2958866e-38
-0.010101648 -0.13278268 -0.004043703 2.2040508e-38
-0.0081905033 -0.13278268 -0.004043703 2.1855759e-38
-0.0063693505 -0.13202934 -0.0011107967 2.3142544e-38
-0.0045617502 -0.1312501 0.0019228413 2.3415535e-38
-0.0027958248 -0.13023765 0.0058643771 2.3508451e-38
-0.0010097008 -0.1294684 0.0088592721 2.3509527e-38
0.0008788202 -0.1294684 0.0088592721 2.2956709e-38
0.002609333 -0.12843956 0.012864585 2.3234012e-38
0.0044908319 -0.12843956 0.012864585 2.3140016e-38
0.0063723307 -0.12843956 0.012864585 2.1566573e-38
0.0082538296 -0.12843956 0.012864585 2.2762956e-38
0.010321429 -0.1294684 0.0088592721 2.3504842e-38
0.012016827 -0.12843956 0.012864585 2.3508075e-38
0.013898326 -0.12843956 0.012864585 2.3508432e-38
0.015779825 -0.12843956 0.012864585 2.3226802e-38
0.017661324 -0.12843956 0.012864585 2.1378571e-38
0.019542823 -0.12843956 0.012864585 1.9437419e-38
0.021424321 -0.12843956 0.012864585 2.0906059e-38
0.023305817 -0.12843956 0.012864585 2.1180476e-38
0.025187319 -0.12843956 0.012864585 2.1457779e-38
0.027318118 -0.1294684 0.0088592721 2.0628737e-38
0.029206639 -0.1294684 0.0088592721 1.9339441e-38
0.031750694 -0.13202934 -0.0011107967 1.9526717e-38
0.033656701 -0.13202934 -0.0011107967 1.8791321e-38
0.035562702 -0.13202934 -0.0011107967 1.5475532e-38
0.037253283 -0.1312501 0.0019228413 1.225158e-38
0.039153971 -0.1312501 0.0019228413 7.2762647e-39
0.041054651 -0.1312501 0.0019228413 6.3571937e-39
0.042955339 -0.1312501 0.0019228413 8.0188758e-39
0.044856012 -0.1312501 0.0019228413 8.8504287e-39
-0.056402914 -0.14222141 -0.033150796 2.3050708e-38
-0.054440729 -0.14222141 -0.033150796 2.3142544e-38
-0.052478552 -0.14222141 -0.033150796 2.3142544e-38
-0.050516374 -0.14222141 -0.033150796 2.2773765e-38
-0.048554197 -0.14222141 -0.033150796 2.3234379e-38
-0.046566997 -0.141167 -0.029073719 2.341805e-38
-0.044611968 -0.141167 -0.029073719 2.2865235e-38
-0.042656936 -0.141167 -0.029073719 2.341805e-38
-0.040699322 -0.14040495 -0.026127104 2.3509883e-38
-0.038749456 -0.14040495 -0.026127104 2.3509879e-38
-0.036810182 -0.13936369 -0.02210081 2.3509518e-38
-0.034867376 -0.13936369 -0.02210081 2.3231854e-38
-0.032943171 -0.13857989 -0.019070033 2.3138942e-38
-0.031037048 -0.1375518 -0.015094643 2.3505931e-38
-0.029106526 -0.1375518 -0.015094643 2.3507374e-38
-0.027220985 -0.13653107 -0.011147861 2.3508809e-38
-0.025297385 -0.13653107 -0.011147861 2.341805e-38
-0.023419833 -0.13573201 -0.0080580758 2.2775196e-38
-0.021501649 -0.13573201 -0.0080580758 2.2775195e-38
-0.019583466 -0.13573201 -0.0080580758 2.3509153e-38
-0.017665284 -0.13573201 -0.0080580758 1.7512477e-38
-0.0157471 -0.13573201 -0.0080580758 1.723337e-38
-0.013923937 -0.13469382 -0.004043703 2.3505188e-38
-0.012012793 -0.13469382 -0.004043703 2.3234362e-38
-0.010101648 -0.13469382 -0.004043703 2.2407841e-38
-0.0083631147 -0.13315077 0.0019228413 2.2591525e-38
-0.0064624306 -0.13315077 0.0019228413 2.295887e-38
-0.0046895985 -0.13213144 0.0058643771 2.3509165e-38
-0.0027958248 -0.13213144 0.0058643771 2.0002852e-38
-0.0010097008 -0.13135691 0.0088592721 2.1295746e-38
0.00072783418 -0.13032107 0.012864585 2.2495367e-38
0.0024882387 -0.12952723 0.015934106 2.3509876e-38
0.0043643583 -0.12952723 0.015934106 2.3509156e-38
0.0062404741 -0.12952723 0.015934106 2.1932472e-38
0.0081165899 -0.12952723 0.015934106 2.1376779e-38
0.0099927094 -0.12952723 0.015934106 2.2944102e-38
0.011868825 -0.12952723 0.015934106 2.3505914e-38
0.013744941 -0.12952723 0.015934106 2.3504828e-38
0.015621057 -0.12952723 0.015934106 2.2299803e-38
0.017497176 -0.12952723 0.015934106 2.0912194e-38
0.019542823 -0.13032107 0.012864585 2.1000061e-38
0.021424321 -0.13032107 0.012864585 2.136487e-38
0.023305817 -0.13032107 0.012864585 2.1454897e-38
0.025187319 -0.13032107 0.012864585 2.1179749e-38
0.027318118 -0.13135691 0.0088592721 2.0351429e-38
0.029398305 -0.13213144 0.0058643771 1.9155049e-38
0.031750694 -0.13393532 -0.0011107967 1.8881348e-38
0.033656701 -0.13393532 -0.0011107967 1.7870807e-38
0.035562702 -0.13393532 -0.0011107967 1.556917e-38
0.037253283 -0.13315077 0.0019228413 1.0870087e-38
0.039153971 -0.13315077 0.0019228413 7.4631769e-39
0.041054651 -0.13315077 0.0019228413 6.2671616e-39
0.042955339 -0.13315077 0.0019228413 6.1767667e-39
-0.058365092 -0.14418359 -0.033150796 1.115711e-38
-0.056402914 -0.14418359 -0.033150796 2.3234379e-38
-0.054440729 -0.14418359 -0.033150796 2.3234379e-38
-0.052478552 -0.14418359 -0.033150796 2.3234379e-38
-0.050516374 -0.14418359 -0.033150796 2.3234379e-38
-0.048554197 -0.14418359 -0.033150796 2.3234379e-38
-0.046566997 -0.14312203 -0.029073719 2.2958154e-38
-0.044611968 -0.14312203 -0.029073719 2.3050347e-38
-0.042649187 -0.14235483 -0.026127104 2.3234379e-38
-0.040699322 -0.14235483 -0.026127104 2.31411e-38
-0.038752988 -0.1413065 -0.02210081 2.350952e-38
-0.036810182 -0.1413065 -0.02210081 2.3507716e-38
-0.03488066 -0.14051737 -0.019070033 2.286271e-38
-0.032943171 -0.14051737 -0.019070033 2.2769437e-38
-0.031037048 -0.1394823 -0.015094643 2.3320099e-38
-0.029106526 -0.1394823 -0.015094643 2.3505571e-38
-0.027220985 -0.13845469 -0.011147861 2.3508809e-38
-0.025338016 -0.13765021 -0.0080580758 2.3234379e-38
-0.023419833 -0.13765021 -0.0080580758 2.2591528e-38
-0.021501649 -0.13765021 -0.0080580758 2.2775195e-38
-0.01965737 -0.13660498 -0.004043703 2.3509153e-38
-0.017746227 -0.13660498 -0.004043703 1.6221376e-38
-0.0157471 -0.13765021 -0.0080580758 1.6032303e-38
-0.013923937 -0.13660498 -0.004043703 2.3502663e-38
-0.012012793 -0.13660498 -0.004043703 2.3509855e-38
-0.010263799 -0.13505147 0.0019228413 2.2867011e-38
-0.0083631147 -0.13505147 0.0019228413 2.2591521e-38
-0.0065833721 -0.1340252 0.0058643771 2.1853954e-38
-0.0046895985 -0.1340252 0.0058643771 2.3508439e-38
-0.0028982218 -0.13324542 0.0088592721 1.5854044e-38
-0.0011536647 -0.13220255 0.012864585 1.308925e-38
0.00061212294 -0.13140334 0.015934106 2.3509873e-38
0.0024882387 -0.13140334 0.015934106 2.3509869e-38
0.0042432453 -0.13063805 0.018873449 2.350519e-38
0.0061142091 -0.13063805 0.018873449 2.1929224e-38
0.0079851728 -0.13063805 0.018873449 2.1372451e-38
0.0099927094 -0.13140334 0.015934106 2.303197e-38
0.0117271 -0.13063805 0.018873449 2.3502669e-38
0.013598064 -0.13063805 0.018873449 2.3502303e-38
0.015621057 -0.13140334 0.015934106 2.2847932e-38
0.017497176 -0.13140334 0.015934106 2.1920941e-38
0.019373292 -0.13140334 0.015934106 2.2286116e-38
0.021249408 -0.13140334 0.015934106 2.1638571e-38
0.023305817 -0.13220255 0.012864585 2.1177225e-38
0.025187319 -0.13220255 0.012864585 2.1178304e-38
0.027318118 -0.13324542 0.0088592721 2.0812764e-38
0.029398305 -0.1340252 0.0058643771 1.9340161e-38
0.031292081 -0.1340252 0.0058643771 1.8053029e-38
0.033451922 -0.13505147 0.0019228413 1.7964445e-38
0.035079628 -0.1340252 0.0058643771 1.7968058e-38
0.036973394 -0.1340252 0.0058643771 1.271616e-38
0.038867168 -0.1340252 0.0058643771 9.9535421e-39
-0.058365092 -0.14614578 -0.033150796 1.152517e-38
-0.056402914 -0.14614578 -0.033150796 2.341805e-38
-0.054493099 -0.1471896 -0.037132982 2.2865235e-38
-0.052478552 -0.14614578 -0.033150796 2.3050349e-38
-0.050516374 -0.14614578 -0.033150796 2.3234379e-38
-0.048554197 -0.14614578 -0.033150796 2.3234379e-38
-0.046566997 -0.14507706 -0.029073719 2.2865958e-38
-0.044611968 -0.14507706 -0.029073719 2.3234379e-38
-0.042649187 -0.14430468 -0.026127104 2.3234379e-38
-0.040695794 -0.14324932 -0.02210081 2.2956709e-38
-0.038752988 -0.14324932 -0.02210081 2.3509157e-38
-0.036818154 -0.14245488 -0.019070033 2.3508078e-38
-0.03488066 -0.14245488 -0.019070033 2.3415884e-38
-0.032967567 -0.14141284 -0.015094643 2.3415885e-38
-0.031068187 -0.14037828 -0.011147861 2.350737e-38
-0.029144585 -0.14037828 -0.011147861 2.3508092e-38
-0.027220985 -0.14037828 -0.011147861 2.3509168e-38
-0.025338016 -0.13956837 -0.0080580758 2.3142544e-38
-0.023419833 -0.13956837 -0.0080580758 2.2040513e-38
-0.021568514 -0.13851611 -0.004043703 2.2499688e-38
-0.01965737 -0.13851611 -0.004043703 2.3509517e-38
-0.017746227 -0.13851611 -0.004043703 2.0275826e-38
-0.015835082 -0.13851611 -0.004043703 2.008675e-38
-0.013923937 -0.13851611 -0.004043703 2.3506622e-38
-0.012012793 -0.13851611 -0.004043703 2.3509128e-38
-0.010263799 -0.13695215 0.0019228413 2.3418015e-38
-0.0084771439 -0.13591899 0.0058643771 2.2406398e-38
-0.0065833721 -0.13591899 0.0058643771 2.3234369e-38
-0.0047867429 -0.13513394 0.0088592721 2.3508078e-38
-0.0028982218 -0.13513394 0.0088592721 1.0043912e-38
-0.0011536647 -0.13408406 0.012864585 1.7143693e-38
0.00061212294 -0.13327946 0.015934106 2.2122613e-38
0.0023722816 -0.13250901 0.018873449 2.3509143e-38
0.0042432453 -0.13250901 0.018873449 2.018254e-38
0.0061142091 -0.13250901 0.018873449 1.9345221e-38
0.0079851728 -0.13250901 0.018873449 1.9617129e-38
0.0098561365 -0.13250901 0.018873449 2.0538722e-38
0.0117271 -0.13250901 0.018873449 2.1553592e-38
0.013598064 -0.13250901 0.018873449 2.109369e-38
0.015469024 -0.13250901 0.018873449 2.0723465e-38
0.017339988 -0.13250901 0.018873449 2.1086497e-38
0.019210951 -0.13250901 0.018873449 2.0807744e-38
0.021249408 -0.13327946 0.015934106 2.1729323e-38
0.023125527 -0.13327946 0.015934106 2.0992831e-38
0.025187319 -0.13408406 0.012864585 2.0441818e-38
0.027318118 -0.13513394 0.0088592721 1.9983365e-38
0.029398305 -0.13591899 0.0058643771 1.8512561e-38
0.031292081 -0.13591899 0.0058643771 1.8054831e-38
0.033185855 -0.13591899 0.0058643771 2.0271499e-38
0.035079628 -0.13591899 0.0058643771 2.304134e-38
0.036973394 -0.13591899 0.0058643771 2.3505931e-38
0.038867168 -0.13591899 0.0058643771 2.3508809e-38
-0.060400583 -0.14915876 -0.037132982 1.1985065e-38
-0.058431424 -0.14915876 -0.037132982 1.2446763e-38
-0.056462258 -0.14915876 -0.037132982 2.350988e-38
-0.054493099 -0.14915876 -0.037132982 2.3233296e-38
-0.052478552 -0.14810793 -0.033150796 2.3326213e-38
-0.050516374 -0.14810793 -0.033150796 2.341805e-38
-0.048554197 -0.14810793 -0.033150796 2.3234018e-38
-0.046566997 -0.1470321 -0.029073719 2.3142542e-38
-0.044599049 -0.14625455 -0.026127104 2.3234379e-38
-0.042638596 -0.1451921 -0.02210081 2.3050707e-38
-0.040695794 -0.1451921 -0.02210081 2.332621e-38
-0.038752988 -0.1451921 -0.02210081 2.350952e-38
-0.036818154 -0.14439236 -0.019070033 2.3509517e-38
-0.03488066 -0.14439236 -0.019070033 2.3509879e-38
-0.032967567 -0.14334334 -0.015094643 2.3509521e-38
-0.031068187 -0.14230187 -0.011147861 2.3508451e-38
-0.029144585 -0.14230187 -0.011147861 2.3508809e-38
-0.027220985 -0.14230187 -0.011147861 2.3509168e-38
-0.025338016 -0.14148657 -0.0080580758 2.2958873e-38
-0.023479659 -0.14042725 -0.004043703 2.2499695e-38
-0.021568514 -0.14042725 -0.004043703 2.2683366e-38
-0.01965737 -0.14042725 -0.004043703 2.3507363e-38
-0.017746227 -0.14042725 -0.004043703 1.9443193e-38
-0.015835082 -0.14042725 -0.004043703 1.9345588e-38
-0.013923937 -0.14042725 -0.004043703 2.3498702e-38
-0.012087356 -0.13965334 -0.0011107967 2.3507688e-38
-0.010370916 -0.13781275 0.0058643771 2.3509489e-38
-0.0084771439 -0.13781275 0.0058643771 2.3232557e-38
-0.0066752639 -0.13702248 0.0088592721 2.350987e-38
-0.0047867429 -0.13702248 0.0088592721 1.7602514e-38
-0.0028982218 -0.13702248 0.0088592721 1.4742288e-38
-0.0011536647 -0.13596557 0.012864585 1.7970209e-38
0.00061212294 -0.13515557 0.015934106 2.3504464e-38
0.0023722816 -0.13437997 0.018873449 2.3503378e-38
0.0042432453 -0.13437997 0.018873449 2.1285282e-38
0.0061142091 -0.13437997 0.018873449 1.9802954e-38
0.0079851728 -0.13437997 0.018873449 1.9706799e-38
0.0098561365 -0.13437997 0.018873449 2.0074856e-38
0.0117271 -0.13437997 0.018873449 2.0443996e-38
0.013598064 -0.13437997 0.018873449 1.9892261e-38
0.015469024 -0.13437997 0.018873449 2.0259602e-38
0.017339988 -0.13437997 0.018873449 2.1268722e-38
0.019210951 -0.13437997 0.018873449 2.1267277e-38
0.021249408 -0.13515557 0.015934106 2.0438584e-38
0.023125527 -0.13515557 0.015934106 1.9979761e-38
0.025187319 -0.13596557 0.012864585 1.9429111e-38
0.027318118 -0.13702248 0.0088592721 1.9248684e-38
0.029398305 -0.13781275 0.0058643771 1.9529238e-38
0.031292081 -0.13781275 0.0058643771 1.9994543e-38
0.032983683 -0.13702248 0.0088592721 2.221049e-38
0.034872212 -0.13702248 0.0088592721 2.3508441e-38
0.036258347 -0.13515557 0.015934106 2.3508809e-38
0.038134463 -0.13515557 0.015934106 2.3509168e-38
0.039490253 -0.13331302 0.02291679 2.323402e-38
0.041354127 -0.13331302 0.02291679 2.2867037e-38
0.042982958 -0.1325181 0.025929209 2.2131277e-38
0.044841543 -0.1325181 0.025929209 1.7615146e-38
-0.048522025 -0.14898713 -0.029073719 2.3141819e-38
-0.046566997 -0.14898713 -0.029073719 2.341805e-38
-0.044581398 -0.14713491 -0.02210081 2.3234379e-38
-0.042638596 -0.14713491 -0.02210081 2.277376e-38
-0.040693134 -0.14632986 -0.019070033 2.3418047e-38
-0.038755644 -0.14632986 -0.019070033 2.350988e-38
-0.036818154 -0.14632986 -0.019070033 2.3509879e-38
-0.034898087 -0.14527388 -0.015094643 2.3418043e-38
-0.032967567 -0.14527388 -0.015094643 2.3509883e-38
-0.031068187 -0.14422549 -0.011147861 2.3509168e-38
-0.029144585 -0.14422549 -0.011147861 2.3508809e-38
-0.027256198 -0.14340474 -0.0080580758 2.3509527e-38
-0.025338016 -0.14340474 -0.0080580758 2.2774843e-38
-0.023479659 -0.14233841 -0.004043703 2.2499695e-38
-0.021568514 -0.14233841 -0.004043703 2.2958873e-38
-0.019711366 -0.14155935 -0.0011107967 2.3506295e-38
-0.017805364 -0.14155935 -0.0011107967 1.907118e-38
-0.015835082 -0.14233841 -0.004043703 1.8880301e-38
-0.013993358 -0.14155935 -0.0011107967 2.349511e-38
-0.012087356 -0.14155935 -0.0011107967 2.3506615e-38
-0.010370916 -0.13970654 0.0058643771 2.3507331e-38
-0.0085637867 -0.13891099 0.0088592721 2.2122247e-38
-0.0066752639 -0.13891099 0.0088592721 8.3836688e-39
-0.0047867429 -0.13891099 0.0088592721 1.7229412e-38
-0.0028982218 -0.13891099 0.0088592721 1.7872616e-38
-0.0011536647 -0.13784705 0.012864585 2.0639563e-38
0.00061212294 -0.13703169 0.015934106 2.3503022e-38
0.0023722816 -0.13625093 0.018873449 2.3499775e-38
0.0042432453 -0.13625093 0.018873449 1.9714352e-38
0.0061142091 -0.13625093 0.018873449 1.9707515e-38
0.0079851728 -0.13625093 0.018873449 1.8966349e-38
0.0098561365 -0.13625093 0.018873449 1.9887942e-38
0.0117271 -0.13625093 0.018873449 2.1640375e-38
0.013598064 -0.13625093 0.018873449 2.099752e-38
0.015469024 -0.13625093 0.018873449 1.9705343e-38
0.017339988 -0.13625093 0.018873449 2.0253122e-38
0.019210951 -0.13625093 0.018873449 2.0713021e-38
0.021249408 -0.13703169 0.015934106 1.9886133e-38
0.023125527 -0.13703169 0.015934106 2.0257794e-38
0.025187319 -0.13784705 0.012864585 2.0814571e-38
0.027318118 -0.13891099 0.0088592721 2.2294025e-38
0.029398305 -0.13970654 0.0058643771 2.3500137e-38
0.031292081 -0.13970654 0.0058643771 2.3505906e-38
0.032713316 -0.13784705 0.012864585 2.3506635e-38
0.034594811 -0.13784705 0.012864585 2.3508084e-38
0.035762504 -0.13517688 0.02291679 2.3139311e-38
0.03718923 -0.13358103 0.028924581 2.3509168e-38
0.03904257 -0.13358103 0.028924581 2.323402e-38
0.041124366 -0.13437669 0.025929209 2.2590096e-38
0.042749256 -0.13358103 0.028924581 2.2867037e-38
0.044602588 -0.13358103 0.028924581 2.2499695e-38
0.046455935 -0.13358103 0.028924581 2.1486635e-38
-0.044581398 -0.14907773 -0.02210081 2.2773037e-38
-0.042630628 -0.14826734 -0.019070033 2.3234376e-38
-0.040693134 -0.14826734 -0.019070033 2.2866311e-38
-0.038755644 -0.14826734 -0.019070033 2.3509883e-38
-0.036828607 -0.14720438 -0.015094643 2.2312056e-38
-0.034898087 -0.14720438 -0.015094643 2.3234374e-38
-0.032991789 -0.14614908 -0.011147861 2.3234376e-38
-0.031092566 -0.14532293 -0.0080580758 2.3509527e-38
-0.029174382 -0.14532293 -0.0080580758 2.3509168e-38
-0.027256198 -0.14532293 -0.0080580758 2.2495745e-38
-0.025390804 -0.14424954 -0.004043703 2.3142544e-38
-0.023479659 -0.14424954 -0.004043703 2.2683366e-38
-0.021617368 -0.14346536 -0.0011107967 2.323402e-38
-0.019711366 -0.14346536 -0.0011107967 2.3506657e-38
-0.017805364 -0.14346536 -0.0011107967 1.8053796e-38
-0.01589936 -0.14346536 -0.0011107967 1.758561e-38
-0.013993358 -0.14346536 -0.0011107967 2.3486118e-38
-0.012164481 -0.1426542 0.0019228413 2.3501221e-38
-0.010370916 -0.1416003 0.0058643771 2.3499775e-38
-0.0085637867 -0.14079951 0.0088592721 1.8244634e-38
-0.0066752639 -0.14079951 0.0088592721 1.5201464e-38
-0.0047867429 -0.14079951 0.0088592721 1.7132174e-38
-0.0028982218 -0.14079951 0.0088592721 2.2661753e-38
-0.0011536647 -0.13972856 0.012864585 2.3499428e-38
0.00061212294 -0.13890781 0.015934106 2.3494738e-38
0.0024882387 -0.13890781 0.015934106 2.1557542e-38
0.0042432453 -0.13812189 0.018873449 2.0817455e-38
0.0061142091 -0.13812189 0.018873449 2.0165248e-38
0.0079851728 -0.13812189 0.018873449 2.0254564e-38
0.0098561365 -0.13812189 0.018873449 1.9978693e-38
0.011532145 -0.13704078 0.02291679 1.9888293e-38
0.013396015 -0.13704078 0.02291679 1.9521668e-38
0.01525989 -0.13704078 0.02291679 1.9429113e-38
0.017339988 -0.13812189 0.018873449 2.0530425e-38
0.019210951 -0.13812189 0.018873449 2.1175434e-38
0.021081915 -0.13812189 0.018873449 1.8597557e-38
0.023125527 -0.13890781 0.015934106 2.0260681e-38
0.025187319 -0.13972856 0.012864585 2.1278797e-38
0.027318118 -0.14079951 0.0088592721 2.321923e-38
0.029206639 -0.14079951 0.0088592721 2.3501227e-38
0.03109516 -0.14079951 0.0088592721 2.3506273e-38
0.032713316 -0.13972856 0.012864585 2.3414805e-38
0.033689998 -0.13623528 0.025929209 2.3509527e-38
0.03554859 -0.13623528 0.025929209 2.3509527e-38
0.03718923 -0.13543437 0.028924581 2.3509527e-38
0.03904257 -0.13543437 0.028924581 2.3509527e-38
0.040895909 -0.13543437 0.028924581 2.3417691e-38
0.042749256 -0.13543437 0.028924581 2.3234379e-38
0.044364974 -0.134638 0.031903025 2.3142544e-38
0.04621309 -0.134638 0.031903025 2.2958873e-38
0.048309267 -0.13543437 0.028924581 2.2958873e-38
0.0506735 -0.13704078 0.02291679 2.2958873e-38
0.052537367 -0.13704078 0.02291679 2.3142544e-38
-0.036828607 -0.14913492 -0.015094643 2.3418047e-38
-0.034898087 -0.14913492 -0.015094643 2.2867027e-38
-0.032991789 -0.14807267 -0.011147861 2.2774111e-38
-0.031092566 -0.1472411 -0.0080580758 2.3232933e-38
-0.029174382 -0.1472411 -0.0080580758 2.3509167e-38
-0.027301949 -0.14616071 -0.004043703 2.3509527e-38
-0.025390804 -0.14616071 -0.004043703 2.3234379e-38
-0.023479659 -0.14616071 -0.004043703 2.2958873e-38
-0.021617368 -0.14537133 -0.0011107967 1.8068924e-38
-0.019767215 -0.14455487 0.0019228413 1.6675914e-38
-0.017866531 -0.14455487 0.0019228413 1.5285415e-38
-0.015965847 -0.14455487 0.0019228413 1.5278209e-38
-0.014158461 -0.14349405 0.0058643771 1.6753681e-38
-0.012264689 -0.14349405 0.0058643771 2.0538366e-38
-0.010452308 -0.14268802 0.0088592721 1.9528886e-38
-0.0085637867 -0.14268802 0.0088592721 1.8609101e-38
-0.0066752639 -0.14268802 0.0088592721 1.7962654e-38
-0.0049166624 -0.14161004 0.012864585 2.0999713e-38
-0.0030351635 -0.14161004 0.012864585 2.3490431e-38
-0.0011536647 -0.14161004 0.012864585 2.3212756e-38
0.00061212294 -0.14078392 0.015934106 2.0171733e-38
0.0023722816 -0.13999285 0.018873449 1.906466e-38
0.0042432453 -0.13999285 0.018873449 1.9891898e-38
0.0059405211 -0.13890465 0.02291679 2.0439672e-38
0.0078043956 -0.13890465 0.02291679 2.0253478e-38
0.0096682701 -0.13890465 0.02291679 1.9793217e-38
0.011532145 -0.13890465 0.02291679 1.970318e-38
0.013396015 -0.13890465 0.02291679 1.942983e-38
0.01525989 -0.13890465 0.02291679 1.9429111e-38
0.017123764 -0.13890465 0.02291679 2.0162e-38
0.019210951 -0.13999285 0.018873449 2.0346034e-38
0.021081915 -0.13999285 0.018873449 1.8783393e-38
0.022952875 -0.13999285 0.018873449 2.0446876e-38
0.025187319 -0.14161004 0.012864585 1.9713278e-38
0.027318118 -0.14268802 0.0088592721 2.3498343e-38
0.029206639 -0.14268802 0.0088592721 2.3507715e-38
0.030831812 -0.14161004 0.012864585 2.3509161e-38
0.032307699 -0.13999285 0.018873449 2.3509883e-38
0.033689998 -0.13809387 0.025929209 2.3325856e-38
0.03554859 -0.13809387 0.025929209 2.341805e-38
0.03718923 -0.13728772 0.028924581 2.341805e-38
0.03904257 -0.13728772 0.028924581 2.3509527e-38
0.040895909 -0.13728772 0.028924581 2.3509527e-38
0.042516865 -0.13648613 0.031903025 2.3509527e-38
0.044364974 -0.13648613 0.031903025 2.3509886e-38
0.04621309 -0.13648613 0.031903025 2.341805e-38
0.048309267 -0.13728772 0.028924581 2.3234379e-38
0.0506735 -0.13890465 0.02291679 2.3234379e-38
0.052537367 -0.13890465 0.02291679 2.3142544e-38
0.054401234 -0.13890465 0.02291679 2.3142544e-38
0.056630209 -0.13999285 0.018873449 2.3050708e-38
-0.034915388 -0.1499963 -0.011147861 2.3050698e-38
-0.032991789 -0.1499963 -0.011147861 2.3418038e-38
-0.031092566 -0.1491593 -0.0080580758 2.3509873e-38
-0.029174382 -0.1491593 -0.0080580758 2.3230769e-38
-0.027301949 -0.14807184 -0.004043703 2.3508445e-38
-0.025390804 -0.14807184 -0.004043703 2.3509527e-38
-0.02352337 -0.14727734 -0.0011107967 2.2773408e-38
-0.021667898 -0.14645557 0.0019228413 1.1337202e-38
-0.019767215 -0.14645557 0.0019228413 9.8523613e-39
-0.017866531 -0.14645557 0.0019228413 1.3808492e-38
-0.016052233 -0.14538784 0.0058643771 1.619945e-38
-0.014158461 -0.14538784 0.0058643771 1.7950792e-38
-0.012340829 -0.14457656 0.0088592721 2.0169589e-38
-0.010452308 -0.14457656 0.0088592721 1.9527451e-38
-0.00867966 -0.14349155 0.012864585 2.1740512e-38
-0.0067981612 -0.14349155 0.012864585 2.0263227e-38
-0.0049166624 -0.14349155 0.012864585 2.1733675e-38
-0.0030351635 -0.14349155 0.012864585 2.3485391e-38
-0.0011536647 -0.14349155 0.012864585 2.2563788e-38
0.00061212294 -0.14266007 0.015934106 1.9891547e-38
0.0023722816 -0.14186381 0.018873449 1.8785914e-38
0.0042432453 -0.14186381 0.018873449 1.9520955e-38
0.0059405211 -0.14076851 0.02291679 2.0991043e-38
0.0078043956 -0.14076851 0.02291679 2.0528266e-38
0.0096682701 -0.14076851 0.02291679 1.9792499e-38
0.011532145 -0.14076851 0.02291679 1.9518067e-38
0.013396015 -0.14076851 0.02291679 1.9061045e-38
0.01525989 -0.14076851 0.02291679 1.8875935e-38
0.017123764 -0.14076851 0.02291679 1.9056373e-38
0.019210951 -0.14186381 0.018873449 1.877979e-38
0.021081915 -0.14186381 0.018873449 1.8322778e-38
0.022952875 -0.14186381 0.018873449 2.0263929e-38
0.025187319 -0.14349155 0.012864585 1.8609095e-38
0.027318118 -0.14457656 0.0088592721 2.350303e-38
0.029206639 -0.14457656 0.0088592721 2.35088e-38
0.030831812 -0.14349155 0.012864585 2.3325492e-38
0.032034755 -0.14076851 0.02291679 2.3142544e-38
0.033689998 -0.13995247 0.025929209 2.2406422e-38
0.03554859 -0.13995247 0.025929209 2.3234379e-38
0.03718923 -0.13914107 0.028924581 2.341805e-38
0.03904257 -0.13914107 0.028924581 2.3509527e-38
0.040895909 -0.13914107 0.028924581 2.3509165e-38
0.042516865 -0.13833423 0.031903025 2.3509165e-38
0.044364974 -0.13833423 0.031903025 2.3509521e-38
0.04621309 -0.13833423 0.031903025 2.3509521e-38
0.048309267 -0.13914107 0.028924581 2.3509883e-38
0.0506735 -0.14076851 0.02291679 2.3325856e-38
0.052537367 -0.14076851 0.02291679 2.2497176e-38
0.054401234 -0.14076851 0.02291679 2.3142544e-38
0.056630209 -0.14186381 0.018873449 2.3234379e-38
0.058501184 -0.14186381 0.018873449 2.2405699e-38
0.060372144 -0.14186381 0.018873449 8.3919631e-39
-0.027301949 -0.14998297 -0.004043703 2.3508437e-38
-0.025390804 -0.14998297 -0.004043703 2.3509521e-38
-0.02352337 -0.14918335 -0.0011107967 2.3509527e-38
-0.021667898 -0.14835624 0.0019228413 1.0782587e-38
-0.019839779 -0.1472816 0.0058643771 1.1879583e-38
-0.017946007 -0.1472816 0.0058643771 1.3163122e-38
-0.016052233 -0.1472816 0.0058643771 1.500127e-38
-0.01422935 -0.14646508 0.0088592721 2.2008843e-38
-0.012340829 -0.14646508 0.0088592721 2.3493315e-38
-0.010452308 -0.14646508 0.0088592721 2.3503749e-38
-0.00867966 -0.14537306 0.012864585 2.3491871e-38
-0.0067981612 -0.14537306 0.012864585 1.9615697e-38
-0.0049166624 -0.14537306 0.012864585 1.8689062e-38
-0.0030351635 -0.14537306 0.012864585 2.0900312e-38
-0.0011536647 -0.14537306 0.012864585 2.1086497e-38
0.00050132163 -0.14373477 0.018873449 1.9060344e-38
0.0023722816 -0.14373477 0.018873449 1.8138384e-38
0.0040766466 -0.14263238 0.02291679 1.8874144e-38
0.0059405211 -0.14263238 0.02291679 2.0528267e-38
0.0078043956 -0.14263238 0.02291679 2.0526827e-38
0.0096682701 -0.14263238 0.02291679 1.9975448e-38
0.011532145 -0.14263238 0.02291679 1.9425511e-38
0.013396015 -0.14263238 0.02291679 1.8783739e-38
0.01525989 -0.14263238 0.02291679 1.8507155e-38
0.017123764 -0.14263238 0.02291679 1.8779786e-38
0.019210951 -0.14373477 0.018873449 1.8503203e-38
0.021081915 -0.14373477 0.018873449 1.7769604e-38
0.023125527 -0.14453618 0.015934106 1.9710755e-38
0.025187319 -0.14537306 0.012864585 1.9439575e-38
0.027068814 -0.14537306 0.012864585 2.3507714e-38
0.028950317 -0.14537306 0.012864585 2.3509161e-38
0.03043673 -0.14373477 0.018873449 2.2312782e-38
0.031831406 -0.14181106 0.025929209 2.2867037e-38
0.033482552 -0.14099441 0.028924581 2.2591531e-38
0.035335891 -0.14099441 0.028924581 2.3142544e-38
0.03718923 -0.14099441 0.028924581 2.341805e-38
0.03904257 -0.14099441 0.028924581 2.3509524e-38
0.040895909 -0.14099441 0.028924581 2.3509163e-38
0.042516865 -0.14018236 0.031903025 2.3508802e-38
0.044364974 -0.14018236 0.031903025 2.3509161e-38
0.04621309 -0.14018236 0.031903025 2.3509521e-38
0.048558742 -0.14181106 0.025929209 2.3509521e-38
0.0506735 -0.14263238 0.02291679 2.3509886e-38
0.052537367 -0.14263238 0.02291679 2.341805e-38
0.054401234 -0.14263238 0.02291679 2.304927e-38
0.056265116 -0.14263238 0.02291679 2.2681564e-38
0.058128983 -0.14263238 0.02291679 2.3234379e-38
0.060372144 -0.14373477 0.018873449 9.8670904e-39
0.062243104 -0.14373477 0.018873449 6.5480505e-39
0.064114064 -0.14373477 0.018873449 8.4841559e-39
-0.019839779 -0.14917539 0.0058643771 1.7043615e-38
-0.017946007 -0.14917539 0.0058643771 1.6944582e-38
-0.016052233 -0.14917539 0.0058643771 1.5464406e-38
-0.01422935 -0.14835359 0.0088592721 2.136671e-38
-0.012340829 -0.14835359 0.0088592721 2.3493673e-38
-0.010452308 -0.14835359 0.0088592721 2.3501949e-38
-0.00867966 -0.14725454 0.012864585 2.349511e-38
-0.0067981612 -0.14725454 0.012864585 1.9800085e-38
-0.0049166624 -0.14725454 0.012864585 1.8965286e-38
-0.0030351635 -0.14725454 0.012864585 2.1453124e-38
-0.0011536647 -0.14725454 0.012864585 2.0901743e-38
0.00050132163 -0.14560573 0.018873449 1.7952197e-38
0.0023722816 -0.14560573 0.018873449 1.7214985e-38
0.0040766466 -0.14449625 0.02291679 1.8964541e-38
0.0059405211 -0.14449625 0.02291679 1.9420481e-38
0.0078043956 -0.14449625 0.02291679 2.0064409e-38
0.0098561365 -0.14560573 0.018873449 1.9882536e-38
0.011532145 -0.14449625 0.02291679 1.9608107e-38
0.013396015 -0.14449625 0.02291679 1.8781944e-38
0.01525989 -0.14449625 0.02291679 1.8781945e-38
0.017123764 -0.14449625 0.02291679 1.9515557e-38
0.019210951 -0.14560573 0.018873449 1.9515557e-38
0.021081915 -0.14560573 0.018873449 1.8229137e-38
0.023125527 -0.1464123 0.015934106 1.8695159e-38
0.025001643 -0.1464123 0.015934106 2.0083502e-38
0.026877759 -0.1464123 0.015934106 2.3507711e-38
0.028753875 -0.1464123 0.015934106 2.3508439e-38
0.03043673 -0.14560573 0.018873449 2.2958873e-38
0.031831406 -0.14366965 0.025929209 2.1855408e-38
0.033482552 -0.14284773 0.028924581 2.2591531e-38
0.035335891 -0.14284773 0.028924581 2.2958873e-38
0.03718923 -0.14284773 0.028924581 2.3418047e-38
0.03904257 -0.14284773 0.028924581 2.3509521e-38
0.040895909 -0.14284773 0.028924581 2.3509161e-38
0.042516865 -0.14203046 0.031903025 2.3509161e-38
0.044364974 -0.14203046 0.031903025 2.3509163e-38
0.04621309 -0.14203046 0.031903025 2.3509524e-38
0.048309267 -0.14284773 0.028924581 2.3509883e-38
0.050417334 -0.14366965 0.025929209 2.3417327e-38
0.052275926 -0.14366965 0.025929209 2.3509883e-38
0.054401234 -0.14449625 0.02291679 2.3509886e-38
0.056265116 -0.14449625 0.02291679 2.2957428e-38
0.058128983 -0.14449625 0.02291679 2.3234379e-38
0.060372144 -0.14560573 0.018873449 1.3277966e-38
0.062243104 -0.14560573 0.018873449 5.9019594e-39
0.064114064 -0.14560573 0.018873449 7.6540323e-39
-0.00867966 -0.14913605 0.012864585 2.349907e-38
-0.0067981612 -0.14913605 0.012864585 2.1275215e-38
-0.0049166624 -0.14913605 0.012864585 2.1177981e-38
-0.0031401087 -0.14828841 0.015934106 2.348287e-38
-0.0012639929 -0.14828841 0.015934106 2.3205554e-38
0.00061212294 -0.14828841 0.015934106 1.9426967e-38
0.0023722816 -0.14747669 0.018873449 1.7768159e-38
0.0042432453 -0.14747669 0.018873449 1.914857e-38
0.0061142091 -0.14747669 0.018873449 1.9511956e-38
0.0079851728 -0.14747669 0.018873449 2.0340277e-38
0.0098561365 -0.14747669 0.018873449 2.0433912e-38
0.011532145 -0.14636014 0.02291679 1.9699225e-38
0.013396015 -0.14636014 0.02291679 1.8596475e-38
0.01525989 -0.14636014 0.02291679 1.8504282e-38
0.017123764 -0.14636014 0.02291679 1.9421567e-38
0.019210951 -0.14747669 0.018873449 1.9605958e-38
0.021081915 -0.14747669 0.018873449 1.8872702e-38
0.023125527 -0.14828841 0.015934106 1.7310418e-38
0.024823843 -0.14747669 0.018873449 1.8514733e-38
0.026694803 -0.14747669 0.018873449 2.3506629e-38
0.02856577 -0.14747669 0.018873449 2.3508437e-38
0.030170878 -0.14636014 0.02291679 2.2958873e-38
0.031831406 -0.14552824 0.025929209 2.1855408e-38
0.033482552 -0.14470108 0.028924581 2.2499695e-38
0.035335891 -0.14470108 0.028924581 2.2867037e-38
0.03718923 -0.14470108 0.028924581 2.3234376e-38
0.03904257 -0.14470108 0.028924581 2.3509521e-38
0.040668748 -0.14387859 0.031903025 2.350952e-38
0.042516865 -0.14387859 0.031903025 2.3509521e-38
0.044041514 -0.14275892 0.035957571 2.3509524e-38
0.045882523 -0.14275892 0.035957571 2.3509527e-38
0.048309267 -0.14470108 0.028924581 2.3509886e-38
0.050162613 -0.14470108 0.028924581 2.3232936e-38
0.052015945 -0.14470108 0.028924581 2.3509883e-38
