# .PCD v0.7 - Point Cloud Data file format
VERSION 0.7
FIELDS x y z rgb
SIZE 4 4 4 4
TYPE F F F F
COUNT 1 1 1 1
WIDTH 741
HEIGHT 1
VIEWPOINT 0 0 0 1 0 0 0
POINTS 741
DATA ascii
0.014780736 -0.12222783 -0.035181988 2.3508451e-38
0.016769132 -0.12222783 -0.035181988 2.3506651e-38
0.018757528 -0.12222783 -0.035181988 2.3508809e-38
0.020745927 -0.12222783 -0.035181988 2.3509168e-38
0.022545671 -0.12126322 -0.03112172 2.1941495e-38
0.024526948 -0.12126322 -0.03112172 1.7331713e-38
0.026508225 -0.12126322 -0.03112172 1.3736448e-38
-0.0012296699 -0.12324448 -0.03112172 6.5419254e-39
0.00075160898 -0.12324448 -0.03112172 9.2155987e-39
0.0026198942 -0.12230973 -0.027216066 1.1795995e-38
0.0045943279 -0.12230973 -0.027216066 1.7880906e-38
0.0065687578 -0.12230973 -0.027216066 2.3043864e-38
0.0086767208 -0.12324448 -0.03112172 2.3506283e-38
0.010658002 -0.12324448 -0.03112172 2.3228977e-38
0.012639279 -0.12324448 -0.03112172 2.3507367e-38
0.014620556 -0.12324448 -0.03112172 2.3508451e-38
0.016601836 -0.12324448 -0.03112172 2.3508809e-38
0.018757528 -0.12421621 -0.035181988 2.3508809e-38
0.020745927 -0.12421621 -0.035181988 2.3139312e-38
0.022545671 -0.12324448 -0.03112172 2.3508809e-38
0.024526948 -0.12324448 -0.03112172 2.286345e-38
0.026508225 -0.12324448 -0.03112172 1.8715012e-38
0.028489506 -0.12324448 -0.03112172 1.5027187e-38
-0.0013289656 -0.12428416 -0.027216066 2.3506283e-38
0.00064546615 -0.12428416 -0.027216066 2.2491412e-38
0.0026198942 -0.12428416 -0.027216066 2.332153e-38
0.0045943279 -0.12428416 -0.027216066 2.3508802e-38
0.0065687578 -0.12428416 -0.027216066 2.3508802e-38
0.0085431878 -0.12428416 -0.027216066 2.3508445e-38
0.010517618 -0.12428416 -0.027216066 2.3506287e-38
0.012639279 -0.12522577 -0.03112172 2.3507726e-38
0.014620556 -0.12522577 -0.03112172 2.3508809e-38
0.016601836 -0.12522577 -0.03112172 2.3508451e-38
0.018757528 -0.12620462 -0.035181988 2.3047115e-38
0.020745927 -0.12620462 -0.035181988 2.3140033e-38
0.022545671 -0.12522577 -0.03112172 2.3509168e-38
0.024526948 -0.12522577 -0.03112172 2.3509168e-38
0.026508225 -0.12522577 -0.03112172 2.3140391e-38
0.028489506 -0.12522577 -0.03112172 2.2863809e-38
0.030687911 -0.12620462 -0.035181988 2.1942577e-38
0.032676309 -0.12620462 -0.035181988 1.9821711e-38
0.034664705 -0.12620462 -0.035181988 1.4381799e-38
-0.0015066098 -0.1245618 -0.020228613 2.3509163e-38
0.00045556948 -0.1245618 -0.020228613 2.3508084e-38
0.0024177488 -0.1245618 -0.020228613 2.3508804e-38
0.0045021158 -0.12552883 -0.024210799 2.3508804e-38
0.0065687578 -0.1262586 -0.027216066 2.3321892e-38
0.0084404368 -0.12552883 -0.024210799 2.3507362e-38
0.010409599 -0.12552883 -0.024210799 2.3508807e-38
0.012492048 -0.1262586 -0.027216066 2.3509165e-38
0.014620556 -0.12720706 -0.03112172 2.3509168e-38
0.016601836 -0.12720706 -0.03112172 2.3509168e-38
0.018583113 -0.12720706 -0.03112172 2.3508451e-38
0.02056439 -0.12720706 -0.03112172 2.3509168e-38
0.022545671 -0.12720706 -0.03112172 2.3509168e-38
0.024526948 -0.12720706 -0.03112172 2.3232944e-38
0.026508225 -0.12720706 -0.03112172 2.3232944e-38
0.028489506 -0.12720706 -0.03112172 2.3509168e-38
0.030470783 -0.12720706 -0.03112172 2.3048914e-38
0.032452062 -0.12720706 -0.03112172 2.2310994e-38
0.034433343 -0.12720706 -0.03112172 1.9174533e-38
-0.0036350396 -0.12480606 -0.013204922 2.3139661e-38
-0.0016851742 -0.12480606 -0.013204922 2.3508085e-38
0.00026468933 -0.12480606 -0.013204922 2.3509165e-38
0.0022145528 -0.12480606 -0.013204922 2.3507725e-38
0.0041644182 -0.12480606 -0.013204922 2.3231494e-38
0.0062098596 -0.12552677 -0.016151536 2.3508801e-38
0.0083042849 -0.12652399 -0.020228613 2.3509521e-38
0.010266466 -0.12652399 -0.020228613 2.3509524e-38
0.012228644 -0.12652399 -0.020228613 2.3509527e-38
0.01434792 -0.12749799 -0.024210799 2.3508446e-38
0.016440907 -0.12823303 -0.027216066 2.3509527e-38
0.018583113 -0.12918831 -0.03112172 2.3509527e-38
0.02056439 -0.12918831 -0.03112172 2.3509527e-38
0.022364201 -0.12823303 -0.027216066 2.314075e-38
0.024338631 -0.12823303 -0.027216066 2.3417333e-38
0.026508225 -0.12918831 -0.03112172 2.3509527e-38
0.028287491 -0.12823303 -0.027216066 2.3417333e-38
0.030261921 -0.12823303 -0.027216066 2.2680136e-38
0.032070369 -0.12749799 -0.024210799 2.332478e-38
0.034039535 -0.12749799 -0.024210799 2.2676169e-38
0.036008693 -0.12749799 -0.024210799 1.9909934e-38
-0.011552043 -0.12501745 -0.0061478512 2.3324775e-38
-0.0096145514 -0.12501745 -0.0061478512 2.3509168e-38
-0.00761595 -0.12576406 -0.0091786282 2.3509527e-38
-0.0056731459 -0.12576406 -0.0091786282 2.3509527e-38
-0.0037303418 -0.12576406 -0.0091786282 2.3509527e-38
-0.0017875358 -0.12576406 -0.0091786282 2.3509527e-38
0.00015526824 -0.12576406 -0.0091786282 2.3509883e-38
0.0020980742 -0.12576406 -0.0091786282 2.3509883e-38
0.0040408764 -0.12576406 -0.0091786282 2.3509883e-38
0.0061142836 -0.12675591 -0.013204922 2.3509883e-38
0.0080641452 -0.12675591 -0.013204922 2.3509883e-38
0.010014011 -0.12675591 -0.013204922 2.3416971e-38
0.011963876 -0.12675591 -0.013204922 2.323258e-38
0.013913738 -0.12675591 -0.013204922 2.3509167e-38
0.015985014 -0.1274818 -0.016151536 2.3509886e-38
0.018286241 -0.12946714 -0.024210799 2.3325497e-38
0.020255404 -0.12946714 -0.024210799 2.3509886e-38
0.022224566 -0.12946714 -0.024210799 2.3233302e-38
0.024338631 -0.13020746 -0.027216066 2.3325138e-38
0.026313061 -0.13020746 -0.027216066 2.3509527e-38
0.028287491 -0.13020746 -0.027216066 2.3509527e-38
0.030261921 -0.13020746 -0.027216066 2.314075e-38
0.032070369 -0.12946714 -0.024210799 2.2954917e-38
0.034039535 -0.12946714 -0.024210799 2.3508089e-38
0.036008693 -0.12946714 -0.024210799 2.3508086e-38
-0.03283548 -0.12422292 0.0048641069 2.3507707e-38
-0.030911207 -0.1224993 0.011811386 2.3509146e-38
-0.029005203 -0.1224993 0.011811386 2.3509869e-38
-0.027099201 -0.1224993 0.011811386 2.350987e-38
-0.0251932 -0.1224993 0.011811386 2.3509873e-38
-0.023287198 -0.1224993 0.011811386 2.3233648e-38
-0.021381196 -0.1224993 0.011811386 2.350988e-38
-0.019475192 -0.1224993 0.011811386 2.3509883e-38
-0.017535765 -0.12322696 0.0088784797 2.3141103e-38
-0.015624621 -0.12322696 0.0088784797 2.3233302e-38
-0.013653649 -0.12422292 0.0048641069 2.3509527e-38
-0.011684 -0.12498946 0.0017743213 2.3509527e-38
-0.0097603984 -0.12498946 0.0017743213 2.3509527e-38
-0.0077572186 -0.12596865 -0.0021724598 2.2679772e-38
-0.0058266986 -0.12596865 -0.0021724598 2.2679772e-38
-0.0038020797 -0.12695493 -0.0061478512 2.341805e-38
-0.0018645898 -0.12695493 -0.0061478512 2.3509886e-38
7.2902068e-05 -0.12695493 -0.0061478512 2.2865235e-38
0.002010392 -0.12695493 -0.0061478512 2.2865232e-38
0.003947882 -0.12695493 -0.0061478512 2.3234015e-38
0.0059836823 -0.12770687 -0.0091786282 2.3141819e-38
0.0079264883 -0.12770687 -0.0091786282 2.2680841e-38
0.0098692905 -0.12770687 -0.0091786282 2.2773039e-38
0.011812096 -0.12770687 -0.0091786282 2.3509886e-38
0.013754902 -0.12770687 -0.0091786282 2.3509886e-38
0.015863603 -0.12870578 -0.013204922 2.3509886e-38
0.017813468 -0.12870578 -0.013204922 2.3233299e-38
0.019895075 -0.12943684 -0.016151536 2.3509886e-38
0.022039538 -0.13044833 -0.020228613 2.3509886e-38
0.024193725 -0.1314363 -0.024210799 2.2864516e-38
0.026162887 -0.1314363 -0.024210799 2.2956715e-38
0.028287491 -0.1321819 -0.027216066 2.3509886e-38
0.030101208 -0.1314363 -0.024210799 2.221915e-38
0.032070369 -0.1314363 -0.024210799 2.0004294e-38
0.033812612 -0.13044833 -0.020228613 2.0000694e-38
0.035774797 -0.13044833 -0.020228613 2.3507728e-38
0.037736975 -0.13044833 -0.020228613 2.3508085e-38
-0.036671847 -0.12614109 0.0048641069 2.350879e-38
-0.034753665 -0.12614109 0.0048641069 2.3508787e-38
-0.03283548 -0.12614109 0.0048641069 2.3507708e-38
-0.030911207 -0.12440531 0.011811386 2.3506626e-38
-0.029005203 -0.12440531 0.011811386 2.3509502e-38
-0.027099201 -0.12440531 0.011811386 2.3509866e-38
-0.0251932 -0.12440531 0.011811386 2.3234001e-38
-0.023287198 -0.12440531 0.011811386 2.3049256e-38
-0.021381196 -0.12440531 0.011811386 2.350988e-38
-0.019475192 -0.12440531 0.011811386 2.3509886e-38
-0.017535765 -0.12513812 0.0088784797 2.341805e-38
-0.015624621 -0.12513812 0.0088784797 2.3325856e-38
-0.013713475 -0.12513812 0.0088784797 2.295672e-38
-0.011735465 -0.12614109 0.0048641069 2.3417691e-38
-0.0098172817 -0.12614109 0.0048641069 2.3417691e-38
-0.0078367982 -0.12691309 0.0017743213 2.3325497e-38
-0.0058266986 -0.12789918 -0.0021724598 2.341805e-38
-0.0038961768 -0.12789918 -0.0021724598 2.3234379e-38
-0.0018645898 -0.12889244 -0.0061478512 2.341805e-38
7.2902068e-05 -0.12889244 -0.0061478512 2.3050347e-38
0.002010392 -0.12889244 -0.0061478512 2.3234379e-38
0.003947882 -0.12889244 -0.0061478512 2.3234379e-38
0.0059836823 -0.12964968 -0.0091786282 2.3234379e-38
0.0079264883 -0.12964968 -0.0091786282 2.3234379e-38
0.0098692905 -0.12964968 -0.0091786282 2.3234379e-38
0.011812096 -0.12964968 -0.0091786282 2.341805e-38
0.013754902 -0.12964968 -0.0091786282 2.341805e-38
0.015697705 -0.12964968 -0.0091786282 2.2680844e-38
0.017640511 -0.12964968 -0.0091786282 2.341805e-38
0.01976333 -0.13065563 -0.013204922 2.2957428e-38
0.021850104 -0.13139187 -0.016151536 2.341769e-38
0.024001719 -0.13241051 -0.020228613 2.3509883e-38
0.025963897 -0.13241051 -0.020228613 2.3509886e-38
0.028132049 -0.13340546 -0.024210799 2.3509883e-38
0.030101208 -0.13340546 -0.024210799 2.3509527e-38
0.032070369 -0.13340546 -0.024210799 2.2400298e-38
0.033812612 -0.13241051 -0.020228613 1.7325939e-38
0.035774797 -0.13241051 -0.020228613 2.1012685e-38
0.037736975 -0.13241051 -0.020228613 2.3507726e-38
0.039699152 -0.13241051 -0.020228613 2.3508085e-38
-0.040576071 -0.12982969 -0.0021724598 1.7786894e-38
-0.036690809 -0.12883668 0.0017743213 1.8797805e-38
-0.034753665 -0.12805928 0.0048641069 1.695353e-38
-0.03283548 -0.12805928 0.0048641069 1.8058798e-38
-0.030917296 -0.12805928 0.0048641069 1.9719398e-38
-0.029005203 -0.12631132 0.011811386 2.2119362e-38
-0.027099201 -0.12631132 0.011811386 2.3505896e-38
-0.0251932 -0.12631132 0.011811386 2.350878e-38
-0.023287198 -0.12631132 0.011811386 2.3508784e-38
-0.021381196 -0.12631132 0.011811386 2.350807e-38
-0.019475192 -0.12631132 0.011811386 2.3506996e-38
-0.017569192 -0.12631132 0.011811386 2.3508082e-38
-0.015663188 -0.12631132 0.011811386 2.3509527e-38
-0.013713475 -0.12704925 0.0088784797 2.3509527e-38
-0.011802331 -0.12704925 0.0088784797 2.2957796e-38
-0.0098172817 -0.12805928 0.0048641069 2.2773767e-38
-0.0078991 -0.12805928 0.0048641069 2.3142544e-38
-0.005913198 -0.12883668 0.0017743213 2.3234379e-38
-0.0039895978 -0.12883668 0.0017743213 2.2681567e-38
-0.0019656569 -0.12982969 -0.0021724598 2.2773037e-38
7.2902068e-05 -0.13082992 -0.0061478512 2.3418045e-38
0.002010392 -0.13082992 -0.0061478512 2.3234018e-38
0.003947882 -0.13082992 -0.0061478512 2.2958151e-38
0.0058853757 -0.13082992 -0.0061478512 2.3050347e-38
0.0079264883 -0.13159247 -0.0091786282 2.3234379e-38
0.0098692905 -0.13159247 -0.0091786282 2.3326213e-38
0.011812096 -0.13159247 -0.0091786282 2.3141822e-38
0.013754902 -0.13159247 -0.0091786282 2.3325492e-38
0.015697705 -0.13159247 -0.0091786282 2.3509883e-38
0.017640511 -0.13159247 -0.0091786282 2.3049261e-38
0.01976333 -0.13260551 -0.013204922 1.9361435e-38
0.021713195 -0.13260551 -0.013204922 2.0282673e-38
0.023663061 -0.13260551 -0.013204922 2.3509879e-38
0.025760164 -0.13334687 -0.016151536 2.3509879e-38
0.027926078 -0.1343727 -0.020228613 2.304782e-38
0.029888256 -0.1343727 -0.020228613 2.35088e-38
0.031850435 -0.1343727 -0.020228613 2.3508442e-38
0.033812612 -0.1343727 -0.020228613 1.5851166e-38
0.035774797 -0.1343727 -0.020228613 1.243849e-38
0.037736975 -0.1343727 -0.020228613 2.0183639e-38
0.039699152 -0.1343727 -0.020228613 2.3506642e-38
0.04166133 -0.1343727 -0.020228613 2.3507721e-38
-0.040576071 -0.13176022 -0.0021724598 1.9345926e-38
-0.038645551 -0.13176022 -0.0021724598 1.8697317e-38
-0.036690809 -0.13076027 0.0017743213 1.8327094e-38
-0.034767207 -0.13076027 0.0017743213 1.8049788e-38
-0.03283548 -0.12997745 0.0048641069 1.7404058e-38
-0.030917296 -0.12997745 0.0048641069 1.7035276e-38
-0.029002633 -0.12896039 0.0088784797 1.8603315e-38
-0.027091488 -0.12896039 0.0088784797 2.2106746e-38
-0.025180344 -0.12896039 0.0088784797 2.3498325e-38
-0.023287198 -0.12821732 0.011811386 2.3501568e-38
-0.021381196 -0.12821732 0.011811386 2.3501209e-38
-0.019475192 -0.12821732 0.011811386 2.3506256e-38
-0.017569192 -0.12821732 0.011811386 2.3508065e-38
-0.015663188 -0.12821732 0.011811386 2.3508437e-38
-0.013757186 -0.12821732 0.011811386 2.3416971e-38
-0.011851184 -0.12821732 0.011811386 2.2683007e-38
-0.0098911859 -0.12896039 0.0088784797 2.2775202e-38
-0.0078991 -0.12997745 0.0048641069 2.2775202e-38
-0.0059809163 -0.12997745 0.0048641069 2.2683007e-38
-0.0040627327 -0.12997745 0.0048641069 2.3418047e-38
-0.0020659976 -0.13076027 0.0017743213 2.3509876e-38
-3.5136938e-05 -0.13176022 -0.0021724598 2.3508432e-38
0.0018953849 -0.13176022 -0.0021724598 2.3509883e-38
0.0038259048 -0.13176022 -0.0021724598 2.3509886e-38
0.0058853757 -0.13276742 -0.0061478512 2.3509883e-38
0.0078228656 -0.13276742 -0.0061478512 2.3509883e-38
0.0097603556 -0.13276742 -0.0061478512 2.3509883e-38
0.011812096 -0.13353528 -0.0091786282 2.3509883e-38
0.013754902 -0.13353528 -0.0091786282 2.350988e-38
0.015697705 -0.13353528 -0.0091786282 2.3509879e-38
0.017640511 -0.13353528 -0.0091786282 2.3509876e-38
0.019583317 -0.13353528 -0.0091786282 1.9082686e-38
0.021526119 -0.13353528 -0.0091786282 1.8620985e-38
0.023663061 -0.13455538 -0.013204922 2.3046373e-38
0.025760164 -0.1353019 -0.016151536 2.350951e-38
0.027926078 -0.13633488 -0.020228613 2.350951e-38
0.029888256 -0.13633488 -0.020228613 2.3508788e-38
0.031850435 -0.13633488 -0.020228613 2.3508793e-38
0.033812612 -0.13633488 -0.020228613 1.5483457e-38
0.035774797 -0.13633488 -0.020228613 1.0688208e-38
0.037977859 -0.13734378 -0.024210799 1.5482378e-38
0.039947018 -0.13734378 -0.024210799 2.3319361e-38
0.042108506 -0.1381052 -0.027216066 2.3412636e-38
-0.038645551 -0.13369073 -0.0021724598 1.9522387e-38
-0.036690809 -0.13268389 0.0017743213 2.0074482e-38
-0.034767207 -0.13268389 0.0017743213 1.9796816e-38
-0.03283548 -0.13189565 0.0048641069 1.9335122e-38
-0.030917296 -0.13189565 0.0048641069 1.9427315e-38
-0.028999114 -0.13189565 0.0048641069 1.8412438e-38
-0.027091488 -0.13087155 0.0088784797 1.9242196e-38
-0.025180344 -0.13087155 0.0088784797 1.9243272e-38
-0.023287198 -0.13012333 0.011811386 1.887629e-38
-0.021405131 -0.12934943 0.014845024 1.9616379e-38
-0.019504447 -0.12934943 0.014845024 2.1741203e-38
-0.017603764 -0.12934943 0.014845024 2.3499772e-38
-0.015703082 -0.12934943 0.014845024 2.3508425e-38
-0.013802398 -0.12934943 0.014845024 2.350952e-38
-0.011901714 -0.12934943 0.014845024 2.3142544e-38
-0.0099451821 -0.13012333 0.011811386 2.2775202e-38
-0.0080391802 -0.13012333 0.011811386 2.2591531e-38
-0.0060688984 -0.13087155 0.0088784797 2.2775202e-38
-0.0041577537 -0.13087155 0.0088784797 2.3418045e-38
-0.002246609 -0.13087155 0.0088784797 2.3509873e-38
-0.00022636726 -0.13189565 0.0048641069 2.3508794e-38
0.0016918164 -0.13189565 0.0048641069 2.3509521e-38
0.0037048031 -0.13268389 0.0017743213 2.3509886e-38
0.0056284051 -0.13268389 0.0017743213 2.3509883e-38
0.0076869447 -0.13369073 -0.0021724598 2.3509883e-38
0.0097603556 -0.1347049 -0.0061478512 2.3509883e-38
0.011697846 -0.1347049 -0.0061478512 2.3509883e-38
0.013635335 -0.1347049 -0.0061478512 2.350988e-38
0.015697705 -0.13547809 -0.0091786282 2.3509879e-38
0.017640511 -0.13547809 -0.0091786282 2.3509517e-38
0.019583317 -0.13547809 -0.0091786282 1.4563659e-38
0.021526119 -0.13547809 -0.0091786282 1.5116469e-38
0.023663061 -0.13650523 -0.013204922 2.1015909e-38
0.025612922 -0.13650523 -0.013204922 2.3506991e-38
0.027715197 -0.13725694 -0.016151536 2.350483e-38
0.029670225 -0.13725694 -0.016151536 2.350807e-38
0.031625256 -0.13725694 -0.016151536 2.2396323e-38
0.033812612 -0.13829704 -0.020228613 1.4928122e-38
0.036008693 -0.13931294 -0.024210799 1.3268601e-38
0.037977859 -0.13931294 -0.024210799 1.5849357e-38
0.039947018 -0.13931294 -0.024210799 2.1842426e-38
0.041916177 -0.13931294 -0.024210799 2.2396676e-38
-0.042461611 -0.13460748 0.0017743213 1.6854483e-38
-0.040538006 -0.13460748 0.0017743213 1.7772835e-38
-0.038614407 -0.13460748 0.0017743213 1.9337277e-38
-0.036690809 -0.13460748 0.0017743213 2.0534381e-38
-0.034767207 -0.13460748 0.0017743213 1.9888291e-38
-0.032843605 -0.13460748 0.0017743213 1.9058532e-38
-0.030917296 -0.13381381 0.0048641069 1.9427313e-38
-0.028999114 -0.13381381 0.0048641069 1.8965612e-38
-0.027091488 -0.13278268 0.0088784797 1.8873414e-38
-0.025180344 -0.13278268 0.0088784797 1.7307164e-38
-0.023305815 -0.1312501 0.014845024 1.65714e-38
-0.021436229 -0.13023765 0.018786561 1.7587354e-38
-0.019542456 -0.13023765 0.018786561 1.9066088e-38
-0.017648686 -0.13023765 0.018786561 2.1836647e-38
-0.015754912 -0.13023765 0.018786561 2.3507704e-38
-0.01386114 -0.13023765 0.018786561 2.3509153e-38
-0.011967367 -0.13023765 0.018786561 2.3509883e-38
-0.010073595 -0.13023765 0.018786561 2.3142544e-38
-0.0081003476 -0.1312501 0.014845024 2.2867037e-38
-0.0061331764 -0.13202934 0.011811386 2.2867037e-38
-0.0042271744 -0.13202934 0.011811386 2.2958507e-38
-0.0023211725 -0.13202934 0.011811386 2.3509516e-38
-0.00033546425 -0.13278268 0.0088784797 2.3509876e-38
0.0016918164 -0.13381381 0.0048641069 2.3509883e-38
0.0036099982 -0.13381381 0.0048641069 2.341805e-38
0.0055281837 -0.13381381 0.0048641069 2.341769e-38
0.0075520072 -0.13460748 0.0017743213 2.3234018e-38
0.0094756056 -0.13460748 0.0017743213 2.3325492e-38
0.011547988 -0.13562126 -0.0021724598 2.3417687e-38
0.013478508 -0.13562126 -0.0021724598 2.350988e-38
0.015572829 -0.13664238 -0.0061478512 2.3509879e-38
0.017510319 -0.13664238 -0.0061478512 2.3509161e-38
0.019583317 -0.13742088 -0.0091786282 1.8988333e-38
0.021526119 -0.13742088 -0.0091786282 1.6405413e-38
0.023663061 -0.13845511 -0.013204922 2.0091077e-38
0.025612922 -0.13845511 -0.013204922 2.110379e-38
0.027715197 -0.13921197 -0.016151536 2.3506999e-38
0.029670225 -0.13921197 -0.016151536 2.350628e-38
0.031625256 -0.13921197 -0.016151536 2.1192748e-38
0.033812612 -0.14025922 -0.020228613 1.1788795e-38
0.035774797 -0.14025922 -0.020228613 1.3908933e-38
0.037977859 -0.1412821 -0.024210799 1.4923079e-38
0.039947018 -0.1412821 -0.024210799 1.9809802e-38
0.041916177 -0.1412821 -0.024210799 2.1562235e-38
-0.042461611 -0.13653107 0.0017743213 1.7130348e-38
-0.040538006 -0.13653107 0.0017743213 1.7864308e-38
-0.038614407 -0.13653107 0.0017743213 1.8876656e-38
-0.036690809 -0.13653107 0.0017743213 1.9796815e-38
-0.034767207 -0.13653107 0.0017743213 1.9150726e-38
-0.032843605 -0.13653107 0.0017743213 1.8320967e-38
-0.030920006 -0.13653107 0.0017743213 1.8505357e-38
-0.028999114 -0.13573201 0.0048641069 1.8689025e-38
-0.027080931 -0.13573201 0.0048641069 1.9426587e-38
-0.025206497 -0.13315077 0.014845024 1.8597903e-38
-0.023330001 -0.13213144 0.018786561 1.8414231e-38
-0.021436229 -0.13213144 0.018786561 1.8415672e-38
-0.019571338 -0.13135691 0.021781456 1.7312928e-38
-0.017682817 -0.13135691 0.021781456 1.9068614e-38
-0.015794296 -0.13135691 0.021781456 2.3499055e-38
-0.013905773 -0.13135691 0.021781456 2.3508068e-38
-0.012017252 -0.13135691 0.021781456 2.3509514e-38
-0.010128731 -0.13135691 0.021781456 2.3325492e-38
-0.0081798229 -0.13213144 0.018786561 2.3050349e-38
-0.0061996635 -0.13315077 0.014845024 2.3142544e-38
-0.0042271744 -0.13393532 0.011811386 2.3050703e-38
-0.0023211725 -0.13393532 0.011811386 2.3325847e-38
-0.00041517057 -0.13393532 0.011811386 2.350988e-38
0.0015756804 -0.13469382 0.0088784797 2.341805e-38
0.0034868252 -0.13469382 0.0088784797 2.341805e-38
0.0055281837 -0.13573201 0.0048641069 2.3234018e-38
0.0074463654 -0.13573201 0.0048641069 2.2958151e-38
0.0093645509 -0.13573201 0.0048641069 2.2958151e-38
0.011399208 -0.13653107 0.0017743213 2.3234015e-38
0.013322806 -0.13653107 0.0017743213 2.3509883e-38
0.015409028 -0.1375518 -0.0021724598 2.350988e-38
0.017510319 -0.13857989 -0.0061478512 2.3509163e-38
0.019447809 -0.13857989 -0.0061478512 2.3508444e-38
0.021385299 -0.13857989 -0.0061478512 2.2857312e-38
0.023468925 -0.13936369 -0.0091786282 1.5847207e-38
0.025411731 -0.13936369 -0.0091786282 1.7689318e-38
0.027715197 -0.141167 -0.016151536 1.897754e-38
0.029670225 -0.141167 -0.016151536 1.9529275e-38
0.031625256 -0.141167 -0.016151536 1.5933282e-38
0.033580288 -0.141167 -0.016151536 1.7960505e-38
0.035774797 -0.14222141 -0.020228613 2.0173554e-38
0.037736975 -0.14222141 -0.020228613 1.952782e-38
0.039947018 -0.14325126 -0.024210799 2.0727079e-38
0.041916177 -0.14325126 -0.024210799 2.0083502e-38
-0.04636763 -0.1394823 -0.0021724598 1.6399633e-38
-0.042461611 -0.13845469 0.0017743213 1.768208e-38
-0.040538006 -0.13845469 0.0017743213 1.8324923e-38
-0.038614407 -0.13845469 0.0017743213 1.8414956e-38
-0.036690809 -0.13845469 0.0017743213 1.8966691e-38
-0.034767207 -0.13845469 0.0017743213 1.9057808e-38
-0.032843605 -0.13845469 0.0017743213 1.8413161e-38
-0.030920006 -0.13845469 0.0017743213 1.8413161e-38
-0.028999114 -0.13765021 0.0048641069 1.813693e-38
-0.027080931 -0.13765021 0.0048641069 1.8690101e-38
-0.025206497 -0.13505147 0.014845024 1.8412791e-38
-0.02334838 -0.13324542 0.021781456 1.8506065e-38
-0.021459859 -0.13324542 0.021781456 1.8690817e-38
-0.019609962 -0.13220255 0.025786769 1.6850145e-38
-0.017728463 -0.13220255 0.025786769 1.7775349e-38
-0.015846964 -0.13220255 0.025786769 2.2112511e-38
-0.013905773 -0.13324542 0.021781456 2.350518e-38
-0.012017252 -0.13324542 0.021781456 2.3508787e-38
-0.010128731 -0.13324542 0.021781456 2.3508797e-38
-0.0082402099 -0.13324542 0.021781456 2.3048905e-38
-0.0061996635 -0.13505147 0.014845024 2.341805e-38
-0.0042989813 -0.13505147 0.014845024 2.3234379e-38
-0.0023982972 -0.13505147 0.014845024 2.2958151e-38
-0.00049761496 -0.13505147 0.014845024 2.3234379e-38
0.0014908332 -0.13584132 0.011811386 2.3234379e-38
0.0034868252 -0.13660498 0.0088784797 2.3234379e-38
0.0053979699 -0.13660498 0.0088784797 2.3050349e-38
0.0074463654 -0.13765021 0.0048641069 2.2866674e-38
0.0093645509 -0.13765021 0.0048641069 2.2866674e-38
0.011282733 -0.13765021 0.0048641069 2.2958867e-38
0.013322806 -0.13845469 0.0017743213 2.3234376e-38
0.015409028 -0.1394823 -0.0021724598 2.3509883e-38
0.017339548 -0.1394823 -0.0021724598 2.2677964e-38
0.019447809 -0.14051737 -0.0061478512 2.3508445e-38
0.021385299 -0.14051737 -0.0061478512 2.3503769e-38
0.023322793 -0.14051737 -0.0061478512 2.1377869e-38
0.025411731 -0.1413065 -0.0091786282 1.6487545e-38
0.027562788 -0.14235483 -0.013204922 1.7406983e-38
0.029670225 -0.14312203 -0.016151536 1.7681412e-38
0.031625256 -0.14312203 -0.016151536 2.0814618e-38
0.033580288 -0.14312203 -0.016151536 2.0537664e-38
0.035774797 -0.14418359 -0.020228613 2.219682e-38
0.037736975 -0.14418359 -0.020228613 2.1459609e-38
0.039699152 -0.14418359 -0.020228613 1.9800801e-38
0.04166133 -0.14418359 -0.020228613 1.9341618e-38
0.043623514 -0.14418359 -0.020228613 2.155719e-38
-0.048364371 -0.14245488 -0.0061478512 1.4835194e-38
-0.04636763 -0.14141284 -0.0021724598 1.6766617e-38
-0.04443711 -0.14141284 -0.0021724598 1.6393868e-38
-0.042461611 -0.14037828 0.0017743213 1.8326728e-38
-0.040538006 -0.14037828 0.0017743213 1.8877016e-38
-0.038614407 -0.14037828 0.0017743213 1.8414236e-38
-0.036690809 -0.14037828 0.0017743213 1.859683e-38
-0.034767207 -0.14037828 0.0017743213 1.859683e-38
-0.032843605 -0.14037828 0.0017743213 1.822877e-38
-0.030920006 -0.14037828 0.0017743213 1.8413161e-38
-0.028999114 -0.13956837 0.0048641069 1.8966691e-38
-0.027080931 -0.13956837 0.0048641069 1.8413514e-38
-0.025206497 -0.13695215 0.014845024 1.8044009e-38
-0.02334838 -0.13513394 0.021781456 1.8781572e-38
-0.021459859 -0.13513394 0.021781456 1.9520217e-38
-0.019609962 -0.13408406 0.025786769 1.8230918e-38
-0.017728463 -0.13408406 0.025786769 1.8049051e-38
-0.015846964 -0.13408406 0.025786769 1.9896212e-38
-0.013965465 -0.13408406 0.025786769 2.349689e-38
-0.012083966 -0.13408406 0.025786769 2.3506984e-38
-0.010202469 -0.13408406 0.025786769 2.3508793e-38
-0.0083209705 -0.13408406 0.025786769 2.3508079e-38
-0.0061996635 -0.13695215 0.014845024 2.3509883e-38
-0.0043922774 -0.13591899 0.018786561 2.3234379e-38
-0.0024985056 -0.13591899 0.018786561 2.2774125e-38
-0.00049761496 -0.13695215 0.014845024 2.3142544e-38
0.0014908332 -0.13774733 0.011811386 2.3234379e-38
0.0034868252 -0.13851611 0.0088784797 2.3234379e-38
0.0053979699 -0.13851611 0.0088784797 2.3142544e-38
0.0073091146 -0.13851611 0.0088784797 2.2958873e-38
0.0092202593 -0.13851611 0.0088784797 2.2775199e-38
0.011282733 -0.13956837 0.0048641069 2.2867036e-38
0.013200914 -0.13956837 0.0048641069 2.3142541e-38
0.015246408 -0.14037828 0.0017743213 2.3418047e-38
0.01717001 -0.14037828 0.0017743213 2.3509524e-38
0.019270068 -0.14141284 -0.0021724598 2.3505567e-38
0.021385299 -0.14245488 -0.0061478512 2.3507013e-38
0.023322793 -0.14245488 -0.0061478512 2.294484e-38
0.025411731 -0.14324932 -0.0091786282 1.6210603e-38
0.027562788 -0.14430468 -0.013204922 1.1966007e-38
0.029512653 -0.14430468 -0.013204922 1.6481075e-38
0.031625256 -0.14507706 -0.016151536 1.7955122e-38
0.033580288 -0.14507706 -0.016151536 2.28404e-38
0.035774797 -0.14614578 -0.020228613 2.348972e-38
0.037736975 -0.14614578 -0.020228613 2.3393199e-38
0.039699152 -0.14614578 -0.020228613 1.9706448e-38
0.04166133 -0.14614578 -0.020228613 1.952457e-38
0.043623514 -0.14614578 -0.020228613 2.2937967e-38
0.045585692 -0.14614578 -0.020228613 2.1743023e-38
-0.046426877 -0.14439236 -0.0061478512 1.6397472e-38
-0.04443711 -0.14334334 -0.0021724598 1.7223266e-38
-0.04250659 -0.14334334 -0.0021724598 1.8326365e-38
-0.040538006 -0.14230187 0.0017743213 1.8600069e-38
-0.038614407 -0.14230187 0.0017743213 1.8597906e-38
-0.036690809 -0.14230187 0.0017743213 1.8596827e-38
-0.034767207 -0.14230187 0.0017743213 1.795146e-38
-0.032843605 -0.14230187 0.0017743213 1.7675596e-38
-0.030920006 -0.14230187 0.0017743213 1.8597553e-38
-0.028999114 -0.14148657 0.0048641069 1.8690104e-38
-0.027080931 -0.14148657 0.0048641069 1.7952536e-38
-0.025206497 -0.13885282 0.014845024 1.7951813e-38
-0.02334838 -0.13702248 0.021781456 1.8873049e-38
-0.021459859 -0.13702248 0.021781456 1.9242188e-38
-0.019609962 -0.13596557 0.025786769 1.8321671e-38
-0.017728463 -0.13596557 0.025786769 1.7493353e-38
-0.015846964 -0.13596557 0.025786769 1.7127817e-38
-0.013965465 -0.13596557 0.025786769 2.0450827e-38
-0.012083966 -0.13596557 0.025786769 2.3500854e-38
-0.010202469 -0.13596557 0.025786769 2.3508065e-38
-0.0083209705 -0.13596557 0.025786769 2.3507714e-38
-0.0061996635 -0.13885282 0.014845024 2.3509521e-38
-0.0043922774 -0.13781275 0.018786561 2.3234379e-38
-0.0024985056 -0.13781275 0.018786561 2.2499336e-38
-0.00049761496 -0.13885282 0.014845024 2.2958873e-38
0.0014030691 -0.13885282 0.014845024 2.341805e-38
0.0033968333 -0.13965334 0.011811386 2.3509527e-38
0.0053979699 -0.14042725 0.0088784797 2.3234379e-38
0.0073091146 -0.14042725 0.0088784797 2.3142544e-38
0.0092202593 -0.14042725 0.0088784797 2.2958873e-38
0.011131404 -0.14042725 0.0088784797 2.2867037e-38
0.013042549 -0.14042725 0.0088784797 2.295887e-38
0.0151191 -0.14148657 0.0048641069 2.3142541e-38
0.017037282 -0.14148657 0.0048641069 2.3233296e-38
0.019093608 -0.14230187 0.0017743213 2.3137863e-38
0.021200592 -0.14334334 -0.0021724598 2.350773e-38
0.023131112 -0.14334334 -0.0021724598 2.3499816e-38
0.025260283 -0.14439236 -0.0061478512 1.399899e-38
0.027354533 -0.1451921 -0.0091786282 1.2981241e-38
0.029512653 -0.14625455 -0.013204922 1.6482517e-38
0.031462513 -0.14625455 -0.013204922 1.8324266e-38
0.033580288 -0.1470321 -0.016151536 2.3209544e-38
0.035535321 -0.1470321 -0.016151536 2.3494763e-38
0.037736975 -0.14810793 -0.020228613 2.3489359e-38
0.039699152 -0.14810793 -0.020228613 2.2196451e-38
0.04140041 -0.1470321 -0.016151536 2.1275568e-38
0.043355443 -0.1470321 -0.016151536 2.2200402e-38
0.045310475 -0.1470321 -0.016151536 2.0913266e-38
-0.050301857 -0.14632986 -0.0061478512 1.373065e-38
-0.048364371 -0.14632986 -0.0061478512 1.5570598e-38
-0.046426877 -0.14632986 -0.0061478512 1.6028328e-38
-0.04443711 -0.14527388 -0.0021724598 1.7498412e-38
-0.04250659 -0.14527388 -0.0021724598 1.7587718e-38
-0.040576071 -0.14527388 -0.0021724598 1.7677391e-38
-0.038645551 -0.14527388 -0.0021724598 1.8596827e-38
-0.036690809 -0.14422549 0.0017743213 1.8781218e-38
-0.034767207 -0.14422549 0.0017743213 1.7767069e-38
-0.032843605 -0.14422549 0.0017743213 1.7675596e-38
-0.030920006 -0.14422549 0.0017743213 1.9242922e-38
-0.028999114 -0.14340474 0.0048641069 1.8597909e-38
-0.027080931 -0.14340474 0.0048641069 1.8044732e-38
-0.025206497 -0.14075352 0.014845024 1.8504268e-38
-0.023330001 -0.13970654 0.018786561 1.8688658e-38
-0.021459859 -0.13891099 0.021781456 1.8135121e-38
-0.019571338 -0.13891099 0.021781456 1.7951449e-38
-0.017682817 -0.13891099 0.021781456 1.7952888e-38
-0.015846964 -0.13784705 0.025786769 1.7494072e-38
-0.013965465 -0.13784705 0.025786769 1.7773907e-38
-0.012083966 -0.13784705 0.025786769 2.3401809e-38
-0.010258978 -0.13703169 0.028856289 2.3507339e-38
-0.0083828606 -0.13703169 0.028856289 2.3506628e-38
-0.0062860493 -0.13970654 0.018786561 2.350952e-38
-0.004463166 -0.13891099 0.021781456 2.3234379e-38
-0.002574645 -0.13891099 0.021781456 2.2499695e-38
-0.00060473196 -0.13970654 0.018786561 2.2867037e-38
0.0012890399 -0.13970654 0.018786561 2.3509527e-38
0.0033968333 -0.14155935 0.011811386 2.3509527e-38
0.0053028371 -0.14155935 0.011811386 2.3509886e-38
0.0072088372 -0.14155935 0.011811386 2.3234379e-38
0.009114841 -0.14155935 0.011811386 2.2958873e-38
0.011131404 -0.14233841 0.0088784797 2.2867034e-38
0.013042549 -0.14233841 0.0088784797 2.2867034e-38
0.014953693 -0.14233841 0.0088784797 2.2958867e-38
0.017037282 -0.14340474 0.0048641069 2.3234376e-38
0.019093608 -0.14422549 0.0017743213 2.3325131e-38
0.021200592 -0.14527388 -0.0021724598 2.3508448e-38
0.023131112 -0.14527388 -0.0021724598 2.1196723e-38
0.025260283 -0.14632986 -0.0061478512 1.4923823e-38
0.027354533 -0.14713491 -0.0091786282 1.1601187e-38
0.029297339 -0.14713491 -0.0091786282 1.5102463e-38
0.031462513 -0.14820443 -0.013204922 1.9249462e-38
0.033412382 -0.14820443 -0.013204922 2.2013162e-38
0.035535321 -0.14898713 -0.016151536 2.3493687e-38
0.037490353 -0.14898713 -0.016151536 2.3303886e-38
0.04140041 -0.14898713 -0.016151536 2.0262501e-38
0.043355443 -0.14898713 -0.016151536 1.6761585e-38
0.045310475 -0.14898713 -0.016151536 1.602762e-38
-0.050301857 -0.14826734 -0.0061478512 1.2992366e-38
-0.048364371 -0.14826734 -0.0061478512 1.4831954e-38
-0.046426877 -0.14826734 -0.0061478512 1.6764814e-38
-0.044489384 -0.14826734 -0.0061478512 1.7036355e-38
-0.04250659 -0.14720438 -0.0021724598 1.860151e-38
-0.040576071 -0.14720438 -0.0021724598 1.8598627e-38
-0.038614407 -0.14614908 0.0017743213 1.8044009e-38
-0.036690809 -0.14614908 0.0017743213 1.832024e-38
-0.034767207 -0.14614908 0.0017743213 1.7767069e-38
-0.032843605 -0.14614908 0.0017743213 1.7214618e-38
-0.030920006 -0.14614908 0.0017743213 1.8229489e-38
-0.028999114 -0.14532293 0.0048641069 1.8229126e-38
-0.027080931 -0.14532293 0.0048641069 1.7675949e-38
-0.025206497 -0.1426542 0.014845024 1.7674507e-38
-0.023330001 -0.1416003 0.018786561 1.7951093e-38
-0.021436229 -0.1416003 0.018786561 1.8319513e-38
-0.019609962 -0.13972856 0.025786769 1.8135121e-38
-0.017728463 -0.13972856 0.025786769 1.8043645e-38
-0.015846964 -0.13972856 0.025786769 1.7952891e-38
-0.014011212 -0.13890781 0.028856289 1.6941264e-38
-0.012135096 -0.13890781 0.028856289 2.1555373e-38
-0.010258978 -0.13890781 0.028856289 2.2389826e-38
-0.0083828606 -0.13890781 0.028856289 2.3508065e-38
-0.0065067448 -0.13890781 0.028856289 2.3321524e-38
-0.0046306271 -0.13890781 0.028856289 2.341805e-38
-0.0026764739 -0.13972856 0.025786769 2.2775202e-38
-0.00068612397 -0.14079951 0.021781456 2.2775202e-38
0.0012890399 -0.1416003 0.018786561 2.2955641e-38
0.0033968333 -0.14346536 0.011811386 2.3508809e-38
0.0053028371 -0.14346536 0.011811386 2.3509168e-38
0.0072088372 -0.14346536 0.011811386 2.3048907e-38
0.009114841 -0.14346536 0.011811386 2.2958151e-38
0.011131404 -0.14424954 0.0088784797 2.295887e-38
0.013042549 -0.14424954 0.0088784797 2.2867032e-38
0.014953693 -0.14424954 0.0088784797 2.2775193e-38
0.017037282 -0.14532293 0.0048641069 2.2958867e-38
0.019093608 -0.14614908 0.0017743213 2.3049621e-38
0.021200592 -0.14720438 -0.0021724598 2.3509521e-38
0.023131112 -0.14720438 -0.0021724598 2.1015206e-38
0.025260283 -0.14826734 -0.0061478512 1.5849376e-38
0.027354533 -0.14907773 -0.0091786282 1.6768815e-38
0.029297339 -0.14907773 -0.0091786282 1.8057398e-38
-0.04250659 -0.14913492 -0.0021724598 1.7955061e-38
-0.040576071 -0.14913492 -0.0021724598 1.7307167e-38
-0.038614407 -0.14807267 0.0017743213 1.7490479e-38
-0.036671847 -0.1472411 0.0048641069 1.8873414e-38
-0.034753665 -0.1472411 0.0048641069 1.8597909e-38
-0.03283548 -0.1472411 0.0048641069 1.7491925e-38
-0.030917296 -0.1472411 0.0048641069 1.7584121e-38
-0.028999114 -0.1472411 0.0048641069 1.7399365e-38
-0.027080931 -0.1472411 0.0048641069 1.6753993e-38
-0.025206497 -0.14455487 0.014845024 1.6568523e-38
-0.023330001 -0.14349405 0.018786561 1.6936942e-38
-0.021436229 -0.14349405 0.018786561 1.758195e-38
-0.019609962 -0.14161004 0.025786769 1.7674146e-38
-0.017728463 -0.14161004 0.025786769 1.7766342e-38
-0.015846964 -0.14161004 0.025786769 1.7767421e-38
-0.014011212 -0.14078392 0.028856289 1.8598625e-38
-0.012135096 -0.14078392 0.028856289 1.878734e-38
-0.010258978 -0.14078392 0.028856289 1.8883866e-38
-0.0084421281 -0.13999285 0.031795632 2.3506622e-38
-0.0065711644 -0.13999285 0.031795632 2.3508793e-38
-0.0047002025 -0.13999285 0.031795632 2.350988e-38
-0.0027545113 -0.14078392 0.028856289 2.2867037e-38
-0.00079497509 -0.14161004 0.025786769 2.2867037e-38
0.001202397 -0.14268802 0.021781456 2.3509168e-38
0.0033037532 -0.14455487 0.014845024 2.3507733e-38
0.0053028371 -0.14537133 0.011811386 2.3323336e-38
0.0072088372 -0.14537133 0.011811386 2.3509524e-38
0.009114841 -0.14537133 0.011811386 2.3418047e-38
0.011131404 -0.14616071 0.0088784797 2.2958864e-38
0.013042549 -0.14616071 0.0088784797 2.2591518e-38
0.014953693 -0.14616071 0.0088784797 2.2775189e-38
0.017037282 -0.1472411 0.0048641069 2.2867026e-38
0.019093608 -0.14807267 0.0017743213 2.2682272e-38
0.021200592 -0.14913492 -0.0021724598 2.3509879e-38
-0.038614407 -0.1499963 0.0017743213 1.7398284e-38
-0.036671847 -0.1491593 0.0048641069 1.8965612e-38
-0.034753665 -0.1491593 0.0048641069 1.8689748e-38
-0.03283548 -0.1491593 0.0048641069 1.7308257e-38
-0.030917296 -0.1491593 0.0048641069 1.7216417e-38
-0.028999114 -0.1491593 0.0048641069 1.7768867e-38
-0.027080931 -0.1491593 0.0048641069 1.7214971e-38
-0.025180344 -0.14807184 0.0088784797 1.6846189e-38
-0.023269199 -0.14807184 0.0088784797 1.7306088e-38
-0.021436229 -0.14538784 0.018786561 1.7858902e-38
-0.019609962 -0.14349155 0.025786769 1.8319161e-38
-0.017728463 -0.14349155 0.025786769 1.8503549e-38
-0.015846964 -0.14349155 0.025786769 1.8596464e-38
-0.014011212 -0.14266007 0.028856289 1.8782297e-38
-0.012135096 -0.14266007 0.028856289 1.6940908e-38
-0.010258978 -0.14266007 0.028856289 1.7038153e-38
-0.0084421281 -0.14186381 0.031795632 2.3503737e-38
-0.0065711644 -0.14186381 0.031795632 2.3508428e-38
-0.0047002025 -0.14186381 0.031795632 2.3508437e-38
-0.0027545113 -0.14266007 0.028856289 2.2591169e-38
-0.00079497509 -0.14349155 0.025786769 2.2958873e-38
0.001202397 -0.14457656 0.021781456 2.3507733e-38
0.0031828117 -0.14538784 0.018786561 2.3413018e-38
0.0052044336 -0.14645557 0.014845024 2.3508451e-38
0.0071051177 -0.14645557 0.014845024 2.3509165e-38
0.0090058018 -0.14645557 0.014845024 2.3232932e-38
0.011020845 -0.14727734 0.011811386 2.3142171e-38
0.013042549 -0.14807184 0.0088784797 2.3234367e-38
0.014953693 -0.14807184 0.0088784797 2.3234367e-38
0.017037282 -0.1491593 0.0048641069 2.3234364e-38
-0.023269199 -0.14998297 0.0088784797 1.7030227e-38
-0.021358054 -0.14998297 0.0088784797 1.7398289e-38
-0.019446909 -0.14998297 0.0088784797 1.7674157e-38
-0.017603764 -0.14835624 0.014845024 1.8042937e-38
-0.015846964 -0.14537306 0.025786769 1.831988e-38
-0.014011212 -0.14453618 0.028856289 1.8135849e-38
-0.012135096 -0.14453618 0.028856289 1.7585917e-38
-0.010258978 -0.14453618 0.028856289 1.8788428e-38
-0.0084421281 -0.14373477 0.031795632 2.3503734e-38
-0.0065711644 -0.14373477 0.031795632 2.3508065e-38
-0.0046306271 -0.14453618 0.028856289 2.3508434e-38
-0.0027545113 -0.14453618 0.028856289 2.3234379e-38
-0.00079497509 -0.14537306 0.025786769 2.268193e-38
0.001202397 -0.14646508 0.021781456 2.3509168e-38
0.0031828117 -0.1472816 0.018786561 2.3508091e-38
0.0052044336 -0.14835624 0.014845024 2.3508807e-38
0.0071051177 -0.14835624 0.014845024 2.3509163e-38
0.0090058018 -0.14835624 0.014845024 2.3509517e-38
0.011020845 -0.14918335 0.011811386 2.3509873e-38
0.012926845 -0.14918335 0.011811386 1.8439109e-38
0.014953693 -0.14998297 0.0088784797 8.9433166e-39
-0.015846964 -0.14725454 0.025786769 1.822805e-38
-0.014011212 -0.1464123 0.028856289 1.7859267e-38
-0.012135096 -0.1464123 0.028856289 1.8414961e-38
-0.010258978 -0.1464123 0.028856289 1.9432357e-38
-0.0084421281 -0.14560573 0.031795632 2.3499051e-38
-0.0065711644 -0.14560573 0.031795632 2.3506625e-38
-0.0047002025 -0.14560573 0.031795632 2.3508791e-38
-0.0027545113 -0.1464123 0.028856289 2.350988e-38
-0.00087839365 -0.1464123 0.028856289 2.3142544e-38
0.001202397 -0.14835359 0.021781456 2.2954554e-38
0.0031828117 -0.14917539 0.018786561 2.350665e-38
-0.015846964 -0.14913605 0.025786769 1.8596478e-38
-0.013965465 -0.14913605 0.025786769 1.7951106e-38
-0.012135096 -0.14828841 0.028856289 1.7308613e-38
-0.010258978 -0.14828841 0.028856289 1.6850159e-38
-0.0084421281 -0.14747669 0.031795632 2.1833766e-38
-0.0065711644 -0.14747669 0.031795632 2.3504101e-38
-0.0047002025 -0.14747669 0.031795632 2.3506989e-38
-0.0027545113 -0.14828841 0.028856289 2.3509879e-38
-0.00087839365 -0.14828841 0.028856289 2.3418047e-38
-0.0084421281 -0.14934768 0.031795632 1.9160093e-38
-0.0065711644 -0.14934768 0.031795632 2.3501937e-38
-0.0047002025 -0.14934768 0.031795632 2.3506626e-38
