# .PCD v0.7 - Point Cloud Data file format
VERSION 0.7
FIELDS x y z rgb
SIZE 4 4 4 4
TYPE F F F F
COUNT 1 1 1 1
WIDTH 929
HEIGHT 1
VIEWPOINT 0 0 0 1 0 0 0
POINTS 929
DATA ascii
-0.01933614 -0.11867525 -0.025543028 4.5136188e-39
-0.01737396 -0.11867525 -0.025543028 4.7891295e-39
-0.015411781 -0.11867525 -0.025543028 4.788412e-39
-0.013449602 -0.11867525 -0.025543028 4.3270807e-39
-0.023215115 -0.12159048 -0.029525215 4.0551546e-39
-0.021298319 -0.12063743 -0.025543028 4.2384668e-39
-0.019396901 -0.11966167 -0.021465952 4.9735179e-39
-0.017441871 -0.11966167 -0.021465952 5.3408641e-39
-0.015411781 -0.12063743 -0.025543028 5.2483112e-39
-0.013449602 -0.12063743 -0.025543028 5.5249037e-39
-0.023215115 -0.12355967 -0.029525215 1.5209747e-38
-0.021298319 -0.12259962 -0.025543028 1.6499051e-38
-0.019396901 -0.12161671 -0.021465952 1.575897e-38
-0.017441871 -0.12161671 -0.021465952 1.6311427e-38
-0.01548684 -0.12161671 -0.021465952 1.8338656e-38
0.0054915324 -0.11824657 -0.0074868738 1.2257361e-38
0.0074220523 -0.11824657 -0.0074868738 1.290489e-38
-0.023215115 -0.12552883 -0.029525215 2.0647854e-38
-0.021298319 -0.1245618 -0.025543028 2.2213385e-38
-0.019440815 -0.12285618 -0.018519336 2.2580729e-38
-0.017558016 -0.12187846 -0.014493043 2.2118676e-38
-0.015615212 -0.12187846 -0.014493043 2.276297e-38
-0.013733517 -0.12114246 -0.011462266 2.3505218e-38
-0.011883155 -0.12017711 -0.0074868738 2.3507016e-38
-0.0099526327 -0.12017711 -0.0074868738 2.1752421e-38
-0.0081224535 -0.11921866 -0.0035400926 1.9909948e-38
-0.0061988514 -0.11921866 -0.0035400926 2.1107407e-38
-0.0042752512 -0.11921866 -0.0035400926 2.2024319e-38
-0.0021085739 -0.12114246 -0.011462266 2.137679e-38
-0.00030003116 -0.12017711 -0.0074868738 1.7136878e-38
0.0016304888 -0.12017711 -0.0074868738 1.7139042e-38
0.0035610124 -0.12017711 -0.0074868738 1.6772063e-38
0.0054915324 -0.12017711 -0.0074868738 1.9540453e-38
0.0074220523 -0.12017711 -0.0074868738 2.129433e-38
0.0093525723 -0.12017711 -0.0074868738 2.2126246e-38
-0.023215115 -0.12749799 -0.029525215 2.3506644e-38
-0.021298319 -0.12652399 -0.025543028 2.3507372e-38
-0.019440815 -0.12480606 -0.018519336 2.3505577e-38
-0.017558016 -0.12382124 -0.014493043 2.3505581e-38
-0.015671007 -0.12307997 -0.011462266 2.350234e-38
-0.013733517 -0.12307997 -0.011462266 2.3408345e-38
-0.011883155 -0.12210761 -0.0074868738 2.2948806e-38
-0.0099526327 -0.12210761 -0.0074868738 2.1475473e-38
-0.0081224535 -0.12114228 -0.0035400926 1.9725193e-38
-0.0061988514 -0.12114228 -0.0035400926 1.944752e-38
-0.0042752512 -0.12114228 -0.0035400926 1.9350281e-38
-0.0022305511 -0.12210761 -0.0074868738 1.9625426e-38
-0.00030003116 -0.12210761 -0.0074868738 1.8981144e-38
0.0016304888 -0.12210761 -0.0074868738 2.3504496e-38
0.0035610124 -0.12210761 -0.0074868738 2.3505581e-38
0.0054915324 -0.12210761 -0.0074868738 2.3506657e-38
0.0072663501 -0.12114228 -0.0035400926 2.2768735e-38
0.0091899522 -0.12114228 -0.0035400926 2.3509168e-38
0.011113554 -0.12114228 -0.0035400926 2.3234379e-38
0.013037153 -0.12114228 -0.0035400926 2.2958873e-38
0.014960755 -0.12114228 -0.0035400926 2.2867037e-38
0.016884353 -0.12114228 -0.0035400926 2.2683366e-38
0.018807955 -0.12114228 -0.0035400926 2.2499695e-38
0.020731557 -0.12114228 -0.0035400926 2.2499695e-38
0.022655156 -0.12114228 -0.0035400926 2.2591531e-38
0.034449339 -0.12210761 -0.0074868738 2.3417333e-38
0.036379859 -0.12210761 -0.0074868738 2.3141467e-38
0.038310379 -0.12210761 -0.0074868738 2.3234379e-38
0.040240899 -0.12210761 -0.0074868738 2.3142544e-38
0.04295484 -0.12480606 -0.018519336 2.2958873e-38
0.044904701 -0.12480606 -0.018519336 2.1484836e-38
-0.025261993 -0.1274818 -0.021465952 2.3507726e-38
-0.023306962 -0.1274818 -0.021465952 2.3506293e-38
-0.021351932 -0.1274818 -0.021465952 2.3505219e-38
-0.01950082 -0.12576406 -0.014493043 2.3506298e-38
-0.017558016 -0.12576406 -0.014493043 2.350594e-38
-0.015671007 -0.12501745 -0.011462266 2.350594e-38
-0.013733517 -0.12501745 -0.011462266 2.3502342e-38
-0.011883155 -0.12403814 -0.0074868738 2.26715e-38
-0.0099526327 -0.12403814 -0.0074868738 2.0737906e-38
-0.0081224535 -0.12306587 -0.0035400926 1.8619201e-38
-0.0061988514 -0.12306587 -0.0035400926 1.8248974e-38
-0.0042752512 -0.12306587 -0.0035400926 1.7230498e-38
-0.0022305511 -0.12403814 -0.0074868738 1.8335763e-38
-0.00030003116 -0.12403814 -0.0074868738 1.9074057e-38
0.0016304888 -0.12403814 -0.0074868738 2.3507013e-38
0.0035610124 -0.12403814 -0.0074868738 2.3507374e-38
0.0054915324 -0.12403814 -0.0074868738 2.3508092e-38
0.0072663501 -0.12306587 -0.0035400926 2.2862006e-38
0.0091899522 -0.12306587 -0.0035400926 2.3509527e-38
0.011113554 -0.12306587 -0.0035400926 2.341805e-38
0.013037153 -0.12306587 -0.0035400926 2.3142544e-38
0.014960755 -0.12306587 -0.0035400926 2.2958873e-38
0.016884353 -0.12306587 -0.0035400926 2.2958873e-38
0.018807955 -0.12306587 -0.0035400926 2.2958873e-38
0.020731557 -0.12306587 -0.0035400926 2.2958873e-38
0.022655156 -0.12306587 -0.0035400926 2.2958873e-38
0.024578758 -0.12306587 -0.0035400926 2.3142544e-38
0.026502356 -0.12306587 -0.0035400926 2.2680136e-38
0.028425954 -0.12306587 -0.0035400926 2.2864164e-38
0.03034956 -0.12306587 -0.0035400926 2.3048554e-38
0.032273158 -0.12306587 -0.0035400926 2.3233302e-38
0.034196757 -0.12306587 -0.0035400926 2.341769e-38
0.036120363 -0.12306587 -0.0035400926 2.3509886e-38
0.038043961 -0.12306587 -0.0035400926 2.341805e-38
0.039967559 -0.12306587 -0.0035400926 2.341805e-38
0.041891165 -0.12306587 -0.0035400926 2.2772332e-38
0.043814763 -0.12306587 -0.0035400926 2.3417691e-38
0.046328694 -0.12501745 -0.011462266 2.3325856e-38
0.048266184 -0.12501745 -0.011462266 2.341805e-38
-0.027217023 -0.12943684 -0.021465952 2.110415e-38
-0.025261993 -0.12943684 -0.021465952 2.3504848e-38
-0.023340544 -0.12870578 -0.018519336 2.3506657e-38
-0.02139068 -0.12870578 -0.018519336 2.3502342e-38
-0.01950082 -0.12770687 -0.014493043 2.2299485e-38
-0.017558016 -0.12770687 -0.014493043 2.156192e-38
-0.015615212 -0.12770687 -0.014493043 2.1469724e-38
-0.013733517 -0.12695493 -0.011462266 2.3406548e-38
-0.011796026 -0.12695493 -0.011462266 2.3506657e-38
-0.0098585356 -0.12695493 -0.011462266 2.3507733e-38
-0.0079210456 -0.12695493 -0.011462266 2.3507009e-38
-0.0060915928 -0.12596865 -0.0074868738 2.3507725e-38
-0.004161071 -0.12596865 -0.0074868738 2.2671833e-38
-0.0021085739 -0.12695493 -0.011462266 2.3501957e-38
-0.00030003116 -0.12596865 -0.0074868738 2.2948066e-38
0.0016304888 -0.12596865 -0.0074868738 2.3507728e-38
0.0035610124 -0.12596865 -0.0074868738 2.3504491e-38
0.0054915324 -0.12596865 -0.0074868738 2.3507733e-38
0.0072663501 -0.12498946 -0.0035400926 2.3508451e-38
0.0091899522 -0.12498946 -0.0035400926 2.3509527e-38
0.011113554 -0.12498946 -0.0035400926 2.3049626e-38
0.013037153 -0.12498946 -0.0035400926 2.2866311e-38
0.014960755 -0.12498946 -0.0035400926 2.2866311e-38
0.016735375 -0.12422292 -0.00045030704 2.2958507e-38
0.018653557 -0.12422292 -0.00045030704 2.3141822e-38
0.020571742 -0.12422292 -0.00045030704 2.3233662e-38
0.022655156 -0.12498946 -0.0035400926 2.3325138e-38
0.024578758 -0.12498946 -0.0035400926 2.3325138e-38
0.026502356 -0.12498946 -0.0035400926 2.341805e-38
0.028425954 -0.12498946 -0.0035400926 2.341805e-38
0.03034956 -0.12498946 -0.0035400926 2.341805e-38
0.032273158 -0.12498946 -0.0035400926 2.3509883e-38
0.034196757 -0.12498946 -0.0035400926 2.350988e-38
0.036120363 -0.12498946 -0.0035400926 2.350988e-38
0.037835389 -0.12422292 -0.00045030704 2.3417327e-38
0.039753571 -0.12422292 -0.00045030704 2.3140384e-38
0.041671753 -0.12422292 -0.00045030704 2.3509168e-38
0.043589942 -0.12422292 -0.00045030704 2.3508809e-38
0.045208983 -0.12322696 0.0035640658 2.3509165e-38
0.046665065 -0.12174667 0.0095306095 2.3230413e-38
0.048258211 -0.1207688 0.013472145 2.350807e-38
0.050151985 -0.1207688 0.013472145 1.0876538e-38
-0.027217023 -0.13139187 -0.021465952 2.2485646e-38
-0.025261993 -0.13139187 -0.021465952 2.350377e-38
-0.023340544 -0.13065563 -0.018519336 2.3506298e-38
-0.021443626 -0.12964968 -0.014493043 1.9902398e-38
-0.01950082 -0.12964968 -0.014493043 1.9993881e-38
-0.017608499 -0.12889244 -0.011462266 1.9901685e-38
-0.015671007 -0.12889244 -0.011462266 2.0547052e-38
-0.013733517 -0.12889244 -0.011462266 2.2761179e-38
-0.011796026 -0.12889244 -0.011462266 2.3506657e-38
-0.0098585356 -0.12889244 -0.011462266 2.350773e-38
-0.0079210456 -0.12889244 -0.011462266 2.3508445e-38
-0.0059835538 -0.12889244 -0.011462266 2.3508797e-38
-0.0040460639 -0.12889244 -0.011462266 2.2489237e-38
-0.0021085739 -0.12889244 -0.011462266 2.3506272e-38
-0.00017108023 -0.12889244 -0.011462266 2.3506996e-38
0.0017664097 -0.12889244 -0.011462266 2.3508085e-38
0.0035610124 -0.12789918 -0.0074868738 2.3508448e-38
0.0053427517 -0.12691309 -0.0035400926 2.3508809e-38
0.0072663501 -0.12691309 -0.0035400926 2.3509168e-38
0.0090626441 -0.12614109 -0.00045030704 2.2863797e-38
0.010980826 -0.12614109 -0.00045030704 2.3509883e-38
0.012899008 -0.12614109 -0.00045030704 2.350988e-38
0.014817193 -0.12614109 -0.00045030704 2.350988e-38
0.016735375 -0.12614109 -0.00045030704 2.350988e-38
0.018653557 -0.12614109 -0.00045030704 2.3509524e-38
0.020571742 -0.12614109 -0.00045030704 2.3509168e-38
0.022489924 -0.12614109 -0.00045030704 2.3508451e-38
0.024408109 -0.12614109 -0.00045030704 2.3508809e-38
0.026326291 -0.12614109 -0.00045030704 2.3141822e-38
0.028244473 -0.12614109 -0.00045030704 2.2958507e-38
0.030162655 -0.12614109 -0.00045030704 2.30507e-38
0.032080844 -0.12614109 -0.00045030704 2.3418043e-38
0.033999026 -0.12614109 -0.00045030704 2.3509876e-38
0.035917208 -0.12614109 -0.00045030704 2.3509876e-38
0.037564404 -0.12513812 0.0035640658 2.3509879e-38
0.039475553 -0.12513812 0.0035640658 2.3509163e-38
0.041386694 -0.12513812 0.0035640658 2.3508804e-38
0.043297842 -0.12513812 0.0035640658 2.3507365e-38
0.044764377 -0.12364738 0.0095306095 2.3504479e-38
0.046364442 -0.12266256 0.013472145 2.3508435e-38
0.048024546 -0.12191428 0.01646704 2.0276537e-38
0.04991306 -0.12191428 0.01646704 1.363844e-38
0.051801588 -0.12191428 0.01646704 1.1978191e-38
-0.029233444 -0.13082992 -0.011462266 2.1471127e-38
-0.02727204 -0.13159247 -0.014493043 2.3502684e-38
-0.025329236 -0.13159247 -0.014493043 2.3504496e-38
-0.02338643 -0.13159247 -0.014493043 2.3500906e-38
-0.021443626 -0.13159247 -0.014493043 1.3818931e-38
-0.019545989 -0.13082992 -0.011462266 1.6030548e-38
-0.017608499 -0.13082992 -0.011462266 2.0732525e-38
-0.015671007 -0.13082992 -0.011462266 2.3502708e-38
-0.013733517 -0.13082992 -0.011462266 2.3506298e-38
-0.011796026 -0.13082992 -0.011462266 2.3507016e-38
-0.0098585356 -0.13082992 -0.011462266 2.3507369e-38
-0.0079210456 -0.13082992 -0.011462266 2.3507723e-38
-0.0059835538 -0.13082992 -0.011462266 2.3508802e-38
-0.0040460639 -0.13082992 -0.011462266 2.3508794e-38
-0.0021085739 -0.13082992 -0.011462266 2.3508794e-38
-0.00017108023 -0.13082992 -0.011462266 2.3506999e-38
0.0016304888 -0.12982969 -0.0074868738 2.3508444e-38
0.0034191497 -0.12883668 -0.0035400926 2.3508809e-38
0.0053427517 -0.12883668 -0.0035400926 2.3047112e-38
0.0071444586 -0.12805928 -0.00045030704 2.3509527e-38
0.0090626441 -0.12805928 -0.00045030704 2.3509527e-38
0.010980826 -0.12805928 -0.00045030704 2.3509886e-38
0.012899008 -0.12805928 -0.00045030704 2.3509883e-38
0.014817193 -0.12805928 -0.00045030704 2.3509883e-38
0.016735375 -0.12805928 -0.00045030704 2.3509524e-38
0.018653557 -0.12805928 -0.00045030704 2.3509168e-38
0.020571742 -0.12805928 -0.00045030704 2.3508451e-38
0.022489924 -0.12805928 -0.00045030704 2.3507733e-38
0.024408109 -0.12805928 -0.00045030704 2.3508091e-38
0.026326291 -0.12805928 -0.00045030704 2.3418047e-38
0.028244473 -0.12805928 -0.00045030704 2.3234374e-38
0.030162655 -0.12805928 -0.00045030704 2.3509879e-38
0.032080844 -0.12805928 -0.00045030704 2.3509879e-38
0.033999026 -0.12805928 -0.00045030704 2.3325843e-38
0.035653263 -0.12704925 0.0035640658 2.3325483e-38
0.037564404 -0.12704925 0.0035640658 2.350952e-38
0.039272428 -0.12631132 0.0064969719 2.3508802e-38
0.041178428 -0.12631132 0.0064969719 2.3505564e-38
0.043084435 -0.12631132 0.0064969719 2.3508444e-38
0.044470668 -0.12455635 0.013472145 2.3505558e-38
0.046136022 -0.12380283 0.01646704 2.1013388e-38
0.048024546 -0.12380283 0.01646704 2.0364771e-38
0.04991306 -0.12380283 0.01646704 1.5016331e-38
0.051801588 -0.12380283 0.01646704 1.3817061e-38
0.053690102 -0.12380283 0.01646704 1.0039925e-38
-0.060695041 -0.1381052 -0.032530479 1.4749859e-38
-0.058720611 -0.1381052 -0.032530479 1.46573e-38
-0.056690853 -0.13734378 -0.029525215 1.5026083e-38
-0.054721694 -0.13734378 -0.029525215 1.5672538e-38
-0.029233444 -0.13276742 -0.011462266 2.322429e-38
-0.027295953 -0.13276742 -0.011462266 2.3505937e-38
-0.025358461 -0.13276742 -0.011462266 2.3507016e-38
-0.023466278 -0.13176022 -0.0074868738 2.0462054e-38
-0.021535758 -0.13176022 -0.0074868738 1.3822893e-38
-0.019605236 -0.13176022 -0.0074868738 1.5020351e-38
-0.017674716 -0.13176022 -0.0074868738 2.3502705e-38
-0.015744194 -0.13176022 -0.0074868738 2.3507016e-38
-0.013813674 -0.13176022 -0.0074868738 2.3506297e-38
-0.011883155 -0.13176022 -0.0074868738 2.3508092e-38
-0.0099526327 -0.13176022 -0.0074868738 2.3506649e-38
-0.0080221128 -0.13176022 -0.0074868738 2.3509527e-38
-0.0059835538 -0.13276742 -0.011462266 2.3509527e-38
-0.0040460639 -0.13276742 -0.011462266 2.3509527e-38
-0.0021085739 -0.13276742 -0.011462266 2.3509527e-38
-0.00030003116 -0.13176022 -0.0074868738 2.3509168e-38
0.0016304888 -0.13176022 -0.0074868738 2.3509168e-38
0.0034191497 -0.13076027 -0.0035400926 2.3509527e-38
0.0053427517 -0.13076027 -0.0035400926 2.3509527e-38
0.0071444586 -0.12997745 -0.00045030704 2.3509527e-38
0.0090626441 -0.12997745 -0.00045030704 2.3509527e-38
0.010980826 -0.12997745 -0.00045030704 2.3509527e-38
0.012899008 -0.12997745 -0.00045030704 2.3509527e-38
0.014817193 -0.12997745 -0.00045030704 2.3509527e-38
0.016735375 -0.12997745 -0.00045030704 2.3509527e-38
0.018653557 -0.12997745 -0.00045030704 2.3509527e-38
0.020571742 -0.12997745 -0.00045030704 2.3509527e-38
0.022489924 -0.12997745 -0.00045030704 2.3509168e-38
0.024408109 -0.12997745 -0.00045030704 2.3509527e-38
0.026326291 -0.12997745 -0.00045030704 2.341805e-38
0.028008685 -0.12896039 0.0035640658 2.3509883e-38
0.029919825 -0.12896039 0.0035640658 2.3508807e-38
0.031830974 -0.12896039 0.0035640658 2.3509163e-38
0.033742115 -0.12896039 0.0035640658 2.3509883e-38
0.035653263 -0.12896039 0.0035640658 2.3234015e-38
0.037366427 -0.12821732 0.0064969719 2.3508446e-38
0.039272428 -0.12821732 0.0064969719 2.3508449e-38
0.041178428 -0.12821732 0.0064969719 2.3508451e-38
0.043084435 -0.12821732 0.0064969719 2.3508807e-38
0.044470668 -0.12645011 0.013472145 2.3509158e-38
0.046136022 -0.12569134 0.01646704 2.0553129e-38
0.048024546 -0.12569134 0.01646704 1.8425423e-38
0.04991306 -0.12569134 0.01646704 1.6854486e-38
-0.066834822 -0.14211179 -0.040496401 2.2958873e-38
-0.064743191 -0.14107598 -0.036436133 2.3142544e-38
-0.062669471 -0.14007963 -0.032530479 2.3509886e-38
-0.060629178 -0.13931294 -0.029525215 2.3509165e-38
-0.058660012 -0.13931294 -0.029525215 2.3507722e-38
-0.056690853 -0.13931294 -0.029525215 2.3508081e-38
-0.054721694 -0.13931294 -0.029525215 2.3509883e-38
-0.052752528 -0.13931294 -0.029525215 2.3234379e-38
-0.05078337 -0.13931294 -0.029525215 2.2591531e-38
-0.048768826 -0.13829704 -0.025543028 2.1947965e-38
-0.044812299 -0.13725694 -0.021465952 1.9916062e-38
-0.031170934 -0.1347049 -0.011462266 2.2483475e-38
-0.02925784 -0.13369073 -0.0074868738 2.3500521e-38
-0.027327318 -0.13369073 -0.0074868738 2.3507374e-38
-0.025358461 -0.1347049 -0.011462266 2.3507733e-38
-0.023466278 -0.13369073 -0.0074868738 1.7606151e-38
-0.021535758 -0.13369073 -0.0074868738 1.3456268e-38
-0.019605236 -0.13369073 -0.0074868738 1.6406164e-38
-0.017740456 -0.13268389 -0.0035400926 2.3507374e-38
-0.015816854 -0.13268389 -0.0035400926 2.3507733e-38
-0.013893254 -0.13268389 -0.0035400926 2.3508092e-38
-0.011969654 -0.13268389 -0.0035400926 2.3508451e-38
-0.010046054 -0.13268389 -0.0035400926 2.3323699e-38
-0.0081224535 -0.13268389 -0.0035400926 2.341805e-38
-0.0061988514 -0.13268389 -0.0035400926 2.2957079e-38
-0.0042752512 -0.13268389 -0.0035400926 2.3509527e-38
-0.0022305511 -0.13369073 -0.0074868738 2.3509527e-38
-0.00030003116 -0.13369073 -0.0074868738 2.3509527e-38
0.0016304888 -0.13369073 -0.0074868738 2.3509527e-38
0.0034191497 -0.13268389 -0.0035400926 2.3509527e-38
0.0053427517 -0.13268389 -0.0035400926 2.3509527e-38
0.0071444586 -0.13189565 -0.00045030704 2.3509527e-38
0.0090626441 -0.13189565 -0.00045030704 2.3509527e-38
0.010980826 -0.13189565 -0.00045030704 2.3509527e-38
0.012899008 -0.13189565 -0.00045030704 2.3509527e-38
0.014630672 -0.13087155 0.0035640658 2.3509527e-38
0.016541816 -0.13087155 0.0035640658 2.3509527e-38
0.018452961 -0.13087155 0.0035640658 2.3509527e-38
0.020364106 -0.13087155 0.0035640658 2.3509527e-38
0.02227525 -0.13087155 0.0035640658 2.3509527e-38
0.024186395 -0.13087155 0.0035640658 2.3509527e-38
0.02609754 -0.13087155 0.0035640658 2.341805e-38
0.028008685 -0.13087155 0.0035640658 2.3509167e-38
0.029919825 -0.13087155 0.0035640658 2.3508451e-38
0.031830974 -0.13087155 0.0035640658 2.3508807e-38
0.033742115 -0.13087155 0.0035640658 2.341805e-38
0.03546042 -0.13012333 0.0064969719 2.295887e-38
0.037366427 -0.13012333 0.0064969719 2.3324778e-38
0.039062329 -0.12934943 0.0095306095 2.3508809e-38
0.040963009 -0.12934943 0.0095306095 2.3508809e-38
0.042863697 -0.12934943 0.0095306095 2.3509165e-38
0.044470668 -0.1283439 0.013472145 2.35088e-38
0.046364442 -0.1283439 0.013472145 1.9170555e-38
0.048024546 -0.12757985 0.01646704 1.759422e-38
0.04991306 -0.12757985 0.01646704 1.7220747e-38
-0.066834822 -0.1441002 -0.040496401 2.2958873e-38
-0.064643905 -0.14205404 -0.032530479 2.3142544e-38
-0.062598333 -0.1412821 -0.029525215 2.3509886e-38
-0.060629178 -0.1412821 -0.029525215 2.3509524e-38
-0.058660012 -0.1412821 -0.029525215 2.3508442e-38
-0.056690853 -0.1412821 -0.029525215 2.3508442e-38
-0.054655362 -0.14025922 -0.025543028 2.3509523e-38
-0.052693184 -0.14025922 -0.025543028 2.3234379e-38
-0.050731003 -0.14025922 -0.025543028 2.2867037e-38
-0.048768826 -0.14025922 -0.025543028 2.2775202e-38
-0.046767328 -0.13921197 -0.021465952 2.2867037e-38
-0.044812299 -0.13921197 -0.021465952 2.1205361e-38
-0.042857267 -0.13921197 -0.021465952 1.6958954e-38
-0.035049401 -0.13562126 -0.0074868738 1.7406581e-38
-0.033118881 -0.13562126 -0.0074868738 2.1372435e-38
-0.031188359 -0.13562126 -0.0074868738 2.2297642e-38
-0.02928206 -0.13460748 -0.0035400926 2.3500878e-38
-0.027358457 -0.13460748 -0.0035400926 2.3507374e-38
-0.025396798 -0.13562126 -0.0074868738 2.2675823e-38
-0.023466278 -0.13562126 -0.0074868738 1.6407605e-38
-0.021587657 -0.13460748 -0.0035400926 1.4840279e-38
-0.019664057 -0.13460748 -0.0035400926 1.7328837e-38
-0.017791921 -0.13381381 -0.00045030704 2.3506298e-38
-0.015873738 -0.13381381 -0.00045030704 2.3508092e-38
-0.013955556 -0.13381381 -0.00045030704 2.350773e-38
-0.011969654 -0.13460748 -0.0035400926 2.3508809e-38
-0.010046054 -0.13460748 -0.0035400926 2.3508451e-38
-0.0081224535 -0.13460748 -0.0035400926 2.341805e-38
-0.0061988514 -0.13460748 -0.0035400926 2.3049273e-38
-0.0042752512 -0.13460748 -0.0035400926 2.3509527e-38
-0.0023516528 -0.13460748 -0.0035400926 2.3509527e-38
-0.00042805076 -0.13460748 -0.0035400926 2.3509168e-38
0.0014955513 -0.13460748 -0.0035400926 2.3509527e-38
0.003308095 -0.13381381 -0.00045030704 2.3509168e-38
0.0050749481 -0.13278268 0.0035640658 2.3509527e-38
0.0069860928 -0.13278268 0.0035640658 2.3509168e-38
0.0088972375 -0.13278268 0.0035640658 2.3509527e-38
0.010808382 -0.13278268 0.0035640658 2.3509168e-38
0.012719527 -0.13278268 0.0035640658 2.3509527e-38
0.014630672 -0.13278268 0.0035640658 2.3509168e-38
0.016541816 -0.13278268 0.0035640658 2.3509527e-38
0.018452961 -0.13278268 0.0035640658 2.3509168e-38
0.020364106 -0.13278268 0.0035640658 2.3509527e-38
0.02227525 -0.13278268 0.0035640658 2.3509168e-38
0.024186395 -0.13278268 0.0035640658 2.3509886e-38
0.02609754 -0.13278268 0.0035640658 2.341805e-38
0.028008685 -0.13278268 0.0035640658 2.341769e-38
0.02974242 -0.13202934 0.0064969719 2.3508091e-38
0.03164842 -0.13202934 0.0064969719 2.3508809e-38
0.03355442 -0.13202934 0.0064969719 2.3234379e-38
0.03546042 -0.13202934 0.0064969719 2.2775199e-38
0.037161648 -0.1312501 0.0095306095 2.3233302e-38
0.039062329 -0.1312501 0.0095306095 2.3508809e-38
0.040963009 -0.1312501 0.0095306095 2.3508809e-38
0.042576894 -0.13023765 0.013472145 2.3509165e-38
0.044470668 -0.13023765 0.013472145 2.3508439e-38
0.046136022 -0.1294684 0.01646704 1.7972012e-38
0.048024546 -0.1294684 0.01646704 1.6764459e-38
0.04991306 -0.1294684 0.01646704 1.6760848e-38
-0.068505824 -0.14325126 -0.029525215 2.341805e-38
-0.066536665 -0.14325126 -0.029525215 2.2958873e-38
-0.064567491 -0.14325126 -0.029525215 2.2867037e-38
-0.062598333 -0.14325126 -0.029525215 2.341805e-38
-0.060629178 -0.14325126 -0.029525215 2.3509527e-38
-0.058660012 -0.14325126 -0.029525215 2.3509163e-38
-0.056690853 -0.14325126 -0.029525215 2.3509521e-38
-0.054655362 -0.14222141 -0.025543028 2.3509883e-38
-0.052632421 -0.141167 -0.021465952 2.341805e-38
-0.050677393 -0.141167 -0.021465952 2.2498619e-38
-0.04872236 -0.141167 -0.021465952 2.2867037e-38
-0.046767328 -0.141167 -0.021465952 2.3142544e-38
-0.044812299 -0.141167 -0.021465952 2.0558907e-38
-0.036983408 -0.13857989 -0.011462266 1.7959401e-38
-0.035049401 -0.1375518 -0.0074868738 1.7773202e-38
-0.033118881 -0.1375518 -0.0074868738 2.0632709e-38
-0.031188359 -0.1375518 -0.0074868738 1.8607656e-38
-0.02928206 -0.13653107 -0.0035400926 2.3499435e-38
-0.027358457 -0.13653107 -0.0035400926 2.3503768e-38
-0.025434859 -0.13653107 -0.0035400926 1.8617771e-38
-0.023511257 -0.13653107 -0.0035400926 1.6867858e-38
-0.021628287 -0.13573201 -0.00045030704 1.59477e-38
-0.019710105 -0.13573201 -0.00045030704 1.8897238e-38
-0.017858787 -0.13469382 0.0035640658 2.3138593e-38
-0.015947642 -0.13469382 0.0035640658 2.3507012e-38
-0.013955556 -0.13573201 -0.00045030704 2.3414453e-38
-0.011969654 -0.13653107 -0.0035400926 2.3509168e-38
-0.010119189 -0.13573201 -0.00045030704 2.3509527e-38
-0.0082010049 -0.13573201 -0.00045030704 2.341805e-38
-0.0062828232 -0.13573201 -0.00045030704 2.341805e-38
-0.0043646395 -0.13573201 -0.00045030704 2.3509527e-38
-0.0024464577 -0.13573201 -0.00045030704 2.3509524e-38
-0.00052827224 -0.13573201 -0.00045030704 2.3509527e-38
0.0013899095 -0.13573201 -0.00045030704 2.3509524e-38
0.0031638034 -0.13469382 0.0035640658 2.3509527e-38
0.0050749481 -0.13469382 0.0035640658 2.3509524e-38
0.0069860928 -0.13469382 0.0035640658 2.3509527e-38
0.0088972375 -0.13469382 0.0035640658 2.3509524e-38
0.010808382 -0.13469382 0.0035640658 2.3509527e-38
0.012719527 -0.13469382 0.0035640658 2.3509524e-38
0.014630672 -0.13469382 0.0035640658 2.3509527e-38
0.016541816 -0.13469382 0.0035640658 2.3509524e-38
0.018452961 -0.13469382 0.0035640658 2.3509527e-38
0.020364106 -0.13469382 0.0035640658 2.3509524e-38
0.02227525 -0.13469382 0.0035640658 2.3509527e-38
0.024024408 -0.13393532 0.0064969719 2.3509527e-38
0.025930412 -0.13393532 0.0064969719 2.3234379e-38
0.027836412 -0.13393532 0.0064969719 2.3141466e-38
0.029558912 -0.13315077 0.0095306095 2.3508092e-38
0.031459592 -0.13315077 0.0095306095 2.3509168e-38
0.03336028 -0.13315077 0.0095306095 2.3142544e-38
0.03526096 -0.13315077 0.0095306095 2.2683366e-38
0.036895581 -0.13213144 0.013472145 2.3325497e-38
0.038789354 -0.13213144 0.013472145 2.3509168e-38
0.04068312 -0.13213144 0.013472145 2.3415895e-38
0.042576894 -0.13213144 0.013472145 2.3509524e-38
0.044247501 -0.13135691 0.01646704 2.3509876e-38
0.046136022 -0.13135691 0.01646704 1.7327721e-38
0.048024546 -0.13135691 0.01646704 1.630456e-38
0.04991306 -0.13135691 0.01646704 1.6392066e-38
-0.068390615 -0.14418359 -0.025543028 2.3049624e-38
-0.066428438 -0.14418359 -0.025543028 2.2958873e-38
-0.064567491 -0.14522041 -0.029525215 2.2958873e-38
-0.062598333 -0.14522041 -0.029525215 2.3325856e-38
-0.060541902 -0.14418359 -0.025543028 2.3509527e-38
-0.058579721 -0.14418359 -0.025543028 2.3509165e-38
-0.056617539 -0.14418359 -0.025543028 2.3509165e-38
-0.05458745 -0.14312203 -0.021465952 2.3416971e-38
-0.052588508 -0.14235483 -0.018519336 2.304891e-38
-0.050638642 -0.14235483 -0.018519336 2.3142544e-38
-0.048688781 -0.14235483 -0.018519336 2.3142544e-38
-0.046738915 -0.14235483 -0.018519336 2.3141822e-38
-0.04478905 -0.14235483 -0.018519336 2.120211e-38
-0.042839184 -0.14235483 -0.018519336 1.9169479e-38
-0.040871672 -0.1413065 -0.014493043 1.8242476e-38
-0.038910441 -0.1394823 -0.0074868738 1.869841e-38
-0.036979921 -0.1394823 -0.0074868738 1.860261e-38
-0.035049401 -0.1394823 -0.0074868738 1.8692999e-38
-0.033118881 -0.1394823 -0.0074868738 1.9247614e-38
-0.03120566 -0.13845469 -0.0035400926 1.8605851e-38
-0.029301021 -0.13765021 -0.00045030704 2.3500512e-38
-0.027382836 -0.13765021 -0.00045030704 2.3500524e-38
-0.025464654 -0.13765021 -0.00045030704 1.8801795e-38
-0.02354647 -0.13765021 -0.00045030704 1.834298e-38
-0.021681078 -0.13660498 0.0035640658 1.7238792e-38
-0.019769931 -0.13660498 0.0035640658 2.212516e-38
-0.017858787 -0.13660498 0.0035640658 2.3509168e-38
-0.015947642 -0.13660498 0.0035640658 2.3509168e-38
-0.014036499 -0.13660498 0.0035640658 2.3416251e-38
-0.012037372 -0.13765021 -0.00045030704 2.3509527e-38
-0.010119189 -0.13765021 -0.00045030704 2.3509886e-38
-0.0082010049 -0.13765021 -0.00045030704 2.341805e-38
-0.0062828232 -0.13765021 -0.00045030704 2.3417333e-38
-0.0043646395 -0.13765021 -0.00045030704 2.3509527e-38
-0.0024464577 -0.13765021 -0.00045030704 2.3509521e-38
-0.00052827224 -0.13765021 -0.00045030704 2.3509524e-38
0.0012526587 -0.13660498 0.0035640658 2.3509521e-38
0.0031638034 -0.13660498 0.0035640658 2.3509524e-38
0.0049643889 -0.13584132 0.0064969719 2.3509521e-38
0.006870389 -0.13584132 0.0064969719 2.3509524e-38
0.0087763928 -0.13584132 0.0064969719 2.3509521e-38
0.010808382 -0.13660498 0.0035640658 2.3509524e-38
0.012588397 -0.13584132 0.0064969719 2.3509521e-38
0.014494397 -0.13584132 0.0064969719 2.3509524e-38
0.016400401 -0.13584132 0.0064969719 2.3509521e-38
0.018306404 -0.13584132 0.0064969719 2.3509524e-38
0.020364106 -0.13660498 0.0035640658 2.3509521e-38
0.022118408 -0.13584132 0.0064969719 2.3509524e-38
0.024024408 -0.13584132 0.0064969719 2.3509883e-38
0.025757544 -0.13505147 0.0095306095 2.2958514e-38
0.027426712 -0.1340252 0.013472145 2.2865961e-38
0.029320486 -0.1340252 0.013472145 2.3507733e-38
0.03121426 -0.1340252 0.013472145 2.3509168e-38
0.033108033 -0.1340252 0.013472145 2.2958873e-38
0.035001807 -0.1340252 0.013472145 2.2591531e-38
0.036693409 -0.13324542 0.01646704 2.3233662e-38
0.038581938 -0.13324542 0.01646704 2.3509527e-38
0.040470459 -0.13324542 0.01646704 2.3323699e-38
0.04235898 -0.13324542 0.01646704 2.3509524e-38
0.043949038 -0.13220255 0.020472353 2.3509876e-38
0.045830533 -0.13220255 0.020472353 1.6774545e-38
0.048024546 -0.13324542 0.01646704 1.5935778e-38
0.04991306 -0.13324542 0.01646704 1.5931088e-38
-0.070352793 -0.14614578 -0.025543028 1.5857281e-38
-0.068272665 -0.14507706 -0.021465952 2.2864869e-38
-0.066317633 -0.14507706 -0.021465952 2.3142544e-38
-0.064466253 -0.14614578 -0.025543028 2.2958873e-38
-0.062504083 -0.14614578 -0.025543028 2.3325856e-38
-0.060541902 -0.14614578 -0.025543028 2.3509527e-38
-0.058579721 -0.14614578 -0.025543028 2.3509527e-38
-0.056617539 -0.14614578 -0.025543028 2.3509527e-38
-0.05458745 -0.14507706 -0.021465952 2.3416971e-38
-0.052588508 -0.14430468 -0.018519336 2.3141103e-38
-0.050638642 -0.14430468 -0.018519336 2.341805e-38
-0.048642892 -0.14324932 -0.014493043 2.3048907e-38
-0.046700086 -0.14324932 -0.014493043 2.3509521e-38
-0.044757284 -0.14324932 -0.014493043 2.3506276e-38
-0.042814478 -0.14324932 -0.014493043 2.2485997e-38
-0.040871672 -0.14324932 -0.014493043 1.8516899e-38
-0.038900062 -0.14037828 -0.0035400926 1.7498423e-38
-0.036976464 -0.14037828 -0.0035400926 1.8324937e-38
-0.035052858 -0.14037828 -0.0035400926 1.9244731e-38
-0.03312926 -0.14037828 -0.0035400926 1.9152535e-38
-0.031219203 -0.13956837 -0.00045030704 2.321311e-38
-0.029301021 -0.13956837 -0.00045030704 2.3504468e-38
-0.02741451 -0.13851611 0.0035640658 2.3503039e-38
-0.025503367 -0.13851611 0.0035640658 2.3505923e-38
-0.02354647 -0.13956837 -0.00045030704 2.110848e-38
-0.021681078 -0.13851611 0.0035640658 2.1110644e-38
-0.019769931 -0.13851611 0.0035640658 2.3509168e-38
-0.017858787 -0.13851611 0.0035640658 2.3509527e-38
-0.015947642 -0.13851611 0.0035640658 2.3509886e-38
-0.014036499 -0.13851611 0.0035640658 2.3325494e-38
-0.012037372 -0.13956837 -0.00045030704 2.3509886e-38
-0.01021421 -0.13851611 0.0035640658 2.3509886e-38
-0.0083030649 -0.13851611 0.0035640658 2.3233662e-38
-0.0063919201 -0.13851611 0.0035640658 2.3509886e-38
-0.0044807754 -0.13851611 0.0035640658 2.3509883e-38
-0.0025696307 -0.13851611 0.0035640658 2.350988e-38
-0.00065848604 -0.13851611 0.0035640658 2.3509521e-38
0.0011523813 -0.13774733 0.0064969719 2.350988e-38
0.0030583851 -0.13774733 0.0064969719 2.3509521e-38
0.0049643889 -0.13774733 0.0064969719 2.350988e-38
0.006870389 -0.13774733 0.0064969719 2.3509521e-38
0.0087763928 -0.13774733 0.0064969719 2.350988e-38
0.010682393 -0.13774733 0.0064969719 2.3509521e-38
0.012588397 -0.13774733 0.0064969719 2.350988e-38
0.014494397 -0.13774733 0.0064969719 2.3509521e-38
0.016400401 -0.13774733 0.0064969719 2.350988e-38
0.018306404 -0.13774733 0.0064969719 2.3509521e-38
0.020212404 -0.13774733 0.0064969719 2.350988e-38
0.022118408 -0.13774733 0.0064969719 2.3509521e-38
0.023856863 -0.13695215 0.0095306095 2.3509883e-38
0.025757544 -0.13695215 0.0095306095 2.2683007e-38
0.027426712 -0.13591899 0.013472145 2.2681931e-38
0.029320486 -0.13591899 0.013472145 2.3415898e-38
0.03121426 -0.13591899 0.013472145 2.3509527e-38
0.033108033 -0.13591899 0.013472145 2.2867037e-38
0.035001807 -0.13591899 0.013472145 2.2683366e-38
0.036693409 -0.13513394 0.01646704 2.3142544e-38
0.038581938 -0.13513394 0.01646704 2.3509886e-38
0.04018604 -0.13408406 0.020472353 2.3416974e-38
0.042067535 -0.13408406 0.020472353 2.3509883e-38
0.043720305 -0.13327946 0.023541873 2.3509873e-38
0.045596421 -0.13327946 0.023541873 1.5761111e-38
0.047472533 -0.13327946 0.023541873 1.5198932e-38
-0.072314978 -0.14810793 -0.025543028 1.3091768e-38
-0.070352793 -0.14810793 -0.025543028 1.7609354e-38
-0.068272665 -0.1470321 -0.021465952 2.3509879e-38
-0.066317633 -0.1470321 -0.021465952 2.3142544e-38
-0.064466253 -0.14810793 -0.025543028 2.3142544e-38
-0.062504083 -0.14810793 -0.025543028 2.341805e-38
-0.060541902 -0.14810793 -0.025543028 2.3509527e-38
-0.058497515 -0.1470321 -0.021465952 2.3509168e-38
-0.056542482 -0.1470321 -0.021465952 2.3509168e-38
-0.054538373 -0.14625455 -0.018519336 2.3509527e-38
-0.052588508 -0.14625455 -0.018519336 2.3509527e-38
-0.050638642 -0.14625455 -0.018519336 2.3509883e-38
-0.048642892 -0.1451921 -0.014493043 2.3509521e-38
-0.046700086 -0.1451921 -0.014493043 2.3508797e-38
-0.044757284 -0.1451921 -0.014493043 2.3504111e-38
-0.042814478 -0.1451921 -0.014493043 2.2945169e-38
-0.040871672 -0.1451921 -0.014493043 1.9068987e-38
-0.038900062 -0.14230187 -0.0035400926 1.8234543e-38
-0.036976464 -0.14230187 -0.0035400926 1.887667e-38
-0.03505557 -0.14148657 -0.00045030704 1.8965983e-38
-0.033137389 -0.14148657 -0.00045030704 1.9888659e-38
-0.031236799 -0.14042725 0.0035640658 2.3492215e-38
-0.029325655 -0.14042725 0.0035640658 2.3499063e-38
-0.02741451 -0.14042725 0.0035640658 2.3499429e-38
-0.025503367 -0.14042725 0.0035640658 2.3507358e-38
-0.023592222 -0.14042725 0.0035640658 2.1660567e-38
-0.021681078 -0.14042725 0.0035640658 2.3509163e-38
-0.019769931 -0.14042725 0.0035640658 2.3509524e-38
-0.017858787 -0.14042725 0.0035640658 2.3233299e-38
-0.015947642 -0.14042725 0.0035640658 2.3234018e-38
-0.014036499 -0.14042725 0.0035640658 2.3234018e-38
-0.012037372 -0.14148657 -0.00045030704 2.341805e-38
-0.01021421 -0.14042725 0.0035640658 2.341805e-38
-0.0083030649 -0.14042725 0.0035640658 2.3325497e-38
-0.0063919201 -0.14042725 0.0035640658 2.3509886e-38
-0.0044807754 -0.14042725 0.0035640658 2.3509883e-38
-0.0025696307 -0.14042725 0.0035640658 2.3509883e-38
-0.00065848604 -0.14042725 0.0035640658 2.3509883e-38
0.0011523813 -0.13965334 0.0064969719 2.3509883e-38
0.0029493459 -0.13885282 0.0095306095 2.3509883e-38
0.0048500299 -0.13885282 0.0095306095 2.3509883e-38
0.006750714 -0.13885282 0.0095306095 2.3509883e-38
0.0086513944 -0.13885282 0.0095306095 2.3509883e-38
0.010552078 -0.13885282 0.0095306095 2.3509883e-38
0.012588397 -0.13965334 0.0064969719 2.3509883e-38
0.014494397 -0.13965334 0.0064969719 2.3509883e-38
0.016400401 -0.13965334 0.0064969719 2.3509883e-38
0.018306404 -0.13965334 0.0064969719 2.3509883e-38
0.020212404 -0.13965334 0.0064969719 2.3509883e-38
0.021956179 -0.13885282 0.0095306095 2.3509883e-38
0.023856863 -0.13885282 0.0095306095 2.341805e-38
0.025532942 -0.13781275 0.013472145 2.2590813e-38
0.027426712 -0.13781275 0.013472145 2.2589736e-38
0.029320486 -0.13781275 0.013472145 2.3415898e-38
0.03121426 -0.13781275 0.013472145 2.3509527e-38
0.032916367 -0.13702248 0.01646704 2.2867037e-38
0.034804888 -0.13702248 0.01646704 2.2499694e-38
0.036693409 -0.13702248 0.01646704 2.3050707e-38
0.038581938 -0.13702248 0.01646704 2.3509886e-38
0.04018604 -0.13596557 0.020472353 2.3509527e-38
0.042067535 -0.13596557 0.020472353 2.3417324e-38
0.043720305 -0.13515557 0.023541873 2.3417676e-38
0.045596421 -0.13515557 0.023541873 1.5300133e-38
0.047472533 -0.13515557 0.023541873 1.5106736e-38
-0.070227697 -0.14898713 -0.021465952 1.7793743e-38
-0.068187416 -0.14820443 -0.018519336 2.2957061e-38
-0.066237554 -0.14820443 -0.018519336 2.3142539e-38
-0.060452543 -0.14898713 -0.021465952 2.3417691e-38
-0.058497515 -0.14898713 -0.021465952 2.3324778e-38
-0.056542482 -0.14898713 -0.021465952 2.3508091e-38
-0.054538373 -0.14820443 -0.018519336 2.3416974e-38
-0.052528504 -0.14713491 -0.014493043 2.3509527e-38
-0.050585698 -0.14713491 -0.014493043 2.3509161e-38
-0.048642892 -0.14713491 -0.014493043 2.3509158e-38
-0.046700086 -0.14713491 -0.014493043 2.3504112e-38
-0.044757284 -0.14713491 -0.014493043 1.9166952e-38
-0.042795878 -0.14632986 -0.011462266 1.8425779e-38
-0.040858388 -0.14632986 -0.011462266 1.7499499e-38
-0.038920898 -0.14632986 -0.011462266 1.8510406e-38
-0.036973752 -0.14340474 -0.00045030704 1.8691194e-38
-0.03505557 -0.14340474 -0.00045030704 1.8319891e-38
-0.033137389 -0.14340474 -0.00045030704 2.0716977e-38
-0.031236799 -0.14233841 0.0035640658 2.2010603e-38
-0.029343653 -0.14155935 0.0064969719 2.2843609e-38
-0.02743765 -0.14155935 0.0064969719 2.18345e-38
-0.025503367 -0.14233841 0.0035640658 2.045589e-38
-0.023625646 -0.14155935 0.0064969719 1.9077283e-38
-0.021719644 -0.14155935 0.0064969719 2.3508797e-38
-0.019769931 -0.14233841 0.0035640658 2.350952e-38
-0.017858787 -0.14233841 0.0035640658 2.2957065e-38
-0.015947642 -0.14233841 0.0035640658 2.332621e-38
-0.014036499 -0.14233841 0.0035640658 2.3234379e-38
-0.012125354 -0.14233841 0.0035640658 2.341805e-38
-0.01021421 -0.14233841 0.0035640658 2.3509886e-38
-0.0083030649 -0.14233841 0.0035640658 2.3141103e-38
-0.0063919201 -0.14233841 0.0035640658 2.3509886e-38
-0.0044807754 -0.14233841 0.0035640658 2.3509886e-38
-0.0026596226 -0.14155935 0.0064969719 2.341805e-38
-0.00075361878 -0.14155935 0.0064969719 2.341805e-38
0.0010486618 -0.14075352 0.0095306095 2.341805e-38
0.0029493459 -0.14075352 0.0095306095 2.341805e-38
0.0047014467 -0.13970654 0.013472145 2.341805e-38
0.0065952204 -0.13970654 0.013472145 2.341805e-38
0.0084889904 -0.13970654 0.013472145 2.341805e-38
0.010552078 -0.14075352 0.0095306095 2.341805e-38
0.012452763 -0.14075352 0.0095306095 2.341805e-38
0.014353447 -0.14075352 0.0095306095 2.341805e-38
0.016254127 -0.14075352 0.0095306095 2.341805e-38
0.018154811 -0.14075352 0.0095306095 2.341805e-38
0.020055495 -0.14075352 0.0095306095 2.341805e-38
0.021956179 -0.14075352 0.0095306095 2.341805e-38
0.023639172 -0.13970654 0.013472145 2.3234379e-38
0.025532942 -0.13970654 0.013472145 2.2590813e-38
0.027426712 -0.13970654 0.013472145 2.2589734e-38
0.029320486 -0.13970654 0.013472145 2.3323699e-38
0.03121426 -0.13970654 0.013472145 2.3509167e-38
0.032916367 -0.13891099 0.01646704 2.2867037e-38
0.034804888 -0.13891099 0.01646704 2.2499691e-38
0.036693409 -0.13891099 0.01646704 2.3142539e-38
0.038581938 -0.13891099 0.01646704 2.3509883e-38
0.04018604 -0.13784705 0.020472353 2.3509883e-38
0.041844189 -0.13703169 0.023541873 2.3325127e-38
0.043501273 -0.13625093 0.026481217 2.350987e-38
0.04537224 -0.13625093 0.026481217 1.5576717e-38
0.047243204 -0.13625093 0.026481217 1.538332e-38
-0.052528504 -0.14907773 -0.014493043 2.3509168e-38
-0.050585698 -0.14907773 -0.014493043 2.3508082e-38
-0.048642892 -0.14907773 -0.014493043 2.3507715e-38
-0.046700086 -0.14907773 -0.014493043 2.1658032e-38
-0.044757284 -0.14907773 -0.014493043 1.7321233e-38
-0.042795878 -0.14826734 -0.011462266 1.787044e-38
-0.040858388 -0.14826734 -0.011462266 1.7589529e-38
-0.038910441 -0.14720438 -0.0074868738 1.8140181e-38
-0.036976464 -0.14614908 -0.0035400926 1.9243286e-38
-0.03505557 -0.14532293 -0.00045030704 1.868831e-38
-0.033137389 -0.14532293 -0.00045030704 1.8687955e-38
-0.031236799 -0.14424954 0.0035640658 1.8505724e-38
-0.029343653 -0.14346536 0.0064969719 2.1090804e-38
-0.02743765 -0.14346536 0.0064969719 2.2293672e-38
-0.02553165 -0.14346536 0.0064969719 1.7688211e-38
-0.023625646 -0.14346536 0.0064969719 1.7139005e-38
-0.021719644 -0.14346536 0.0064969719 2.350591e-38
-0.019813642 -0.14346536 0.0064969719 2.3509156e-38
-0.017858787 -0.14424954 0.0035640658 2.3325127e-38
-0.015947642 -0.14424954 0.0035640658 2.350988e-38
-0.014036499 -0.14424954 0.0035640658 2.3418047e-38
-0.012125354 -0.14424954 0.0035640658 2.3325492e-38
-0.01021421 -0.14424954 0.0035640658 2.3233296e-38
-0.0083030649 -0.14424954 0.0035640658 2.3509883e-38
-0.0063919201 -0.14424954 0.0035640658 2.3509883e-38
-0.0044807754 -0.14424954 0.0035640658 2.341805e-38
-0.0026596226 -0.14346536 0.0064969719 2.3234379e-38
-0.00085202232 -0.1426542 0.0095306095 2.2958154e-38
0.0010486618 -0.1426542 0.0095306095 2.3234379e-38
0.0029493459 -0.1426542 0.0095306095 2.3050349e-38
0.0047014467 -0.1416003 0.013472145 2.2497176e-38
0.0065952204 -0.1416003 0.013472145 2.3234379e-38
0.0084889904 -0.1416003 0.013472145 2.3234379e-38
0.010382764 -0.1416003 0.013472145 2.3234379e-38
0.012276538 -0.1416003 0.013472145 2.3234379e-38
0.014170308 -0.1416003 0.013472145 2.3234379e-38
0.016064081 -0.1416003 0.013472145 2.2958154e-38
0.017957855 -0.1416003 0.013472145 2.3142544e-38
0.020055495 -0.1426542 0.0095306095 2.3234379e-38
0.021745399 -0.1416003 0.013472145 2.3234379e-38
0.023639172 -0.1416003 0.013472145 2.2866677e-38
0.025532942 -0.1416003 0.013472145 2.2866677e-38
0.027426712 -0.1416003 0.013472145 2.341805e-38
0.029320486 -0.1416003 0.013472145 2.3508809e-38
0.031027846 -0.14079951 0.01646704 2.3231138e-38
0.032916367 -0.14079951 0.01646704 2.2958867e-38
0.034804888 -0.14079951 0.01646704 2.2591522e-38
0.036693409 -0.14079951 0.01646704 2.3326208e-38
0.038581938 -0.14079951 0.01646704 2.2956346e-38
0.04018604 -0.13972856 0.020472353 2.3325129e-38
0.041844189 -0.13890781 0.023541873 2.3509874e-38
0.043501273 -0.13812189 0.026481217 2.3233282e-38
0.04537224 -0.13812189 0.026481217 1.5300131e-38
0.047243204 -0.13812189 0.026481217 1.4737951e-38
-0.038910441 -0.14913492 -0.0074868738 1.8230932e-38
-0.036976464 -0.14807267 -0.0035400926 1.9058535e-38
-0.035059087 -0.14616071 0.0035640658 1.8503919e-38
-0.033147946 -0.14616071 0.0035640658 1.8411724e-38
-0.031236799 -0.14616071 0.0035640658 1.8689752e-38
-0.029343653 -0.14537133 0.0064969719 1.9522034e-38
-0.02743765 -0.14537133 0.0064969719 1.8880267e-38
-0.02553165 -0.14537133 0.0064969719 1.3720913e-38
-0.023625646 -0.14537133 0.0064969719 1.437061e-38
-0.021719644 -0.14537133 0.0064969719 2.3507705e-38
-0.019813642 -0.14537133 0.0064969719 2.3509149e-38
-0.017858787 -0.14616071 0.0035640658 2.3509154e-38
-0.016001638 -0.14537133 0.0064969719 2.3509518e-38
-0.014095636 -0.14537133 0.0064969719 2.350988e-38
-0.012125354 -0.14616071 0.0035640658 2.3325131e-38
-0.01028363 -0.14537133 0.0064969719 2.3417324e-38
-0.0083776284 -0.14537133 0.0064969719 2.3509879e-38
-0.0063919201 -0.14616071 0.0035640658 2.350952e-38
-0.0045656227 -0.14537133 0.0064969719 2.304927e-38
-0.0026596226 -0.14537133 0.0064969719 2.3050708e-38
-0.00085202232 -0.14455487 0.0095306095 2.2589734e-38
0.0010486618 -0.14455487 0.0095306095 2.3142544e-38
0.0029493459 -0.14455487 0.0095306095 2.3142544e-38
0.0047014467 -0.14349405 0.013472145 2.286632e-38
0.0065952204 -0.14349405 0.013472145 2.3142544e-38
0.0084889904 -0.14349405 0.013472145 2.286632e-38
0.010382764 -0.14349405 0.013472145 2.286632e-38
0.012276538 -0.14349405 0.013472145 2.2958514e-38
0.014170308 -0.14349405 0.013472145 2.3142544e-38
0.016064081 -0.14349405 0.013472145 2.3142544e-38
0.017957855 -0.14349405 0.013472145 2.3050708e-38
0.019851625 -0.14349405 0.013472145 2.2497539e-38
0.021745399 -0.14349405 0.013472145 2.268193e-38
0.023639172 -0.14349405 0.013472145 2.3234379e-38
0.025362283 -0.14268802 0.01646704 2.3234379e-38
0.027250804 -0.14268802 0.01646704 2.3048545e-38
0.029139325 -0.14268802 0.01646704 2.3508448e-38
0.031027846 -0.14268802 0.01646704 2.3507362e-38
0.032916367 -0.14268802 0.01646704 2.3234372e-38
0.034804888 -0.14268802 0.01646704 2.2222733e-38
0.036423042 -0.14161004 0.020472353 2.3509879e-38
0.038304538 -0.14161004 0.020472353 2.3509879e-38
0.039968073 -0.14078392 0.023541873 2.350952e-38
0.041844189 -0.14078392 0.023541873 2.3509873e-38
0.043501273 -0.13999285 0.026481217 2.3509147e-38
0.04537224 -0.13999285 0.026481217 1.4377814e-38
0.047243204 -0.13999285 0.026481217 1.372308e-38
-0.036970235 -0.14807184 0.0035640658 1.9150728e-38
-0.035059087 -0.14807184 0.0035640658 1.8504282e-38
-0.033147946 -0.14807184 0.0035640658 1.7674519e-38
-0.031236799 -0.14807184 0.0035640658 1.8320967e-38
-0.029325655 -0.14807184 0.0035640658 1.8691547e-38
-0.02741451 -0.14807184 0.0035640658 1.8508961e-38
-0.025503367 -0.14807184 0.0035640658 1.3257413e-38
-0.023625646 -0.14727734 0.0064969719 1.2615289e-38
-0.021719644 -0.14727734 0.0064969719 2.3502298e-38
-0.019813642 -0.14727734 0.0064969719 2.3508425e-38
-0.017858787 -0.14807184 0.0035640658 2.3508793e-38
-0.016001638 -0.14727734 0.0064969719 2.3509157e-38
-0.014095636 -0.14727734 0.0064969719 2.3509518e-38
-0.012125354 -0.14807184 0.0035640658 2.3509521e-38
-0.01028363 -0.14727734 0.0064969719 2.350952e-38
-0.0083776284 -0.14727734 0.0064969719 2.3509517e-38
-0.0064716265 -0.14727734 0.0064969719 2.3508439e-38
-0.0046533868 -0.14645557 0.0095306095 2.341805e-38
-0.0027527027 -0.14645557 0.0095306095 2.3234379e-38
-0.00085202232 -0.14645557 0.0095306095 2.3050349e-38
0.00091390312 -0.14538784 0.013472145 2.3234379e-38
0.0028076731 -0.14538784 0.013472145 2.3234379e-38
0.0047014467 -0.14538784 0.013472145 2.3234379e-38
0.0065952204 -0.14538784 0.013472145 2.3234379e-38
0.0084889904 -0.14538784 0.013472145 2.2958155e-38
0.010382764 -0.14538784 0.013472145 2.3234379e-38
0.012276538 -0.14538784 0.013472145 2.3142544e-38
0.014170308 -0.14538784 0.013472145 2.3142544e-38
0.016064081 -0.14538784 0.013472145 2.3234379e-38
0.017957855 -0.14538784 0.013472145 2.3234379e-38
0.019851625 -0.14538784 0.013472145 2.3234379e-38
0.021585241 -0.14457656 0.01646704 2.3234379e-38
0.023473762 -0.14457656 0.01646704 2.341805e-38
0.025362283 -0.14457656 0.01646704 2.3509883e-38
0.027250804 -0.14457656 0.01646704 2.2861631e-38
0.029139325 -0.14457656 0.01646704 2.3508085e-38
0.031027846 -0.14457656 0.01646704 2.3508438e-38
0.032916367 -0.14457656 0.01646704 2.3326199e-38
0.034804888 -0.14457656 0.01646704 2.2497155e-38
0.036423042 -0.14349155 0.020472353 2.3509873e-38
0.038304538 -0.14349155 0.020472353 2.3507353e-38
0.039968073 -0.14266007 0.023541873 2.3508794e-38
0.041844189 -0.14266007 0.023541873 2.3509511e-38
0.043501273 -0.14186381 0.026481217 2.3324393e-38
0.04537224 -0.14186381 0.026481217 1.3731364e-38
0.047243204 -0.14186381 0.026481217 1.3077713e-38
-0.035059087 -0.14998297 0.0035640658 1.832133e-38
-0.033147946 -0.14998297 0.0035640658 1.7307178e-38
-0.031236799 -0.14998297 0.0035640658 1.8413161e-38
-0.029343653 -0.14918335 0.0064969719 1.8045098e-38
-0.02743765 -0.14918335 0.0064969719 1.8691908e-38
-0.02553165 -0.14918335 0.0064969719 1.4637461e-38
-0.02366022 -0.14835624 0.0095306095 1.224398e-38
-0.021759536 -0.14835624 0.0095306095 2.2943e-38
-0.019813642 -0.14918335 0.0064969719 2.3507345e-38
-0.01790764 -0.14918335 0.0064969719 2.3508431e-38
-0.016001638 -0.14918335 0.0064969719 2.3508797e-38
-0.014095636 -0.14918335 0.0064969719 2.3507716e-38
-0.012189632 -0.14918335 0.0064969719 2.3509517e-38
-0.01028363 -0.14918335 0.0064969719 2.3509514e-38
-0.0083776284 -0.14918335 0.0064969719 2.3509153e-38
-0.0065540709 -0.14835624 0.0095306095 2.3509514e-38
-0.0046533868 -0.14835624 0.0095306095 2.3509883e-38
-0.0027527027 -0.14835624 0.0095306095 2.3509886e-38
-0.00085202232 -0.14835624 0.0095306095 2.2680128e-38
0.00091390312 -0.1472816 0.013472145 2.304891e-38
0.0028076731 -0.1472816 0.013472145 2.3509886e-38
0.0047014467 -0.1472816 0.013472145 2.3141106e-38
0.0065952204 -0.1472816 0.013472145 2.3325497e-38
0.0084889904 -0.1472816 0.013472145 2.3417691e-38
0.010382764 -0.1472816 0.013472145 2.3509886e-38
0.012276538 -0.1472816 0.013472145 2.3509886e-38
0.014170308 -0.1472816 0.013472145 2.3509886e-38
0.016064081 -0.1472816 0.013472145 2.2772323e-38
0.017957855 -0.1472816 0.013472145 2.2680128e-38
0.019851625 -0.1472816 0.013472145 2.3233302e-38
0.021585241 -0.14646508 0.01646704 2.3325497e-38
0.023473762 -0.14646508 0.01646704 2.3048545e-38
0.025362283 -0.14646508 0.01646704 2.3509161e-38
0.027250804 -0.14646508 0.01646704 2.1015913e-38
0.029139325 -0.14646508 0.01646704 2.027439e-38
0.031027846 -0.14646508 0.01646704 1.8800696e-38
0.032916367 -0.14646508 0.01646704 1.6225329e-38
0.034804888 -0.14646508 0.01646704 1.8531659e-38
0.036423042 -0.14537306 0.020472353 2.3231121e-38
0.038304538 -0.14537306 0.020472353 2.350627e-38
0.04018604 -0.14537306 0.020472353 2.3506992e-38
0.041844189 -0.14453618 0.023541873 2.350951e-38
0.043501273 -0.14373477 0.026481217 2.3231118e-38
0.04537224 -0.14373477 0.026481217 1.4284178e-38
0.047243204 -0.14373477 0.026481217 1.3998591e-38
0.00091390312 -0.14917539 0.013472145 2.3509521e-38
0.0028076731 -0.14917539 0.013472145 2.3509521e-38
0.0047014467 -0.14917539 0.013472145 2.3323689e-38
0.0065952204 -0.14917539 0.013472145 2.3508801e-38
0.0084889904 -0.14917539 0.013472145 2.3509521e-38
0.010382764 -0.14917539 0.013472145 2.3508081e-38
0.012276538 -0.14917539 0.013472145 2.3415885e-38
0.014170308 -0.14917539 0.013472145 2.3509521e-38
0.016064081 -0.14917539 0.013472145 2.3509521e-38
0.017957855 -0.14917539 0.013472145 2.3509521e-38
0.019851625 -0.14917539 0.013472145 2.3508801e-38
0.021585241 -0.14835359 0.01646704 2.3509161e-38
0.023473762 -0.14835359 0.01646704 2.3509161e-38
0.025362283 -0.14835359 0.01646704 2.3508797e-38
0.027250804 -0.14835359 0.01646704 1.8063131e-38
0.029139325 -0.14835359 0.01646704 1.5478414e-38
0.031027846 -0.14835359 0.01646704 1.5571325e-38
0.032916367 -0.14835359 0.01646704 1.318071e-38
0.034804888 -0.14835359 0.01646704 1.6593386e-38
0.036423042 -0.14725454 0.020472353 2.2675784e-38
0.038304538 -0.14725454 0.020472353 2.3508787e-38
0.04018604 -0.14725454 0.020472353 2.3509149e-38
0.041844189 -0.1464123 0.023541873 2.3508428e-38
0.043501273 -0.14560573 0.026481217 2.313856e-38
0.04537224 -0.14560573 0.026481217 1.5021024e-38
0.047243204 -0.14560573 0.026481217 1.5012024e-38
0.038304538 -0.14913605 0.020472353 2.3507344e-38
0.04018604 -0.14913605 0.020472353 2.3508787e-38
0.042067535 -0.14913605 0.020472353 2.3507346e-38
0.043501273 -0.14747669 0.026481217 2.2584664e-38
