# .PCD v0.7 - Point Cloud Data file format
VERSION 0.7
FIELDS x y z rgb
SIZE 4 4 4 4
TYPE F F F F
COUNT 1 1 1 1
WIDTH 855
HEIGHT 1
VIEWPOINT 0 0 0 1 0 0 0
POINTS 855
DATA ascii
-0.021816052 -0.12083931 -0.057530858 1.2539311e-38
-0.019876702 -0.11917825 -0.050434329 1.7332767e-38
-0.01788136 -0.11917825 -0.050434329 2.2771955e-38
-0.015886016 -0.11917825 -0.050434329 2.3509527e-38
-0.023799855 -0.12376876 -0.061439134 9.7727199e-39
-0.021816052 -0.1228471 -0.057530858 2.0375223e-38
-0.019876702 -0.12117358 -0.050434329 2.3140736e-38
-0.01788136 -0.12117358 -0.050434329 2.3509883e-38
-0.015886016 -0.12117358 -0.050434329 2.2679409e-38
-0.013890674 -0.12117358 -0.050434329 2.3048554e-38
-0.012028942 -0.11928193 -0.042412855 2.3233303e-38
-0.010047665 -0.11928193 -0.042412855 2.3417691e-38
-0.0079845171 -0.12023942 -0.046473123 2.1113901e-38
-0.0059093032 -0.12117358 -0.050434329 1.6228614e-38
-0.025831623 -0.12485488 -0.057530858 2.3509874e-38
-0.023823839 -0.12485488 -0.057530858 2.3509876e-38
-0.021847699 -0.12390204 -0.05352018 2.3509879e-38
-0.019876702 -0.12316893 -0.050434329 2.3509164e-38
-0.01788136 -0.12316893 -0.050434329 2.3509527e-38
-0.015938107 -0.12222783 -0.046473123 2.3324778e-38
-0.013949709 -0.12222783 -0.046473123 2.3509527e-38
-0.012028942 -0.12126322 -0.042412855 2.3325856e-38
-0.010047665 -0.12126322 -0.042412855 2.3141109e-38
-0.0079845171 -0.12222783 -0.046473123 2.2773767e-38
-0.0059961211 -0.12222783 -0.046473123 2.2958873e-38
-0.0040077232 -0.12222783 -0.046473123 2.2867037e-38
-0.0020193253 -0.12222783 -0.046473123 2.1577394e-38
-0.029843768 -0.12779804 -0.061439134 2.3141103e-38
-0.027839409 -0.12686269 -0.057530858 2.3509523e-38
-0.025831623 -0.12686269 -0.057530858 2.3509524e-38
-0.023848452 -0.12590279 -0.05352018 2.3509524e-38
-0.021847699 -0.12590279 -0.05352018 2.3509527e-38
-0.019876702 -0.12516426 -0.050434329 2.3509527e-38
-0.017926503 -0.12421621 -0.046473123 2.3509168e-38
-0.0159915 -0.12324448 -0.042412855 2.3509527e-38
-0.014010221 -0.12324448 -0.042412855 2.3509527e-38
-0.012028942 -0.12324448 -0.042412855 2.341805e-38
-0.010047665 -0.12324448 -0.042412855 2.341805e-38
-0.0079845171 -0.12421621 -0.046473123 2.3142544e-38
-0.0060851071 -0.12324448 -0.042412855 2.2958873e-38
-0.0041038301 -0.12324448 -0.042412855 2.2867037e-38
-0.0021225512 -0.12324448 -0.042412855 2.2775202e-38
0.0089764092 -0.11799283 -0.020469764 9.7252916e-41
0.010919215 -0.11799283 -0.020469764 9.2665065e-40
0.012742454 -0.11726747 -0.017438987 2.5850916e-39
0.014679948 -0.11726747 -0.017438987 1.4783783e-39
0.016617438 -0.11726747 -0.017438987 2.3999716e-39
-0.031858407 -0.12981267 -0.061439134 2.3234379e-38
-0.029843768 -0.12981267 -0.061439134 2.3232944e-38
-0.027829129 -0.12981267 -0.061439134 2.3509168e-38
-0.025831623 -0.12887047 -0.057530858 2.3509168e-38
-0.023848452 -0.12790357 -0.05352018 2.3509168e-38
-0.021847699 -0.12790357 -0.05352018 2.3509168e-38
-0.019876702 -0.12715961 -0.050434329 2.3508809e-38
-0.017926503 -0.12620462 -0.046473123 2.3508809e-38
-0.0159915 -0.12522577 -0.042412855 2.3508809e-38
-0.014010221 -0.12522577 -0.042412855 2.3509527e-38
-0.012028942 -0.12522577 -0.042412855 2.3509886e-38
-0.010047665 -0.12522577 -0.042412855 2.341805e-38
-0.008066386 -0.12522577 -0.042412855 2.3234379e-38
-0.0060851071 -0.12522577 -0.042412855 2.3142544e-38
-0.0041038301 -0.12522577 -0.042412855 2.2958873e-38
-0.0021225512 -0.12522577 -0.042412855 2.2867037e-38
-0.00014127232 -0.12522577 -0.042412855 2.2775202e-38
0.0088674743 -0.11920498 -0.017438987 6.3661914e-39
0.010804964 -0.11920498 -0.017438987 6.5005956e-40
0.012742454 -0.11920498 -0.017438987 2.8908787e-42
0.014679948 -0.11920498 -0.017438987 1.9397124e-39
0.016617438 -0.11920498 -0.017438987 2.0311877e-39
-0.03185498 -0.13087825 -0.057530858 2.3142544e-38
-0.029847194 -0.13087825 -0.057530858 2.3325138e-38
-0.027839409 -0.13087825 -0.057530858 2.3509527e-38
-0.025831623 -0.13087825 -0.057530858 2.3509168e-38
-0.023848452 -0.12990431 -0.05352018 2.3509168e-38
-0.021847699 -0.12990431 -0.05352018 2.3508809e-38
-0.019914903 -0.12819304 -0.046473123 2.3508092e-38
-0.017926503 -0.12819304 -0.046473123 2.3508451e-38
-0.016042858 -0.1262586 -0.038507201 2.3509168e-38
-0.014068428 -0.1262586 -0.038507201 2.3509527e-38
-0.012093998 -0.1262586 -0.038507201 2.3509886e-38
-0.010119567 -0.1262586 -0.038507201 2.3418047e-38
-0.008066386 -0.12720706 -0.042412855 2.3234376e-38
-0.0061707068 -0.1262586 -0.038507201 2.3142538e-38
-0.0041962769 -0.1262586 -0.038507201 2.2958867e-38
-0.002221847 -0.1262586 -0.038507201 2.2958867e-38
-0.00024741516 -0.1262586 -0.038507201 2.2867037e-38
0.00051018782 -0.11604463 0.0035538878 2.2591531e-38
0.0069299843 -0.12114246 -0.017438987 2.194653e-38
0.0088674743 -0.12114246 -0.017438987 1.5768701e-38
0.010804964 -0.12114246 -0.017438987 6.7338851e-39
0.012742454 -0.12114246 -0.017438987 2.3988927e-39
0.014679948 -0.12114246 -0.017438987 2.952065e-39
-0.033862762 -0.13288604 -0.057530858 2.268193e-38
-0.03185498 -0.13288604 -0.057530858 2.2220952e-38
-0.029847194 -0.13288604 -0.057530858 2.3417691e-38
-0.027839409 -0.13288604 -0.057530858 2.3509527e-38
-0.025849205 -0.13190506 -0.05352018 2.3509168e-38
-0.023867387 -0.13115029 -0.050434329 2.3509168e-38
-0.021872044 -0.13115029 -0.050434329 2.3509168e-38
-0.019954056 -0.12918831 -0.042412855 2.3508092e-38
-0.017972779 -0.12918831 -0.042412855 2.3508451e-38
-0.016042858 -0.12823303 -0.038507201 2.3509527e-38
-0.014113218 -0.12749799 -0.035501935 2.3509527e-38
-0.012144055 -0.12749799 -0.035501935 2.3509883e-38
-0.010119567 -0.12823303 -0.038507201 2.3509883e-38
-0.0082057342 -0.12749799 -0.035501935 2.3418045e-38
-0.0062365718 -0.12749799 -0.035501935 2.3234374e-38
-0.0044581741 -0.12552677 -0.027442673 2.3142537e-38
-0.0025031436 -0.12552677 -0.027442673 2.3142537e-38
-0.0013904963 -0.11794533 0.0035538878 2.2958867e-38
0.00051018782 -0.11794533 0.0035538878 2.2958873e-38
0.0024108719 -0.11794533 0.0035538878 2.2129835e-38
0.0049924944 -0.12307997 -0.017438987 2.2775202e-38
0.0069299843 -0.12307997 -0.017438987 2.2958514e-38
0.008724587 -0.12210761 -0.013463596 2.20362e-38
0.010655107 -0.12210761 -0.013463596 2.341805e-38
0.012742454 -0.12307997 -0.017438987 2.194256e-38
0.014679948 -0.12307997 -0.017438987 1.5120083e-38
-0.033844098 -0.13314565 -0.050434329 2.3142544e-38
-0.031848758 -0.13314565 -0.050434329 2.3142544e-38
-0.029853415 -0.13314565 -0.050434329 2.341805e-38
-0.027858073 -0.13314565 -0.050434329 2.341805e-38
-0.025880093 -0.13216983 -0.046473123 2.3509886e-38
-0.023891697 -0.13216983 -0.046473123 2.3509886e-38
-0.02196615 -0.13020746 -0.038507201 2.3509527e-38
-0.019991718 -0.13020746 -0.038507201 2.3509168e-38
-0.018017288 -0.13020746 -0.038507201 2.3509167e-38
-0.016082378 -0.12946714 -0.035501935 2.3509527e-38
-0.014172565 -0.12848614 -0.031519748 2.3509527e-38
-0.012210386 -0.12848614 -0.031519748 2.3509883e-38
-0.010248207 -0.12848614 -0.031519748 2.3509883e-38
-0.0083682351 -0.1274818 -0.027442673 2.350988e-38
-0.0064132046 -0.1274818 -0.027442673 2.3418045e-38
-0.0046232231 -0.12576406 -0.020469764 2.3234374e-38
-0.0028585382 -0.12403814 -0.013463596 2.3234374e-38
-0.0013904963 -0.119846 0.0035538878 2.3234374e-38
0.00051018782 -0.119846 0.0035538878 2.3325847e-38
0.0024108719 -0.119846 0.0035538878 2.3048542e-38
0.0046353023 -0.12230472 -0.0064270291 2.3509883e-38
0.0065534841 -0.12230472 -0.0064270291 2.3509524e-38
0.0084716696 -0.12230472 -0.0064270291 2.2863074e-38
0.010389851 -0.12230472 -0.0064270291 2.3509521e-38
0.012308033 -0.12230472 -0.0064270291 2.2769437e-38
-0.041825473 -0.13514097 -0.050434329 8.5749124e-39
-0.039830126 -0.13514097 -0.050434329 2.3234379e-38
-0.037834786 -0.13514097 -0.050434329 2.3234379e-38
-0.035839446 -0.13514097 -0.050434329 2.3142544e-38
-0.033844098 -0.13514097 -0.050434329 2.2958873e-38
-0.031848758 -0.13514097 -0.050434329 2.3142544e-38
-0.029856889 -0.13415821 -0.046473123 2.3234379e-38
-0.027868491 -0.13415821 -0.046473123 2.3049624e-38
-0.02589789 -0.13315089 -0.042412855 2.2956709e-38
-0.02394058 -0.1321819 -0.038507201 2.3509883e-38
-0.02196615 -0.1321819 -0.038507201 2.3509883e-38
-0.020020701 -0.1314363 -0.035501935 2.3509883e-38
-0.018051539 -0.1314363 -0.035501935 2.3509524e-38
-0.016082378 -0.1314363 -0.035501935 2.3509524e-38
-0.014233327 -0.12943684 -0.027442673 2.3509524e-38
-0.012327377 -0.12870578 -0.024496058 2.3509524e-38
-0.010377513 -0.12870578 -0.024496058 2.3509883e-38
-0.0085088313 -0.12770687 -0.020469764 2.3509883e-38
-0.006632451 -0.12695493 -0.017438987 2.3509883e-38
-0.0048824791 -0.12498946 -0.0095168147 2.3418047e-38
-0.0030374303 -0.12422292 -0.0064270291 2.3418047e-38
-0.0013080519 -0.1224993 0.00052024983 2.350988e-38
0.00051018782 -0.12174667 0.0035538878 2.3509517e-38
0.0024108719 -0.12174667 0.0035538878 2.1478331e-38
0.0044099558 -0.1224993 0.00052024983 1.9080528e-38
0.0064162333 -0.12322696 -0.0024126563 1.8896137e-38
0.008327378 -0.12322696 -0.0024126563 1.9171645e-38
0.010238523 -0.12322696 -0.0024126563 1.8157493e-38
0.012149667 -0.12322696 -0.0024126563 1.8249329e-38
0.014060812 -0.12322696 -0.0024126563 1.9816298e-38
-0.041825473 -0.13713633 -0.050434329 1.5305191e-38
-0.039830126 -0.13713633 -0.050434329 2.2958151e-38
-0.037834786 -0.13713633 -0.050434329 2.3234379e-38
-0.035839446 -0.13713633 -0.050434329 2.2958873e-38
-0.033844098 -0.13713633 -0.050434329 2.2867037e-38
-0.031845286 -0.13614662 -0.046473123 2.2958873e-38
-0.029856889 -0.13614662 -0.046473123 2.3234374e-38
-0.027879169 -0.13513215 -0.042412855 2.2313489e-38
-0.02589789 -0.13513215 -0.042412855 2.2128019e-38
-0.023959022 -0.13340546 -0.035501935 2.295778e-38
-0.021989862 -0.13340546 -0.035501935 2.3509879e-38
-0.020020701 -0.13340546 -0.035501935 2.3509879e-38
-0.018096924 -0.13241051 -0.031519748 2.3509161e-38
-0.016134743 -0.13241051 -0.031519748 2.3509524e-38
-0.01427724 -0.13065563 -0.024496058 2.3509524e-38
-0.012444925 -0.12889244 -0.017438987 2.3509524e-38
-0.010507433 -0.12889244 -0.017438987 2.3509527e-38
-0.0086500999 -0.12789918 -0.013463596 2.3509527e-38
-0.0068737976 -0.12614109 -0.0064270291 2.3509527e-38
-0.005050635 -0.12513812 -0.0024126563 2.3509886e-38
-0.0031394903 -0.12513812 -0.0024126563 2.3509886e-38
-0.0013080519 -0.12440531 0.00052024983 2.3509524e-38
0.00051018782 -0.12364738 0.0035538878 2.2952019e-38
0.0024108719 -0.12364738 0.0035538878 2.2213011e-38
0.0043115523 -0.12364738 0.0035538878 2.0091795e-38
0.0062122364 -0.12364738 0.0035538878 1.8985447e-38
0.0082219597 -0.12440531 0.00052024983 2.0091077e-38
0.010127963 -0.12440531 0.00052024983 2.0644251e-38
0.012033964 -0.12440531 0.00052024983 1.9536828e-38
0.013939967 -0.12440531 0.00052024983 1.7969502e-38
0.015845967 -0.12440531 0.00052024983 1.9261322e-38
-0.041825473 -0.13913165 -0.050434329 1.7425687e-38
-0.039830126 -0.13913165 -0.050434329 2.3418045e-38
-0.037834786 -0.13913165 -0.050434329 2.2036195e-38
-0.035822079 -0.138135 -0.046473123 2.3234379e-38
-0.033833683 -0.138135 -0.046473123 2.3142544e-38
-0.031841725 -0.13711344 -0.042412855 2.3142544e-38
-0.029863872 -0.13613077 -0.038507201 2.3142535e-38
-0.027897345 -0.13537462 -0.035501935 2.1852511e-38
-0.025928184 -0.13537462 -0.035501935 2.1574845e-38
-0.02398346 -0.1343727 -0.031519748 2.2680474e-38
-0.022021281 -0.1343727 -0.031519748 2.3509879e-38
-0.020098418 -0.13334687 -0.027442673 2.350988e-38
-0.018143388 -0.13334687 -0.027442673 2.3509161e-38
-0.016227106 -0.13260551 -0.024496058 2.3509164e-38
-0.014382415 -0.13082992 -0.017438987 2.3509524e-38
-0.012576882 -0.12883668 -0.0095168147 2.3509524e-38
-0.01065328 -0.12883668 -0.0095168147 2.3509524e-38
-0.0087919813 -0.12805928 -0.0064270291 2.3509521e-38
-0.0069617797 -0.12704925 -0.0024126563 2.3508804e-38
-0.0051200558 -0.12631132 0.00052024983 2.3508445e-38
-0.0032911785 -0.12554805 0.0035538878 2.3508445e-38
-0.0013904963 -0.12554805 0.0035538878 2.3508082e-38
0.00051018782 -0.12554805 0.0035538878 2.3504834e-38
0.0024108719 -0.12554805 0.0035538878 2.2301603e-38
0.0043115523 -0.12554805 0.0035538878 2.3503388e-38
0.0062122364 -0.12554805 0.0035538878 2.3508075e-38
0.0082219597 -0.12631132 0.00052024983 2.3505916e-38
0.010127963 -0.12631132 0.00052024983 2.3506995e-38
0.012033964 -0.12631132 0.00052024983 2.3507721e-38
0.013939967 -0.12631132 0.00052024983 2.2671479e-38
0.015845967 -0.12631132 0.00052024983 2.1655888e-38
0.017616337 -0.12554805 0.0035538878 2.1747365e-38
0.019517021 -0.12554805 0.0035538878 2.1101276e-38
0.021227656 -0.12455635 0.0074954238 1.9165168e-38
0.02312143 -0.12455635 0.0074954238 1.621563e-38
-0.043820813 -0.14112701 -0.050434329 2.0745082e-38
-0.041825473 -0.14112701 -0.050434329 2.2773025e-38
-0.039830126 -0.14112701 -0.050434329 2.3509876e-38
-0.037810475 -0.14012341 -0.046473123 2.3418047e-38
-0.035822079 -0.14012341 -0.046473123 2.341805e-38
-0.033823006 -0.13909473 -0.042412855 2.3233303e-38
-0.031838302 -0.1381052 -0.038507201 2.3325856e-38
-0.029866505 -0.13734378 -0.035501935 2.3234376e-38
-0.027897345 -0.13734378 -0.035501935 2.0929479e-38
-0.025945639 -0.13633488 -0.031519748 2.0467783e-38
-0.024026562 -0.13455538 -0.024496058 2.3508441e-38
-0.022076698 -0.13455538 -0.024496058 2.3509165e-38
-0.020194888 -0.13276742 -0.017438987 2.3509168e-38
-0.018302701 -0.13176022 -0.013463596 2.3509168e-38
-0.016372181 -0.13176022 -0.013463596 2.3324055e-38
-0.01454653 -0.12997745 -0.0064270291 2.3509883e-38
-0.012628347 -0.12997745 -0.0064270291 2.3140737e-38
-0.010710163 -0.12997745 -0.0064270291 2.3323685e-38
-0.0087919813 -0.12997745 -0.0064270291 2.3508797e-38
-0.0070260577 -0.12821732 0.00052024983 2.3502673e-38
-0.0051918626 -0.12744872 0.0035538878 2.3504837e-38
-0.0032911785 -0.12744872 0.0035538878 2.3505557e-38
-0.0013904963 -0.12744872 0.0035538878 2.3505556e-38
0.00051018782 -0.12744872 0.0035538878 2.350303e-38
0.0024108719 -0.12744872 0.0035538878 2.3498705e-38
0.004183704 -0.12645011 0.0074954238 2.2855859e-38
0.0060774777 -0.12645011 0.0074954238 2.3506272e-38
0.0081129204 -0.12744872 0.0035538878 2.3509517e-38
0.010013605 -0.12744872 0.0035538878 2.3509879e-38
0.011914289 -0.12744872 0.0035538878 2.3508441e-38
0.013814969 -0.12744872 0.0035538878 2.138398e-38
0.015715653 -0.12744872 0.0035538878 2.1931037e-38
0.017616337 -0.12744872 0.0035538878 1.9806936e-38
0.019517021 -0.12744872 0.0035538878 1.9066127e-38
0.021227656 -0.12645011 0.0074954238 1.8879935e-38
0.02312143 -0.12645011 0.0074954238 1.7682111e-38
0.0250152 -0.12645011 0.0074954238 1.6670474e-38
0.026908973 -0.12645011 0.0074954238 1.5105667e-38
-0.043820813 -0.14312236 -0.050434329 2.0007873e-38
-0.041825473 -0.14312236 -0.050434329 2.2496436e-38
-0.039830126 -0.14312236 -0.050434329 2.3509876e-38
-0.037810475 -0.14211179 -0.046473123 2.3509883e-38
-0.035822079 -0.14211179 -0.046473123 2.3509886e-38
-0.033823006 -0.14107598 -0.042412855 2.332478e-38
-0.031838302 -0.14007963 -0.038507201 2.3417691e-38
-0.029866505 -0.13931294 -0.035501935 2.3418047e-38
-0.027897345 -0.13931294 -0.035501935 2.1851435e-38
-0.025963511 -0.13725694 -0.027442673 2.1481579e-38
-0.024026562 -0.13650523 -0.024496058 2.3509527e-38
-0.022108465 -0.13547809 -0.020469764 2.3509168e-38
-0.020194888 -0.1347049 -0.017438987 2.3414456e-38
-0.018302701 -0.13369073 -0.013463596 2.3509168e-38
-0.016424082 -0.13268389 -0.0095168147 2.3508808e-38
-0.01454653 -0.13189565 -0.0064270291 2.3509521e-38
-0.012695212 -0.13087155 -0.0024126563 2.2402085e-38
-0.010893913 -0.12934943 0.0035538878 2.1477968e-38
-0.0089932289 -0.12934943 0.0035538878 2.0092151e-38
-0.0070260577 -0.13012333 0.00052024983 1.8428308e-38
-0.0052851588 -0.1283439 0.0074954238 1.7871536e-38
-0.0033913869 -0.1283439 0.0074954238 1.869734e-38
-0.0014976133 -0.1283439 0.0074954238 1.823492e-38
0.00039615855 -0.1283439 0.0074954238 1.9065034e-38
0.0022899304 -0.1283439 0.0074954238 1.9067911e-38
0.004183704 -0.1283439 0.0074954238 1.9811241e-38
0.0060774777 -0.1283439 0.0074954238 2.2489597e-38
0.0079712477 -0.1283439 0.0074954238 2.3509513e-38
0.0098650213 -0.1283439 0.0074954238 2.3325846e-38
0.011758795 -0.1283439 0.0074954238 2.350952e-38
0.013652565 -0.1283439 0.0074954238 2.1107393e-38
0.015546339 -0.1283439 0.0074954238 1.9809096e-38
0.017440112 -0.1283439 0.0074954238 1.9066487e-38
0.019333882 -0.1283439 0.0074954238 1.9153642e-38
0.021227656 -0.1283439 0.0074954238 1.9060002e-38
0.02312143 -0.1283439 0.0074954238 1.8323513e-38
0.0250152 -0.1283439 0.0074954238 1.814128e-38
0.026748816 -0.12757985 0.010490319 1.6484996e-38
0.028637337 -0.12757985 0.010490319 1.3261749e-38
0.030696517 -0.1283439 0.0074954238 1.1515069e-38
0.034722485 -0.12934943 0.0035538878 1.0044629e-38
0.036623165 -0.12934943 0.0035538878 9.3099495e-39
0.040424533 -0.12934943 0.0035538878 8.8522252e-39
0.042325221 -0.12934943 0.0035538878 9.4057605e-39
0.044225901 -0.12934943 0.0035538878 1.0696499e-38
0.046126582 -0.12934943 0.0035538878 7.9291899e-39
0.04802727 -0.12934943 0.0035538878 5.2544348e-39
0.050154008 -0.13012333 0.00052024983 6.1738702e-39
-0.043820813 -0.14511769 -0.050434329 1.9731286e-38
-0.041825473 -0.14511769 -0.050434329 2.2588634e-38
-0.039830126 -0.14511769 -0.050434329 2.3509876e-38
-0.037810475 -0.1441002 -0.046473123 2.3509883e-38
-0.035822079 -0.1441002 -0.046473123 2.3509886e-38
-0.033812732 -0.14205404 -0.038507201 2.332478e-38
-0.031835668 -0.1412821 -0.035501935 2.3417691e-38
-0.029866505 -0.1412821 -0.035501935 2.3418047e-38
-0.027907819 -0.14025922 -0.031519748 2.2497525e-38
-0.025963511 -0.13921197 -0.027442673 2.2588645e-38
-0.02405127 -0.13742088 -0.020469764 2.3509886e-38
-0.022132378 -0.13664238 -0.017438987 2.3509168e-38
-0.020194888 -0.13664238 -0.017438987 2.3323702e-38
-0.018347682 -0.13460748 -0.0095168147 2.3509168e-38
-0.016464714 -0.13381381 -0.0064270291 2.3506646e-38
-0.014606357 -0.13278268 -0.0024126563 2.2953461e-38
-0.012744065 -0.13202934 0.00052024983 2.1938221e-38
-0.010966476 -0.13023765 0.0074954238 2.2120452e-38
-0.0090727042 -0.13023765 0.0074954238 1.9628287e-38
-0.0070925448 -0.1312501 0.0035538878 1.8703454e-38
-0.0052851588 -0.13023765 0.0074954238 1.7686067e-38
-0.0033913869 -0.13023765 0.0074954238 1.9250879e-38
-0.0015790053 -0.1294684 0.010490319 1.9064684e-38
0.00030951574 -0.1294684 0.010490319 1.8878482e-38
0.0022899304 -0.13023765 0.0074954238 1.9433092e-38
0.0040865596 -0.1294684 0.010490319 1.9807638e-38
0.0059750807 -0.1294684 0.010490319 2.2394878e-38
0.0078636017 -0.1294684 0.010490319 2.3508793e-38
0.0097521227 -0.1294684 0.010490319 2.3506995e-38
0.011640644 -0.1294684 0.010490319 2.3508441e-38
0.013529165 -0.1294684 0.010490319 1.990561e-38
0.015417689 -0.1294684 0.010490319 1.9531068e-38
0.01730621 -0.1294684 0.010490319 1.9618219e-38
0.019194731 -0.1294684 0.010490319 1.9522062e-38
0.021083253 -0.1294684 0.010490319 1.8966727e-38
0.022971774 -0.1294684 0.010490319 1.8783771e-38
0.024860295 -0.1294684 0.010490319 1.9430577e-38
0.026748816 -0.1294684 0.010490319 1.8235273e-38
0.028637337 -0.1294684 0.010490319 1.528861e-38
0.030525858 -0.1294684 0.010490319 1.2895483e-38
0.032414377 -0.1294684 0.010490319 1.114629e-38
0.034722485 -0.1312501 0.0035538878 1.0595282e-38
0.036623165 -0.1312501 0.0035538878 9.0304816e-39
0.040424533 -0.1312501 0.0035538878 9.3117614e-39
0.042325221 -0.1312501 0.0035538878 9.5897902e-39
0.044225901 -0.1312501 0.0035538878 9.9585728e-39
0.046126582 -0.1312501 0.0035538878 8.6667521e-39
0.04802727 -0.1312501 0.0035538878 5.9005203e-39
0.049634241 -0.13023765 0.0074954238 6.2678609e-39
0.051528014 -0.13023765 0.0074954238 8.3876415e-39
0.053421788 -0.13023765 0.0074954238 8.8486225e-39
-0.041825473 -0.14711304 -0.050434329 2.3234004e-38
-0.039798874 -0.14608859 -0.046473123 2.3509876e-38
-0.03778556 -0.14503856 -0.042412855 2.3509883e-38
-0.035804283 -0.14503856 -0.042412855 2.3417691e-38
-0.033812732 -0.14402847 -0.038507201 2.3325138e-38
-0.031835668 -0.14325126 -0.035501935 2.341805e-38
-0.029869998 -0.14222141 -0.031519748 2.3234012e-38
-0.02791854 -0.141167 -0.027442673 2.3142535e-38
-0.025976425 -0.14040495 -0.024496058 2.3234379e-38
-0.024069868 -0.13857989 -0.017438987 2.3234379e-38
-0.022132378 -0.13857989 -0.017438987 2.3417691e-38
-0.020233223 -0.1375518 -0.013463596 2.3509168e-38
-0.018347682 -0.13653107 -0.0095168147 2.3508451e-38
-0.016464714 -0.13573201 -0.0064270291 2.0924444e-38
-0.014606357 -0.13469382 -0.0024126563 1.926239e-38
-0.012794595 -0.13315077 0.0035538878 2.0643518e-38
-0.011021612 -0.13135691 0.010490319 2.1839898e-38
-0.0091330912 -0.13135691 0.010490319 2.008566e-38
-0.0071789306 -0.13213144 0.0074954238 1.9070076e-38
-0.0052851588 -0.13213144 0.0074954238 1.8515827e-38
-0.0033913869 -0.13213144 0.0074954238 1.9621106e-38
-0.0015790053 -0.13135691 0.010490319 1.9987004e-38
0.00030951574 -0.13135691 0.010490319 2.0259976e-38
0.0021980386 -0.13135691 0.010490319 2.0536916e-38
0.0040865596 -0.13135691 0.010490319 1.9989146e-38
0.0059750807 -0.13135691 0.010490319 2.2391277e-38
0.0077196378 -0.13032107 0.014495632 2.3508072e-38
0.0096011367 -0.13032107 0.014495632 2.3508435e-38
0.011482636 -0.13032107 0.014495632 2.3508077e-38
0.013529165 -0.13135691 0.010490319 1.9442471e-38
0.015417689 -0.13135691 0.010490319 1.9437431e-38
0.01730621 -0.13135691 0.010490319 1.9801892e-38
0.019194731 -0.13135691 0.010490319 2.0074157e-38
0.02089013 -0.13032107 0.014495632 1.9612097e-38
0.022771629 -0.13032107 0.014495632 1.9244749e-38
0.024860295 -0.13135691 0.010490319 1.9246186e-38
0.026748816 -0.13135691 0.010490319 1.8143078e-38
0.028637337 -0.13135691 0.010490319 1.657791e-38
0.030525858 -0.13135691 0.010490319 1.4736156e-38
0.032414377 -0.13135691 0.010490319 1.2341953e-38
0.034302898 -0.13135691 0.010490319 1.1237412e-38
0.042325221 -0.13315077 0.0035538878 8.7585876e-39
0.044225901 -0.13315077 0.0035538878 8.4823609e-39
0.045634031 -0.13135691 0.010490319 7.929543e-39
0.047522552 -0.13135691 0.010490319 6.730997e-39
0.049634241 -0.13213144 0.0074954238 6.6377196e-39
0.051528014 -0.13213144 0.0074954238 6.9143065e-39
-0.043820813 -0.14910837 -0.050434329 2.1205697e-38
-0.041787274 -0.148077 -0.046473123 2.3509873e-38
-0.039798874 -0.148077 -0.046473123 2.3509876e-38
-0.03778556 -0.14701982 -0.042412855 2.3325492e-38
-0.035787165 -0.1460029 -0.038507201 2.3325497e-38
-0.033804826 -0.14522041 -0.035501935 2.3417333e-38
-0.031832173 -0.14418359 -0.031519748 2.341805e-38
-0.029869998 -0.14418359 -0.031519748 2.3418045e-38
-0.02792629 -0.14235483 -0.024496058 2.3142537e-38
-0.025994075 -0.1413065 -0.020469764 2.3142544e-38
-0.024069868 -0.14051737 -0.017438987 2.2683007e-38
-0.022163745 -0.1394823 -0.013463596 2.2773767e-38
-0.020233223 -0.1394823 -0.013463596 2.3417691e-38
-0.018382896 -0.13765021 -0.0064270291 2.3046749e-38
-0.016517501 -0.13660498 -0.0024126563 1.8524834e-38
-0.014695279 -0.13505147 0.0035538878 1.7599262e-38
-0.012860248 -0.1340252 0.0074954238 2.0086015e-38
-0.011021612 -0.13324542 0.010490319 2.0360078e-38
-0.0091330912 -0.13324542 0.010490319 2.0082412e-38
-0.0072445683 -0.13324542 0.010490319 1.9621085e-38
-0.0052851588 -0.1340252 0.0074954238 2.0820002e-38
-0.0033913869 -0.1340252 0.0074954238 1.9622193e-38
-0.0015790053 -0.13324542 0.010490319 1.9158331e-38
0.00030951574 -0.13324542 0.010490319 2.1272686e-38
0.0021980386 -0.13324542 0.010490319 2.2008805e-38
0.0040865596 -0.13324542 0.010490319 2.1000415e-38
0.005838139 -0.13220255 0.014495632 2.2111806e-38
0.0077196378 -0.13220255 0.014495632 2.3501587e-38
0.0096011367 -0.13220255 0.014495632 2.3504112e-38
0.011482636 -0.13220255 0.014495632 2.3506277e-38
0.013364134 -0.13220255 0.014495632 1.9809813e-38
0.015245633 -0.13220255 0.014495632 1.897609e-38
0.017127132 -0.13220255 0.014495632 1.9249075e-38
0.019008631 -0.13220255 0.014495632 1.9614258e-38
0.02089013 -0.13220255 0.014495632 2.0073435e-38
0.022771629 -0.13220255 0.014495632 1.9706448e-38
0.024653127 -0.13220255 0.014495632 1.8601898e-38
0.026534626 -0.13220255 0.014495632 1.7682463e-38
0.028416125 -0.13220255 0.014495632 1.7776453e-38
0.030525858 -0.13324542 0.010490319 1.6117648e-38
0.032414377 -0.13324542 0.010490319 1.3076634e-38
0.034302898 -0.13324542 0.010490319 1.1327804e-38
0.044225901 -0.13505147 0.0035538878 8.6663864e-39
0.045634031 -0.13324542 0.010490319 8.0217359e-39
0.047522552 -0.13324542 0.010490319 7.6529505e-39
-0.039766841 -0.14900111 -0.042412855 2.3509876e-38
-0.037761591 -0.14797734 -0.038507201 2.3048905e-38
-0.035787165 -0.14797734 -0.038507201 2.3417691e-38
-0.033794355 -0.14614578 -0.031519748 2.3509527e-38
-0.031832173 -0.14614578 -0.031519748 2.3509527e-38
-0.02987357 -0.14507706 -0.027442673 2.3326206e-38
-0.02792629 -0.14430468 -0.024496058 2.3234372e-38
-0.02600736 -0.14245488 -0.017438987 2.2498973e-38
-0.024069868 -0.14245488 -0.017438987 2.2314589e-38
-0.022163745 -0.14141284 -0.013463596 2.2867037e-38
-0.020233223 -0.14141284 -0.013463596 2.341805e-38
-0.018382896 -0.13956837 -0.0064270291 2.3506646e-38
-0.016517501 -0.13851611 -0.0024126563 1.8524106e-38
-0.014754022 -0.13591899 0.0074954238 1.9071145e-38
-0.012910133 -0.13513394 0.010490319 2.1003285e-38
-0.011095351 -0.13408406 0.014495632 1.9802574e-38
-0.0092138518 -0.13408406 0.014495632 2.0816013e-38
-0.0073323529 -0.13408406 0.014495632 2.2752857e-38
-0.0053560473 -0.13513394 0.010490319 2.350268e-38
-0.0034675263 -0.13513394 0.010490319 2.3033796e-38
-0.0015790053 -0.13513394 0.010490319 2.091077e-38
0.00019364245 -0.13408406 0.014495632 2.0626598e-38
0.0020751413 -0.13408406 0.014495632 2.1086486e-38
0.0039566401 -0.13408406 0.014495632 1.9339812e-38
0.005838139 -0.13408406 0.014495632 1.823815e-38
0.0076093096 -0.13327946 0.017565152 1.7597468e-38
0.0094854254 -0.13327946 0.017565152 2.0273305e-38
0.011361541 -0.13327946 0.017565152 2.2024666e-38
0.013364134 -0.13408406 0.014495632 1.9903088e-38
0.015245633 -0.13408406 0.014495632 1.9160844e-38
0.017127132 -0.13408406 0.014495632 1.8512951e-38
0.019008631 -0.13408406 0.014495632 1.7679952e-38
0.02089013 -0.13408406 0.014495632 1.7679589e-38
0.022771629 -0.13408406 0.014495632 1.7956894e-38
0.024653127 -0.13408406 0.014495632 1.7036377e-38
0.026534626 -0.13408406 0.014495632 1.6762667e-38
0.028416125 -0.13408406 0.014495632 1.8054482e-38
0.030525858 -0.13513394 0.010490319 1.7499864e-38
0.032414377 -0.13513394 0.010490319 1.4090423e-38
0.034302898 -0.13513394 0.010490319 1.2063927e-38
-0.037761591 -0.14995177 -0.038507201 2.3232933e-38
-0.035773989 -0.14915876 -0.035501935 2.3509527e-38
-0.033794355 -0.14810793 -0.031519748 2.3509527e-38
-0.031828605 -0.1470321 -0.027442673 2.3325497e-38
-0.029876154 -0.14625455 -0.024496058 2.2496085e-38
-0.02793688 -0.1451921 -0.020469764 2.2221294e-38
-0.02600736 -0.14439236 -0.017438987 2.2037995e-38
-0.024094265 -0.14334334 -0.013463596 2.2775202e-38
-0.022194885 -0.14230187 -0.0095168147 2.2867037e-38
-0.020271283 -0.14230187 -0.0095168147 2.2957079e-38
-0.018428646 -0.14042725 -0.0024126563 2.1662009e-38
-0.016556069 -0.13965334 0.00052024983 1.7968049e-38
-0.014798654 -0.13702248 0.010490319 1.8975701e-38
-0.012910133 -0.13702248 0.010490319 2.0537978e-38
-0.011095351 -0.13596557 0.014495632 1.9336913e-38
-0.0092138518 -0.13596557 0.014495632 1.9613864e-38
-0.0073323529 -0.13596557 0.014495632 2.3489699e-38
-0.0053560473 -0.13702248 0.010490319 2.3504119e-38
-0.0034675263 -0.13702248 0.010490319 2.321819e-38
-0.0016878564 -0.13596557 0.014495632 1.9436363e-38
0.00019364245 -0.13596557 0.014495632 2.118049e-38
0.0019809585 -0.13515557 0.017565152 2.11794e-38
0.0038570743 -0.13515557 0.017565152 1.9708594e-38
0.0057331938 -0.13515557 0.017565152 1.8330346e-38
0.0075036604 -0.13437997 0.020504495 1.7228686e-38
0.0093746241 -0.13437997 0.020504495 2.3316484e-38
0.011245584 -0.13437997 0.020504495 2.3507002e-38
0.013116548 -0.13437997 0.020504495 2.3506643e-38
0.014987512 -0.13437997 0.020504495 2.1007639e-38
0.016989892 -0.13515557 0.017565152 2.0544857e-38
0.018866012 -0.13515557 0.017565152 1.9158683e-38
0.020742128 -0.13515557 0.017565152 1.8605509e-38
0.022618243 -0.13515557 0.017565152 1.9067206e-38
0.024494359 -0.13515557 0.017565152 1.7685711e-38
0.026370479 -0.13515557 0.017565152 1.5752119e-38
0.028246595 -0.13515557 0.017565152 1.5936506e-38
0.030525858 -0.13702248 0.010490319 1.7132879e-38
0.032414377 -0.13702248 0.010490319 1.4828706e-38
0.034302898 -0.13702248 0.010490319 1.3170993e-38
-0.031828605 -0.14898713 -0.027442673 2.3048189e-38
-0.029876154 -0.14820443 -0.024496058 2.1942549e-38
-0.02793688 -0.14713491 -0.020469764 2.1574126e-38
-0.026024785 -0.14527388 -0.013463596 2.2036914e-38
-0.024118485 -0.14422549 -0.0095168147 2.2958873e-38
-0.022219263 -0.14340474 -0.0064270291 2.2590454e-38
-0.020301079 -0.14340474 -0.0064270291 2.0097931e-38
-0.018462073 -0.14155935 0.00052024983 1.8248247e-38
-0.016647793 -0.13970654 0.0074954238 1.5200373e-38
-0.014798654 -0.13891099 0.010490319 1.6944512e-38
-0.012976848 -0.13784705 0.014495632 1.9151798e-38
-0.011095351 -0.13784705 0.014495632 1.9518419e-38
-0.0092757419 -0.13703169 0.017565152 1.9057808e-38
-0.0073996261 -0.13703169 0.017565152 2.3490416e-38
-0.0054508541 -0.13784705 0.014495632 2.3502317e-38
-0.0035693552 -0.13784705 0.014495632 2.3495134e-38
-0.0016878564 -0.13784705 0.014495632 1.9344886e-38
0.00010484084 -0.13703169 0.017565152 1.9615325e-38
0.0019809585 -0.13703169 0.017565152 1.952204e-38
0.0038570743 -0.13703169 0.017565152 1.8880995e-38
0.0056326967 -0.13625093 0.020504495 1.8516899e-38
0.0075036604 -0.13625093 0.020504495 1.7968414e-38
0.0093746241 -0.13625093 0.020504495 2.3508079e-38
0.011245584 -0.13625093 0.020504495 2.3507362e-38
0.013116548 -0.13625093 0.020504495 2.3505205e-38
0.014987512 -0.13625093 0.020504495 2.3505926e-38
0.016858475 -0.13625093 0.020504495 2.3506644e-38
0.018729439 -0.13625093 0.020504495 2.3504844e-38
0.020600403 -0.13625093 0.020504495 2.3504123e-38
0.022471366 -0.13625093 0.020504495 2.3505923e-38
0.024342326 -0.13625093 0.020504495 2.2576762e-38
0.02621329 -0.13625093 0.020504495 1.7231218e-38
0.028246595 -0.13703169 0.017565152 1.4557176e-38
0.031998828 -0.13703169 0.017565152 1.427769e-38
-0.029879684 -0.14907773 -0.020469764 2.175636e-38
-0.02794485 -0.14826734 -0.017438987 2.194147e-38
-0.026042085 -0.14614908 -0.0095168147 2.1297907e-38
-0.024137445 -0.14532293 -0.0064270291 2.2865958e-38
-0.022219263 -0.14532293 -0.0064270291 2.3509886e-38
-0.020339791 -0.14424954 -0.0024126563 1.5854764e-38
-0.018496646 -0.1426542 0.0035538878 1.5664244e-38
-0.016687177 -0.14079951 0.010490319 1.7041401e-38
-0.014858346 -0.13972856 0.014495632 1.7495162e-38
-0.012976848 -0.13972856 0.014495632 1.8412071e-38
-0.01115186 -0.13890781 0.017565152 1.8502465e-38
-0.0092757419 -0.13890781 0.017565152 1.9055647e-38
-0.0073996261 -0.13890781 0.017565152 2.0995732e-38
-0.0054508541 -0.13972856 0.014495632 2.2936174e-38
-0.0035693552 -0.13972856 0.014495632 2.1743049e-38
-0.001771275 -0.13890781 0.017565152 1.9899133e-38
0.00010484084 -0.13890781 0.017565152 1.9710401e-38
0.0019809585 -0.13890781 0.017565152 1.8696601e-38
0.003761733 -0.13812189 0.020504495 1.8331785e-38
0.0056326967 -0.13812189 0.020504495 1.8612699e-38
0.0075036604 -0.13812189 0.020504495 1.8340079e-38
0.0092222001 -0.13704078 0.024547836 2.3044943e-38
0.011086075 -0.13704078 0.024547836 2.3508807e-38
0.012949949 -0.13704078 0.024547836 2.3507726e-38
0.014987512 -0.13812189 0.020504495 2.3507007e-38
0.016677698 -0.13704078 0.024547836 2.3508086e-38
0.018541573 -0.13704078 0.024547836 2.3508085e-38
0.020405447 -0.13704078 0.024547836 2.3507006e-38
0.022269318 -0.13704078 0.024547836 2.3508085e-38
0.024133192 -0.13704078 0.024547836 2.3508085e-38
0.02621329 -0.13812189 0.020504495 2.1108478e-38
-0.026042085 -0.14807267 -0.0095168147 2.350952e-38
-0.024137445 -0.1472411 -0.0064270291 2.3509521e-38
-0.022219263 -0.1472411 -0.0064270291 2.350736e-38
-0.020339791 -0.14616071 -0.0024126563 1.4191994e-38
-0.018496646 -0.14455487 0.0035538878 1.4463171e-38
-0.016687177 -0.14268802 0.010490319 1.6393508e-38
-0.014904093 -0.14078392 0.017565152 1.8692265e-38
-0.013027977 -0.14078392 0.017565152 1.7580871e-38
-0.01115186 -0.14078392 0.017565152 1.8224799e-38
-0.0092757419 -0.14078392 0.017565152 2.0346026e-38
-0.0073996261 -0.14078392 0.017565152 1.9796463e-38
-0.0055235084 -0.14078392 0.017565152 1.804872e-38
-0.0036473926 -0.14078392 0.017565152 2.0081358e-38
-0.001771275 -0.14078392 0.017565152 2.3498717e-38
1.9805506e-05 -0.13999285 0.020504495 2.3505543e-38
0.0018907692 -0.13999285 0.020504495 2.2756811e-38
0.003761733 -0.13999285 0.020504495 2.1561516e-38
0.0056326967 -0.13999285 0.020504495 2.3505193e-38
0.0073583294 -0.13890465 0.024547836 2.3507721e-38
0.0092222001 -0.13890465 0.024547836 2.3509165e-38
0.010967234 -0.13809387 0.027560255 2.3509886e-38
0.01282583 -0.13809387 0.027560255 2.3417691e-38
0.014813824 -0.13890465 0.024547836 2.3325497e-38
0.016543014 -0.13809387 0.027560255 2.3509527e-38
0.018262429 -0.13728772 0.030555626 2.3509165e-38
0.019972159 -0.13648613 0.033534072 2.3323334e-38
0.021820279 -0.13648613 0.033534072 2.3415532e-38
0.023668395 -0.13648613 0.033534072 2.3509527e-38
0.025516512 -0.13648613 0.033534072 2.3509527e-38
0.030650085 -0.13460387 0.040527724 1.3085629e-38
-0.026042085 -0.1499963 -0.0095168147 2.3508438e-38
-0.024137445 -0.1491593 -0.0064270291 2.3508435e-38
-0.022219263 -0.1491593 -0.0064270291 2.3508071e-38
-0.020339791 -0.14807184 -0.0024126563 1.3635569e-38
-0.018541567 -0.14538784 0.0074954238 1.4644314e-38
-0.016687177 -0.14457656 0.010490319 1.7958667e-38
-0.014904093 -0.14266007 0.017565152 1.7952902e-38
-0.013027977 -0.14266007 0.017565152 1.7580873e-38
-0.01115186 -0.14266007 0.017565152 1.831664e-38
-0.0092757419 -0.14266007 0.017565152 1.9608821e-38
-0.0073996261 -0.14266007 0.017565152 1.9058535e-38
-0.0055235084 -0.14266007 0.017565152 1.7771044e-38
-0.0036473926 -0.14266007 0.017565152 1.9157946e-38
-0.0018511564 -0.14186381 0.020504495 2.2386598e-38
1.9805506e-05 -0.14186381 0.020504495 2.3504821e-38
0.0018907692 -0.14186381 0.020504495 2.1654065e-38
0.003761733 -0.14186381 0.020504495 2.0273657e-38
0.0054944549 -0.14076851 0.024547836 2.3506273e-38
0.0072500501 -0.13995247 0.027560255 2.3509163e-38
0.0091086421 -0.13995247 0.027560255 2.3325497e-38
0.010849068 -0.13914107 0.030555626 2.2497539e-38
0.012702407 -0.13914107 0.030555626 2.2958873e-38
0.01455575 -0.13914107 0.030555626 2.2590813e-38
0.01640909 -0.13914107 0.030555626 2.3142544e-38
0.018124042 -0.13833423 0.033534072 2.3234379e-38
0.019776663 -0.13723589 0.037588619 2.3234379e-38
0.021617671 -0.13723589 0.037588619 2.3050349e-38
0.02345868 -0.13723589 0.037588619 2.3234379e-38
0.025142515 -0.13643973 0.040527724 2.3234379e-38
0.026978372 -0.13643973 0.040527724 2.3509883e-38
0.028814228 -0.13643973 0.040527724 2.3509866e-38
0.032302618 -0.13561879 0.043558262 1.2721896e-38
-0.022250935 -0.14998297 -0.0024126563 2.3504101e-38
-0.020368073 -0.14918335 0.00052024983 1.3078428e-38
-0.018541567 -0.1472816 0.0074954238 1.3258852e-38
-0.016687177 -0.14646508 0.010490319 1.675796e-38
-0.014904093 -0.14453618 0.017565152 1.6846554e-38
-0.013027977 -0.14453618 0.017565152 1.7858185e-38
-0.01115186 -0.14453618 0.017565152 1.8318085e-38
-0.0092757419 -0.14453618 0.017565152 1.8134772e-38
-0.0073996261 -0.14453618 0.017565152 1.8597554e-38
-0.0055235084 -0.14453618 0.017565152 1.9153251e-38
-0.0037221201 -0.14373477 0.020504495 1.8602599e-38
-0.0018511564 -0.14373477 0.020504495 1.7038874e-38
-9.7166747e-05 -0.14263238 0.024547836 1.7227231e-38
0.0017667059 -0.14263238 0.024547836 1.9535004e-38
0.0036305804 -0.14263238 0.024547836 2.1381445e-38
0.005391458 -0.14181106 0.027560255 2.3508794e-38
0.0072500501 -0.14181106 0.027560255 2.3509165e-38
0.0089957286 -0.14099441 0.030555626 2.341805e-38
0.010731569 -0.14018236 0.033534072 2.2590813e-38
0.012579689 -0.14018236 0.033534072 2.2591531e-38
0.014427805 -0.14018236 0.033534072 2.2775202e-38
0.016275922 -0.14018236 0.033534072 2.2499695e-38
0.017935654 -0.1390769 0.037588619 2.2683366e-38
0.019634949 -0.13827558 0.040527724 2.2958873e-38
0.021470806 -0.13827558 0.040527724 2.2958873e-38
0.023306658 -0.13827558 0.040527724 2.3142544e-38
0.025142515 -0.13827558 0.040527724 2.2774125e-38
0.026978372 -0.13827558 0.040527724 2.2497173e-38
0.028641539 -0.13744931 0.043558262 2.3509869e-38
0.030472079 -0.13744931 0.043558262 2.3509866e-38
0.034321792 -0.13827558 0.040527724 6.8242689e-39
-0.018541567 -0.14917539 0.0074954238 1.5560496e-38
-0.016687177 -0.14835359 0.010490319 1.7125301e-38
-0.014904093 -0.1464123 0.017565152 1.739973e-38
-0.013027977 -0.1464123 0.017565152 1.7490127e-38
-0.01115186 -0.1464123 0.017565152 1.7766714e-38
-0.0092757419 -0.1464123 0.017565152 1.8227692e-38
-0.0073996261 -0.1464123 0.017565152 1.8045098e-38
-0.0055235084 -0.1464123 0.017565152 1.7585196e-38
-0.0037221201 -0.14560573 0.020504495 1.7585912e-38
-0.0018511564 -0.14560573 0.020504495 1.7129255e-38
-9.7166747e-05 -0.14449625 0.024547836 1.5014526e-38
0.0017667059 -0.14449625 0.024547836 2.2025005e-38
0.003532866 -0.14366965 0.027560255 2.3506985e-38
0.005391458 -0.14366965 0.027560255 2.3508793e-38
0.0071423892 -0.14284773 0.030555626 2.3509521e-38
0.008883452 -0.14203046 0.033534072 2.341805e-38
0.010731569 -0.14203046 0.033534072 2.2958873e-38
0.012579689 -0.14203046 0.033534072 2.2499336e-38
0.014427805 -0.14203046 0.033534072 2.2775202e-38
0.016275922 -0.14203046 0.033534072 2.2499695e-38
0.017799092 -0.14011143 0.040527724 2.2130551e-38
0.019634949 -0.14011143 0.040527724 2.2683362e-38
0.021319369 -0.13927986 0.043558262 2.3142544e-38
0.023149909 -0.13927986 0.043558262 2.3234379e-38
0.024980454 -0.13927986 0.043558262 2.3234379e-38
0.026810994 -0.13927986 0.043558262 2.341805e-38
0.028641539 -0.13927986 0.043558262 2.3325483e-38
0.030472079 -0.13927986 0.043558262 2.3509873e-38
0.03248594 -0.14011143 0.040527724 2.3418045e-38
0.034321792 -0.14011143 0.040527724 1.1526615e-38
0.036345743 -0.14091791 0.037588619 7.6551226e-39
0.038186751 -0.14091791 0.037588619 7.4710942e-39
-0.014904093 -0.14828841 0.017565152 1.7214982e-38
-0.013027977 -0.14828841 0.017565152 1.7030594e-38
-0.01115186 -0.14828841 0.017565152 1.7399379e-38
-0.0092757419 -0.14828841 0.017565152 1.8136942e-38
-0.0073996261 -0.14828841 0.017565152 1.8229489e-38
-0.0055235084 -0.14828841 0.017565152 1.7769218e-38
-0.0037221201 -0.14747669 0.020504495 1.7768848e-38
-0.0018511564 -0.14747669 0.020504495 1.740403e-38
-9.7166747e-05 -0.14636014 0.024547836 1.6673323e-38
0.001674274 -0.14552824 0.027560255 2.3501933e-38
0.003532866 -0.14552824 0.027560255 2.3507344e-38
0.0052890461 -0.14470108 0.030555626 2.3506992e-38
0.0071423892 -0.14470108 0.030555626 2.3046022e-38
0.008883452 -0.14387859 0.033534072 2.3141103e-38
0.010731569 -0.14387859 0.033534072 2.3234379e-38
0.012579689 -0.14387859 0.033534072 2.2958873e-38
0.014253637 -0.14275892 0.037588619 2.2775202e-38
0.015963236 -0.14194728 0.040527724 2.2775202e-38
0.017658284 -0.14111041 0.043558262 2.2958873e-38
0.019488825 -0.14111041 0.043558262 2.3142541e-38
0.021319369 -0.14111041 0.043558262 2.3142539e-38
0.023149909 -0.14111041 0.043558262 2.3325494e-38
0.024980454 -0.14111041 0.043558262 2.3509886e-38
0.026810994 -0.14111041 0.043558262 2.3509527e-38
0.028641539 -0.14111041 0.043558262 2.3509879e-38
0.030472079 -0.14111041 0.043558262 2.2772672e-38
0.03248594 -0.14194728 0.040527724 2.341805e-38
0.034504734 -0.14275892 0.037588619 1.8256541e-38
0.036345743 -0.14275892 0.037588619 7.9313563e-39
0.038186751 -0.14275892 0.037588619 8.3008605e-39
-0.0037221201 -0.14934768 0.020504495 1.8413126e-38
-0.0018511564 -0.14934768 0.020504495 1.6665015e-38
-9.7166747e-05 -0.14822401 0.024547836 1.5566251e-38
0.001674274 -0.14738683 0.027560255 2.3502291e-38
0.0034357067 -0.14655443 0.030555626 2.3507702e-38
0.0052890461 -0.14655443 0.030555626 2.3508431e-38
0.0070353318 -0.1457267 0.033534072 2.35088e-38
0.008883452 -0.1457267 0.033534072 2.3509524e-38
0.010571616 -0.14459993 0.037588619 2.3417691e-38
0.012412624 -0.14459993 0.037588619 2.2958154e-38
0.014127379 -0.14378314 0.040527724 2.2590087e-38
0.015827743 -0.14294095 0.043558262 2.3142541e-38
0.017658284 -0.14294095 0.043558262 2.3234374e-38
0.019488825 -0.14294095 0.043558262 2.3418045e-38
0.021319369 -0.14294095 0.043558262 2.350952e-38
0.023149909 -0.14294095 0.043558262 2.3508441e-38
0.024980454 -0.14294095 0.043558262 2.3507726e-38
0.026810994 -0.14294095 0.043558262 2.3507726e-38
0.028641539 -0.14294095 0.043558262 2.3509521e-38
0.030472079 -0.14294095 0.043558262 2.3325131e-38
0.03248594 -0.14378314 0.040527724 2.3509527e-38
0.034504734 -0.14459993 0.037588619 2.194365e-38
0.036345743 -0.14459993 0.037588619 1.3001761e-38
0.038846113 -0.14738683 0.027560255 7.7473322e-39
0.040704705 -0.14738683 0.027560255 7.5622193e-39
0.001674274 -0.14924543 0.027560255 2.3505528e-38
0.0034357067 -0.14840777 0.030555626 2.3508418e-38
0.0051872153 -0.14757483 0.033534072 2.3507346e-38
0.0070353318 -0.14757483 0.033534072 2.3506999e-38
0.0087306071 -0.14644094 0.037588619 2.3507728e-38
0.01045567 -0.14561899 0.040527724 2.3509527e-38
0.012291526 -0.14561899 0.040527724 2.341805e-38
0.014127379 -0.14561899 0.040527724 2.341805e-38
0.015827743 -0.1447715 0.043558262 2.341805e-38
0.017658284 -0.1447715 0.043558262 2.332621e-38
0.019488825 -0.1447715 0.043558262 2.3049261e-38
0.021319369 -0.1447715 0.043558262 2.3325129e-38
0.023149909 -0.1447715 0.043558262 2.3509879e-38
0.024980454 -0.1447715 0.043558262 2.350952e-38
0.026810994 -0.1447715 0.043558262 2.3509521e-38
0.028641539 -0.1447715 0.043558262 2.3508804e-38
0.030650085 -0.14561899 0.040527724 2.3509168e-38
0.03248594 -0.14561899 0.040527724 2.3325138e-38
0.034504734 -0.14644094 0.037588619 2.2864526e-38
0.036345743 -0.14644094 0.037588619 2.0192299e-38
0.038649172 -0.14840777 0.030555626 5.072217e-39
0.040502511 -0.14840777 0.030555626 5.9012574e-39
0.0051872153 -0.14942293 0.033534072 2.3509149e-38
0.0070353318 -0.14942293 0.033534072 2.3509163e-38
0.0087306071 -0.14828195 0.037588619 2.3323703e-38
0.01045567 -0.14745484 0.040527724 2.3231868e-38
0.012291526 -0.14745484 0.040527724 2.3508809e-38
0.013997199 -0.14660202 0.043558262 2.3508809e-38
0.015827743 -0.14660202 0.043558262 2.3509168e-38
0.017658284 -0.14660202 0.043558262 2.3508809e-38
0.019488825 -0.14660202 0.043558262 2.3509527e-38
0.021319369 -0.14660202 0.043558262 2.3509883e-38
0.023149909 -0.14660202 0.043558262 2.3418043e-38
0.024980454 -0.14660202 0.043558262 2.3142532e-38
0.026810994 -0.14660202 0.043558262 2.3142535e-38
0.028641539 -0.14660202 0.043558262 2.2772321e-38
0.030650085 -0.14745484 0.040527724 2.3509527e-38
0.03248594 -0.14745484 0.040527724 2.3509527e-38
0.034504734 -0.14828195 0.037588619 2.3509527e-38
0.036345743 -0.14828195 0.037588619 2.1296839e-38
0.038186751 -0.14828195 0.037588619 5.5313861e-39
0.04002776 -0.14828195 0.037588619 6.0841983e-39
0.01045567 -0.14929073 0.040527724 2.3508809e-38
0.012166658 -0.14843257 0.043558262 2.3508809e-38
0.013997199 -0.14843257 0.043558262 2.3508809e-38
0.015693026 -0.14757936 0.046571396 2.3508809e-38
0.017518284 -0.14757936 0.046571396 2.3508809e-38
0.019343542 -0.14757936 0.046571396 2.3509527e-38
0.021168804 -0.14757936 0.046571396 2.3509886e-38
0.023149909 -0.14843257 0.043558262 2.3326208e-38
0.024980454 -0.14843257 0.043558262 2.30507e-38
0.026810994 -0.14843257 0.043558262 2.3142538e-38
0.028641539 -0.14843257 0.043558262 2.341805e-38
0.030650085 -0.14929073 0.040527724 2.3509527e-38
0.03248594 -0.14929073 0.040527724 2.2955999e-38
0.034321792 -0.14929073 0.040527724 2.3509168e-38
0.036157653 -0.14929073 0.040527724 2.1848569e-38
0.037993506 -0.14929073 0.040527724 5.3459074e-39
0.039829358 -0.14929073 0.040527724 6.1749464e-39
0.015693026 -0.14940463 0.046571396 2.3509527e-38
0.017518284 -0.14940463 0.046571396 2.3509527e-38
0.019343542 -0.14940463 0.046571396 2.3509168e-38
0.021168804 -0.14940463 0.046571396 2.3508807e-38
