# .PCD v0.7 - Point Cloud Data file format
VERSION 0.7
FIELDS x y z rgb
SIZE 4 4 4 4
TYPE F F F F
COUNT 1 1 1 1
WIDTH 634
HEIGHT 1
VIEWPOINT 0 0 0 1 0 0 0
POINTS 634
DATA ascii
-0.013770426 -0.11825104 -0.021273566 1.9823128e-38
-0.011782028 -0.11825104 -0.021273566 2.2587564e-38
-0.019680016 -0.12190129 -0.028320624 1.3737851e-38
-0.017709021 -0.12117358 -0.025234772 1.9178112e-38
-0.015758824 -0.12023942 -0.021273566 2.3418038e-38
-0.013770426 -0.12023942 -0.021273566 2.3141455e-38
-0.011782028 -0.12023942 -0.021273566 2.350988e-38
-0.0097276513 -0.12117358 -0.025234772 2.3509527e-38
-0.0077323075 -0.12117358 -0.025234772 2.2955999e-38
-0.0055938754 -0.1228471 -0.032331303 2.314075e-38
-0.0035004336 -0.12376876 -0.036239579 2.3417691e-38
-0.0014857966 -0.12376876 -0.036239579 2.323402e-38
0.00052884221 -0.12376876 -0.036239579 2.2220243e-38
-0.021680769 -0.12390204 -0.028320624 2.350951e-38
-0.019680016 -0.12390204 -0.028320624 2.3509873e-38
-0.017709021 -0.12316893 -0.025234772 2.3048893e-38
-0.015758824 -0.12222783 -0.021273566 2.2587918e-38
-0.013770426 -0.12222783 -0.021273566 2.3509879e-38
-0.011782028 -0.12222783 -0.021273566 2.350988e-38
-0.0097276513 -0.12316893 -0.025234772 2.3233299e-38
-0.0077323075 -0.12316893 -0.025234772 2.3233302e-38
-0.005674744 -0.12390204 -0.028320624 2.341805e-38
-0.0035860911 -0.12485488 -0.032331303 2.2957796e-38
-0.0015783049 -0.12485488 -0.032331303 2.2496467e-38
0.00042947941 -0.12485488 -0.032331303 2.3142544e-38
0.0024372656 -0.12485488 -0.032331303 2.2958873e-38
-0.023663942 -0.12686269 -0.032331303 2.3507722e-38
-0.021680769 -0.12590279 -0.028320624 2.3508802e-38
-0.019680016 -0.12590279 -0.028320624 2.3507362e-38
-0.017709021 -0.12516426 -0.025234772 2.3509161e-38
-0.015713679 -0.12516426 -0.025234772 2.350952e-38
-0.013718336 -0.12516426 -0.025234772 2.3232211e-38
-0.011722993 -0.12516426 -0.025234772 2.350988e-38
-0.0097276513 -0.12516426 -0.025234772 2.3509883e-38
-0.0077323075 -0.12516426 -0.025234772 2.341805e-38
-0.005674744 -0.12590279 -0.028320624 2.3142542e-38
-0.0036739912 -0.12590279 -0.028320624 2.3142544e-38
-0.0016732384 -0.12590279 -0.028320624 2.3050708e-38
0.00032751448 -0.12590279 -0.028320624 2.3234379e-38
0.0023282692 -0.12590279 -0.028320624 2.3234379e-38
0.004329022 -0.12590279 -0.028320624 2.3142544e-38
-0.027676087 -0.12981267 -0.036239579 2.3508092e-38
-0.025671728 -0.12887047 -0.032331303 2.3508448e-38
-0.023663942 -0.12887047 -0.032331303 2.3504488e-38
-0.021656157 -0.12887047 -0.032331303 2.3508089e-38
-0.019680016 -0.12790357 -0.028320624 2.3507729e-38
-0.017679263 -0.12790357 -0.028320624 2.3506644e-38
-0.015713679 -0.12715961 -0.025234772 2.3508804e-38
-0.013718336 -0.12715961 -0.025234772 2.3509521e-38
-0.011722993 -0.12715961 -0.025234772 2.350952e-38
-0.0097276513 -0.12715961 -0.025234772 2.350988e-38
-0.0077323075 -0.12715961 -0.025234772 2.3234374e-38
-0.0057369657 -0.12715961 -0.025234772 2.3234376e-38
-0.003741622 -0.12715961 -0.025234772 2.3142541e-38
-0.0017462801 -0.12715961 -0.025234772 2.3142541e-38
0.00032751448 -0.12790357 -0.028320624 2.3234379e-38
0.0023282692 -0.12790357 -0.028320624 2.341805e-38
0.0038077533 -0.12355967 -0.010302378 2.3509886e-38
0.0055296309 -0.12161671 -0.0022431146 2.3141106e-38
0.0074846596 -0.12161671 -0.0022431146 2.341805e-38
-0.029694289 -0.13281487 -0.040306285 2.3509168e-38
-0.027676087 -0.13182731 -0.036239579 2.3507374e-38
-0.025661448 -0.13182731 -0.036239579 2.3505575e-38
-0.023646811 -0.13182731 -0.036239579 2.3505937e-38
-0.021656157 -0.13087825 -0.032331303 2.3507374e-38
-0.019648373 -0.13087825 -0.032331303 2.3505934e-38
-0.017679263 -0.12990431 -0.028320624 2.350773e-38
-0.015713679 -0.12915494 -0.025234772 2.3508089e-38
-0.013718336 -0.12915494 -0.025234772 2.3508804e-38
-0.011722993 -0.12915494 -0.025234772 2.3508441e-38
-0.0097276513 -0.12915494 -0.025234772 2.3325846e-38
-0.0077323075 -0.12915494 -0.025234772 2.3234372e-38
-0.0057369657 -0.12915494 -0.025234772 2.3142537e-38
-0.003741622 -0.12915494 -0.025234772 2.3142537e-38
-0.0017462801 -0.12915494 -0.025234772 2.3234372e-38
0.00024906173 -0.12915494 -0.025234772 2.3418043e-38
0.0019202661 -0.1262586 -0.013307644 2.3509879e-38
0.0038077533 -0.12552883 -0.010302378 2.3509161e-38
0.0054392181 -0.12285618 0.00070350058 2.3231854e-38
0.0073890835 -0.12285618 0.00070350058 2.350988e-38
0.012557533 -0.11846836 0.018772529 2.2958867e-38
0.014475714 -0.11846836 0.018772529 2.295887e-38
0.0163939 -0.11846836 0.018772529 2.2867037e-38
-0.029694289 -0.13483663 -0.040306285 2.3509165e-38
-0.027672522 -0.13483663 -0.040306285 2.3508092e-38
-0.025661448 -0.13384195 -0.036239579 2.2396348e-38
-0.023663942 -0.13288604 -0.032331303 2.2856244e-38
-0.021656157 -0.13288604 -0.032331303 2.1564427e-38
-0.019680016 -0.13190506 -0.028320624 1.6954645e-38
-0.017679263 -0.13190506 -0.028320624 1.5111809e-38
-0.015713679 -0.13115029 -0.025234772 1.4099094e-38
-0.013718336 -0.13115029 -0.025234772 1.2718675e-38
-0.011782028 -0.13018142 -0.021273566 2.3508081e-38
-0.0097936317 -0.13018142 -0.021273566 2.323365e-38
-0.0078052338 -0.13018142 -0.021273566 2.3234372e-38
-0.0058168359 -0.13018142 -0.021273566 2.3142537e-38
-0.0039174259 -0.12918831 -0.017213298 2.3142537e-38
-0.0019361489 -0.12918831 -0.017213298 2.3234369e-38
-5.4165721e-05 -0.12823303 -0.013307644 2.3509879e-38
0.0017303694 -0.12652399 -0.0063201915 2.3509876e-38
0.0036925487 -0.12652399 -0.0063201915 2.3509517e-38
0.0053156763 -0.12382124 0.0047297943 2.3508797e-38
0.0072584823 -0.12382124 0.0047297943 2.3416603e-38
0.0090976655 -0.12307997 0.0077605713 2.350988e-38
0.010750405 -0.12114228 0.015682744 2.350988e-38
0.012557533 -0.12038656 0.018772529 2.2497529e-38
0.014475714 -0.12038656 0.018772529 2.2129109e-38
0.0163939 -0.12038656 0.018772529 2.2682286e-38
0.018312082 -0.12038656 0.018772529 2.268193e-38
0.020230263 -0.12038656 0.018772529 2.3142544e-38
0.021961927 -0.11940466 0.022786902 2.2957796e-38
0.023873072 -0.11940466 0.022786902 2.2864526e-38
-0.033860166 -0.14373399 -0.068216875 2.3509879e-38
-0.031789463 -0.14373399 -0.068216875 2.3509876e-38
-0.029690724 -0.13585658 -0.036239579 2.3509517e-38
-0.027676087 -0.13585658 -0.036239579 2.3507005e-38
-0.025661448 -0.13585658 -0.036239579 1.9998177e-38
-0.023663942 -0.13489382 -0.032331303 2.1195281e-38
-0.021680769 -0.13390581 -0.028320624 2.1286398e-38
-0.019680016 -0.13390581 -0.028320624 1.6399669e-38
-0.017709021 -0.13314565 -0.025234772 1.3173538e-38
-0.015713679 -0.13314565 -0.025234772 1.4558991e-38
-0.013770426 -0.13216983 -0.021273566 1.6681648e-38
-0.011782028 -0.13216983 -0.021273566 2.3507722e-38
-0.0098612607 -0.1311696 -0.017213298 2.3233652e-38
-0.0078799836 -0.1311696 -0.017213298 2.3234374e-38
-0.0059774555 -0.13020746 -0.013307644 2.3142538e-38
-0.0040688906 -0.12946714 -0.010302378 2.3142538e-38
-0.0020997301 -0.12946714 -0.010302378 2.3418043e-38
-0.00023180991 -0.12848614 -0.0063201915 2.350988e-38
0.0015394893 -0.12675591 0.00070350058 2.3509879e-38
0.0033728741 -0.12576406 0.0047297943 2.3509876e-38
0.0052226819 -0.12501745 0.0077605713 2.3509876e-38
0.0071601756 -0.12501745 0.0077605713 2.3325127e-38
0.0089617446 -0.12403814 0.011735963 2.3049261e-38
0.010750405 -0.12306587 0.015682744 2.341805e-38
0.012557533 -0.12230472 0.018772529 2.341805e-38
0.014475714 -0.12230472 0.018772529 2.3234379e-38
0.0163939 -0.12230472 0.018772529 2.341805e-38
0.018139638 -0.12131582 0.022786902 2.3325856e-38
0.020050783 -0.12131582 0.022786902 2.3509527e-38
0.021961927 -0.12131582 0.022786902 2.3416974e-38
0.023873072 -0.12131582 0.022786902 2.3508809e-38
0.025784217 -0.12131582 0.022786902 2.3508451e-38
0.027695362 -0.12131582 0.022786902 2.3508092e-38
0.02982118 -0.12230472 0.018772529 2.3507733e-38
-0.048489425 -0.14780544 -0.076281264 1.0789418e-38
-0.046404578 -0.14780544 -0.076281264 2.2958873e-38
-0.044319734 -0.14780544 -0.076281264 2.2774843e-38
-0.04223489 -0.14780544 -0.076281264 2.2037641e-38
-0.040111031 -0.14680167 -0.07223542 2.3142544e-38
-0.038001575 -0.14580469 -0.068216875 2.3234376e-38
-0.035930872 -0.14580469 -0.068216875 2.3142174e-38
-0.033860166 -0.14580469 -0.068216875 2.3509873e-38
-0.031789463 -0.14580469 -0.068216875 2.2403521e-38
-0.029690724 -0.13787122 -0.036239579 1.4565454e-38
-0.027676087 -0.13787122 -0.036239579 1.5575655e-38
-0.025671728 -0.1369016 -0.032331303 1.7047192e-38
-0.023681521 -0.13590656 -0.028320624 2.2208709e-38
-0.021680769 -0.13590656 -0.028320624 2.303739e-38
-0.019704364 -0.13514097 -0.025234772 1.8242138e-38
-0.017709021 -0.13514097 -0.025234772 1.5108566e-38
-0.015758824 -0.13415821 -0.021273566 1.9627953e-38
-0.013770426 -0.13415821 -0.021273566 2.2949872e-38
-0.01184254 -0.13315089 -0.017213298 2.3507723e-38
-0.009976374 -0.1314363 -0.010302378 2.3417327e-38
-0.0080072135 -0.1314363 -0.010302378 2.3234376e-38
-0.006118346 -0.13044833 -0.0063201915 2.3142541e-38
-0.0041561667 -0.13044833 -0.0063201915 2.3234376e-38
-0.0022904929 -0.12943684 -0.0022431146 2.3418047e-38
-0.00041037425 -0.12870578 0.00070350058 2.3509883e-38
0.0014300682 -0.12770687 0.0047297943 2.3509521e-38
0.003285192 -0.12695493 0.0077605713 2.2771953e-38
0.0052226819 -0.12695493 0.0077605713 2.3509876e-38
0.0071601756 -0.12695493 0.0077605713 2.350988e-38
0.0089617446 -0.12596865 0.011735963 2.3418047e-38
0.010639351 -0.12422292 0.018772529 2.341805e-38
0.012557533 -0.12422292 0.018772529 2.341805e-38
0.014317349 -0.12322696 0.022786902 2.2957079e-38
0.016228493 -0.12322696 0.022786902 2.2956362e-38
0.018139638 -0.12322696 0.022786902 2.3509168e-38
0.020050783 -0.12322696 0.022786902 2.3508809e-38
0.021825653 -0.1224993 0.025719808 2.3506293e-38
0.023731656 -0.1224993 0.025719808 2.3508089e-38
0.025784217 -0.12322696 0.022786902 2.3506646e-38
0.027695362 -0.12322696 0.022786902 2.1841718e-38
0.02982118 -0.12422292 0.018772529 2.0641732e-38
0.031739365 -0.12422292 0.018772529 2.0548807e-38
0.035575729 -0.12422292 0.018772529 1.9994898e-38
-0.048489425 -0.14989029 -0.076281264 1.309503e-38
-0.046404578 -0.14989029 -0.076281264 2.2683366e-38
-0.044266533 -0.14887942 -0.07223542 2.2774843e-38
-0.042188782 -0.14887942 -0.07223542 2.2958873e-38
-0.040072281 -0.14787538 -0.068216875 2.2958514e-38
-0.038001575 -0.14787538 -0.068216875 2.3050703e-38
-0.035906378 -0.1468782 -0.064225629 2.2681193e-38
-0.033790298 -0.14389296 -0.05227752 2.350987e-38
-0.03172648 -0.14189209 -0.044269279 2.2864854e-38
-0.029690724 -0.13988586 -0.036239579 1.686962e-38
-0.027679512 -0.13890938 -0.032331303 1.2440277e-38
-0.025671728 -0.13890938 -0.032331303 1.7969139e-38
-0.023681521 -0.13790731 -0.028320624 2.3500159e-38
-0.021699706 -0.13713633 -0.025234772 2.3500524e-38
-0.019704364 -0.13713633 -0.025234772 2.0177881e-38
-0.01774722 -0.13614662 -0.021273566 1.7965549e-38
-0.015758824 -0.13614662 -0.021273566 2.3500168e-38
-0.013823818 -0.13513215 -0.017213298 2.3507728e-38
-0.011945536 -0.13340546 -0.010302378 2.3508446e-38
-0.009976374 -0.13340546 -0.010302378 2.3509527e-38
-0.0080805253 -0.13241051 -0.0063201915 2.3234379e-38
-0.006118346 -0.13241051 -0.0063201915 2.3142544e-38
-0.0042455234 -0.13139187 -0.0022431146 2.3234379e-38
-0.0023602396 -0.13065563 0.00070350058 2.3509886e-38
-0.00041037425 -0.13065563 0.00070350058 2.3509168e-38
0.0014300682 -0.12964968 0.0047297943 2.3509168e-38
0.003285192 -0.12889244 0.0077605713 2.350988e-38
0.0052226819 -0.12889244 0.0077605713 2.3234374e-38
0.0070312247 -0.12789918 0.011735963 2.3234379e-38
0.0088268071 -0.12691309 0.015682744 2.2773763e-38
0.010639351 -0.12614109 0.018772529 2.2496821e-38
0.012557533 -0.12614109 0.018772529 2.3049991e-38
0.014317349 -0.12513812 0.022786902 2.3417691e-38
0.016228493 -0.12513812 0.022786902 2.3509168e-38
0.018139638 -0.12513812 0.022786902 2.3414822e-38
0.020050783 -0.12513812 0.022786902 2.3508451e-38
0.021825653 -0.12440531 0.025719808 2.350737e-38
0.023731656 -0.12440531 0.025719808 2.3507365e-38
0.025784217 -0.12513812 0.022786902 2.3505195e-38
0.027695362 -0.12513812 0.022786902 2.1470042e-38
0.02982118 -0.12614109 0.018772529 1.8979315e-38
0.031739365 -0.12614109 0.018772529 1.805555e-38
0.033657547 -0.12614109 0.018772529 1.888206e-38
-0.040072281 -0.14994611 -0.068216875 2.2589371e-38
-0.037970085 -0.14894189 -0.064225629 2.3418047e-38
-0.035833057 -0.1459357 -0.05227752 2.3417679e-38
-0.033737823 -0.1429237 -0.040306285 1.7608628e-38
-0.031695083 -0.14091717 -0.032331303 1.5856907e-38
-0.029687298 -0.14091717 -0.032331303 1.9543293e-38
-0.027683029 -0.13990806 -0.028320624 2.3509149e-38
-0.025690392 -0.13913165 -0.025234772 2.3508075e-38
-0.023695048 -0.13913165 -0.025234772 2.3507716e-38
-0.021724015 -0.138135 -0.021273566 2.3504478e-38
-0.019735618 -0.138135 -0.021273566 2.1931393e-38
-0.017786374 -0.13711344 -0.017213298 1.8428322e-38
-0.015805095 -0.13711344 -0.017213298 2.3501244e-38
-0.013875177 -0.13613077 -0.013307644 2.3507726e-38
-0.011945536 -0.13537462 -0.010302378 2.3508448e-38
-0.010042705 -0.1343727 -0.0063201915 2.3509527e-38
-0.0080805253 -0.1343727 -0.0063201915 2.341805e-38
-0.0062005538 -0.13334687 -0.0022431146 2.3142544e-38
-0.0043101031 -0.13260551 0.00070350058 2.3325856e-38
-0.0023602396 -0.13260551 0.00070350058 2.3417333e-38
-0.00051273592 -0.13159247 0.0047297943 2.3509168e-38
0.0014300682 -0.13159247 0.0047297943 2.3509168e-38
0.003285192 -0.13082992 0.0077605713 2.3509886e-38
0.0052226819 -0.13082992 0.0077605713 2.2958151e-38
0.0070312247 -0.12982969 0.011735963 2.2683365e-38
0.0088268071 -0.12883668 0.015682744 2.2958873e-38
0.010639351 -0.12805928 0.018772529 2.2958873e-38
0.012406204 -0.12704925 0.022786902 2.3234379e-38
0.014317349 -0.12704925 0.022786902 2.3508809e-38
0.016228493 -0.12704925 0.022786902 2.350665e-38
0.018013649 -0.12631132 0.025719808 2.3507726e-38
0.019919652 -0.12631132 0.025719808 2.2947703e-38
0.021961927 -0.12704925 0.022786902 1.6953541e-38
0.023873072 -0.12704925 0.022786902 1.4094389e-38
0.025984813 -0.12805928 0.018772529 1.4921626e-38
0.027902998 -0.12805928 0.018772529 1.5564473e-38
0.02982118 -0.12805928 0.018772529 1.6392431e-38
0.031739365 -0.12805928 0.018772529 1.6943077e-38
0.033657547 -0.12805928 0.018772529 1.8232e-38
-0.037907738 -0.14900355 -0.056323484 2.3509524e-38
-0.035759594 -0.14494546 -0.040306285 2.3322609e-38
-0.033702869 -0.14292495 -0.032331303 1.58544e-38
-0.031695083 -0.14292495 -0.032331303 1.2903774e-38
-0.029683782 -0.14190884 -0.028320624 2.3506632e-38
-0.027685734 -0.14112701 -0.025234772 2.350987e-38
-0.025690392 -0.14112701 -0.025234772 2.3140365e-38
-0.023712412 -0.14012341 -0.021273566 2.350951e-38
-0.02174893 -0.13909473 -0.017213298 2.350879e-38
-0.019798469 -0.1381052 -0.013307644 2.1475085e-38
-0.017824039 -0.1381052 -0.013307644 2.0736804e-38
-0.015883859 -0.13734378 -0.010302378 2.341012e-38
-0.013967062 -0.13633488 -0.0063201915 2.3508082e-38
-0.012004884 -0.13633488 -0.0063201915 2.3508448e-38
-0.010042705 -0.13633488 -0.0063201915 2.3509168e-38
-0.0081555843 -0.1353019 -0.0022431146 2.3509527e-38
-0.0062599666 -0.13455538 0.00070350058 2.3509527e-38
-0.0043101031 -0.13455538 0.00070350058 2.341805e-38
-0.0024555419 -0.13353528 0.0047297943 2.341805e-38
-0.00051273592 -0.13353528 0.0047297943 2.3509527e-38
0.001347702 -0.13276742 0.0077605713 2.3509527e-38
0.003285192 -0.13276742 0.0077605713 2.3509168e-38
0.0052226819 -0.13276742 0.0077605713 2.3509527e-38
0.0070312247 -0.13176022 0.011735963 2.1853968e-38
0.0088268071 -0.13076027 0.015682744 2.2591531e-38
0.010495059 -0.12896039 0.022786902 2.2867037e-38
0.012406204 -0.12896039 0.022786902 2.2034753e-38
0.014317349 -0.12896039 0.022786902 2.3508079e-38
0.016228493 -0.12896039 0.022786902 2.350663e-38
0.018013649 -0.12821732 0.025719808 2.35005e-38
0.019919652 -0.12821732 0.025719808 2.1189114e-38
0.021961927 -0.12896039 0.022786902 1.6487487e-38
0.023873072 -0.12896039 0.022786902 1.4550657e-38
0.025984813 -0.12997745 0.018772529 1.5471177e-38
0.027902998 -0.12997745 0.018772529 1.7311137e-38
0.02982118 -0.12997745 0.018772529 1.8228421e-38
0.031739365 -0.12997745 0.018772529 1.8134421e-38
0.033657547 -0.12997745 0.018772529 1.8780855e-38
-0.035759594 -0.14696725 -0.040306285 1.8620269e-38
-0.033702869 -0.14493273 -0.032331303 1.6960029e-38
-0.031684533 -0.14390959 -0.028320624 1.9079805e-38
-0.029683782 -0.14390959 -0.028320624 2.3509156e-38
-0.027685734 -0.14312236 -0.025234772 2.3509876e-38
-0.025700809 -0.14211179 -0.021273566 2.286666e-38
-0.023730209 -0.14107598 -0.017213298 2.350987e-38
-0.021772899 -0.14007963 -0.013307644 2.3323317e-38
-0.019798469 -0.14007963 -0.013307644 2.092407e-38
-0.017824039 -0.14007963 -0.013307644 2.1476527e-38
-0.015883859 -0.13931294 -0.010302378 2.3505914e-38
-0.013967062 -0.13829704 -0.0063201915 2.3508081e-38
-0.012004884 -0.13829704 -0.0063201915 2.3508807e-38
-0.010110615 -0.13725694 -0.0022431146 2.3509168e-38
-0.008209832 -0.13650523 0.00070350058 2.3509527e-38
-0.0062599666 -0.13650523 0.00070350058 2.3509527e-38
-0.0043983459 -0.13547809 0.0047297943 2.341805e-38
-0.0024555419 -0.13547809 0.0047297943 2.341805e-38
-0.00058978982 -0.1347049 0.0077605713 2.3509886e-38
0.001347702 -0.1347049 0.0077605713 2.3509883e-38
0.003285192 -0.1347049 0.0077605713 2.2862361e-38
0.0051007047 -0.13369073 0.011735963 2.3509527e-38
0.0070312247 -0.13369073 0.011735963 2.2867037e-38
0.0088268071 -0.13268389 0.015682744 2.240786e-38
0.010495059 -0.13087155 0.022786902 2.249969e-38
0.012406204 -0.13087155 0.022786902 2.3509876e-38
0.014317349 -0.13087155 0.022786902 2.350159e-38
0.016228493 -0.13087155 0.022786902 1.8423618e-38
0.018013649 -0.13012333 0.025719808 1.6944512e-38
0.019919652 -0.13012333 0.025719808 1.6851584e-38
0.021961927 -0.13087155 0.022786902 1.6300199e-38
0.023873072 -0.13087155 0.022786902 1.6208004e-38
0.025984813 -0.13189565 0.018772529 1.6666469e-38
0.028062813 -0.13268389 0.015682744 1.7124218e-38
0.029986411 -0.13268389 0.015682744 1.8040427e-38
0.031910013 -0.13268389 0.015682744 1.8407049e-38
0.034058515 -0.13369073 0.011735963 1.8778696e-38
0.036222536 -0.1347049 0.0077605713 1.9149273e-38
-0.035759594 -0.14898901 -0.040306285 1.6038786e-38
-0.033702869 -0.14694051 -0.032331303 1.9818446e-38
-0.031684533 -0.14591034 -0.028320624 2.3508794e-38
-0.029681077 -0.14511769 -0.025234772 2.3509156e-38
-0.027685734 -0.14511769 -0.025234772 2.3233652e-38
-0.025700809 -0.1441002 -0.021273566 2.3234376e-38
-0.023730209 -0.14305727 -0.017213298 2.3509879e-38
-0.021772899 -0.14205404 -0.013307644 2.2401729e-38
-0.01982218 -0.1412821 -0.010302378 2.1016634e-38
-0.017853018 -0.1412821 -0.010302378 2.2859826e-38
-0.015883859 -0.1412821 -0.010302378 2.35088e-38
-0.013967062 -0.14025922 -0.0063201915 2.3507362e-38
-0.012065645 -0.13921197 -0.0022431146 2.3509165e-38
-0.010159696 -0.13845511 0.00070350058 2.3509527e-38
-0.008209832 -0.13845511 0.00070350058 2.3509886e-38
-0.00634115 -0.13742088 0.0047297943 2.341805e-38
-0.0043983459 -0.13742088 0.0047297943 2.341805e-38
-0.0024555419 -0.13742088 0.0047297943 2.3418047e-38
-0.00058978982 -0.13664238 0.0077605713 2.3509879e-38
0.001347702 -0.13664238 0.0077605713 2.3509879e-38
0.0031701848 -0.13562126 0.011735963 2.3509168e-38
0.0051007047 -0.13562126 0.011735963 2.3509527e-38
0.0068029836 -0.13381381 0.018772529 2.2958873e-38
0.0085839145 -0.13278268 0.022786902 2.2683366e-38
0.010389641 -0.13202934 0.025719808 2.1944355e-38
0.012181286 -0.1312501 0.028753446 2.3509156e-38
0.01408197 -0.1312501 0.028753446 2.0916511e-38
0.01598265 -0.1312501 0.028753446 1.5748504e-38
0.017883334 -0.1312501 0.028753446 1.5376105e-38
0.019784018 -0.1312501 0.028753446 1.6850145e-38
0.021825653 -0.13202934 0.025719808 1.7865008e-38
0.023873072 -0.13278268 0.022786902 1.7865364e-38
0.025984813 -0.13381381 0.018772529 1.7126727e-38
0.028062813 -0.13460748 0.015682744 1.7215693e-38
0.029986411 -0.13460748 0.015682744 1.8408131e-38
0.031910013 -0.13460748 0.015682744 1.8960941e-38
0.033833612 -0.13460748 0.015682744 1.8134046e-38
0.036222536 -0.13664238 0.0077605713 1.8873049e-38
-0.035734639 -0.14995907 -0.036239579 1.6222813e-38
-0.033702869 -0.14894833 -0.032331303 2.2953094e-38
-0.031684533 -0.14791109 -0.028320624 2.3509149e-38
-0.029681077 -0.14711304 -0.025234772 2.3507353e-38
-0.027685734 -0.14711304 -0.025234772 2.3417691e-38
-0.025700809 -0.14608859 -0.021273566 2.341805e-38
-0.023730209 -0.14503856 -0.017213298 2.3509527e-38
-0.021772899 -0.14402847 -0.013307644 2.2586124e-38
-0.01982218 -0.14325126 -0.010302378 2.203187e-38
-0.017853018 -0.14325126 -0.010302378 2.3507718e-38
-0.015883859 -0.14325126 -0.010302378 2.3509161e-38
-0.014020676 -0.141167 -0.0022431146 2.3416245e-38
-0.012109559 -0.14040495 0.00070350058 2.3509527e-38
-0.010159696 -0.14040495 0.00070350058 2.341805e-38
-0.008283956 -0.13936369 0.0047297943 2.3234379e-38
-0.00634115 -0.13936369 0.0047297943 2.3234379e-38
-0.0044647697 -0.13857989 0.0077605713 2.3418047e-38
-0.0025272798 -0.13857989 0.0077605713 2.3509879e-38
-0.00058978982 -0.13857989 0.0077605713 2.3509873e-38
0.001239663 -0.1375518 0.011735963 2.3509876e-38
0.0030560046 -0.13653107 0.015682744 2.3508444e-38
0.0048847981 -0.13573201 0.018772529 2.3233299e-38
0.0066727698 -0.13469382 0.022786902 2.3142544e-38
0.0085839145 -0.13469382 0.022786902 2.3142541e-38
0.010280602 -0.13315077 0.028753446 2.3509879e-38
0.012181286 -0.13315077 0.028753446 2.165984e-38
0.013926476 -0.13213144 0.032694981 1.8055924e-38
0.015820246 -0.13213144 0.032694981 1.6390631e-38
0.017883334 -0.13315077 0.028753446 1.7862866e-38
0.019784018 -0.13315077 0.028753446 1.8138723e-38
0.021825653 -0.13393532 0.025719808 1.7678815e-38
0.023731656 -0.13393532 0.025719808 1.694161e-38
0.026139211 -0.13653107 0.015682744 1.6572114e-38
0.028062813 -0.13653107 0.015682744 1.7121697e-38
0.029986411 -0.13653107 0.015682744 1.7947508e-38
0.031910013 -0.13653107 0.015682744 1.8131181e-38
0.033833612 -0.13653107 0.015682744 1.7765984e-38
0.036222536 -0.13857989 0.0077605713 1.8504268e-38
-0.031684533 -0.14991184 -0.028320624 2.3509504e-38
-0.029681077 -0.14910837 -0.025234772 2.3509514e-38
-0.027685734 -0.14910837 -0.025234772 2.3509527e-38
-0.025711488 -0.14701982 -0.017213298 2.3417691e-38
-0.023747329 -0.1460029 -0.013307644 2.3416615e-38
-0.021772899 -0.1460029 -0.013307644 2.3323699e-38
-0.01982218 -0.14522041 -0.010302378 2.3323334e-38
-0.017853018 -0.14522041 -0.010302378 2.3509521e-38
-0.015929241 -0.14418359 -0.0063201915 2.350988e-38
-0.014020676 -0.14312203 -0.0022431146 2.3141819e-38
-0.012109559 -0.14235483 0.00070350058 2.3234379e-38
-0.01022676 -0.1413065 0.0047297943 2.2958873e-38
-0.008283956 -0.1413065 0.0047297943 2.2958873e-38
-0.0064022616 -0.14051737 0.0077605713 2.3142541e-38
-0.0044647697 -0.14051737 0.0077605713 2.3234374e-38
-0.0026213769 -0.1394823 0.011735963 2.3509876e-38
-0.00079119764 -0.13845469 0.015682744 2.350987e-38
0.0010484327 -0.13765021 0.018772529 2.350987e-38
0.0029666163 -0.13765021 0.018772529 2.2495367e-38
0.0047616251 -0.13660498 0.022786902 2.3418047e-38
0.0066727698 -0.13660498 0.022786902 2.2866308e-38
0.0084836371 -0.13584132 0.025719808 2.2495367e-38
0.010280602 -0.13505147 0.028753446 2.3509153e-38
0.012181286 -0.13505147 0.028753446 1.7968049e-38
0.013926476 -0.1340252 0.032694981 1.694669e-38
0.015820246 -0.1340252 0.032694981 1.7678847e-38
0.01771402 -0.1340252 0.032694981 1.7583401e-38
0.019784018 -0.13505147 0.028753446 1.7767421e-38
0.021825653 -0.13584132 0.025719808 1.7307875e-38
0.023731656 -0.13584132 0.025719808 1.7031648e-38
0.026139211 -0.13845469 0.015682744 1.7399714e-38
0.028062813 -0.13845469 0.015682744 1.8043293e-38
0.030197471 -0.1394823 0.011735963 1.8408485e-38
0.032127995 -0.1394823 0.011735963 1.7855311e-38
0.034285042 -0.14051737 0.0077605713 1.7766706e-38
0.036400553 -0.1413065 0.0047297943 1.7859262e-38
-0.025711488 -0.14900111 -0.017213298 2.3509168e-38
-0.023747329 -0.14797734 -0.013307644 2.3416615e-38
-0.021772899 -0.14797734 -0.013307644 2.3509168e-38
-0.01982218 -0.1471896 -0.010302378 2.3509524e-38
-0.017853018 -0.1471896 -0.010302378 2.3509883e-38
-0.015929241 -0.14614578 -0.0063201915 2.332621e-38
-0.014020676 -0.14507706 -0.0022431146 2.3050704e-38
-0.012169564 -0.14324932 0.0047297943 2.2867037e-38
-0.01022676 -0.14324932 0.0047297943 2.2775202e-38
-0.0083397515 -0.14245488 0.0077605713 2.2775202e-38
-0.0064022616 -0.14245488 0.0077605713 2.2958873e-38
-0.0045518987 -0.14141284 0.011735963 2.3234374e-38
-0.0026213769 -0.14141284 0.011735963 2.3509876e-38
-0.00079119764 -0.14037828 0.015682744 2.350987e-38
0.0010484327 -0.13956837 0.018772529 2.350987e-38
0.0029666163 -0.13956837 0.018772529 2.3509876e-38
0.0047616251 -0.13851611 0.022786902 2.3418043e-38
0.006577637 -0.13774733 0.025719808 2.3141452e-38
0.0084836371 -0.13774733 0.025719808 2.3415155e-38
0.010280602 -0.13695215 0.028753446 2.350807e-38
0.012181286 -0.13695215 0.028753446 1.6028336e-38
0.013926476 -0.13591899 0.032694981 1.6113328e-38
0.015820246 -0.13591899 0.032694981 1.8413528e-38
0.01771402 -0.13591899 0.032694981 1.8042577e-38
0.019784018 -0.13695215 0.028753446 1.8870891e-38
0.021961927 -0.13851611 0.022786902 1.8688292e-38
0.023873072 -0.13851611 0.022786902 1.8135837e-38
0.025984813 -0.13956837 0.018772529 1.8043645e-38
0.028472573 -0.14245488 0.0077605713 1.8503549e-38
0.030410063 -0.14245488 0.0077605713 1.8962015e-38
0.032514945 -0.14324932 0.0047297943 1.850176e-38
0.034457747 -0.14324932 0.0047297943 1.7767069e-38
0.036400553 -0.14324932 0.0047297943 1.730717e-38
-0.023747329 -0.14995177 -0.013307644 2.3508809e-38
-0.021772899 -0.14995177 -0.013307644 2.3509167e-38
-0.01982218 -0.14915876 -0.010302378 2.3509521e-38
-0.017853018 -0.14915876 -0.010302378 2.350988e-38
-0.015929241 -0.14810793 -0.0063201915 2.2958504e-38
-0.014059424 -0.14625455 0.00070350058 2.295887e-38
-0.012169564 -0.1451921 0.0047297943 2.2775202e-38
-0.010277243 -0.14439236 0.0077605713 2.2591531e-38
-0.0083397515 -0.14439236 0.0077605713 2.2591531e-38
-0.0064824186 -0.14334334 0.011735963 2.2867037e-38
-0.0045518987 -0.14334334 0.011735963 2.3234376e-38
-0.0027147979 -0.14230187 0.015682744 2.3509879e-38
-0.00086974911 -0.14148657 0.018772529 2.3509517e-38
0.0010484327 -0.14148657 0.018772529 2.3509873e-38
0.0028504804 -0.14042725 0.022786902 2.3142171e-38
0.0047616251 -0.14042725 0.022786902 2.3049975e-38
0.006577637 -0.13965334 0.025719808 2.350987e-38
0.0084836371 -0.13965334 0.025719808 2.350807e-38
0.010389641 -0.13965334 0.025719808 2.3502305e-38
0.012181286 -0.13885282 0.028753446 1.6025091e-38
0.01408197 -0.13885282 0.028753446 1.57413e-38
0.015820246 -0.13781275 0.032694981 1.7396853e-38
0.01771402 -0.13781275 0.032694981 1.8869814e-38
0.019784018 -0.13885282 0.028753446 1.9330427e-38
0.021961927 -0.14042725 0.022786902 1.8685774e-38
0.023873072 -0.14042725 0.022786902 1.7303919e-38
0.025984813 -0.14148657 0.018772529 1.6658912e-38
0.028266951 -0.14334334 0.011735963 1.7303567e-38
0.030572139 -0.1451921 0.0047297943 1.8132254e-38
0.032514945 -0.1451921 0.0047297943 1.7949305e-38
0.034457747 -0.1451921 0.0047297943 1.7583402e-38
0.036400553 -0.1451921 0.0047297943 1.7030947e-38
-0.014059424 -0.14820443 0.00070350058 2.2958867e-38
-0.012214733 -0.14632986 0.0077605713 2.2775202e-38
-0.010277243 -0.14632986 0.0077605713 2.2591531e-38
-0.0084129386 -0.14527388 0.011735963 2.2591531e-38
-0.0064824186 -0.14527388 0.011735963 2.2867037e-38
-0.0046383981 -0.14422549 0.015682744 2.3234379e-38
-0.0027879328 -0.14340474 0.018772529 2.3509527e-38
-0.00086974911 -0.14340474 0.018772529 2.3509163e-38
0.00093933567 -0.14233841 0.022786902 2.350952e-38
0.0028504804 -0.14233841 0.022786902 2.3234369e-38
0.0046716332 -0.14155935 0.025719808 2.3418038e-38
0.006577637 -0.14155935 0.025719808 2.3508787e-38
0.0084836371 -0.14155935 0.025719808 1.870741e-38
0.010389641 -0.14155935 0.025719808 1.5381522e-38
0.012181286 -0.14075352 0.028753446 1.528392e-38
0.013926476 -0.13970654 0.032694981 1.7767796e-38
0.015820246 -0.13970654 0.032694981 1.8686148e-38
0.01771402 -0.13970654 0.032694981 1.8315559e-38
0.019784018 -0.14075352 0.028753446 1.8591423e-38
0.021961927 -0.14233841 0.022786902 1.7762739e-38
0.023873072 -0.14233841 0.022786902 1.6656754e-38
0.025984813 -0.14340474 0.018772529 1.6657476e-38
0.028266951 -0.14527388 0.011735963 1.7395763e-38
0.030572139 -0.14713491 0.0047297943 1.7948939e-38
0.032514945 -0.14713491 0.0047297943 1.7396851e-38
0.034457747 -0.14713491 0.0047297943 1.7399374e-38
0.036400553 -0.14713491 0.0047297943 1.6847279e-38
-0.01411237 -0.14907773 0.0047297943 2.3234372e-38
-0.012214733 -0.14826734 0.0077605713 2.27752e-38
-0.01034346 -0.14720438 0.011735963 2.2683366e-38
-0.0084129386 -0.14720438 0.011735963 2.2591531e-38
-0.0065619983 -0.14614908 0.015682744 2.2683366e-38
-0.0046383981 -0.14614908 0.015682744 2.3142185e-38
-0.0027879328 -0.14532293 0.018772529 2.3509527e-38
-0.00086974911 -0.14532293 0.018772529 2.3508809e-38
0.00093933567 -0.14424954 0.022786902 2.3509165e-38
0.0027656332 -0.14346536 0.025719808 2.2866307e-38
0.0046716332 -0.14346536 0.025719808 2.3326196e-38
0.006577637 -0.14346536 0.025719808 2.3508787e-38
0.0084836371 -0.14346536 0.025719808 1.5385125e-38
0.010389641 -0.14346536 0.025719808 1.6300236e-38
0.012181286 -0.1426542 0.028753446 1.7677405e-38
0.013926476 -0.1416003 0.032694981 1.7673438e-38
0.015820246 -0.1416003 0.032694981 1.8315921e-38
0.01771402 -0.1416003 0.032694981 1.803897e-38
0.019919652 -0.14346536 0.025719808 1.8683616e-38
0.021961927 -0.14424954 0.022786902 1.7485076e-38
0.024066631 -0.14532293 0.018772529 1.73936e-38
0.026139211 -0.14614908 0.015682744 1.6473085e-38
0.028472573 -0.14826734 0.0077605713 1.7119176e-38
0.030572139 -0.14907773 0.0047297943 1.730393e-38
0.032514945 -0.14907773 0.0047297943 1.8965615e-38
0.034457747 -0.14907773 0.0047297943 1.8691913e-38
0.036400553 -0.14907773 0.0047297943 1.712495e-38
0.038343359 -0.14907773 0.0047297943 1.68462e-38
0.040286165 -0.14907773 0.0047297943 1.7858548e-38
0.042228971 -0.14907773 0.0047297943 1.8318085e-38
-0.01034346 -0.14913492 0.011735963 2.2958873e-38
-0.0084855985 -0.14807267 0.015682744 2.2958873e-38
-0.0065619983 -0.14807267 0.015682744 2.2958873e-38
-0.0047061164 -0.1472411 0.018772529 2.3417691e-38
-0.0028829537 -0.14616071 0.022786902 2.3509168e-38
-0.00097180903 -0.14616071 0.022786902 2.3508451e-38
0.00085962936 -0.14537133 0.025719808 2.3509168e-38
0.0026778691 -0.14455487 0.028753446 2.3418043e-38
0.0045785531 -0.14455487 0.028753446 2.3325835e-38
0.0064792335 -0.14455487 0.028753446 2.3503382e-38
0.0083799176 -0.14455487 0.028753446 1.4829427e-38
0.010280602 -0.14455487 0.028753446 1.6297711e-38
0.012181286 -0.14455487 0.028753446 1.7767793e-38
0.01408197 -0.14455487 0.028753446 1.7856744e-38
0.01598265 -0.14455487 0.028753446 1.8500667e-38
0.017883334 -0.14455487 0.028753446 1.7762383e-38
0.019919652 -0.14537133 0.025719808 1.8039326e-38
0.022148449 -0.1472411 0.018772529 1.7209209e-38
0.024215609 -0.14807267 0.015682744 1.8038973e-38
0.026139211 -0.14807267 0.015682744 1.7301769e-38
-0.0084855985 -0.1499963 0.015682744 2.3234379e-38
-0.0066243 -0.1491593 0.018772529 2.3234379e-38
-0.0047061164 -0.1491593 0.018772529 2.3509527e-38
-0.0028829537 -0.14807184 0.022786902 2.3508809e-38
-0.00097180903 -0.14807184 0.022786902 2.3508451e-38
0.00085962936 -0.14727734 0.025719808 2.3509168e-38
0.0026778691 -0.14645557 0.028753446 2.3418043e-38
0.0045785531 -0.14645557 0.028753446 2.3416233e-38
0.0064792335 -0.14645557 0.028753446 2.0458045e-38
0.0083799176 -0.14645557 0.028753446 1.4365567e-38
0.010280602 -0.14645557 0.028753446 1.6479218e-38
0.012181286 -0.14645557 0.028753446 1.7858185e-38
0.01408197 -0.14645557 0.028753446 1.7672348e-38
0.01598265 -0.14645557 0.028753446 1.8501383e-38
0.018013649 -0.14727734 0.025719808 1.7487231e-38
0.020050783 -0.14807184 0.022786902 1.7395038e-38
0.022148449 -0.1491593 0.018772529 1.6841148e-38
0.024215609 -0.1499963 0.015682744 1.8315921e-38
0.026139211 -0.1499963 0.015682744 1.7671273e-38
0.043451618 -0.1499963 0.015682744 1.7305363e-38
0.045375217 -0.1499963 0.015682744 1.767487e-38
-0.0028829537 -0.14998297 0.022786902 2.3416251e-38
-0.00097180903 -0.14998297 0.022786902 2.3508449e-38
0.00085962936 -0.14918335 0.025719808 2.3509521e-38
0.0026778691 -0.14835624 0.028753446 2.3509876e-38
0.0045785531 -0.14835624 0.028753446 2.3046727e-38
0.0064792335 -0.14835624 0.028753446 1.7966603e-38
0.0083799176 -0.14835624 0.028753446 1.4639993e-38
0.010280602 -0.14835624 0.028753446 1.6845837e-38
0.012295645 -0.14918335 0.025719808 1.7856741e-38
0.014201645 -0.14918335 0.025719808 1.748831e-38
0.016107649 -0.14918335 0.025719808 1.8226591e-38
0.018139638 -0.14998297 0.022786902 1.7213162e-38
