# .PCD v0.7 - Point Cloud Data file format
VERSION 0.7
FIELDS x y z rgb
SIZE 4 4 4 4
TYPE F F F F
COUNT 1 1 1 1
WIDTH 670
HEIGHT 1
VIEWPOINT 0 0 0 1 0 0 0
POINTS 670
DATA ascii
-0.0054205917 -0.1247278 -0.068072617 1.8715347e-38
-0.0033988208 -0.1247278 -0.068072617 2.2494643e-38
-0.0013770536 -0.1247278 -0.068072617 2.0466342e-38
-0.015604299 -0.1257834 -0.064005911 2.3509876e-38
-0.013589662 -0.1257834 -0.064005911 2.2772672e-38
-0.01166068 -0.12485488 -0.060097631 2.350988e-38
-0.009652894 -0.12485488 -0.060097631 2.350988e-38
-0.0075457469 -0.1257834 -0.064005911 2.2956709e-38
-0.0055311099 -0.1257834 -0.064005911 2.3418043e-38
-0.0036295392 -0.12485488 -0.060097631 2.3325127e-38
-0.001621753 -0.12485488 -0.060097631 2.350952e-38
0.00038603321 -0.12485488 -0.060097631 2.3509527e-38
0.0023938157 -0.12485488 -0.060097631 2.3509527e-38
-0.019751593 -0.12590279 -0.056086954 2.2404603e-38
-0.017750839 -0.12590279 -0.056086954 2.3142168e-38
-0.015750086 -0.12590279 -0.056086954 2.3509876e-38
-0.013749333 -0.12590279 -0.056086954 2.3418042e-38
-0.01174858 -0.12590279 -0.056086954 2.3141456e-38
-0.0097478274 -0.12590279 -0.056086954 2.3325492e-38
-0.0076451097 -0.12686269 -0.060097631 2.3509886e-38
-0.0056373235 -0.12686269 -0.060097631 2.3509883e-38
-0.0036295392 -0.12686269 -0.060097631 2.3509883e-38
-0.0017448142 -0.12590279 -0.056086954 2.3418047e-38
2.7354807e-05 -0.12421621 -0.049039897 2.3326213e-38
0.0020157546 -0.12421621 -0.049039897 2.3142544e-38
0.0040041506 -0.12421621 -0.049039897 2.3142544e-38
0.0059925467 -0.12421621 -0.049039897 2.2958873e-38
-0.021845015 -0.12620462 -0.049039897 2.3418038e-38
-0.019856617 -0.12620462 -0.049039897 2.2957777e-38
-0.01780224 -0.12715961 -0.053001102 2.341804e-38
-0.015806897 -0.12715961 -0.053001102 2.3509879e-38
-0.013749333 -0.12790357 -0.056086954 2.3509879e-38
-0.011816211 -0.12715961 -0.053001102 2.3417687e-38
-0.0098208692 -0.12715961 -0.053001102 2.3509883e-38
-0.0077470746 -0.12790357 -0.056086954 2.3509886e-38
-0.0056373235 -0.12887047 -0.060097631 2.3509886e-38
-0.0038348399 -0.12715961 -0.053001102 2.341805e-38
-0.0018394999 -0.12715961 -0.053001102 2.341805e-38
-0.00023103133 -0.12428416 -0.041073974 2.3050347e-38
0.0017433986 -0.12428416 -0.041073974 2.2866311e-38
0.0040041506 -0.12620462 -0.049039897 2.268228e-38
0.0059925467 -0.12620462 -0.049039897 2.2683359e-38
-0.023753099 -0.12990431 -0.056086954 2.341804e-38
-0.021845015 -0.12819304 -0.049039897 2.341804e-38
-0.019856617 -0.12819304 -0.049039897 2.341804e-38
-0.01780224 -0.12915494 -0.053001102 2.341804e-38
-0.015806897 -0.12915494 -0.053001102 2.3509879e-38
-0.013749333 -0.12990431 -0.056086954 2.3509879e-38
-0.011816211 -0.12915494 -0.053001102 2.3509883e-38
-0.0098208692 -0.12915494 -0.053001102 2.3509883e-38
-0.0078255273 -0.12915494 -0.053001102 2.3509886e-38
-0.0056373235 -0.13087825 -0.060097631 2.3325497e-38
-0.0038348399 -0.12915494 -0.053001102 2.3141467e-38
-0.0019610412 -0.12819304 -0.049039897 2.3325856e-38
-0.00032851472 -0.12552883 -0.038068708 2.3234376e-38
0.0016406476 -0.12552883 -0.038068708 2.3234372e-38
0.0040041506 -0.12819304 -0.049039897 2.3050694e-38
0.0059925467 -0.12819304 -0.049039897 2.2775183e-38
0.0079809465 -0.12819304 -0.049039897 2.2867023e-38
0.0099693425 -0.12819304 -0.049039897 2.286703e-38
0.010065049 -0.11749353 -0.0049794293 2.249969e-38
0.011976194 -0.11749353 -0.0049794293 2.2683366e-38
-0.023753099 -0.13190506 -0.056086954 2.3142174e-38
-0.021792926 -0.13115029 -0.053001102 2.341804e-38
-0.019797582 -0.13115029 -0.053001102 2.341804e-38
-0.01780224 -0.13115029 -0.053001102 2.341804e-38
-0.015806897 -0.13115029 -0.053001102 2.3418042e-38
-0.013811555 -0.13115029 -0.053001102 2.3418042e-38
-0.011903029 -0.13018142 -0.049039897 2.3509883e-38
-0.009914631 -0.13018142 -0.049039897 2.3509883e-38
-0.0079262331 -0.13018142 -0.049039897 2.3509886e-38
-0.0056373235 -0.13288604 -0.060097631 2.3233302e-38
-0.0038348399 -0.13115029 -0.053001102 2.3509527e-38
-0.0019610412 -0.13018142 -0.049039897 2.3509886e-38
-0.00045768172 -0.12652399 -0.034086522 2.3418045e-38
0.0015044957 -0.12652399 -0.034086522 2.3418038e-38
0.0023150519 -0.11868732 -0.0020465232 2.3234362e-38
0.0042210557 -0.11868732 -0.0020465232 2.3142523e-38
0.0061270557 -0.11868732 -0.0020465232 2.2682621e-38
0.0081539042 -0.11940466 -0.0049794293 2.2590071e-38
0.010065049 -0.11940466 -0.0049794293 2.2681916e-38
0.011976194 -0.11940466 -0.0049794293 2.0929127e-38
0.013887338 -0.11940466 -0.0049794293 2.1020615e-38
0.015798483 -0.11940466 -0.0049794293 2.0282337e-38
-0.023753099 -0.13390581 -0.056086954 2.2865229e-38
-0.021792926 -0.13314565 -0.053001102 2.3418043e-38
-0.019797582 -0.13314565 -0.053001102 2.3418043e-38
-0.01780224 -0.13314565 -0.053001102 2.3326206e-38
-0.015806897 -0.13314565 -0.053001102 2.3325846e-38
-0.013891425 -0.13216983 -0.049039897 2.3418042e-38
-0.01214348 -0.12946714 -0.038068708 2.3509883e-38
-0.010365082 -0.1274818 -0.030009447 2.3509883e-38
-0.0084849633 -0.12675591 -0.027062831 2.3509886e-38
-0.0069421846 -0.12306587 -0.012083588 2.3509886e-38
-0.0051079728 -0.12230472 -0.0089938026 2.3509527e-38
-0.003189791 -0.12230472 -0.0089938026 2.3232583e-38
-0.001171384 -0.12306587 -0.012083588 2.286415e-38
0.00064657629 -0.12230472 -0.0089938026 2.3233285e-38
0.0023150519 -0.12059332 -0.0020465232 2.3509865e-38
0.0042210557 -0.12059332 -0.0020465232 2.3141438e-38
0.0062427595 -0.12131582 -0.0049794293 2.2772658e-38
0.0081539042 -0.12131582 -0.0049794293 2.2771583e-38
0.010065049 -0.12131582 -0.0049794293 2.3416603e-38
0.011976194 -0.12131582 -0.0049794293 2.3046747e-38
0.013887338 -0.12131582 -0.0049794293 2.1754579e-38
0.015798483 -0.12131582 -0.0049794293 2.2860209e-38
0.017563071 -0.12059332 -0.0020465232 1.9908508e-38
0.019469071 -0.12059332 -0.0020465232 1.1887125e-38
-0.025753852 -0.13590656 -0.056086954 2.2773763e-38
-0.023753099 -0.13590656 -0.056086954 2.341805e-38
-0.021792926 -0.13514097 -0.053001102 2.2588643e-38
-0.019856617 -0.13415821 -0.049039897 2.3418043e-38
-0.01793585 -0.13315089 -0.044979628 2.3418043e-38
-0.015954573 -0.13315089 -0.044979628 2.3418042e-38
-0.014192935 -0.13044833 -0.034086522 2.350988e-38
-0.012320112 -0.12943684 -0.030009447 2.3509883e-38
-0.010530131 -0.12770687 -0.023036538 2.3509883e-38
-0.0086643789 -0.12695493 -0.020005761 2.3509886e-38
-0.0069421846 -0.12498946 -0.012083588 2.3509527e-38
-0.0051079728 -0.12422292 -0.0089938026 2.3509168e-38
-0.003189791 -0.12422292 -0.0089938026 2.2493578e-38
-0.0012716055 -0.12422292 -0.0089938026 2.1664168e-38
0.00064657629 -0.12422292 -0.0089938026 2.2125498e-38
0.0024204701 -0.12322696 -0.0049794293 2.3047806e-38
0.0043316148 -0.12322696 -0.0049794293 2.3508783e-38
0.0062427595 -0.12322696 -0.0049794293 2.3509866e-38
0.0081539042 -0.12322696 -0.0049794293 2.3509153e-38
0.010065049 -0.12322696 -0.0049794293 2.3508802e-38
0.011845063 -0.1224993 -0.0020465232 2.3507369e-38
0.013751063 -0.1224993 -0.0020465232 2.2857682e-38
0.015657067 -0.1224993 -0.0020465232 2.3503773e-38
0.017563071 -0.1224993 -0.0020465232 2.3503407e-38
-0.03175611 -0.13790731 -0.056086954 1.3368752e-38
-0.027754605 -0.13790731 -0.056086954 2.2957796e-38
-0.02578361 -0.13713633 -0.053001102 2.2220592e-38
-0.023788268 -0.13713633 -0.053001102 2.341805e-38
-0.021845015 -0.13614662 -0.049039897 2.2865232e-38
-0.019856617 -0.13614662 -0.049039897 2.3418045e-38
-0.018000906 -0.13415633 -0.041073974 2.3418043e-38
-0.016081803 -0.13340546 -0.038068708 2.350988e-38
-0.014334556 -0.13065563 -0.027062831 2.350988e-38
-0.012472935 -0.12964968 -0.023036538 2.3417687e-38
-0.010601869 -0.12889244 -0.020005761 2.31411e-38
-0.008765446 -0.12789918 -0.016030369 2.3325497e-38
-0.0069421846 -0.12691309 -0.012083588 2.3509527e-38
-0.0051079728 -0.12614109 -0.0089938026 2.3508451e-38
-0.003189791 -0.12614109 -0.0089938026 2.2676169e-38
-0.0012716055 -0.12614109 -0.0089938026 2.1754566e-38
0.00050932541 -0.12513812 -0.0049794293 2.2123703e-38
0.0024204701 -0.12513812 -0.0049794293 2.2860901e-38
0.0043316148 -0.12513812 -0.0049794293 2.3229683e-38
0.0061270557 -0.12440531 -0.0020465232 2.3507353e-38
0.0080330595 -0.12440531 -0.0020465232 2.3508441e-38
0.0099390596 -0.12440531 -0.0020465232 2.3507372e-38
0.011845063 -0.12440531 -0.0020465232 2.3507016e-38
0.013751063 -0.12440531 -0.0020465232 2.3506654e-38
0.015657067 -0.12440531 -0.0020465232 2.350593e-38
0.017563071 -0.12440531 -0.0020465232 2.2023584e-38
0.019312162 -0.12364738 0.00098711485 2.2852974e-38
-0.029755358 -0.13990806 -0.056086954 2.2128404e-38
-0.027754605 -0.13990806 -0.056086954 2.3234379e-38
-0.02578361 -0.13913165 -0.053001102 2.3049991e-38
-0.023788268 -0.13913165 -0.053001102 2.2864163e-38
-0.021845015 -0.138135 -0.049039897 2.3509527e-38
-0.020020125 -0.13537462 -0.038068708 2.3509521e-38
-0.018301349 -0.13159247 -0.023036538 2.3509879e-38
-0.016358545 -0.13159247 -0.023036538 2.350952e-38
-0.014415739 -0.13159247 -0.023036538 2.3509879e-38
-0.012539359 -0.13082992 -0.020005761 2.3232933e-38
-0.010695966 -0.12982969 -0.016030369 2.2771955e-38
-0.0088657867 -0.12883668 -0.012083588 2.2956709e-38
-0.0070261564 -0.12805928 -0.0089938026 2.3509524e-38
-0.0052241087 -0.12704925 -0.0049794293 2.3508086e-38
-0.0034029558 -0.12631132 -0.0020465232 2.3505563e-38
-0.001496952 -0.12631132 -0.0020465232 2.3501597e-38
0.00050932541 -0.12704925 -0.0049794293 2.3409396e-38
0.0024204701 -0.12704925 -0.0049794293 2.3132443e-38
0.0042210557 -0.12631132 -0.0020465232 2.2211206e-38
0.0061270557 -0.12631132 -0.0020465232 2.2118657e-38
0.0080330595 -0.12631132 -0.0020465232 2.2395971e-38
0.0099390596 -0.12631132 -0.0020465232 2.3502326e-38
0.011845063 -0.12631132 -0.0020465232 2.3502327e-38
0.013610113 -0.12554805 0.00098711485 2.3503047e-38
0.015510794 -0.12554805 0.00098711485 1.9903449e-38
0.017411478 -0.12554805 0.00098711485 2.1746272e-38
0.019312162 -0.12554805 0.00098711485 2.2113601e-38
-0.033756867 -0.14190884 -0.056086954 1.770623e-38
-0.03175611 -0.14190884 -0.056086954 2.1947232e-38
-0.029755358 -0.14190884 -0.056086954 2.2314942e-38
-0.027778953 -0.14112701 -0.053001102 2.3142544e-38
-0.02578361 -0.14112701 -0.053001102 2.2864883e-38
-0.023833413 -0.14012341 -0.049039897 2.3508092e-38
-0.022041652 -0.13633488 -0.034086522 2.3508451e-38
-0.020244153 -0.13353528 -0.023036538 2.3508089e-38
-0.018301349 -0.13353528 -0.023036538 2.3508086e-38
-0.016414341 -0.13276742 -0.020005761 2.350664e-38
-0.014476851 -0.13276742 -0.020005761 2.3508441e-38
-0.012712987 -0.13076027 -0.012083588 2.3509514e-38
-0.010862522 -0.12997745 -0.0089938026 2.2955622e-38
-0.0089443382 -0.12997745 -0.0089938026 2.3141452e-38
-0.0071352534 -0.12896039 -0.0049794293 2.3415158e-38
-0.00539672 -0.12744872 0.00098711485 2.3505913e-38
-0.0034960359 -0.12744872 0.00098711485 2.3501953e-38
-0.001496952 -0.12821732 -0.0020465232 2.3494382e-38
0.00040904805 -0.12821732 -0.0020465232 2.3495818e-38
0.0023150519 -0.12821732 -0.0020465232 2.2571697e-38
0.0042210557 -0.12821732 -0.0020465232 2.1927769e-38
0.0060073808 -0.12744872 0.00098711485 2.1193087e-38
0.0079080611 -0.12744872 0.00098711485 2.3408308e-38
0.0098087452 -0.12744872 0.00098711485 2.3507355e-38
0.011709429 -0.12744872 0.00098711485 2.3505914e-38
0.013610113 -0.12744872 0.00098711485 2.3135694e-38
0.015510794 -0.12744872 0.00098711485 1.8985447e-38
0.017411478 -0.12744872 0.00098711485 1.9165872e-38
0.019312162 -0.12744872 0.00098711485 1.9807991e-38
-0.033756867 -0.14390959 -0.056086954 1.9734521e-38
-0.03175611 -0.14390959 -0.056086954 2.249968e-38
-0.029755358 -0.14390959 -0.056086954 2.2867032e-38
-0.027778953 -0.14312236 -0.053001102 2.2958873e-38
-0.02578361 -0.14312236 -0.053001102 2.1297556e-38
-0.023833413 -0.14211179 -0.049039897 2.1756376e-38
-0.022134013 -0.13650523 -0.027062831 2.3507013e-38
-0.020244153 -0.13547809 -0.023036538 2.3135345e-38
-0.018351832 -0.1347049 -0.020005761 2.3507726e-38
-0.016560188 -0.13268389 -0.012083588 2.350628e-38
-0.014636587 -0.13268389 -0.012083588 2.3506276e-38
-0.012868688 -0.13087155 -0.0049794293 2.3506632e-38
-0.011026964 -0.13012333 -0.0020465232 2.350663e-38
-0.0091209617 -0.13012333 -0.0020465232 2.286306e-38
-0.0074045211 -0.1283439 0.0049286508 2.0646764e-38
-0.0055107493 -0.1283439 0.0049286508 2.0084947e-38
-0.0036169775 -0.1283439 0.0049286508 2.0633076e-38
-0.0015953556 -0.12934943 0.00098711485 1.9709676e-38
0.00030532852 -0.12934943 0.00098711485 2.1000049e-38
0.0022060126 -0.12934943 0.00098711485 2.0631265e-38
0.0041066967 -0.12934943 0.00098711485 2.0817816e-38
0.0058518872 -0.1283439 0.0049286508 2.1191283e-38
0.0077456571 -0.1283439 0.0049286508 2.350194e-38
0.0098087452 -0.12934943 0.00098711485 2.3508428e-38
0.011709429 -0.12934943 0.00098711485 2.3508793e-38
0.013610113 -0.12934943 0.00098711485 2.3508794e-38
0.015510794 -0.12934943 0.00098711485 2.082936e-38
0.017411478 -0.12934943 0.00098711485 1.9902716e-38
0.019312162 -0.12934943 0.00098711485 1.9621082e-38
-0.033756867 -0.14591034 -0.056086954 2.0929465e-38
-0.03175611 -0.14591034 -0.056086954 2.3050693e-38
-0.029774295 -0.14511769 -0.053001102 2.2774832e-38
-0.027778953 -0.14511769 -0.053001102 2.2866674e-38
-0.025821809 -0.1441002 -0.049039897 2.1667415e-38
-0.023879685 -0.14305727 -0.044979628 2.2126954e-38
-0.022134013 -0.13845511 -0.027062831 2.2585771e-38
-0.020289322 -0.13664238 -0.020005761 2.3137139e-38
-0.018418049 -0.13562126 -0.016030369 2.3508079e-38
-0.016617071 -0.13381381 -0.0089938026 2.3508075e-38
-0.014698889 -0.13381381 -0.0089938026 2.3504833e-38
-0.012868688 -0.13278268 -0.0049794293 2.3504468e-38
-0.01109877 -0.1312501 0.00098711485 2.350807e-38
-0.0091980863 -0.1312501 0.00098711485 2.350807e-38
-0.0074045211 -0.13023765 0.0049286508 2.0457691e-38
-0.0055107493 -0.13023765 0.0049286508 1.9254464e-38
-0.0036169775 -0.13023765 0.0049286508 1.9343416e-38
-0.0017232038 -0.13023765 0.0049286508 1.8696603e-38
0.00017056987 -0.13023765 0.0049286508 1.9894065e-38
0.0020643398 -0.13023765 0.0049286508 1.9894065e-38
0.0039581135 -0.13023765 0.0049286508 2.0080977e-38
0.0057337359 -0.1294684 0.0079235453 2.1466434e-38
0.0076222569 -0.1294684 0.0079235453 2.3502305e-38
0.0096394308 -0.13023765 0.0049286508 2.3505553e-38
0.011533204 -0.13023765 0.0049286508 2.3506995e-38
0.013426974 -0.13023765 0.0049286508 2.3507356e-38
0.015320748 -0.13023765 0.0049286508 2.0826123e-38
0.017214522 -0.13023765 0.0049286508 1.9715091e-38
0.019108292 -0.13023765 0.0049286508 1.9710404e-38
0.021002065 -0.13023765 0.0049286508 2.0627314e-38
0.022895839 -0.13023765 0.0049286508 2.0535474e-38
0.025187079 -0.13202934 -0.0020465232 1.8787723e-38
0.027093079 -0.13202934 -0.0020465232 1.8422542e-38
-0.033764981 -0.14711304 -0.053001102 2.1479401e-38
-0.031769637 -0.14711304 -0.053001102 2.350987e-38
-0.029798605 -0.14608859 -0.049039897 2.3049259e-38
-0.027810207 -0.14608859 -0.049039897 2.3234015e-38
-0.025860963 -0.14503856 -0.044979628 2.3234379e-38
-0.023924198 -0.14402847 -0.041073974 2.3509883e-38
-0.022134013 -0.14040495 -0.027062831 2.2586485e-38
-0.020289322 -0.13857989 -0.020005761 2.0924438e-38
-0.01848379 -0.13653107 -0.012083588 2.0645688e-38
-0.016690975 -0.13469382 -0.0049794293 2.0827552e-38
-0.014838969 -0.13393532 -0.0020465232 2.0733197e-38
-0.012999453 -0.13315077 0.00098711485 2.0824673e-38
-0.01109877 -0.13315077 0.00098711485 2.3036646e-38
-0.0092982948 -0.13213144 0.0049286508 2.294445e-38
-0.0074045211 -0.13213144 0.0049286508 1.9163709e-38
-0.0055973921 -0.13135691 0.0079235453 2.0083505e-38
-0.0037088692 -0.13135691 0.0079235453 1.9805476e-38
-0.0018203482 -0.13135691 0.0079235453 1.9251219e-38
0.00017056987 -0.13213144 0.0049286508 1.9895509e-38
0.0019566938 -0.13135691 0.0079235453 2.0080257e-38
0.0038452148 -0.13135691 0.0079235453 1.9897307e-38
0.0055757277 -0.13032107 0.011928858 2.1097657e-38
0.0074572265 -0.13032107 0.011928858 2.3497989e-38
0.0095107816 -0.13135691 0.0079235453 2.3507358e-38
0.011399303 -0.13135691 0.0079235453 2.3507721e-38
0.013287824 -0.13135691 0.0079235453 2.3507003e-38
0.015320748 -0.13213144 0.0049286508 2.0823966e-38
0.017214522 -0.13213144 0.0049286508 2.0081358e-38
0.019108292 -0.13213144 0.0049286508 2.0077394e-38
0.021002065 -0.13213144 0.0049286508 2.0256739e-38
0.023281075 -0.13393532 -0.0020465232 1.9150029e-38
0.025187079 -0.13393532 -0.0020465232 1.9154345e-38
0.027093079 -0.13393532 -0.0020465232 1.8696606e-38
0.028999086 -0.13393532 -0.0020465232 1.6671548e-38
-0.035763796 -0.148077 -0.049039897 1.2164766e-38
-0.033775397 -0.148077 -0.049039897 2.1476522e-38
-0.031787001 -0.148077 -0.049039897 2.3509151e-38
-0.029798605 -0.148077 -0.049039897 2.3509517e-38
-0.027842242 -0.14701982 -0.044979628 2.350988e-38
-0.025860963 -0.14701982 -0.044979628 2.3233652e-38
-0.023958448 -0.14522041 -0.038068708 2.3418042e-38
-0.022134013 -0.14235483 -0.027062831 2.2125142e-38
-0.020289322 -0.14051737 -0.020005761 2.0923714e-38
-0.018535255 -0.13765021 -0.0089938026 1.8155677e-38
-0.016690975 -0.13660498 -0.0049794293 1.8520855e-38
-0.014900137 -0.13505147 0.00098711485 1.9993102e-38
-0.013085838 -0.1340252 0.0049286508 2.0451922e-38
-0.011192067 -0.1340252 0.0049286508 2.1740863e-38
-0.0092982948 -0.1340252 0.0049286508 2.2201481e-38
-0.0074859131 -0.13324542 0.0079235453 2.0818909e-38
-0.0055973921 -0.13324542 0.0079235453 2.0543761e-38
-0.0037088692 -0.13324542 0.0079235453 2.0543761e-38
-0.0018203482 -0.13324542 0.0079235453 2.0450845e-38
6.8172812e-05 -0.13324542 0.0079235453 2.0081341e-38
0.00181273 -0.13220255 0.011928858 2.0449408e-38
0.0036942288 -0.13220255 0.011928858 1.9989511e-38
0.0054546334 -0.13140334 0.014998378 2.0637405e-38
0.0073307529 -0.13140334 0.014998378 2.2115057e-38
0.0092068687 -0.13140334 0.014998378 2.3501238e-38
0.011082985 -0.13140334 0.014998378 2.3504125e-38
0.013101723 -0.13220255 0.011928858 2.3503406e-38
0.015176345 -0.13324542 0.0079235453 2.0176802e-38
0.017064866 -0.13324542 0.0079235453 1.9895535e-38
0.019108292 -0.1340252 0.0049286508 2.0997556e-38
0.021212846 -0.13505147 0.00098711485 2.1085429e-38
0.02311353 -0.13505147 0.00098711485 1.9517735e-38
0.02501421 -0.13505147 0.00098711485 1.9797553e-38
0.026914898 -0.13505147 0.00098711485 1.8233464e-38
0.028999086 -0.13584132 -0.0020465232 1.712928e-38
-0.027842242 -0.14900111 -0.044979628 2.3323685e-38
-0.025860963 -0.14900111 -0.044979628 2.3509879e-38
-0.023958448 -0.1471896 -0.038068708 2.3509873e-38
-0.022041652 -0.14614578 -0.034086522 2.1109184e-38
-0.020289322 -0.14245488 -0.020005761 1.935458e-38
-0.018535255 -0.13956837 -0.0089938026 1.6124488e-38
-0.016744971 -0.13774733 -0.0020465232 1.6858449e-38
-0.014900137 -0.13695215 0.00098711485 1.9251932e-38
-0.013085838 -0.13591899 0.0049286508 1.9710752e-38
-0.011192067 -0.13591899 0.0049286508 1.980079e-38
-0.0092982948 -0.13591899 0.0049286508 2.0076298e-38
-0.0074859131 -0.13513394 0.0079235453 2.0999699e-38
-0.0055973921 -0.13513394 0.0079235453 2.3401106e-38
-0.0038317665 -0.13408406 0.011928858 2.3496184e-38
-0.0019502677 -0.13408406 0.011928858 2.3494384e-38
-6.8768859e-05 -0.13408406 0.011928858 2.1188055e-38
0.0017024018 -0.13327946 0.014998378 2.0173905e-38
0.0035785176 -0.13327946 0.014998378 1.8700217e-38
0.0053386763 -0.13250901 0.017937722 1.8978966e-38
0.00720964 -0.13250901 0.017937722 1.944211e-38
0.0090806037 -0.13250901 0.017937722 2.0272953e-38
0.010951567 -0.13250901 0.017937722 2.0826853e-38
0.012959104 -0.13327946 0.014998378 2.1193838e-38
0.01483522 -0.13327946 0.014998378 1.7042153e-38
0.016864721 -0.13408406 0.011928858 1.6945636e-38
0.018953387 -0.13513394 0.0079235453 1.9062174e-38
0.021002065 -0.13591899 0.0049286508 2.0810287e-38
0.02311353 -0.13695215 0.00098711485 2.0624807e-38
0.02501421 -0.13695215 0.00098711485 1.9704639e-38
0.026914898 -0.13695215 0.00098711485 1.8046552e-38
0.028999086 -0.13774733 -0.0020465232 1.7311508e-38
0.030905087 -0.13774733 -0.0020465232 1.7590619e-38
-0.025927607 -0.14915876 -0.038068708 2.3508797e-38
-0.023958448 -0.14915876 -0.038068708 2.3506273e-38
-0.021989286 -0.14915876 -0.038068708 1.9353144e-38
-0.020020125 -0.14915876 -0.038068708 1.8519776e-38
-0.018535255 -0.14148657 -0.0089938026 1.6672618e-38
-0.016744971 -0.13965334 -0.0020465232 1.7867556e-38
-0.014900137 -0.13885282 0.00098711485 1.9156491e-38
-0.013085838 -0.13781275 0.0049286508 1.9799703e-38
-0.011192067 -0.13781275 0.0049286508 1.9705709e-38
-0.0092982948 -0.13781275 0.0049286508 1.9521318e-38
-0.0074859131 -0.13702248 0.0079235453 2.1551428e-38
-0.0055973921 -0.13702248 0.0079235453 2.3495824e-38
-0.0038317665 -0.13596557 0.011928858 2.3503751e-38
-0.0019502677 -0.13596557 0.011928858 2.3504111e-38
-0.00017371401 -0.13515557 0.014998378 2.1650477e-38
0.0015967526 -0.13437997 0.017937722 1.9714371e-38
0.0034677163 -0.13437997 0.017937722 1.8240327e-38
0.0053386763 -0.13437997 0.017937722 1.9348835e-38
0.00720964 -0.13437997 0.017937722 1.9811975e-38
0.0090806037 -0.13437997 0.017937722 2.2210148e-38
0.010951567 -0.13437997 0.017937722 2.1565859e-38
0.012822531 -0.13437997 0.017937722 2.1748452e-38
0.01483522 -0.13515557 0.014998378 1.8427609e-38
0.016711336 -0.13515557 0.014998378 1.8055223e-38
0.018953387 -0.13702248 0.0079235453 1.8143818e-38
0.021002065 -0.13781275 0.0049286508 1.8509e-38
0.02311353 -0.13885282 0.00098711485 1.8506831e-38
0.024789609 -0.13781275 0.0049286508 1.8875597e-38
0.026683379 -0.13781275 0.0049286508 1.8046191e-38
-0.020602187 -0.14075352 0.00098711485 1.8329624e-38
-0.018701503 -0.14075352 0.00098711485 1.7957957e-38
-0.016800821 -0.14075352 0.00098711485 1.9062138e-38
-0.014900137 -0.14075352 0.00098711485 1.9059974e-38
-0.013085838 -0.13970654 0.0049286508 1.970462e-38
-0.011192067 -0.13970654 0.0049286508 2.0257794e-38
-0.0093744341 -0.13891099 0.0079235453 1.998193e-38
-0.0074859131 -0.13891099 0.0079235453 2.2196433e-38
-0.0057132654 -0.13784705 0.011928858 2.2939046e-38
-0.0038317665 -0.13784705 0.011928858 2.350303e-38
-0.0020498335 -0.13703169 0.014998378 2.3505554e-38
-0.00017371401 -0.13703169 0.014998378 2.2573155e-38
0.0015967526 -0.13625093 0.017937722 2.1191306e-38
0.0034677163 -0.13625093 0.017937722 2.1100553e-38
0.0053386763 -0.13625093 0.017937722 2.3501601e-38
0.00720964 -0.13625093 0.017937722 2.3507367e-38
0.0090806037 -0.13625093 0.017937722 2.3507728e-38
0.01077079 -0.13517688 0.021981062 2.3505205e-38
0.012634665 -0.13517688 0.021981062 2.3507728e-38
0.014693495 -0.13625093 0.017937722 2.3506287e-38
0.016711336 -0.13703169 0.014998378 2.3504488e-38
0.01874622 -0.13784705 0.011928858 2.2480974e-38
0.020627718 -0.13784705 0.011928858 1.9251246e-38
0.022895839 -0.13970654 0.0049286508 1.731261e-38
0.024789609 -0.13970654 0.0049286508 1.7955801e-38
0.026683379 -0.13970654 0.0049286508 1.8507888e-38
-0.018701503 -0.1426542 0.00098711485 1.8781598e-38
-0.016800821 -0.1426542 0.00098711485 1.8134781e-38
-0.014979612 -0.1416003 0.0049286508 1.9149287e-38
-0.013085838 -0.1416003 0.0049286508 1.9518786e-38
-0.011262955 -0.14079951 0.0079235453 1.8875214e-38
-0.0093744341 -0.14079951 0.0079235453 1.9522026e-38
-0.0074859131 -0.14079951 0.0079235453 2.0907489e-38
-0.0057132654 -0.13972856 0.011928858 2.1095132e-38
-0.0038317665 -0.13972856 0.011928858 2.3125605e-38
-0.0020498335 -0.13890781 0.014998378 2.3498353e-38
-0.00027421117 -0.13812189 0.017937722 2.3500518e-38
0.0015967526 -0.13812189 0.017937722 2.2575683e-38
0.0034677163 -0.13812189 0.017937722 2.3504126e-38
0.0053386763 -0.13812189 0.017937722 2.3507726e-38
0.00720964 -0.13812189 0.017937722 2.3505565e-38
0.0089069158 -0.13704078 0.021981062 2.3508807e-38
0.01077079 -0.13704078 0.021981062 2.3508807e-38
0.012634665 -0.13704078 0.021981062 2.3509163e-38
0.014498539 -0.13704078 0.021981062 2.3508804e-38
0.016564459 -0.13812189 0.017937722 2.3508085e-38
0.018435419 -0.13812189 0.017937722 2.3504847e-38
0.020306382 -0.13812189 0.017937722 2.1839926e-38
0.022895839 -0.1416003 0.0049286508 1.9623983e-38
0.024789609 -0.1416003 0.0049286508 1.7129645e-38
0.026683379 -0.1416003 0.0049286508 1.7771763e-38
-0.018767156 -0.14349405 0.0049286508 1.9238976e-38
-0.016873384 -0.14349405 0.0049286508 1.8868746e-38
-0.015039999 -0.14268802 0.0079235453 1.9515189e-38
-0.013151476 -0.14268802 0.0079235453 1.9425508e-38
-0.011262955 -0.14268802 0.0079235453 1.8597906e-38
-0.0093744341 -0.14268802 0.0079235453 1.8600429e-38
-0.0075947642 -0.14161004 0.011928858 1.9248684e-38
-0.0057132654 -0.14161004 0.011928858 1.9897307e-38
-0.0039259493 -0.14078392 0.014998378 1.943778e-38
-0.0020498335 -0.14078392 0.014998378 2.0637766e-38
-0.00027421117 -0.13999285 0.017937722 2.350304e-38
0.0015967526 -0.13999285 0.017937722 2.3505563e-38
0.0033152923 -0.13890465 0.021981062 2.3507367e-38
0.0051791668 -0.13890465 0.021981062 2.3508089e-38
0.0070430413 -0.13890465 0.021981062 2.3508807e-38
0.0089069158 -0.13890465 0.021981062 2.3509164e-38
0.010636106 -0.13809387 0.024993481 2.3509883e-38
0.012494698 -0.13809387 0.024993481 2.350988e-38
0.014208861 -0.13728772 0.027988853 2.3418043e-38
0.015710764 -0.13539489 0.035021845 2.3509521e-38
0.017551772 -0.13539489 0.035021845 2.3509163e-38
0.019392781 -0.13539489 0.035021845 2.3507007e-38
0.020904087 -0.13378824 0.040991489 2.3133536e-38
-0.020602187 -0.14645557 0.00098711485 1.96996e-38
-0.018767156 -0.14538784 0.0049286508 1.9604519e-38
-0.016873384 -0.14538784 0.0049286508 1.9328285e-38
-0.015039999 -0.14457656 0.0079235453 1.9605947e-38
-0.013151476 -0.14457656 0.0079235453 1.9332234e-38
-0.011262955 -0.14457656 0.0079235453 1.850571e-38
-0.0094762631 -0.14349155 0.011928858 1.795506e-38
-0.0076781828 -0.14266007 0.014998378 1.7497686e-38
-0.005802067 -0.14266007 0.014998378 1.7408741e-38
-0.0040161386 -0.14186381 0.017937722 1.7134687e-38
-0.0021451749 -0.14186381 0.017937722 1.8795651e-38
-0.00041245297 -0.14076851 0.021981062 2.3505198e-38
0.0014514215 -0.14076851 0.021981062 2.3507367e-38
0.0032017343 -0.13995247 0.024993481 2.3508089e-38
0.0050603263 -0.13995247 0.024993481 2.3506649e-38
0.0069189221 -0.13995247 0.024993481 2.3509527e-38
0.0086488426 -0.13914107 0.027988853 2.3418047e-38
0.010369014 -0.13833423 0.030967297 2.3142541e-38
0.012028746 -0.13723589 0.035021845 2.3142538e-38
0.013869755 -0.13723589 0.035021845 2.2867027e-38
0.015563898 -0.13643973 0.03796095 2.3050703e-38
0.017243002 -0.13561879 0.040991489 2.3418047e-38
0.019073546 -0.13561879 0.040991489 2.3509886e-38
0.020904087 -0.13561879 0.040991489 2.3509163e-38
-0.020602187 -0.14835624 0.00098711485 1.8777643e-38
-0.018767156 -0.1472816 0.0049286508 1.9420127e-38
-0.016873384 -0.1472816 0.0049286508 1.9511957e-38
-0.015039999 -0.14646508 0.0079235453 1.9421555e-38
-0.013151476 -0.14646508 0.0079235453 1.9147845e-38
-0.011262955 -0.14646508 0.0079235453 1.87823e-38
-0.0095543005 -0.14453618 0.014998378 1.795506e-38
-0.0076781828 -0.14453618 0.014998378 1.6852317e-38
-0.0058871023 -0.14373477 0.017937722 1.5288962e-38
-0.0040161386 -0.14373477 0.017937722 1.9625764e-38
-0.0021451749 -0.14373477 0.017937722 2.1747353e-38
-0.00041245297 -0.14263238 0.021981062 2.3506999e-38
0.0013431422 -0.14181106 0.024993481 2.3507728e-38
0.0030888207 -0.14099441 0.027988853 2.350737e-38
0.0048246607 -0.14018236 0.030967297 2.3415895e-38
0.006672781 -0.14018236 0.030967297 2.304927e-38
0.008346729 -0.1390769 0.035021845 2.3050707e-38
0.010056328 -0.13827558 0.03796095 2.295887e-38
0.011892185 -0.13827558 0.03796095 2.2958867e-38
0.013581917 -0.13744931 0.040991489 2.286703e-38
0.015412461 -0.13744931 0.040991489 2.2591164e-38
0.017243002 -0.13744931 0.040991489 2.2775199e-38
0.019073546 -0.13744931 0.040991489 2.2958514e-38
0.020904087 -0.13744931 0.040991489 2.3141103e-38
0.022734631 -0.13744931 0.040991489 2.3508439e-38
-0.018767156 -0.14917539 0.0049286508 1.8592525e-38
-0.016873384 -0.14917539 0.0049286508 1.8960223e-38
-0.015039999 -0.14835359 0.0079235453 1.8868744e-38
-0.013239261 -0.14725454 0.011928858 1.8962738e-38
-0.011357762 -0.14725454 0.011928858 1.9149287e-38
-0.0095543005 -0.1464123 0.014998378 1.8322765e-38
-0.0077580642 -0.14560573 0.017937722 1.6943793e-38
-0.0060040746 -0.14449625 0.021981062 1.5289681e-38
-0.004140202 -0.14449625 0.021981062 2.3407224e-38
-0.0022763275 -0.14449625 0.021981062 2.3506991e-38
-0.00051544979 -0.14366965 0.024993481 2.3508079e-38
0.0012354814 -0.14284773 0.027988853 2.3507007e-38
0.0029765442 -0.14203046 0.030967297 2.3508809e-38
0.0046647079 -0.14091791 0.035021845 2.341805e-38
0.0063846186 -0.14011143 0.03796095 2.2774125e-38
0.0080902912 -0.13927986 0.040991489 2.2866674e-38
0.0099208355 -0.13927986 0.040991489 2.2867033e-38
0.011751376 -0.13927986 0.040991489 2.2958867e-38
0.013581917 -0.13927986 0.040991489 2.3142538e-38
0.015412461 -0.13927986 0.040991489 2.3142541e-38
0.017087154 -0.13845308 0.044004623 2.3142544e-38
0.018912412 -0.13845308 0.044004623 2.2958873e-38
0.02073767 -0.13845308 0.044004623 2.2774125e-38
0.022734631 -0.13927986 0.040991489 2.3141819e-38
-0.013239261 -0.14913605 0.011928858 1.8593955e-38
-0.011357762 -0.14913605 0.011928858 1.8964178e-38
-0.0095543005 -0.14828841 0.014998378 1.8688673e-38
-0.0077580642 -0.14747669 0.017937722 1.7310781e-38
-0.0060040746 -0.14636014 0.021981062 1.5567344e-38
-0.004140202 -0.14636014 0.021981062 2.3505895e-38
-0.0023740418 -0.14552824 0.024993481 2.3508428e-38
-0.00061786175 -0.14470108 0.027988853 2.3508797e-38
0.001128424 -0.14387859 0.030967297 2.3508805e-38
0.0028236993 -0.14275892 0.035021845 2.3509527e-38
0.004548762 -0.14194728 0.03796095 2.3234379e-38
0.0062597506 -0.14111041 0.040991489 2.2958514e-38
0.0080902912 -0.14111041 0.040991489 2.3142544e-38
0.0097861178 -0.14027832 0.044004623 2.3050701e-38
0.011611376 -0.14027832 0.044004623 2.3050698e-38
0.013436634 -0.14027832 0.044004623 2.30507e-38
0.015261896 -0.14027832 0.044004623 2.3234376e-38
0.017087154 -0.14027832 0.044004623 2.3234379e-38
0.018912412 -0.14027832 0.044004623 2.3234379e-38
0.02073767 -0.14027832 0.044004623 2.2958873e-38
0.022562932 -0.14027832 0.044004623 2.2499695e-38
0.024565171 -0.14111041 0.040991489 2.3418047e-38
-0.0096290279 -0.14934768 0.017937722 1.8686518e-38
-0.0077580642 -0.14934768 0.017937722 1.7493017e-38
-0.0060040746 -0.14822401 0.021981062 1.5107085e-38
-0.0042326339 -0.14738683 0.024993481 2.3506614e-38
-0.0024712011 -0.14655443 0.027988853 2.3507346e-38
-0.00071969256 -0.1457267 0.030967297 2.3508435e-38
0.0009826906 -0.14459993 0.035021845 2.3509527e-38
0.0028236993 -0.14459993 0.035021845 2.3325856e-38
0.0044292063 -0.14294095 0.040991489 2.3234379e-38
0.0061355978 -0.1421036 0.044004623 2.2958514e-38
0.007960856 -0.1421036 0.044004623 2.3234376e-38
0.0097861178 -0.1421036 0.044004623 2.3418045e-38
0.011611376 -0.1421036 0.044004623 2.3418042e-38
0.013436634 -0.1421036 0.044004623 2.3417323e-38
0.015261896 -0.1421036 0.044004623 2.3417327e-38
0.016932204 -0.14127107 0.047000352 2.3416974e-38
0.01875221 -0.14127107 0.047000352 2.3508809e-38
0.020572219 -0.14127107 0.047000352 2.3142544e-38
0.022562932 -0.1421036 0.044004623 2.2132353e-38
0.02438819 -0.1421036 0.044004623 2.2775202e-38
-0.006091224 -0.14924543 0.024993481 1.4461715e-38
-0.0043245405 -0.14840777 0.027988853 2.3508774e-38
-0.0025678128 -0.14757483 0.030967297 2.3509143e-38
-0.00085831806 -0.14644094 0.035021845 2.350987e-38
0.00087704882 -0.14561899 0.03796095 2.3509883e-38
0.0027129054 -0.14561899 0.03796095 2.3050708e-38
0.0044292063 -0.1447715 0.040991489 2.3142544e-38
0.0061355978 -0.14392884 0.044004623 2.2958514e-38
0.007960856 -0.14392884 0.044004623 2.3233662e-38
0.0097861178 -0.14392884 0.044004623 2.3509527e-38
0.011611376 -0.14392884 0.044004623 2.3509165e-38
0.013436634 -0.14392884 0.044004623 2.3509165e-38
0.015261896 -0.14392884 0.044004623 2.3509168e-38
0.016932204 -0.14309107 0.047000352 2.3508809e-38
0.01875221 -0.14309107 0.047000352 2.3509527e-38
0.020572219 -0.14309107 0.047000352 2.2958873e-38
0.022562932 -0.14392884 0.044004623 2.2132353e-38
0.02438819 -0.14392884 0.044004623 2.093417e-38
0.026213448 -0.14392884 0.044004623 2.3508802e-38
0.030056801 -0.1447715 0.040991489 1.3440748e-38
-0.0025678128 -0.14942293 0.030967297 2.3509142e-38
-0.00095880777 -0.14745484 0.03796095 2.3416233e-38
0.00087704882 -0.14745484 0.03796095 2.3234369e-38
0.0027129054 -0.14745484 0.03796095 2.2683361e-38
0.0043103397 -0.14575411 0.044004623 2.2867037e-38
0.0061355978 -0.14575411 0.044004623 2.3142544e-38
0.007960856 -0.14575411 0.044004623 2.3509168e-38
0.0097861178 -0.14575411 0.044004623 2.3508451e-38
0.011611376 -0.14575411 0.044004623 2.3507733e-38
0.013436634 -0.14575411 0.044004623 2.3508092e-38
0.015261896 -0.14575411 0.044004623 2.3508809e-38
0.017087154 -0.14575411 0.044004623 2.3509527e-38
0.018912412 -0.14575411 0.044004623 2.2958873e-38
0.02073767 -0.14575411 0.044004623 2.2591531e-38
0.022562932 -0.14575411 0.044004623 2.2132353e-38
0.02438819 -0.14575411 0.044004623 2.2867037e-38
0.026213448 -0.14575411 0.044004623 2.3507356e-38
0.02822626 -0.14660202 0.040991489 1.6032303e-38
0.030056801 -0.14660202 0.040991489 1.5012026e-38
-0.00095880777 -0.14929073 0.03796095 2.3508058e-38
0.00076812133 -0.14843257 0.040991489 2.3418033e-38
0.0025986657 -0.14843257 0.040991489 2.2407846e-38
0.0043103397 -0.14757936 0.044004623 2.2867037e-38
0.0060121641 -0.14673109 0.047000352 2.2589736e-38
0.0078321695 -0.14673109 0.047000352 2.3509168e-38
0.0096521787 -0.14673109 0.047000352 2.3508092e-38
0.011472184 -0.14673109 0.047000352 2.3507733e-38
0.01329219 -0.14673109 0.047000352 2.3507733e-38
0.015261896 -0.14757936 0.044004623 2.3508809e-38
0.017087154 -0.14757936 0.044004623 2.3509886e-38
0.018912412 -0.14757936 0.044004623 2.295887e-38
0.020572219 -0.14673109 0.047000352 2.2775199e-38
0.022392225 -0.14673109 0.047000352 2.2775202e-38
0.02438819 -0.14757936 0.044004623 2.3142544e-38
0.026213448 -0.14757936 0.044004623 2.3509156e-38
0.028038707 -0.14757936 0.044004623 1.621849e-38
0.029863965 -0.14757936 0.044004623 1.3262823e-38
0.03168923 -0.14757936 0.044004623 1.289188e-38
0.0043103397 -0.14940463 0.044004623 2.2958867e-38
0.0060121641 -0.14855109 0.047000352 2.2867037e-38
0.0078321695 -0.14855109 0.047000352 2.3417691e-38
0.0096521787 -0.14855109 0.047000352 2.3508809e-38
0.011472184 -0.14855109 0.047000352 2.3508092e-38
0.01329219 -0.14855109 0.047000352 2.3508092e-38
0.015261896 -0.14940463 0.044004623 2.3508807e-38
0.017087154 -0.14940463 0.044004623 2.3509517e-38
0.018912412 -0.14940463 0.044004623 2.350987e-38
0.020572219 -0.14855109 0.047000352 2.3234367e-38
0.022392225 -0.14855109 0.047000352 2.2866671e-38
0.02438819 -0.14940463 0.044004623 2.2404254e-38
0.026213448 -0.14940463 0.044004623 2.3507352e-38
0.028038707 -0.14940463 0.044004623 1.6034098e-38
0.029863965 -0.14940463 0.044004623 1.2617817e-38
0.03168923 -0.14940463 0.044004623 1.1785895e-38
