# .PCD v0.7 - Point Cloud Data file format
VERSION 0.7
FIELDS x y z rgb
SIZE 4 4 4 4
TYPE F F F F
COUNT 1 1 1 1
WIDTH 708
HEIGHT 1
VIEWPOINT 0 0 0 1 0 0 0
POINTS 708
DATA ascii
-0.0096652089 -0.11962132 -0.0032268539 1.7885585e-38
0.0052170185 -0.12863909 -0.041184045 2.350951e-38
0.0070087006 -0.12674956 -0.033230759 2.350987e-38
0.0090304678 -0.12674956 -0.033230759 2.3509876e-38
0.011052235 -0.12674956 -0.033230759 2.3509518e-38
0.013074002 -0.12674956 -0.033230759 2.3233296e-38
-0.011634371 -0.12159048 -0.0032268539 1.9544386e-38
-0.0096652089 -0.12159048 -0.0032268539 2.2679038e-38
-0.0076960484 -0.12159048 -0.0032268539 2.3509516e-38
0.0049869334 -0.12877132 -0.033230759 2.3508791e-38
0.0067640012 -0.12686269 -0.025255777 2.3509511e-38
0.0087717874 -0.12686269 -0.025255777 2.3509517e-38
0.01077957 -0.12686269 -0.025255777 2.3508439e-38
0.012643198 -0.12590279 -0.0212451 2.3508801e-38
0.014643951 -0.12590279 -0.0212451 2.3509527e-38
0.016644705 -0.12590279 -0.0212451 2.3509527e-38
0.018518314 -0.12516426 -0.018159248 2.341805e-38
0.020513654 -0.12516426 -0.018159248 2.3234379e-38
-0.031325981 -0.12355967 -0.0032268539 2.2313135e-38
-0.029356822 -0.12355967 -0.0032268539 2.3142539e-38
-0.015572693 -0.12355967 -0.0032268539 2.3509524e-38
-0.013603532 -0.12355967 -0.0032268539 2.3509521e-38
-0.011693719 -0.12259962 0.00075533241 2.3509521e-38
-0.0097315395 -0.12259962 0.00075533241 2.3416603e-38
-0.0076960484 -0.12355967 -0.0032268539 2.3508798e-38
-0.0057268878 -0.12355967 -0.0032268539 2.3232209e-38
-0.0037577255 -0.12355967 -0.0032268539 2.2586839e-38
-0.001788565 -0.12355967 -0.0032268539 2.3509873e-38
0.00018059555 -0.12355967 -0.0032268539 2.3509873e-38
0.0022314312 -0.12428416 -0.0062321201 2.3232562e-38
0.004756215 -0.12887047 -0.025255777 2.3509514e-38
0.0065462543 -0.12715961 -0.018159248 2.3230767e-38
0.008541598 -0.12715961 -0.018159248 2.3415161e-38
0.010536942 -0.12715961 -0.018159248 2.350952e-38
0.012532282 -0.12715961 -0.018159248 2.3509521e-38
0.014527625 -0.12715961 -0.018159248 2.3509527e-38
0.01652297 -0.12715961 -0.018159248 2.3509527e-38
0.018518314 -0.12715961 -0.018159248 2.2956359e-38
0.020513654 -0.12715961 -0.018159248 2.3048914e-38
0.022508997 -0.12715961 -0.018159248 2.3049991e-38
0.024504341 -0.12715961 -0.018159248 2.323402e-38
0.026499681 -0.12715961 -0.018159248 2.3050349e-38
-0.033308316 -0.1262586 -0.0062321201 2.3509511e-38
-0.031325981 -0.12552883 -0.0032268539 2.3509873e-38
-0.029356822 -0.12552883 -0.0032268539 2.3509879e-38
-0.02738766 -0.12552883 -0.0032268539 2.3509527e-38
-0.025418498 -0.12552883 -0.0032268539 2.3508809e-38
-0.015618077 -0.1245618 0.00075533241 2.3508804e-38
-0.013655897 -0.1245618 0.00075533241 2.2770876e-38
-0.011693719 -0.1245618 0.00075533241 2.350988e-38
-0.0097315395 -0.1245618 0.00075533241 2.304854e-38
-0.0077693602 -0.1245618 0.00075533241 2.3509879e-38
-0.0058071809 -0.1245618 0.00075533241 2.3509879e-38
-0.0038450016 -0.1245618 0.00075533241 2.3140736e-38
-0.001788565 -0.12552883 -0.0032268539 2.2957061e-38
0.00018059555 -0.12552883 -0.0032268539 2.3509876e-38
0.0022314312 -0.1262586 -0.0062321201 2.3048893e-38
0.0045509143 -0.12915494 -0.018159248 2.3509517e-38
0.0065462543 -0.12915494 -0.018159248 2.3508797e-38
0.008413109 -0.12819304 -0.014198042 2.3509517e-38
0.010401509 -0.12819304 -0.014198042 2.350952e-38
0.012532282 -0.12915494 -0.018159248 2.3139298e-38
0.014527625 -0.12915494 -0.018159248 2.3509524e-38
0.01652297 -0.12915494 -0.018159248 2.3509527e-38
0.018518314 -0.12915494 -0.018159248 2.3140387e-38
0.020513654 -0.12915494 -0.018159248 2.3509527e-38
0.022508997 -0.12915494 -0.018159248 2.3509527e-38
0.024504341 -0.12915494 -0.018159248 2.3509527e-38
0.026499681 -0.12915494 -0.018159248 2.295672e-38
0.028495025 -0.12915494 -0.018159248 2.3233303e-38
0.030490369 -0.12915494 -0.018159248 2.2126965e-38
-0.033308316 -0.12823303 -0.0062321201 2.3508787e-38
-0.031325981 -0.12749799 -0.0032268539 2.313856e-38
-0.029353328 -0.12652399 0.00075533241 2.350915e-38
-0.027391151 -0.12652399 0.00075533241 2.3508441e-38
-0.025418498 -0.12749799 -0.0032268539 2.3323699e-38
-0.023449339 -0.12749799 -0.0032268539 2.3508807e-38
-0.021529634 -0.12552677 0.0048324093 2.3509527e-38
-0.019574603 -0.12552677 0.0048324093 2.3508807e-38
-0.017647987 -0.12480606 0.0077790245 2.3508807e-38
-0.015618077 -0.12652399 0.00075533241 2.3509524e-38
-0.013655897 -0.12652399 0.00075533241 2.3509883e-38
-0.01175448 -0.12552677 0.0048324093 2.3325131e-38
-0.0097994497 -0.12552677 0.0048324093 2.350988e-38
-0.0077693602 -0.12652399 0.00075533241 2.3417324e-38
-0.0058071809 -0.12652399 0.00075533241 2.350988e-38
-0.0038450016 -0.12652399 0.00075533241 2.3325847e-38
-0.0018828223 -0.12652399 0.00075533241 2.0836565e-38
0.00018059555 -0.12749799 -0.0032268539 2.0467782e-38
0.0021497579 -0.12749799 -0.0032268539 2.3509879e-38
0.0042058593 -0.12823303 -0.0062321201 2.3509518e-38
0.0063001318 -0.12918831 -0.010137774 2.3509879e-38
0.0082814088 -0.12918831 -0.010137774 2.3509879e-38
0.010262686 -0.12918831 -0.010137774 2.3509161e-38
0.012389905 -0.13018142 -0.014198042 2.3508444e-38
0.014378301 -0.13018142 -0.014198042 2.3509524e-38
0.01652297 -0.13115029 -0.018159248 2.3509527e-38
0.018518314 -0.13115029 -0.018159248 2.3509527e-38
0.020513654 -0.13115029 -0.018159248 2.3509527e-38
0.022508997 -0.13115029 -0.018159248 2.2955996e-38
0.024504341 -0.13115029 -0.018159248 2.3509527e-38
0.026499681 -0.13115029 -0.018159248 2.3509527e-38
0.028495025 -0.13115029 -0.018159248 2.3509168e-38
0.030490369 -0.13115029 -0.018159248 2.2586859e-38
0.032485709 -0.13115029 -0.018159248 2.3509168e-38
0.05162115 -0.14264618 -0.065159895 2.2316024e-38
0.053420592 -0.1416633 -0.061141349 2.2224189e-38
0.055491298 -0.1416633 -0.061141349 2.2132353e-38
0.059932157 -0.14264618 -0.065159895 1.0148723e-38
0.062009901 -0.14264618 -0.065159895 5.5385775e-39
-0.033277687 -0.12848614 0.00075533241 2.3508057e-38
-0.031315509 -0.12848614 0.00075533241 2.3508053e-38
-0.029353328 -0.12848614 0.00075533241 2.3509143e-38
-0.027391151 -0.12848614 0.00075533241 2.3509161e-38
-0.025428973 -0.12848614 0.00075533241 2.3509527e-38
-0.023515228 -0.12576406 0.011805318 2.3509527e-38
-0.021529634 -0.1274818 0.0048324093 2.3509527e-38
-0.019574603 -0.1274818 0.0048324093 2.3509527e-38
-0.017647987 -0.12675591 0.0077790245 2.3416971e-38
-0.015698124 -0.12675591 0.0077790245 2.323258e-38
-0.013709511 -0.1274818 0.0048324093 2.3509527e-38
-0.01175448 -0.1274818 0.0048324093 2.3509527e-38
-0.0097994497 -0.1274818 0.0048324093 2.3509883e-38
-0.0078444192 -0.1274818 0.0048324093 2.2680122e-38
-0.0058893887 -0.1274818 0.0048324093 2.2865232e-38
-0.0038450016 -0.12848614 0.00075533241 2.3418047e-38
-0.0018828223 -0.12848614 0.00075533241 2.2127667e-38
0.00018059555 -0.12946714 -0.0032268539 1.890082e-38
0.0021497579 -0.12946714 -0.0032268539 1.8439842e-38
0.0041189184 -0.12946714 -0.0032268539 2.2496447e-38
0.0061802929 -0.13020746 -0.0062321201 2.3418043e-38
0.0081547229 -0.13020746 -0.0062321201 2.2588282e-38
0.010129153 -0.13020746 -0.0062321201 2.3048905e-38
0.012243967 -0.1311696 -0.010137774 2.3509883e-38
0.014225244 -0.1311696 -0.010137774 2.3509883e-38
0.016366702 -0.13216983 -0.014198042 2.2219144e-38
0.018355098 -0.13216983 -0.014198042 2.3509883e-38
0.020343494 -0.13216983 -0.014198042 2.3509527e-38
0.022331893 -0.13216983 -0.014198042 2.3048189e-38
0.024504341 -0.13314565 -0.018159248 2.3509527e-38
0.026499681 -0.13314565 -0.018159248 2.3509527e-38
0.028495025 -0.13314565 -0.018159248 2.3509168e-38
0.030490369 -0.13314565 -0.018159248 2.2770526e-38
0.032485709 -0.13314565 -0.018159248 2.3509168e-38
0.034262273 -0.13216983 -0.014198042 2.3509521e-38
0.047465649 -0.14472394 -0.065159895 2.2957425e-38
0.049543399 -0.14472394 -0.065159895 2.2683365e-38
0.051349889 -0.14373399 -0.061141349 2.2775202e-38
0.053420592 -0.14373399 -0.061141349 2.2499695e-38
0.055491298 -0.14373399 -0.061141349 2.2316024e-38
0.057854399 -0.14472394 -0.065159895 2.0658309e-38
0.059932157 -0.14472394 -0.065159895 1.4203533e-38
0.062009901 -0.14472394 -0.065159895 6.6431272e-39
0.064087659 -0.14472394 -0.065159895 4.9825171e-39
-0.041126404 -0.13044833 0.00075533241 2.1003289e-38
-0.039164223 -0.13044833 0.00075533241 1.9987695e-38
-0.037202045 -0.13044833 0.00075533241 1.989586e-38
-0.033277687 -0.13044833 0.00075533241 2.3504446e-38
-0.031315509 -0.13044833 0.00075533241 2.3507327e-38
-0.029347174 -0.12870578 0.0077790245 2.3506252e-38
-0.027397308 -0.12870578 0.0077790245 2.3509158e-38
-0.025447443 -0.12870578 0.0077790245 2.3509527e-38
-0.023515228 -0.12770687 0.011805318 2.3416251e-38
-0.021572422 -0.12770687 0.011805318 2.3416251e-38
-0.01962962 -0.12770687 0.011805318 2.3509527e-38
-0.017647987 -0.12870578 0.0077790245 2.3509527e-38
-0.015744008 -0.12770687 0.011805318 2.3324775e-38
-0.013801205 -0.12770687 0.011805318 2.3048907e-38
-0.011798394 -0.12870578 0.0077790245 2.3325494e-38
-0.0098485304 -0.12870578 0.0077790245 2.3141103e-38
-0.0078444192 -0.12943684 0.0048324093 2.341805e-38
-0.0058893887 -0.12943684 0.0048324093 2.341805e-38
-0.0039343582 -0.12943684 0.0048324093 2.341805e-38
-0.0018828223 -0.13044833 0.00075533241 2.341805e-38
7.9355203e-05 -0.13044833 0.00075533241 2.1297553e-38
0.0020415345 -0.13044833 0.00075533241 1.5121522e-38
0.0041189184 -0.1314363 -0.0032268539 1.8441284e-38
0.0060880808 -0.1314363 -0.0032268539 2.3050704e-38
0.0080572395 -0.1314363 -0.0032268539 2.3234376e-38
0.010026402 -0.1314363 -0.0032268539 2.2958507e-38
0.012103583 -0.1321819 -0.0062321201 2.3234376e-38
0.014078013 -0.1321819 -0.0062321201 2.3234376e-38
0.016052444 -0.1321819 -0.0062321201 2.2588645e-38
0.018187802 -0.13315089 -0.010137774 2.3509883e-38
0.020169079 -0.13315089 -0.010137774 2.3325492e-38
0.022331893 -0.13415821 -0.014198042 2.350988e-38
0.024320289 -0.13415821 -0.014198042 2.3509883e-38
0.026308686 -0.13415821 -0.014198042 2.3231857e-38
0.028297085 -0.13415821 -0.014198042 2.3324052e-38
0.030285481 -0.13415821 -0.014198042 2.3231857e-38
0.032273877 -0.13415821 -0.014198042 2.3508085e-38
0.034262273 -0.13415821 -0.014198042 1.9726617e-38
0.040996362 -0.14580469 -0.061141349 2.3504456e-38
0.043067072 -0.14580469 -0.061141349 2.3509143e-38
0.045137774 -0.14580469 -0.061141349 2.350951e-38
0.047465649 -0.14680167 -0.065159895 2.3509879e-38
0.049543399 -0.14680167 -0.065159895 2.341805e-38
0.051349889 -0.14580469 -0.061141349 2.2958873e-38
0.053420592 -0.14580469 -0.061141349 2.2130918e-38
0.055491298 -0.14580469 -0.061141349 2.2591531e-38
0.057561994 -0.14580469 -0.061141349 2.1486991e-38
0.059932157 -0.14680167 -0.065159895 2.2591531e-38
0.062009901 -0.14680167 -0.065159895 4.6141031e-39
0.064087659 -0.14680167 -0.065159895 5.7193632e-39
-0.043088581 -0.13241051 0.00075533241 1.961963e-38
-0.041126404 -0.13241051 0.00075533241 2.0169922e-38
-0.039164223 -0.13241051 0.00075533241 1.8877741e-38
-0.037202045 -0.13241051 0.00075533241 1.7679916e-38
-0.035172056 -0.12964968 0.011805318 2.0449022e-38
-0.033259816 -0.13139187 0.0048324093 2.1005073e-38
-0.031304788 -0.13139187 0.0048324093 2.3501916e-38
-0.029347174 -0.13065563 0.0077790245 2.3508767e-38
-0.027397308 -0.13065563 0.0077790245 2.3137133e-38
-0.025458034 -0.12964968 0.011805318 2.3509527e-38
-0.023515228 -0.12964968 0.011805318 2.3509527e-38
-0.021572422 -0.12964968 0.011805318 2.323258e-38
-0.01962962 -0.12964968 0.011805318 2.3509527e-38
-0.017686814 -0.12964968 0.011805318 2.3509527e-38
-0.015744008 -0.12964968 0.011805318 2.3141106e-38
-0.013801205 -0.12964968 0.011805318 2.3325497e-38
-0.011858399 -0.12964968 0.011805318 2.3509886e-38
-0.0099155949 -0.12964968 0.011805318 2.341805e-38
-0.0078986669 -0.13065563 0.0077790245 2.341805e-38
-0.0059488015 -0.13065563 0.0077790245 2.3141466e-38
-0.0039343582 -0.13139187 0.0048324093 2.1944002e-38
-0.0019793278 -0.13139187 0.0048324093 2.3234379e-38
7.9355203e-05 -0.13241051 0.00075533241 2.3234379e-38
0.0020415345 -0.13241051 0.00075533241 2.0285199e-38
0.0041189184 -0.13340546 -0.0032268539 1.7151987e-38
0.0060880808 -0.13340546 -0.0032268539 2.0656137e-38
0.0080572395 -0.13340546 -0.0032268539 2.2867037e-38
0.010026402 -0.13340546 -0.0032268539 2.2867037e-38
0.012103583 -0.13415633 -0.0062321201 2.2314577e-38
0.014078013 -0.13415633 -0.0062321201 2.295887e-38
0.016052444 -0.13415633 -0.0062321201 2.3142538e-38
0.018026873 -0.13415633 -0.0062321201 2.3234374e-38
0.020001303 -0.13415633 -0.0062321201 2.2865229e-38
0.022150356 -0.13513215 -0.010137774 2.3418042e-38
0.024320289 -0.13614662 -0.014198042 2.350988e-38
0.026308686 -0.13614662 -0.014198042 2.3232932e-38
0.028297085 -0.13614662 -0.014198042 2.3509879e-38
0.030075472 -0.13513215 -0.010137774 2.3509879e-38
0.032056749 -0.13513215 -0.010137774 2.3509521e-38
0.034038026 -0.13513215 -0.010137774 1.9910642e-38
0.035625499 -0.13340546 -0.0032268539 1.9445691e-38
0.040996362 -0.14787538 -0.061141349 2.2394507e-38
0.043067072 -0.14787538 -0.061141349 2.3506984e-38
0.045137774 -0.14787538 -0.061141349 2.3508431e-38
0.047208477 -0.14787538 -0.061141349 2.3507358e-38
0.049279179 -0.14787538 -0.061141349 2.3139661e-38
0.051349889 -0.14787538 -0.061141349 2.341805e-38
0.053420592 -0.14787538 -0.061141349 2.2958873e-38
0.055491298 -0.14787538 -0.061141349 2.2314589e-38
0.057561994 -0.14787538 -0.061141349 2.2775202e-38
0.059632704 -0.14787538 -0.061141349 2.2222395e-38
0.062009901 -0.14887942 -0.065159895 8.94586e-39
0.064087659 -0.14887942 -0.065159895 6.0867066e-39
-0.04701294 -0.1343727 0.00075533241 1.7504174e-38
-0.045050763 -0.1343727 0.00075533241 1.750057e-38
-0.043088581 -0.1343727 0.00075533241 1.9247965e-38
-0.041126404 -0.1343727 0.00075533241 2.1642887e-38
-0.039124906 -0.13334687 0.0048324093 1.9983004e-38
-0.037146628 -0.13260551 0.0077790245 1.9707133e-38
-0.035172056 -0.13159247 0.011805318 1.7864662e-38
-0.03322925 -0.13159247 0.011805318 1.7774625e-38
-0.031286448 -0.13159247 0.011805318 1.6855905e-38
-0.029343642 -0.13159247 0.011805318 1.6305983e-38
-0.027403496 -0.13082992 0.014836095 1.8338625e-38
-0.025466003 -0.13082992 0.014836095 2.2120815e-38
-0.023528513 -0.13082992 0.014836095 2.3508074e-38
-0.021591023 -0.13082992 0.014836095 2.3508795e-38
-0.019653533 -0.13082992 0.014836095 2.350952e-38
-0.017686814 -0.13159247 0.011805318 2.3509523e-38
-0.015744008 -0.13159247 0.011805318 2.3325494e-38
-0.013801205 -0.13159247 0.011805318 2.341805e-38
-0.011858399 -0.13159247 0.011805318 2.2773765e-38
-0.0099155949 -0.13159247 0.011805318 2.3234379e-38
-0.0079727909 -0.13159247 0.011805318 2.2958154e-38
-0.0059488015 -0.13260551 0.0077790245 2.2773763e-38
-0.003998938 -0.13260551 0.0077790245 2.341805e-38
-0.0019793278 -0.13334687 0.0048324093 2.341805e-38
7.9355203e-05 -0.1343727 0.00075533241 2.2772684e-38
0.0020415345 -0.1343727 0.00075533241 2.3234379e-38
0.0041189184 -0.13537462 -0.0032268539 2.0931648e-38
0.0060880808 -0.13537462 -0.0032268539 1.6322226e-38
0.0080572395 -0.13537462 -0.0032268539 1.8258335e-38
0.010026402 -0.13537462 -0.0032268539 2.2958873e-38
0.011995564 -0.13537462 -0.0032268539 2.2958873e-38
0.013964723 -0.13537462 -0.0032268539 2.2774476e-38
0.015933886 -0.13537462 -0.0032268539 2.3234376e-38
0.018026873 -0.13613077 -0.0062321201 2.3326208e-38
0.020001303 -0.13613077 -0.0062321201 2.3418045e-38
0.022150356 -0.13711344 -0.010137774 2.3418043e-38
0.024131637 -0.13711344 -0.010137774 2.350988e-38
0.026112914 -0.13711344 -0.010137774 2.3325129e-38
0.028297085 -0.138135 -0.014198042 2.3509879e-38
0.030075472 -0.13711344 -0.010137774 2.2956345e-38
0.031847887 -0.13613077 -0.0062321201 2.2956346e-38
0.033822317 -0.13613077 -0.0062321201 1.954222e-38
0.035625499 -0.13537462 -0.0032268539 1.8062754e-38
0.037594657 -0.13537462 -0.0032268539 1.8337535e-38
0.043067072 -0.14994611 -0.061141349 2.027473e-38
0.045137774 -0.14994611 -0.061141349 2.3504463e-38
0.047208477 -0.14994611 -0.061141349 2.3508434e-38
0.049279179 -0.14994611 -0.061141349 2.3509158e-38
0.051080462 -0.14894189 -0.057150103 2.323186e-38
0.053144168 -0.14894189 -0.057150103 2.341805e-38
0.055207878 -0.14894189 -0.057150103 2.3142544e-38
0.057271585 -0.14894189 -0.057150103 2.2774843e-38
0.059632704 -0.14994611 -0.061141349 2.2867037e-38
0.061703414 -0.14994611 -0.061141349 1.1803201e-38
0.063774109 -0.14994611 -0.061141349 7.5607577e-39
-0.045050763 -0.13633488 0.00075533241 1.8788425e-38
-0.043088581 -0.13633488 0.00075533241 1.9892609e-38
-0.041126404 -0.13633488 0.00075533241 2.0168111e-38
-0.039124906 -0.1353019 0.0048324093 1.9983001e-38
-0.037146628 -0.13455538 0.0077790245 1.9153237e-38
-0.035172056 -0.13353528 0.011805318 1.8231284e-38
-0.03322925 -0.13353528 0.011805318 1.7586633e-38
-0.031278476 -0.13276742 0.014836095 1.7771025e-38
-0.029340986 -0.13276742 0.014836095 1.7680991e-38
-0.027406979 -0.13176022 0.018811487 1.6669716e-38
-0.025476459 -0.13176022 0.018811487 2.045262e-38
-0.023545939 -0.13176022 0.018811487 2.3222095e-38
-0.02161542 -0.13176022 0.018811487 2.3508416e-38
-0.019684898 -0.13176022 0.018811487 2.3507346e-38
-0.017716041 -0.13276742 0.014836095 2.3509517e-38
-0.015823856 -0.13176022 0.018811487 2.341805e-38
-0.013893336 -0.13176022 0.018811487 2.3050708e-38
-0.011903568 -0.13276742 0.014836095 2.2958873e-38
-0.0099660782 -0.13276742 0.014836095 2.2958873e-38
-0.0079727909 -0.13353528 0.011805318 2.3142544e-38
-0.0060299849 -0.13353528 0.011805318 2.3234379e-38
-0.003998938 -0.13455538 0.0077790245 2.341805e-38
-0.0020490745 -0.13455538 0.0077790245 2.3509886e-38
7.9355203e-05 -0.13633488 0.00075533241 2.3509527e-38
0.0020415345 -0.13633488 0.00075533241 2.3509886e-38
0.0040037138 -0.13633488 0.00075533241 2.3141467e-38
0.0060880808 -0.13734378 -0.0032268539 1.761081e-38
0.0080572395 -0.13734378 -0.0032268539 1.8348375e-38
0.010026402 -0.13734378 -0.0032268539 2.3325856e-38
0.011995564 -0.13734378 -0.0032268539 2.3509527e-38
0.013964723 -0.13734378 -0.0032268539 2.304891e-38
0.015933886 -0.13734378 -0.0032268539 2.3509168e-38
0.018026873 -0.1381052 -0.0062321201 2.3324775e-38
0.020001303 -0.1381052 -0.0062321201 2.3509527e-38
0.022150356 -0.13909473 -0.010137774 2.3509883e-38
0.024131637 -0.13909473 -0.010137774 2.3232936e-38
0.026112914 -0.13909473 -0.010137774 2.3509883e-38
0.028297085 -0.14012341 -0.014198042 2.3418047e-38
0.030075472 -0.13909473 -0.010137774 2.3418047e-38
0.031847887 -0.1381052 -0.0062321201 2.2405333e-38
0.033822317 -0.1381052 -0.0062321201 2.185035e-38
0.035625499 -0.13734378 -0.0032268539 1.8158187e-38
0.037594657 -0.13734378 -0.0032268539 1.5850408e-38
-0.049048431 -0.13931294 -0.0032268539 1.731727e-38
-0.047079273 -0.13931294 -0.0032268539 1.842037e-38
-0.043088581 -0.13829704 0.00075533241 1.9891168e-38
-0.041126404 -0.13829704 0.00075533241 1.9983001e-38
-0.039124906 -0.13725694 0.0048324093 1.9706411e-38
-0.037146628 -0.13650523 0.0077790245 1.9245073e-38
-0.035172056 -0.13547809 0.011805318 1.8783016e-38
-0.03322925 -0.13547809 0.011805318 1.850571e-38
-0.031278476 -0.1347049 0.014836095 1.8597909e-38
-0.029340986 -0.1347049 0.014836095 1.8690817e-38
-0.027406979 -0.13369073 0.018811487 1.8969554e-38
-0.025476459 -0.13369073 0.018811487 1.7774248e-38
-0.023545939 -0.13369073 0.018811487 1.8976405e-38
-0.021639638 -0.13268389 0.022758268 2.3504805e-38
-0.019716037 -0.13268389 0.022758268 2.3508421e-38
-0.017754376 -0.13369073 0.018811487 2.3507352e-38
-0.015823856 -0.13369073 0.018811487 2.2864513e-38
-0.013893336 -0.13369073 0.018811487 2.2958873e-38
-0.011962815 -0.13369073 0.018811487 2.2867037e-38
-0.0099660782 -0.1347049 0.014836095 2.2867037e-38
-0.0080285864 -0.1347049 0.014836095 2.2958873e-38
-0.0060910964 -0.1347049 0.014836095 2.3234379e-38
-0.0040871808 -0.13547809 0.011805318 2.341805e-38
-0.0021443767 -0.13547809 0.011805318 2.3509883e-38
-9.9209137e-05 -0.13650523 0.0077790245 2.3509883e-38
0.0019307332 -0.13725694 0.0048324093 2.3509527e-38
0.0038857637 -0.13725694 0.0048324093 2.3509527e-38
0.005840796 -0.13725694 0.0048324093 2.1481229e-38
0.0079280725 -0.13829704 0.00075533241 2.1942207e-38
0.010026402 -0.13931294 -0.0032268539 2.3509527e-38
0.011995564 -0.13931294 -0.0032268539 2.3509527e-38
0.013964723 -0.13931294 -0.0032268539 2.3509527e-38
0.015933886 -0.13931294 -0.0032268539 2.3509527e-38
0.018026873 -0.14007963 -0.0062321201 2.3416971e-38
0.020001303 -0.14007963 -0.0062321201 2.3048189e-38
0.022150356 -0.14107598 -0.010137774 2.3324775e-38
0.024131637 -0.14107598 -0.010137774 2.3509886e-38
0.026112914 -0.14107598 -0.010137774 2.341805e-38
0.028297085 -0.14211179 -0.014198042 2.3234018e-38
0.030075472 -0.14107598 -0.010137774 2.2865955e-38
0.031847887 -0.14007963 -0.0062321201 2.2958151e-38
0.033822317 -0.14007963 -0.0062321201 2.3417679e-38
0.035625499 -0.13931294 -0.0032268539 2.1016251e-38
0.037594657 -0.13931294 -0.0032268539 1.5573458e-38
-0.049048431 -0.1412821 -0.0032268539 1.7592777e-38
-0.047079273 -0.1412821 -0.0032268539 1.8695877e-38
-0.045110106 -0.1412821 -0.0032268539 1.9431636e-38
-0.043088581 -0.14025922 0.00075533241 1.9890808e-38
-0.041126404 -0.14025922 0.00075533241 1.9705695e-38
-0.039124906 -0.13921197 0.0048324093 1.9337269e-38
-0.037146628 -0.13845511 0.0077790245 1.9151796e-38
-0.035172056 -0.13742088 0.011805318 1.8783016e-38
-0.03322925 -0.13742088 0.011805318 1.8690101e-38
-0.031278476 -0.13664238 0.014836095 1.8781221e-38
-0.029340986 -0.13664238 0.014836095 1.8597903e-38
-0.027406979 -0.13562126 0.018811487 1.9245419e-38
-0.025476459 -0.13562126 0.018811487 1.7219276e-38
-0.023545939 -0.13562126 0.018811487 1.7315439e-38
-0.021639638 -0.13460748 0.022758268 2.34976e-38
-0.019716037 -0.13460748 0.022758268 2.3508057e-38
-0.017792437 -0.13460748 0.022758268 2.3509149e-38
-0.015868835 -0.13460748 0.022758268 2.3509879e-38
-0.013945236 -0.13460748 0.022758268 2.3234379e-38
-0.011962815 -0.13562126 0.018811487 2.2958873e-38
-0.010032295 -0.13562126 0.018811487 2.2958873e-38
-0.0081017734 -0.13562126 0.018811487 2.3142544e-38
-0.0060910964 -0.13664238 0.014836095 2.3234379e-38
-0.0041536046 -0.13664238 0.014836095 2.341805e-38
-0.0022161147 -0.13664238 0.014836095 2.3509886e-38
-0.0002015708 -0.13742088 0.011805318 2.3509883e-38
0.0018506544 -0.13845511 0.0077790245 2.3509883e-38
0.0038005179 -0.13845511 0.0077790245 2.3509527e-38
0.0057503833 -0.13845511 0.0077790245 2.3509527e-38
0.0077958247 -0.13921197 0.0048324093 2.3509527e-38
0.009750857 -0.13921197 0.0048324093 2.3509527e-38
0.011852431 -0.14025922 0.00075533241 2.3140384e-38
0.013814609 -0.14025922 0.00075533241 2.2956712e-38
0.015776791 -0.14025922 0.00075533241 2.3325494e-38
0.017738968 -0.14025922 0.00075533241 2.341769e-38
0.019872207 -0.1412821 -0.0032268539 2.3509886e-38
0.02184137 -0.1412821 -0.0032268539 2.3509886e-38
0.023950167 -0.14205404 -0.0062321201 2.341805e-38
0.026112914 -0.14305727 -0.010137774 2.341805e-38
0.028297085 -0.1441002 -0.014198042 2.341805e-38
0.030075472 -0.14305727 -0.010137774 2.3509886e-38
0.031847887 -0.14205404 -0.0062321201 2.3509886e-38
0.033822317 -0.14205404 -0.0062321201 2.3509161e-38
0.03579675 -0.14205404 -0.0062321201 2.3503377e-38
0.037771177 -0.14205404 -0.0062321201 1.5662419e-38
0.03974561 -0.14205404 -0.0062321201 1.5292918e-38
-0.047079273 -0.14325126 -0.0032268539 1.9248331e-38
-0.045110106 -0.14325126 -0.0032268539 2.0075564e-38
-0.043088581 -0.14222141 0.00075533241 1.9982285e-38
-0.041126404 -0.14222141 0.00075533241 1.9704972e-38
-0.039124906 -0.141167 0.0048324093 1.90596e-38
-0.037146628 -0.14040495 0.0077790245 1.8782294e-38
-0.035172056 -0.13936369 0.011805318 1.8597906e-38
-0.03322925 -0.13936369 0.011805318 1.8781218e-38
-0.031278476 -0.13857989 0.014836095 1.8688306e-38
-0.029340986 -0.13857989 0.014836095 1.8504987e-38
-0.027403496 -0.13857989 0.014836095 1.8875197e-38
-0.025466003 -0.13857989 0.014836095 1.8231986e-38
-0.023545939 -0.1375518 0.018811487 1.832743e-38
-0.021639638 -0.13653107 0.022758268 2.3033021e-38
-0.019716037 -0.13653107 0.022758268 2.3502654e-38
-0.017792437 -0.13653107 0.022758268 2.3508425e-38
-0.015868835 -0.13653107 0.022758268 2.3509514e-38
-0.013945236 -0.13653107 0.022758268 2.3049261e-38
-0.012021636 -0.13653107 0.022758268 2.3234379e-38
-0.010098035 -0.13653107 0.022758268 2.3142544e-38
-0.0081744334 -0.13653107 0.022758268 2.3142544e-38
-0.0062508332 -0.13653107 0.022758268 2.3142544e-38
-0.0041536046 -0.13857989 0.014836095 2.3234379e-38
-0.0022161147 -0.13857989 0.014836095 2.341805e-38
-0.00027862471 -0.13857989 0.014836095 2.3509883e-38
0.0017412333 -0.13936369 0.011805318 2.3509883e-38
0.0036840392 -0.13936369 0.011805318 2.350988e-38
0.0056268414 -0.13936369 0.011805318 2.350952e-38
0.0077002486 -0.14040495 0.0077790245 2.3417324e-38
0.0096501103 -0.14040495 0.0077790245 2.350988e-38
0.011705886 -0.141167 0.0048324093 2.3325492e-38
0.013660918 -0.141167 0.0048324093 2.1113515e-38
0.015615947 -0.141167 0.0048324093 2.102132e-38
0.01757098 -0.141167 0.0048324093 2.3234376e-38
0.019701146 -0.14222141 0.00075533241 2.2680844e-38
0.02184137 -0.14325126 -0.0032268539 2.3049626e-38
0.023950167 -0.14402847 -0.0062321201 2.3509886e-38
0.025924597 -0.14402847 -0.0062321201 2.3509527e-38
0.028094191 -0.14503856 -0.010137774 2.3509168e-38
0.030075472 -0.14503856 -0.010137774 2.3509168e-38
0.032056749 -0.14503856 -0.010137774 2.3508451e-38
0.034038026 -0.14503856 -0.010137774 2.3505564e-38
0.036019307 -0.14503856 -0.010137774 2.3501584e-38
0.038000587 -0.14503856 -0.010137774 1.4460999e-38
0.040227469 -0.14608859 -0.014198042 1.5289681e-38
0.042215865 -0.14608859 -0.014198042 1.8794197e-38
-0.049048431 -0.14522041 -0.0032268539 1.9250496e-38
-0.047079273 -0.14522041 -0.0032268539 1.9892261e-38
-0.045050763 -0.14418359 0.00075533241 1.9798258e-38
-0.043088581 -0.14418359 0.00075533241 2.0073402e-38
-0.041079938 -0.14312203 0.0048324093 1.9519862e-38
-0.039124906 -0.14312203 0.0048324093 1.887449e-38
-0.037146628 -0.14235483 0.0077790245 1.8689378e-38
-0.035196766 -0.14235483 0.0077790245 1.8689022e-38
-0.033246901 -0.14235483 0.0077790245 1.8781218e-38
-0.031286448 -0.1413065 0.011805318 1.8872698e-38
-0.029343642 -0.1413065 0.011805318 1.8780855e-38
-0.027403496 -0.14051737 0.014836095 1.8965595e-38
-0.025466003 -0.14051737 0.014836095 1.8414937e-38
-0.02356324 -0.13845469 0.022758268 1.7864292e-38
-0.021639638 -0.13845469 0.022758268 2.1371695e-38
-0.019740416 -0.13765021 0.025848053 2.2298344e-38
-0.017822232 -0.13765021 0.025848053 2.3501579e-38
-0.015868835 -0.13845469 0.022758268 2.350843e-38
-0.013945236 -0.13845469 0.022758268 2.3509517e-38
-0.012021636 -0.13845469 0.022758268 2.3418047e-38
-0.010098035 -0.13845469 0.022758268 2.3142544e-38
-0.0081744334 -0.13845469 0.022758268 2.3142544e-38
-0.0062508332 -0.13845469 0.022758268 2.3142544e-38
-0.0041536046 -0.14051737 0.014836095 2.3234379e-38
-0.0022161147 -0.14051737 0.014836095 2.341805e-38
-0.00027862471 -0.14051737 0.014836095 2.3509883e-38
0.0016588671 -0.14051737 0.014836095 2.350988e-38
0.0036840392 -0.1413065 0.011805318 2.3509879e-38
0.0056268414 -0.1413065 0.011805318 2.3508798e-38
0.0075696474 -0.1413065 0.011805318 2.2956345e-38
0.0095124533 -0.1413065 0.011805318 2.3509879e-38
0.011599976 -0.14235483 0.0077790245 2.3234374e-38
0.013549841 -0.14235483 0.0077790245 2.0562137e-38
0.015615947 -0.14312203 0.0048324093 2.0008963e-38
0.01757098 -0.14312203 0.0048324093 2.3050701e-38
0.019701146 -0.14418359 0.00075533241 2.3234376e-38
0.021663327 -0.14418359 0.00075533241 2.3509883e-38
0.023950167 -0.1460029 -0.0062321201 2.3509524e-38
0.025924597 -0.1460029 -0.0062321201 2.3508446e-38
0.028094191 -0.14701982 -0.010137774 2.3508092e-38
0.030075472 -0.14701982 -0.010137774 2.3507733e-38
0.032056749 -0.14701982 -0.010137774 2.3507016e-38
0.034038026 -0.14701982 -0.010137774 2.3505927e-38
0.036019307 -0.14701982 -0.010137774 2.3501227e-38
0.038000587 -0.14701982 -0.010137774 1.6945605e-38
0.040227469 -0.148077 -0.014198042 1.7222912e-38
0.042215865 -0.148077 -0.014198042 1.9528525e-38
-0.049048431 -0.1471896 -0.0032268539 1.9710752e-38
-0.047079273 -0.1471896 -0.0032268539 1.9523116e-38
-0.045050763 -0.14614578 0.00075533241 1.8598996e-38
-0.043088581 -0.14614578 0.00075533241 1.9704256e-38
-0.041079938 -0.14507706 0.0048324093 1.9335471e-38
-0.039124906 -0.14507706 0.0048324093 1.8965609e-38
-0.037146628 -0.14430468 0.0077790245 1.8781218e-38
-0.035196766 -0.14430468 0.0077790245 1.8873414e-38
-0.033246901 -0.14430468 0.0077790245 1.8964893e-38
-0.031286448 -0.14324932 0.011805318 1.9056373e-38
-0.029343642 -0.14324932 0.011805318 1.896453e-38
-0.027403496 -0.14245488 0.014836095 1.8964156e-38
-0.025466003 -0.14245488 0.014836095 1.9795713e-38
-0.02356324 -0.14037828 0.022758268 1.8139077e-38
-0.021639638 -0.14037828 0.022758268 1.8511827e-38
-0.019740416 -0.13956837 0.025848053 1.9253003e-38
-0.017822232 -0.13956837 0.025848053 2.3498332e-38
-0.01590405 -0.13956837 0.025848053 2.3508424e-38
-0.013985867 -0.13956837 0.025848053 2.350951e-38
-0.012067684 -0.13956837 0.025848053 2.3509879e-38
-0.0101495 -0.13956837 0.025848053 2.3234379e-38
-0.0082313167 -0.13956837 0.025848053 2.3142544e-38
-0.0063131349 -0.13956837 0.025848053 2.2958873e-38
-0.0042407336 -0.14141284 0.018811487 2.3142544e-38
-0.0022161147 -0.14245488 0.014836095 2.3234379e-38
-0.00027862471 -0.14245488 0.014836095 2.341805e-38
0.0016588671 -0.14245488 0.014836095 2.350988e-38
0.0035963571 -0.14245488 0.014836095 2.3508441e-38
0.0056268414 -0.14324932 0.011805318 2.3509879e-38
0.0075696474 -0.14324932 0.011805318 2.3418043e-38
0.0095124533 -0.14324932 0.011805318 2.3234012e-38
0.011455256 -0.14324932 0.011805318 2.3142537e-38
0.013549841 -0.14430468 0.0077790245 2.1576289e-38
0.015499703 -0.14430468 0.0077790245 2.0746528e-38
0.017449569 -0.14430468 0.0077790245 2.2129462e-38
0.019526009 -0.14507706 0.0048324093 2.350988e-38
0.021663327 -0.14614578 0.00075533241 2.3139658e-38
0.023810532 -0.1471896 -0.0032268539 2.3228977e-38
0.025779691 -0.1471896 -0.0032268539 2.3506647e-38
0.027899027 -0.14797734 -0.0062321201 2.350665e-38
0.029873457 -0.14797734 -0.0062321201 2.3501611e-38
0.032056749 -0.14900111 -0.010137774 1.9991697e-38
0.034038026 -0.14900111 -0.010137774 1.5840007e-38
-0.05101759 -0.14915876 -0.0032268539 1.6579349e-38
-0.049048431 -0.14915876 -0.0032268539 1.9525282e-38
-0.047079273 -0.14915876 -0.0032268539 1.9062138e-38
-0.045050763 -0.14810793 0.00075533241 1.8138374e-38
-0.043088581 -0.14810793 0.00075533241 1.9242922e-38
-0.041126404 -0.14810793 0.00075533241 1.9334392e-38
-0.039164223 -0.14810793 0.00075533241 1.9242196e-38
-0.037169877 -0.1470321 0.0048324093 1.9057805e-38
-0.035214849 -0.1470321 0.0048324093 1.8872698e-38
-0.033259816 -0.1470321 0.0048324093 1.8596113e-38
-0.031297036 -0.14625455 0.0077790245 1.8318808e-38
-0.029343642 -0.1451921 0.011805318 1.8225886e-38
-0.027403496 -0.14439236 0.014836095 1.8225875e-38
-0.025466003 -0.14439236 0.014836095 2.0715872e-38
-0.023545939 -0.14334334 0.018811487 1.896704e-38
-0.021639638 -0.14230187 0.022758268 1.7586628e-38
-0.019740416 -0.14148657 0.025848053 1.6761197e-38
-0.017822232 -0.14148657 0.025848053 2.1835924e-38
-0.01590405 -0.14148657 0.025848053 2.3506618e-38
-0.013985867 -0.14148657 0.025848053 2.3507707e-38
-0.012067684 -0.14148657 0.025848053 2.3509873e-38
-0.0101495 -0.14148657 0.025848053 2.3418047e-38
-0.0082313167 -0.14148657 0.025848053 2.3142544e-38
-0.0063131349 -0.14148657 0.025848053 2.2958873e-38
-0.0042407336 -0.14334334 0.018811487 2.3142544e-38
-0.0022161147 -0.14439236 0.014836095 2.3234379e-38
-0.00027862471 -0.14439236 0.014836095 2.341805e-38
0.0016588671 -0.14439236 0.014836095 2.3509883e-38
0.0035963571 -0.14439236 0.014836095 2.3325131e-38
0.0056268414 -0.1451921 0.011805318 2.3509883e-38
0.0075696474 -0.1451921 0.011805318 2.3509883e-38
0.0095124533 -0.1451921 0.011805318 2.2866311e-38
0.011455256 -0.1451921 0.011805318 2.2774476e-38
0.013398062 -0.1451921 0.011805318 2.2406049e-38
0.015499703 -0.14625455 0.0077790245 2.2037267e-38
0.017449569 -0.14625455 0.0077790245 2.2588643e-38
0.019399434 -0.14625455 0.0077790245 2.3509879e-38
0.021481041 -0.1470321 0.0048324093 2.304494e-38
0.023625504 -0.14810793 0.00075533241 2.2856952e-38
0.025779691 -0.14915876 -0.0032268539 2.3500884e-38
0.027748853 -0.14915876 -0.0032268539 2.3501967e-38
0.029873457 -0.14995177 -0.0062321201 2.3121303e-38
-0.031304788 -0.14898713 0.0048324093 1.7120985e-38
-0.029343642 -0.14713491 0.011805318 1.6659642e-38
-0.027403496 -0.14632986 0.014836095 1.7857095e-38
-0.025466003 -0.14632986 0.014836095 1.8964156e-38
-0.023545939 -0.14527388 0.018811487 1.8320229e-38
-0.021639638 -0.14422549 0.022758268 1.8415308e-38
-0.019740416 -0.14340474 0.025848053 1.5929274e-38
-0.017822232 -0.14340474 0.025848053 1.7593119e-38
-0.01590405 -0.14340474 0.025848053 2.1470025e-38
-0.013985867 -0.14340474 0.025848053 2.350518e-38
-0.012067684 -0.14340474 0.025848053 2.3509153e-38
-0.0101495 -0.14340474 0.025848053 2.350988e-38
-0.0082313167 -0.14340474 0.025848053 2.3142544e-38
-0.0063131349 -0.14340474 0.025848053 2.2958873e-38
-0.0043272329 -0.14422549 0.022758268 2.3142544e-38
-0.0023102118 -0.14527388 0.018811487 2.3234379e-38
-0.00037969183 -0.14527388 0.018811487 2.3509886e-38
0.0016588671 -0.14632986 0.014836095 2.3509527e-38
0.0035963571 -0.14632986 0.014836095 2.3509527e-38
0.0056268414 -0.14713491 0.011805318 2.3509886e-38
0.0075696474 -0.14713491 0.011805318 2.341805e-38
0.0095124533 -0.14713491 0.011805318 2.3234379e-38
0.011455256 -0.14713491 0.011805318 2.3142544e-38
0.013398062 -0.14713491 0.011805318 2.2866671e-38
0.015499703 -0.14820443 0.0077790245 2.3234012e-38
0.017449569 -0.14820443 0.0077790245 2.3509879e-38
0.019399434 -0.14820443 0.0077790245 2.3508798e-38
0.021481041 -0.14898713 0.0048324093 2.1289621e-38
-0.027403496 -0.14826734 0.014836095 1.7673068e-38
-0.025466003 -0.14826734 0.014836095 1.767342e-38
-0.02356324 -0.14614908 0.022758268 1.8227317e-38
-0.021658599 -0.14532293 0.025848053 1.7584108e-38
-0.019740416 -0.14532293 0.025848053 1.7125652e-38
-0.017822232 -0.14532293 0.025848053 1.7314368e-38
-0.015949801 -0.14424954 0.029862426 1.704283e-38
-0.014038656 -0.14424954 0.029862426 2.3507337e-38
-0.01212751 -0.14424954 0.029862426 2.3508428e-38
-0.010216366 -0.14424954 0.029862426 2.3509518e-38
-0.0083052209 -0.14424954 0.029862426 2.3234379e-38
-0.006394078 -0.14424954 0.029862426 2.2958873e-38
-0.0043949513 -0.14532293 0.025848053 2.3050708e-38
-0.0024036327 -0.14614908 0.022758268 2.3233662e-38
-0.00037969183 -0.14720438 0.018811487 2.3509527e-38
0.0015508281 -0.14720438 0.018811487 2.3509527e-38
0.0035963571 -0.14826734 0.014836095 2.3509168e-38
0.005533847 -0.14826734 0.014836095 2.3509527e-38
0.0075696474 -0.14907773 0.011805318 2.2957079e-38
0.0095124533 -0.14907773 0.011805318 2.341805e-38
0.011455256 -0.14907773 0.011805318 2.3142544e-38
0.013398062 -0.14907773 0.011805318 2.2865235e-38
-0.02356324 -0.14807267 0.022758268 1.8596102e-38
-0.021658599 -0.1472411 0.025848053 1.8320594e-38
-0.019740416 -0.1472411 0.025848053 1.7677744e-38
-0.017822232 -0.1472411 0.025848053 1.758987e-38
-0.015949801 -0.14616071 0.029862426 1.7133582e-38
-0.014038656 -0.14616071 0.029862426 2.3506975e-38
-0.01212751 -0.14616071 0.029862426 2.3508787e-38
-0.010216366 -0.14616071 0.029862426 2.3509876e-38
-0.0083052209 -0.14616071 0.029862426 2.3050347e-38
-0.006394078 -0.14616071 0.029862426 2.3142544e-38
-0.0044829333 -0.14616071 0.029862426 2.3234379e-38
-0.0024767676 -0.1472411 0.025848053 2.341805e-38
-0.00048003253 -0.14807267 0.022758268 2.3509167e-38
0.0015508281 -0.14913492 0.018811487 2.3324055e-38
0.0034813499 -0.14913492 0.018811487 2.3047837e-38
-0.021639638 -0.1499963 0.022758268 1.8597181e-38
-0.019740416 -0.1491593 0.025848053 1.795361e-38
-0.017822232 -0.1491593 0.025848053 1.7311483e-38
-0.015949801 -0.14807184 0.029862426 1.6763358e-38
-0.014038656 -0.14807184 0.029862426 2.350481e-38
-0.01212751 -0.14807184 0.029862426 2.3508784e-38
-0.010216366 -0.14807184 0.029862426 2.3509517e-38
-0.0083052209 -0.14807184 0.029862426 2.3326213e-38
-0.006394078 -0.14807184 0.029862426 2.3050708e-38
-0.0044829333 -0.14807184 0.029862426 2.3234379e-38
-0.0024767676 -0.1491593 0.025848053 2.3509886e-38
-0.000558584 -0.1491593 0.025848053 2.3509165e-38
0.0014435695 -0.1499963 0.022758268 2.3508809e-38
-0.015949801 -0.14998297 0.029862426 1.5841036e-38
-0.014038656 -0.14998297 0.029862426 2.3500487e-38
-0.01212751 -0.14998297 0.029862426 2.3508423e-38
-0.010216366 -0.14998297 0.029862426 2.3509514e-38
-0.0083052209 -0.14998297 0.029862426 2.3509886e-38
-0.006394078 -0.14998297 0.029862426 2.3049991e-38
-0.0044829333 -0.14998297 0.029862426 2.2957078e-38
