# .PCD v0.7 - Point Cloud Data file format
VERSION 0.7
FIELDS x y z rgb
SIZE 4 4 4 4
TYPE F F F F
COUNT 1 1 1 1
WIDTH 870
HEIGHT 1
VIEWPOINT 0 0 0 1 0 0 0
POINTS 870
DATA ascii
-0.018091949 -0.11962132 -0.037664477 4.8870872e-39
-0.016122788 -0.11962132 -0.037664477 5.2555138e-39
-0.014153627 -0.11962132 -0.037664477 5.2565956e-39
-0.012184464 -0.11962132 -0.037664477 4.6108689e-39
-0.02399943 -0.12159048 -0.037664477 2.9502433e-39
-0.022030272 -0.12159048 -0.037664477 4.7941587e-39
-0.020061109 -0.12159048 -0.037664477 7.0994124e-39
-0.018091949 -0.12159048 -0.037664477 1.0603211e-38
-0.016122788 -0.12159048 -0.037664477 1.2631517e-38
-0.014153627 -0.12159048 -0.037664477 1.3922982e-38
-0.012184464 -0.12159048 -0.037664477 1.106492e-38
-0.010215304 -0.12159048 -0.037664477 9.5901518e-39
-0.022030272 -0.12355967 -0.037664477 2.2126934e-38
-0.020061109 -0.12355967 -0.037664477 2.3141092e-38
-0.018091949 -0.12355967 -0.037664477 2.323365e-38
-0.016122788 -0.12355967 -0.037664477 2.3326208e-38
-0.014153627 -0.12355967 -0.037664477 2.341805e-38
-0.012184464 -0.12355967 -0.037664477 2.3142544e-38
-0.010215304 -0.12355967 -0.037664477 2.3142544e-38
-0.020061109 -0.12552883 -0.037664477 2.3509876e-38
-0.018091949 -0.12552883 -0.037664477 2.3509879e-38
-0.016122788 -0.12552883 -0.037664477 2.3418045e-38
-0.014212974 -0.1245618 -0.03368229 2.2773039e-38
-0.012250795 -0.1245618 -0.03368229 2.3050349e-38
-0.010288616 -0.1245618 -0.03368229 2.3142544e-38
-0.008468057 -0.12285618 -0.026658598 2.3142544e-38
-0.0065181935 -0.12285618 -0.026658598 2.286632e-38
-0.0047353702 -0.12114246 -0.019601528 2.2958873e-38
-0.002999288 -0.11921866 -0.011679355 2.2958873e-38
-0.0011596577 -0.11846836 -0.0085895695 2.2867037e-38
0.00075852592 -0.11846836 -0.0085895695 2.2775202e-38
0.0027715126 -0.11921866 -0.011679355 2.2683366e-38
0.0048231343 -0.12017711 -0.015626136 1.7244198e-38
0.006513075 -0.11846836 -0.0085895695 9.4997638e-39
0.0084312605 -0.11846836 -0.0085895695 5.4431561e-39
0.010349442 -0.11846836 -0.0085895695 4.1527732e-39
-0.027948227 -0.12652399 -0.03368229 2.2863415e-38
-0.025986049 -0.12652399 -0.03368229 2.3509869e-38
-0.020061109 -0.12749799 -0.037664477 2.3509876e-38
-0.018091949 -0.12749799 -0.037664477 2.3509879e-38
-0.016175153 -0.12652399 -0.03368229 2.2403891e-38
-0.014317649 -0.12480606 -0.026658598 2.3509886e-38
-0.01243485 -0.12382124 -0.022632305 2.341805e-38
-0.010492046 -0.12382124 -0.022632305 2.3234379e-38
-0.0085492404 -0.12382124 -0.022632305 2.2589371e-38
-0.0066064363 -0.12382124 -0.022632305 2.2312784e-38
-0.0047353702 -0.12307997 -0.019601528 2.2866677e-38
-0.002999288 -0.12114228 -0.011679355 2.3142544e-38
-0.0011596577 -0.12038656 -0.0085895695 2.2683007e-38
0.00075852592 -0.12038656 -0.0085895695 2.249826e-38
0.0026767077 -0.12038656 -0.0085895695 2.2037648e-38
0.0046951147 -0.12114228 -0.011679355 2.2867037e-38
0.006513075 -0.12038656 -0.0085895695 2.2867037e-38
0.0084312605 -0.12038656 -0.0085895695 2.2683366e-38
0.010349442 -0.12038656 -0.0085895695 2.2867037e-38
0.012267624 -0.12038656 -0.0085895695 2.0655069e-38
-0.027948227 -0.12848614 -0.03368229 2.350915e-38
-0.025986049 -0.12848614 -0.03368229 2.3509153e-38
-0.024048887 -0.1274818 -0.029605214 2.3509876e-38
-0.022093859 -0.1274818 -0.029605214 2.3509879e-38
-0.020138826 -0.1274818 -0.029605214 2.350988e-38
-0.018183798 -0.1274818 -0.029605214 2.3509883e-38
-0.016175153 -0.12848614 -0.03368229 2.3509886e-38
-0.014317649 -0.12675591 -0.026658598 2.341769e-38
-0.01243485 -0.12576406 -0.022632305 2.3509886e-38
-0.010492046 -0.12576406 -0.022632305 2.341805e-38
-0.0085492404 -0.12576406 -0.022632305 2.341805e-38
-0.0066064363 -0.12576406 -0.022632305 2.341805e-38
-0.0047353702 -0.12501745 -0.019601528 2.3234379e-38
-0.0028989473 -0.12403814 -0.015626136 2.3234379e-38
-0.0011596577 -0.12230472 -0.0085895695 2.3234379e-38
0.00075852592 -0.12230472 -0.0085895695 2.3234379e-38
0.0026767077 -0.12230472 -0.0085895695 2.3234379e-38
0.0045948932 -0.12230472 -0.0085895695 2.3234379e-38
0.006513075 -0.12230472 -0.0085895695 2.2865602e-38
0.0082869688 -0.12131582 -0.0045751962 2.3234379e-38
0.010198114 -0.12131582 -0.0045751962 2.2865602e-38
0.012109258 -0.12131582 -0.0045751962 2.2405344e-38
-0.029910408 -0.13044833 -0.03368229 2.2771233e-38
-0.027948227 -0.13044833 -0.03368229 2.3509517e-38
-0.025986049 -0.13044833 -0.03368229 2.3509879e-38
-0.024048887 -0.12943684 -0.029605214 2.3508801e-38
-0.022117108 -0.12870578 -0.026658598 2.3509164e-38
-0.020167243 -0.12870578 -0.026658598 2.3139664e-38
-0.018217377 -0.12870578 -0.026658598 2.3324778e-38
-0.016228765 -0.12943684 -0.029605214 2.3048191e-38
-0.014377655 -0.12770687 -0.022632305 2.314039e-38
-0.012485334 -0.12695493 -0.019601528 2.3325138e-38
-0.010547842 -0.12695493 -0.019601528 2.2956715e-38
-0.0085492404 -0.12770687 -0.022632305 2.304891e-38
-0.0066064363 -0.12770687 -0.022632305 2.3509886e-38
-0.0047353702 -0.12695493 -0.019601528 2.3141822e-38
-0.0028989473 -0.12596865 -0.015626136 2.2864513e-38
-0.0011596577 -0.12422292 -0.0085895695 2.341769e-38
0.00075852592 -0.12422292 -0.0085895695 2.3509527e-38
0.0026767077 -0.12422292 -0.0085895695 2.1757098e-38
0.0045948932 -0.12422292 -0.0085895695 2.3048194e-38
0.0063758241 -0.12322696 -0.0045751962 2.3509527e-38
0.0081815505 -0.1224993 -0.0016422902 2.2495736e-38
0.010087554 -0.1224993 -0.0016422902 2.2956715e-38
0.011993554 -0.1224993 -0.0016422902 2.341805e-38
-0.046001278 -0.13988586 -0.063601673 2.3509527e-38
-0.043986641 -0.13988586 -0.063601673 2.2771614e-38
-0.041934315 -0.13890938 -0.0596934 2.2863809e-38
-0.039926529 -0.13890938 -0.0596934 2.3509168e-38
-0.033845238 -0.13340546 -0.037664477 1.982206e-38
-0.031872585 -0.13241051 -0.03368229 2.286415e-38
-0.029910408 -0.13241051 -0.03368229 2.3508441e-38
-0.027958948 -0.13139187 -0.029605214 2.3509521e-38
-0.02600392 -0.13139187 -0.029605214 2.3416248e-38
-0.02406697 -0.13065563 -0.026658598 2.3509167e-38
-0.022117108 -0.13065563 -0.026658598 2.3509168e-38
-0.02020607 -0.12964968 -0.022632305 2.3509168e-38
-0.018263265 -0.12964968 -0.022632305 2.3509168e-38
-0.01632046 -0.12964968 -0.022632305 2.3508809e-38
-0.014422824 -0.12889244 -0.019601528 2.3416615e-38
-0.012485334 -0.12889244 -0.019601528 2.3509168e-38
-0.010547842 -0.12889244 -0.019601528 2.3509527e-38
-0.008690509 -0.12789918 -0.015626136 2.3509168e-38
-0.0067599891 -0.12789918 -0.015626136 2.3509527e-38
-0.0048294673 -0.12789918 -0.015626136 2.3509886e-38
-0.002999288 -0.12691309 -0.011679355 2.3509883e-38
-0.0011596577 -0.12614109 -0.0085895695 2.3509883e-38
0.00064238999 -0.12513812 -0.0045751962 2.3509168e-38
0.0025535347 -0.12513812 -0.0045751962 2.3508809e-38
0.0044646794 -0.12513812 -0.0045751962 2.3508809e-38
0.0063758241 -0.12513812 -0.0045751962 2.3323336e-38
0.0080725113 -0.12364738 0.0013913478 2.3509165e-38
0.0097117135 -0.12191428 0.0083277784 2.3509524e-38
0.011321132 -0.12014665 0.015402611 2.3509883e-38
0.013076139 -0.11941226 0.018341955 2.3509523e-38
0.014947102 -0.11941226 0.018341955 2.3509883e-38
0.016818065 -0.11941226 0.018341955 2.3418047e-38
0.018689029 -0.11941226 0.018341955 2.3141466e-38
0.020559993 -0.11941226 0.018341955 2.2865958e-38
0.022430956 -0.11941226 0.018341955 2.3234379e-38
0.024301916 -0.11941226 0.018341955 2.2958514e-38
0.02617288 -0.11941226 0.018341955 2.3142544e-38
0.028206185 -0.12014665 0.015402611 2.2867037e-38
-0.050030556 -0.14190049 -0.063601673 2.3509879e-38
-0.048015915 -0.14190049 -0.063601673 2.3141822e-38
-0.046001278 -0.14190049 -0.063601673 2.2958155e-38
-0.043986641 -0.14190049 -0.063601673 2.3234379e-38
-0.041934315 -0.14091717 -0.0596934 2.3417691e-38
-0.039870538 -0.13913165 -0.052596871 2.2771969e-38
-0.037850887 -0.138135 -0.048635665 2.332478e-38
-0.035827573 -0.13613077 -0.040669743 2.3509527e-38
-0.033834763 -0.1343727 -0.03368229 2.3324778e-38
-0.031872585 -0.1343727 -0.03368229 2.3509168e-38
-0.029913981 -0.13334687 -0.029605214 2.2675806e-38
-0.0279667 -0.13260551 -0.026658598 2.3505568e-38
-0.026016835 -0.13260551 -0.026658598 2.3507733e-38
-0.02409168 -0.13159247 -0.022632305 2.3507733e-38
-0.022172786 -0.13082992 -0.019601528 2.0185448e-38
-0.020235296 -0.13082992 -0.019601528 1.3731754e-38
-0.018297806 -0.13082992 -0.019601528 1.4470398e-38
-0.016412592 -0.12982969 -0.015626136 1.8988347e-38
-0.014482071 -0.12982969 -0.015626136 1.9819551e-38
-0.012551551 -0.12982969 -0.015626136 2.2954565e-38
-0.010621029 -0.12982969 -0.015626136 2.3509168e-38
-0.0087700887 -0.12883668 -0.011679355 2.2956359e-38
-0.0068464885 -0.12883668 -0.011679355 2.3509886e-38
-0.0049228882 -0.12883668 -0.011679355 2.3509886e-38
-0.002999288 -0.12883668 -0.011679355 2.3325497e-38
-0.0011596577 -0.12805928 -0.0085895695 2.3324778e-38
0.00064238999 -0.12704925 -0.0045751962 2.3509168e-38
0.0025535347 -0.12704925 -0.0045751962 2.3414453e-38
0.0043695467 -0.12631132 -0.0016422902 2.3508807e-38
0.0061718272 -0.12554805 0.0013913478 2.3509163e-38
0.0079308385 -0.12455635 0.0053328839 2.3508081e-38
0.0095607275 -0.12279506 0.012333091 2.3415884e-38
0.011205175 -0.12128322 0.018341955 2.3509521e-38
0.013076139 -0.12128322 0.018341955 2.350952e-38
0.014947102 -0.12128322 0.018341955 2.3048905e-38
0.016818065 -0.12128322 0.018341955 2.341805e-38
0.018689029 -0.12128322 0.018341955 2.2957075e-38
0.020559993 -0.12128322 0.018341955 2.3233662e-38
0.022430956 -0.12128322 0.018341955 2.341805e-38
0.024301916 -0.12128322 0.018341955 2.341805e-38
0.02617288 -0.12128322 0.018341955 2.3509886e-38
0.028043844 -0.12128322 0.018341955 2.3141467e-38
0.029914808 -0.12128322 0.018341955 2.2773408e-38
0.031785768 -0.12128322 0.018341955 2.3234379e-38
-0.066272438 -0.14494546 -0.067668378 1.1250014e-38
-0.06425067 -0.14494546 -0.067668378 1.0881594e-38
-0.062228899 -0.14494546 -0.067668378 9.5001057e-39
-0.054141827 -0.14494546 -0.067668378 1.7511761e-38
-0.052045193 -0.14391513 -0.063601673 2.3506644e-38
-0.050030556 -0.14391513 -0.063601673 2.3509527e-38
-0.048015915 -0.14391513 -0.063601673 2.2314228e-38
-0.046001278 -0.14391513 -0.063601673 2.2683366e-38
-0.043986641 -0.14391513 -0.063601673 2.2775202e-38
-0.041972004 -0.14391513 -0.063601673 2.2497526e-38
-0.039870538 -0.14112701 -0.052596871 2.3509876e-38
-0.037850887 -0.14012341 -0.048635665 2.35088e-38
-0.035814397 -0.13734378 -0.037664477 2.3230059e-38
-0.033834763 -0.13633488 -0.03368229 2.3508451e-38
-0.031869013 -0.1353019 -0.029605214 2.2674381e-38
-0.029920094 -0.13353528 -0.022632305 2.2300189e-38
-0.027977288 -0.13353528 -0.022632305 2.3498014e-38
-0.02604777 -0.13276742 -0.019601528 2.3500545e-38
-0.024134673 -0.13176022 -0.015626136 2.3500542e-38
-0.022235293 -0.13076027 -0.011679355 1.9716903e-38
-0.020311693 -0.13076027 -0.011679355 1.2988415e-38
-0.018423304 -0.12997745 -0.0085895695 1.2067891e-38
-0.016505122 -0.12997745 -0.0085895695 1.3545188e-38
-0.014586939 -0.12997745 -0.0085895695 1.3731757e-38
-0.012668756 -0.12997745 -0.0085895695 2.3046042e-38
-0.010693689 -0.13076027 -0.011679355 2.3509168e-38
-0.0088323904 -0.12997745 -0.0085895695 2.3325497e-38
-0.0069142068 -0.12997745 -0.0085895695 2.3234379e-38
-0.0049960231 -0.12997745 -0.0085895695 2.2589374e-38
-0.0030778395 -0.12997745 -0.0085895695 2.3417691e-38
-0.0012687547 -0.12896039 -0.0045751962 2.3509168e-38
0.00055754278 -0.12821732 -0.0016422902 2.3509527e-38
0.0023704628 -0.12744872 0.0013913478 2.3509527e-38
0.0042711431 -0.12744872 0.0013913478 2.3509524e-38
0.0060370686 -0.12645011 0.0053328839 2.3509879e-38
0.0078231925 -0.12569134 0.0083277784 2.3509873e-38
0.0095607275 -0.12467657 0.012333091 2.3509873e-38
0.011205175 -0.12315418 0.018341955 2.3509879e-38
0.013076139 -0.12315418 0.018341955 2.3509883e-38
0.014947102 -0.12315418 0.018341955 2.3234379e-38
0.016818065 -0.12315418 0.018341955 2.2865602e-38
0.018689029 -0.12315418 0.018341955 2.3234379e-38
0.020559993 -0.12315418 0.018341955 2.3417691e-38
0.022430956 -0.12315418 0.018341955 2.3232227e-38
0.024301916 -0.12315418 0.018341955 2.3509168e-38
0.02617288 -0.12315418 0.018341955 2.3509163e-38
0.028043844 -0.12315418 0.018341955 2.3508085e-38
0.029914808 -0.12315418 0.018341955 2.3507729e-38
0.031785768 -0.12315418 0.018341955 2.3507007e-38
0.033656735 -0.12315418 0.018341955 2.3507723e-38
0.035527695 -0.12315418 0.018341955 2.3507359e-38
0.037398662 -0.12315418 0.018341955 2.3503754e-38
0.039928053 -0.12569134 0.0083277784 2.3504831e-38
-0.066272438 -0.14696725 -0.067668378 1.1896102e-38
-0.06425067 -0.14696725 -0.067668378 1.1712431e-38
-0.062228899 -0.14696725 -0.067668378 1.1161063e-38
-0.060207132 -0.14696725 -0.067668378 1.1620239e-38
-0.058185365 -0.14696725 -0.067668378 1.2812663e-38
-0.056163594 -0.14696725 -0.067668378 2.2029347e-38
-0.054141827 -0.14696725 -0.067668378 2.3507723e-38
-0.052045193 -0.14592977 -0.063601673 2.3508089e-38
-0.050030556 -0.14592977 -0.063601673 2.3232944e-38
-0.048015915 -0.14592977 -0.063601673 2.2867037e-38
-0.046001278 -0.14592977 -0.063601673 2.2499695e-38
-0.043986641 -0.14592977 -0.063601673 2.2591531e-38
-0.041972004 -0.14592977 -0.063601673 2.3142531e-38
-0.039870538 -0.14312236 -0.052596871 2.3509866e-38
-0.037850887 -0.14211179 -0.048635665 2.3507352e-38
-0.035814397 -0.13931294 -0.037664477 2.3508445e-38
-0.033824041 -0.13725694 -0.029605214 2.3508092e-38
-0.031866428 -0.13650523 -0.026658598 1.9998913e-38
-0.029920094 -0.13547809 -0.022632305 1.7411304e-38
-0.02798526 -0.1347049 -0.019601528 1.8422214e-38
-0.02604777 -0.1347049 -0.019601528 1.8882484e-38
-0.024134673 -0.13369073 -0.015626136 1.6024773e-38
-0.022235293 -0.13268389 -0.011679355 1.4551065e-38
-0.020311693 -0.13268389 -0.011679355 1.4461013e-38
-0.018423304 -0.13189565 -0.0085895695 1.2066082e-38
-0.016505122 -0.13189565 -0.0085895695 1.5756793e-38
-0.014586939 -0.13189565 -0.0085895695 1.9078737e-38
-0.012668756 -0.13189565 -0.0085895695 2.3508451e-38
-0.010750572 -0.13189565 -0.0085895695 2.3508809e-38
-0.0089133335 -0.13087155 -0.0045751962 2.3233662e-38
-0.0070021888 -0.13087155 -0.0045751962 2.3234379e-38
-0.0051604649 -0.13012333 -0.0016422902 2.3050349e-38
-0.0033315876 -0.12934943 0.0013913478 2.3417691e-38
-0.0015380224 -0.1283439 0.0053328839 2.3048556e-38
0.00035574939 -0.1283439 0.0053328839 2.3417691e-38
0.0022495212 -0.1283439 0.0053328839 2.3509886e-38
0.0041432949 -0.1283439 0.0053328839 2.3509883e-38
0.0059346715 -0.12757985 0.0083277784 2.3509876e-38
0.0078231925 -0.12757985 0.0083277784 2.350987e-38
0.0094450163 -0.12577499 0.015402611 2.350987e-38
0.011205175 -0.12502514 0.018341955 2.3509879e-38
0.013076139 -0.12502514 0.018341955 2.3418047e-38
0.014947102 -0.12502514 0.018341955 2.2773765e-38
0.016818065 -0.12502514 0.018341955 2.3234379e-38
0.018689029 -0.12502514 0.018341955 2.3417691e-38
0.020559993 -0.12502514 0.018341955 2.2955644e-38
0.022430956 -0.12502514 0.018341955 2.3506656e-38
0.024301916 -0.12502514 0.018341955 2.3508448e-38
0.02617288 -0.12502514 0.018341955 2.3507359e-38
0.028043844 -0.12502514 0.018341955 2.0274747e-38
0.029914808 -0.12502514 0.018341955 1.9166242e-38
0.031785768 -0.12502514 0.018341955 1.8150648e-38
0.033656735 -0.12502514 0.018341955 1.8149202e-38
0.035527695 -0.12502514 0.018341955 1.7963726e-38
0.041816574 -0.12757985 0.0083277784 1.8884959e-38
0.043705102 -0.12757985 0.0083277784 1.565992e-38
-0.066147655 -0.14794444 -0.063601673 1.1711711e-38
-0.064133018 -0.14794444 -0.063601673 1.1712434e-38
-0.062118381 -0.14794444 -0.063601673 1.1621321e-38
-0.060103744 -0.14794444 -0.063601673 1.1528044e-38
-0.058089107 -0.14794444 -0.063601673 1.4472185e-38
-0.05607447 -0.14794444 -0.063601673 2.3508438e-38
-0.054141827 -0.14898901 -0.067668378 2.3507723e-38
-0.05212006 -0.14898901 -0.067668378 2.3507009e-38
-0.050030556 -0.14794444 -0.063601673 2.2771969e-38
-0.048015915 -0.14794444 -0.063601673 2.2958873e-38
-0.046001278 -0.14794444 -0.063601673 2.1947603e-38
-0.043986641 -0.14794444 -0.063601673 2.2039427e-38
-0.041934315 -0.14694051 -0.0596934 2.3234364e-38
-0.039870538 -0.14511769 -0.052596871 2.3509866e-38
-0.037825972 -0.14305727 -0.044575397 2.3508432e-38
-0.035814397 -0.1412821 -0.037664477 2.3508445e-38
-0.033816293 -0.13845511 -0.026658598 2.2952407e-38
-0.0318629 -0.13742088 -0.022632305 1.4744841e-38
-0.02992275 -0.13664238 -0.019601528 1.3265018e-38
-0.02798526 -0.13664238 -0.019601528 1.5751059e-38
-0.026065193 -0.13562126 -0.015626136 1.7686099e-38
-0.024158895 -0.13460748 -0.011679355 1.7686452e-38
-0.022259671 -0.13381381 -0.0085895695 1.5935436e-38
-0.020341489 -0.13381381 -0.0085895695 1.25267e-38
-0.018423304 -0.13381381 -0.0085895695 1.0684943e-38
-0.016505122 -0.13381381 -0.0085895695 2.1381444e-38
-0.014646766 -0.13278268 -0.0045751962 2.3505563e-38
-0.012735621 -0.13278268 -0.0045751962 2.3508451e-38
-0.010824476 -0.13278268 -0.0045751962 2.2955999e-38
-0.0089724706 -0.13202934 -0.0016422902 2.3326213e-38
-0.0070664668 -0.13202934 -0.0016422902 2.341804e-38
-0.0052322717 -0.1312501 0.0013913478 2.2957782e-38
-0.0033315876 -0.1312501 0.0013913478 2.3509527e-38
-0.0015380224 -0.13023765 0.0053328839 2.3232944e-38
0.00035574939 -0.13023765 0.0053328839 2.3509527e-38
0.0021576295 -0.1294684 0.0083277784 2.3509886e-38
0.003916231 -0.12843956 0.012333091 2.3509883e-38
0.0056927847 -0.12765111 0.015402611 2.3509879e-38
0.0074632512 -0.1268961 0.018341955 2.3509873e-38
0.009334215 -0.1268961 0.018341955 2.3509873e-38
0.011045665 -0.12585752 0.022385295 2.3418045e-38
0.01290954 -0.12585752 0.022385295 2.3234379e-38
0.014773414 -0.12585752 0.022385295 2.341805e-38
0.016637288 -0.12585752 0.022385295 2.3417691e-38
0.018689029 -0.1268961 0.018341955 2.3509168e-38
0.020365037 -0.12585752 0.022385295 2.3507374e-38
0.022228908 -0.12585752 0.022385295 2.3508089e-38
0.024092782 -0.12585752 0.022385295 2.3504842e-38
0.02617288 -0.1268961 0.018341955 2.3501233e-38
0.028043844 -0.1268961 0.018341955 1.8612698e-38
0.029914808 -0.1268961 0.018341955 1.7687139e-38
0.031785768 -0.1268961 0.018341955 1.6670822e-38
0.033656735 -0.1268961 0.018341955 1.7130717e-38
0.035527695 -0.1268961 0.018341955 1.7959752e-38
0.041816574 -0.1294684 0.0083277784 1.9067181e-38
0.043705102 -0.1294684 0.0083277784 1.8331066e-38
0.045593623 -0.1294684 0.0083277784 1.5383337e-38
0.047482144 -0.1294684 0.0083277784 8.932891e-39
0.049370665 -0.1294684 0.0083277784 7.0918636e-39
0.051259186 -0.1294684 0.0083277784 7.9245082e-39
-0.066147655 -0.14995907 -0.063601673 1.2632592e-38
-0.064133018 -0.14995907 -0.063601673 1.2910977e-38
-0.062118381 -0.14995907 -0.063601673 1.2635473e-38
-0.060103744 -0.14995907 -0.063601673 1.1989022e-38
-0.058089107 -0.14995907 -0.063601673 1.4104122e-38
-0.05607447 -0.14995907 -0.063601673 2.3320804e-38
-0.052045193 -0.14995907 -0.063601673 2.3508089e-38
-0.050030556 -0.14995907 -0.063601673 2.3509527e-38
-0.048015915 -0.14995907 -0.063601673 2.2406066e-38
-0.046001278 -0.14995907 -0.063601673 2.2775202e-38
-0.043942101 -0.14894833 -0.0596934 2.2867034e-38
-0.041934315 -0.14894833 -0.0596934 2.3509869e-38
-0.039870538 -0.14711304 -0.052596871 2.3416586e-38
-0.037825972 -0.14503856 -0.044575397 2.3506991e-38
-0.035779074 -0.141167 -0.029605214 2.1292147e-38
-0.033805702 -0.13936369 -0.022632305 1.6037732e-38
-0.03186024 -0.13857989 -0.019601528 1.0504558e-38
-0.02992275 -0.13857989 -0.019601528 1.3635958e-38
-0.027995717 -0.1375518 -0.015626136 2.349981e-38
-0.026082493 -0.13653107 -0.011679355 2.3505222e-38
-0.024177855 -0.13573201 -0.0085895695 2.3505937e-38
-0.022259671 -0.13573201 -0.0085895695 2.2023584e-38
-0.020341489 -0.13573201 -0.0085895695 1.5571314e-38
-0.018423304 -0.13573201 -0.0085895695 1.5112128e-38
-0.016557911 -0.13469382 -0.0045751962 2.350878e-38
-0.014646766 -0.13469382 -0.0045751962 2.35088e-38
-0.012735621 -0.13469382 -0.0045751962 2.3509168e-38
-0.010878473 -0.13393532 -0.0016422902 2.3048905e-38
-0.0089724706 -0.13393532 -0.0016422902 2.3418043e-38
-0.007132954 -0.13315077 0.0013913478 2.3050327e-38
-0.0053255679 -0.13213144 0.0053328839 2.2496436e-38
-0.0034317961 -0.13213144 0.0053328839 2.3509883e-38
-0.0016194144 -0.13135691 0.0083277784 2.3509527e-38
0.00026910659 -0.13135691 0.0083277784 2.3509527e-38
0.0020347321 -0.13032107 0.012333091 2.3509886e-38
0.0038166652 -0.12952723 0.015402611 2.3509883e-38
0.0055922875 -0.12876706 0.018341955 2.350988e-38
0.0074632512 -0.12876706 0.018341955 2.3418043e-38
0.009181791 -0.12772138 0.022385295 2.3418043e-38
0.011045665 -0.12772138 0.022385295 2.3234376e-38
0.01290954 -0.12772138 0.022385295 2.3234379e-38
0.014773414 -0.12772138 0.022385295 2.341805e-38
0.016637288 -0.12772138 0.022385295 2.2586859e-38
0.018501163 -0.12772138 0.022385295 2.3321904e-38
0.020365037 -0.12772138 0.022385295 2.3508089e-38
0.022228908 -0.12772138 0.022385295 2.3507362e-38
0.024092782 -0.12772138 0.022385295 1.824428e-38
0.025956657 -0.12772138 0.022385295 1.7413069e-38
0.028043844 -0.12876706 0.018341955 1.5474075e-38
0.029914808 -0.12876706 0.018341955 1.7221826e-38
0.031785768 -0.12876706 0.018341955 1.6943075e-38
0.033834536 -0.12952723 0.015402611 1.8324923e-38
0.035710651 -0.12952723 0.015402611 1.9800052e-38
0.038039532 -0.13135691 0.0083277784 1.9615658e-38
0.039928053 -0.13135691 0.0083277784 1.9247597e-38
0.041816574 -0.13135691 0.0083277784 1.8972097e-38
0.043705102 -0.13135691 0.0083277784 1.8051953e-38
0.045593623 -0.13135691 0.0083277784 1.6948498e-38
0.047482144 -0.13135691 0.0083277784 1.2803301e-38
0.049370665 -0.13135691 0.0083277784 9.9484848e-39
0.051259186 -0.13135691 0.0083277784 7.5542809e-39
0.053147711 -0.13135691 0.0083277784 6.9114324e-39
-0.043896392 -0.14991184 -0.055682722 2.2867027e-38
-0.041865882 -0.14910837 -0.052596871 2.3509866e-38
-0.039870538 -0.14910837 -0.052596871 2.3138557e-38
-0.035748508 -0.1413065 -0.022632305 1.6497612e-38
-0.033797733 -0.14051737 -0.019601528 1.1151721e-38
-0.03186024 -0.14051737 -0.019601528 1.3640646e-38
-0.029926237 -0.1394823 -0.015626136 1.7603251e-38
-0.028006095 -0.13845469 -0.011679355 2.3507372e-38
-0.026096039 -0.13765021 -0.0085895695 2.3507016e-38
-0.024177855 -0.13765021 -0.0085895695 2.3507013e-38
-0.022259671 -0.13765021 -0.0085895695 2.3503752e-38
-0.020341489 -0.13765021 -0.0085895695 1.7048602e-38
-0.018469056 -0.13660498 -0.0045751962 1.502209e-38
-0.016557911 -0.13660498 -0.0045751962 2.3506614e-38
-0.014646766 -0.13660498 -0.0045751962 2.3507714e-38
-0.012784475 -0.13584132 -0.0016422902 2.3508441e-38
-0.010934322 -0.13505147 0.0013913478 2.3418042e-38
-0.0090336381 -0.13505147 0.0013913478 2.3418035e-38
-0.0072193397 -0.1340252 0.0053328839 2.3049958e-38
-0.0053255679 -0.1340252 0.0053328839 2.323399e-38
-0.0034317961 -0.1340252 0.0053328839 2.3509873e-38
-0.0016194144 -0.13324542 0.0083277784 2.3509521e-38
0.0001532333 -0.13220255 0.012333091 2.3509527e-38
0.0019405494 -0.13140334 0.015402611 2.3509527e-38
0.0037213238 -0.13063805 0.018341955 2.3509883e-38
0.0055922875 -0.13063805 0.018341955 2.3418047e-38
0.0073179202 -0.12958528 0.022385295 2.3234374e-38
0.009181791 -0.12958528 0.022385295 2.3234376e-38
0.010926825 -0.12880091 0.025397714 2.3142544e-38
0.012785421 -0.12880091 0.025397714 2.3234379e-38
0.014644013 -0.12880091 0.025397714 2.3509527e-38
0.016502604 -0.12880091 0.025397714 2.3508091e-38
0.018361196 -0.12880091 0.025397714 2.3508089e-38
0.020219788 -0.12880091 0.025397714 2.3507362e-38
0.02207838 -0.12880091 0.025397714 2.3501593e-38
0.023936972 -0.12880091 0.025397714 1.6673343e-38
0.025956657 -0.12958528 0.022385295 1.6302391e-38
0.028043844 -0.13063805 0.018341955 1.657573e-38
0.029914808 -0.13063805 0.018341955 1.7677391e-38
0.031785768 -0.13063805 0.018341955 1.7767421e-38
0.033834536 -0.13140334 0.015402611 1.8228396e-38
0.036151011 -0.13324542 0.0083277784 1.9427295e-38
0.038039532 -0.13324542 0.0083277784 2.0073743e-38
0.039928053 -0.13324542 0.0083277784 2.0442892e-38
0.041816574 -0.13324542 0.0083277784 1.9614937e-38
0.043705102 -0.13324542 0.0083277784 1.814162e-38
0.045593623 -0.13324542 0.0083277784 1.7407306e-38
0.047482144 -0.13324542 0.0083277784 1.5290058e-38
0.049370665 -0.13324542 0.0083277784 1.2251569e-38
0.051259186 -0.13324542 0.0083277784 7.7372288e-39
-0.035748508 -0.14324932 -0.022632305 1.1610517e-38
-0.033787277 -0.14141284 -0.015626136 1.2533934e-38
-0.031856757 -0.14141284 -0.015626136 2.3508451e-38
-0.029929694 -0.14037828 -0.011679355 2.3508451e-38
-0.028006095 -0.14037828 -0.011679355 2.350665e-38
-0.026096039 -0.13956837 -0.0085895695 2.3507733e-38
-0.024177855 -0.13956837 -0.0085895695 2.3507733e-38
-0.022259671 -0.13956837 -0.0085895695 2.3508434e-38
-0.020341489 -0.13956837 -0.0085895695 1.8710284e-38
-0.018469056 -0.13851611 -0.0045751962 1.4378879e-38
-0.016557911 -0.13851611 -0.0045751962 2.3509853e-38
-0.014690476 -0.13774733 -0.0016422902 2.3509153e-38
-0.012835004 -0.13695215 0.0013913478 2.3325127e-38
-0.011006885 -0.13591899 0.0053328839 2.3509876e-38
-0.0091131134 -0.13591899 0.0053328839 2.3509869e-38
-0.0072193397 -0.13591899 0.0053328839 2.3509856e-38
-0.0053964565 -0.13513394 0.0083277784 2.3509856e-38
-0.0035079354 -0.13513394 0.0083277784 2.3509866e-38
-0.0017282655 -0.13408406 0.012333091 2.3507356e-38
6.443169e-05 -0.13327946 0.015402611 2.3509521e-38
0.0018503601 -0.13250901 0.018341955 2.3509883e-38
0.0037213238 -0.13250901 0.018341955 2.3509883e-38
0.0054540457 -0.13144915 0.022385295 2.3234376e-38
0.0073179202 -0.13144915 0.022385295 2.3142544e-38
0.009068233 -0.13065951 0.025397714 2.2958873e-38
0.010926825 -0.13065951 0.025397714 2.3142544e-38
0.012661998 -0.12987436 0.028393086 2.341805e-38
0.014515341 -0.12987436 0.028393086 2.267833e-38
0.01636868 -0.12987436 0.028393086 2.3507728e-38
0.018361196 -0.13065951 0.025397714 2.3504122e-38
0.020219788 -0.13065951 0.025397714 1.9073324e-38
0.021928702 -0.12987436 0.028393086 1.7870807e-38
0.023782041 -0.12987436 0.028393086 1.630023e-38
0.025956657 -0.13144915 0.022385295 1.7128182e-38
0.028043844 -0.13250901 0.018341955 1.7678107e-38
0.029914808 -0.13250901 0.018341955 1.9057075e-38
0.031785768 -0.13250901 0.018341955 1.9148186e-38
0.033834536 -0.13327946 0.015402611 1.8963792e-38
0.036151011 -0.13513394 0.0083277784 1.9425489e-38
0.038039532 -0.13513394 0.0083277784 2.0624755e-38
0.039928053 -0.13513394 0.0083277784 2.1271208e-38
0.041816574 -0.13513394 0.0083277784 2.0350339e-38
0.043705102 -0.13513394 0.0083277784 1.8693705e-38
0.045593623 -0.13513394 0.0083277784 1.8234899e-38
0.047482144 -0.13513394 0.0083277784 1.6209846e-38
-0.035717797 -0.14334334 -0.015626136 1.280834e-38
-0.033776898 -0.14230187 -0.011679355 1.3362971e-38
-0.031853296 -0.14230187 -0.011679355 2.3506656e-38
-0.029929694 -0.14230187 -0.011679355 2.3509168e-38
-0.028006095 -0.14230187 -0.011679355 2.3416974e-38
-0.026096039 -0.14148657 -0.0085895695 2.3508451e-38
-0.024177855 -0.14148657 -0.0085895695 2.2676535e-38
-0.022291344 -0.14042725 -0.0045751962 2.3414439e-38
-0.020380201 -0.14042725 -0.0045751962 1.8159993e-38
-0.018469056 -0.14042725 -0.0045751962 1.5855454e-38
-0.016557911 -0.14042725 -0.0045751962 2.2679375e-38
-0.014690476 -0.13965334 -0.0016422902 2.3509873e-38
-0.012835004 -0.13885282 0.0013913478 2.3418043e-38
-0.011006885 -0.13781275 0.0053328839 2.3326203e-38
-0.0091131134 -0.13781275 0.0053328839 2.3326192e-38
-0.0072849775 -0.13702248 0.0083277784 2.3509852e-38
-0.0053964565 -0.13702248 0.0083277784 2.3509853e-38
-0.0035079354 -0.13702248 0.0083277784 2.3508063e-38
-0.0017282655 -0.13596557 0.012333091 2.3507352e-38
6.443169e-05 -0.13515557 0.015402611 2.350952e-38
0.0018503601 -0.13437997 0.018341955 2.3509524e-38
0.0037213238 -0.13437997 0.018341955 2.3418047e-38
0.0054540457 -0.13331302 0.022385295 2.3142544e-38
0.0072096409 -0.1325181 0.025397714 2.2958873e-38
0.0089553194 -0.13172771 0.028393086 2.2867037e-38
0.010808659 -0.13172771 0.028393086 2.2958873e-38
0.01253928 -0.13094176 0.03137153 2.341805e-38
0.014387396 -0.13094176 0.03137153 2.3508809e-38
0.016235512 -0.13094176 0.03137153 2.3508085e-38
0.018222019 -0.13172771 0.028393086 2.2669675e-38
0.020075358 -0.13172771 0.028393086 1.6118737e-38
0.021928702 -0.13172771 0.028393086 1.5377558e-38
0.023782041 -0.13172771 0.028393086 1.7679198e-38
0.025795564 -0.1325181 0.025397714 1.740116e-38
0.028043844 -0.13437997 0.018341955 1.8596815e-38
0.029914808 -0.13437997 0.018341955 1.8502816e-38
0.031785768 -0.13437997 0.018341955 1.8778321e-38
0.033834536 -0.13515557 0.015402611 1.8501735e-38
0.036151011 -0.13702248 0.0083277784 1.8687205e-38
0.038039532 -0.13702248 0.0083277784 1.9426212e-38
0.040124971 -0.13781275 0.0053328839 1.9426573e-38
0.042018745 -0.13781275 0.0053328839 1.8506065e-38
0.043705102 -0.13702248 0.0083277784 1.7862504e-38
0.045593623 -0.13702248 0.0083277784 1.7957229e-38
0.047482144 -0.13702248 0.0083277784 1.6392431e-38
0.049593832 -0.13781275 0.0053328839 1.436702e-38
-0.035717797 -0.14527388 -0.015626136 1.677131e-38
-0.033776898 -0.14422549 -0.011679355 1.7788715e-38
-0.031853296 -0.14422549 -0.011679355 2.3508809e-38
-0.029929694 -0.14422549 -0.011679355 2.341805e-38
-0.02801422 -0.14340474 -0.0085895695 2.2681214e-38
-0.026096039 -0.14340474 -0.0085895695 2.332478e-38
-0.024177855 -0.14340474 -0.0085895695 2.3508809e-38
-0.022291344 -0.14233841 -0.0045751962 2.350952e-38
-0.020380201 -0.14233841 -0.0045751962 1.5487762e-38
-0.018469056 -0.14233841 -0.0045751962 1.7239833e-38
-0.016557911 -0.14233841 -0.0045751962 2.350986e-38
-0.014690476 -0.14155935 -0.0016422902 2.3509879e-38
-0.012835004 -0.14075352 0.0013913478 2.3233296e-38
-0.011006885 -0.13970654 0.0053328839 2.3326206e-38
-0.0091735004 -0.13891099 0.0083277784 2.2957412e-38
-0.0072849775 -0.13891099 0.0083277784 2.2680812e-38
-0.0053964565 -0.13891099 0.0083277784 2.2402783e-38
-0.0035079354 -0.13891099 0.0083277784 2.2585386e-38
-0.0018116841 -0.13703169 0.015402611 2.3509153e-38
-2.0603649e-05 -0.13625093 0.018341955 2.3509161e-38
0.0017262967 -0.13517688 0.022385295 2.3509524e-38
0.0035901712 -0.13517688 0.022385295 2.341805e-38
0.0053510489 -0.13437669 0.025397714 2.3142544e-38
0.0072096409 -0.13437669 0.025397714 2.2867037e-38
0.0089553194 -0.13358103 0.028393086 2.2867037e-38
0.010691159 -0.13278987 0.03137153 2.3142544e-38
0.01253928 -0.13278987 0.03137153 2.3509886e-38
0.014387396 -0.13278987 0.03137153 2.3505564e-38
0.016235512 -0.13278987 0.03137153 2.0458781e-38
0.018083632 -0.13278987 0.03137153 1.8886049e-38
0.019931749 -0.13278987 0.03137153 1.5931097e-38
0.021928702 -0.13358103 0.028393086 1.7218225e-38
0.023936972 -0.13437669 0.025397714 1.961206e-38
0.025795564 -0.13437669 0.025397714 1.7120969e-38
0.028043844 -0.13625093 0.018341955 1.9424415e-38
0.029914808 -0.13625093 0.018341955 1.9055633e-38
0.031785768 -0.13625093 0.018341955 1.8963437e-38
0.034020212 -0.13784705 0.012333091 1.8410982e-38
0.036151011 -0.13891099 0.0083277784 1.8596453e-38
0.038231198 -0.13970654 0.0053328839 1.9057794e-38
0.040124971 -0.13970654 0.0053328839 1.8689374e-38
0.042018745 -0.13970654 0.0053328839 1.8506426e-38
0.043705102 -0.13891099 0.0083277784 1.9337634e-38
0.045593623 -0.13891099 0.0083277784 1.8508961e-38
0.047482144 -0.13891099 0.0083277784 1.7773565e-38
0.049593832 -0.13970654 0.0053328839 1.6024736e-38
-0.035717797 -0.14720438 -0.015626136 2.2394881e-38
-0.033768769 -0.14532293 -0.0085895695 2.3227537e-38
-0.031850588 -0.14532293 -0.0085895695 2.3509168e-38
-0.029929694 -0.14614908 -0.011679355 2.3234379e-38
-0.02801422 -0.14532293 -0.0085895695 2.2773767e-38
-0.026096039 -0.14532293 -0.0085895695 2.314075e-38
-0.024177855 -0.14532293 -0.0085895695 2.3509168e-38
-0.022291344 -0.14424954 -0.0045751962 2.3139661e-38
-0.020380201 -0.14424954 -0.0045751962 1.8991561e-38
-0.018469056 -0.14424954 -0.0045751962 1.9268501e-38
-0.016557911 -0.14424954 -0.0045751962 2.3509866e-38
-0.014735688 -0.1426542 0.0013913478 2.3233296e-38
-0.012900657 -0.1416003 0.0053328839 2.341805e-38
-0.011062021 -0.14079951 0.0083277784 2.341805e-38
-0.0091735004 -0.14079951 0.0083277784 2.2957061e-38
-0.0072849775 -0.14079951 0.0083277784 2.1851055e-38
-0.0054912632 -0.13972856 0.012333091 2.1757419e-38
-0.0036097644 -0.13972856 0.012333091 2.258503e-38
-0.0018915655 -0.13812189 0.018341955 2.3414439e-38
-0.0001375759 -0.13704078 0.022385295 2.3509161e-38
0.0017262967 -0.13704078 0.022385295 2.3509524e-38
0.0035901712 -0.13704078 0.022385295 2.3049626e-38
0.0053510489 -0.13623528 0.025397714 2.2958873e-38
0.0072096409 -0.13623528 0.025397714 2.2775202e-38
0.0089553194 -0.13543437 0.028393086 2.2867037e-38
0.010691159 -0.134638 0.03137153 2.2958514e-38
0.01253928 -0.134638 0.03137153 2.3509524e-38
0.014387396 -0.134638 0.03137153 2.3508082e-38
0.016235512 -0.134638 0.03137153 1.9257715e-38
0.018083632 -0.134638 0.03137153 1.7869368e-38
0.019931749 -0.134638 0.03137153 1.7127114e-38
0.021928702 -0.13543437 0.028393086 1.7952903e-38
0.023936972 -0.13623528 0.025397714 1.9056723e-38
0.025956657 -0.13704078 0.022385295 1.7856369e-38
0.028043844 -0.13812189 0.018341955 1.8962717e-38
0.029914808 -0.13812189 0.018341955 1.7857458e-38
0.031785768 -0.13812189 0.018341955 1.8412073e-38
0.034020212 -0.13972856 0.012333091 1.8781218e-38
0.036151011 -0.14079951 0.0083277784 1.8137646e-38
0.038231198 -0.1416003 0.0053328839 1.7493356e-38
0.040124971 -0.1416003 0.0053328839 1.7493356e-38
0.042018745 -0.1416003 0.0053328839 1.7493003e-38
0.043912519 -0.1416003 0.0053328839 1.7308973e-38
0.045593623 -0.14079951 0.0083277784 1.7585926e-38
0.047482144 -0.14079951 0.0083277784 1.758845e-38
0.049370665 -0.14079951 0.0083277784 1.6945249e-38
-0.035717797 -0.14913492 -0.015626136 2.3502665e-38
-0.033768769 -0.1472411 -0.0085895695 2.3508079e-38
-0.031850588 -0.1472411 -0.0085895695 2.3509168e-38
-0.029929694 -0.14807267 -0.011679355 2.3234379e-38
-0.02801422 -0.1472411 -0.0085895695 2.3142544e-38
-0.026096039 -0.1472411 -0.0085895695 2.314075e-38
-0.024177855 -0.1472411 -0.0085895695 2.332478e-38
-0.022291344 -0.14616071 -0.0045751962 2.3509524e-38
-0.020380201 -0.14616071 -0.0045751962 2.3509869e-38
-0.018469056 -0.14616071 -0.0045751962 2.2863775e-38
-0.016596477 -0.14537133 -0.0016422902 2.3417673e-38
-0.014735688 -0.14455487 0.0013913478 2.3509886e-38
-0.012900657 -0.14349405 0.0053328839 2.3417691e-38
-0.011062021 -0.14268802 0.0083277784 2.341805e-38
-0.0092542609 -0.14161004 0.012333091 2.3326208e-38
-0.0073727621 -0.14161004 0.012333091 2.3049245e-38
-0.0055639176 -0.14078392 0.015402611 2.3232913e-38
-0.0036878018 -0.14078392 0.015402611 2.3508075e-38
-0.0018915655 -0.13999285 0.018341955 2.3508802e-38
-0.0001375759 -0.13890465 0.022385295 2.3508442e-38
0.0016338648 -0.13809387 0.025397714 2.3509524e-38
0.0034924569 -0.13809387 0.025397714 2.3234018e-38
0.0053510489 -0.13809387 0.025397714 2.2867037e-38
0.00710198 -0.13728772 0.028393086 2.2775202e-38
0.0089553194 -0.13728772 0.028393086 2.2775202e-38
0.010691159 -0.13648613 0.03137153 2.341805e-38
0.01253928 -0.13648613 0.03137153 2.3509163e-38
0.014387396 -0.13648613 0.03137153 2.3507716e-38
0.016235512 -0.13648613 0.03137153 1.796445e-38
0.018083632 -0.13648613 0.03137153 1.6390634e-38
0.019931749 -0.13648613 0.03137153 1.6848001e-38
0.021928702 -0.13728772 0.028393086 1.7950741e-38
0.023936972 -0.13809387 0.025397714 1.8963087e-38
0.025956657 -0.13890465 0.022385295 1.7947846e-38
0.028043844 -0.13999285 0.018341955 1.9146752e-38
0.029914808 -0.13999285 0.018341955 1.8135488e-38
0.031785768 -0.13999285 0.018341955 1.7952902e-38
0.034020212 -0.14161004 0.012333091 1.7677396e-38
0.036337424 -0.14349405 0.0053328839 1.7494083e-38
0.038231198 -0.14349405 0.0053328839 1.7587358e-38
0.040124971 -0.14349405 0.0053328839 1.7955785e-38
0.042018745 -0.14349405 0.0053328839 1.804726e-38
0.043912519 -0.14349405 0.0053328839 1.7494086e-38
0.045806285 -0.14349405 0.0053328839 1.8323131e-38
0.047700059 -0.14349405 0.0053328839 1.8416768e-38
0.049593832 -0.14349405 0.0053328839 1.7588814e-38
-0.033776898 -0.1499963 -0.011679355 2.3508435e-38
-0.031853296 -0.1499963 -0.011679355 2.3230415e-38
-0.029929694 -0.1499963 -0.011679355 2.2680844e-38
-0.02801422 -0.1491593 -0.0085895695 2.3234379e-38
-0.026096039 -0.1491593 -0.0085895695 2.3509168e-38
-0.024202488 -0.14807184 -0.0045751962 2.2862372e-38
-0.022291344 -0.14807184 -0.0045751962 2.3508441e-38
-0.020380201 -0.14807184 -0.0045751962 2.350987e-38
-0.018502481 -0.14727734 -0.0016422902 2.3509866e-38
-0.016596477 -0.14727734 -0.0016422902 2.3232206e-38
-0.014794431 -0.14538784 0.0053328839 2.3509527e-38
-0.012950542 -0.14457656 0.0083277784 2.3417691e-38
-0.011062021 -0.14457656 0.0083277784 2.3049991e-38
-0.0092542609 -0.14349155 0.012333091 2.3326213e-38
-0.0073727621 -0.14349155 0.012333091 2.3509873e-38
-0.0055639176 -0.14266007 0.015402611 2.350987e-38
-0.0037625292 -0.14186381 0.018341955 2.3509163e-38
-0.0018915655 -0.14186381 0.018341955 2.3508807e-38
-0.0001375759 -0.14076851 0.022385295 2.3507722e-38
0.0016338648 -0.13995247 0.025397714 2.3509524e-38
0.0034924569 -0.13995247 0.025397714 2.3325856e-38
0.0052486369 -0.13914107 0.028393086 2.2867037e-38
0.0069949226 -0.13833423 0.03137153 2.2775202e-38
0.0088430429 -0.13833423 0.03137153 2.2775202e-38
0.010691159 -0.13833423 0.03137153 2.3509883e-38
0.012372215 -0.13723589 0.035426077 2.3505916e-38
0.014213228 -0.13723589 0.035426077 2.350447e-38
0.016054235 -0.13723589 0.035426077 1.71318e-38
0.018083632 -0.13833423 0.03137153 1.5743458e-38
0.019931749 -0.13833423 0.03137153 1.7583402e-38
0.021928702 -0.13914107 0.028393086 1.8502473e-38
0.023936972 -0.13995247 0.025397714 1.868578e-38
0.025956657 -0.14076851 0.022385295 1.7670906e-38
0.028043844 -0.14186381 0.018341955 1.8133326e-38
0.029914808 -0.14186381 0.018341955 1.7399009e-38
0.031785768 -0.14186381 0.018341955 1.7401172e-38
0.034020212 -0.14349155 0.012333091 1.7494809e-38
0.036151011 -0.14457656 0.0083277784 1.7495172e-38
0.038231198 -0.14538784 0.0053328839 1.731186e-38
0.040124971 -0.14538784 0.0053328839 1.731186e-38
0.042018745 -0.14538784 0.0053328839 1.7310421e-38
0.043912519 -0.14538784 0.0053328839 1.7124948e-38
0.045806285 -0.14538784 0.0053328839 1.8138739e-38
0.047700059 -0.14538784 0.0053328839 1.8692273e-38
0.049593832 -0.14538784 0.0053328839 1.7957232e-38
0.051487606 -0.14538784 0.0053328839 1.4549239e-38
-0.024202488 -0.14998297 -0.0045751962 2.3508092e-38
-0.022291344 -0.14998297 -0.0045751962 2.3507718e-38
-0.020380201 -0.14998297 -0.0045751962 2.350843e-38
-0.018502481 -0.14918335 -0.0016422902 2.3509866e-38
-0.016636372 -0.14835624 0.0013913478 2.3509873e-38
-0.014794431 -0.1472816 0.0053328839 2.3509527e-38
-0.012950542 -0.14646508 0.0083277784 2.3325497e-38
-0.011062021 -0.14646508 0.0083277784 2.2957796e-38
-0.0092542609 -0.14537306 0.012333091 2.3050349e-38
-0.0073727621 -0.14537306 0.012333091 2.341804e-38
-0.0055639176 -0.14453618 0.015402611 2.3509876e-38
-0.0037625292 -0.14373477 0.018341955 2.3509167e-38
-0.0018915655 -0.14373477 0.018341955 2.3508091e-38
-0.0001375759 -0.14263238 0.022385295 2.3508085e-38
0.0016338648 -0.14181106 0.025397714 2.3509883e-38
0.0034924569 -0.14181106 0.025397714 2.3142544e-38
0.0052486369 -0.14099441 0.028393086 2.2867037e-38
0.0069949226 -0.14018236 0.03137153 2.2867037e-38
0.0088430429 -0.14018236 0.03137153 2.2958873e-38
0.010531207 -0.1390769 0.035426077 2.3509521e-38
0.012372215 -0.1390769 0.035426077 2.1382534e-38
0.014213228 -0.1390769 0.035426077 2.2021774e-38
0.016054235 -0.1390769 0.035426077 1.6299514e-38
0.017895244 -0.1390769 0.035426077 1.6202631e-38
0.019736253 -0.1390769 0.035426077 1.8687946e-38
0.021928702 -0.14099441 0.028393086 1.8686504e-38
0.023936972 -0.14181106 0.025397714 1.831664e-38
0.025956657 -0.14263238 0.022385295 1.7394684e-38
0.028043844 -0.14373477 0.018341955 1.7027343e-38
0.029914808 -0.14373477 0.018341955 1.6753641e-38
0.031785768 -0.14373477 0.018341955 1.786215e-38
0.034020212 -0.14537306 0.012333091 1.8969942e-38
0.036151011 -0.14646508 0.0083277784 1.8602601e-38
0.038231198 -0.1472816 0.0053328839 1.7404418e-38
0.040124971 -0.1472816 0.0053328839 1.6482462e-38
0.042018745 -0.1472816 0.0053328839 1.6849443e-38
0.043912519 -0.1472816 0.0053328839 1.7401535e-38
0.045806285 -0.1472816 0.0053328839 1.8230213e-38
0.047700059 -0.1472816 0.0053328839 1.9060693e-38
0.049593832 -0.1472816 0.0053328839 1.8877746e-38
-0.014794431 -0.14917539 0.0053328839 2.3509527e-38
-0.012950542 -0.14835359 0.0083277784 2.3417691e-38
-0.01113576 -0.14725454 0.012333091 2.3234379e-38
-0.009316151 -0.1464123 0.015402611 2.3234379e-38
-0.0074400352 -0.1464123 0.015402611 2.3234374e-38
-0.0055639176 -0.1464123 0.015402611 2.3418043e-38
-0.0037625292 -0.14560573 0.018341955 2.3509527e-38
-0.0020014504 -0.14449625 0.022385295 2.3508809e-38
-0.0001375759 -0.14449625 0.022385295 2.3509527e-38
0.0016338648 -0.14366965 0.025397714 2.3509167e-38
0.0033952976 -0.14284773 0.028393086 2.3142544e-38
0.0052486369 -0.14284773 0.028393086 2.2867037e-38
0.0069949226 -0.14203046 0.03137153 2.2958873e-38
0.0088430429 -0.14203046 0.03137153 2.3234018e-38
0.010531207 -0.14091791 0.035426077 2.3509158e-38
0.012372215 -0.14091791 0.035426077 1.8246077e-38
0.014213228 -0.14091791 0.035426077 1.7594217e-38
0.016054235 -0.14091791 0.035426077 1.5560146e-38
0.017895244 -0.14091791 0.035426077 1.6938033e-38
0.019736253 -0.14091791 0.035426077 1.8594672e-38
0.02207838 -0.14366965 0.025397714 1.8224447e-38
0.023936972 -0.14366965 0.025397714 1.7764192e-38
0.025956657 -0.14449625 0.022385295 1.7580522e-38
0.028043844 -0.14560573 0.018341955 1.7120264e-38
0.029914808 -0.14560573 0.018341955 1.7305375e-38
0.031785768 -0.14560573 0.018341955 1.8413161e-38
0.03426249 -0.14835359 0.0083277784 1.9429475e-38
0.036151011 -0.14835359 0.0083277784 1.9246526e-38
0.038231198 -0.14917539 0.0053328839 1.7865034e-38
0.040124971 -0.14917539 0.0053328839 1.7035273e-38
0.042018745 -0.14917539 0.0053328839 1.7770317e-38
0.043912519 -0.14917539 0.0053328839 1.8599715e-38
0.045806285 -0.14917539 0.0053328839 1.9243642e-38
0.047700059 -0.14917539 0.0053328839 1.9981207e-38
-0.01113576 -0.14913605 0.012333091 2.3234379e-38
-0.009316151 -0.14828841 0.015402611 2.3142544e-38
-0.0074400352 -0.14828841 0.015402611 2.3234374e-38
-0.005633493 -0.14747669 0.018341955 2.3142537e-38
-0.0037625292 -0.14747669 0.018341955 2.3509527e-38
-0.0020014504 -0.14636014 0.022385295 2.3509168e-38
-0.00022472534 -0.14552824 0.025397714 2.3509527e-38
0.0016338648 -0.14552824 0.025397714 2.341769e-38
0.0033952976 -0.14470108 0.028393086 2.3142544e-38
0.0052486369 -0.14470108 0.028393086 2.2867037e-38
0.0069949226 -0.14387859 0.03137153 2.2958873e-38
0.0088430429 -0.14387859 0.03137153 2.3325492e-38
0.010531207 -0.14275892 0.035426077 2.3508797e-38
0.012372215 -0.14275892 0.035426077 1.5663157e-38
0.014213228 -0.14275892 0.035426077 1.5840697e-38
0.016054235 -0.14275892 0.035426077 1.684944e-38
0.017895244 -0.14275892 0.035426077 1.804294e-38
0.019736253 -0.14275892 0.035426077 1.8316643e-38
-0.005633493 -0.14934768 0.018341955 2.3142537e-38
-0.0037625292 -0.14934768 0.018341955 2.341805e-38
-0.0020014504 -0.14822401 0.022385295 2.3509527e-38
-0.00022472534 -0.14738683 0.025397714 2.3509527e-38
0.0015419582 -0.14655443 0.028393086 2.3325494e-38
0.0033952976 -0.14655443 0.028393086 2.3142544e-38
0.0052486369 -0.14655443 0.028393086 2.2867037e-38
0.0069949226 -0.1457267 0.03137153 2.3142544e-38
0.0088430429 -0.1457267 0.03137153 2.3141456e-38
0.010531207 -0.14459993 0.035426077 2.3508793e-38
0.012372215 -0.14459993 0.035426077 1.4556446e-38
0.014213228 -0.14459993 0.035426077 1.5931451e-38
0.016054235 -0.14459993 0.035426077 1.8323128e-38
0.017895244 -0.14459993 0.035426077 1.8503555e-38
0.019736253 -0.14459993 0.035426077 1.8224447e-38
-0.0020833174 -0.14924543 0.025397714 2.3509527e-38
-0.00022472534 -0.14924543 0.025397714 2.3509168e-38
0.0015419582 -0.14840777 0.028393086 2.3325497e-38
0.0033952976 -0.14840777 0.028393086 2.3234379e-38
0.0051468061 -0.14757483 0.03137153 2.3050708e-38
0.0069949226 -0.14757483 0.03137153 2.3142542e-38
0.008690198 -0.14644094 0.035426077 2.304854e-38
0.010531207 -0.14644094 0.035426077 2.3508787e-38
0.012372215 -0.14644094 0.035426077 1.4647197e-38
0.014213228 -0.14644094 0.035426077 1.5101323e-38
0.016054235 -0.14644094 0.035426077 1.8046174e-38
0.017895244 -0.14644094 0.035426077 1.7949654e-38
0.019736253 -0.14644094 0.035426077 1.804041e-38
0.0014505694 -0.14942293 0.03137153 2.3509168e-38
0.0032986859 -0.14942293 0.03137153 2.3509527e-38
0.0051468061 -0.14942293 0.03137153 2.2958154e-38
0.0068491893 -0.14828195 0.035426077 2.3418047e-38
0.008690198 -0.14828195 0.035426077 2.3509873e-38
0.010531207 -0.14828195 0.035426077 2.2581785e-38
0.012372215 -0.14828195 0.035426077 1.5015252e-38
0.014213228 -0.14828195 0.035426077 1.5561931e-38
0.016054235 -0.14828195 0.035426077 1.7308237e-38
0.017895244 -0.14828195 0.035426077 1.8318785e-38
0.019736253 -0.14828195 0.035426077 1.8317343e-38
