# .PCD v0.7 - Point Cloud Data file format
VERSION 0.7
FIELDS x y z rgb
SIZE 4 4 4 4
TYPE F F F F
COUNT 1 1 1 1
WIDTH 940
HEIGHT 1
VIEWPOINT 0 0 0 1 0 0 0
POINTS 940
DATA ascii
-0.021639951 -0.12033533 -0.025489353 2.3049991e-38
-0.019699771 -0.11962132 -0.022484086 2.1943297e-38
-0.01773061 -0.11962132 -0.022484086 1.9179226e-38
-0.041478358 -0.12516426 -0.03741648 2.295778e-38
-0.039483018 -0.12516426 -0.03741648 2.3234379e-38
-0.037501201 -0.12590279 -0.040502332 2.3234379e-38
-0.035510994 -0.12686269 -0.044513009 2.2773049e-38
-0.033499695 -0.12590279 -0.040502332 2.3417333e-38
-0.031501647 -0.12516426 -0.03741648 2.3509527e-38
-0.029506305 -0.12516426 -0.03741648 2.3509524e-38
-0.027576417 -0.12159048 -0.022484086 2.3509883e-38
-0.025607254 -0.12159048 -0.022484086 2.3509886e-38
-0.023614382 -0.12230973 -0.025489353 2.3509886e-38
-0.021639951 -0.12230973 -0.025489353 2.3234379e-38
-0.019699771 -0.12159048 -0.022484086 2.3234379e-38
-0.01773061 -0.12159048 -0.022484086 2.2958873e-38
-0.01576145 -0.12159048 -0.022484086 2.2958873e-38
-0.013792288 -0.12159048 -0.022484086 2.2407501e-38
-0.045469046 -0.12715961 -0.03741648 2.3418035e-38
-0.043435507 -0.12620462 -0.033455275 2.2958133e-38
-0.041447107 -0.12620462 -0.033455275 2.231241e-38
-0.039483018 -0.12715961 -0.03741648 2.3234379e-38
-0.037487678 -0.12715961 -0.03741648 2.3234379e-38
-0.035500448 -0.12790357 -0.040502332 2.2680855e-38
-0.033496991 -0.12715961 -0.03741648 2.3417691e-38
-0.031501647 -0.12715961 -0.03741648 2.3509527e-38
-0.029506305 -0.12715961 -0.03741648 2.350988e-38
-0.027576417 -0.12355967 -0.022484086 2.3509883e-38
-0.025607254 -0.12355967 -0.022484086 2.3509883e-38
-0.023638094 -0.12355967 -0.022484086 2.3509886e-38
-0.021668933 -0.12355967 -0.022484086 2.341805e-38
-0.019699771 -0.12355967 -0.022484086 2.3234379e-38
-0.01773061 -0.12355967 -0.022484086 2.3142544e-38
-0.015820798 -0.12259962 -0.0185019 2.2775202e-38
-0.013858618 -0.12259962 -0.0185019 2.2683366e-38
-0.011896439 -0.12259962 -0.0185019 2.2683366e-38
-0.047358908 -0.12720706 -0.029395007 2.3418043e-38
-0.045377627 -0.12720706 -0.029395007 2.341804e-38
-0.043435507 -0.12819304 -0.033455275 2.295778e-38
-0.041447107 -0.12819304 -0.033455275 2.3234369e-38
-0.039458707 -0.12819304 -0.033455275 2.341805e-38
-0.037487678 -0.12915494 -0.03741648 2.341805e-38
-0.035492331 -0.12915494 -0.03741648 2.2864526e-38
-0.033496991 -0.12915494 -0.03741648 2.3417691e-38
-0.031501647 -0.12915494 -0.03741648 2.3509883e-38
-0.029527402 -0.12720706 -0.029395007 2.3509879e-38
-0.027576417 -0.12552883 -0.022484086 2.350988e-38
-0.025607254 -0.12552883 -0.022484086 2.3509883e-38
-0.023638094 -0.12552883 -0.022484086 2.3509883e-38
-0.021668933 -0.12552883 -0.022484086 2.341805e-38
-0.019699771 -0.12552883 -0.022484086 2.3234379e-38
-0.01773061 -0.12552883 -0.022484086 2.3142544e-38
-0.015820798 -0.1245618 -0.0185019 2.3142544e-38
-0.013858618 -0.1245618 -0.0185019 2.2958873e-38
-0.011896439 -0.1245618 -0.0185019 2.2958873e-38
-0.010157064 -0.12187846 -0.0074519143 2.2867037e-38
-0.0082142595 -0.12187846 -0.0074519143 2.2775202e-38
-0.0063431934 -0.12114246 -0.0044211373 2.2775202e-38
-0.0045067705 -0.12017711 -0.00044574589 2.2775202e-38
-0.0025762506 -0.12017711 -0.00044574589 2.2867037e-38
-0.00064572878 -0.12017711 -0.00044574589 2.323402e-38
0.0012847912 -0.12017711 -0.00044574589 2.295672e-38
0.0032153111 -0.12017711 -0.00044574589 2.3509168e-38
-0.049400695 -0.13018142 -0.033455275 2.341805e-38
-0.047358908 -0.12918831 -0.029395007 2.2680841e-38
-0.045377627 -0.12918831 -0.029395007 2.3418045e-38
-0.043435507 -0.13018142 -0.033455275 2.3418045e-38
-0.041447107 -0.13018142 -0.033455275 2.3418045e-38
-0.039458707 -0.13018142 -0.033455275 2.2957431e-38
-0.037470311 -0.13018142 -0.033455275 2.3141466e-38
-0.035481915 -0.13018142 -0.033455275 2.3509527e-38
-0.033489957 -0.12918831 -0.029395007 2.3509527e-38
-0.03150868 -0.12918831 -0.029395007 2.3509883e-38
-0.029537674 -0.12823303 -0.025489353 2.350988e-38
-0.027576417 -0.12749799 -0.022484086 2.350988e-38
-0.025607254 -0.12749799 -0.022484086 2.3509883e-38
-0.023638094 -0.12749799 -0.022484086 2.3509883e-38
-0.021668933 -0.12749799 -0.022484086 2.3509883e-38
-0.019699771 -0.12749799 -0.022484086 2.341805e-38
-0.01773061 -0.12749799 -0.022484086 2.3234379e-38
-0.015881559 -0.12552677 -0.014424823 2.3050347e-38
-0.013926528 -0.12552677 -0.014424823 2.3050347e-38
-0.012025746 -0.12480606 -0.011478208 2.3050708e-38
-0.010157064 -0.12382124 -0.0074519143 2.3142544e-38
-0.0082142595 -0.12382124 -0.0074519143 2.3142544e-38
-0.0063431934 -0.12307997 -0.0044211373 2.2958873e-38
-0.0045067705 -0.12210761 -0.00044574589 2.3142544e-38
-0.0025762506 -0.12210761 -0.00044574589 2.3142544e-38
-0.00064572878 -0.12210761 -0.00044574589 2.2310994e-38
0.0012847912 -0.12210761 -0.00044574589 2.3509168e-38
0.0032153111 -0.12210761 -0.00044574589 2.3509168e-38
0.005145831 -0.12210761 -0.00044574589 2.3507374e-38
0.0070763547 -0.12210761 -0.00044574589 2.3508092e-38
0.0090068746 -0.12210761 -0.00044574589 2.3508451e-38
0.010937395 -0.12210761 -0.00044574589 2.2858758e-38
-0.051455073 -0.13314565 -0.03741648 2.341805e-38
-0.049400695 -0.13216983 -0.033455275 2.2864883e-38
-0.047412299 -0.13216983 -0.033455275 2.3509527e-38
-0.045423903 -0.13216983 -0.033455275 2.3509886e-38
-0.043435507 -0.13216983 -0.033455275 2.3509883e-38
-0.041384257 -0.13020746 -0.025489353 2.31411e-38
-0.039409824 -0.13020746 -0.025489353 2.2680122e-38
-0.037435398 -0.13020746 -0.025489353 2.3509886e-38
-0.035460964 -0.13020746 -0.025489353 2.3509527e-38
-0.033486534 -0.13020746 -0.025489353 2.3141106e-38
-0.031512104 -0.13020746 -0.025489353 2.3509886e-38
-0.029545577 -0.12946714 -0.022484086 2.3509883e-38
-0.027576417 -0.12946714 -0.022484086 2.3509883e-38
-0.025607254 -0.12946714 -0.022484086 2.3509886e-38
-0.023638094 -0.12946714 -0.022484086 2.3509886e-38
-0.021668933 -0.12946714 -0.022484086 2.3509886e-38
-0.019745156 -0.12848614 -0.0185019 2.3509886e-38
-0.017782975 -0.12848614 -0.0185019 2.3509886e-38
-0.015881559 -0.1274818 -0.014424823 2.3509886e-38
-0.013975609 -0.12675591 -0.011478208 2.3509886e-38
-0.012025746 -0.12675591 -0.011478208 2.3509886e-38
-0.010157064 -0.12576406 -0.0074519143 2.3509886e-38
-0.0082142595 -0.12576406 -0.0074519143 2.3325494e-38
-0.0063431934 -0.12501745 -0.0044211373 2.3049626e-38
-0.0045067705 -0.12403814 -0.00044574589 2.3048907e-38
-0.0025762506 -0.12403814 -0.00044574589 2.2956715e-38
-0.00064572878 -0.12403814 -0.00044574589 2.3509527e-38
0.0012847912 -0.12403814 -0.00044574589 2.3508451e-38
0.0032153111 -0.12403814 -0.00044574589 2.3415895e-38
0.005145831 -0.12403814 -0.00044574589 2.3509168e-38
0.0070763547 -0.12403814 -0.00044574589 2.3508809e-38
0.0090068746 -0.12403814 -0.00044574589 2.3508807e-38
0.010937395 -0.12403814 -0.00044574589 2.3504844e-38
0.012867915 -0.12403814 -0.00044574589 2.2028993e-38
0.018844185 -0.12501745 -0.0044211373 2.1379297e-38
0.020781679 -0.12501745 -0.0044211373 2.1470767e-38
0.022719169 -0.12501745 -0.0044211373 2.1930303e-38
-0.057354286 -0.13415821 -0.033455275 9.406464e-39
-0.05536589 -0.13415821 -0.033455275 1.0788331e-38
-0.053377487 -0.13415821 -0.033455275 2.3049991e-38
-0.051389091 -0.13415821 -0.033455275 2.3417691e-38
-0.049340181 -0.13315089 -0.029395007 2.2864526e-38
-0.047358908 -0.13315089 -0.029395007 2.3509527e-38
-0.045377627 -0.13315089 -0.029395007 2.3325138e-38
-0.043396346 -0.13315089 -0.029395007 2.341769e-38
-0.041360542 -0.1314363 -0.022484086 2.3509883e-38
-0.039391384 -0.1314363 -0.022484086 2.3509523e-38
-0.037422221 -0.1314363 -0.022484086 2.3509883e-38
-0.035453059 -0.1314363 -0.022484086 2.3509527e-38
-0.0334839 -0.1314363 -0.022484086 2.3509527e-38
-0.031514738 -0.1314363 -0.022484086 2.3509886e-38
-0.029545577 -0.1314363 -0.022484086 2.3509886e-38
-0.027576417 -0.1314363 -0.022484086 2.3509886e-38
-0.025607254 -0.1314363 -0.022484086 2.3509886e-38
-0.023669513 -0.13044833 -0.0185019 2.3509886e-38
-0.021707334 -0.13044833 -0.0185019 2.3509886e-38
-0.019745156 -0.13044833 -0.0185019 2.3509886e-38
-0.017782975 -0.13044833 -0.0185019 2.3509527e-38
-0.015881559 -0.12943684 -0.014424823 2.323258e-38
-0.013975609 -0.12870578 -0.011478208 2.3416251e-38
-0.012025746 -0.12870578 -0.011478208 2.3508807e-38
-0.01007588 -0.12870578 -0.011478208 2.3509527e-38
-0.0082142595 -0.12770687 -0.0074519143 2.3509527e-38
-0.0062714554 -0.12770687 -0.0074519143 2.3509527e-38
-0.0044057034 -0.12695493 -0.0044211373 2.3509527e-38
-0.0024682116 -0.12695493 -0.0044211373 2.3509527e-38
-0.00053072162 -0.12695493 -0.0044211373 2.2678683e-38
0.0014067683 -0.12695493 -0.0044211373 2.3508804e-38
0.003344262 -0.12695493 -0.0044211373 2.3508804e-38
0.005281752 -0.12695493 -0.0044211373 2.3509524e-38
0.0070763547 -0.12596865 -0.00044574589 2.3507725e-38
0.0090068746 -0.12596865 -0.00044574589 1.9726625e-38
0.010937395 -0.12596865 -0.00044574589 1.9080893e-38
0.012867915 -0.12596865 -0.00044574589 2.3505923e-38
0.014798434 -0.12596865 -0.00044574589 2.3507722e-38
0.016728954 -0.12596865 -0.00044574589 2.3506639e-38
0.018659478 -0.12596865 -0.00044574589 2.3505191e-38
0.020781679 -0.12695493 -0.0044211373 2.2391998e-38
0.022719169 -0.12695493 -0.0044211373 2.1283487e-38
0.024656659 -0.12695493 -0.0044211373 2.0544477e-38
0.026170498 -0.12498946 0.0035010353 1.9990219e-38
0.0280941 -0.12498946 0.0035010353 1.7593133e-38
0.030017698 -0.12498946 0.0035010353 1.7132523e-38
0.031173574 -0.12174667 0.016571738 1.5105664e-38
0.033074252 -0.12174667 0.016571738 1.2341956e-38
0.034974933 -0.12174667 0.016571738 1.0684954e-38
-0.055284016 -0.13513215 -0.029395007 1.3462723e-38
-0.053302743 -0.13513215 -0.029395007 2.3142544e-38
-0.051321462 -0.13513215 -0.029395007 2.2680855e-38
-0.049281977 -0.13415633 -0.025489353 2.3417691e-38
-0.047307543 -0.13415633 -0.025489353 2.267942e-38
-0.045333117 -0.13415633 -0.025489353 2.295636e-38
-0.043358684 -0.13415633 -0.025489353 2.3509527e-38
-0.041360542 -0.13340546 -0.022484086 2.3509527e-38
-0.039391384 -0.13340546 -0.022484086 2.3509524e-38
-0.037422221 -0.13340546 -0.022484086 2.3416245e-38
-0.035453059 -0.13340546 -0.022484086 2.3416245e-38
-0.0334839 -0.13340546 -0.022484086 2.3509524e-38
-0.031518228 -0.13241051 -0.0185019 2.3509886e-38
-0.029556051 -0.13241051 -0.0185019 2.341805e-38
-0.027593872 -0.13241051 -0.0185019 2.3509527e-38
-0.025631692 -0.13241051 -0.0185019 2.3509527e-38
-0.023669513 -0.13241051 -0.0185019 2.3509527e-38
-0.021707334 -0.13241051 -0.0185019 2.3509527e-38
-0.019745156 -0.13241051 -0.0185019 2.3509527e-38
-0.017836589 -0.13139187 -0.014424823 2.3509168e-38
-0.015881559 -0.13139187 -0.014424823 2.3509168e-38
-0.013975609 -0.13065563 -0.011478208 2.3509168e-38
-0.012025746 -0.13065563 -0.011478208 2.3509168e-38
-0.01007588 -0.13065563 -0.011478208 2.3508809e-38
-0.0081260167 -0.13065563 -0.011478208 2.3507732e-38
-0.0062714554 -0.12964968 -0.0074519143 2.3507012e-38
-0.0043286495 -0.12964968 -0.0074519143 2.3505933e-38
-0.0023858454 -0.12964968 -0.0074519143 2.3414453e-38
-0.00053072162 -0.12889244 -0.0044211373 2.3509521e-38
0.0014067683 -0.12889244 -0.0044211373 2.3509879e-38
0.003344262 -0.12889244 -0.0044211373 2.2771955e-38
0.005145831 -0.12789918 -0.00044574589 2.2403172e-38
0.0069344919 -0.12691309 0.0035010353 2.3509521e-38
0.008858094 -0.12691309 0.0035010353 2.1756724e-38
0.010781692 -0.12691309 0.0035010353 2.0004647e-38
0.012705294 -0.12691309 0.0035010353 2.3508442e-38
0.014628896 -0.12691309 0.0035010353 2.3506637e-38
0.016728954 -0.12789918 -0.00044574589 2.3508075e-38
0.018659478 -0.12789918 -0.00044574589 2.3507349e-38
0.020781679 -0.12889244 -0.0044211373 2.1285645e-38
0.022719169 -0.12889244 -0.0044211373 1.999274e-38
0.024451038 -0.12789918 -0.00044574589 1.8976062e-38
0.026170498 -0.12691309 0.0035010353 1.9067533e-38
0.0280941 -0.12691309 0.0035010353 1.8328891e-38
0.030017698 -0.12691309 0.0035010353 1.7868282e-38
0.031173574 -0.12364738 0.016571738 1.7223998e-38
0.033074252 -0.12364738 0.016571738 1.4736879e-38
0.034974933 -0.12364738 0.016571738 1.2343395e-38
-0.055284016 -0.13711344 -0.029395007 1.309394e-38
-0.053302743 -0.13711344 -0.029395007 2.3050708e-38
-0.05120635 -0.13537462 -0.022484086 2.3234379e-38
-0.049237184 -0.13537462 -0.022484086 2.3417691e-38
-0.047268026 -0.13537462 -0.022484086 2.3509527e-38
-0.045298867 -0.13537462 -0.022484086 2.3509527e-38
-0.043329708 -0.13537462 -0.022484086 2.3416974e-38
-0.041329123 -0.1343727 -0.0185019 2.2771602e-38
-0.039366946 -0.1343727 -0.0185019 2.3508804e-38
-0.037404768 -0.1343727 -0.0185019 2.3509524e-38
-0.035442587 -0.1343727 -0.0185019 2.3509521e-38
-0.033480406 -0.1343727 -0.0185019 2.3509161e-38
-0.031518228 -0.1343727 -0.0185019 2.3509883e-38
-0.029556051 -0.1343727 -0.0185019 2.3509886e-38
-0.027593872 -0.1343727 -0.0185019 2.3509168e-38
-0.025631692 -0.1343727 -0.0185019 2.3509168e-38
-0.023669513 -0.1343727 -0.0185019 2.3509527e-38
-0.021707334 -0.1343727 -0.0185019 2.3509886e-38
-0.01979162 -0.13334687 -0.014424823 2.3509527e-38
-0.017836589 -0.13334687 -0.014424823 2.3509527e-38
-0.015925473 -0.13260551 -0.011478208 2.3508805e-38
-0.013975609 -0.13260551 -0.011478208 2.3508801e-38
-0.01209987 -0.13159247 -0.0074519143 2.3508797e-38
-0.010157064 -0.13159247 -0.0074519143 2.3508441e-38
-0.0082142595 -0.13159247 -0.0074519143 2.3508448e-38
-0.0062714554 -0.13159247 -0.0074519143 2.3508451e-38
-0.0043286495 -0.13159247 -0.0074519143 2.3509527e-38
-0.0024682116 -0.13082992 -0.0044211373 2.3509883e-38
-0.00053072162 -0.13082992 -0.0044211373 2.3508441e-38
0.0014067683 -0.13082992 -0.0044211373 2.3324407e-38
0.003344262 -0.13082992 -0.0044211373 2.3509883e-38
0.005145831 -0.12982969 -0.00044574589 2.3509883e-38
0.0068234373 -0.12805928 0.0065908208 2.3233299e-38
0.0087416191 -0.12805928 0.0065908208 2.3509527e-38
0.010501435 -0.12704925 0.010605194 2.277016e-38
0.01241258 -0.12704925 0.010605194 1.9080891e-38
0.014323724 -0.12704925 0.010605194 2.1567645e-38
0.01641435 -0.12805928 0.0065908208 2.3501946e-38
0.018332535 -0.12805928 0.0065908208 2.3313949e-38
0.020399695 -0.12883668 0.0035010353 1.8886753e-38
0.022520518 -0.12982969 -0.00044574589 1.8883869e-38
0.024451038 -0.12982969 -0.00044574589 1.8053025e-38
0.026170498 -0.12883668 0.0035010353 1.8697308e-38
0.027923452 -0.12805928 0.0065908208 1.8696232e-38
0.029445754 -0.12631132 0.0135381 1.804907e-38
0.031173574 -0.12554805 0.016571738 1.8050155e-38
0.032835826 -0.12455635 0.020513274 1.6025452e-38
0.034543186 -0.12380283 0.023508169 1.3909279e-38
0.036431707 -0.12380283 0.023508169 1.2622863e-38
0.038320228 -0.12380283 0.023508169 9.9535141e-39
-0.055205271 -0.1381052 -0.025489353 2.1667412e-38
-0.053230837 -0.1381052 -0.025489353 2.2681564e-38
-0.05120635 -0.13734378 -0.022484086 2.3233662e-38
-0.049237184 -0.13734378 -0.022484086 2.341805e-38
-0.047268026 -0.13734378 -0.022484086 2.3509886e-38
-0.045298867 -0.13734378 -0.022484086 2.3509886e-38
-0.043291301 -0.13633488 -0.0185019 2.3509168e-38
-0.041329123 -0.13633488 -0.0185019 2.3509167e-38
-0.039341927 -0.1353019 -0.014424823 2.3509167e-38
-0.037386894 -0.1353019 -0.014424823 2.3509527e-38
-0.035442587 -0.13633488 -0.0185019 2.3509527e-38
-0.033480406 -0.13633488 -0.0185019 2.3509521e-38
-0.031518228 -0.13633488 -0.0185019 2.3509873e-38
-0.029556051 -0.13633488 -0.0185019 2.350952e-38
-0.027593872 -0.13633488 -0.0185019 2.3508092e-38
-0.025631692 -0.13633488 -0.0185019 2.3508092e-38
-0.023669513 -0.13633488 -0.0185019 2.3509168e-38
-0.02174665 -0.1353019 -0.014424823 2.3326213e-38
-0.01979162 -0.1353019 -0.014424823 2.3142544e-38
-0.017875338 -0.13455538 -0.011478208 2.3234379e-38
-0.015985478 -0.13353528 -0.0074519143 2.3509876e-38
-0.014042674 -0.13353528 -0.0074519143 2.3508783e-38
-0.01209987 -0.13353528 -0.0074519143 2.3508049e-38
-0.010157064 -0.13353528 -0.0074519143 2.3508056e-38
-0.0082142595 -0.13353528 -0.0074519143 2.3508082e-38
-0.0063431934 -0.13276742 -0.0044211373 2.3509168e-38
-0.0044057034 -0.13276742 -0.0044211373 2.2867034e-38
-0.0024682116 -0.13276742 -0.0044211373 2.2499688e-38
-0.00053072162 -0.13276742 -0.0044211373 2.3509883e-38
0.0012847912 -0.13176022 -0.00044574589 2.3508808e-38
0.0032153111 -0.13176022 -0.00044574589 2.2863803e-38
0.005145831 -0.13176022 -0.00044574589 2.341805e-38
0.0068234373 -0.12997745 0.0065908208 2.2496824e-38
0.0087416191 -0.12997745 0.0065908208 2.314075e-38
0.010501435 -0.12896039 0.010605194 2.3509168e-38
0.01241258 -0.12896039 0.010605194 1.9909213e-38
0.014323724 -0.12896039 0.010605194 2.1380729e-38
0.01641435 -0.12997745 0.0065908208 2.3501223e-38
0.018332535 -0.12997745 0.0065908208 2.3495094e-38
0.020399695 -0.13076027 0.0035010353 2.0356838e-38
0.022520518 -0.13176022 -0.00044574589 1.9433441e-38
0.024451038 -0.13176022 -0.00044574589 1.9524918e-38
0.026170498 -0.13076027 0.0035010353 1.8787353e-38
0.027923452 -0.12997745 0.0065908208 1.8601522e-38
0.029445754 -0.12821732 0.0135381 1.9059977e-38
0.031173574 -0.12744872 0.016571738 2.0351079e-38
0.032835826 -0.12645011 0.020513274 1.7037082e-38
0.034543186 -0.12569134 0.023508169 1.4644683e-38
0.036431707 -0.12569134 0.023508169 1.2529593e-38
0.038776301 -0.12744872 0.016571738 9.0301257e-39
0.040676989 -0.12744872 0.016571738 8.8486197e-39
0.042577669 -0.12744872 0.016571738 8.5741964e-39
-0.053175509 -0.13931294 -0.022484086 2.3234376e-38
-0.051140018 -0.13829704 -0.0185019 2.3418047e-38
-0.04917784 -0.13829704 -0.0185019 2.3418047e-38
-0.047215663 -0.13829704 -0.0185019 2.3509886e-38
-0.045253485 -0.13829704 -0.0185019 2.3509886e-38
-0.043291301 -0.13829704 -0.0185019 2.3509527e-38
-0.041329123 -0.13829704 -0.0185019 2.3509527e-38
-0.039341927 -0.13725694 -0.014424823 2.3509527e-38
-0.037386894 -0.13725694 -0.014424823 2.3509527e-38
-0.035442587 -0.13829704 -0.0185019 2.3509527e-38
-0.033480406 -0.13829704 -0.0185019 2.3509161e-38
-0.031518228 -0.13829704 -0.0185019 2.3509869e-38
-0.029556051 -0.13829704 -0.0185019 2.3509514e-38
-0.027611744 -0.13725694 -0.014424823 2.3508092e-38
-0.025656711 -0.13725694 -0.014424823 2.3508092e-38
-0.023669513 -0.13829704 -0.0185019 2.3509886e-38
-0.02174665 -0.13725694 -0.014424823 2.3234376e-38
-0.01979162 -0.13725694 -0.014424823 2.2867037e-38
-0.017875338 -0.13650523 -0.011478208 2.3142544e-38
-0.015985478 -0.13547809 -0.0074519143 2.350843e-38
-0.014042674 -0.13547809 -0.0074519143 2.3044552e-38
-0.012155665 -0.1347049 -0.0044211373 2.3502993e-38
-0.010218175 -0.1347049 -0.0044211373 2.3506602e-38
-0.0082806833 -0.1347049 -0.0044211373 2.3507718e-38
-0.0064372905 -0.13369073 -0.00044574589 2.3507366e-38
-0.0045067705 -0.13369073 -0.00044574589 2.2407851e-38
-0.0025762506 -0.13369073 -0.00044574589 2.249969e-38
-0.00064572878 -0.13369073 -0.00044574589 2.2587927e-38
0.0011636894 -0.13268389 0.0035010353 2.3509168e-38
0.0030872915 -0.13268389 0.0035010353 2.3509527e-38
0.0050108936 -0.13268389 0.0035010353 2.0191933e-38
0.0068234373 -0.13189565 0.0065908208 2.323402e-38
0.0087416191 -0.13189565 0.0065908208 2.3417691e-38
0.010659801 -0.13189565 0.0065908208 2.2309187e-38
0.012577986 -0.13189565 0.0065908208 2.2397053e-38
0.014496168 -0.13189565 0.0065908208 2.3406872e-38
0.01641435 -0.13189565 0.0065908208 2.3502661e-38
0.018332535 -0.13189565 0.0065908208 2.349365e-38
0.020399695 -0.13268389 0.0035010353 2.0723098e-38
0.022323297 -0.13268389 0.0035010353 1.943128e-38
0.024246899 -0.13268389 0.0035010353 1.9246892e-38
0.026170498 -0.13268389 0.0035010353 1.8602244e-38
0.027923452 -0.13189565 0.0065908208 1.8692999e-38
0.029445754 -0.13012333 0.0135381 1.8966339e-38
0.031173574 -0.12934943 0.016571738 1.9243286e-38
0.032835826 -0.1283439 0.020513274 1.7588814e-38
0.0347296 -0.1283439 0.020513274 1.6303484e-38
0.03687562 -0.12934943 0.016571738 1.3819255e-38
0.038776301 -0.12934943 0.016571738 1.004428e-38
0.040676989 -0.12934943 0.016571738 8.6642312e-39
0.042577669 -0.12934943 0.016571738 8.5734803e-39
0.044478349 -0.12934943 0.016571738 5.9909251e-39
-0.053175509 -0.1412821 -0.022484086 2.3418047e-38
-0.051140018 -0.14025922 -0.0185019 2.3141822e-38
-0.04917784 -0.14025922 -0.0185019 2.3141822e-38
-0.047215663 -0.14025922 -0.0185019 2.341805e-38
-0.045253485 -0.14025922 -0.0185019 2.341805e-38
-0.043291301 -0.14025922 -0.0185019 2.3509886e-38
-0.041296959 -0.13921197 -0.014424823 2.3509886e-38
-0.039341927 -0.13921197 -0.014424823 2.3509886e-38
-0.037386894 -0.13921197 -0.014424823 2.3509886e-38
-0.035431866 -0.13921197 -0.014424823 2.3325497e-38
-0.033480406 -0.14025922 -0.0185019 2.3325129e-38
-0.031521805 -0.13921197 -0.014424823 2.3233639e-38
-0.029566772 -0.13921197 -0.014424823 2.3508793e-38
-0.027611744 -0.13921197 -0.014424823 2.3508092e-38
-0.025656711 -0.13921197 -0.014424823 2.3508451e-38
-0.023701683 -0.13921197 -0.014424823 2.3509886e-38
-0.021775067 -0.13845511 -0.011478208 2.3234374e-38
-0.019825201 -0.13845511 -0.011478208 2.2867037e-38
-0.017928284 -0.13742088 -0.0074519143 2.3050704e-38
-0.016030647 -0.13664238 -0.0044211373 2.3509869e-38
-0.014093157 -0.13664238 -0.0044211373 1.9355648e-38
-0.012155665 -0.13664238 -0.0044211373 1.8245322e-38
-0.010218175 -0.13664238 -0.0044211373 2.202427e-38
-0.0082806833 -0.13664238 -0.0044211373 2.3506995e-38
-0.0064372905 -0.13562126 -0.00044574589 2.3508444e-38
-0.0045067705 -0.13562126 -0.00044574589 2.2867026e-38
-0.0026835091 -0.13460748 0.0035010353 2.2316007e-38
-0.00075990893 -0.13460748 0.0035010353 2.3509879e-38
0.0011636894 -0.13460748 0.0035010353 2.3416248e-38
0.00298707 -0.13381381 0.0065908208 2.341805e-38
0.0049052518 -0.13381381 0.0065908208 1.8624962e-38
0.0068234373 -0.13381381 0.0065908208 1.9915346e-38
0.0085902903 -0.13278268 0.010605194 2.3509527e-38
0.010501435 -0.13278268 0.010605194 2.3508807e-38
0.01241258 -0.13278268 0.010605194 2.1474731e-38
0.014323724 -0.13278268 0.010605194 2.3406147e-38
0.016234869 -0.13278268 0.010605194 2.3497977e-38
0.018332535 -0.13381381 0.0065908208 2.3397853e-38
0.020250717 -0.13381381 0.0065908208 2.1183353e-38
0.022168899 -0.13381381 0.0065908208 2.0443993e-38
0.024087084 -0.13381381 0.0065908208 2.0075213e-38
0.026005266 -0.13381381 0.0065908208 1.9614957e-38
0.027923452 -0.13381381 0.0065908208 1.9983018e-38
0.029612882 -0.13278268 0.010605194 2.0349634e-38
0.031524025 -0.13278268 0.010605194 1.9337283e-38
0.03325776 -0.13202934 0.0135381 1.814343e-38
0.03516376 -0.13202934 0.0135381 1.5843226e-38
0.03706976 -0.13202934 0.0135381 1.3082769e-38
0.03897576 -0.13202934 0.0135381 1.2258054e-38
0.040881768 -0.13202934 0.0135381 1.0969841e-38
0.042787768 -0.13202934 0.0135381 1.0325557e-38
-0.055144668 -0.14325126 -0.022484086 2.2957428e-38
-0.053175509 -0.14325126 -0.022484086 2.3418047e-38
-0.051140018 -0.14222141 -0.0185019 2.3141822e-38
-0.04917784 -0.14222141 -0.0185019 2.3326213e-38
-0.047215663 -0.14222141 -0.0185019 2.341805e-38
-0.045253485 -0.14222141 -0.0185019 2.341805e-38
-0.043251984 -0.141167 -0.014424823 2.3509886e-38
-0.041296959 -0.141167 -0.014424823 2.3509886e-38
-0.039341927 -0.141167 -0.014424823 2.3509886e-38
-0.037386894 -0.141167 -0.014424823 2.341805e-38
-0.035431866 -0.141167 -0.014424823 2.3233302e-38
-0.033476837 -0.141167 -0.014424823 2.3141456e-38
-0.031521805 -0.141167 -0.014424823 2.258863e-38
-0.029566772 -0.141167 -0.014424823 2.2772307e-38
-0.027624657 -0.14040495 -0.011478208 2.3322985e-38
-0.025674794 -0.14040495 -0.011478208 2.3507733e-38
-0.02372493 -0.14040495 -0.011478208 2.341769e-38
-0.021813892 -0.13936369 -0.0074519143 2.3142537e-38
-0.019871088 -0.13936369 -0.0074519143 2.2867036e-38
-0.017968137 -0.13857989 -0.0044211373 2.30507e-38
-0.016030647 -0.13857989 -0.0044211373 2.3508786e-38
-0.014093157 -0.13857989 -0.0044211373 1.8802111e-38
-0.012228852 -0.1375518 -0.00044574589 1.8705224e-38
-0.010298332 -0.1375518 -0.00044574589 2.3497602e-38
-0.0083678123 -0.1375518 -0.00044574589 2.3506993e-38
-0.0065307114 -0.13653107 0.0035010353 2.3507003e-38
-0.0046071112 -0.13653107 0.0035010353 2.3509872e-38
-0.0027674809 -0.13573201 0.0065908208 2.3142531e-38
-0.00084929727 -0.13573201 0.0065908208 2.2864505e-38
0.0010688845 -0.13573201 0.0065908208 2.3509879e-38
0.00298707 -0.13573201 0.0065908208 1.7609363e-38
0.0049052518 -0.13573201 0.0065908208 1.2999584e-38
0.0066791456 -0.13469382 0.010605194 1.6226434e-38
0.0084797312 -0.13393532 0.0135381 2.3416251e-38
0.010385731 -0.13393532 0.0135381 2.3507e-38
0.012166737 -0.13315077 0.016571738 1.8062049e-38
0.014067421 -0.13315077 0.016571738 1.888712e-38
0.015968105 -0.13315077 0.016571738 1.9436326e-38
0.017868789 -0.13315077 0.016571738 1.9433078e-38
0.019915743 -0.13393532 0.0135381 1.961423e-38
0.021821747 -0.13393532 0.0135381 1.9613514e-38
0.023727747 -0.13393532 0.0135381 1.9336567e-38
0.02563375 -0.13393532 0.0135381 1.9060344e-38
0.027539751 -0.13393532 0.0135381 1.9244734e-38
0.029445754 -0.13393532 0.0135381 1.9335485e-38
0.031351753 -0.13393532 0.0135381 1.8692273e-38
0.03325776 -0.13393532 0.0135381 1.8051953e-38
0.03516376 -0.13393532 0.0135381 1.5475884e-38
0.03706976 -0.13393532 0.0135381 1.5389458e-38
0.039168604 -0.13469382 0.010605194 2.1938956e-38
0.041079745 -0.13469382 0.010605194 2.3509168e-38
0.042990893 -0.13469382 0.010605194 2.314075e-38
-0.056937203 -0.14312203 -0.014424823 2.3509883e-38
-0.05498217 -0.14312203 -0.014424823 2.2956709e-38
-0.053102195 -0.14418359 -0.0185019 2.3509883e-38
-0.051140018 -0.14418359 -0.0185019 2.341805e-38
-0.049117081 -0.14312203 -0.014424823 2.341805e-38
-0.047162049 -0.14312203 -0.014424823 2.341805e-38
-0.045207016 -0.14312203 -0.014424823 2.341805e-38
-0.043251984 -0.14312203 -0.014424823 2.341805e-38
-0.041296959 -0.14312203 -0.014424823 2.341805e-38
-0.039323844 -0.14235483 -0.011478208 2.341805e-38
-0.037373982 -0.14235483 -0.011478208 2.3234379e-38
-0.035431866 -0.14312203 -0.014424823 2.3141466e-38
-0.033476837 -0.14312203 -0.014424823 2.2866311e-38
-0.031524386 -0.14235483 -0.011478208 2.2866657e-38
-0.029574523 -0.14235483 -0.011478208 2.3142168e-38
-0.027642308 -0.1413065 -0.0074519143 2.3509168e-38
-0.025699502 -0.1413065 -0.0074519143 2.3508809e-38
-0.023756698 -0.1413065 -0.0074519143 2.3509886e-38
-0.021813892 -0.1413065 -0.0074519143 2.3418045e-38
-0.019905629 -0.14051737 -0.0044211373 2.3142541e-38
-0.017968137 -0.14051737 -0.0044211373 2.3418043e-38
-0.016089894 -0.1394823 -0.00044574589 2.3509507e-38
-0.014159374 -0.1394823 -0.00044574589 1.9261294e-38
-0.012301512 -0.13845469 0.0035010353 1.9625385e-38
-0.010377912 -0.13845469 0.0035010353 2.3499767e-38
-0.0084543116 -0.13845469 0.0035010353 2.3506273e-38
-0.0065307114 -0.13845469 0.0035010353 2.35052e-38
-0.0046071112 -0.13845469 0.0035010353 2.3507352e-38
-0.0027674809 -0.13765021 0.0065908208 2.3509869e-38
-0.00084929727 -0.13765021 0.0065908208 2.3509511e-38
0.0010688845 -0.13765021 0.0065908208 1.9819528e-38
0.00298707 -0.13765021 0.0065908208 1.3827538e-38
0.0047680009 -0.13660498 0.010605194 1.2813386e-38
0.0066791456 -0.13660498 0.010605194 1.7514286e-38
0.0084797312 -0.13584132 0.0135381 2.35088e-38
0.010385731 -0.13584132 0.0135381 2.3508075e-38
0.012166737 -0.13505147 0.016571738 1.7230482e-38
0.014067421 -0.13505147 0.016571738 1.8147391e-38
0.015968105 -0.13505147 0.016571738 1.8051947e-38
0.017868789 -0.13505147 0.016571738 1.8878107e-38
0.019769469 -0.13505147 0.016571738 1.9890454e-38
0.021670153 -0.13505147 0.016571738 2.0349637e-38
0.023570837 -0.13505147 0.016571738 2.0164529e-38
0.025471522 -0.13505147 0.016571738 1.9980502e-38
0.027372206 -0.13505147 0.016571738 1.9889384e-38
0.029445754 -0.13584132 0.0135381 1.9428759e-38
0.031351753 -0.13584132 0.0135381 1.860152e-38
0.03325776 -0.13584132 0.0135381 1.7408025e-38
0.03516376 -0.13584132 0.0135381 1.5292213e-38
0.03706976 -0.13584132 0.0135381 1.5574209e-38
0.03897576 -0.13584132 0.0135381 2.2953827e-38
0.041079745 -0.13660498 0.010605194 2.3509886e-38
0.042990893 -0.13660498 0.010605194 2.341805e-38
0.044902034 -0.13660498 0.010605194 2.3509527e-38
-0.056937203 -0.14507706 -0.014424823 2.3509883e-38
-0.05498217 -0.14507706 -0.014424823 2.3417687e-38
-0.053102195 -0.14614578 -0.0185019 2.3509883e-38
-0.051140018 -0.14614578 -0.0185019 2.3509886e-38
-0.049117081 -0.14507706 -0.014424823 2.341805e-38
-0.047162049 -0.14507706 -0.014424823 2.341805e-38
-0.045207016 -0.14507706 -0.014424823 2.341805e-38
-0.043223575 -0.14430468 -0.011478208 2.341805e-38
-0.041273706 -0.14430468 -0.011478208 2.341805e-38
-0.039323844 -0.14430468 -0.011478208 2.3234379e-38
-0.037373982 -0.14430468 -0.011478208 2.3234379e-38
-0.035424113 -0.14430468 -0.011478208 2.3050349e-38
-0.033474252 -0.14430468 -0.011478208 2.2958507e-38
-0.031524386 -0.14430468 -0.011478208 2.3142531e-38
-0.029574523 -0.14430468 -0.011478208 2.3234369e-38
-0.027642308 -0.14324932 -0.0074519143 2.3509527e-38
-0.025699502 -0.14324932 -0.0074519143 2.3509168e-38
-0.023756698 -0.14324932 -0.0074519143 2.3509527e-38
-0.021813892 -0.14324932 -0.0074519143 2.3509883e-38
-0.019905629 -0.14245488 -0.0044211373 2.332621e-38
-0.018020414 -0.14141284 -0.00044574589 2.3417323e-38
-0.016089894 -0.14141284 -0.00044574589 2.3509149e-38
-0.014225114 -0.14037828 0.0035010353 1.8430818e-38
-0.012301512 -0.14037828 0.0035010353 1.7319061e-38
-0.010377912 -0.14037828 0.0035010353 2.1557545e-38
-0.0084543116 -0.14037828 0.0035010353 2.3497633e-38
-0.0066038463 -0.13956837 0.0065908208 2.3505921e-38
-0.0046856627 -0.13956837 0.0065908208 2.3508075e-38
-0.0027674809 -0.13956837 0.0065908208 2.3508793e-38
-0.00084929727 -0.13956837 0.0065908208 2.3506992e-38
0.0010688845 -0.13956837 0.0065908208 1.1058064e-38
0.0028568562 -0.13851611 0.010605194 1.4008324e-38
0.0047680009 -0.13851611 0.010605194 1.6128826e-38
0.0065737274 -0.13774733 0.0135381 2.0369102e-38
0.0083653722 -0.13695215 0.016571738 2.3507716e-38
0.010266056 -0.13695215 0.016571738 2.3504468e-38
0.012004333 -0.13591899 0.020513274 1.7411627e-38
0.013898106 -0.13591899 0.020513274 1.8606566e-38
0.01579188 -0.13591899 0.020513274 1.7865397e-38
0.01768565 -0.13591899 0.020513274 1.8231295e-38
0.019769469 -0.13695215 0.016571738 1.9151091e-38
0.021670153 -0.13695215 0.016571738 1.8781592e-38
0.023570837 -0.13695215 0.016571738 1.8780872e-38
0.025471522 -0.13695215 0.016571738 1.8873793e-38
0.027372206 -0.13695215 0.016571738 1.8781958e-38
0.029445754 -0.13774733 0.0135381 1.9152891e-38
0.031351753 -0.13774733 0.0135381 1.9064296e-38
0.03325776 -0.13774733 0.0135381 1.8700203e-38
0.03516376 -0.13774733 0.0135381 2.0180024e-38
0.03706976 -0.13774733 0.0135381 2.0185431e-38
0.03897576 -0.13774733 0.0135381 2.3509521e-38
0.041079745 -0.13851611 0.010605194 2.341805e-38
0.042990893 -0.13851611 0.010605194 2.3234379e-38
0.044902034 -0.13851611 0.010605194 2.341805e-38
0.046813183 -0.13851611 0.010605194 2.3509886e-38
0.048724324 -0.13851611 0.010605194 2.3509527e-38
0.050635479 -0.13851611 0.010605194 2.3509524e-38
0.052546613 -0.13851611 0.010605194 2.2956349e-38
0.054457761 -0.13851611 0.010605194 2.2957428e-38
-0.057026558 -0.14810793 -0.0185019 2.3417324e-38
-0.05506438 -0.14810793 -0.0185019 2.350988e-38
-0.053102195 -0.14810793 -0.0185019 2.3233652e-38
-0.051072106 -0.1470321 -0.014424823 2.3509883e-38
-0.049117081 -0.1470321 -0.014424823 2.3325492e-38
-0.047162049 -0.1470321 -0.014424823 2.3509883e-38
-0.045173436 -0.14625455 -0.011478208 2.3509883e-38
-0.043223575 -0.14625455 -0.011478208 2.341805e-38
-0.041273706 -0.14625455 -0.011478208 2.341805e-38
-0.039299138 -0.1451921 -0.0074519143 2.3234379e-38
-0.037356332 -0.1451921 -0.0074519143 2.3234379e-38
-0.035413526 -0.1451921 -0.0074519143 2.3234379e-38
-0.03347072 -0.1451921 -0.0074519143 2.3050704e-38
-0.031527914 -0.1451921 -0.0074519143 2.2958866e-38
-0.029585112 -0.1451921 -0.0074519143 2.3142538e-38
-0.027642308 -0.1451921 -0.0074519143 2.3509527e-38
-0.025699502 -0.1451921 -0.0074519143 2.3509168e-38
-0.02378061 -0.14439236 -0.0044211373 2.3508809e-38
-0.02184312 -0.14439236 -0.0044211373 2.3509167e-38
-0.019905629 -0.14439236 -0.0044211373 2.3325494e-38
-0.018020414 -0.14334334 -0.00044574589 2.3508801e-38
-0.016089894 -0.14334334 -0.00044574589 2.3507352e-38
-0.014225114 -0.14230187 0.0035010353 1.9720483e-38
-0.012301512 -0.14230187 0.0035010353 1.8977155e-38
-0.010377912 -0.14230187 0.0035010353 2.0911105e-38
-0.0084543116 -0.14230187 0.0035010353 2.2201495e-38
-0.0066038463 -0.14148657 0.0065908208 2.3498003e-38
-0.0046856627 -0.14148657 0.0065908208 2.3506999e-38
-0.0027674809 -0.14148657 0.0065908208 2.3505916e-38
-0.00084929727 -0.14148657 0.0065908208 2.0180754e-38
0.00094571151 -0.14042725 0.010605194 1.280474e-38
0.0028568562 -0.14042725 0.010605194 1.723013e-38
0.0047680009 -0.14042725 0.010605194 2.0271867e-38
0.0065737274 -0.13965334 0.0135381 2.3506635e-38
0.0083653722 -0.13885282 0.016571738 2.350231e-38
0.010266056 -0.13885282 0.016571738 2.054448e-38
0.012004333 -0.13781275 0.020513274 2.0080977e-38
0.013898106 -0.13781275 0.020513274 1.9433443e-38
0.01579188 -0.13781275 0.020513274 1.8416768e-38
0.01768565 -0.13781275 0.020513274 1.878339e-38
0.019579424 -0.13781275 0.020513274 1.9427317e-38
0.021473197 -0.13781275 0.020513274 1.8873065e-38
0.023366967 -0.13781275 0.020513274 1.8965263e-38
0.025260741 -0.13781275 0.020513274 1.9702472e-38
0.027372206 -0.13885282 0.016571738 1.9243292e-38
0.029445754 -0.13965334 0.0135381 1.9337643e-38
0.031351753 -0.13965334 0.0135381 2.1370628e-38
0.033435166 -0.14042725 0.010605194 2.1190926e-38
0.035346314 -0.14042725 0.010605194 2.3504465e-38
0.037257455 -0.14042725 0.010605194 2.3506633e-38
0.039168604 -0.14042725 0.010605194 2.350988e-38
0.041079745 -0.14042725 0.010605194 2.2773763e-38
0.042787768 -0.13965334 0.0135381 2.2958514e-38
0.044693768 -0.13965334 0.0135381 2.341805e-38
0.046599776 -0.13965334 0.0135381 2.2680128e-38
0.048505776 -0.13965334 0.0135381 2.3416251e-38
0.050411776 -0.13965334 0.0135381 2.3509524e-38
0.052546613 -0.14042725 0.010605194 2.3509883e-38
0.054457761 -0.14042725 0.010605194 2.350988e-38
0.05636891 -0.14042725 0.010605194 2.3234376e-38
0.058280058 -0.14042725 0.010605194 2.2591166e-38
0.059683822 -0.13885282 0.016571738 2.222275e-38
0.061242424 -0.13781275 0.020513274 2.2775202e-38
0.063136198 -0.13781275 0.020513274 2.2867037e-38
-0.053027138 -0.14898713 -0.014424823 2.3140737e-38
-0.051072106 -0.14898713 -0.014424823 2.350988e-38
-0.049117081 -0.14898713 -0.014424823 2.350988e-38
-0.047123298 -0.14820443 -0.011478208 2.3509883e-38
-0.045173436 -0.14820443 -0.011478208 2.3509883e-38
-0.043223575 -0.14820443 -0.011478208 2.3417687e-38
-0.041273706 -0.14820443 -0.011478208 2.332621e-38
-0.039299138 -0.14713491 -0.0074519143 2.3326213e-38
-0.037356332 -0.14713491 -0.0074519143 2.3234376e-38
-0.035413526 -0.14713491 -0.0074519143 2.341805e-38
-0.03347072 -0.14713491 -0.0074519143 2.3234376e-38
-0.031527914 -0.14713491 -0.0074519143 2.2775193e-38
-0.029585112 -0.14713491 -0.0074519143 2.2958867e-38
-0.027655592 -0.14632986 -0.0044211373 2.3416974e-38
-0.0257181 -0.14632986 -0.0044211373 2.3508451e-38
-0.02378061 -0.14632986 -0.0044211373 2.3508451e-38
-0.02184312 -0.14632986 -0.0044211373 2.3509168e-38
-0.019950934 -0.14527388 -0.00044574589 2.3509527e-38
-0.018072315 -0.14422549 0.0035010353 2.3509521e-38
-0.016148714 -0.14422549 0.0035010353 2.3508438e-38
-0.014276579 -0.14340474 0.0065908208 2.0549892e-38
-0.012358395 -0.14340474 0.0065908208 1.9161197e-38
-0.010440214 -0.14340474 0.0065908208 2.081784e-38
-0.00852203 -0.14340474 0.0065908208 2.2292974e-38
-0.0066038463 -0.14340474 0.0065908208 2.3494763e-38
-0.0046856627 -0.14340474 0.0065908208 2.1838118e-38
-0.0027674809 -0.14340474 0.0065908208 1.6584046e-38
-0.00084929727 -0.14340474 0.0065908208 1.6580808e-38
0.00094571151 -0.14233841 0.010605194 1.418228e-38
0.0028568562 -0.14233841 0.010605194 1.8607307e-38
0.0046677236 -0.14155935 0.0135381 2.3498353e-38
0.0064646881 -0.14075352 0.016571738 2.3495108e-38
0.008216789 -0.13970654 0.020513274 2.1462837e-38
0.010110563 -0.13970654 0.020513274 1.9063588e-38
0.012004333 -0.13970654 0.020513274 1.7679568e-38
0.013898106 -0.13970654 0.020513274 1.7678124e-38
0.01579188 -0.13970654 0.020513274 1.6755086e-38
0.01768565 -0.13970654 0.020513274 1.7583765e-38
0.019579424 -0.13970654 0.020513274 1.8413166e-38
0.021473197 -0.13970654 0.020513274 1.8043304e-38
0.023366967 -0.13970654 0.020513274 1.8504282e-38
0.025260741 -0.13970654 0.020513274 1.9518437e-38
0.027154515 -0.13970654 0.020513274 1.8874507e-38
0.029272886 -0.14075352 0.016571738 1.8877744e-38
0.031173574 -0.14075352 0.016571738 2.3307455e-38
0.03325776 -0.14155935 0.0135381 2.2574579e-38
0.035346314 -0.14233841 0.010605194 2.3507705e-38
0.037257455 -0.14233841 0.010605194 2.3507352e-38
0.03897576 -0.14155935 0.0135381 2.350988e-38
0.040881768 -0.14155935 0.0135381 2.3050708e-38
0.042787768 -0.14155935 0.0135381 2.3142544e-38
0.044478349 -0.14075352 0.016571738 2.3234379e-38
0.046379037 -0.14075352 0.016571738 2.341769e-38
0.048279718 -0.14075352 0.016571738 2.3509883e-38
0.050180405 -0.14075352 0.016571738 2.3509521e-38
0.052081086 -0.14075352 0.016571738 2.3140737e-38
0.053981774 -0.14075352 0.016571738 2.3418043e-38
0.056129791 -0.14155935 0.0135381 2.3234376e-38
0.058035783 -0.14155935 0.0135381 2.3050707e-38
0.059683822 -0.14075352 0.016571738 2.2958873e-38
0.061242424 -0.13970654 0.020513274 2.2958873e-38
0.063136198 -0.13970654 0.020513274 2.286632e-38
-0.039299138 -0.14907773 -0.0074519143 2.3509883e-38
-0.037356332 -0.14907773 -0.0074519143 2.3418045e-38
-0.035413526 -0.14907773 -0.0074519143 2.3417687e-38
-0.03347072 -0.14907773 -0.0074519143 2.3418047e-38
-0.031527914 -0.14907773 -0.0074519143 2.3142544e-38
-0.029585112 -0.14907773 -0.0074519143 2.3234379e-38
-0.027655592 -0.14826734 -0.0044211373 2.3509168e-38
-0.0257181 -0.14826734 -0.0044211373 2.341374e-38
-0.02378061 -0.14826734 -0.0044211373 2.3508092e-38
-0.02184312 -0.14826734 -0.0044211373 2.3506298e-38
-0.019950934 -0.14720438 -0.00044574589 2.3509168e-38
-0.018072315 -0.14614908 0.0035010353 2.3507366e-38
-0.016148714 -0.14614908 0.0035010353 2.3508441e-38
-0.014276579 -0.14532293 0.0065908208 1.7875867e-38
-0.012358395 -0.14532293 0.0065908208 1.6395699e-38
-0.010440214 -0.14532293 0.0065908208 1.768284e-38
-0.00852203 -0.14532293 0.0065908208 2.3500529e-38
-0.0066038463 -0.14532293 0.0065908208 2.3495487e-38
-0.0046856627 -0.14532293 0.0065908208 2.3034866e-38
-0.0027674809 -0.14532293 0.0065908208 1.9438518e-38
-0.0009654332 -0.14424954 0.010605194 2.0171764e-38
0.00094571151 -0.14424954 0.010605194 1.9800099e-38
0.0028568562 -0.14424954 0.010605194 2.0260712e-38
0.0046677236 -0.14346536 0.0135381 2.3487552e-38
0.0064646881 -0.1426542 0.016571738 2.3488265e-38
0.008216789 -0.1416003 0.020513274 2.0626595e-38
0.010110563 -0.1416003 0.020513274 1.8689762e-38
0.011880932 -0.14079951 0.023508169 1.776744e-38
0.013769457 -0.14079951 0.023508169 1.76756e-38
0.01579188 -0.1416003 0.020513274 1.7675598e-38
0.01768565 -0.1416003 0.020513274 1.7766714e-38
0.019579424 -0.1416003 0.020513274 1.785891e-38
0.021473197 -0.1416003 0.020513274 1.8228771e-38
0.023366967 -0.1416003 0.020513274 1.8781945e-38
0.025260741 -0.1416003 0.020513274 1.8781948e-38
0.027154515 -0.1416003 0.020513274 1.8138018e-38
0.029272886 -0.1426542 0.016571738 1.7403332e-38
0.031173574 -0.1426542 0.016571738 1.81445e-38
0.03325776 -0.14346536 0.0135381 1.8425774e-38
0.03516376 -0.14346536 0.0135381 2.3508065e-38
0.03706976 -0.14346536 0.0135381 2.3509153e-38
0.038776301 -0.1426542 0.016571738 2.3141455e-38
0.040410921 -0.1416003 0.020513274 2.2405696e-38
0.042304695 -0.1416003 0.020513274 2.2958873e-38
0.044198461 -0.1416003 0.020513274 2.3234379e-38
0.046092235 -0.1416003 0.020513274 2.3509886e-38
0.047986008 -0.1416003 0.020513274 2.3509883e-38
0.049879782 -0.1416003 0.020513274 2.3509521e-38
0.051773556 -0.1416003 0.020513274 2.350988e-38
0.053667329 -0.1416003 0.020513274 2.3509879e-38
0.055882461 -0.1426542 0.016571738 2.3234374e-38
0.057783134 -0.1426542 0.016571738 2.3142541e-38
0.05934865 -0.1416003 0.020513274 2.3142544e-38
0.061242424 -0.1416003 0.020513274 2.3050708e-38
0.063136198 -0.1416003 0.020513274 2.3142544e-38
0.065029971 -0.1416003 0.020513274 1.4475077e-38
0.067835771 -0.14424954 0.010605194 6.7306439e-39
-0.021881456 -0.14913492 -0.00044574589 2.3507733e-38
-0.019950934 -0.14913492 -0.00044574589 2.3507729e-38
-0.018072315 -0.14807267 0.0035010353 1.594696e-38
-0.016148714 -0.14807267 0.0035010353 1.2440648e-38
-0.014276579 -0.1472411 0.0065908208 1.3266809e-38
-0.0124323 -0.14616071 0.010605194 1.4183373e-38
-0.010521157 -0.14616071 0.010605194 1.3534403e-38
-0.008610012 -0.14616071 0.010605194 1.7959069e-38
-0.0066988673 -0.14616071 0.010605194 2.2200787e-38
-0.0047877226 -0.14616071 0.010605194 2.349909e-38
-0.0028765779 -0.14616071 0.010605194 2.3493689e-38
-0.0009654332 -0.14616071 0.010605194 2.2750364e-38
0.00094571151 -0.14616071 0.010605194 2.1548579e-38
0.0028568562 -0.14616071 0.010605194 1.9888331e-38
0.0046677236 -0.14537133 0.0135381 2.1177981e-38
0.0064646881 -0.14455487 0.016571738 2.1821541e-38
0.008216789 -0.14349405 0.020513274 2.0253488e-38
0.010110563 -0.14349405 0.020513274 1.9515557e-38
0.011880932 -0.14268802 0.023508169 1.8502479e-38
0.013769457 -0.14268802 0.023508169 1.8503199e-38
0.015657978 -0.14268802 0.023508169 1.8319527e-38
0.01768565 -0.14349405 0.020513274 1.8043659e-38
0.019579424 -0.14349405 0.020513274 1.7675598e-38
0.021473197 -0.14349405 0.020513274 1.804438e-38
0.023366967 -0.14349405 0.020513274 1.8505358e-38
0.025260741 -0.14349405 0.020513274 1.8505358e-38
0.027154515 -0.14349405 0.020513274 1.7861787e-38
0.029272886 -0.14455487 0.016571738 1.7126743e-38
0.031173574 -0.14455487 0.016571738 1.7130348e-38
0.03325776 -0.14537133 0.0135381 1.7780405e-38
0.03516376 -0.14537133 0.0135381 2.350446e-38
0.03706976 -0.14537133 0.0135381 2.350951e-38
0.038776301 -0.14455487 0.016571738 2.2957064e-38
0.040410921 -0.14349405 0.020513274 2.3142544e-38
0.042304695 -0.14349405 0.020513274 2.2958873e-38
0.044198461 -0.14349405 0.020513274 2.3234379e-38
0.046092235 -0.14349405 0.020513274 2.3509886e-38
0.047762841 -0.14268802 0.023508169 2.3509883e-38
0.049651362 -0.14268802 0.023508169 2.3509521e-38
0.05153989 -0.14268802 0.023508169 2.3509879e-38
0.053667329 -0.14349405 0.020513274 2.3509879e-38
0.055561103 -0.14349405 0.020513274 2.3234374e-38
0.057783134 -0.14455487 0.016571738 2.3142541e-38
0.05934865 -0.14349405 0.020513274 2.3234379e-38
0.061242424 -0.14349405 0.020513274 2.3141822e-38
0.063136198 -0.14349405 0.020513274 2.341805e-38
0.065924637 -0.14616071 0.010605194 1.5857651e-38
0.067835771 -0.14616071 0.010605194 8.9429789e-39
-0.019995915 -0.1499963 0.0035010353 2.3508807e-38
-0.018072315 -0.1499963 0.0035010353 1.2442806e-38
-0.016148714 -0.1499963 0.0035010353 8.7535388e-39
-0.014276579 -0.1491593 0.0065908208 1.3174976e-38
-0.0124323 -0.14807184 0.010605194 1.3353976e-38
-0.010521157 -0.14807184 0.010605194 1.2152554e-38
-0.008610012 -0.14807184 0.010605194 1.4364158e-38
-0.0066988673 -0.14807184 0.010605194 2.2662483e-38
-0.0047877226 -0.14807184 0.010605194 2.3501251e-38
-0.0028765779 -0.14807184 0.010605194 2.349621e-38
-0.0009654332 -0.14807184 0.010605194 2.3491174e-38
0.00085571967 -0.14727734 0.0135381 2.182409e-38
0.0026633199 -0.14645557 0.016571738 1.9057131e-38
0.004564004 -0.14645557 0.016571738 2.053045e-38
0.0064646881 -0.14645557 0.016571738 2.1450236e-38
0.008216789 -0.14538784 0.020513274 1.9698509e-38
0.010110563 -0.14538784 0.020513274 1.9237164e-38
0.011880932 -0.14457656 0.023508169 1.8961293e-38
0.013769457 -0.14457656 0.023508169 1.8870895e-38
0.015657978 -0.14457656 0.023508169 1.8595751e-38
0.01768565 -0.14538784 0.020513274 1.8043659e-38
0.019579424 -0.14538784 0.020513274 1.7675596e-38
0.021473197 -0.14538784 0.020513274 1.7859988e-38
0.023366967 -0.14538784 0.020513274 1.8229489e-38
0.025260741 -0.14538784 0.020513274 1.822877e-38
0.027154515 -0.14538784 0.020513274 1.7677394e-38
0.029048285 -0.14538784 0.020513274 1.6849793e-38
0.030942054 -0.14538784 0.020513274 1.5931802e-38
0.03325776 -0.14727734 0.0135381 1.7411978e-38
0.03516376 -0.14727734 0.0135381 2.3505542e-38
0.03706976 -0.14727734 0.0135381 2.3509151e-38
0.038776301 -0.14645557 0.016571738 2.3418042e-38
0.040410921 -0.14538784 0.020513274 2.3142544e-38
0.042304695 -0.14538784 0.020513274 2.2682286e-38
0.044198461 -0.14538784 0.020513274 2.3234379e-38
0.04587432 -0.14457656 0.023508169 2.3509886e-38
0.047762841 -0.14457656 0.023508169 2.3509883e-38
0.049651362 -0.14457656 0.023508169 2.3509521e-38
0.05153989 -0.14457656 0.023508169 2.350988e-38
0.053428404 -0.14457656 0.023508169 2.350988e-38
0.055316932 -0.14457656 0.023508169 2.3234376e-38
0.057454877 -0.14538784 0.020513274 2.3234376e-38
0.059683822 -0.14645557 0.016571738 2.3418047e-38
0.06210234 -0.14807184 0.010605194 2.2864513e-38
0.064013489 -0.14807184 0.010605194 2.3509883e-38
0.065924637 -0.14807184 0.010605194 1.6963277e-38
0.067835771 -0.14807184 0.010605194 1.0970561e-38
-0.008610012 -0.14998297 0.010605194 1.9252323e-38
-0.0066988673 -0.14998297 0.010605194 2.3502679e-38
-0.0047877226 -0.14998297 0.010605194 2.3505565e-38
-0.0028765779 -0.14998297 0.010605194 2.3498371e-38
-0.0009654332 -0.14998297 0.010605194 2.3493696e-38
0.00085571967 -0.14918335 0.0135381 2.0903214e-38
0.0026633199 -0.14835624 0.016571738 1.8688708e-38
0.004564004 -0.14835624 0.016571738 2.2282885e-38
0.0064646881 -0.14835624 0.016571738 2.33867e-38
0.008216789 -0.1472816 0.020513274 1.9698145e-38
0.010110563 -0.1472816 0.020513274 1.840668e-38
0.011880932 -0.14646508 0.023508169 1.8776539e-38
0.013769457 -0.14646508 0.023508169 1.8685422e-38
0.01579188 -0.1472816 0.020513274 1.8226965e-38
0.01768565 -0.1472816 0.020513274 1.7859264e-38
0.019579424 -0.1472816 0.020513274 1.7399009e-38
0.021473197 -0.1472816 0.020513274 1.7583401e-38
0.023366967 -0.1472816 0.020513274 1.8044735e-38
0.025260741 -0.1472816 0.020513274 1.8320243e-38
0.027154515 -0.1472816 0.020513274 1.7768867e-38
0.029048285 -0.1472816 0.020513274 1.731077e-38
0.030942054 -0.1472816 0.020513274 1.5378266e-38
0.03325776 -0.14918335 0.0135381 1.6120518e-38
0.03516376 -0.14918335 0.0135381 2.3507341e-38
0.03706976 -0.14918335 0.0135381 2.3509149e-38
0.038776301 -0.14835624 0.016571738 2.3509876e-38
0.040410921 -0.1472816 0.020513274 2.3234376e-38
0.042304695 -0.1472816 0.020513274 2.259009e-38
0.044198461 -0.1472816 0.020513274 2.341805e-38
0.04587432 -0.14646508 0.023508169 2.3509886e-38
0.047762841 -0.14646508 0.023508169 2.3509524e-38
0.049651362 -0.14646508 0.023508169 2.3509521e-38
0.05153989 -0.14646508 0.023508169 2.350988e-38
0.053428404 -0.14646508 0.023508169 2.3509883e-38
0.055316932 -0.14646508 0.023508169 2.3234376e-38
0.057205446 -0.14646508 0.023508169 2.3234376e-38
0.05934865 -0.1472816 0.020513274 2.350988e-38
0.06158451 -0.14835624 0.016571738 2.2955624e-38
0.064013489 -0.14998297 0.010605194 2.3509521e-38
0.069746919 -0.14998297 0.010605194 8.0203009e-39
0.008216789 -0.14917539 0.020513274 1.9238602e-38
0.0099924114 -0.14835359 0.023508169 1.7854943e-38
0.011880932 -0.14835359 0.023508169 1.8316278e-38
0.013769457 -0.14835359 0.023508169 1.8225523e-38
0.01579188 -0.14917539 0.020513274 1.8042574e-38
0.01768565 -0.14917539 0.020513274 1.7674873e-38
0.019579424 -0.14917539 0.020513274 1.7122422e-38
0.021473197 -0.14917539 0.020513274 1.7214974e-38
0.023366967 -0.14917539 0.020513274 1.7767069e-38
0.025260741 -0.14917539 0.020513274 1.7951094e-38
0.027154515 -0.14917539 0.020513274 1.7583031e-38
0.040410921 -0.14917539 0.020513274 2.2958507e-38
0.042304695 -0.14917539 0.020513274 2.3142544e-38
0.044198461 -0.14917539 0.020513274 2.341805e-38
0.04587432 -0.14835359 0.023508169 2.3509886e-38
0.047762841 -0.14835359 0.023508169 2.3509524e-38
0.049651362 -0.14835359 0.023508169 2.3509524e-38
0.051227383 -0.14725454 0.027513482 2.3509883e-38
0.053108878 -0.14725454 0.027513482 2.3509883e-38
0.054990374 -0.14725454 0.027513482 2.3234379e-38
0.056871869 -0.14725454 0.027513482 2.3418047e-38
0.05934865 -0.14917539 0.020513274 2.3509876e-38
0.061242424 -0.14917539 0.020513274 2.3324041e-38
