# .PCD v0.7 - Point Cloud Data file format
VERSION 0.7
FIELDS x y z rgb
SIZE 4 4 4 4
TYPE F F F F
COUNT 1 1 1 1
WIDTH 833
HEIGHT 1
VIEWPOINT 0 0 0 1 0 0 0
POINTS 833
DATA ascii
-0.01885232 -0.12117358 -0.022188658 6.4716447e-40
-0.016902123 -0.12023942 -0.018227452 1.9368271e-39
-0.014913725 -0.12023942 -0.018227452 4.6101444e-39
-0.012925327 -0.12023942 -0.018227452 4.9778508e-39
-0.020878917 -0.12222783 -0.018227452 2.3141816e-38
-0.018890519 -0.12222783 -0.018227452 2.3418047e-38
-0.016948394 -0.12126322 -0.014167184 2.2035474e-38
-0.014967117 -0.12126322 -0.014167184 2.0651824e-38
-0.012985839 -0.12126322 -0.014167184 2.0097934e-38
-0.01100456 -0.12126322 -0.014167184 1.8899034e-38
-0.026833691 -0.12516426 -0.022188658 2.1848555e-38
-0.024855711 -0.12421621 -0.018227452 2.3509879e-38
-0.022867315 -0.12421621 -0.018227452 2.3418042e-38
-0.020878917 -0.12421621 -0.018227452 2.3326208e-38
-0.018890519 -0.12421621 -0.018227452 2.3418047e-38
-0.016948394 -0.12324448 -0.014167184 2.3509886e-38
-0.015018476 -0.12230973 -0.01026153 2.2955996e-38
-0.013088835 -0.12159048 -0.0072562639 2.3231506e-38
-0.011119673 -0.12159048 -0.0072562639 2.3509168e-38
-0.0091505125 -0.12159048 -0.0072562639 2.3138956e-38
0.010397967 -0.12063743 -0.0032740775 1.7793771e-38
0.012206454 -0.11966167 0.00080299936 1.253862e-38
0.014045238 -0.11895646 0.0037496146 1.0325206e-38
0.015995104 -0.11895646 0.0037496146 1.1339714e-38
-0.026833691 -0.12715961 -0.022188658 2.350952e-38
-0.024855711 -0.12620462 -0.018227452 2.3509518e-38
-0.022867315 -0.12620462 -0.018227452 2.3417323e-38
-0.020878917 -0.12620462 -0.018227452 2.350988e-38
-0.018890519 -0.12620462 -0.018227452 2.3509883e-38
-0.016948394 -0.12522577 -0.014167184 2.3509527e-38
-0.015018476 -0.12428416 -0.01026153 2.3509527e-38
-0.013088835 -0.12355967 -0.0072562639 2.3508809e-38
-0.011119673 -0.12355967 -0.0072562639 2.2860926e-38
-0.0091505125 -0.12355967 -0.0072562639 2.3321906e-38
-0.007261645 -0.12259962 -0.0032740775 2.3508451e-38
-0.0052994657 -0.12259962 -0.0032740775 2.3509168e-38
-0.0035035387 -0.12090631 0.0037496146 2.3417691e-38
-0.0015536733 -0.12090631 0.0037496146 2.2958873e-38
0.00047626905 -0.12161671 0.00080299936 2.2958873e-38
0.0024312995 -0.12161671 0.00080299936 2.3142544e-38
0.0043863319 -0.12161671 0.00080299936 2.3142185e-38
0.0063413605 -0.12161671 0.00080299936 2.3234379e-38
0.0082963929 -0.12161671 0.00080299936 2.3234379e-38
0.010251421 -0.12161671 0.00080299936 2.3417691e-38
0.012206454 -0.12161671 0.00080299936 2.2495745e-38
0.014045238 -0.12090631 0.0037496146 2.2864167e-38
0.015995104 -0.12090631 0.0037496146 2.3509527e-38
0.017944969 -0.12090631 0.0037496146 2.295636e-38
0.020386904 -0.12355967 -0.0072562639 2.3417333e-38
0.022356067 -0.12355967 -0.0072562639 2.3509527e-38
0.02485422 -0.12620462 -0.018227452 2.3509527e-38
0.02684262 -0.12620462 -0.018227452 2.3509527e-38
0.030232709 -0.12355967 -0.0072562639 2.3509524e-38
0.032201871 -0.12355967 -0.0072562639 2.3509883e-38
0.034171034 -0.12355967 -0.0072562639 2.3234379e-38
0.035906296 -0.12259962 -0.0032740775 2.3142544e-38
0.037868474 -0.12259962 -0.0032740775 2.2773765e-38
-0.026833691 -0.12915494 -0.022188658 2.3509521e-38
-0.024855711 -0.12819304 -0.018227452 2.3508801e-38
-0.022867315 -0.12819304 -0.018227452 2.3417324e-38
-0.020878917 -0.12819304 -0.018227452 2.3509883e-38
-0.018890519 -0.12819304 -0.018227452 2.2956349e-38
-0.016948394 -0.12720706 -0.014167184 2.258649e-38
-0.015018476 -0.1262586 -0.01026153 2.3414453e-38
-0.013088835 -0.12552883 -0.0072562639 2.3508451e-38
-0.011119673 -0.12552883 -0.0072562639 2.3504493e-38
-0.0091505125 -0.12552883 -0.0072562639 2.3508092e-38
-0.007261645 -0.1245618 -0.0032740775 2.3506297e-38
-0.0052994657 -0.1245618 -0.0032740775 2.3508451e-38
-0.0035035387 -0.12285618 0.0037496146 2.3231508e-38
-0.0015536733 -0.12285618 0.0037496146 2.2864164e-38
0.00047626905 -0.12357174 0.00080299936 2.3049273e-38
0.0024312995 -0.12357174 0.00080299936 2.341805e-38
0.0043863319 -0.12357174 0.00080299936 2.341805e-38
0.0063413605 -0.12357174 0.00080299936 2.341805e-38
0.0082963929 -0.12357174 0.00080299936 2.3141467e-38
0.010251421 -0.12357174 0.00080299936 2.3049273e-38
0.012206454 -0.12357174 0.00080299936 2.3325856e-38
0.014161482 -0.12357174 0.00080299936 2.3509527e-38
0.015995104 -0.12285618 0.0037496146 2.3509527e-38
0.017944969 -0.12285618 0.0037496146 2.3509527e-38
0.020386904 -0.12552883 -0.0072562639 2.3509527e-38
0.022356067 -0.12552883 -0.0072562639 2.3509527e-38
0.024325226 -0.12552883 -0.0072562639 2.3509527e-38
0.026294388 -0.12552883 -0.0072562639 2.3509167e-38
0.02826355 -0.12552883 -0.0072562639 2.3509167e-38
0.030232709 -0.12552883 -0.0072562639 2.3324775e-38
0.031981934 -0.1245618 -0.0032740775 2.3048907e-38
0.033944111 -0.1245618 -0.0032740775 2.3234379e-38
0.035906296 -0.1245618 -0.0032740775 2.3142544e-38
0.037868474 -0.1245618 -0.0032740775 2.2773763e-38
0.039830651 -0.1245618 -0.0032740775 2.341805e-38
0.041792829 -0.1245618 -0.0032740775 2.3509886e-38
0.043755013 -0.1245618 -0.0032740775 2.3140384e-38
0.045717191 -0.1245618 -0.0032740775 2.3509527e-38
0.047679368 -0.1245618 -0.0032740775 1.4565468e-38
0.049641546 -0.1245618 -0.0032740775 6.5437289e-39
-0.048350416 -0.12480606 0.0037496146 1.4765748e-39
-0.046400551 -0.12480606 0.0037496146 1.013789e-39
-0.026844108 -0.13018142 -0.018227452 2.3509165e-38
-0.024855711 -0.13018142 -0.018227452 2.3508804e-38
-0.022867315 -0.13018142 -0.018227452 2.1942197e-38
-0.020910952 -0.12918831 -0.014167184 2.2679762e-38
-0.018929673 -0.12918831 -0.014167184 2.3509524e-38
-0.016992908 -0.12823303 -0.01026153 2.3509168e-38
-0.015018476 -0.12823303 -0.01026153 2.3508451e-38
-0.013088835 -0.12749799 -0.0072562639 2.184425e-38
-0.011119673 -0.12749799 -0.0072562639 1.3360813e-38
-0.0091505125 -0.12749799 -0.0072562639 1.3268618e-38
-0.007261645 -0.12652399 -0.0032740775 1.4559357e-38
-0.0052994657 -0.12652399 -0.0032740775 1.3823231e-38
-0.0034337919 -0.12552677 0.00080299936 1.1151355e-38
-0.0014787614 -0.12552677 0.00080299936 1.4563675e-38
0.00047626905 -0.12552677 0.00080299936 2.3509168e-38
0.0025492497 -0.12652399 -0.0032740775 2.3417691e-38
0.0045114271 -0.12652399 -0.0032740775 2.341805e-38
0.0064736083 -0.12652399 -0.0032740775 2.341805e-38
0.0084357858 -0.12652399 -0.0032740775 2.341805e-38
0.010397967 -0.12652399 -0.0032740775 2.341805e-38
0.012360144 -0.12652399 -0.0032740775 2.341805e-38
0.014322326 -0.12652399 -0.0032740775 2.3509886e-38
0.016284503 -0.12652399 -0.0032740775 2.2864519e-38
0.01824668 -0.12652399 -0.0032740775 2.3232944e-38
0.020386904 -0.12749799 -0.0072562639 2.3325497e-38
0.022356067 -0.12749799 -0.0072562639 2.3416974e-38
0.024325226 -0.12749799 -0.0072562639 2.3416974e-38
0.026294388 -0.12749799 -0.0072562639 2.3509167e-38
0.028057579 -0.12652399 -0.0032740775 2.3509527e-38
0.030019756 -0.12652399 -0.0032740775 2.3509527e-38
0.031981934 -0.12652399 -0.0032740775 2.3509886e-38
0.033711787 -0.12552677 0.00080299936 2.3234379e-38
0.03566682 -0.12552677 0.00080299936 2.3234379e-38
0.037621852 -0.12552677 0.00080299936 2.3141466e-38
0.039576884 -0.12552677 0.00080299936 2.3509886e-38
0.041531909 -0.12552677 0.00080299936 2.3509527e-38
0.043486942 -0.12552677 0.00080299936 2.3324052e-38
0.045441974 -0.12552677 0.00080299936 2.3509165e-38
0.047397006 -0.12552677 0.00080299936 1.6685604e-38
0.049641546 -0.12652399 -0.0032740775 9.7698529e-39
0.051603723 -0.12652399 -0.0032740775 6.0831067e-39
-0.048350416 -0.12675591 0.0037496146 4.3346365e-39
-0.046400551 -0.12675591 0.0037496146 4.1473586e-39
-0.026844108 -0.13216983 -0.018227452 2.3509168e-38
-0.024855711 -0.13216983 -0.018227452 2.3509527e-38
-0.022892229 -0.1311696 -0.014167184 2.2034037e-38
-0.020910952 -0.1311696 -0.014167184 2.2770881e-38
-0.018967338 -0.13020746 -0.01026153 2.3509168e-38
-0.016992908 -0.13020746 -0.01026153 2.3507006e-38
-0.015057996 -0.12946714 -0.0072562639 2.3506288e-38
-0.013088835 -0.12946714 -0.0072562639 2.20272e-38
-0.011119673 -0.12946714 -0.0072562639 1.3359369e-38
-0.0091505125 -0.12946714 -0.0072562639 1.1053039e-38
-0.007181352 -0.12946714 -0.0072562639 1.2067911e-38
-0.0052121896 -0.12946714 -0.0072562639 1.1146673e-38
-0.0032430291 -0.12946714 -0.0072562639 1.1886035e-38
-0.001375109 -0.12848614 -0.0032740775 1.5205439e-38
0.00058707036 -0.12848614 -0.0032740775 2.3507725e-38
0.0025492497 -0.12848614 -0.0032740775 2.3417327e-38
0.0045114271 -0.12848614 -0.0032740775 2.3234018e-38
0.0064736083 -0.12848614 -0.0032740775 2.3141822e-38
0.0084357858 -0.12848614 -0.0032740775 2.3049626e-38
0.010397967 -0.12848614 -0.0032740775 2.3141103e-38
0.012360144 -0.12848614 -0.0032740775 2.341769e-38
0.014322326 -0.12848614 -0.0032740775 2.3509886e-38
0.016284503 -0.12848614 -0.0032740775 2.3509886e-38
0.01824668 -0.12848614 -0.0032740775 2.3509886e-38
0.020208862 -0.12848614 -0.0032740775 2.3509886e-38
0.022356067 -0.12946714 -0.0072562639 2.3509886e-38
0.02413322 -0.12848614 -0.0032740775 2.3509886e-38
0.026095398 -0.12848614 -0.0032740775 2.3509527e-38
0.028057579 -0.12848614 -0.0032740775 2.3509527e-38
0.030019756 -0.12848614 -0.0032740775 2.3509527e-38
0.031756759 -0.1274818 0.00080299936 2.3509527e-38
0.033711787 -0.1274818 0.00080299936 2.2957078e-38
0.03566682 -0.1274818 0.00080299936 2.3234379e-38
0.037621852 -0.1274818 0.00080299936 2.341805e-38
0.039393473 -0.12675591 0.0037496146 2.3325494e-38
0.041343335 -0.12675591 0.0037496146 2.3509524e-38
0.043293204 -0.12675591 0.0037496146 2.3509161e-38
0.045243066 -0.12675591 0.0037496146 2.3509163e-38
0.047192927 -0.12675591 0.0037496146 1.6868915e-38
0.049142797 -0.12675591 0.0037496146 1.1152067e-38
-0.048350416 -0.12870578 0.0037496146 9.0358906e-39
-0.046400551 -0.12870578 0.0037496146 8.4801917e-39
-0.026854787 -0.13315089 -0.014167184 2.3508091e-38
-0.024890628 -0.1321819 -0.01026153 2.3509527e-38
-0.022916198 -0.1321819 -0.01026153 2.175745e-38
-0.020941768 -0.1321819 -0.01026153 1.9912817e-38
-0.018967338 -0.1321819 -0.01026153 1.9173454e-38
-0.017027158 -0.1314363 -0.0072562639 1.7881633e-38
-0.015057996 -0.1314363 -0.0072562639 2.0184003e-38
-0.013088835 -0.1314363 -0.0072562639 1.9905258e-38
-0.011186004 -0.13044833 -0.0032740775 1.8335773e-38
-0.0092238244 -0.13044833 -0.0032740775 1.6307109e-38
-0.007181352 -0.1314363 -0.0072562639 1.5200759e-38
-0.0052121896 -0.1314363 -0.0072562639 1.6492217e-38
-0.0032430291 -0.1314363 -0.0072562639 2.3501241e-38
-0.001375109 -0.13044833 -0.0032740775 2.3506642e-38
0.00058707036 -0.13044833 -0.0032740775 2.3508441e-38
0.0025492497 -0.13044833 -0.0032740775 2.3509521e-38
0.0045114271 -0.13044833 -0.0032740775 2.3418045e-38
0.0064736083 -0.13044833 -0.0032740775 2.3418047e-38
0.0084357858 -0.13044833 -0.0032740775 2.3418045e-38
0.010397967 -0.13044833 -0.0032740775 2.3509883e-38
0.012360144 -0.13044833 -0.0032740775 2.31411e-38
0.014322326 -0.13044833 -0.0032740775 2.3325492e-38
0.016284503 -0.13044833 -0.0032740775 2.3509886e-38
0.01824668 -0.13044833 -0.0032740775 2.3509886e-38
0.020208862 -0.13044833 -0.0032740775 2.341769e-38
0.022171039 -0.13044833 -0.0032740775 2.3325497e-38
0.023936637 -0.12943684 0.00080299936 2.3417691e-38
0.025891665 -0.12943684 0.00080299936 2.3416974e-38
0.027846698 -0.12943684 0.00080299936 2.3324778e-38
0.029801726 -0.12943684 0.00080299936 2.332478e-38
0.031594016 -0.12870578 0.0037496146 2.3417333e-38
0.033543881 -0.12870578 0.0037496146 2.2957078e-38
0.035493743 -0.12870578 0.0037496146 2.341805e-38
0.037443612 -0.12870578 0.0037496146 2.3509886e-38
0.039393473 -0.12870578 0.0037496146 2.3325131e-38
0.041343335 -0.12870578 0.0037496146 2.3509521e-38
0.043293204 -0.12870578 0.0037496146 2.3509161e-38
0.044971276 -0.12770687 0.0077759083 2.3508442e-38
0.046914082 -0.12770687 0.0077759083 1.6684161e-38
0.048856888 -0.12770687 0.0077759083 1.1152423e-38
0.050799694 -0.12770687 0.0077759083 7.1880109e-39
-0.064623654 -0.13614662 -0.018227452 1.2721202e-38
-0.062635258 -0.13614662 -0.018227452 1.2814479e-38
-0.060646862 -0.13614662 -0.018227452 1.3552404e-38
-0.058658466 -0.13614662 -0.018227452 1.3001029e-38
-0.056481514 -0.13415633 -0.01026153 1.2909918e-38
-0.054507084 -0.13415633 -0.01026153 1.3740397e-38
-0.052532654 -0.13415633 -0.01026153 1.2173787e-38
-0.02686506 -0.13415633 -0.01026153 2.3509168e-38
-0.024903802 -0.13340546 -0.0072562639 2.2863803e-38
-0.02293464 -0.13340546 -0.0072562639 1.8069627e-38
-0.020965479 -0.13340546 -0.0072562639 1.6317187e-38
-0.018996317 -0.13340546 -0.0072562639 1.8067106e-38
-0.017027158 -0.13340546 -0.0072562639 1.8986902e-38
-0.015110361 -0.13241051 -0.0032740775 2.2488534e-38
-0.013148183 -0.13241051 -0.0032740775 2.350665e-38
-0.011186004 -0.13241051 -0.0032740775 2.3500886e-38
-0.0092238244 -0.13241051 -0.0032740775 2.1929598e-38
-0.007261645 -0.13241051 -0.0032740775 1.9992408e-38
-0.0052994657 -0.13241051 -0.0032740775 1.97169e-38
-0.0032430291 -0.13340546 -0.0072562639 2.3036662e-38
-0.0012738686 -0.13340546 -0.0072562639 2.3506279e-38
0.00058707036 -0.13241051 -0.0032740775 2.3507718e-38
0.0025492497 -0.13241051 -0.0032740775 2.3139294e-38
0.0045114271 -0.13241051 -0.0032740775 2.2957782e-38
0.0064736083 -0.13241051 -0.0032740775 2.3418043e-38
0.0084357858 -0.13241051 -0.0032740775 2.3509879e-38
0.010397967 -0.13241051 -0.0032740775 2.350988e-38
0.012360144 -0.13241051 -0.0032740775 2.350988e-38
0.014322326 -0.13241051 -0.0032740775 2.350988e-38
0.016284503 -0.13241051 -0.0032740775 2.3417687e-38
0.01824668 -0.13241051 -0.0032740775 2.3509883e-38
0.020208862 -0.13241051 -0.0032740775 2.3325494e-38
0.021981604 -0.13139187 0.00080299936 2.3417691e-38
0.023936637 -0.13139187 0.00080299936 2.3509886e-38
0.025891665 -0.13139187 0.00080299936 2.3509527e-38
0.027694289 -0.13065563 0.0037496146 2.3509527e-38
0.029644154 -0.13065563 0.0037496146 2.3509168e-38
0.031594016 -0.13065563 0.0037496146 2.3509527e-38
0.033314448 -0.12964968 0.0077759083 2.3325856e-38
0.035257254 -0.12964968 0.0077759083 2.3141466e-38
0.037443612 -0.13065563 0.0037496146 2.3509886e-38
0.039142866 -0.12964968 0.0077759083 2.3509523e-38
0.041085672 -0.12964968 0.0077759083 2.3508441e-38
0.04302847 -0.12964968 0.0077759083 2.3509161e-38
0.044766691 -0.12889244 0.010806685 2.3509158e-38
0.046704184 -0.12889244 0.010806685 1.75132e-38
0.048856888 -0.12964968 0.0077759083 1.1981462e-38
0.050799694 -0.12964968 0.0077759083 6.9114212e-39
-0.06661205 -0.138135 -0.018227452 2.3509527e-38
-0.064623654 -0.138135 -0.018227452 2.2586137e-38
-0.062635258 -0.138135 -0.018227452 2.3509527e-38
-0.060646862 -0.138135 -0.018227452 2.3509886e-38
-0.058658466 -0.138135 -0.018227452 2.240498e-38
-0.056481514 -0.13613077 -0.01026153 2.2405343e-38
-0.054507084 -0.13613077 -0.01026153 2.2867037e-38
-0.052532654 -0.13613077 -0.01026153 2.2775202e-38
-0.030813919 -0.13613077 -0.01026153 2.3508063e-38
-0.028842123 -0.13537462 -0.0072562639 2.3508442e-38
-0.026872963 -0.13537462 -0.0072562639 2.20326e-38
-0.024903802 -0.13537462 -0.0072562639 2.0095413e-38
-0.02293464 -0.13537462 -0.0072562639 1.5486711e-38
-0.020965479 -0.13537462 -0.0072562639 1.7700122e-38
-0.018996317 -0.13537462 -0.0072562639 2.3508448e-38
-0.01707254 -0.1343727 -0.0032740775 2.3507367e-38
-0.015110361 -0.1343727 -0.0032740775 2.3506647e-38
-0.013148183 -0.1343727 -0.0032740775 2.3505928e-38
-0.011186004 -0.1343727 -0.0032740775 2.3507003e-38
-0.0092238244 -0.1343727 -0.0032740775 2.3506642e-38
-0.007261645 -0.1343727 -0.0032740775 2.1654805e-38
-0.0052994657 -0.1343727 -0.0032740775 1.9531784e-38
-0.0033372864 -0.1343727 -0.0032740775 1.9163358e-38
-0.0012738686 -0.13537462 -0.0072562639 2.3405793e-38
0.00058707036 -0.1343727 -0.0032740775 2.3503748e-38
0.0025492497 -0.1343727 -0.0032740775 2.3509873e-38
0.0045114271 -0.1343727 -0.0032740775 2.3418043e-38
0.0064736083 -0.1343727 -0.0032740775 2.350988e-38
0.0084357858 -0.1343727 -0.0032740775 2.3049259e-38
0.010397967 -0.1343727 -0.0032740775 2.3233652e-38
0.012360144 -0.1343727 -0.0032740775 2.350988e-38
0.014322326 -0.1343727 -0.0032740775 2.350988e-38
0.016116515 -0.13334687 0.00080299936 2.3141456e-38
0.018071543 -0.13334687 0.00080299936 2.3509883e-38
0.020026576 -0.13334687 0.00080299936 2.3233296e-38
0.021844696 -0.13260551 0.0037496146 2.3325494e-38
0.023794562 -0.13260551 0.0037496146 2.3509886e-38
0.025744423 -0.13260551 0.0037496146 2.3509886e-38
0.027486034 -0.13159247 0.0077759083 2.3325497e-38
0.02942884 -0.13159247 0.0077759083 2.332478e-38
0.031371646 -0.13159247 0.0077759083 2.3509527e-38
0.033314448 -0.13159247 0.0077759083 2.3509527e-38
0.035257254 -0.13159247 0.0077759083 2.2772321e-38
0.03720006 -0.13159247 0.0077759083 2.3509886e-38
0.039142866 -0.13159247 0.0077759083 2.3509886e-38
0.041085672 -0.13159247 0.0077759083 2.314074e-38
0.042829197 -0.13082992 0.010806685 2.3508439e-38
0.044766691 -0.13082992 0.010806685 2.3508797e-38
0.046704184 -0.13082992 0.010806685 1.8711019e-38
0.04864167 -0.13082992 0.010806685 1.345515e-38
-0.068735883 -0.14112701 -0.022188658 2.3140384e-38
-0.06661205 -0.14012341 -0.018227452 2.3509527e-38
-0.064623654 -0.14012341 -0.018227452 2.3416615e-38
-0.062635258 -0.14012341 -0.018227452 2.3509527e-38
-0.060646862 -0.14012341 -0.018227452 2.3325847e-38
-0.058658466 -0.14012341 -0.018227452 2.3141816e-38
-0.056573961 -0.13909473 -0.014167184 2.3234379e-38
-0.054592684 -0.13909473 -0.014167184 2.2958873e-38
-0.052611403 -0.13909473 -0.014167184 2.3142544e-38
-0.050630126 -0.13909473 -0.014167184 2.3141467e-38
-0.048833862 -0.14190884 -0.02527451 2.2033316e-38
-0.032780446 -0.13734378 -0.0072562639 2.3501923e-38
-0.030811286 -0.13734378 -0.0072562639 2.3506615e-38
-0.028845616 -0.13633488 -0.0032740775 2.3508075e-38
-0.026883436 -0.13633488 -0.0032740775 2.083261e-38
-0.024921257 -0.13633488 -0.0032740775 1.5575304e-38
-0.022959078 -0.13633488 -0.0032740775 1.6314308e-38
-0.020996898 -0.13633488 -0.0032740775 1.9083777e-38
-0.019034721 -0.13633488 -0.0032740775 2.2864516e-38
-0.01707254 -0.13633488 -0.0032740775 2.3509168e-38
-0.015110361 -0.13633488 -0.0032740775 2.3508448e-38
-0.013148183 -0.13633488 -0.0032740775 2.3508085e-38
-0.011186004 -0.13633488 -0.0032740775 2.3508438e-38
-0.0092238244 -0.13633488 -0.0032740775 2.3505912e-38
-0.007261645 -0.13633488 -0.0032740775 2.3504827e-38
-0.0052994657 -0.13633488 -0.0032740775 2.1285648e-38
-0.0033372864 -0.13633488 -0.0032740775 2.0546638e-38
-0.0012738686 -0.13734378 -0.0072562639 1.8151347e-38
0.00058707036 -0.13633488 -0.0032740775 2.3506978e-38
0.0025492497 -0.13633488 -0.0032740775 2.3509514e-38
0.0045114271 -0.13633488 -0.0032740775 2.350988e-38
0.0064736083 -0.13633488 -0.0032740775 2.3509883e-38
0.0084357858 -0.13633488 -0.0032740775 2.350988e-38
0.010397967 -0.13633488 -0.0032740775 2.3509883e-38
0.012360144 -0.13633488 -0.0032740775 2.3509883e-38
0.014322326 -0.13633488 -0.0032740775 2.3509883e-38
0.016116515 -0.1353019 0.00080299936 2.3509883e-38
0.018071543 -0.1353019 0.00080299936 2.3509883e-38
0.019894831 -0.13455538 0.0037496146 2.3509883e-38
0.021844696 -0.13455538 0.0037496146 2.3509883e-38
0.023794562 -0.13455538 0.0037496146 2.3509527e-38
0.025543232 -0.13353528 0.0077759083 2.3509886e-38
0.027486034 -0.13353528 0.0077759083 2.3509886e-38
0.02942884 -0.13353528 0.0077759083 2.3509886e-38
0.031371646 -0.13353528 0.0077759083 2.3509883e-38
0.033314448 -0.13353528 0.0077759083 2.3508085e-38
0.035257254 -0.13353528 0.0077759083 2.3509524e-38
0.03720006 -0.13353528 0.0077759083 2.3050349e-38
0.039142866 -0.13353528 0.0077759083 2.2775202e-38
0.041085672 -0.13353528 0.0077759083 2.3142544e-38
0.042829197 -0.13276742 0.010806685 2.3049261e-38
0.044498336 -0.13176022 0.014782077 2.3509151e-38
0.046428856 -0.13176022 0.014782077 1.8986517e-38
0.048359383 -0.13176022 0.014782077 1.3453344e-38
-0.068600453 -0.14211179 -0.018227452 2.3417333e-38
-0.06661205 -0.14211179 -0.018227452 2.3509527e-38
-0.064623654 -0.14211179 -0.018227452 2.314075e-38
-0.062635258 -0.14211179 -0.018227452 2.3509527e-38
-0.060646862 -0.14211179 -0.018227452 2.350988e-38
-0.058759172 -0.14312236 -0.022188658 2.3234369e-38
-0.05667007 -0.14211179 -0.018227452 2.3234376e-38
-0.05468167 -0.14211179 -0.018227452 2.3234379e-38
-0.052693274 -0.14211179 -0.018227452 2.341805e-38
-0.050834611 -0.14390959 -0.02527451 2.3232585e-38
-0.048833862 -0.14390959 -0.02527451 2.286056e-38
-0.046833105 -0.14390959 -0.02527451 1.7971665e-38
-0.042796433 -0.14312236 -0.022188658 1.8334669e-38
-0.040801089 -0.14312236 -0.022188658 1.8608727e-38
-0.038742457 -0.14107598 -0.014167184 1.879167e-38
-0.03676118 -0.14107598 -0.014167184 1.934448e-38
-0.034762781 -0.14007963 -0.01026153 1.9712899e-38
-0.032780446 -0.13931294 -0.0072562639 2.0542657e-38
-0.030811286 -0.13931294 -0.0072562639 2.3127386e-38
-0.028845616 -0.13829704 -0.0032740775 2.2488518e-38
-0.026883436 -0.13829704 -0.0032740775 1.8064581e-38
-0.024921257 -0.13829704 -0.0032740775 1.520436e-38
-0.022959078 -0.13829704 -0.0032740775 1.9354245e-38
-0.020996898 -0.13829704 -0.0032740775 2.2864516e-38
-0.019034721 -0.13829704 -0.0032740775 2.3234379e-38
-0.01707254 -0.13829704 -0.0032740775 2.3508809e-38
-0.015110361 -0.13829704 -0.0032740775 2.3507369e-38
-0.013148183 -0.13829704 -0.0032740775 2.3508086e-38
-0.011186004 -0.13829704 -0.0032740775 2.3509161e-38
-0.0092238244 -0.13829704 -0.0032740775 2.3509869e-38
-0.007261645 -0.13829704 -0.0032740775 2.3507344e-38
-0.0052994657 -0.13829704 -0.0032740775 2.1102696e-38
-0.0033372864 -0.13829704 -0.0032740775 2.0547717e-38
-0.001375109 -0.13829704 -0.0032740775 1.8613403e-38
0.00047626905 -0.13725694 0.00080299936 2.3508057e-38
0.0024312995 -0.13725694 0.00080299936 2.3509514e-38
0.0043863319 -0.13725694 0.00080299936 2.3509883e-38
0.0063413605 -0.13725694 0.00080299936 2.3509883e-38
0.0084357858 -0.13829704 -0.0032740775 2.3509883e-38
0.010397967 -0.13829704 -0.0032740775 2.3509883e-38
0.012360144 -0.13829704 -0.0032740775 2.3509883e-38
0.014322326 -0.13829704 -0.0032740775 2.3509883e-38
0.016116515 -0.13725694 0.00080299936 2.3509883e-38
0.017944969 -0.13650523 0.0037496146 2.3509883e-38
0.019894831 -0.13650523 0.0037496146 2.3509883e-38
0.021844696 -0.13650523 0.0037496146 2.3509883e-38
0.023600426 -0.13547809 0.0077759083 2.3509883e-38
0.025543232 -0.13547809 0.0077759083 2.3509883e-38
0.027486034 -0.13547809 0.0077759083 2.3509883e-38
0.02942884 -0.13547809 0.0077759083 2.3509883e-38
0.031204253 -0.1347049 0.010806685 2.3509883e-38
0.033141743 -0.1347049 0.010806685 2.3508442e-38
0.035079237 -0.1347049 0.010806685 2.3509524e-38
0.037016731 -0.1347049 0.010806685 2.286632e-38
0.038954217 -0.1347049 0.010806685 2.2683366e-38
0.040891711 -0.1347049 0.010806685 2.2867037e-38
0.042567816 -0.13369073 0.014782077 2.2866311e-38
0.044498336 -0.13369073 0.014782077 2.3509149e-38
0.045941528 -0.13189565 0.021818643 1.824859e-38
0.04785971 -0.13189565 0.021818643 1.1608707e-38
0.049272392 -0.13012333 0.028765922 6.8159802e-39
0.050658625 -0.1283439 0.035741098 6.8188739e-39
0.052552398 -0.1283439 0.035741098 7.9281109e-39
-0.070588849 -0.1441002 -0.018227452 2.2955993e-38
-0.068600453 -0.1441002 -0.018227452 2.3509527e-38
-0.06661205 -0.1441002 -0.018227452 2.3509527e-38
-0.064623654 -0.1441002 -0.018227452 2.3048556e-38
-0.062635258 -0.1441002 -0.018227452 2.3509527e-38
-0.060646862 -0.1441002 -0.018227452 2.3418047e-38
-0.058658466 -0.1441002 -0.018227452 2.2866308e-38
-0.05667007 -0.1441002 -0.018227452 2.3234376e-38
-0.05468167 -0.1441002 -0.018227452 2.3234018e-38
-0.052693274 -0.1441002 -0.018227452 2.3509886e-38
-0.0507778 -0.14511769 -0.022188658 2.3415532e-38
-0.04878246 -0.14511769 -0.022188658 2.3506284e-38
-0.046787117 -0.14511769 -0.022188658 2.0275472e-38
-0.044791773 -0.14511769 -0.022188658 2.0364416e-38
-0.042796433 -0.14511769 -0.022188658 1.8333583e-38
-0.040801089 -0.14511769 -0.022188658 1.8607285e-38
-0.038742457 -0.14305727 -0.014167184 1.9435959e-38
-0.03676118 -0.14305727 -0.014167184 1.9527429e-38
-0.034762781 -0.14205404 -0.01026153 1.8237046e-38
-0.032780446 -0.1412821 -0.0072562639 1.9250842e-38
-0.030807793 -0.14025922 -0.0032740775 2.3402896e-38
-0.028845616 -0.14025922 -0.0032740775 2.1841351e-38
-0.026883436 -0.14025922 -0.0032740775 1.7970947e-38
-0.024921257 -0.14025922 -0.0032740775 1.6862084e-38
-0.022959078 -0.14025922 -0.0032740775 2.1013048e-38
-0.021029066 -0.13921197 0.00080299936 2.3509527e-38
-0.019074036 -0.13921197 0.00080299936 2.3234379e-38
-0.017119005 -0.13921197 0.00080299936 2.3509168e-38
-0.015163975 -0.13921197 0.00080299936 2.3508451e-38
-0.013208944 -0.13921197 0.00080299936 2.3507732e-38
-0.011253914 -0.13921197 0.00080299936 2.3509165e-38
-0.0092238244 -0.14025922 -0.0032740775 2.3509879e-38
-0.007261645 -0.14025922 -0.0032740775 2.3508431e-38
-0.0053888224 -0.13921197 0.00080299936 2.2210134e-38
-0.0034337919 -0.13921197 0.00080299936 2.2392719e-38
-0.0014787614 -0.13921197 0.00080299936 2.0550241e-38
0.00047626905 -0.13921197 0.00080299936 2.3508784e-38
0.0024312995 -0.13921197 0.00080299936 2.350952e-38
0.0043863319 -0.13921197 0.00080299936 2.341805e-38
0.0063413605 -0.13921197 0.00080299936 2.3509886e-38
0.0082963929 -0.13921197 0.00080299936 2.3509886e-38
0.010251421 -0.13921197 0.00080299936 2.3509886e-38
0.012095377 -0.13845511 0.0037496146 2.3509886e-38
0.014045238 -0.13845511 0.0037496146 2.3509886e-38
0.015995104 -0.13845511 0.0037496146 2.3509886e-38
0.017772011 -0.13742088 0.0077759083 2.3509886e-38
0.019714817 -0.13742088 0.0077759083 2.3509886e-38
0.02165762 -0.13742088 0.0077759083 2.3509886e-38
0.023600426 -0.13742088 0.0077759083 2.3509886e-38
0.025543232 -0.13742088 0.0077759083 2.3509886e-38
0.027329274 -0.13664238 0.010806685 2.3509886e-38
0.029266763 -0.13664238 0.010806685 2.341805e-38
0.031204253 -0.13664238 0.010806685 2.3509883e-38
0.033141743 -0.13664238 0.010806685 2.3509161e-38
0.035079237 -0.13664238 0.010806685 2.3509883e-38
0.037016731 -0.13664238 0.010806685 2.2683007e-38
0.038954217 -0.13664238 0.010806685 2.2775202e-38
0.040891711 -0.13664238 0.010806685 2.2867037e-38
0.042567816 -0.13562126 0.014782077 2.3050703e-38
0.044498336 -0.13562126 0.014782077 2.3509151e-38
0.04566351 -0.13278268 0.025833016 1.6865298e-38
0.04757465 -0.13278268 0.025833016 1.1423598e-38
0.049272392 -0.13202934 0.028765922 6.9074598e-39
0.050435457 -0.1294684 0.038735993 6.6337637e-39
0.052323978 -0.1294684 0.038735993 7.5593284e-39
0.054212503 -0.1294684 0.038735993 7.2845422e-39
-0.07413283 -0.14325126 -0.0072562639 1.6687043e-38
-0.072163664 -0.14325126 -0.0072562639 2.3509883e-38
-0.070302531 -0.14402847 -0.01026153 2.2771602e-38
-0.068461627 -0.14503856 -0.014167184 2.3509527e-38
-0.066480353 -0.14503856 -0.014167184 2.3509527e-38
-0.06449908 -0.14503856 -0.014167184 2.3232944e-38
-0.062635258 -0.14608859 -0.018227452 2.3509527e-38
-0.060646862 -0.14608859 -0.018227452 2.3050347e-38
-0.058658466 -0.14608859 -0.018227452 2.3050703e-38
-0.05667007 -0.14608859 -0.018227452 2.3234379e-38
-0.05468167 -0.14608859 -0.018227452 2.2865235e-38
-0.052693274 -0.14608859 -0.018227452 2.3509527e-38
-0.0507778 -0.14711304 -0.022188658 2.3508807e-38
-0.04878246 -0.14711304 -0.022188658 2.3508082e-38
-0.046787117 -0.14711304 -0.022188658 2.1564044e-38
-0.044791773 -0.14711304 -0.022188658 1.9623969e-38
-0.042796433 -0.14711304 -0.022188658 1.8975711e-38
-0.040801089 -0.14711304 -0.022188658 1.9343043e-38
-0.038742457 -0.14503856 -0.014167184 1.9618186e-38
-0.03676118 -0.14503856 -0.014167184 1.9525987e-38
-0.034749605 -0.14325126 -0.0072562639 1.9525987e-38
-0.032780446 -0.14325126 -0.0072562639 2.0910003e-38
-0.030807793 -0.14222141 -0.0032740775 2.3498695e-38
-0.028845616 -0.14222141 -0.0032740775 2.3504835e-38
-0.026883436 -0.14222141 -0.0032740775 2.3408691e-38
-0.024939127 -0.141167 0.00080299936 2.3129947e-38
-0.022984097 -0.141167 0.00080299936 2.3502335e-38
-0.021029066 -0.141167 0.00080299936 2.3508809e-38
-0.019074036 -0.141167 0.00080299936 2.2864883e-38
-0.017119005 -0.141167 0.00080299936 2.3509168e-38
-0.015163975 -0.141167 0.00080299936 2.3507374e-38
-0.013208944 -0.141167 0.00080299936 2.3508809e-38
-0.011253914 -0.141167 0.00080299936 2.3509527e-38
-0.0092988834 -0.141167 0.00080299936 2.2958151e-38
-0.0073438529 -0.141167 0.00080299936 2.3509518e-38
-0.0053888224 -0.141167 0.00080299936 2.3505198e-38
-0.0034337919 -0.141167 0.00080299936 2.3506998e-38
-0.0014787614 -0.141167 0.00080299936 2.3041692e-38
0.00047626905 -0.141167 0.00080299936 2.3508793e-38
0.0024312995 -0.141167 0.00080299936 2.3509521e-38
0.0043863319 -0.141167 0.00080299936 2.341805e-38
0.0062457845 -0.14040495 0.0037496146 2.3509886e-38
0.0081956461 -0.14040495 0.0037496146 2.3509886e-38
0.010145511 -0.14040495 0.0037496146 2.3509886e-38
0.012095377 -0.14040495 0.0037496146 2.3509886e-38
0.014045238 -0.14040495 0.0037496146 2.3509886e-38
0.015829206 -0.13936369 0.0077759083 2.341805e-38
0.017772011 -0.13936369 0.0077759083 2.3509886e-38
0.019714817 -0.13936369 0.0077759083 2.3509886e-38
0.02165762 -0.13936369 0.0077759083 2.3509886e-38
0.023600426 -0.13936369 0.0077759083 2.3509886e-38
0.025391784 -0.13857989 0.010806685 2.3509886e-38
0.027329274 -0.13857989 0.010806685 2.3509886e-38
0.029266763 -0.13857989 0.010806685 2.341805e-38
0.031204253 -0.13857989 0.010806685 2.3509883e-38
0.033141743 -0.13857989 0.010806685 2.3509521e-38
0.035079237 -0.13857989 0.010806685 2.3509883e-38
0.037016731 -0.13857989 0.010806685 2.2683366e-38
0.038954217 -0.13857989 0.010806685 2.2591531e-38
0.040891711 -0.13857989 0.010806685 2.2775202e-38
0.042567816 -0.1375518 0.014782077 2.3418047e-38
0.044498336 -0.1375518 0.014782077 2.3508791e-38
0.04566351 -0.13469382 0.025833016 1.5482364e-38
0.04757465 -0.13469382 0.025833016 1.2253359e-38
0.049485799 -0.13469382 0.025833016 7.8294161e-39
0.050435457 -0.13135691 0.038735993 6.9103506e-39
0.052323978 -0.13135691 0.038735993 7.4671328e-39
0.054212503 -0.13135691 0.038735993 8.021031e-39
-0.07413283 -0.14522041 -0.0072562639 1.8254369e-38
-0.072163664 -0.14522041 -0.0072562639 2.3417327e-38
-0.070302531 -0.1460029 -0.01026153 2.3416971e-38
-0.068461627 -0.14701982 -0.014167184 2.3509527e-38
-0.066480353 -0.14701982 -0.014167184 2.3416974e-38
-0.06449908 -0.14701982 -0.014167184 2.3509527e-38
-0.062517792 -0.14701982 -0.014167184 2.3509527e-38
-0.060646862 -0.148077 -0.018227452 2.3234379e-38
-0.058658466 -0.148077 -0.018227452 2.3142544e-38
-0.05667007 -0.148077 -0.018227452 2.3234379e-38
-0.05468167 -0.148077 -0.018227452 2.2956712e-38
-0.052693274 -0.148077 -0.018227452 2.3509165e-38
-0.0507778 -0.14910837 -0.022188658 2.3508444e-38
-0.048716478 -0.148077 -0.018227452 2.3504837e-38
-0.046728082 -0.148077 -0.018227452 2.0916149e-38
-0.044739686 -0.148077 -0.018227452 1.9528886e-38
-0.042796433 -0.14910837 -0.022188658 1.9618913e-38
-0.04076289 -0.148077 -0.018227452 2.0077726e-38
-0.038742457 -0.14701982 -0.014167184 1.9247239e-38
-0.036737211 -0.1460029 -0.01026153 1.8878457e-38
-0.034749605 -0.14522041 -0.0072562639 1.906393e-38
-0.032769971 -0.14418359 -0.0032740775 2.0447946e-38
-0.030804221 -0.14312203 0.00080299936 2.3492931e-38
-0.028849188 -0.14312203 0.00080299936 2.3312881e-38
-0.026894158 -0.14312203 0.00080299936 2.3499084e-38
-0.024939127 -0.14312203 0.00080299936 2.3500533e-38
-0.022984097 -0.14312203 0.00080299936 2.3506295e-38
-0.021052316 -0.14235483 0.0037496146 2.3508809e-38
-0.01910245 -0.14235483 0.0037496146 2.341805e-38
-0.017152587 -0.14235483 0.0037496146 2.3509168e-38
-0.015202723 -0.14235483 0.0037496146 2.3508451e-38
-0.013252858 -0.14235483 0.0037496146 2.3509168e-38
-0.011302995 -0.14235483 0.0037496146 2.3417691e-38
-0.0093531311 -0.14235483 0.0037496146 2.2683007e-38
-0.0074032657 -0.14235483 0.0037496146 2.341805e-38
-0.0054534022 -0.14235483 0.0037496146 2.3508089e-38
-0.0035035387 -0.14235483 0.0037496146 2.3507367e-38
-0.0015536733 -0.14235483 0.0037496146 2.350736e-38
0.00039619021 -0.14235483 0.0037496146 2.3509158e-38
0.0023460537 -0.14235483 0.0037496146 2.3509883e-38
0.0042959191 -0.14235483 0.0037496146 2.341805e-38
0.0061151832 -0.1413065 0.0077759083 2.341805e-38
0.0080579892 -0.1413065 0.0077759083 2.341805e-38
0.010000791 -0.1413065 0.0077759083 2.341805e-38
0.011943597 -0.1413065 0.0077759083 2.341805e-38
0.013886403 -0.1413065 0.0077759083 2.341805e-38
0.015829206 -0.1413065 0.0077759083 2.3234379e-38
0.017772011 -0.1413065 0.0077759083 2.341805e-38
0.019714817 -0.1413065 0.0077759083 2.341805e-38
0.02165762 -0.1413065 0.0077759083 2.341805e-38
0.023600426 -0.1413065 0.0077759083 2.341805e-38
0.025391784 -0.14051737 0.010806685 2.341805e-38
0.027329274 -0.14051737 0.010806685 2.341805e-38
0.029266763 -0.14051737 0.010806685 2.341805e-38
0.031204253 -0.14051737 0.010806685 2.3509883e-38
0.033141743 -0.14051737 0.010806685 2.3509521e-38
0.034845736 -0.1394823 0.014782077 2.3509883e-38
0.036776256 -0.1394823 0.014782077 2.2775202e-38
0.038706776 -0.1394823 0.014782077 2.2591531e-38
0.040637296 -0.1394823 0.014782077 2.2775202e-38
0.042567816 -0.1394823 0.014782077 2.3418047e-38
0.044231918 -0.13845469 0.018728858 2.3508431e-38
0.04566351 -0.13660498 0.025833016 1.4560047e-38
0.04757465 -0.13660498 0.025833016 1.1792381e-38
0.049777899 -0.13765021 0.021818643 8.5669811e-39
0.050658625 -0.1340252 0.035741098 7.8323097e-39
0.052552398 -0.1340252 0.035741098 7.7437196e-39
-0.076101996 -0.1471896 -0.0072562639 1.2907021e-38
-0.07413283 -0.1471896 -0.0072562639 1.8530954e-38
-0.072163664 -0.1471896 -0.0072562639 2.2771955e-38
-0.070302531 -0.14797734 -0.01026153 2.3509883e-38
-0.068461627 -0.14900111 -0.014167184 2.3509527e-38
-0.066480353 -0.14900111 -0.014167184 2.3509167e-38
-0.06449908 -0.14900111 -0.014167184 2.3509168e-38
-0.062517792 -0.14900111 -0.014167184 2.3509886e-38
-0.060536519 -0.14900111 -0.014167184 2.3142544e-38
-0.038742457 -0.14900111 -0.014167184 1.9061047e-38
-0.036737211 -0.14797734 -0.01026153 1.8416038e-38
-0.034749605 -0.1471896 -0.0072562639 1.8048336e-38
-0.032751501 -0.14430468 0.0037496146 1.906393e-38
-0.030801637 -0.14430468 0.0037496146 2.2569536e-38
-0.028851772 -0.14430468 0.0037496146 2.1559361e-38
-0.026894158 -0.14507706 0.00080299936 2.0084603e-38
-0.024939127 -0.14507706 0.00080299936 2.0728897e-38
-0.022984097 -0.14507706 0.00080299936 2.3505211e-38
-0.021052316 -0.14430468 0.0037496146 2.3508091e-38
-0.01910245 -0.14430468 0.0037496146 2.3509527e-38
-0.017152587 -0.14430468 0.0037496146 2.3509168e-38
-0.015202723 -0.14430468 0.0037496146 2.3508809e-38
-0.013252858 -0.14430468 0.0037496146 2.3140391e-38
-0.011302995 -0.14430468 0.0037496146 2.3234379e-38
-0.0093531311 -0.14430468 0.0037496146 2.2775202e-38
-0.0074032657 -0.14430468 0.0037496146 2.3142544e-38
-0.005541645 -0.14324932 0.0077759083 2.3507014e-38
-0.0035988409 -0.14324932 0.0077759083 2.3507373e-38
-0.001656035 -0.14324932 0.0077759083 2.3507725e-38
0.00028676912 -0.14324932 0.0077759083 2.3509521e-38
0.0022295751 -0.14324932 0.0077759083 2.3509883e-38
0.0041723773 -0.14324932 0.0077759083 2.341805e-38
0.0061151832 -0.14324932 0.0077759083 2.341805e-38
0.0080579892 -0.14324932 0.0077759083 2.341805e-38
0.010000791 -0.14324932 0.0077759083 2.341805e-38
0.011943597 -0.14324932 0.0077759083 2.341805e-38
0.013886403 -0.14324932 0.0077759083 2.3234379e-38
0.015829206 -0.14324932 0.0077759083 2.3234379e-38
0.01764182 -0.14245488 0.010806685 2.3234379e-38
0.01957931 -0.14245488 0.010806685 2.3234379e-38
0.0215168 -0.14245488 0.010806685 2.341805e-38
0.023454294 -0.14245488 0.010806685 2.341805e-38
0.025391784 -0.14245488 0.010806685 2.341805e-38
0.027329274 -0.14245488 0.010806685 2.341805e-38
0.029266763 -0.14245488 0.010806685 2.341805e-38
0.031204253 -0.14245488 0.010806685 2.3509883e-38
0.033141743 -0.14245488 0.010806685 2.3509879e-38
0.034845736 -0.14141284 0.014782077 2.3417687e-38
0.036776256 -0.14141284 0.014782077 2.2867037e-38
0.038706776 -0.14141284 0.014782077 2.2591531e-38
0.040637296 -0.14141284 0.014782077 2.2683366e-38
0.042567816 -0.14141284 0.014782077 2.3418047e-38
0.044231918 -0.14037828 0.018728858 2.3508432e-38
0.04566351 -0.13851611 0.025833016 1.4006874e-38
0.04757465 -0.13851611 0.025833016 1.1145932e-38
0.049485799 -0.13851611 0.025833016 9.6722497e-39
-0.076101996 -0.14915876 -0.0072562639 1.2446043e-38
-0.07413283 -0.14915876 -0.0072562639 1.6594846e-38
-0.072163664 -0.14915876 -0.0072562639 2.3417324e-38
-0.038711641 -0.14995177 -0.01026153 1.8782297e-38
-0.036718771 -0.14915876 -0.0072562639 1.8229845e-38
-0.034732152 -0.14810793 -0.0032740775 1.79547e-38
-0.032751501 -0.14625455 0.0037496146 1.8601873e-38
-0.030801637 -0.14625455 0.0037496146 2.1738333e-38
-0.028851772 -0.14625455 0.0037496146 2.2479149e-38
-0.026894158 -0.1470321 0.00080299936 1.9253392e-38
-0.024939127 -0.1470321 0.00080299936 1.8975013e-38
-0.022984097 -0.1470321 0.00080299936 2.3505565e-38
-0.021052316 -0.14625455 0.0037496146 2.3507363e-38
-0.01910245 -0.14625455 0.0037496146 2.3509524e-38
-0.017119005 -0.1470321 0.00080299936 2.3139311e-38
-0.015202723 -0.14625455 0.0037496146 2.3508451e-38
-0.013252858 -0.14625455 0.0037496146 2.3232944e-38
-0.011302995 -0.14625455 0.0037496146 2.2958514e-38
-0.009427255 -0.1451921 0.0077759083 2.2591531e-38
-0.0074844491 -0.1451921 0.0077759083 2.2958873e-38
-0.005541645 -0.1451921 0.0077759083 2.3507013e-38
-0.0035988409 -0.1451921 0.0077759083 2.3504852e-38
-0.001656035 -0.1451921 0.0077759083 2.3508807e-38
0.00028676912 -0.1451921 0.0077759083 2.3508805e-38
0.0022295751 -0.1451921 0.0077759083 2.3509527e-38
0.0041723773 -0.1451921 0.0077759083 2.3509886e-38
0.0061151832 -0.1451921 0.0077759083 2.3509886e-38
0.0080579892 -0.1451921 0.0077759083 2.3509886e-38
0.0098918565 -0.14439236 0.010806685 2.341805e-38
0.011829346 -0.14439236 0.010806685 2.341805e-38
0.013766836 -0.14439236 0.010806685 2.3234379e-38
0.01570433 -0.14439236 0.010806685 2.3234379e-38
0.01764182 -0.14439236 0.010806685 2.3234379e-38
0.01957931 -0.14439236 0.010806685 2.3234379e-38
0.0215168 -0.14439236 0.010806685 2.341805e-38
0.023454294 -0.14439236 0.010806685 2.341805e-38
0.025391784 -0.14439236 0.010806685 2.3509886e-38
0.027329274 -0.14439236 0.010806685 2.3509886e-38
0.029266763 -0.14439236 0.010806685 2.3509886e-38
0.030984696 -0.14334334 0.014782077 2.3509883e-38
0.032915216 -0.14334334 0.014782077 2.3509879e-38
0.034845736 -0.14334334 0.014782077 2.3418043e-38
0.036776256 -0.14334334 0.014782077 2.2867037e-38
0.038706776 -0.14334334 0.014782077 2.2591531e-38
0.040637296 -0.14334334 0.014782077 2.2499336e-38
0.042567816 -0.14334334 0.014782077 2.350988e-38
0.044231918 -0.14230187 0.018728858 2.3508793e-38
0.04566351 -0.14042725 0.025833016 1.4005795e-38
0.04757465 -0.14042725 0.025833016 1.1145572e-38
0.049485799 -0.14042725 0.025833016 1.0224705e-38
-0.034714282 -0.14898713 0.00080299936 1.7677394e-38
-0.032751501 -0.14820443 0.0037496146 1.804726e-38
-0.030801637 -0.14820443 0.0037496146 1.9616753e-38
-0.028851772 -0.14820443 0.0037496146 1.7959757e-38
-0.026901908 -0.14820443 0.0037496146 1.6024736e-38
-0.024952043 -0.14820443 0.0037496146 1.6852705e-38
-0.023002179 -0.14820443 0.0037496146 2.3503035e-38
-0.021052316 -0.14820443 0.0037496146 2.3505193e-38
-0.01910245 -0.14820443 0.0037496146 2.3509517e-38
-0.017152587 -0.14820443 0.0037496146 2.3508445e-38
-0.015255669 -0.14713491 0.0077759083 2.3509168e-38
-0.013312863 -0.14713491 0.0077759083 2.3509527e-38
-0.011370059 -0.14713491 0.0077759083 2.2865961e-38
-0.009427255 -0.14713491 0.0077759083 2.2223468e-38
-0.0074844491 -0.14713491 0.0077759083 2.2958873e-38
-0.005541645 -0.14713491 0.0077759083 2.3508451e-38
-0.0035988409 -0.14713491 0.0077759083 2.350773e-38
-0.001656035 -0.14713491 0.0077759083 2.3508445e-38
0.00028676912 -0.14713491 0.0077759083 2.3508801e-38
0.0022295751 -0.14713491 0.0077759083 2.3509524e-38
0.0041723773 -0.14713491 0.0077759083 2.3509883e-38
0.0061151832 -0.14713491 0.0077759083 2.3509527e-38
0.0080579892 -0.14713491 0.0077759083 2.3509883e-38
0.0098918565 -0.14632986 0.010806685 2.3509886e-38
0.011829346 -0.14632986 0.010806685 2.3418047e-38
0.013766836 -0.14632986 0.010806685 2.341805e-38
0.01570433 -0.14632986 0.010806685 2.3234376e-38
0.01764182 -0.14632986 0.010806685 2.3234379e-38
0.01957931 -0.14632986 0.010806685 2.3418047e-38
0.0215168 -0.14632986 0.010806685 2.341805e-38
0.023454294 -0.14632986 0.010806685 2.3509883e-38
0.025391784 -0.14632986 0.010806685 2.3509886e-38
0.027329274 -0.14632986 0.010806685 2.3509883e-38
0.029266763 -0.14632986 0.010806685 2.3509527e-38
0.030984696 -0.14527388 0.014782077 2.3509521e-38
0.032915216 -0.14527388 0.014782077 2.3509517e-38
0.034845736 -0.14527388 0.014782077 2.3417323e-38
0.036776256 -0.14527388 0.014782077 2.2958873e-38
0.038706776 -0.14527388 0.014782077 2.2775202e-38
0.040637296 -0.14527388 0.014782077 2.2406778e-38
0.042567816 -0.14527388 0.014782077 2.350988e-38
0.044498336 -0.14527388 0.014782077 2.3508431e-38
0.046428856 -0.14527388 0.014782077 1.4280584e-38
0.048359383 -0.14527388 0.014782077 1.1144853e-38
-0.015255669 -0.14907773 0.0077759083 2.350952e-38
-0.013312863 -0.14907773 0.0077759083 2.332405e-38
-0.011370059 -0.14907773 0.0077759083 2.3234015e-38
-0.009427255 -0.14907773 0.0077759083 2.2867034e-38
-0.0074844491 -0.14907773 0.0077759083 2.3050703e-38
-0.005541645 -0.14907773 0.0077759083 2.3508445e-38
-0.0035988409 -0.14907773 0.0077759083 2.3507367e-38
-0.001656035 -0.14907773 0.0077759083 2.350628e-38
0.00028676912 -0.14907773 0.0077759083 2.35088e-38
0.0022295751 -0.14907773 0.0077759083 2.3509163e-38
0.0041723773 -0.14907773 0.0077759083 2.3509521e-38
0.0061151832 -0.14907773 0.0077759083 2.3509524e-38
0.0080579892 -0.14907773 0.0077759083 2.350988e-38
0.0098918565 -0.14826734 0.010806685 2.314074e-38
0.011829346 -0.14826734 0.010806685 2.350988e-38
0.013766836 -0.14826734 0.010806685 2.3418047e-38
0.01570433 -0.14826734 0.010806685 2.2957425e-38
0.01764182 -0.14826734 0.010806685 2.332621e-38
0.01957931 -0.14826734 0.010806685 2.3418045e-38
0.0215168 -0.14826734 0.010806685 2.3509883e-38
0.023454294 -0.14826734 0.010806685 2.350988e-38
0.025391784 -0.14826734 0.010806685 2.3509883e-38
0.027329274 -0.14826734 0.010806685 2.3508441e-38
0.029266763 -0.14826734 0.010806685 2.3508445e-38
0.030984696 -0.14720438 0.014782077 2.350952e-38
0.032915216 -0.14720438 0.014782077 2.3509514e-38
0.034845736 -0.14720438 0.014782077 2.3047817e-38
0.036776256 -0.14720438 0.014782077 2.3234379e-38
0.038706776 -0.14720438 0.014782077 2.2958873e-38
0.040637296 -0.14720438 0.014782077 2.3234379e-38
0.042567816 -0.14720438 0.014782077 2.3509879e-38
0.044498336 -0.14720438 0.014782077 2.3503386e-38
0.046704184 -0.14826734 0.010806685 1.4003635e-38
0.04864167 -0.14826734 0.010806685 1.1881697e-38
0.029054172 -0.14913492 0.014782077 2.3508804e-38
0.030984696 -0.14913492 0.014782077 2.3509158e-38
0.032915216 -0.14913492 0.014782077 2.3509153e-38
0.034845736 -0.14913492 0.014782077 2.3415155e-38
0.036776256 -0.14913492 0.014782077 2.3509883e-38
0.038706776 -0.14913492 0.014782077 2.2497176e-38
0.040637296 -0.14913492 0.014782077 2.2864513e-38
0.042567816 -0.14913492 0.014782077 2.3509517e-38
