# .PCD v0.7 - Point Cloud Data file format
VERSION 0.7
FIELDS x y z rgb
SIZE 4 4 4 4
TYPE F F F F
COUNT 1 1 1 1
WIDTH 877
HEIGHT 1
VIEWPOINT 0 0 0 1 0 0 0
POINTS 877
DATA ascii
-0.023305345 -0.11836089 -0.03292042 5.8029297e-39
-0.021330914 -0.11836089 -0.03292042 5.6167462e-39
-0.019356484 -0.11836089 -0.03292042 4.9699432e-39
-0.01743211 -0.11765216 -0.029915154 4.7851988e-39
-0.015536262 -0.11671309 -0.025932968 3.9557997e-39
-0.013574082 -0.11671309 -0.025932968 2.6672245e-39
-0.025279775 -0.12033533 -0.03292042 1.0227953e-38
-0.023305345 -0.12033533 -0.03292042 1.3729593e-38
-0.021330914 -0.12033533 -0.03292042 1.4926344e-38
-0.019401273 -0.11962132 -0.029915154 1.3080638e-38
-0.01743211 -0.11962132 -0.029915154 1.2711502e-38
-0.015536262 -0.11867525 -0.025932968 1.2620748e-38
-0.013574082 -0.11867525 -0.025932968 1.4005845e-38
-0.011611903 -0.11867525 -0.025932968 1.5484575e-38
-0.027254205 -0.12230973 -0.03292042 1.0965868e-38
-0.025279775 -0.12230973 -0.03292042 1.2531402e-38
-0.023305345 -0.12230973 -0.03292042 1.9351723e-38
-0.021330914 -0.12230973 -0.03292042 1.870456e-38
-0.019401273 -0.12159048 -0.029915154 1.971692e-38
-0.01743211 -0.12159048 -0.029915154 1.8702413e-38
-0.015536262 -0.12063743 -0.025932968 1.6675551e-38
-0.013574082 -0.12063743 -0.025932968 2.2947738e-38
-0.011611903 -0.12063743 -0.025932968 2.3507374e-38
-0.0022330545 -0.11726747 -0.011852204 5.1665692e-39
-0.00029556081 -0.11726747 -0.011852204 3.5070479e-39
0.00563116 -0.11799283 -0.014882981 4.7052281e-39
0.0075739659 -0.11799283 -0.014882981 4.3357239e-39
0.0095167682 -0.11799283 -0.014882981 3.4137676e-39
0.011459574 -0.11799283 -0.014882981 3.5052402e-39
-0.027254205 -0.12428416 -0.03292042 2.3319361e-38
-0.025279775 -0.12428416 -0.03292042 2.3507718e-38
-0.023305345 -0.12428416 -0.03292042 2.3506647e-38
-0.021330914 -0.12428416 -0.03292042 2.3506291e-38
-0.019401273 -0.12355967 -0.029915154 2.3500898e-38
-0.01743211 -0.12355967 -0.029915154 2.3219635e-38
-0.01546295 -0.12355967 -0.029915154 2.3498024e-38
-0.013493789 -0.12355967 -0.029915154 2.3506298e-38
-0.0022330545 -0.11920498 -0.011852204 2.1393001e-38
-0.00029556081 -0.11920498 -0.011852204 1.9179587e-38
0.0018832088 -0.12090631 -0.018909276 1.7151284e-38
0.003688354 -0.11993565 -0.014882981 1.549212e-38
0.00563116 -0.11993565 -0.014882981 1.3463816e-38
0.0075739659 -0.11993565 -0.014882981 1.0881616e-38
0.0095167682 -0.11993565 -0.014882981 8.6689214e-39
0.011459574 -0.11993565 -0.014882981 8.6678424e-39
0.01340238 -0.11993565 -0.014882981 6.6398944e-39
-0.02722339 -0.12720706 -0.036826074 2.3508075e-38
-0.025242111 -0.12720706 -0.036826074 2.3503396e-38
-0.023305345 -0.1262586 -0.03292042 2.3503402e-38
-0.021370433 -0.12552883 -0.029915154 2.3501965e-38
-0.019401273 -0.12552883 -0.029915154 2.3504854e-38
-0.017498441 -0.1245618 -0.025932968 2.0915457e-38
-0.015611321 -0.12357174 -0.021855891 2.1931051e-38
-0.013715703 -0.12285618 -0.018909276 2.1380038e-38
-0.01176584 -0.12285618 -0.018909276 2.2028647e-38
-0.010170534 -0.11921866 -0.0039300313 2.3507016e-38
-0.0083254855 -0.11846836 -0.00084024575 2.3416615e-38
-0.0064073037 -0.11846836 -0.00084024575 2.3234379e-38
-0.0044891201 -0.11846836 -0.00084024575 2.2958873e-38
-0.0024761334 -0.11921866 -0.0039300313 2.2867037e-38
-0.00029556081 -0.12114246 -0.011852204 2.2958873e-38
0.0016419291 -0.12114246 -0.011852204 2.2958873e-38
0.0035794191 -0.12114246 -0.011852204 2.2958873e-38
0.0055169091 -0.12114246 -0.011852204 2.2867037e-38
0.007454399 -0.12114246 -0.011852204 2.1667429e-38
0.0093918927 -0.12114246 -0.011852204 2.0284492e-38
0.011459574 -0.12187846 -0.014882981 1.4937145e-38
0.01340238 -0.12187846 -0.014882981 1.0327364e-38
0.014506191 -0.11749353 0.0031741271 9.0366249e-39
-0.029204667 -0.12918831 -0.036826074 2.2673991e-38
-0.02722339 -0.12918831 -0.036826074 2.3042775e-38
-0.025242111 -0.12918831 -0.036826074 2.1843513e-38
-0.023305345 -0.12823303 -0.03292042 2.35052e-38
-0.021370433 -0.12749799 -0.029915154 2.3502324e-38
-0.01946062 -0.12652399 -0.025932968 2.3503409e-38
-0.017566351 -0.12552677 -0.021855891 1.8244298e-38
-0.015611321 -0.12552677 -0.021855891 1.8521608e-38
-0.013715703 -0.12480606 -0.018909276 1.8615245e-38
-0.01176584 -0.12480606 -0.018909276 2.248962e-38
-0.010170534 -0.12114228 -0.0039300313 2.3508451e-38
-0.0083254855 -0.12038656 -0.00084024575 2.3232583e-38
-0.0064073037 -0.12038656 -0.00084024575 2.3049273e-38
-0.0044891201 -0.12038656 -0.00084024575 2.3234379e-38
-0.0025709383 -0.12038656 -0.00084024575 2.3142544e-38
-0.00055253133 -0.12114228 -0.0039300313 2.3142544e-38
0.0013710707 -0.12114228 -0.0039300313 2.3142544e-38
0.0032946691 -0.12114228 -0.0039300313 2.3142544e-38
0.0052182712 -0.12114228 -0.0039300313 2.3142544e-38
0.0071418695 -0.12114228 -0.0039300313 2.2681572e-38
0.0089381635 -0.12038656 -0.00084024575 2.2036209e-38
0.010683902 -0.11940466 0.0031741271 2.2681931e-38
0.012595046 -0.11940466 0.0031741271 2.3142544e-38
0.014506191 -0.11940466 0.0031741271 2.3142544e-38
0.016417336 -0.11940466 0.0031741271 2.286632e-38
0.01832848 -0.11940466 0.0031741271 1.7702651e-38
0.020087924 -0.11868732 0.0061070332 9.4972401e-39
0.021993928 -0.11868732 0.0061070332 9.7738298e-39
-0.039100789 -0.13020746 -0.03292042 1.1063843e-38
-0.037126355 -0.13020746 -0.03292042 1.4104136e-38
-0.035151929 -0.13020746 -0.03292042 2.1107756e-38
-0.033177495 -0.13020746 -0.03292042 2.1198507e-38
-0.031185945 -0.1311696 -0.036826074 2.2674719e-38
-0.029204667 -0.1311696 -0.036826074 2.1015558e-38
-0.027254205 -0.13020746 -0.03292042 2.0554579e-38
-0.025308754 -0.12946714 -0.029915154 2.3412644e-38
-0.023339596 -0.12946714 -0.029915154 2.3505924e-38
-0.021370433 -0.12946714 -0.029915154 2.3507725e-38
-0.01946062 -0.12848614 -0.025932968 2.3507007e-38
-0.017615432 -0.12675591 -0.018909276 2.1289991e-38
-0.015665568 -0.12675591 -0.018909276 2.138183e-38
-0.013715703 -0.12675591 -0.018909276 2.1752411e-38
-0.01176584 -0.12675591 -0.018909276 2.3508448e-38
-0.010170534 -0.12306587 -0.0039300313 2.3509168e-38
-0.0083254855 -0.12230472 -0.00084024575 2.3509527e-38
-0.0064073037 -0.12230472 -0.00084024575 2.3326213e-38
-0.0044891201 -0.12230472 -0.00084024575 2.3233662e-38
-0.0025709383 -0.12230472 -0.00084024575 2.3234379e-38
-0.00065275282 -0.12230472 -0.00084024575 2.3234379e-38
0.001265429 -0.12230472 -0.00084024575 2.3050349e-38
0.0031836145 -0.12230472 -0.00084024575 2.3142544e-38
0.0051017962 -0.12230472 -0.00084024575 2.3234379e-38
0.007019978 -0.12230472 -0.00084024575 2.3234379e-38
0.0089381635 -0.12230472 -0.00084024575 2.3234379e-38
0.010683902 -0.12131582 0.0031741271 2.3234379e-38
0.012595046 -0.12131582 0.0031741271 2.231243e-38
0.014369916 -0.12059332 0.0061070332 2.3142544e-38
0.01627592 -0.12059332 0.0061070332 2.3050708e-38
0.018181924 -0.12059332 0.0061070332 2.3142544e-38
0.019727144 -0.11887501 0.013082207 2.249754e-38
0.021620918 -0.11887501 0.013082207 1.9455087e-38
0.023514692 -0.11887501 0.013082207 2.2128757e-38
0.025408462 -0.11887501 0.013082207 2.1484467e-38
0.027302232 -0.11887501 0.013082207 2.2867037e-38
0.029196005 -0.11887501 0.013082207 2.1853248e-38
0.031089779 -0.11887501 0.013082207 1.5307358e-38
-0.039100789 -0.1321819 -0.03292042 2.3049273e-38
-0.037126355 -0.1321819 -0.03292042 2.3509168e-38
-0.035151929 -0.1321819 -0.03292042 2.3505928e-38
-0.033177495 -0.1321819 -0.03292042 1.751033e-38
-0.031203065 -0.1321819 -0.03292042 1.7604323e-38
-0.029228635 -0.1321819 -0.03292042 2.1938238e-38
-0.027277917 -0.1314363 -0.029915154 2.2953828e-38
-0.025308754 -0.1314363 -0.029915154 2.3414806e-38
-0.023339596 -0.1314363 -0.029915154 2.3508807e-38
-0.0214228 -0.13044833 -0.025932968 2.3508807e-38
-0.019521382 -0.12943684 -0.021855891 2.3508448e-38
-0.017615432 -0.12870578 -0.018909276 2.3508448e-38
-0.015665568 -0.12870578 -0.018909276 2.3505927e-38
-0.013796886 -0.12770687 -0.014882981 2.3508448e-38
-0.011854082 -0.12770687 -0.014882981 2.3508807e-38
-0.0099830162 -0.12695493 -0.011852204 2.2770879e-38
-0.008246934 -0.12498946 -0.0039300313 2.3509883e-38
-0.0064073037 -0.12422292 -0.00084024575 2.3418047e-38
-0.0044891201 -0.12422292 -0.00084024575 2.3418047e-38
-0.0025709383 -0.12422292 -0.00084024575 2.341805e-38
-0.00065275282 -0.12422292 -0.00084024575 2.3509886e-38
0.001265429 -0.12422292 -0.00084024575 2.341805e-38
0.0031836145 -0.12422292 -0.00084024575 2.3326213e-38
0.0051017962 -0.12422292 -0.00084024575 2.3234379e-38
0.007019978 -0.12422292 -0.00084024575 2.3234379e-38
0.0087727569 -0.12322696 0.0031741271 2.3142544e-38
0.010557912 -0.1224993 0.0061070332 2.2773763e-38
0.012463916 -0.1224993 0.0061070332 2.3234379e-38
0.014228966 -0.12174667 0.0091406712 2.2405699e-38
0.015939601 -0.1207688 0.013082207 2.3142544e-38
0.017833374 -0.1207688 0.013082207 2.3142544e-38
0.019727144 -0.1207688 0.013082207 2.1944365e-38
0.021620918 -0.1207688 0.013082207 2.3142544e-38
0.023514692 -0.1207688 0.013082207 2.3142544e-38
0.025408462 -0.1207688 0.013082207 2.3142544e-38
0.027126323 -0.12002577 0.016077101 2.3142544e-38
0.029014844 -0.12002577 0.016077101 2.2958155e-38
0.031089779 -0.1207688 0.013082207 2.3234379e-38
0.032983553 -0.1207688 0.013082207 2.3234379e-38
0.034877326 -0.1207688 0.013082207 2.0653616e-38
-0.043190375 -0.13988586 -0.055852354 2.341805e-38
-0.041075218 -0.13415633 -0.03292042 2.341805e-38
-0.039100789 -0.13415633 -0.03292042 2.341805e-38
-0.037126355 -0.13415633 -0.03292042 2.3509527e-38
-0.035151929 -0.13415633 -0.03292042 2.3505934e-38
-0.033177495 -0.13415633 -0.03292042 1.7603254e-38
-0.03121624 -0.13340546 -0.029915154 1.6037368e-38
-0.029247077 -0.13340546 -0.029915154 2.3507732e-38
-0.027277917 -0.13340546 -0.029915154 2.3509527e-38
-0.025347158 -0.13241051 -0.025932968 2.2311342e-38
-0.023384977 -0.13241051 -0.025932968 2.3509886e-38
-0.021476412 -0.13139187 -0.021855891 2.3509167e-38
-0.019565295 -0.13065563 -0.018909276 2.3509167e-38
-0.017682496 -0.12964968 -0.014882981 2.3509165e-38
-0.015739692 -0.12964968 -0.014882981 2.3508085e-38
-0.013796886 -0.12964968 -0.014882981 2.3509165e-38
-0.011920506 -0.12889244 -0.011852204 2.3509524e-38
-0.0099830162 -0.12889244 -0.011852204 2.3509883e-38
-0.008246934 -0.12691309 -0.0039300313 2.3234376e-38
-0.006323332 -0.12691309 -0.0039300313 2.3234374e-38
-0.0044891201 -0.12614109 -0.00084024575 2.3418042e-38
-0.0025709383 -0.12614109 -0.00084024575 2.3509879e-38
-0.00065275282 -0.12614109 -0.00084024575 2.3509879e-38
0.0011281781 -0.12513812 0.0031741271 2.3509879e-38
0.0030393228 -0.12513812 0.0031741271 2.3509879e-38
0.0049504675 -0.12513812 0.0031741271 2.3418043e-38
0.0067459084 -0.12440531 0.0061070332 2.3418045e-38
0.0086519122 -0.12440531 0.0061070332 2.3234012e-38
0.010427598 -0.12364738 0.0091406712 2.3234376e-38
0.012328282 -0.12364738 0.0091406712 2.2220942e-38
0.014045827 -0.12266256 0.013082207 2.3050707e-38
0.015939601 -0.12266256 0.013082207 2.2774479e-38
0.017833374 -0.12266256 0.013082207 2.3142544e-38
0.019572239 -0.12191428 0.016077101 2.3142544e-38
0.02146076 -0.12191428 0.016077101 2.2867037e-38
0.023349281 -0.12191428 0.016077101 2.259009e-38
0.025408462 -0.12266256 0.013082207 2.341805e-38
0.027126323 -0.12191428 0.016077101 2.3509527e-38
0.029014844 -0.12191428 0.016077101 2.2864519e-38
0.031089779 -0.12266256 0.013082207 2.3233299e-38
0.032983553 -0.12266256 0.013082207 2.2496087e-38
0.034877326 -0.12266256 0.013082207 1.9638021e-38
0.0367711 -0.12266256 0.013082207 1.6503367e-38
-0.053442702 -0.14492477 -0.067872345 2.3141816e-38
-0.051406987 -0.14492477 -0.067872345 2.3418047e-38
-0.049325798 -0.14392079 -0.063882053 2.3509883e-38
-0.047258865 -0.1429237 -0.059919059 2.341769e-38
-0.045205012 -0.14190049 -0.055852354 2.3233302e-38
-0.043190375 -0.14190049 -0.055852354 2.3141106e-38
-0.041075218 -0.13613077 -0.03292042 2.3509527e-38
-0.039092883 -0.13537462 -0.029915154 2.3509168e-38
-0.037123725 -0.13537462 -0.029915154 2.2309547e-38
-0.035154559 -0.13537462 -0.029915154 1.9449322e-38
-0.033195876 -0.1343727 -0.025932968 1.843517e-38
-0.031233694 -0.1343727 -0.025932968 2.2676888e-38
-0.029271515 -0.1343727 -0.025932968 2.3509527e-38
-0.027309336 -0.1343727 -0.025932968 2.3233299e-38
-0.025386473 -0.13334687 -0.021855891 2.341805e-38
-0.023431443 -0.13334687 -0.021855891 2.2773039e-38
-0.021476412 -0.13334687 -0.021855891 2.341805e-38
-0.019625301 -0.13159247 -0.014882981 2.2772321e-38
-0.01773298 -0.13082992 -0.011852204 2.3509883e-38
-0.015795488 -0.13082992 -0.011852204 2.3417327e-38
-0.013857998 -0.13082992 -0.011852204 2.3509883e-38
-0.011920506 -0.13082992 -0.011852204 2.3141819e-38
-0.010077113 -0.12982969 -0.0078768125 2.3234376e-38
-0.008246934 -0.12883668 -0.0039300313 2.2958867e-38
-0.0064073037 -0.12805928 -0.00084024575 2.3142541e-38
-0.0044891201 -0.12805928 -0.00084024575 2.3326206e-38
-0.0025709383 -0.12805928 -0.00084024575 2.341804e-38
-0.00078296661 -0.12704925 0.0031741271 2.3509876e-38
0.0011281781 -0.12704925 0.0031741271 2.3233648e-38
0.0029339045 -0.12631132 0.0061070332 2.323365e-38
0.0048399083 -0.12631132 0.0061070332 2.3509879e-38
0.0066262335 -0.12554805 0.0091406712 2.3418045e-38
0.0085269138 -0.12554805 0.0091406712 2.332621e-38
0.010258283 -0.12455635 0.013082207 2.3234379e-38
0.012152057 -0.12455635 0.013082207 2.3142544e-38
0.014045827 -0.12455635 0.013082207 2.3142544e-38
0.015939601 -0.12455635 0.013082207 2.3142544e-38
0.017833374 -0.12455635 0.013082207 2.259009e-38
0.019572239 -0.12380283 0.016077101 2.2497892e-38
0.02146076 -0.12380283 0.016077101 2.3142544e-38
0.023349281 -0.12380283 0.016077101 2.3325492e-38
0.025237802 -0.12380283 0.016077101 2.3506281e-38
0.027126323 -0.12380283 0.016077101 2.2029349e-38
0.029196005 -0.12455635 0.013082207 1.9263478e-38
0.031089779 -0.12455635 0.013082207 1.9170558e-38
0.032983553 -0.12455635 0.013082207 1.8893968e-38
0.034877326 -0.12455635 0.013082207 1.7602866e-38
0.0367711 -0.12455635 0.013082207 1.6957494e-38
0.038664874 -0.12455635 0.013082207 1.5851865e-38
0.04055864 -0.12455635 0.013082207 1.3916836e-38
-0.057588097 -0.14797847 -0.071890295 2.3234376e-38
-0.055478413 -0.14696048 -0.067872345 2.2404257e-38
-0.053442702 -0.14696048 -0.067872345 2.341805e-38
-0.051406987 -0.14696048 -0.067872345 2.3325497e-38
-0.049325798 -0.14594953 -0.063882053 2.3509527e-38
-0.047258865 -0.14494546 -0.059919059 2.3509167e-38
-0.045142531 -0.14190884 -0.0479334 2.3509527e-38
-0.043073617 -0.13909473 -0.036826074 2.3415529e-38
-0.041075218 -0.1381052 -0.03292042 2.3414806e-38
-0.039092883 -0.13734378 -0.029915154 2.3508801e-38
-0.037123725 -0.13734378 -0.029915154 1.9266001e-38
-0.035158053 -0.13633488 -0.025932968 1.4472908e-38
-0.033195876 -0.13633488 -0.025932968 2.2494646e-38
-0.031251565 -0.1353019 -0.021855891 2.3509879e-38
-0.029296534 -0.1353019 -0.021855891 2.3509518e-38
-0.027341504 -0.1353019 -0.021855891 2.3509879e-38
-0.025414888 -0.13455538 -0.018909276 2.2773391e-38
-0.023510911 -0.13353528 -0.014882981 2.3418045e-38
-0.021607962 -0.13276742 -0.011852204 2.3234012e-38
-0.01967047 -0.13276742 -0.011852204 2.3418045e-38
-0.01773298 -0.13276742 -0.011852204 2.3418047e-38
-0.015795488 -0.13276742 -0.011852204 2.3234376e-38
-0.013857998 -0.13276742 -0.011852204 2.3234376e-38
-0.012007635 -0.13176022 -0.0078768125 2.3142544e-38
-0.010170534 -0.13076027 -0.0039300313 2.3142544e-38
-0.008246934 -0.13076027 -0.0039300313 2.2958873e-38
-0.0064073037 -0.12997745 -0.00084024575 2.2958873e-38
-0.0044891201 -0.12997745 -0.00084024575 2.2958867e-38
-0.0025709383 -0.12997745 -0.00084024575 2.2958866e-38
-0.00078296661 -0.12896039 0.0031741271 2.3142537e-38
0.0010279007 -0.12821732 0.0061070332 2.3234372e-38
0.0028248653 -0.12744872 0.0091406712 2.350988e-38
0.0047255494 -0.12744872 0.0091406712 2.350988e-38
0.0064707398 -0.12645011 0.013082207 2.3509886e-38
0.0083645098 -0.12645011 0.013082207 2.341805e-38
0.010258283 -0.12645011 0.013082207 2.3234379e-38
0.012152057 -0.12645011 0.013082207 2.2589378e-38
0.014045827 -0.12645011 0.013082207 2.3142544e-38
0.015795197 -0.12569134 0.016077101 2.3142544e-38
0.017683718 -0.12569134 0.016077101 2.2589734e-38
0.019572239 -0.12569134 0.016077101 2.2589371e-38
0.02146076 -0.12569134 0.016077101 2.332621e-38
0.023349281 -0.12569134 0.016077101 2.3509156e-38
0.025237802 -0.12569134 0.016077101 2.2485633e-38
0.027126323 -0.12569134 0.016077101 2.17441e-38
0.029196005 -0.12645011 0.013082207 1.9714352e-38
0.031089779 -0.12645011 0.013082207 1.796191e-38
0.032983553 -0.12645011 0.013082207 1.7776438e-38
0.03513648 -0.12744872 0.0091406712 1.8605476e-38
0.0367711 -0.12645011 0.013082207 1.8882065e-38
0.038664874 -0.12645011 0.013082207 1.8422528e-38
0.04055864 -0.12645011 0.013082207 1.6672618e-38
0.042739216 -0.12744872 0.0091406712 1.077498e-38
0.044639897 -0.12744872 0.0091406712 7.5513816e-39
-0.057514124 -0.14899619 -0.067872345 2.3234379e-38
-0.055478413 -0.14899619 -0.067872345 2.3233662e-38
-0.053383231 -0.14797823 -0.063882053 2.3509527e-38
-0.051354516 -0.14797823 -0.063882053 2.332478e-38
-0.049325798 -0.14797823 -0.063882053 2.3508451e-38
-0.047258865 -0.14696725 -0.059919059 2.2954554e-38
-0.045118183 -0.14312236 -0.044847548 2.3508807e-38
-0.043073617 -0.14107598 -0.036826074 2.3508802e-38
-0.041062042 -0.13931294 -0.029915154 2.35088e-38
-0.039092883 -0.13931294 -0.029915154 2.3508797e-38
-0.037123725 -0.13931294 -0.029915154 1.917344e-38
-0.035158053 -0.13829704 -0.025932968 1.6224978e-38
-0.033195876 -0.13829704 -0.025932968 2.2680114e-38
-0.031251565 -0.13725694 -0.021855891 2.3509876e-38
-0.029296534 -0.13725694 -0.021855891 2.3509874e-38
-0.027364753 -0.13650523 -0.018909276 2.3509876e-38
-0.025414888 -0.13650523 -0.018909276 2.2957064e-38
-0.023510911 -0.13547809 -0.014882981 2.3509879e-38
-0.021607962 -0.1347049 -0.011852204 2.3234012e-38
-0.01967047 -0.1347049 -0.011852204 2.3418045e-38
-0.017799197 -0.13369073 -0.0078768125 2.3234374e-38
-0.015868675 -0.13369073 -0.0078768125 2.3234376e-38
-0.013857998 -0.1347049 -0.011852204 2.3142541e-38
-0.012007635 -0.13369073 -0.0078768125 2.3142544e-38
-0.010170534 -0.13268389 -0.0039300313 2.3142544e-38
-0.0083254855 -0.13189565 -0.00084024575 2.2958873e-38
-0.0065164007 -0.13087155 0.0031741271 2.2958873e-38
-0.004605256 -0.13087155 0.0031741271 2.2867034e-38
-0.0027841032 -0.13012333 0.0061070332 2.2958867e-38
-0.00087809935 -0.13012333 0.0061070332 2.3142538e-38
0.00092418119 -0.12934943 0.0091406712 2.3234374e-38
0.0026831925 -0.1283439 0.013082207 2.350988e-38
0.0045769662 -0.1283439 0.013082207 2.3509883e-38
0.0064707398 -0.1283439 0.013082207 2.3509886e-38
0.0082411095 -0.12757985 0.016077101 2.3509527e-38
0.010129634 -0.12757985 0.016077101 2.3417691e-38
0.012018155 -0.12757985 0.016077101 2.3234379e-38
0.013906676 -0.12757985 0.016077101 2.2957796e-38
0.015795197 -0.12757985 0.016077101 2.3233303e-38
0.017683718 -0.12757985 0.016077101 2.3509886e-38
0.019572239 -0.12757985 0.016077101 2.3509524e-38
0.02146076 -0.12757985 0.016077101 2.350736e-38
0.023349281 -0.12757985 0.016077101 1.5205783e-38
0.025237802 -0.12757985 0.016077101 1.5936129e-38
0.027126323 -0.12757985 0.016077101 1.67612e-38
0.029196005 -0.1283439 0.013082207 1.6851232e-38
0.031089779 -0.1283439 0.013082207 1.7034183e-38
0.0332358 -0.12934943 0.0091406712 1.804689e-38
0.03513648 -0.12934943 0.0091406712 1.8968486e-38
0.037037168 -0.12934943 0.0091406712 1.9152521e-38
0.038937848 -0.12934943 0.0091406712 1.8417119e-38
0.040838528 -0.12934943 0.0091406712 1.7220746e-38
0.042739216 -0.12934943 0.0091406712 1.3351778e-38
0.044865955 -0.13012333 0.0061070332 1.0313649e-38
0.046771955 -0.13012333 0.0061070332 9.3949411e-39
-0.047258865 -0.14898901 -0.059919059 2.3506646e-38
-0.045086928 -0.1441002 -0.040886343 2.3507723e-38
-0.043049648 -0.14205404 -0.03292042 2.3508079e-38
-0.041062042 -0.1412821 -0.029915154 2.3508437e-38
-0.039082408 -0.14025922 -0.025932968 2.3135691e-38
-0.03712023 -0.14025922 -0.025932968 1.9264194e-38
-0.035158053 -0.14025922 -0.025932968 1.8990491e-38
-0.033195876 -0.14025922 -0.025932968 2.3416603e-38
-0.031251565 -0.13921197 -0.021855891 2.3509518e-38
-0.029314617 -0.13845511 -0.018909276 2.3509879e-38
-0.027364753 -0.13845511 -0.018909276 2.3509879e-38
-0.025453717 -0.13742088 -0.014882981 2.3140737e-38
-0.023545451 -0.13664238 -0.011852204 2.350988e-38
-0.021607962 -0.13664238 -0.011852204 2.3417687e-38
-0.019729717 -0.13562126 -0.0078768125 2.3509883e-38
-0.017864937 -0.13460748 -0.0039300313 2.3418047e-38
-0.015941335 -0.13460748 -0.0039300313 2.341805e-38
-0.013938155 -0.13562126 -0.0078768125 2.341805e-38
-0.012094134 -0.13460748 -0.0039300313 2.341805e-38
-0.010243669 -0.13381381 -0.00084024575 2.3234379e-38
-0.0083254855 -0.13381381 -0.00084024575 2.3234379e-38
-0.0065164007 -0.13278268 0.0031741271 2.3234379e-38
-0.0046901032 -0.13202934 0.0061070332 2.3142541e-38
-0.0028771833 -0.1312501 0.0091406712 2.3234374e-38
-0.0009765029 -0.1312501 0.0091406712 2.3418043e-38
0.00078942254 -0.13023765 0.013082207 2.3509879e-38
0.0025755465 -0.1294684 0.016077101 2.350988e-38
0.0044640675 -0.1294684 0.016077101 2.350988e-38
0.0061945803 -0.12843956 0.020082414 2.3509883e-38
0.0079496056 -0.12765111 0.023151934 2.3509527e-38
0.0098257214 -0.12765111 0.023151934 2.2956359e-38
0.011701837 -0.12765111 0.023151934 2.3509527e-38
0.013906676 -0.1294684 0.016077101 2.3509168e-38
0.015795197 -0.1294684 0.016077101 2.3508088e-38
0.017683718 -0.1294684 0.016077101 2.3507722e-38
0.019572239 -0.1294684 0.016077101 2.3508078e-38
0.02146076 -0.1294684 0.016077101 2.3508431e-38
0.023349281 -0.1294684 0.016077101 1.593938e-38
0.025408462 -0.13023765 0.013082207 1.4826898e-38
0.027302232 -0.13023765 0.013082207 1.6021834e-38
0.029196005 -0.13023765 0.013082207 1.7034902e-38
0.031335112 -0.1312501 0.0091406712 1.7955416e-38
0.033429939 -0.13202934 0.0061070332 1.8784095e-38
0.035335939 -0.13202934 0.0061070332 1.933619e-38
0.037241947 -0.13202934 0.0061070332 1.9151801e-38
0.038937848 -0.1312501 0.0091406712 1.8323844e-38
0.040838528 -0.1312501 0.0091406712 1.7496614e-38
0.042959955 -0.13202934 0.0061070332 1.556411e-38
0.044865955 -0.13202934 0.0061070332 1.2433426e-38
0.046771955 -0.13202934 0.0061070332 9.9473918e-39
-0.047219649 -0.14995907 -0.055852354 2.3508804e-38
-0.045054894 -0.14503856 -0.036826074 2.3506279e-38
-0.043031208 -0.14325126 -0.029915154 2.2030065e-38
-0.041062042 -0.14325126 -0.029915154 2.0646409e-38
-0.039082408 -0.14222141 -0.025932968 2.0460577e-38
-0.03712023 -0.14222141 -0.025932968 2.1015549e-38
-0.035158053 -0.14222141 -0.025932968 2.1847835e-38
-0.033206597 -0.141167 -0.021855891 2.3509521e-38
-0.03126448 -0.14040495 -0.018909276 2.3508801e-38
-0.029314617 -0.14040495 -0.018909276 2.3509524e-38
-0.027396521 -0.13936369 -0.014882981 2.3509524e-38
-0.025453717 -0.13936369 -0.014882981 2.3416248e-38
-0.023545451 -0.13857989 -0.011852204 2.3509883e-38
-0.021607962 -0.13857989 -0.011852204 2.3509523e-38
-0.019729717 -0.1375518 -0.0078768125 2.3509527e-38
-0.017864937 -0.13653107 -0.0039300313 2.3509886e-38
-0.015941335 -0.13653107 -0.0039300313 2.3509527e-38
-0.014017735 -0.13653107 -0.0039300313 2.3509886e-38
-0.012094134 -0.13653107 -0.0039300313 2.3509886e-38
-0.010243669 -0.13573201 -0.00084024575 2.341805e-38
-0.0083254855 -0.13573201 -0.00084024575 2.3509886e-38
-0.0065164007 -0.13469382 0.0031741271 2.341805e-38
-0.0047778673 -0.13315077 0.0091406712 2.3509883e-38
-0.0028771833 -0.13315077 0.0091406712 2.350988e-38
-0.0011043511 -0.13213144 0.013082207 2.3509879e-38
0.00068702549 -0.13135691 0.016077101 2.3509879e-38
0.0024315827 -0.13032107 0.020082414 2.350988e-38
0.0043130815 -0.13032107 0.020082414 2.350988e-38
0.0060734861 -0.12952723 0.023151934 2.350988e-38
0.0078284927 -0.12876706 0.026091278 2.3509883e-38
0.0096994564 -0.12876706 0.026091278 2.3509524e-38
0.01157042 -0.12876706 0.026091278 2.3509165e-38
0.013577957 -0.12952723 0.023151934 2.3508802e-38
0.015454073 -0.12952723 0.023151934 2.1475094e-38
0.017330188 -0.12952723 0.023151934 1.852303e-38
0.019572239 -0.13135691 0.016077101 1.455681e-38
0.02146076 -0.13135691 0.016077101 1.6675148e-38
0.023514692 -0.13213144 0.013082207 1.4275532e-38
0.025408462 -0.13213144 0.013082207 1.6852319e-38
0.027302232 -0.13213144 0.013082207 1.749588e-38
0.029434431 -0.13315077 0.0091406712 1.8047612e-38
0.031523939 -0.13393532 0.0061070332 1.8323117e-38
0.033429939 -0.13393532 0.0061070332 1.8690099e-38
0.035335939 -0.13393532 0.0061070332 1.8690099e-38
0.037241947 -0.13393532 0.0061070332 1.8782297e-38
0.039147947 -0.13393532 0.0061070332 1.8507155e-38
0.041053947 -0.13393532 0.0061070332 1.8049425e-38
0.042959955 -0.13393532 0.0061070332 1.7223268e-38
0.045084503 -0.13469382 0.0031741271 1.3723083e-38
0.046995655 -0.13469382 0.0031741271 1.0407288e-38
-0.047113527 -0.14910837 -0.044847548 2.35088e-38
-0.045024078 -0.1460029 -0.03292042 2.2674716e-38
-0.043031208 -0.14522041 -0.029915154 1.9908124e-38
-0.041044589 -0.14418359 -0.025932968 1.7510673e-38
-0.039082408 -0.14418359 -0.025932968 1.8523383e-38
-0.03712023 -0.14418359 -0.025932968 2.350627e-38
-0.035161626 -0.14312203 -0.021855891 2.3507362e-38
-0.033214346 -0.14235483 -0.018909276 2.3509524e-38
-0.03126448 -0.14235483 -0.018909276 2.3508804e-38
-0.029339325 -0.1413065 -0.014882981 2.3509527e-38
-0.027420433 -0.14051737 -0.011852204 2.3509527e-38
-0.025482941 -0.14051737 -0.011852204 2.3508446e-38
-0.023545451 -0.14051737 -0.011852204 2.3509527e-38
-0.021660239 -0.1394823 -0.0078768125 2.3509167e-38
-0.019788537 -0.13845469 -0.0039300313 2.3509168e-38
-0.017864937 -0.13845469 -0.0039300313 2.3509527e-38
-0.015941335 -0.13845469 -0.0039300313 2.3509168e-38
-0.014017735 -0.13845469 -0.0039300313 2.3509527e-38
-0.012094134 -0.13845469 -0.0039300313 2.3509527e-38
-0.010243669 -0.13765021 -0.00084024575 2.3509886e-38
-0.0084275454 -0.13660498 0.0031741271 2.3509527e-38
-0.0065164007 -0.13660498 0.0031741271 2.3509527e-38
-0.0047778673 -0.13505147 0.0091406712 2.3509524e-38
-0.0029981248 -0.1340252 0.013082207 2.3509521e-38
-0.0012014955 -0.13324542 0.016077101 2.3509521e-38
0.00068702549 -0.13324542 0.016077101 2.350988e-38
0.0023212545 -0.13140334 0.023151934 2.350988e-38
0.0041973703 -0.13140334 0.023151934 2.350988e-38
0.0059575289 -0.13063805 0.026091278 2.350988e-38
0.0078284927 -0.13063805 0.026091278 2.3509879e-38
0.0095257685 -0.12958528 0.030134618 2.3415161e-38
0.011389643 -0.12958528 0.030134618 2.3508437e-38
0.013441384 -0.13063805 0.026091278 2.3508075e-38
0.015312348 -0.13063805 0.026091278 1.8890005e-38
0.017330188 -0.13140334 0.023151934 1.8148836e-38
0.019365072 -0.13220255 0.020082414 1.565667e-38
0.02146076 -0.13324542 0.016077101 1.5747062e-38
0.023514692 -0.1340252 0.013082207 1.7773201e-38
0.025408462 -0.1340252 0.013082207 1.712638e-38
0.027302232 -0.1340252 0.013082207 1.7401523e-38
0.029434431 -0.13505147 0.0091406712 1.7584473e-38
0.031523939 -0.13584132 0.0061070332 1.7675947e-38
0.033429939 -0.13584132 0.0061070332 1.8135486e-38
0.035528783 -0.13660498 0.0031741271 1.8596464e-38
0.037439924 -0.13660498 0.0031741271 1.9334032e-38
0.039351072 -0.13660498 0.0031741271 1.9612423e-38
0.041262213 -0.13660498 0.0031741271 1.8323491e-38
0.043173362 -0.13660498 0.0031741271 1.8142704e-38
0.045084503 -0.13660498 0.0031741271 1.5195692e-38
0.046995655 -0.13660498 0.0031741271 1.1604391e-38
-0.045024078 -0.14797734 -0.03292042 2.129034e-38
-0.043031208 -0.1471896 -0.029915154 1.8339715e-38
-0.041044589 -0.14614578 -0.025932968 1.6125575e-38
-0.039082408 -0.14614578 -0.025932968 1.7139005e-38
-0.037116658 -0.14507706 -0.021855891 2.350807e-38
-0.035164207 -0.14430468 -0.018909276 2.3508802e-38
-0.033214346 -0.14430468 -0.018909276 2.3509527e-38
-0.031282131 -0.14324932 -0.014882981 2.3509168e-38
-0.029339325 -0.14324932 -0.014882981 2.3509527e-38
-0.027420433 -0.14245488 -0.011852204 2.3509168e-38
-0.025482941 -0.14245488 -0.011852204 2.3509168e-38
-0.023590758 -0.14141284 -0.0078768125 2.3509168e-38
-0.021660239 -0.14141284 -0.0078768125 2.3509168e-38
-0.019788537 -0.14037828 -0.0039300313 2.3509168e-38
-0.017916402 -0.13956837 -0.00084024575 2.3509527e-38
-0.015998218 -0.13956837 -0.00084024575 2.3509168e-38
-0.014080036 -0.13956837 -0.00084024575 2.3509527e-38
-0.012161853 -0.13956837 -0.00084024575 2.3509527e-38
-0.01033869 -0.13851611 0.0031741271 2.3509527e-38
-0.0084275454 -0.13851611 0.0031741271 2.3509527e-38
-0.0066785514 -0.13695215 0.0091406712 2.3509527e-38
-0.0048918966 -0.13591899 0.013082207 2.3508807e-38
-0.0029981248 -0.13591899 0.013082207 2.3508807e-38
-0.0012014955 -0.13513394 0.016077101 2.3509524e-38
0.00055008382 -0.13408406 0.020082414 2.3509883e-38
0.0023212545 -0.13327946 0.023151934 2.3509883e-38
0.004086569 -0.13250901 0.026091278 2.3418047e-38
0.0059575289 -0.13250901 0.026091278 2.350988e-38
0.007661894 -0.13144915 0.030134618 2.3509876e-38
0.0095257685 -0.13144915 0.030134618 2.3507712e-38
0.011389643 -0.13144915 0.030134618 2.3508431e-38
0.013253517 -0.13144915 0.030134618 2.3504467e-38
0.015312348 -0.13250901 0.026091278 1.5382604e-38
0.017330188 -0.13327946 0.023151934 1.6116565e-38
0.019365072 -0.13408406 0.020082414 1.7680288e-38
0.02146076 -0.13513394 0.016077101 1.6110799e-38
0.023514692 -0.13591899 0.013082207 1.75852e-38
0.025408462 -0.13591899 0.013082207 1.7953258e-38
0.027533751 -0.13695215 0.0091406712 1.7768142e-38
0.029617939 -0.13774733 0.0061070332 1.7675226e-38
0.031523939 -0.13774733 0.0061070332 1.7858897e-38
0.033617634 -0.13851611 0.0031741271 1.8135124e-38
0.035528783 -0.13851611 0.0031741271 1.8503549e-38
0.037439924 -0.13851611 0.0031741271 1.9148921e-38
0.039351072 -0.13851611 0.0031741271 1.9703177e-38
0.041262213 -0.13851611 0.0031741271 1.767704e-38
0.043465462 -0.13956837 -0.00084024575 1.7957232e-38
0.045084503 -0.13851611 0.0031741271 1.6669741e-38
0.046771955 -0.13774733 0.0061070332 1.3723446e-38
0.048677951 -0.13774733 0.0061070332 1.1145216e-38
-0.045024078 -0.14995177 -0.03292042 1.9907044e-38
-0.043031208 -0.14915876 -0.029915154 1.6955339e-38
-0.041044589 -0.14810793 -0.025932968 1.538657e-38
-0.039071687 -0.1470321 -0.021855891 1.5847185e-38
-0.037116658 -0.1470321 -0.021855891 2.3507708e-38
-0.035164207 -0.14625455 -0.018909276 2.3508804e-38
-0.033224933 -0.1451921 -0.014882981 2.3325497e-38
-0.031295415 -0.14439236 -0.011852204 2.3509527e-38
-0.029357925 -0.14439236 -0.011852204 2.3509886e-38
-0.027420433 -0.14439236 -0.011852204 2.3232583e-38
-0.025482941 -0.14439236 -0.011852204 2.3509886e-38
-0.023590758 -0.14334334 -0.0078768125 2.3509527e-38
-0.021660239 -0.14334334 -0.0078768125 2.3509886e-38
-0.019788537 -0.14230187 -0.0039300313 2.3509527e-38
-0.017916402 -0.14148657 -0.00084024575 2.3509886e-38
-0.015998218 -0.14148657 -0.00084024575 2.3509527e-38
-0.014080036 -0.14148657 -0.00084024575 2.3509886e-38
-0.012161853 -0.14148657 -0.00084024575 2.3509886e-38
-0.01033869 -0.14042725 0.0031741271 2.3509886e-38
-0.008502109 -0.13965334 0.0061070332 2.3509886e-38
-0.0066785514 -0.13885282 0.0091406712 2.3509168e-38
-0.0048918966 -0.13781275 0.013082207 2.3508809e-38
-0.0030900165 -0.13702248 0.016077101 2.3508809e-38
-0.001331415 -0.13596557 0.020082414 2.3509168e-38
0.00044513866 -0.13515557 0.023151934 2.3509886e-38
0.0022156052 -0.13437997 0.026091278 2.3234379e-38
0.004086569 -0.13437997 0.026091278 2.3142544e-38
0.0059575289 -0.13437997 0.026091278 2.3234376e-38
0.007661894 -0.13331302 0.030134618 2.3509876e-38
0.0095257685 -0.13331302 0.030134618 2.3508791e-38
0.011389643 -0.13331302 0.030134618 2.3508065e-38
0.013253517 -0.13331302 0.030134618 2.2482746e-38
0.015312348 -0.13437997 0.026091278 1.528752e-38
0.017183311 -0.13437997 0.026091278 1.6021124e-38
0.019054271 -0.13437997 0.026091278 1.8691194e-38
0.02146076 -0.13702248 0.016077101 1.8226976e-38
0.023514692 -0.13781275 0.013082207 1.9332237e-38
0.025633063 -0.13885282 0.0091406712 1.8595745e-38
0.027533751 -0.13885282 0.0091406712 1.795073e-38
0.029617939 -0.13965334 0.0061070332 1.7397556e-38
0.031706493 -0.14042725 0.0031741271 1.7397559e-38
0.033617634 -0.14042725 0.0031741271 1.7488676e-38
0.035792727 -0.14148657 -0.00084024575 1.7488677e-38
0.037710909 -0.14148657 -0.00084024575 1.7857104e-38
0.039629091 -0.14148657 -0.00084024575 1.8042937e-38
0.041547272 -0.14148657 -0.00084024575 1.7860708e-38
0.043465462 -0.14148657 -0.00084024575 1.7402614e-38
0.045084503 -0.14042725 0.0031741271 1.722147e-38
0.046771955 -0.13965334 0.0061070332 1.5657393e-38
0.048677951 -0.13965334 0.0061070332 1.1882418e-38
-0.039071687 -0.14898713 -0.021855891 1.5661349e-38
-0.037114076 -0.14820443 -0.018909276 2.3507346e-38
-0.035167739 -0.14713491 -0.014882981 2.3508082e-38
-0.033224933 -0.14713491 -0.014882981 2.304891e-38
-0.031295415 -0.14632986 -0.011852204 2.3509886e-38
-0.029357925 -0.14632986 -0.011852204 2.3509886e-38
-0.027451798 -0.14527388 -0.0078768125 2.2956715e-38
-0.025521278 -0.14527388 -0.0078768125 2.3509886e-38
-0.023635738 -0.14422549 -0.0039300313 2.3509886e-38
-0.021712137 -0.14422549 -0.0039300313 2.3509886e-38
-0.019834585 -0.14340474 -0.00084024575 2.3509886e-38
-0.017916402 -0.14340474 -0.00084024575 2.341805e-38
-0.015998218 -0.14340474 -0.00084024575 2.3509886e-38
-0.014080036 -0.14340474 -0.00084024575 2.341805e-38
-0.012249835 -0.14233841 0.0031741271 2.3509886e-38
-0.010408111 -0.14155935 0.0061070332 2.341805e-38
-0.0085792337 -0.14075352 0.0091406712 2.3509886e-38
-0.0067856684 -0.13970654 0.013082207 2.3509527e-38
-0.0049785394 -0.13891099 0.016077101 2.3508809e-38
-0.0030900165 -0.13891099 0.016077101 2.3508451e-38
-0.001331415 -0.13784705 0.020082414 2.3509168e-38
0.00044513866 -0.13703169 0.023151934 2.341805e-38
0.0022156052 -0.13625093 0.026091278 2.2958873e-38
0.003934145 -0.13517688 0.030134618 2.2958873e-38
0.0057980195 -0.13517688 0.030134618 2.3142544e-38
0.007661894 -0.13517688 0.030134618 2.3509876e-38
0.0095257685 -0.13517688 0.030134618 2.3509149e-38
0.011254959 -0.13437669 0.033147037 2.2671819e-38
0.013113551 -0.13437669 0.033147037 1.888639e-38
0.015117392 -0.13517688 0.030134618 1.7498412e-38
0.017183311 -0.13625093 0.026091278 1.8230935e-38
0.019054271 -0.13625093 0.026091278 1.8503919e-38
0.02146076 -0.13891099 0.016077101 1.8592878e-38
0.023514692 -0.13970654 0.013082207 1.9237883e-38
0.025633063 -0.14075352 0.0091406712 1.8779052e-38
0.027711932 -0.14155935 0.0061070332 1.8041484e-38
0.029617939 -0.14155935 0.0061070332 1.7304282e-38
0.031706493 -0.14233841 0.0031741271 1.739648e-38
0.033617634 -0.14233841 0.0031741271 1.7580873e-38
0.035792727 -0.14340474 -0.00084024575 1.7764908e-38
0.037710909 -0.14340474 -0.00084024575 1.8225886e-38
0.039629091 -0.14340474 -0.00084024575 1.8595751e-38
0.041547272 -0.14340474 -0.00084024575 1.8781224e-38
0.043465462 -0.14340474 -0.00084024575 1.7032389e-38
0.045084503 -0.14233841 0.0031741271 1.7034918e-38
0.046771955 -0.14155935 0.0061070332 1.6577907e-38
0.048677951 -0.14155935 0.0061070332 1.2987325e-38
-0.035167739 -0.14907773 -0.014882981 2.3509158e-38
-0.033224933 -0.14907773 -0.014882981 2.2588648e-38
-0.031295415 -0.14826734 -0.011852204 2.341805e-38
-0.029357925 -0.14826734 -0.011852204 2.341805e-38
-0.027451798 -0.14720438 -0.0078768125 2.2957431e-38
-0.025521278 -0.14720438 -0.0078768125 2.3234018e-38
-0.023635738 -0.14614908 -0.0039300313 2.341805e-38
-0.021712137 -0.14614908 -0.0039300313 2.2588648e-38
-0.019834585 -0.14532293 -0.00084024575 2.3049626e-38
-0.017916402 -0.14532293 -0.00084024575 2.3234379e-38
-0.016072122 -0.14424954 0.0031741271 2.341805e-38
-0.01416098 -0.14424954 0.0031741271 2.3234379e-38
-0.012314113 -0.14346536 0.0061070332 2.3141822e-38
-0.010479918 -0.1426542 0.0091406712 2.2958151e-38
-0.0085792337 -0.1426542 0.0091406712 2.341805e-38
-0.0067856684 -0.1416003 0.013082207 2.3509886e-38
-0.0049785394 -0.14079951 0.016077101 2.3508809e-38
-0.0032129139 -0.13972856 0.020082414 2.3137513e-38
-0.001331415 -0.13972856 0.020082414 2.3509168e-38
0.00044513866 -0.13890781 0.023151934 2.3234379e-38
0.0022156052 -0.13812189 0.026091278 2.2591172e-38
0.003934145 -0.13704078 0.030134618 2.2591531e-38
0.0057980195 -0.13704078 0.030134618 2.2958873e-38
0.007661894 -0.13704078 0.030134618 2.3509879e-38
0.0095257685 -0.13704078 0.030134618 2.3507708e-38
0.011254959 -0.13623528 0.033147037 2.0181096e-38
0.013113551 -0.13623528 0.033147037 1.77786e-38
0.015117392 -0.13704078 0.030134618 1.7312579e-38
0.017183311 -0.13812189 0.026091278 1.832133e-38
0.019206304 -0.13890781 0.023151934 1.8870904e-38
0.021246571 -0.13972856 0.020082414 1.8223376e-38
0.023349281 -0.14079951 0.016077101 1.8868382e-38
0.025633063 -0.1426542 0.0091406712 1.7947493e-38
0.027711932 -0.14346536 0.0061070332 1.7948565e-38
0.029795345 -0.14424954 0.0031741271 1.77649e-38
0.031706493 -0.14424954 0.0031741271 1.7673067e-38
0.033874545 -0.14532293 -0.00084024575 1.7580517e-38
0.035792727 -0.14532293 -0.00084024575 1.7489403e-38
0.037710909 -0.14532293 -0.00084024575 1.7857106e-38
0.039629091 -0.14532293 -0.00084024575 1.7858185e-38
0.041547272 -0.14532293 -0.00084024575 1.8319524e-38
0.043465462 -0.14532293 -0.00084024575 1.8137295e-38
0.045084503 -0.14424954 0.0031741271 1.7218225e-38
0.046995655 -0.14424954 0.0031741271 1.6761214e-38
0.048906788 -0.14424954 0.0031741271 1.3723811e-38
-0.02938232 -0.14913492 -0.0078768125 2.2680478e-38
-0.027451798 -0.14913492 -0.0078768125 2.3509883e-38
-0.025521278 -0.14913492 -0.0078768125 2.3509883e-38
-0.023670951 -0.1472411 -0.00084024575 2.3509883e-38
-0.021752767 -0.1472411 -0.00084024575 2.3418047e-38
-0.019834585 -0.1472411 -0.00084024575 2.3418047e-38
-0.017983267 -0.14616071 0.0031741271 2.3234376e-38
-0.016072122 -0.14616071 0.0031741271 2.2958507e-38
-0.01416098 -0.14616071 0.0031741271 2.2958151e-38
-0.0123806 -0.14455487 0.0091406712 2.3050347e-38
-0.010479918 -0.14455487 0.0091406712 2.3142542e-38
-0.0086794421 -0.14349405 0.013082207 2.3050347e-38
-0.0068670604 -0.14268802 0.016077101 2.3233299e-38
-0.0049785394 -0.14268802 0.016077101 2.3508451e-38
-0.0032129139 -0.14161004 0.020082414 2.3507733e-38
-0.0014309809 -0.14078392 0.023151934 2.3509168e-38
0.00034464151 -0.13999285 0.026091278 2.3142544e-38
0.0022156052 -0.13999285 0.026091278 2.2775202e-38
0.003934145 -0.13890465 0.030134618 2.2591531e-38
0.0057980195 -0.13890465 0.030134618 2.2867037e-38
0.007661894 -0.13890465 0.030134618 2.3325847e-38
0.0095257685 -0.13890465 0.030134618 2.350879e-38
0.011389643 -0.13890465 0.030134618 1.8889635e-38
0.013253517 -0.13890465 0.030134618 1.6578615e-38
0.015117392 -0.13890465 0.030134618 1.7311137e-38
0.017183311 -0.13999285 0.026091278 1.8228774e-38
0.019206304 -0.14078392 0.023151934 1.8041143e-38
0.021246571 -0.14161004 0.020082414 1.7117032e-38
0.023349281 -0.14268802 0.016077101 1.7485447e-38
0.025408462 -0.14349405 0.013082207 1.7209928e-38
0.027711932 -0.14537133 0.0061070332 1.7579782e-38
0.029795345 -0.14616071 0.0031741271 1.8041131e-38
0.031956363 -0.1472411 -0.00084024575 1.8318082e-38
0.033874545 -0.1472411 -0.00084024575 1.7950381e-38
0.035792727 -0.1472411 -0.00084024575 1.7489766e-38
0.03791948 -0.14807267 -0.0039300313 1.7489047e-38
0.039843079 -0.14807267 -0.0039300313 1.7581599e-38
0.041766685 -0.14807267 -0.0039300313 1.8042577e-38
0.043465462 -0.1472411 -0.00084024575 1.8044379e-38
0.045383643 -0.1472411 -0.00084024575 1.7401535e-38
0.047301829 -0.1472411 -0.00084024575 1.6760492e-38
0.049220011 -0.1472411 -0.00084024575 1.3630534e-38
-0.027482938 -0.1499963 -0.0039300313 2.3509876e-38
-0.02555934 -0.1499963 -0.0039300313 2.3141092e-38
-0.023670951 -0.1491593 -0.00084024575 2.2679758e-38
-0.021752767 -0.1491593 -0.00084024575 2.3418042e-38
-0.019894412 -0.14807184 0.0031741271 2.350988e-38
-0.017983267 -0.14807184 0.0031741271 2.3418045e-38
-0.016126119 -0.14727734 0.0061070332 2.3418045e-38
-0.014220117 -0.14727734 0.0061070332 2.3418047e-38
-0.0123806 -0.14645557 0.0091406712 2.3418047e-38
-0.010573214 -0.14538784 0.013082207 2.3418047e-38
-0.0087555815 -0.14457656 0.016077101 2.3234376e-38
-0.0068670604 -0.14457656 0.016077101 2.3509883e-38
-0.0050944127 -0.14349155 0.020082414 2.3507362e-38
-0.0032129139 -0.14349155 0.020082414 2.3508445e-38
-0.0014309809 -0.14266007 0.023151934 2.3509168e-38
0.00034464151 -0.14186381 0.026091278 2.2865602e-38
0.0020702742 -0.14076851 0.030134618 2.2867037e-38
0.003934145 -0.14076851 0.030134618 2.2775202e-38
0.0057980195 -0.14076851 0.030134618 2.2958873e-38
0.007661894 -0.14076851 0.030134618 2.3509879e-38
0.0095257685 -0.14076851 0.030134618 2.3508068e-38
0.011389643 -0.14076851 0.030134618 1.7505259e-38
0.013253517 -0.14076851 0.030134618 1.5747414e-38
0.015117392 -0.14076851 0.030134618 1.7862869e-38
0.017183311 -0.14186381 0.026091278 1.8504279e-38
0.019054271 -0.14186381 0.026091278 1.7856755e-38
0.020925235 -0.14186381 0.026091278 1.6933003e-38
0.022958539 -0.14266007 0.023151934 1.6840442e-38
0.025408462 -0.14538784 0.013082207 1.7026256e-38
0.027711932 -0.14727734 0.0061070332 1.7211723e-38
0.029795345 -0.14807184 0.0031741271 1.8134046e-38
0.031956363 -0.1491593 -0.00084024575 1.8872698e-38
0.033874545 -0.1491593 -0.00084024575 1.8780866e-38
0.035792727 -0.1491593 -0.00084024575 1.7952187e-38
0.03791948 -0.1499963 -0.0039300313 1.8043301e-38
0.039629091 -0.1491593 -0.00084024575 1.8503918e-38
0.041547272 -0.1491593 -0.00084024575 1.7858185e-38
0.043465462 -0.1491593 -0.00084024575 1.8504634e-38
0.045383643 -0.1491593 -0.00084024575 1.8138737e-38
0.047301829 -0.1491593 -0.00084024575 1.7681726e-38
0.049220011 -0.1491593 -0.00084024575 1.4367376e-38
-0.019894412 -0.14998297 0.0031741271 2.3508795e-38
-0.017983267 -0.14998297 0.0031741271 2.3509879e-38
-0.016126119 -0.14918335 0.0061070332 2.3509879e-38
-0.014220117 -0.14918335 0.0061070332 2.350988e-38
-0.0123806 -0.14835624 0.0091406712 2.3233652e-38
-0.010573214 -0.1472816 0.013082207 2.3048905e-38
-0.0087555815 -0.14646508 0.016077101 2.3234015e-38
-0.0068670604 -0.14646508 0.016077101 2.3509879e-38
-0.0050944127 -0.14537306 0.020082414 2.3507355e-38
-0.0032129139 -0.14537306 0.020082414 2.3508435e-38
-0.0014309809 -0.14453618 0.023151934 2.3508802e-38
0.00034464151 -0.14373477 0.026091278 2.3233302e-38
0.0020702742 -0.14263238 0.030134618 2.2958873e-38
0.003934145 -0.14263238 0.030134618 2.2683007e-38
0.0057980195 -0.14263238 0.030134618 2.3326213e-38
0.0075377747 -0.14181106 0.033147037 2.3509517e-38
0.0093963668 -0.14181106 0.033147037 2.2671822e-38
0.011254959 -0.14181106 0.033147037 1.6120521e-38
0.013113551 -0.14181106 0.033147037 1.574525e-38
0.015117392 -0.14263238 0.030134618 1.8046178e-38
0.017183311 -0.14373477 0.026091278 1.8135137e-38
0.019054271 -0.14373477 0.026091278 1.7856755e-38
0.020925235 -0.14373477 0.026091278 1.7395063e-38
0.022958539 -0.14453618 0.023151934 1.7026275e-38
0.025408462 -0.1472816 0.013082207 1.6934783e-38
0.027884204 -0.14998297 0.0031741271 1.6566717e-38
0.029795345 -0.14998297 0.0031741271 1.6936945e-38
-0.012466986 -0.14917539 0.013082207 2.3509879e-38
-0.010573214 -0.14917539 0.013082207 2.3509521e-38
-0.0087555815 -0.14835359 0.016077101 2.350988e-38
-0.0068670604 -0.14835359 0.016077101 2.3509514e-38
-0.0050944127 -0.14725454 0.020082414 2.3506265e-38
-0.0033070967 -0.1464123 0.023151934 2.3506984e-38
-0.0014309809 -0.1464123 0.023151934 2.2214454e-38
0.00034464151 -0.14560573 0.026091278 2.2862711e-38
0.0020702742 -0.14449625 0.030134618 2.341805e-38
0.003934145 -0.14449625 0.030134618 2.3325856e-38
0.005679179 -0.14366965 0.033147037 2.3508801e-38
0.0075377747 -0.14366965 0.033147037 2.3507715e-38
0.0093963668 -0.14366965 0.033147037 1.9441733e-38
0.011254959 -0.14366965 0.033147037 1.5287876e-38
0.013113551 -0.14366965 0.033147037 1.6204423e-38
0.015117392 -0.14449625 0.030134618 1.7860343e-38
0.017183311 -0.14560573 0.026091278 1.7028069e-38
0.019054271 -0.14560573 0.026091278 1.7395777e-38
0.021082424 -0.1464123 0.023151934 1.7396502e-38
0.022958539 -0.1464123 0.023151934 1.6935522e-38
-0.0050944127 -0.14913605 0.020082414 2.1012651e-38
-0.0033070967 -0.14828841 0.023151934 2.0827536e-38
-0.0015263222 -0.14747669 0.026091278 1.8432981e-38
0.00034464151 -0.14747669 0.026091278 2.0832598e-38
0.0020702742 -0.14636014 0.030134618 2.3509521e-38
0.003934145 -0.14636014 0.030134618 2.3509521e-38
0.005679179 -0.14552824 0.033147037 2.3507719e-38
0.0075377747 -0.14552824 0.033147037 2.2672187e-38
0.0093963668 -0.14552824 0.033147037 1.7227231e-38
0.011254959 -0.14552824 0.033147037 1.5470105e-38
0.013113551 -0.14552824 0.033147037 1.7032741e-38
0.015117392 -0.14636014 0.030134618 1.7951097e-38
0.016981263 -0.14636014 0.030134618 1.6936229e-38
0.019054271 -0.14747669 0.026091278 1.7487969e-38
0.021082424 -0.14828841 0.023151934 1.7305026e-38
0.022958539 -0.14828841 0.023151934 1.693624e-38
-0.0015263222 -0.14934768 0.026091278 1.8524085e-38
0.00034464151 -0.14934768 0.026091278 2.0831508e-38
0.0020702742 -0.14822401 0.030134618 2.3137849e-38
0.003934145 -0.14822401 0.030134618 2.3508435e-38
0.005679179 -0.14738683 0.033147037 2.3507714e-38
0.0075377747 -0.14738683 0.033147037 2.1010503e-38
0.0093963668 -0.14738683 0.033147037 1.7039956e-38
0.011389643 -0.14822401 0.030134618 1.611367e-38
0.013253517 -0.14822401 0.030134618 1.7675949e-38
0.015117392 -0.14822401 0.030134618 1.8411711e-38
0.016981263 -0.14822401 0.030134618 1.8225886e-38
0.019054271 -0.14934768 0.026091278 1.8225892e-38
