# .PCD v0.7 - Point Cloud Data file format
VERSION 0.7
FIELDS x y z rgb
SIZE 4 4 4 4
TYPE F F F F
COUNT 1 1 1 1
WIDTH 719
HEIGHT 1
VIEWPOINT 0 0 0 1 0 0 0
POINTS 719
DATA ascii
0.0019024462 -0.12117358 -0.050452758 1.8251481e-38
0.0038977899 -0.12117358 -0.050452758 1.8435156e-38
0.0058931299 -0.12117358 -0.050452758 1.9265636e-38
0.0078884736 -0.12117358 -0.050452758 1.9635137e-38
0.0098838173 -0.12117358 -0.050452758 1.9728772e-38
0.011879157 -0.12117358 -0.050452758 1.8532026e-38
0.013874501 -0.12117358 -0.050452758 2.2035474e-38
0.018750437 -0.1247278 -0.065524273 2.0098684e-38
0.020772204 -0.1247278 -0.065524273 1.3000334e-38
0.022793971 -0.1247278 -0.065524273 2.30779e-39
0.0019024462 -0.12316893 -0.050452758 2.3509517e-38
0.0038977899 -0.12316893 -0.050452758 2.3506998e-38
0.0058931299 -0.12316893 -0.050452758 2.3509158e-38
0.0078884736 -0.12316893 -0.050452758 2.3509517e-38
0.0098838173 -0.12316893 -0.050452758 2.3509876e-38
0.011667326 -0.12222783 -0.046491552 2.1942912e-38
0.013655722 -0.12222783 -0.046491552 2.341805e-38
0.015644118 -0.12222783 -0.046491552 2.3325138e-38
0.018282011 -0.12485488 -0.057549287 2.3416974e-38
0.020289801 -0.12485488 -0.057549287 2.2681214e-38
0.022540845 -0.1257834 -0.061457563 2.2775202e-38
0.024555482 -0.1257834 -0.061457563 2.1855053e-38
0.002040416 -0.12590279 -0.053538609 2.3509524e-38
0.0038977899 -0.12516426 -0.050452758 2.3508085e-38
0.0058931299 -0.12516426 -0.050452758 2.3508445e-38
0.007690534 -0.12421621 -0.046491552 2.3509521e-38
0.00967893 -0.12421621 -0.046491552 2.350988e-38
0.011450198 -0.12324448 -0.042431284 2.3049621e-38
0.013431475 -0.12324448 -0.042431284 2.3234018e-38
0.015644118 -0.12421621 -0.046491552 2.3509527e-38
0.017865188 -0.12516426 -0.050452758 2.3048197e-38
0.019860528 -0.12516426 -0.050452758 2.323402e-38
0.021855876 -0.12516426 -0.050452758 2.2221319e-38
0.023851216 -0.12516426 -0.050452758 2.2591531e-38
0.025846556 -0.12516426 -0.050452758 1.7430754e-38
0.0019024462 -0.12715961 -0.050452758 2.3509527e-38
0.0038977899 -0.12715961 -0.050452758 2.3509168e-38
0.0057021342 -0.12620462 -0.046491552 2.3508088e-38
0.007690534 -0.12620462 -0.046491552 2.3509527e-38
0.0094689205 -0.12522577 -0.042431284 2.3509883e-38
0.011241335 -0.12428416 -0.03852563 2.3418047e-38
0.013215765 -0.12428416 -0.03852563 2.3418047e-38
0.015190199 -0.12428416 -0.03852563 2.3509527e-38
0.017394036 -0.12522577 -0.042431284 2.3325497e-38
0.019375309 -0.12522577 -0.042431284 2.3234379e-38
0.021609314 -0.12620462 -0.046491552 2.2221678e-38
0.02359771 -0.12620462 -0.046491552 2.2314948e-38
0.025586106 -0.12620462 -0.046491552 2.2499695e-38
0.027036779 -0.12428416 -0.03852563 1.7154535e-38
0.029011212 -0.12428416 -0.03852563 6.3683648e-39
-9.2897564e-05 -0.12915494 -0.050452758 2.314075e-38
0.0019024462 -0.12915494 -0.050452758 2.3509527e-38
0.0037137382 -0.12819304 -0.046491552 2.3508809e-38
0.0057021342 -0.12819304 -0.046491552 2.3509168e-38
0.0074876398 -0.12720706 -0.042431284 2.3508809e-38
0.009111464 -0.12552883 -0.035520364 2.3324775e-38
0.011080623 -0.12552883 -0.035520364 2.3233299e-38
0.013049785 -0.12552883 -0.035520364 2.3141819e-38
0.015190199 -0.1262586 -0.03852563 2.3509876e-38
0.017164625 -0.1262586 -0.03852563 2.3509879e-38
0.019139059 -0.1262586 -0.03852563 2.341805e-38
0.02135659 -0.12720706 -0.042431284 2.3142544e-38
0.023337871 -0.12720706 -0.042431284 2.1853259e-38
0.025319144 -0.12720706 -0.042431284 2.2591531e-38
0.027036779 -0.1262586 -0.03852563 2.2316024e-38
0.029011212 -0.1262586 -0.03852563 1.2267813e-38
0.030985638 -0.1262586 -0.03852563 7.4736404e-39
-9.2897564e-05 -0.13115029 -0.050452758 2.3509168e-38
0.0019024462 -0.13115029 -0.050452758 2.3508451e-38
0.0037137382 -0.13018142 -0.046491552 2.3508451e-38
0.0051731393 -0.12749799 -0.035520364 2.3508451e-38
0.0071423016 -0.12749799 -0.035520364 2.3507732e-38
0.0089054927 -0.12652399 -0.031538177 2.3509168e-38
0.01086767 -0.12652399 -0.031538177 2.3509527e-38
0.012829848 -0.12652399 -0.031538177 2.350988e-38
0.014792025 -0.12652399 -0.031538177 2.3232206e-38
0.016988106 -0.12749799 -0.035520364 2.3509873e-38
0.018957272 -0.12749799 -0.035520364 2.3233652e-38
0.021113485 -0.12823303 -0.03852563 2.341805e-38
0.023337871 -0.12918831 -0.042431284 2.2865961e-38
0.025319144 -0.12918831 -0.042431284 2.1576318e-38
0.027300425 -0.12918831 -0.042431284 2.2591531e-38
0.029281706 -0.12918831 -0.042431284 1.8996652e-38
0.031262979 -0.12918831 -0.042431284 1.4479066e-38
0.032960072 -0.12823303 -0.03852563 5.5364462e-39
-0.0019833036 -0.12230472 -0.0064454582 2.2861282e-38
0.00042722374 -0.12501745 -0.017457416 2.1754213e-38
0.0028295182 -0.1274818 -0.027461102 2.1015932e-38
0.0047845505 -0.1274818 -0.027461102 2.0278723e-38
0.0067395791 -0.1274818 -0.027461102 2.0186527e-38
0.0086946115 -0.1274818 -0.027461102 2.193896e-38
0.01064964 -0.1274818 -0.027461102 2.3507726e-38
0.012604672 -0.1274818 -0.027461102 2.350916e-38
0.014559701 -0.1274818 -0.027461102 2.3324041e-38
0.01675421 -0.12848614 -0.031538177 2.3509873e-38
0.018716387 -0.12848614 -0.031538177 2.3325127e-38
0.020926431 -0.12946714 -0.035520364 2.2587929e-38
0.022895589 -0.12946714 -0.035520364 2.341805e-38
0.025062352 -0.13020746 -0.03852563 2.3142544e-38
0.027036779 -0.13020746 -0.03852563 2.2774484e-38
0.029011212 -0.13020746 -0.03852563 2.1760706e-38
0.030985638 -0.13020746 -0.03852563 1.9364347e-38
0.032960072 -0.13020746 -0.03852563 1.2541868e-38
-0.010014784 -0.12174667 0.0035354588 2.3138218e-38
-0.0081140995 -0.12174667 0.0035354588 2.3139297e-38
0.00042722374 -0.12695493 -0.017457416 2.3504848e-38
0.0023647137 -0.12695493 -0.017457416 2.3134266e-38
0.0043022074 -0.12695493 -0.017457416 2.2120114e-38
0.0063911453 -0.12770687 -0.020488193 2.1198155e-38
0.0085422024 -0.12870578 -0.024514487 2.2858755e-38
0.010492068 -0.12870578 -0.024514487 2.3508444e-38
0.012441929 -0.12870578 -0.024514487 2.3508802e-38
0.014559701 -0.12943684 -0.027461102 2.3509517e-38
0.016514733 -0.12943684 -0.027461102 2.3047098e-38
0.018716387 -0.13044833 -0.031538177 2.3509879e-38
0.020678565 -0.13044833 -0.031538177 2.3417327e-38
0.022895589 -0.1314363 -0.035520364 2.3141106e-38
0.024864756 -0.1314363 -0.035520364 2.341805e-38
0.027036779 -0.1321819 -0.03852563 2.3234379e-38
0.029011212 -0.1321819 -0.03852563 2.240499e-38
0.030985638 -0.1321819 -0.03852563 2.0193375e-38
0.03324426 -0.13315089 -0.042431284 2.0562879e-38
0.035225537 -0.13315089 -0.042431284 1.4662356e-38
-0.013816152 -0.12364738 0.0035354588 2.2580717e-38
-0.011915468 -0.12364738 0.0035354588 2.3504112e-38
-0.010014784 -0.12364738 0.0035354588 2.3508797e-38
-0.0081140995 -0.12364738 0.0035354588 2.3509156e-38
-0.0062134154 -0.12364738 0.0035354588 2.3508802e-38
-0.0039014854 -0.12614109 -0.0064454582 2.3508444e-38
-0.0019833036 -0.12614109 -0.0064454582 2.3508086e-38
-6.51218e-05 -0.12614109 -0.0064454582 2.3506287e-38
0.0019966252 -0.12691309 -0.0095352437 2.3506649e-38
0.0041105263 -0.12789918 -0.013482025 2.3501965e-38
0.0062396973 -0.12889244 -0.017457416 2.1566213e-38
0.0083339475 -0.12964968 -0.020488193 2.2580725e-38
0.010276753 -0.12964968 -0.020488193 2.3507359e-38
0.012219559 -0.12964968 -0.020488193 2.350592e-38
0.014391795 -0.13065563 -0.024514487 2.3509163e-38
0.016341656 -0.13065563 -0.024514487 2.267832e-38
0.018469766 -0.13139187 -0.027461102 2.3509521e-38
0.020678565 -0.13241051 -0.031538177 2.3509521e-38
0.022640742 -0.13241051 -0.031538177 2.332405e-38
0.024864756 -0.13340546 -0.035520364 2.3232936e-38
0.027036779 -0.13415633 -0.03852563 2.2864513e-38
0.029281706 -0.13513215 -0.042431284 2.2497173e-38
0.031262979 -0.13513215 -0.042431284 2.1483743e-38
0.03324426 -0.13513215 -0.042431284 2.2222031e-38
0.035823267 -0.13713633 -0.050452758 1.9733469e-38
0.037818607 -0.13713633 -0.050452758 7.5640087e-39
-0.019246953 -0.12805928 -0.0064454582 2.1937856e-38
-0.017731545 -0.12455635 0.0074769948 2.0826113e-38
-0.015837774 -0.12455635 0.0074769948 2.1930301e-38
-0.013816152 -0.12554805 0.0035354588 2.0916149e-38
-0.011915468 -0.12554805 0.0035354588 2.0179303e-38
-0.010014784 -0.12554805 0.0035354588 2.1563677e-38
-0.0081140995 -0.12554805 0.0035354588 2.01829e-38
-0.0062134154 -0.12554805 0.0035354588 1.9262387e-38
-0.0043127351 -0.12554805 0.0035354588 2.2859462e-38
-0.0021557473 -0.12704925 -0.0024310853 2.3508438e-38
-0.00024460256 -0.12704925 -0.0024310853 2.350628e-38
0.0018530637 -0.12805928 -0.0064454582 2.3507366e-38
0.0037712455 -0.12805928 -0.0064454582 2.3317574e-38
0.0060410462 -0.12982969 -0.013482025 2.101196e-38
0.0081771873 -0.13082992 -0.017457416 2.2303773e-38
0.010114677 -0.13082992 -0.017457416 2.3508434e-38
0.012052167 -0.13082992 -0.017457416 2.3508797e-38
0.014162362 -0.13159247 -0.020488193 2.3506646e-38
0.016341656 -0.13260551 -0.024514487 2.3509168e-38
0.018469766 -0.13334687 -0.027461102 2.3509524e-38
0.020678565 -0.1343727 -0.031538177 2.2956346e-38
0.022640742 -0.1343727 -0.031538177 2.3509879e-38
0.024864756 -0.13537462 -0.035520364 2.3509879e-38
0.027036779 -0.13613077 -0.03852563 2.323365e-38
0.029011212 -0.13613077 -0.03852563 2.1943273e-38
0.030985638 -0.13613077 -0.03852563 2.1113518e-38
0.03324426 -0.13711344 -0.042431284 2.3050349e-38
0.03552809 -0.138135 -0.046491552 2.3234379e-38
0.037516486 -0.138135 -0.046491552 9.4064864e-39
-0.021165134 -0.12997745 -0.0064454582 2.3509161e-38
-0.0195182 -0.12744872 0.0035354588 2.0554935e-38
-0.017731545 -0.12645011 0.0074769948 2.1931745e-38
-0.015837774 -0.12645011 0.0074769948 2.0266098e-38
-0.013816152 -0.12744872 0.0035354588 2.1922374e-38
-0.011915468 -0.12744872 0.0035354588 2.2013482e-38
-0.010014784 -0.12744872 0.0035354588 2.1646492e-38
-0.0081140995 -0.12744872 0.0035354588 2.035935e-38
-0.0062134154 -0.12744872 0.0035354588 1.8982898e-38
-0.0043127351 -0.12744872 0.0035354588 2.3413335e-38
-0.0021557473 -0.12896039 -0.0024310853 2.3509863e-38
-0.00024460256 -0.12896039 -0.0024310853 2.313965e-38
0.0016665421 -0.12896039 -0.0024310853 2.3508445e-38
0.0035776868 -0.12896039 -0.0024310853 2.0276199e-38
0.0058438256 -0.13076027 -0.0095352437 1.769436e-38
0.0079715662 -0.13176022 -0.013482025 1.8432994e-38
0.0099020861 -0.13176022 -0.013482025 2.3509504e-38
0.01183261 -0.13176022 -0.013482025 2.3509869e-38
0.013989657 -0.13276742 -0.017457416 2.3509168e-38
0.016105168 -0.13353528 -0.020488193 2.3509168e-38
0.018047974 -0.13353528 -0.020488193 2.3509886e-38
0.020424798 -0.1353019 -0.027461102 2.2957425e-38
0.022640742 -0.13633488 -0.031538177 2.3234372e-38
0.024602927 -0.13633488 -0.031538177 2.3234369e-38
0.027036779 -0.1381052 -0.03852563 2.3050698e-38
0.029011212 -0.1381052 -0.03852563 2.3141819e-38
0.030985638 -0.1381052 -0.03852563 2.019049e-38
0.03324426 -0.13909473 -0.042431284 2.3509168e-38
0.03552809 -0.14012341 -0.046491552 2.3508451e-38
0.037818607 -0.14112701 -0.050452758 1.4012315e-38
0.039813962 -0.14112701 -0.050452758 6.9139674e-39
-0.027059766 -0.13012333 0.00050182088 2.3505568e-38
-0.025220249 -0.12934943 0.0035354588 2.3506647e-38
-0.023319567 -0.12934943 0.0035354588 2.3507726e-38
-0.021418883 -0.12934943 0.0035354588 2.3414086e-38
-0.019625317 -0.1283439 0.0074769948 1.9447869e-38
-0.017731545 -0.1283439 0.0074769948 1.87031e-38
-0.015837774 -0.1283439 0.0074769948 1.934234e-38
-0.013816152 -0.12934943 0.0035354588 2.154927e-38
-0.012050226 -0.1283439 0.0074769948 2.1086483e-38
-0.010156456 -0.1283439 0.0074769948 2.1548888e-38
-0.0082626827 -0.1283439 0.0074769948 2.1461368e-38
-0.006368909 -0.1283439 0.0074769948 2.0086714e-38
-0.0044751391 -0.1283439 0.0074769948 2.3320049e-38
-0.002412051 -0.12934943 0.0035354588 2.3509497e-38
-0.00051136687 -0.12934943 0.0035354588 2.350987e-38
0.0013893172 -0.12934943 0.0035354588 2.3508444e-38
0.0034362711 -0.13012333 0.00050182088 1.833973e-38
0.0056894273 -0.13189565 -0.0064454582 1.6402179e-38
0.0077674277 -0.13268389 -0.0095352437 1.8063131e-38
0.0096910261 -0.13268389 -0.0095352437 2.3321508e-38
0.011614628 -0.13268389 -0.0095352437 2.313892e-38
0.013538226 -0.13268389 -0.0095352437 2.3509527e-38
0.015927151 -0.1347049 -0.017457416 2.3509527e-38
0.017864645 -0.1347049 -0.017457416 2.341805e-38
0.019990779 -0.13547809 -0.020488193 2.3234376e-38
0.022379823 -0.13725694 -0.027461102 2.3142537e-38
0.024602927 -0.13829704 -0.031538177 2.3142537e-38
0.026833914 -0.13931294 -0.035520364 2.3234374e-38
0.029011212 -0.14007963 -0.03852563 2.3326213e-38
0.030985638 -0.14007963 -0.03852563 2.3048194e-38
0.03324426 -0.14107598 -0.042431284 2.3508451e-38
0.03552809 -0.14211179 -0.046491552 2.3044968e-38
0.037818607 -0.14312236 -0.050452758 1.9173828e-38
0.039813962 -0.14312236 -0.050452758 1.1061329e-38
-0.030987952 -0.13023765 0.0074769948 1.9435622e-38
-0.02909418 -0.13023765 0.0074769948 1.9712573e-38
-0.027120933 -0.1312501 0.0035354588 2.3499076e-38
-0.025220249 -0.1312501 0.0035354588 2.3506277e-38
-0.023319567 -0.1312501 0.0035354588 2.3507355e-38
-0.021418883 -0.1312501 0.0035354588 2.3506992e-38
-0.019625317 -0.13023765 0.0074769948 1.9352425e-38
-0.017731545 -0.13023765 0.0074769948 1.9254832e-38
-0.015837774 -0.13023765 0.0074769948 2.026394e-38
-0.013944 -0.13023765 0.0074769948 2.1549273e-38
-0.012152623 -0.1294684 0.01047189 2.0348921e-38
-0.010264102 -0.1294684 0.01047189 2.0718771e-38
-0.0083755814 -0.1294684 0.01047189 2.0261749e-38
-0.0064870603 -0.1294684 0.01047189 1.8886015e-38
-0.0045985393 -0.1294684 0.01047189 2.230266e-38
-0.0027100146 -0.1294684 0.01047189 2.3508418e-38
-0.00082149357 -0.1294684 0.01047189 2.3506269e-38
0.0012061782 -0.13023765 0.0074769948 2.3504481e-38
0.0030999519 -0.13023765 0.0074769948 1.8152098e-38
0.0051906817 -0.1312501 0.0035354588 1.630746e-38
0.0073999763 -0.13278268 -0.0024310853 1.5939389e-38
0.009311121 -0.13278268 -0.0024310853 2.0183254e-38
0.01144398 -0.13381381 -0.0064454582 2.3509142e-38
0.013362162 -0.13381381 -0.0064454582 2.3509163e-38
0.01569365 -0.13562126 -0.013482025 2.3324778e-38
0.01762417 -0.13562126 -0.013482025 2.3509886e-38
0.019802131 -0.13664238 -0.017457416 2.3234376e-38
0.021933585 -0.13742088 -0.020488193 2.2958864e-38
0.024334855 -0.13921197 -0.027461102 2.2958864e-38
0.026833914 -0.1412821 -0.035520364 2.3234376e-38
0.029011212 -0.14205404 -0.03852563 2.3509883e-38
0.030985638 -0.14205404 -0.03852563 2.3509168e-38
0.03324426 -0.14305727 -0.042431284 2.3046396e-38
0.03552809 -0.1441002 -0.046491552 2.3508451e-38
0.037516486 -0.1441002 -0.046491552 1.9634079e-38
0.039813962 -0.14511769 -0.050452758 1.705368e-38
0.041809302 -0.14511769 -0.050452758 6.452978e-39
-0.032822981 -0.13315077 0.0035354588 1.8881358e-38
-0.030987952 -0.13213144 0.0074769948 1.9342337e-38
-0.02909418 -0.13213144 0.0074769948 1.9528173e-38
-0.027200408 -0.13213144 0.0074769948 2.174267e-38
-0.025220249 -0.13315077 0.0035354588 2.2667143e-38
-0.023412863 -0.13213144 0.0074769948 2.3498703e-38
-0.021519091 -0.13213144 0.0074769948 2.350194e-38
-0.019706709 -0.13135691 0.01047189 1.870417e-38
-0.017818188 -0.13135691 0.01047189 1.9991678e-38
-0.015929665 -0.13135691 0.01047189 2.0079552e-38
-0.014041144 -0.13135691 0.01047189 2.0444367e-38
-0.012152623 -0.13135691 0.01047189 2.0718066e-38
-0.010408066 -0.13032107 0.014477203 2.1455981e-38
-0.0085265674 -0.13032107 0.014477203 1.9800413e-38
-0.0066450685 -0.13032107 0.014477203 1.8976413e-38
-0.0047635697 -0.13032107 0.014477203 2.3499042e-38
-0.0027100146 -0.13135691 0.01047189 2.350806e-38
-0.00082149357 -0.13135691 0.01047189 2.3507708e-38
0.0010670274 -0.13135691 0.01047189 2.3505561e-38
0.0029555485 -0.13135691 0.01047189 1.9254481e-38
0.0048440695 -0.13135691 0.01047189 1.6211663e-38
0.0070913658 -0.13315077 0.0035354588 1.3261754e-38
0.0091542788 -0.13393532 0.00050182088 1.556915e-38
0.011060279 -0.13393532 0.00050182088 2.3506619e-38
0.012966283 -0.13393532 0.00050182088 2.3509153e-38
0.015461825 -0.13653107 -0.0095352437 2.3416245e-38
0.01762417 -0.1375518 -0.013482025 2.350952e-38
0.019802131 -0.13857989 -0.017457416 2.3418047e-38
0.021933585 -0.13936369 -0.020488193 2.2865955e-38
0.024334855 -0.141167 -0.027461102 2.2958151e-38
0.026833914 -0.14325126 -0.035520364 2.341805e-38
0.028803073 -0.14325126 -0.035520364 2.3325492e-38
0.030772239 -0.14325126 -0.035520364 2.3416248e-38
0.032960072 -0.14402847 -0.03852563 2.3509163e-38
0.035225537 -0.14503856 -0.042431284 2.3506643e-38
0.03720681 -0.14503856 -0.042431284 1.8896504e-38
0.039504882 -0.14608859 -0.046491552 1.6132074e-38
0.041493293 -0.14608859 -0.046491552 8.2961676e-39
-0.032881726 -0.1340252 0.0074769948 1.8695522e-38
-0.030987952 -0.1340252 0.0074769948 1.9527083e-38
-0.02909418 -0.1340252 0.0074769948 2.0358285e-38
-0.027200408 -0.1340252 0.0074769948 2.1651182e-38
-0.025306635 -0.1340252 0.0074769948 2.1006892e-38
-0.023412863 -0.1340252 0.0074769948 2.0730665e-38
-0.021519091 -0.1340252 0.0074769948 2.1837369e-38
-0.019706709 -0.13324542 0.01047189 1.8978231e-38
-0.017818188 -0.13324542 0.01047189 1.9990958e-38
-0.015929665 -0.13324542 0.01047189 1.9804408e-38
-0.014171064 -0.13220255 0.014477203 1.9984832e-38
-0.012289565 -0.13220255 0.014477203 2.0719865e-38
-0.010518394 -0.13140334 0.017546723 2.1365586e-38
-0.0086422786 -0.13140334 0.017546723 1.9800416e-38
-0.0067661628 -0.13140334 0.017546723 1.8975334e-38
-0.0048900433 -0.13140334 0.017546723 2.2296902e-38
-0.0028820708 -0.13220255 0.014477203 2.3499415e-38
-0.001000572 -0.13220255 0.014477203 2.3504828e-38
0.00088092685 -0.13220255 0.014477203 2.3503756e-38
0.0029555485 -0.13324542 0.01047189 2.0172472e-38
0.0048440695 -0.13324542 0.01047189 1.8420033e-38
0.0068874955 -0.1340252 0.0074769948 1.6668667e-38
0.0089920498 -0.13505147 0.0035354588 1.6762653e-38
0.010892734 -0.13505147 0.0035354588 2.3220666e-38
0.012966283 -0.13584132 0.00050182088 2.3508783e-38
0.015461825 -0.13845469 -0.0095352437 2.3509869e-38
0.017385431 -0.13845469 -0.0095352437 2.3509876e-38
0.01955469 -0.1394823 -0.013482025 2.3509883e-38
0.021739624 -0.14051737 -0.017457416 2.3233662e-38
0.023876384 -0.1413065 -0.020488193 2.341805e-38
0.026289888 -0.14312203 -0.027461102 2.3509886e-38
0.028527282 -0.14418359 -0.031538177 2.3325131e-38
0.03048946 -0.14418359 -0.031538177 2.3139294e-38
0.032741398 -0.14522041 -0.035520364 2.3509511e-38
0.034934502 -0.1460029 -0.03852563 2.3506989e-38
0.036908936 -0.1460029 -0.03852563 1.594659e-38
0.039504882 -0.148077 -0.046491552 1.4472185e-38
0.041809302 -0.14910837 -0.050452758 8.9411712e-39
0.043804642 -0.14910837 -0.050452758 7.7437168e-39
-0.032881726 -0.13591899 0.0074769948 1.8695522e-38
-0.030987952 -0.13591899 0.0074769948 1.8145225e-38
-0.02909418 -0.13591899 0.0074769948 1.7502376e-38
-0.027200408 -0.13591899 0.0074769948 1.9624318e-38
-0.025306635 -0.13591899 0.0074769948 1.9809425e-38
-0.023412863 -0.13591899 0.0074769948 1.9624674e-38
-0.02159523 -0.13513394 0.01047189 1.9900539e-38
-0.01981556 -0.13408406 0.014477203 1.9530683e-38
-0.017934062 -0.13408406 0.014477203 1.9622898e-38
-0.016052563 -0.13408406 0.014477203 1.989769e-38
-0.01427063 -0.13327946 0.017546723 2.007883e-38
-0.01239451 -0.13327946 0.017546723 1.9892989e-38
-0.010518394 -0.13327946 0.017546723 2.0168848e-38
-0.0086422786 -0.13327946 0.017546723 1.9801139e-38
-0.0067661628 -0.13327946 0.017546723 1.915793e-38
-0.0048900433 -0.13327946 0.017546723 1.89757e-38
-0.0030139275 -0.13327946 0.017546723 1.8145951e-38
-0.0011378117 -0.13327946 0.017546723 1.8790605e-38
0.00073830783 -0.13327946 0.017546723 1.9525656e-38
0.0027624257 -0.13408406 0.014477203 1.8233478e-38
0.0046439245 -0.13408406 0.014477203 1.8969599e-38
0.0067325905 -0.13513394 0.01047189 1.777141e-38
0.0087812692 -0.13591899 0.0074769948 1.6390266e-38
0.010892734 -0.13695215 0.0035354588 1.9621431e-38
0.012966283 -0.13774733 0.00050182088 2.3409735e-38
0.015461825 -0.14037828 -0.0095352437 2.3509859e-38
0.017385431 -0.14037828 -0.0095352437 2.3509511e-38
0.01955469 -0.14141284 -0.013482025 2.3509161e-38
0.021739624 -0.14245488 -0.017457416 2.3509527e-38
0.023677111 -0.14245488 -0.017457416 2.3509527e-38
0.026289888 -0.14507706 -0.027461102 2.3509527e-38
0.028527282 -0.14614578 -0.031538177 2.3509524e-38
0.03048946 -0.14614578 -0.031538177 2.3509511e-38
0.032451637 -0.14614578 -0.031538177 2.3509863e-38
0.034710553 -0.1471896 -0.035520364 2.3230391e-38
0.036679726 -0.1471896 -0.035520364 1.3365459e-38
0.038883355 -0.14797734 -0.03852563 1.4195231e-38
-0.032881726 -0.13781275 0.0074769948 1.7682451e-38
-0.030987952 -0.13781275 0.0074769948 1.9068986e-38
-0.02909418 -0.13781275 0.0074769948 1.768965e-38
-0.027200408 -0.13781275 0.0074769948 1.9166941e-38
-0.025306635 -0.13781275 0.0074769948 1.9812307e-38
-0.023483751 -0.13702248 0.01047189 2.1563664e-38
-0.02159523 -0.13702248 0.01047189 2.1100167e-38
-0.01981556 -0.13596557 0.014477203 2.1284206e-38
-0.018022863 -0.13515557 0.017546723 2.045482e-38
-0.016146746 -0.13515557 0.017546723 1.9439591e-38
-0.01427063 -0.13515557 0.017546723 1.8976087e-38
-0.012495007 -0.13437997 0.020486066 1.9250865e-38
-0.010624044 -0.13437997 0.020486066 1.9434166e-38
-0.0087530799 -0.13437997 0.020486066 2.0263202e-38
-0.0068821199 -0.13437997 0.020486066 2.0448669e-38
-0.0050111562 -0.13437997 0.020486066 1.8973542e-38
-0.0031401925 -0.13437997 0.020486066 1.9434166e-38
-0.0011378117 -0.13515557 0.017546723 1.8418219e-38
0.00073830783 -0.13515557 0.017546723 1.8140195e-38
0.0026144236 -0.13515557 0.017546723 1.9521332e-38
0.0044905394 -0.13515557 0.017546723 1.9981944e-38
0.0065254234 -0.13596557 0.014477203 1.8230582e-38
0.0086211115 -0.13702248 0.01047189 1.7032752e-38
0.010675043 -0.13781275 0.0074769948 1.7683156e-38
0.012966283 -0.13965334 0.00050182088 2.036547e-38
0.015280344 -0.14148657 -0.0064454582 2.3507688e-38
0.017385431 -0.14230187 -0.0095352437 2.3509149e-38
0.01955469 -0.14334334 -0.013482025 2.3507362e-38
0.021739624 -0.14439236 -0.017457416 2.3508809e-38
0.023677111 -0.14439236 -0.017457416 2.3508809e-38
0.02609098 -0.14625455 -0.024514487 2.3323702e-38
0.02824492 -0.1470321 -0.027461102 2.3509521e-38
0.03048946 -0.14810793 -0.031538177 2.3509507e-38
0.032451637 -0.14810793 -0.031538177 2.3508053e-38
0.034710553 -0.14915876 -0.035520364 1.9911696e-38
0.036679726 -0.14915876 -0.035520364 1.4933135e-38
0.038883355 -0.14995177 -0.03852563 1.2259473e-38
0.040857788 -0.14995177 -0.03852563 8.5716614e-39
-0.032881726 -0.13970654 0.0074769948 1.7684258e-38
-0.031037837 -0.13891099 0.01047189 2.3503022e-38
-0.029149316 -0.13891099 0.01047189 2.3508065e-38
-0.027260795 -0.13891099 0.01047189 2.3508425e-38
-0.025372272 -0.13891099 0.01047189 2.3227154e-38
-0.023483751 -0.13891099 0.01047189 2.3508424e-38
-0.021697059 -0.13784705 0.014477203 2.3506986e-38
-0.01997886 -0.13625093 0.020486066 2.3507349e-38
-0.018107899 -0.13625093 0.020486066 2.3505563e-38
-0.016236935 -0.13625093 0.020486066 2.10098e-38
-0.014365971 -0.13625093 0.020486066 1.9071885e-38
-0.012495007 -0.13625093 0.020486066 1.9716164e-38
-0.010624044 -0.13625093 0.020486066 1.8884595e-38
-0.0087530799 -0.13625093 0.020486066 1.8698759e-38
-0.0068821199 -0.13625093 0.020486066 1.9895498e-38
-0.0050111562 -0.13625093 0.020486066 1.8971744e-38
-0.0031401925 -0.13625093 0.020486066 1.8602244e-38
-0.0011378117 -0.13703169 0.017546723 1.9153979e-38
0.00073830783 -0.13703169 0.017546723 1.8322423e-38
0.0026144236 -0.13703169 0.017546723 1.8045473e-38
0.0044905394 -0.13703169 0.017546723 1.7583415e-38
0.0063666552 -0.13703169 0.017546723 1.8136942e-38
0.0084069222 -0.13784705 0.014477203 1.8597917e-38
0.010509633 -0.13891099 0.01047189 1.6482449e-38
0.012966283 -0.14155935 0.00050182088 1.7966217e-38
0.015044555 -0.14233841 -0.0024310853 2.3504081e-38
0.017198525 -0.14340474 -0.0064454582 2.3508783e-38
0.019309029 -0.14422549 -0.0095352437 2.3506276e-38
0.021485209 -0.14527388 -0.013482025 2.3508451e-38
0.023415729 -0.14527388 -0.013482025 2.3508451e-38
0.02609098 -0.14820443 -0.024514487 2.3137869e-38
0.028040841 -0.14820443 -0.024514487 2.3509161e-38
0.030199945 -0.14898713 -0.027461102 2.3509502e-38
-0.031037837 -0.14079951 0.01047189 2.3500872e-38
-0.029149316 -0.14079951 0.01047189 2.3509153e-38
-0.027544241 -0.13704078 0.024529407 2.3509873e-38
-0.025680367 -0.13704078 0.024529407 2.3415881e-38
-0.023816492 -0.13704078 0.024529407 2.3509156e-38
-0.02195262 -0.13704078 0.024529407 2.3508438e-38
-0.020170612 -0.13623528 0.027541826 2.3508082e-38
-0.01831202 -0.13623528 0.027541826 2.3507367e-38
-0.016360998 -0.13704078 0.024529407 2.3507366e-38
-0.014365971 -0.13812189 0.020486066 2.1472933e-38
-0.012495007 -0.13812189 0.020486066 2.0918672e-38
-0.010624044 -0.13812189 0.020486066 1.8243189e-38
-0.0087530799 -0.13812189 0.020486066 1.7503458e-38
-0.0068821199 -0.13812189 0.020486066 1.7960833e-38
-0.0050111562 -0.13812189 0.020486066 1.7957592e-38
-0.0030139275 -0.13890781 0.017546723 1.8969586e-38
-0.0011378117 -0.13890781 0.017546723 1.8599364e-38
0.00073830783 -0.13890781 0.017546723 1.8597923e-38
0.0026144236 -0.13890781 0.017546723 1.822914e-38
0.0044905394 -0.13890781 0.017546723 1.776744e-38
0.0063666552 -0.13890781 0.017546723 1.7859992e-38
0.0084069222 -0.13972856 0.014477203 1.7675598e-38
0.010509633 -0.14079951 0.01047189 1.5927835e-38
0.012793414 -0.1426542 0.0035354588 1.5106346e-38
0.014872283 -0.14346536 0.00050182088 2.110339e-38
0.017198525 -0.14532293 -0.0064454582 2.3508416e-38
0.019116715 -0.14532293 -0.0064454582 2.3508075e-38
0.021232627 -0.14614908 -0.0095352437 2.3507369e-38
0.023156233 -0.14614908 -0.0095352437 2.3507733e-38
0.02581919 -0.14907773 -0.020488193 2.350701e-38
0.027761996 -0.14907773 -0.020488193 2.3229332e-38
-0.029573552 -0.13648613 0.033515643 2.3509524e-38
-0.027725434 -0.13648613 0.033515643 2.3142542e-38
-0.025877316 -0.13648613 0.033515643 2.3234379e-38
-0.024029197 -0.13648613 0.033515643 2.3509886e-38
-0.022105357 -0.13728772 0.030537197 2.3509167e-38
-0.02033296 -0.13648613 0.033515643 2.3508089e-38
-0.018484844 -0.13648613 0.033515643 2.350773e-38
-0.016545337 -0.13728772 0.030537197 2.3508448e-38
-0.014594838 -0.13809387 0.027541826 2.3413723e-38
-0.012633249 -0.13890465 0.024529407 2.267507e-38
-0.010769375 -0.13890465 0.024529407 1.9445335e-38
-0.0087530799 -0.13999285 0.020486066 1.667622e-38
-0.0068821199 -0.13999285 0.020486066 1.7500218e-38
-0.0050111562 -0.13999285 0.020486066 1.8695159e-38
-0.0030139275 -0.14078392 0.017546723 1.8875949e-38
-0.0011378117 -0.14078392 0.017546723 1.8505724e-38
0.00073830783 -0.14078392 0.017546723 1.841281e-38
0.0026144236 -0.14078392 0.017546723 1.8044383e-38
0.0044905394 -0.14078392 0.017546723 1.7675598e-38
0.0063666552 -0.14078392 0.017546723 1.804438e-38
0.0082427748 -0.14078392 0.017546723 1.8320245e-38
0.010288421 -0.14161004 0.014477203 1.6756517e-38
0.012568813 -0.14349405 0.0074769948 1.482688e-38
0.014872283 -0.14537133 0.00050182088 1.8334997e-38
0.016955696 -0.14616071 -0.0024310853 2.2669287e-38
0.019116715 -0.1472411 -0.0064454582 2.3504468e-38
0.021034896 -0.1472411 -0.0064454582 2.3507723e-38
0.023156233 -0.14807267 -0.0095352437 2.3506647e-38
-0.031421669 -0.13833423 0.033515643 2.3509165e-38
-0.029573552 -0.13833423 0.033515643 2.2589374e-38
-0.027725434 -0.13833423 0.033515643 2.2406783e-38
-0.025877316 -0.13833423 0.033515643 2.2867037e-38
-0.024029197 -0.13833423 0.033515643 2.2958873e-38
-0.022181079 -0.13833423 0.033515643 2.2865602e-38
-0.02033296 -0.13833423 0.033515643 2.3509527e-38
-0.018484844 -0.13833423 0.033515643 2.3415179e-38
-0.016636726 -0.13833423 0.033515643 2.3509168e-38
-0.014594838 -0.13995247 0.027541826 2.3509521e-38
-0.012736246 -0.13995247 0.027541826 2.3509513e-38
-0.010769375 -0.14076851 0.024529407 2.1200656e-38
-0.0087530799 -0.14186381 0.020486066 1.6309242e-38
-0.0068821199 -0.14186381 0.020486066 1.6486429e-38
-0.0050111562 -0.14186381 0.020486066 1.8325657e-38
-0.0030139275 -0.14266007 0.017546723 1.8874509e-38
-0.0011378117 -0.14266007 0.017546723 1.8504282e-38
0.00073830783 -0.14266007 0.017546723 1.8227692e-38
0.0026144236 -0.14266007 0.017546723 1.7675598e-38
0.0044905394 -0.14266007 0.017546723 1.7215337e-38
0.0063666552 -0.14266007 0.017546723 1.7768511e-38
0.0082427748 -0.14266007 0.017546723 1.8136576e-38
0.010118891 -0.14266007 0.017546723 1.7032744e-38
0.012568813 -0.14538784 0.0074769948 1.6023261e-38
0.014694102 -0.14645557 0.0035354588 1.694954e-38
0.016955696 -0.14807184 -0.0024310853 2.1191633e-38
0.019116715 -0.1491593 -0.0064454582 2.3502658e-38
0.021034896 -0.1491593 -0.0064454582 2.3504474e-38
0.023156233 -0.1499963 -0.0095352437 2.258036e-38
-0.031489205 -0.1390769 0.03757019 2.3233302e-38
-0.029648196 -0.1390769 0.03757019 2.2589737e-38
-0.027807187 -0.1390769 0.03757019 2.2775202e-38
-0.025966177 -0.1390769 0.03757019 2.2867037e-38
-0.024125168 -0.1390769 0.03757019 2.2683366e-38
-0.022284159 -0.1390769 0.03757019 2.2682649e-38
-0.020443151 -0.1390769 0.03757019 2.3234379e-38
-0.018602142 -0.1390769 0.03757019 2.3508809e-38
-0.016636726 -0.14018236 0.033515643 2.3048194e-38
-0.014691997 -0.14099441 0.030537197 2.341805e-38
-0.012736246 -0.14181106 0.027541826 2.3418043e-38
-0.010877654 -0.14181106 0.027541826 2.2861981e-38
-0.0087530799 -0.14373477 0.020486066 1.7140446e-38
-0.0068821199 -0.14373477 0.020486066 1.6025455e-38
-0.0050111562 -0.14373477 0.020486066 1.7586656e-38
-0.0030139275 -0.14453618 0.017546723 1.8872712e-38
-0.0011378117 -0.14453618 0.017546723 1.8778708e-38
0.00073830783 -0.14453618 0.017546723 1.8319527e-38
0.0026144236 -0.14453618 0.017546723 1.7859267e-38
0.0044905394 -0.14453618 0.017546723 1.693875e-38
0.0063666552 -0.14453618 0.017546723 1.7307533e-38
0.0082427748 -0.14453618 0.017546723 1.7491206e-38
0.010118891 -0.14453618 0.017546723 1.6662163e-38
0.012398154 -0.14646508 0.01047189 1.4914399e-38
0.014462583 -0.1472816 0.0074769948 1.3535065e-38
0.016955696 -0.14998297 -0.0024310853 1.740909e-38
-0.038814142 -0.14203046 0.033515643 2.3508787e-38
-0.036966022 -0.14203046 0.033515643 2.3509869e-38
-0.035117906 -0.14203046 0.033515643 2.3509157e-38
-0.033374015 -0.14011143 0.040509295 2.3232936e-38
-0.031538159 -0.14011143 0.040509295 2.341805e-38
-0.029702304 -0.14011143 0.040509295 2.3234379e-38
-0.027866449 -0.14011143 0.040509295 2.3142544e-38
-0.026030593 -0.14011143 0.040509295 2.3142544e-38
-0.024194738 -0.14011143 0.040509295 2.3142544e-38
-0.022358881 -0.14011143 0.040509295 2.286632e-38
-0.020443151 -0.14091791 0.03757019 2.3417691e-38
-0.018602142 -0.14091791 0.03757019 2.3508809e-38
-0.016761132 -0.14091791 0.03757019 2.3047837e-38
-0.014788609 -0.14203046 0.033515643 2.3050708e-38
-0.012838658 -0.14284773 0.030537197 2.3050701e-38
-0.010877654 -0.14366965 0.027541826 2.3509153e-38
-0.0089055039 -0.14449625 0.024529407 1.8339712e-38
-0.0068821199 -0.14560573 0.020486066 1.6116935e-38
-0.0050111562 -0.14560573 0.020486066 1.7584861e-38
-0.0030139275 -0.1464123 0.017546723 1.8962749e-38
-0.0011378117 -0.1464123 0.017546723 1.896166e-38
0.00073830783 -0.1464123 0.017546723 1.8686867e-38
0.0026144236 -0.1464123 0.017546723 1.8043656e-38
0.0044905394 -0.1464123 0.017546723 1.7123141e-38
0.0063666552 -0.1464123 0.017546723 1.7032026e-38
0.0082427748 -0.1464123 0.017546723 1.7397935e-38
0.010118891 -0.1464123 0.017546723 1.6384859e-38
0.01216992 -0.14725454 0.014477203 1.6756157e-38
0.014462583 -0.14917539 0.0074769948 1.3624384e-38
-0.040662259 -0.14387859 0.033515643 2.1943261e-38
-0.038814142 -0.14387859 0.033515643 2.3326196e-38
-0.037012231 -0.14275892 0.03757019 2.2958856e-38
-0.035209872 -0.14194728 0.040509295 2.3234372e-38
-0.033374015 -0.14194728 0.040509295 2.3418047e-38
-0.031538159 -0.14194728 0.040509295 2.341805e-38
-0.029758098 -0.14111041 0.043539833 2.3509527e-38
-0.027927555 -0.14111041 0.043539833 2.3047838e-38
-0.026097013 -0.14111041 0.043539833 2.3509527e-38
-0.02426647 -0.14111041 0.043539833 2.3509527e-38
-0.022435928 -0.14111041 0.043539833 2.3325856e-38
-0.020605385 -0.14111041 0.043539833 2.3048554e-38
-0.01868717 -0.14194728 0.040509295 2.3508809e-38
-0.016761132 -0.14275892 0.03757019 2.3509168e-38
-0.014920123 -0.14275892 0.03757019 2.2958873e-38
-0.012940489 -0.14387859 0.033515643 2.2867036e-38
-0.011092372 -0.14387859 0.033515643 2.34166e-38
-0.0090190619 -0.14552824 0.027541826 1.9353867e-38
-0.0070416294 -0.14636014 0.024529407 1.6116219e-38
-0.0050111562 -0.14747669 0.020486066 1.785965e-38
-0.0030139275 -0.14828841 0.017546723 1.8776919e-38
-0.0011378117 -0.14828841 0.017546723 1.9051698e-38
0.00073830783 -0.14828841 0.017546723 1.8778344e-38
0.0026144236 -0.14828841 0.017546723 1.831988e-38
0.0044905394 -0.14828841 0.017546723 1.7307533e-38
0.0063666552 -0.14828841 0.017546723 1.7216417e-38
0.0082427748 -0.14828841 0.017546723 1.7674521e-38
0.010118891 -0.14828841 0.017546723 1.6844761e-38
0.01216992 -0.14913605 0.014477203 1.6754359e-38
-0.042510375 -0.1457267 0.033515643 2.341804e-38
-0.040662259 -0.1457267 0.033515643 2.2867025e-38
-0.038814142 -0.1457267 0.033515643 2.2775189e-38
-0.037012231 -0.14459993 0.03757019 2.2591518e-38
-0.035209872 -0.14378314 0.040509295 2.2499683e-38
-0.033374015 -0.14378314 0.040509295 2.3050703e-38
-0.031588636 -0.14294095 0.043539833 2.3509886e-38
-0.029758098 -0.14294095 0.043539833 2.350773e-38
-0.027927555 -0.14294095 0.043539833 2.3321904e-38
-0.026097013 -0.14294095 0.043539833 2.3508809e-38
-0.02426647 -0.14294095 0.043539833 2.3509168e-38
-0.022435928 -0.14294095 0.043539833 2.3509521e-38
-0.020605385 -0.14294095 0.043539833 2.3509524e-38
-0.01868717 -0.14378314 0.040509295 2.3507016e-38
-0.016851313 -0.14378314 0.040509295 2.3508809e-38
-0.015015457 -0.14378314 0.040509295 2.3142544e-38
-0.013079114 -0.14459993 0.03757019 2.2775202e-38
-0.011238106 -0.14459993 0.03757019 2.3508798e-38
-0.0091319755 -0.14655443 0.030537197 2.1288899e-38
-0.0071604699 -0.14738683 0.027541826 1.6668314e-38
-0.0053018741 -0.14738683 0.027541826 1.7674542e-38
-0.042510375 -0.14757483 0.033515643 2.3142538e-38
-0.040662259 -0.14757483 0.033515643 2.2775195e-38
-0.038814142 -0.14757483 0.033515643 2.1763913e-38
-0.037012231 -0.14644094 0.03757019 2.2591524e-38
-0.035209872 -0.14561899 0.040509295 2.2591521e-38
-0.033374015 -0.14561899 0.040509295 2.2866311e-38
-0.031588636 -0.1447715 0.043539833 2.3509527e-38
-0.029758098 -0.1447715 0.043539833 2.3508809e-38
-0.027988309 -0.14392884 0.046552967 2.3508451e-38
-0.026163051 -0.14392884 0.046552967 2.3508451e-38
-0.02426647 -0.1447715 0.043539833 2.3508442e-38
-0.022435928 -0.1447715 0.043539833 2.35088e-38
-0.020605385 -0.1447715 0.043539833 2.3509521e-38
-0.018774843 -0.1447715 0.043539833 2.3415898e-38
-0.016851313 -0.14561899 0.040509295 2.3509527e-38
-0.015015457 -0.14561899 0.040509295 2.2774125e-38
-0.013079114 -0.14644094 0.03757019 2.3234018e-38
-0.011238106 -0.14644094 0.03757019 2.3509158e-38
-0.009244252 -0.14757483 0.033515643 2.350159e-38
-0.0072786361 -0.14840777 0.030537197 1.76821e-38
-0.0054252967 -0.14840777 0.030537197 1.7490504e-38
-0.042510375 -0.14942293 0.033515643 2.3234379e-38
-0.040662259 -0.14942293 0.033515643 2.3050704e-38
-0.038814142 -0.14942293 0.033515643 2.3142538e-38
-0.037012231 -0.14828195 0.03757019 2.3234376e-38
-0.035171222 -0.14828195 0.03757019 2.2497173e-38
-0.033374015 -0.14745484 0.040509295 2.3509886e-38
-0.031588636 -0.14660202 0.043539833 2.332478e-38
-0.029813569 -0.14575411 0.046552967 2.3231508e-38
-0.027988309 -0.14575411 0.046552967 2.3508809e-38
-0.026163051 -0.14575411 0.046552967 2.3509168e-38
-0.024337791 -0.14575411 0.046552967 2.3509165e-38
-0.022512531 -0.14575411 0.046552967 2.3509161e-38
-0.020687273 -0.14575411 0.046552967 2.3509883e-38
-0.018774843 -0.14660202 0.043539833 2.286632e-38
-0.0169443 -0.14660202 0.043539833 2.2958873e-38
-0.015015457 -0.14745484 0.040509295 2.341805e-38
-0.013079114 -0.14828195 0.03757019 2.3509517e-38
-0.011238106 -0.14828195 0.03757019 2.3504831e-38
-0.0093970969 -0.14828195 0.03757019 2.2482749e-38
-0.0073961355 -0.14942293 0.033515643 1.9617478e-38
-0.033374015 -0.14929073 0.040509295 2.3509527e-38
-0.031638827 -0.14757936 0.046552967 2.3509168e-38
-0.029813569 -0.14757936 0.046552967 2.3509168e-38
-0.027988309 -0.14757936 0.046552967 2.3416615e-38
-0.026163051 -0.14757936 0.046552967 2.3048194e-38
-0.024337791 -0.14757936 0.046552967 2.3048189e-38
-0.022512531 -0.14757936 0.046552967 2.3325131e-38
-0.020687273 -0.14757936 0.046552967 2.3234376e-38
-0.018862013 -0.14757936 0.046552967 2.2775202e-38
-0.0169443 -0.14843257 0.043539833 2.2499695e-38
-0.015015457 -0.14929073 0.040509295 2.2404254e-38
-0.031638827 -0.14940463 0.046552967 2.341805e-38
-0.029813569 -0.14940463 0.046552967 2.3417691e-38
-0.027988309 -0.14940463 0.046552967 2.3325497e-38
-0.026163051 -0.14940463 0.046552967 2.2865602e-38
-0.024337791 -0.14940463 0.046552967 2.3142544e-38
-0.022512531 -0.14940463 0.046552967 2.3234379e-38
-0.020687273 -0.14940463 0.046552967 2.2958873e-38
-0.018862013 -0.14940463 0.046552967 2.2591531e-38
-0.017036755 -0.14940463 0.046552967 2.2315664e-38
