# .PCD v0.7 - Point Cloud Data file format
VERSION 0.7
FIELDS x y z rgb
SIZE 4 4 4 4
TYPE F F F F
COUNT 1 1 1 1
WIDTH 668
HEIGHT 1
VIEWPOINT 0 0 0 1 0 0 0
POINTS 668
DATA ascii
0.011577068 -0.10535492 0.0096899355 1.2032473e-39
0.013440942 -0.10535492 0.0096899355 1.6642255e-39
0.011577068 -0.10721879 0.0096899355 8.3662423e-40
0.013440942 -0.10721879 0.0096899355 1.2054067e-39
-0.011149207 -0.12161671 -0.042300574 2.2127664e-38
-0.0092845876 -0.12090631 -0.039353959 2.3233652e-38
-0.0073347222 -0.12090631 -0.039353959 2.350988e-38
-0.0053848606 -0.12090631 -0.039353959 2.3509883e-38
-0.0034349952 -0.12090631 -0.039353959 2.2957428e-38
-0.0016369093 -0.11993565 -0.035327666 2.2958151e-38
0.00030589662 -0.11993565 -0.035327666 2.3142544e-38
0.0024145972 -0.12090631 -0.039353959 2.2867037e-38
0.0043644626 -0.12090631 -0.039353959 2.2315307e-38
0.011577068 -0.10908265 0.0096899355 8.6743318e-39
0.013440942 -0.10908265 0.0096899355 2.5897803e-39
-0.015236542 -0.12187846 -0.035327666 2.2867033e-38
-0.013293738 -0.12187846 -0.035327666 2.2591164e-38
-0.011234453 -0.12285618 -0.039353959 2.3234376e-38
-0.0092845876 -0.12285618 -0.039353959 2.3418047e-38
-0.0073347222 -0.12285618 -0.039353959 2.3418047e-38
-0.0055225175 -0.12187846 -0.035327666 2.3234376e-38
-0.0035797153 -0.12187846 -0.035327666 2.3050703e-38
-0.0016369093 -0.12187846 -0.035327666 2.3142544e-38
0.00030589662 -0.12187846 -0.035327666 2.2958873e-38
0.0022486988 -0.12187846 -0.035327666 2.2867037e-38
0.0041915048 -0.12187846 -0.035327666 2.2775202e-38
0.011577068 -0.11094652 0.0096899355 1.706413e-38
0.013440942 -0.11094652 0.0096899355 1.0150179e-38
-0.017179348 -0.12382124 -0.035327666 2.350988e-38
-0.015313596 -0.12307997 -0.032296889 2.2497889e-38
-0.013376104 -0.12307997 -0.032296889 2.295887e-38
-0.011438614 -0.12307997 -0.032296889 2.2590085e-38
-0.0095011238 -0.12307997 -0.032296889 2.2866311e-38
-0.0075636301 -0.12307997 -0.032296889 2.3050703e-38
-0.0056261402 -0.12307997 -0.032296889 2.3234376e-38
-0.0036886502 -0.12307997 -0.032296889 2.3234376e-38
-0.0017511602 -0.12307997 -0.032296889 2.3142541e-38
0.00030589662 -0.12382124 -0.035327666 2.3142544e-38
0.0022486988 -0.12382124 -0.035327666 2.2866677e-38
0.0041915048 -0.12382124 -0.035327666 2.2867037e-38
0.0061343107 -0.12382124 -0.035327666 2.2775202e-38
0.0061733145 -0.11379938 0.0056465948 2.2316024e-38
0.0080442782 -0.11379938 0.0056465948 2.1579186e-38
0.009915242 -0.11379938 0.0056465948 2.1948682e-38
0.011577068 -0.11281042 0.0096899355 2.2224189e-38
0.013440942 -0.11281042 0.0096899355 1.8999515e-38
-0.022804331 -0.12848614 -0.046377651 2.1936075e-38
-0.02092436 -0.1274818 -0.042300574 2.3508441e-38
-0.018969329 -0.1274818 -0.042300574 2.3507362e-38
-0.017179348 -0.12576406 -0.035327666 2.3508798e-38
-0.015313596 -0.12501745 -0.032296889 2.3141816e-38
-0.013376104 -0.12501745 -0.032296889 2.2590085e-38
-0.011438614 -0.12501745 -0.032296889 2.3142541e-38
-0.0095011238 -0.12501745 -0.032296889 2.3142544e-38
-0.0075636301 -0.12501745 -0.032296889 2.3142542e-38
-0.0057620611 -0.12403814 -0.028321497 2.3050347e-38
-0.0039734002 -0.12306587 -0.024374716 2.2958507e-38
-0.0020497981 -0.12306587 -0.024374716 2.3141819e-38
-0.0001261998 -0.12306587 -0.024374716 2.3418047e-38
0.0012588445 -0.119846 -0.011304012 2.3418047e-38
0.0025576521 -0.11639442 0.0027072513 2.3234379e-38
0.0043023508 -0.11567034 0.0056465948 2.2866674e-38
0.0061733145 -0.11567034 0.0056465948 2.2958873e-38
0.0078493226 -0.11467429 0.0096899355 2.2867037e-38
0.0097131934 -0.11467429 0.0096899355 2.2775202e-38
0.011577068 -0.11467429 0.0096899355 2.2591531e-38
0.013440942 -0.11467429 0.0096899355 2.2224189e-38
0.015304817 -0.11467429 0.0096899355 1.9552326e-38
0.017168691 -0.11467429 0.0096899355 1.12576e-38
-0.022804331 -0.13044833 -0.046377651 2.3316851e-38
-0.020842152 -0.13044833 -0.046377651 2.3503762e-38
-0.018969329 -0.12943684 -0.042300574 2.3507365e-38
-0.017084045 -0.12870578 -0.039353959 2.3509161e-38
-0.015236542 -0.12770687 -0.035327666 2.350988e-38
-0.013293738 -0.12770687 -0.035327666 2.3234012e-38
-0.011553621 -0.12596865 -0.028321497 2.3234379e-38
-0.009623101 -0.12596865 -0.028321497 2.3234379e-38
-0.007692581 -0.12596865 -0.028321497 2.3234379e-38
-0.0057620611 -0.12596865 -0.028321497 2.341805e-38
-0.0040844548 -0.12422292 -0.02128493 2.3234015e-38
-0.0023176018 -0.12322696 -0.017270558 2.3141456e-38
-0.00064183585 -0.12174667 -0.011304012 2.3417324e-38
0.0012588445 -0.12174667 -0.011304012 2.350988e-38
0.0025576521 -0.11827053 0.0027072513 2.350988e-38
0.0043023508 -0.1175413 0.0056465948 2.3233296e-38
0.0061733145 -0.1175413 0.0056465948 2.3141822e-38
0.0078493226 -0.11653815 0.0096899355 2.3234379e-38
0.0095626656 -0.11579077 0.012702354 2.268193e-38
0.011421258 -0.11579077 0.012702354 2.2314228e-38
0.01327985 -0.11579077 0.012702354 2.2775202e-38
0.015138442 -0.11579077 0.012702354 2.2316024e-38
0.016997034 -0.11579077 0.012702354 1.9832516e-38
0.018855626 -0.11579077 0.012702354 9.6920808e-39
-0.02287939 -0.13139187 -0.042300574 2.2023954e-38
-0.02092436 -0.13139187 -0.042300574 2.2854075e-38
-0.019033909 -0.13065563 -0.039353959 2.3507726e-38
-0.017179348 -0.12964968 -0.035327666 2.3507723e-38
-0.015414663 -0.12789918 -0.028321497 2.3508079e-38
-0.013484143 -0.12789918 -0.028321497 2.350988e-38
-0.011667801 -0.12691309 -0.024374716 2.3049626e-38
-0.0097442027 -0.12691309 -0.024374716 2.304927e-38
-0.0079208221 -0.12614109 -0.02128493 2.3326213e-38
-0.0060026404 -0.12614109 -0.02128493 2.3509886e-38
-0.0040844548 -0.12614109 -0.02128493 2.3509883e-38
-0.002428161 -0.12440531 -0.014337651 2.3509521e-38
-0.00091548078 -0.12191428 -0.0043675816 2.3508441e-38
0.00068153627 -0.12014665 0.0027072513 2.350916e-38
0.0024313871 -0.11941226 0.0056465948 2.35088e-38
0.0041215736 -0.11840202 0.0096899355 2.3509521e-38
0.0059854481 -0.11840202 0.0096899355 2.3417324e-38
0.0078493226 -0.11840202 0.0096899355 2.3048905e-38
0.0095626656 -0.11764936 0.012702354 2.3509886e-38
0.011421258 -0.11764936 0.012702354 2.341805e-38
0.01327985 -0.11764936 0.012702354 2.3234379e-38
0.015138442 -0.11764936 0.012702354 2.2131636e-38
0.016997034 -0.11764936 0.012702354 2.158134e-38
0.021318821 -0.12014665 0.0027072513 8.7708462e-39
0.023635296 -0.12191428 -0.0043675816 4.1596228e-39
-0.024834421 -0.13334687 -0.042300574 1.8058823e-38
-0.02287939 -0.13334687 -0.042300574 1.6584407e-38
-0.02092436 -0.13334687 -0.042300574 1.7416325e-38
-0.019122152 -0.13159247 -0.035327666 2.3506999e-38
-0.017251085 -0.13082992 -0.032296889 2.3508802e-38
-0.015414663 -0.12982969 -0.028321497 2.3508805e-38
-0.013484143 -0.12982969 -0.028321497 2.3509527e-38
-0.011667801 -0.12883668 -0.024374716 2.341805e-38
-0.0098390076 -0.12805928 -0.02128493 2.3234379e-38
-0.0079208221 -0.12805928 -0.02128493 2.3141466e-38
-0.0060026404 -0.12805928 -0.02128493 2.3509886e-38
-0.0042287465 -0.12704925 -0.017270558 2.3509524e-38
-0.0026911031 -0.12455635 -0.0073624766 2.3509521e-38
-0.0011945833 -0.12202276 0.0027072513 2.3508801e-38
0.00068153627 -0.12202276 0.0027072513 2.3509158e-38
0.0024313871 -0.12128322 0.0056465948 2.3508078e-38
0.0041215736 -0.12026589 0.0096899355 2.3509158e-38
0.0059854481 -0.12026589 0.0096899355 2.3508801e-38
0.0078493226 -0.12026589 0.0096899355 2.3508079e-38
0.0097131934 -0.12026589 0.0096899355 2.3509521e-38
0.011421258 -0.11950795 0.012702354 2.3232936e-38
0.01327985 -0.11950795 0.012702354 2.2864516e-38
0.015304817 -0.12026589 0.0096899355 2.2958873e-38
0.017168691 -0.12026589 0.0096899355 2.1948682e-38
0.019442705 -0.12202276 0.0027072513 2.1673176e-38
0.021318821 -0.12202276 0.0027072513 1.7435075e-38
0.023635296 -0.12380283 -0.0043675816 5.7265953e-39
-0.028638503 -0.13734378 -0.050359838 1.6861013e-38
-0.02672869 -0.13633488 -0.046377651 1.8979352e-38
-0.024834421 -0.1353019 -0.042300574 1.6399305e-38
-0.022933638 -0.13455538 -0.039353959 1.1978217e-38
-0.020983772 -0.13455538 -0.039353959 2.1385042e-38
-0.019122152 -0.13353528 -0.035327666 2.3509144e-38
-0.017251085 -0.13276742 -0.032296889 2.3048896e-38
-0.015414663 -0.13176022 -0.028321497 2.3509168e-38
-0.013591401 -0.13076027 -0.024374716 2.3416974e-38
-0.011757189 -0.12997745 -0.02128493 2.3142544e-38
-0.0099621806 -0.12896039 -0.017270558 2.3142544e-38
-0.0081461687 -0.12821732 -0.014337651 2.3234379e-38
-0.0062401686 -0.12821732 -0.014337651 2.3509886e-38
-0.0046925228 -0.12569134 -0.0043675816 2.3508804e-38
-0.0030706991 -0.12389888 0.0027072513 2.3507721e-38
-0.0013105404 -0.12315418 0.0056465948 2.3508439e-38
0.00056042336 -0.12315418 0.0056465948 2.3508797e-38
0.0022576991 -0.12212978 0.0096899355 2.3508435e-38
0.0041215736 -0.12212978 0.0096899355 2.3507715e-38
0.0059854481 -0.12212978 0.0096899355 2.3507353e-38
0.0078493226 -0.12212978 0.0096899355 2.3508437e-38
0.0097131934 -0.12212978 0.0096899355 2.3509517e-38
0.011577068 -0.12212978 0.0096899355 2.350916e-38
0.013440942 -0.12212978 0.0096899355 2.350988e-38
0.015304817 -0.12212978 0.0096899355 2.3509879e-38
0.017168691 -0.12212978 0.0096899355 2.3418038e-38
0.019442705 -0.12389888 0.0027072513 2.1853954e-38
0.021318821 -0.12389888 0.0027072513 2.2316024e-38
0.023635296 -0.12569134 -0.0043675816 1.605179e-38
0.025523817 -0.12569134 -0.0043675816 3.6079091e-39
-0.030607663 -0.13931294 -0.050359838 1.6125966e-38
-0.028638503 -0.13931294 -0.050359838 1.7320918e-38
-0.02672869 -0.13829704 -0.046377651 1.6305325e-38
-0.024834421 -0.13725694 -0.042300574 1.6860645e-38
-0.022933638 -0.13650523 -0.039353959 1.5944784e-38
-0.020983772 -0.13650523 -0.039353959 2.3509859e-38
-0.019122152 -0.13547809 -0.035327666 2.3418028e-38
-0.017251085 -0.1347049 -0.032296889 2.3234369e-38
-0.015515003 -0.13268389 -0.024374716 2.3509168e-38
-0.014053738 -0.1283439 -0.0073624766 2.3416615e-38
-0.012159966 -0.1283439 -0.0073624766 2.2773767e-38
-0.010266194 -0.1283439 -0.0073624766 2.286632e-38
-0.0083724204 -0.1283439 -0.0073624766 2.3325856e-38
-0.0067179855 -0.12655805 -0.00036226865 2.3509527e-38
-0.0049468148 -0.12577499 0.0027072513 2.3509163e-38
-0.0031815004 -0.12502514 0.0056465948 2.3508441e-38
-0.0013105404 -0.12502514 0.0056465948 2.3508075e-38
0.00039382465 -0.12399365 0.0096899355 2.3504831e-38
0.0022576991 -0.12399365 0.0096899355 2.3503388e-38
0.0041215736 -0.12399365 0.0096899355 2.3503029e-38
0.0059854481 -0.12399365 0.0096899355 2.3504826e-38
0.0078493226 -0.12399365 0.0096899355 2.3507709e-38
0.0097131934 -0.12399365 0.0096899355 2.3508431e-38
0.011577068 -0.12399365 0.0096899355 2.350807e-38
0.013440942 -0.12399365 0.0096899355 2.3507351e-38
0.015304817 -0.12399365 0.0096899355 2.3507348e-38
0.017168691 -0.12399365 0.0096899355 2.322859e-38
0.019442705 -0.12577499 0.0027072513 2.3509863e-38
0.021318821 -0.12577499 0.0027072513 2.3234379e-38
0.023194937 -0.12577499 0.0027072513 2.121077e-38
0.025267495 -0.12655805 -0.00036226865 1.9463743e-38
0.030911988 -0.12655805 -0.00036226865 6.5599335e-39
-0.032576825 -0.1412821 -0.050359838 1.3090326e-38
-0.030607663 -0.1412821 -0.050359838 1.6495468e-38
-0.028638503 -0.1412821 -0.050359838 1.704505e-38
-0.02672869 -0.14025922 -0.046377651 1.5661754e-38
-0.024834421 -0.13921197 -0.042300574 1.7046475e-38
-0.022933638 -0.13845511 -0.039353959 1.8342592e-38
-0.020983772 -0.13845511 -0.039353959 2.350986e-38
-0.019188575 -0.13664238 -0.032296889 2.2958849e-38
-0.017511738 -0.13381381 -0.02128493 2.2958503e-38
-0.015770178 -0.13202934 -0.014337651 2.2956003e-38
-0.014243981 -0.12843956 -0.00036226865 2.3508809e-38
-0.012362482 -0.12843956 -0.00036226865 2.3417691e-38
-0.010575166 -0.12765111 0.0027072513 2.341805e-38
-0.0087943915 -0.1268961 0.0056465948 2.3323699e-38
-0.0070616696 -0.12585752 0.0096899355 2.3322255e-38
-0.0051977951 -0.12585752 0.0096899355 2.350628e-38
-0.0033339243 -0.12585752 0.0096899355 2.3504837e-38
-0.0015888903 -0.12508373 0.012702354 2.3223563e-38
0.00026970543 -0.12508373 0.012702354 2.1747349e-38
0.0021282975 -0.12508373 0.012702354 1.9717959e-38
0.0039868895 -0.12508373 0.012702354 2.0362247e-38
0.0058454815 -0.12508373 0.012702354 2.1561146e-38
0.0078493226 -0.12585752 0.0096899355 2.2944801e-38
0.0097131934 -0.12585752 0.0096899355 2.3501217e-38
0.011577068 -0.12585752 0.0096899355 2.3504098e-38
0.013440942 -0.12585752 0.0096899355 2.3506258e-38
0.015304817 -0.12585752 0.0096899355 2.3507338e-38
0.017168691 -0.12585752 0.0096899355 2.3504098e-38
0.019270053 -0.1268961 0.0056465948 2.3506262e-38
0.021141021 -0.1268961 0.0056465948 2.3508072e-38
0.023194937 -0.12765111 0.0027072513 2.3509521e-38
0.025071053 -0.12765111 0.0027072513 2.2867037e-38
-0.030653048 -0.14222141 -0.046377651 1.4928858e-38
-0.028690867 -0.14222141 -0.046377651 1.8982236e-38
-0.02672869 -0.14222141 -0.046377651 2.1194208e-38
-0.024883501 -0.14040495 -0.039353959 2.0090373e-38
-0.022933638 -0.14040495 -0.039353959 2.0556372e-38
-0.021064956 -0.13936369 -0.035327666 2.3234355e-38
-0.019275704 -0.1375518 -0.028321497 2.2682985e-38
-0.017511738 -0.13573201 -0.02128493 2.3142538e-38
-0.015947511 -0.13213144 -0.0073624766 2.3140391e-38
-0.014407281 -0.12876706 0.0056465948 2.3508809e-38
-0.012536319 -0.12876706 0.0056465948 2.3416615e-38
-0.010789419 -0.12772138 0.0096899355 2.3509168e-38
-0.0090232585 -0.12694232 0.012702354 2.3507363e-38
-0.0072670784 -0.12616767 0.015697725 2.1291784e-38
-0.0054137353 -0.12616767 0.015697725 1.8707421e-38
-0.0034474824 -0.12694232 0.012702354 1.6953178e-38
-0.0017070565 -0.12616767 0.015697725 1.6121254e-38
0.00014628284 -0.12616767 0.015697725 1.5565913e-38
0.0019996259 -0.12616767 0.015697725 1.7316546e-38
0.0038529653 -0.12616767 0.015697725 1.713107e-38
0.0058454815 -0.12694232 0.012702354 1.6577895e-38
0.0077040736 -0.12694232 0.012702354 1.6301664e-38
0.0095626656 -0.12694232 0.012702354 1.6116917e-38
0.011421258 -0.12694232 0.012702354 1.5841049e-38
0.013440942 -0.12772138 0.0096899355 1.5657376e-38
0.015304817 -0.12772138 0.0096899355 1.5657019e-38
0.017168691 -0.12772138 0.0096899355 1.6302394e-38
0.019032566 -0.12772138 0.0096899355 1.7963357e-38
0.02089644 -0.12772138 0.0096899355 1.741342e-38
0.023011981 -0.12876706 0.0056465948 2.3502298e-38
0.024882948 -0.12876706 0.0056465948 2.3507345e-38
0.028351931 -0.12772138 0.0096899355 2.1022046e-38
-0.028744482 -0.14312203 -0.042300574 2.3317225e-38
-0.026789451 -0.14312203 -0.042300574 2.3506657e-38
-0.024883501 -0.14235483 -0.039353959 2.2488897e-38
-0.023007762 -0.1413065 -0.035327666 2.2033665e-38
-0.021126067 -0.14051737 -0.032296889 2.3234364e-38
-0.019275704 -0.1394823 -0.028321497 2.2958863e-38
-0.017345183 -0.1394823 -0.028321497 2.3142541e-38
-0.016278245 -0.13063805 0.0056465948 2.2771972e-38
-0.014517166 -0.12958528 0.0096899355 2.3508451e-38
-0.012740441 -0.12880091 0.012702354 2.350629e-38
-0.01088185 -0.12880091 0.012702354 2.3508085e-38
-0.0090232585 -0.12880091 0.012702354 2.3508079e-38
-0.0072670784 -0.12802102 0.015697725 2.1195982e-38
-0.0054137353 -0.12802102 0.015697725 1.6952456e-38
-0.0035603959 -0.12802102 0.015697725 1.4737235e-38
-0.0018245559 -0.12724553 0.018676169 1.5379721e-38
2.3564324e-05 -0.12724553 0.018676169 1.6576457e-38
0.0018716808 -0.12724553 0.018676169 1.6574292e-38
0.0037197974 -0.12724553 0.018676169 1.6573206e-38
0.0058454815 -0.12880091 0.012702354 1.6295539e-38
0.0077040736 -0.12880091 0.012702354 1.6110784e-38
0.0094129872 -0.12802102 0.015697725 1.6202977e-38
0.011266327 -0.12802102 0.015697725 1.6663955e-38
0.013440942 -0.12958528 0.0096899355 1.6849066e-38
0.015304817 -0.12958528 0.0096899355 1.6940908e-38
0.017168691 -0.12958528 0.0096899355 1.7125674e-38
0.019032566 -0.12958528 0.0096899355 1.7679566e-38
0.02089644 -0.12958528 0.0096899355 1.6668278e-38
0.022760315 -0.12958528 0.0096899355 1.8699818e-38
0.024624189 -0.12958528 0.0096899355 2.3496876e-38
0.026488056 -0.12958528 0.0096899355 2.3501213e-38
0.028351931 -0.12958528 0.0096899355 2.3506999e-38
-0.028744482 -0.14507706 -0.042300574 2.3507374e-38
-0.026789451 -0.14507706 -0.042300574 2.3507016e-38
-0.024834421 -0.14507706 -0.042300574 2.2213752e-38
-0.023007762 -0.14324932 -0.035327666 2.1574129e-38
-0.021206224 -0.14141284 -0.028321497 2.249932e-38
-0.019275704 -0.14141284 -0.028321497 2.2591518e-38
-0.018244913 -0.13144915 0.0096899355 2.2866671e-38
-0.01638104 -0.13144915 0.0096899355 2.3140033e-38
-0.014599033 -0.13065951 0.012702354 2.3508451e-38
-0.012740441 -0.13065951 0.012702354 2.3507723e-38
-0.01088185 -0.13065951 0.012702354 2.3500512e-38
-0.0091204178 -0.12987436 0.015697725 2.0180028e-38
-0.0072670784 -0.12987436 0.015697725 1.7319797e-38
-0.0054137353 -0.12987436 0.015697725 1.593398e-38
-0.0035603959 -0.12987436 0.015697725 1.620804e-38
-0.0018245559 -0.12909363 0.018676169 1.7127471e-38
2.3564324e-05 -0.12909363 0.018676169 1.81391e-38
0.0018716808 -0.12909363 0.018676169 1.7676315e-38
0.0037197974 -0.12909363 0.018676169 1.8043653e-38
0.0055679176 -0.12909363 0.018676169 1.7951093e-38
0.0077040736 -0.13065951 0.012702354 1.795073e-38
0.0094129872 -0.12987436 0.015697725 1.8226238e-38
0.011266327 -0.12987436 0.015697725 1.8319513e-38
0.013440942 -0.13144915 0.0096899355 1.8319513e-38
0.015304817 -0.13144915 0.0096899355 1.804329e-38
0.017168691 -0.13144915 0.0096899355 1.8873065e-38
0.019032566 -0.13144915 0.0096899355 1.804438e-38
0.02089644 -0.13144915 0.0096899355 1.8230194e-38
0.022760315 -0.13144915 0.0096899355 1.6480269e-38
0.024624189 -0.13144915 0.0096899355 1.8695848e-38
0.026488056 -0.13144915 0.0096899355 2.3308882e-38
0.028351931 -0.13144915 0.0096899355 2.3501586e-38
0.030495835 -0.13250901 0.0056465948 2.3502327e-38
0.032366797 -0.13250901 0.0056465948 1.4378213e-38
-0.028836176 -0.1451921 -0.035327666 2.3508089e-38
-0.02689337 -0.1451921 -0.035327666 2.3506293e-38
-0.024950566 -0.1451921 -0.035327666 2.2861279e-38
-0.023007762 -0.1451921 -0.035327666 2.1944355e-38
-0.021206224 -0.14334334 -0.028321497 2.2407488e-38
-0.019275704 -0.14334334 -0.028321497 2.2683358e-38
-0.018244913 -0.13331302 0.0096899355 2.3142541e-38
-0.01638104 -0.13331302 0.0096899355 2.3509168e-38
-0.014599033 -0.1325181 0.012702354 2.3507007e-38
-0.012740441 -0.1325181 0.012702354 2.3506993e-38
-0.01088185 -0.1325181 0.012702354 2.2204725e-38
-0.0091204178 -0.13172771 0.015697725 1.7777892e-38
-0.0072670784 -0.13172771 0.015697725 1.6117287e-38
-0.0055207927 -0.13094176 0.018676169 1.6943805e-38
-0.0036726724 -0.13094176 0.018676169 1.7587371e-38
-0.0018245559 -0.13094176 0.018676169 1.7861431e-38
2.3564324e-05 -0.13094176 0.018676169 1.8043659e-38
0.0018716808 -0.13094176 0.018676169 1.6844031e-38
0.0037197974 -0.13094176 0.018676169 1.7487957e-38
0.0058454815 -0.1325181 0.012702354 1.7856016e-38
0.0077040736 -0.1325181 0.012702354 1.7948209e-38
0.0095626656 -0.1325181 0.012702354 1.8316631e-38
0.011421258 -0.1325181 0.012702354 1.877761e-38
0.013440942 -0.13331302 0.0096899355 1.8685414e-38
0.015304817 -0.13331302 0.0096899355 1.8041131e-38
0.017168691 -0.13331302 0.0096899355 1.6935873e-38
0.019032566 -0.13331302 0.0096899355 1.9794294e-38
0.02089644 -0.13331302 0.0096899355 1.8134395e-38
0.022760315 -0.13331302 0.0096899355 2.0256326e-38
0.024882948 -0.13437997 0.0056465948 1.7583731e-38
0.026753908 -0.13437997 0.0056465948 2.025994e-38
0.028624875 -0.13437997 0.0056465948 2.349401e-38
0.030495835 -0.13437997 0.0056465948 2.2759707e-38
0.032366797 -0.13437997 0.0056465948 2.0737183e-38
-0.028876029 -0.14632986 -0.032296889 2.3507003e-38
-0.027056606 -0.14422549 -0.024374716 2.3506287e-38
-0.025133006 -0.14422549 -0.024374716 2.3508807e-38
-0.023209404 -0.14422549 -0.024374716 2.2774479e-38
-0.021972662 -0.13517688 0.0096899355 2.2775202e-38
-0.020108787 -0.13517688 0.0096899355 2.2867034e-38
-0.018244913 -0.13517688 0.0096899355 2.3418047e-38
-0.01638104 -0.13517688 0.0096899355 2.3414087e-38
-0.014599033 -0.13437669 0.012702354 2.110379e-38
-0.012740441 -0.13437669 0.012702354 1.6856655e-38
-0.010973757 -0.13358103 0.015697725 1.6484624e-38
-0.0091204178 -0.13358103 0.015697725 1.6298791e-38
-0.0072670784 -0.13358103 0.015697725 1.7035276e-38
-0.0055207927 -0.13278987 0.018676169 1.7309342e-38
-0.0036726724 -0.13278987 0.018676169 1.6755083e-38
-0.0018245559 -0.13278987 0.018676169 1.7489767e-38
2.3564324e-05 -0.13278987 0.018676169 1.8686867e-38
0.0018716808 -0.13278987 0.018676169 1.7856744e-38
0.0037197974 -0.13278987 0.018676169 1.8316997e-38
0.0057063047 -0.13358103 0.015697725 1.8224083e-38
0.0075596441 -0.13358103 0.015697725 1.8038973e-38
0.0095626656 -0.13437669 0.012702354 1.8223364e-38
0.011421258 -0.13437669 0.012702354 1.8592865e-38
0.013440942 -0.13517688 0.0096899355 1.8592865e-38
0.015304817 -0.13517688 0.0096899355 1.7948936e-38
0.017168691 -0.13517688 0.0096899355 1.8780142e-38
0.019032566 -0.13517688 0.0096899355 1.7397205e-38
0.02089644 -0.13517688 0.0096899355 1.9608807e-38
0.022760315 -0.13517688 0.0096899355 1.8317699e-38
0.024624189 -0.13517688 0.0096899355 1.8870873e-38
0.026488056 -0.13517688 0.0096899355 1.822803e-38
0.028624875 -0.13625093 0.0056465948 1.9339435e-38
0.030495835 -0.13625093 0.0056465948 2.3033398e-38
-0.028980207 -0.14614908 -0.024374716 2.3508077e-38
-0.027102655 -0.14532293 -0.02128493 2.332189e-38
-0.025184471 -0.14532293 -0.02128493 2.3509883e-38
-0.023266288 -0.14532293 -0.02128493 2.2958873e-38
-0.021488186 -0.14346536 -0.014337651 2.2775202e-38
-0.020108787 -0.13704078 0.0096899355 2.2958873e-38
-0.018244913 -0.13704078 0.0096899355 2.350952e-38
-0.01638104 -0.13704078 0.0096899355 2.3507358e-38
-0.014599033 -0.13623528 0.012702354 1.6583674e-38
-0.012827097 -0.13543437 0.015697725 1.6576457e-38
-0.010973757 -0.13543437 0.015697725 1.7033828e-38
-0.0091204178 -0.13543437 0.015697725 1.7308976e-38
-0.0072670784 -0.13543437 0.015697725 1.767704e-38
-0.0054137353 -0.13543437 0.015697725 1.7767793e-38
-0.0035603959 -0.13543437 0.015697725 1.7581962e-38
-0.0018245559 -0.134638 0.018676169 1.7857109e-38
2.3564324e-05 -0.134638 0.018676169 1.822517e-38
0.0018716808 -0.134638 0.018676169 1.8408841e-38
0.0037197974 -0.134638 0.018676169 1.8316643e-38
0.0057063047 -0.13543437 0.015697725 1.794786e-38
0.0075596441 -0.13543437 0.015697725 1.7486885e-38
0.0095626656 -0.13623528 0.012702354 1.757908e-38
0.011421258 -0.13623528 0.012702354 1.7856388e-38
0.013440942 -0.13704078 0.0096899355 1.8040782e-38
0.015304817 -0.13704078 0.0096899355 1.7673794e-38
0.017168691 -0.13704078 0.0096899355 1.730717e-38
0.019032566 -0.13704078 0.0096899355 1.7214968e-38
0.02089644 -0.13704078 0.0096899355 1.7674146e-38
0.022760315 -0.13704078 0.0096899355 1.8502462e-38
0.024624189 -0.13704078 0.0096899355 1.8501739e-38
0.026488056 -0.13704078 0.0096899355 1.7029127e-38
0.028351931 -0.13704078 0.0096899355 1.7770659e-38
0.030215805 -0.13704078 0.0096899355 1.9897291e-38
0.032079682 -0.13704078 0.0096899355 2.1010135e-38
-0.03278935 -0.14913492 -0.028321497 1.5397011e-38
-0.030858826 -0.14913492 -0.028321497 2.11099e-38
-0.028980207 -0.14807267 -0.024374716 2.3509151e-38
-0.027162481 -0.14616071 -0.017270558 2.3509517e-38
-0.025251336 -0.14616071 -0.017270558 2.3509883e-38
-0.023394188 -0.14537133 -0.014337651 2.2498618e-38
-0.021488186 -0.14537133 -0.014337651 2.2499336e-38
-0.020108787 -0.13890465 0.0096899355 2.3234379e-38
-0.018316217 -0.13809387 0.012702354 2.3322965e-38
-0.016457625 -0.13809387 0.012702354 2.3132446e-38
-0.014680438 -0.13728772 0.015697725 1.501274e-38
-0.012827097 -0.13728772 0.015697725 1.7218219e-38
-0.010973757 -0.13728772 0.015697725 1.7768148e-38
-0.0091204178 -0.13728772 0.015697725 1.8135851e-38
-0.0071646664 -0.13809387 0.012702354 1.8411719e-38
-0.0054137353 -0.13728772 0.015697725 1.8226968e-38
-0.0035603959 -0.13728772 0.015697725 1.8041498e-38
-0.0017070565 -0.13728772 0.015697725 1.8132974e-38
2.3564324e-05 -0.13648613 0.018676169 1.8685428e-38
0.0018716808 -0.13648613 0.018676169 1.8316645e-38
0.0043023508 -0.13999285 0.0056465948 1.8040782e-38
0.0058454815 -0.13809387 0.012702354 1.7764196e-38
0.0077040736 -0.13809387 0.012702354 1.7303578e-38
0.0095626656 -0.13809387 0.012702354 1.7212464e-38
0.011577068 -0.13890465 0.0096899355 1.7673803e-38
0.013440942 -0.13890465 0.0096899355 1.7950392e-38
0.015304817 -0.13890465 0.0096899355 1.7583405e-38
0.017168691 -0.13890465 0.0096899355 1.6755791e-38
0.019032566 -0.13890465 0.0096899355 1.6755788e-38
0.02089644 -0.13890465 0.0096899355 1.7490479e-38
0.022760315 -0.13890465 0.0096899355 1.8319161e-38
0.024624189 -0.13890465 0.0096899355 1.8594304e-38
0.026488056 -0.13890465 0.0096899355 1.7213165e-38
0.028351931 -0.13890465 0.0096899355 1.675614e-38
0.030215805 -0.13890465 0.0096899355 1.7867173e-38
0.032079682 -0.13890465 0.0096899355 2.0270395e-38
-0.029020838 -0.1491593 -0.02128493 2.3509146e-38
-0.027206192 -0.14727734 -0.014337651 2.3509511e-38
-0.02530019 -0.14727734 -0.014337651 2.350988e-38
-0.023394188 -0.14727734 -0.014337651 2.2498618e-38
-0.021488186 -0.14727734 -0.014337651 2.2867037e-38
-0.020108787 -0.14076851 0.0096899355 2.3509883e-38
-0.018316217 -0.13995247 0.012702354 2.2213735e-38
-0.016457625 -0.13995247 0.012702354 2.1746263e-38
-0.014680438 -0.13914107 0.015697725 1.5102044e-38
-0.012827097 -0.13914107 0.015697725 1.7215693e-38
-0.010973757 -0.13914107 0.015697725 1.7949654e-38
-0.0091204178 -0.13914107 0.015697725 1.8226242e-38
-0.0071646664 -0.13995247 0.012702354 1.8409915e-38
-0.0053060744 -0.13995247 0.012702354 1.8041132e-38
-0.0034474824 -0.13995247 0.012702354 1.7580157e-38
-0.0017070565 -0.13914107 0.015697725 1.7855667e-38
0.00014628284 -0.13914107 0.015697725 1.8316645e-38
0.0022576991 -0.14076851 0.0096899355 1.7487608e-38
0.0043023508 -0.14186381 0.0056465948 1.7487969e-38
0.0061733145 -0.14186381 0.0056465948 1.7212464e-38
0.0078493226 -0.14076851 0.0096899355 1.6844045e-38
0.0097131934 -0.14076851 0.0096899355 1.6844408e-38
0.011577068 -0.14076851 0.0096899355 1.7214272e-38
0.013440942 -0.14076851 0.0096899355 1.749122e-38
0.015304817 -0.14076851 0.0096899355 1.730826e-38
0.017168691 -0.14076851 0.0096899355 1.6480283e-38
0.019032566 -0.14076851 0.0096899355 1.6664672e-38
0.02089644 -0.14076851 0.0096899355 1.7030947e-38
0.023011981 -0.14186381 0.0056465948 1.7766717e-38
0.024624189 -0.14076851 0.0096899355 1.8411003e-38
0.026488056 -0.14076851 0.0096899355 1.7306088e-38
0.028351931 -0.14076851 0.0096899355 1.6295162e-38
0.030215805 -0.14076851 0.0096899355 1.6207285e-38
0.032079682 -0.14076851 0.0096899355 1.7687107e-38
0.033943556 -0.14076851 0.0096899355 1.9535359e-38
-0.027206192 -0.14918335 -0.014337651 2.3507346e-38
-0.02530019 -0.14918335 -0.014337651 2.3509879e-38
-0.023394188 -0.14918335 -0.014337651 2.286632e-38
-0.021831866 -0.14453618 0.0027072513 2.3234379e-38
-0.020174809 -0.14181106 0.012702354 2.3508442e-38
-0.018316217 -0.14181106 0.012702354 1.9813766e-38
-0.016457625 -0.14181106 0.012702354 1.9991658e-38
-0.014680438 -0.14099441 0.015697725 1.6759036e-38
-0.012827097 -0.14099441 0.015697725 1.7029501e-38
-0.010973757 -0.14099441 0.015697725 1.7856739e-38
-0.0090232585 -0.14181106 0.012702354 1.8316997e-38
-0.0071646664 -0.14181106 0.012702354 1.8224802e-38
-0.0053060744 -0.14181106 0.012702354 1.767127e-38
-0.0033339243 -0.14263238 0.0096899355 1.7210295e-38
-0.0014700498 -0.14263238 0.0096899355 1.7302494e-38
0.00026970543 -0.14181106 0.012702354 1.757908e-38
0.0021282975 -0.14181106 0.012702354 1.6565652e-38
0.0043023508 -0.14373477 0.0056465948 1.6750404e-38
0.0061733145 -0.14373477 0.0056465948 1.6474543e-38
0.0078493226 -0.14263238 0.0096899355 1.6198678e-38
0.0097131934 -0.14263238 0.0096899355 1.6107922e-38
0.011577068 -0.14263238 0.0096899355 1.6569263e-38
0.013440942 -0.14263238 0.0096899355 1.684693e-38
0.015528129 -0.14373477 0.0056465948 1.6848001e-38
0.017399093 -0.14373477 0.0056465948 1.6572479e-38
0.019270053 -0.14373477 0.0056465948 1.6849063e-38
0.021141021 -0.14373477 0.0056465948 1.6663244e-38
0.023011981 -0.14373477 0.0056465948 1.6846203e-38
0.024882948 -0.14373477 0.0056465948 1.7766717e-38
0.026753908 -0.14373477 0.0056465948 1.7399009e-38
0.028351931 -0.14263238 0.0096899355 1.6756143e-38
0.030215805 -0.14263238 0.0096899355 1.6666465e-38
0.032079682 -0.14263238 0.0096899355 1.6209094e-38
0.033943556 -0.14263238 0.0096899355 1.9255524e-38
0.035807431 -0.14263238 0.0096899355 1.6953897e-38
-0.027564283 -0.14449625 0.0096899355 2.3415147e-38
-0.025700409 -0.14449625 0.0096899355 2.3509876e-38
-0.023836534 -0.14449625 0.0096899355 2.2681567e-38
-0.021972662 -0.14449625 0.0096899355 2.3509527e-38
-0.020240458 -0.14284773 0.015697725 2.3504842e-38
-0.018387118 -0.14284773 0.015697725 1.6953176e-38
-0.016457625 -0.14366965 0.012702354 1.7314737e-38
-0.014599033 -0.14366965 0.012702354 1.7032738e-38
-0.012740441 -0.14366965 0.012702354 1.7305725e-38
-0.01088185 -0.14366965 0.012702354 1.8041132e-38
-0.0090232585 -0.14366965 0.012702354 1.8225523e-38
-0.0071646664 -0.14366965 0.012702354 1.7948936e-38
-0.0053060744 -0.14366965 0.012702354 1.7579078e-38
-0.0033339243 -0.14449625 0.0096899355 1.7210295e-38
-0.0014700498 -0.14449625 0.0096899355 1.7025907e-38
0.00026970543 -0.14366965 0.012702354 1.7025907e-38
0.0021282975 -0.14366965 0.012702354 1.6012478e-38
0.0043023508 -0.14560573 0.0056465948 1.6197231e-38
0.0061733145 -0.14560573 0.0056465948 1.6106114e-38
0.0080442782 -0.14560573 0.0056465948 1.582989e-38
0.009915242 -0.14560573 0.0056465948 1.5830609e-38
0.011577068 -0.14449625 0.0096899355 1.6108275e-38
0.013440942 -0.14449625 0.0096899355 1.6568897e-38
0.015304817 -0.14449625 0.0096899355 1.6662165e-38
0.017168691 -0.14449625 0.0096899355 1.6662514e-38
0.019032566 -0.14449625 0.0096899355 1.7123849e-38
0.02089644 -0.14449625 0.0096899355 1.6846554e-38
0.022760315 -0.14449625 0.0096899355 1.6662165e-38
0.024624189 -0.14449625 0.0096899355 1.7122787e-38
0.026488056 -0.14449625 0.0096899355 1.7215338e-38
0.028351931 -0.14449625 0.0096899355 1.7032378e-38
0.030215805 -0.14449625 0.0096899355 1.7310044e-38
0.032079682 -0.14449625 0.0096899355 1.6482804e-38
0.033943556 -0.14449625 0.0096899355 2.0725972e-38
0.035807431 -0.14449625 0.0096899355 1.8241023e-38
-0.025700409 -0.14636014 0.0096899355 2.3509873e-38
-0.023836534 -0.14636014 0.0096899355 2.2957075e-38
-0.022093799 -0.14470108 0.015697725 2.3509527e-38
-0.020305736 -0.14387859 0.018676169 2.3226814e-38
-0.018457618 -0.14387859 0.018676169 1.5660275e-38
-0.016533777 -0.14470108 0.015697725 1.5468298e-38
-0.014680438 -0.14470108 0.015697725 1.6385562e-38
-0.012827097 -0.14470108 0.015697725 1.7305006e-38
-0.010973757 -0.14470108 0.015697725 1.7764908e-38
-0.0090232585 -0.14552824 0.012702354 1.7857104e-38
-0.0071646664 -0.14552824 0.012702354 1.7580157e-38
-0.0053060744 -0.14552824 0.012702354 1.7211374e-38
-0.0033339243 -0.14636014 0.0096899355 1.7118099e-38
-0.0014700498 -0.14636014 0.0096899355 1.6841515e-38
0.00039382465 -0.14636014 0.0096899355 1.6472733e-38
0.0022576991 -0.14636014 0.0096899355 1.6288342e-38
0.0043023508 -0.14747669 0.0056465948 1.6473453e-38
0.0061733145 -0.14747669 0.0056465948 1.6474175e-38
0.0080442782 -0.14747669 0.0056465948 1.6197588e-38
0.009915242 -0.14747669 0.0056465948 1.6014273e-38
0.011786202 -0.14747669 0.0056465948 1.629122e-38
0.013657166 -0.14747669 0.0056465948 1.6660005e-38
0.015304817 -0.14636014 0.0096899355 1.6844394e-38
0.017168691 -0.14636014 0.0096899355 1.6475963e-38
0.019032566 -0.14636014 0.0096899355 1.7121332e-38
0.02089644 -0.14636014 0.0096899355 1.6938382e-38
0.022760315 -0.14636014 0.0096899355 1.6939106e-38
0.024624189 -0.14636014 0.0096899355 1.712422e-38
0.026488056 -0.14636014 0.0096899355 1.6939831e-38
0.028351931 -0.14636014 0.0096899355 1.6755439e-38
0.030215805 -0.14636014 0.0096899355 1.7400809e-38
0.032079682 -0.14636014 0.0096899355 1.6572127e-38
0.033943556 -0.14636014 0.0096899355 2.0907843e-38
0.035807431 -0.14636014 0.0096899355 1.8237416e-38
-0.02580048 -0.14655443 0.015697725 2.350951e-38
-0.023947138 -0.14655443 0.015697725 2.3509886e-38
-0.022153854 -0.1457267 0.018676169 2.3509168e-38
-0.020305736 -0.1457267 0.018676169 2.2580362e-38
-0.018457618 -0.1457267 0.018676169 1.5198213e-38
-0.016609499 -0.1457267 0.018676169 1.5742721e-38
-0.014761381 -0.1457267 0.018676169 1.7121685e-38
-0.012913264 -0.1457267 0.018676169 1.7120618e-38
-0.011065146 -0.1457267 0.018676169 1.7305012e-38
-0.0091204178 -0.14655443 0.015697725 1.7305012e-38
-0.0071646664 -0.14738683 0.012702354 1.7211737e-38
-0.0053060744 -0.14738683 0.012702354 1.7211737e-38
-0.0033339243 -0.14822401 0.0096899355 1.7211018e-38
-0.0014700498 -0.14822401 0.0096899355 1.6933711e-38
0.00039382465 -0.14822401 0.0096899355 1.6196146e-38
0.0022576991 -0.14822401 0.0096899355 1.6657121e-38
0.0043023508 -0.14934768 0.0056465948 1.7118099e-38
0.0061733145 -0.14934768 0.0056465948 1.7210292e-38
0.0080442782 -0.14934768 0.0056465948 1.684151e-38
0.009915242 -0.14934768 0.0056465948 1.656528e-38
0.011786202 -0.14934768 0.0056465948 1.6658196e-38
0.013440942 -0.14822401 0.0096899355 1.7026979e-38
0.015304817 -0.14822401 0.0096899355 1.7119174e-38
0.017168691 -0.14822401 0.0096899355 1.7118454e-38
0.019032566 -0.14822401 0.0096899355 1.711953e-38
0.02089644 -0.14822401 0.0096899355 1.684438e-38
0.022760315 -0.14822401 0.0096899355 1.7030932e-38
0.024624189 -0.14822401 0.0096899355 1.7584473e-38
0.026488056 -0.14822401 0.0096899355 1.7032026e-38
0.028351931 -0.14822401 0.0096899355 1.7030597e-38
0.030215805 -0.14822401 0.0096899355 1.7860002e-38
0.032079682 -0.14822401 0.0096899355 1.6938401e-38
0.033943556 -0.14822401 0.0096899355 1.9798621e-38
0.035807431 -0.14822401 0.0096899355 1.7036705e-38
-0.02580048 -0.14840777 0.015697725 2.2677228e-38
-0.023947138 -0.14840777 0.015697725 2.3509163e-38
-0.022153854 -0.14757483 0.018676169 2.3506643e-38
-0.020305736 -0.14757483 0.018676169 2.2024303e-38
-0.018457618 -0.14757483 0.018676169 1.5195692e-38
-0.016609499 -0.14757483 0.018676169 1.647957e-38
-0.014761381 -0.14757483 0.018676169 1.8504267e-38
-0.012913264 -0.14757483 0.018676169 1.7213895e-38
-0.011065146 -0.14757483 0.018676169 1.7306093e-38
-0.0091204178 -0.14840777 0.015697725 1.7305375e-38
-0.0071646664 -0.14924543 0.012702354 1.7305012e-38
-0.0053060744 -0.14924543 0.012702354 1.7672715e-38
-0.025850089 -0.14942293 0.018676169 2.1845307e-38
-0.024001973 -0.14942293 0.018676169 2.3508071e-38
-0.022235608 -0.14828195 0.022730716 2.3504108e-38
-0.020394597 -0.14828195 0.022730716 2.2574226e-38
-0.018553589 -0.14828195 0.022730716 1.5470475e-38
-0.01671258 -0.14828195 0.022730716 1.6204073e-38
-0.014761381 -0.14942293 0.018676169 1.7308613e-38
-0.012913264 -0.14942293 0.018676169 1.6755439e-38
-0.011065146 -0.14942293 0.018676169 1.693875e-38
