# .PCD v0.7 - Point Cloud Data file format
VERSION 0.7
FIELDS x y z rgb
SIZE 4 4 4 4
TYPE F F F F
COUNT 1 1 1 1
WIDTH 933
HEIGHT 1
VIEWPOINT 0 0 0 1 0 0 0
POINTS 933
DATA ascii
0.043543618 -0.098476708 -0.0085769296 1.3925594e-38
0.045356732 -0.098476708 -0.0085769296 1.4109269e-38
0.047169846 -0.098476708 -0.0085769296 1.4016355e-38
0.048982959 -0.098476708 -0.0085769296 1.4015279e-38
0.049932983 -0.092058569 0.018438041 1.4753571e-38
0.051698741 -0.092058569 0.018438041 1.1434537e-38
0.053156417 -0.091345012 0.021441519 8.0236669e-39
0.0549169 -0.091345012 0.021441519 4.0606981e-39
0.056677368 -0.091345012 0.021441519 4.1543385e-39
0.05843785 -0.091345012 0.021441519 3.5093334e-39
0.079221576 -0.10083848 -0.018518031 3.138037e-39
0.08067438 -0.10012263 -0.015504897 3.0458385e-39
0.078556165 -0.092752427 0.015517533 4.5206043e-39
0.079950675 -0.092058569 0.018438041 4.7053486e-39
0.081716418 -0.092058569 0.018438041 5.258877e-39
0.083482161 -0.092058569 0.018438041 4.8904448e-39
0.085247904 -0.092058569 0.018438041 4.1521524e-39
0.087013647 -0.092058569 0.018438041 4.0610302e-39
0.088779405 -0.092058569 0.018438041 4.7978736e-39
0.090545148 -0.092058569 0.018438041 4.7053094e-39
0.092310891 -0.092058569 0.018438041 5.7176579e-39
-0.11047778 -0.12421621 -0.10854942 8.7593037e-39
-0.10848938 -0.12421621 -0.10854942 8.3004667e-39
-0.10650098 -0.12421621 -0.10854942 1.8475153e-39
-0.10451259 -0.12421621 -0.10854942 5.5432565e-40
-0.10233553 -0.12324448 -0.10448915 3.8733907e-39
-0.10004526 -0.12159048 -0.097578228 7.0080225e-39
-0.09790504 -0.12063743 -0.093596041 7.377154e-39
-0.095774874 -0.11966167 -0.089518964 5.3484872e-39
-0.093819842 -0.11966167 -0.089518964 6.9161758e-39
-0.091864809 -0.11966167 -0.089518964 8.4835043e-39
-0.089803874 -0.11895646 -0.086572349 5.5577179e-40
-0.087854013 -0.11895646 -0.086572349 3.7022305e-42
-0.08567524 -0.11726747 -0.079515278 1.8494309e-39
-0.083615765 -0.11631607 -0.075539887 4.8022498e-42
-0.081571072 -0.11537148 -0.071593106 8.3635798e-40
-0.0794544 -0.11367123 -0.064488947 3.1408704e-39
-0.077543259 -0.11367123 -0.064488947 5.3531956e-39
-0.075490877 -0.11224325 -0.058522403 8.3945793e-39
-0.073503815 -0.11129995 -0.054580867 8.6708117e-39
-0.071610041 -0.11129995 -0.054580867 1.1343414e-38
-0.069661133 -0.11058317 -0.051585972 6.6407198e-39
-0.067772612 -0.11058317 -0.051585972 1.8667257e-40
-0.065824404 -0.10962458 -0.047580659 1.6618055e-39
-0.063902535 -0.10888995 -0.044511139 1.568891e-39
-0.062026419 -0.10888995 -0.044511139 1.0051605e-38
-0.060121957 -0.10818647 -0.041571796 1.2724912e-38
-0.05821909 -0.10721879 -0.037528455 4.9811942e-39
-0.056355216 -0.10721879 -0.037528455 2.4000697e-39
-0.054478139 -0.10649781 -0.034516037 1.7554178e-39
-0.052619547 -0.10649781 -0.034516037 1.0182059e-39
-0.050758328 -0.10578094 -0.031520665 6.5121843e-40
-0.048911154 -0.10409774 -0.024487674 7.4629513e-40
-0.047077876 -0.10339431 -0.021548569 1.9384022e-40
-0.04526851 -0.10194789 -0.015504897 6.9308222e-42
-0.043461636 -0.10123092 -0.012509167 3.7463154e-40
-0.041672654 -0.10028981 -0.0085769296 1.294427e-39
-0.039917402 -0.098853827 -0.0025768876 1.292269e-39
-0.038114808 -0.098853827 -0.0025768876 2.0276747e-39
-0.036312219 -0.098853827 -0.0025768876 3.6861142e-39
-0.034509625 -0.098853827 -0.0025768876 1.0138369e-38
-0.032757435 -0.098129645 0.00044900179 1.1521304e-38
-0.030960148 -0.098129645 0.00044900179 1.2720926e-38
-0.029162861 -0.098129645 0.00044900179 1.3366655e-38
-0.027365575 -0.098129645 0.00044900179 1.4659192e-38
-0.025568288 -0.098129645 0.00044900179 1.4199656e-38
-0.023847481 -0.09740968 0.0034572482 1.3831592e-38
-0.022136742 -0.096693933 0.0064478517 1.7335012e-38
-0.020435985 -0.095982388 0.0094209313 1.8900155e-38
-0.018379141 -0.098129645 0.00044900179 1.9913213e-38
-0.016581852 -0.098129645 0.00044900179 2.055822e-38
-0.014887419 -0.09740968 0.0034572482 1.8899415e-38
-0.013309762 -0.095982388 0.0094209313 1.8991246e-38
-0.011643462 -0.095250636 0.012478411 1.9176356e-38
-0.0098672658 -0.095250636 0.012478411 1.8806852e-38
-0.0050406046 -0.11296929 -0.061556041 1.945294e-38
-0.0032649189 -0.11224325 -0.058522403 1.9821004e-38
-0.0015404597 -0.11129995 -0.054580867 1.8807574e-38
0.00035331026 -0.11129995 -0.054580867 2.1019553e-38
0.0021026805 -0.11058317 -0.051585972 1.9176002e-38
0.0037910566 -0.10962458 -0.047580659 1.7792351e-38
0.0056725554 -0.10962458 -0.047580659 1.8714673e-38
0.0066952184 -0.10578094 -0.031520665 1.9267131e-38
0.0083840601 -0.1050681 -0.028542221 2.0189806e-38
0.010001134 -0.10409774 -0.024487674 2.0558231e-38
0.011842143 -0.10409774 -0.024487674 2.0559309e-38
0.013505369 -0.10339431 -0.021548569 1.9728828e-38
0.015341222 -0.10339431 -0.021548569 2.120503e-38
0.017365173 -0.10409774 -0.024487674 2.0282352e-38
0.018813677 -0.10266902 -0.018518031 1.9730254e-38
0.020440824 -0.10194789 -0.015504897 1.9177081e-38
0.022266082 -0.10194789 -0.015504897 1.9546226e-38
0.024091341 -0.10194789 -0.015504897 1.880939e-38
0.025916599 -0.10194789 -0.015504897 1.7150233e-38
0.02751863 -0.10123092 -0.012509167 1.6689266e-38
0.02903872 -0.10028981 -0.0085769296 1.4846082e-38
0.030851834 -0.10028981 -0.0085769296 1.4293641e-38
0.032664947 -0.10028981 -0.0085769296 1.6691096e-38
0.034478065 -0.10028981 -0.0085769296 1.6599265e-38
0.036291178 -0.10028981 -0.0085769296 1.4755355e-38
0.037843954 -0.099557132 -0.0055155158 1.4847902e-38
0.039651703 -0.099557132 -0.0055155158 1.5862051e-38
0.036323216 -0.085674062 0.052492499 1.844279e-38
0.03802925 -0.085674062 0.052492499 1.6045363e-38
0.039735299 -0.085674062 0.052492499 1.4200372e-38
0.047819715 -0.10194789 -0.015504897 1.3370614e-38
0.049644973 -0.10194789 -0.015504897 1.2632332e-38
0.049635451 -0.093105495 0.021441519 1.9638445e-38
0.051395934 -0.093105495 0.021441519 1.5030158e-38
0.053156417 -0.093105495 0.021441519 1.0051602e-38
0.0549169 -0.093105495 0.021441519 4.3369207e-39
0.056677368 -0.093105495 0.021441519 1.572142e-39
0.05843785 -0.093105495 0.021441519 2.4944626e-39
0.079221576 -0.10266902 -0.018518031 2.6781322e-39
0.076419175 -0.093824327 0.018438041 4.3380109e-39
0.078184918 -0.093824327 0.018438041 5.2588854e-39
0.079950675 -0.093824327 0.018438041 5.7202166e-39
0.081716418 -0.093824327 0.018438041 5.5361799e-39
0.083482161 -0.093824327 0.018438041 4.5223783e-39
0.085247904 -0.093824327 0.018438041 3.8766446e-39
0.087013647 -0.093824327 0.018438041 3.8777151e-39
0.088779405 -0.093824327 0.018438041 4.1535804e-39
0.090545148 -0.093824327 0.018438041 4.3372486e-39
0.092310891 -0.093824327 0.018438041 4.6113117e-39
0.094076633 -0.093824327 0.018438041 5.6243846e-39
0.095842376 -0.093824327 0.018438041 4.4258415e-39
-0.11047778 -0.12620462 -0.10854942 7.6522485e-39
-0.10848938 -0.12620462 -0.10854942 6.8253423e-39
-0.10650098 -0.12620462 -0.10854942 9.5080903e-41
-0.10451259 -0.12620462 -0.10854942 6.1657132e-44
-0.10233553 -0.12522577 -0.10448915 6.9154724e-39
-0.10004526 -0.12355967 -0.097578228 1.6689263e-38
-0.09790504 -0.12259962 -0.093596041 2.2405349e-38
-0.095774874 -0.12161671 -0.089518964 2.1944736e-38
-0.093819842 -0.12161671 -0.089518964 2.1944019e-38
-0.091864809 -0.12161671 -0.089518964 1.890195e-38
-0.089803874 -0.12090631 -0.086572349 6.0255834e-44
-0.087854013 -0.12090631 -0.086572349 9.2492845e-40
-0.08567524 -0.11920498 -0.079515278 4.7083628e-43
-0.083615765 -0.11824657 -0.075539887 1.8955645e-40
-0.081571072 -0.11729507 -0.071593106 1.1125819e-39
-0.0794544 -0.11558239 -0.064488947 2.1263485e-39
-0.077543259 -0.11558239 -0.064488947 2.6791523e-39
-0.07563211 -0.11558239 -0.064488947 4.5230705e-39
-0.073503815 -0.11319371 -0.054580867 8.9470301e-39
-0.071610041 -0.11319371 -0.054580867 1.2173525e-38
-0.069716275 -0.11319371 -0.054580867 7.3789995e-39
-0.067772612 -0.11247168 -0.051585972 1.8461911e-39
-0.065824404 -0.11150609 -0.047580659 8.3204198e-40
-0.063902535 -0.11076607 -0.044511139 2.8603458e-39
-0.062026419 -0.11076607 -0.044511139 1.0328192e-38
-0.060121957 -0.11005743 -0.041571796 1.0881719e-38
-0.05821909 -0.10908265 -0.037528455 1.7550689e-39
-0.056336731 -0.1083564 -0.034516037 3.3463007e-42
-0.054478139 -0.1083564 -0.034516037 1.2944396e-39
-0.052611671 -0.10763429 -0.031520665 1.7557709e-39
-0.050755717 -0.10691623 -0.028542221 1.7582891e-39
-0.048911154 -0.10593875 -0.024487674 9.3105213e-40
-0.047077876 -0.10523017 -0.021548569 8.3957817e-40
-0.04526851 -0.10377313 -0.015504897 5.6155074e-40
-0.043461636 -0.10305093 -0.012509167 6.5158837e-40
-0.041672654 -0.10210292 -0.0085769296 1.2955186e-39
-0.039917402 -0.10065642 -0.0025768876 1.3855535e-39
-0.038114808 -0.10065642 -0.0025768876 1.5685056e-39
-0.036312219 -0.10065642 -0.0025768876 2.6730553e-39
-0.034509625 -0.10065642 -0.0025768876 2.3035539e-39
-0.032757435 -0.099926919 0.00044900179 2.8567277e-39
-0.030960148 -0.099926919 0.00044900179 3.6864884e-39
-0.029283818 -0.098480701 0.0064478517 3.8715985e-39
-0.027497049 -0.098480701 0.0064478517 5.3474474e-39
-0.025568288 -0.099926919 0.00044900179 6.6392624e-39
-0.023847481 -0.099201679 0.0034572482 8.0225598e-39
-0.022136742 -0.098480701 0.0064478517 1.1618178e-38
-0.020435985 -0.097763941 0.0094209313 1.5857721e-38
-0.018931104 -0.09559007 0.018438041 1.8253717e-38
-0.017165359 -0.09559007 0.018438041 1.9083478e-38
-0.015399612 -0.09559007 0.018438041 1.8991636e-38
-0.013741821 -0.094865978 0.021441519 2.0466759e-38
-0.011981342 -0.094865978 0.021441519 2.1942225e-38
-0.0098672658 -0.09702684 0.012478411 1.9268571e-38
-0.0080910735 -0.09702684 0.012478411 1.8254418e-38
-0.0032649189 -0.11414395 -0.058522403 2.2495749e-38
-0.0015404597 -0.11319371 -0.054580867 2.3233303e-38
0.00035331026 -0.11319371 -0.054580867 2.0836246e-38
0.0021026805 -0.11247168 -0.051585972 1.982245e-38
0.0037910566 -0.11150609 -0.047580659 1.9638059e-38
0.0056725554 -0.11150609 -0.047580659 1.7886342e-38
0.0065359399 -0.10691623 -0.028542221 1.9361116e-38
0.0083840601 -0.10691623 -0.028542221 1.7793793e-38
0.010001134 -0.10593875 -0.024487674 1.7056231e-38
0.011842143 -0.10593875 -0.024487674 1.8531361e-38
0.013683155 -0.10593875 -0.024487674 2.0097608e-38
0.015524164 -0.10593875 -0.024487674 1.8899062e-38
0.017177083 -0.10523017 -0.021548569 1.9729178e-38
0.018813677 -0.10449956 -0.018518031 2.1941866e-38
0.020440824 -0.10377313 -0.015504897 2.2219166e-38
0.022266082 -0.10377313 -0.015504897 2.1666719e-38
0.024091341 -0.10377313 -0.015504897 2.2035137e-38
0.025916599 -0.10377313 -0.015504897 1.7518659e-38
0.02751863 -0.10305093 -0.012509167 1.6227572e-38
0.029338636 -0.10305093 -0.012509167 1.5491094e-38
0.030851834 -0.10210292 -0.0085769296 1.4753543e-38
0.032664947 -0.10210292 -0.0085769296 1.5491835e-38
0.034478065 -0.10210292 -0.0085769296 1.687513e-38
0.036291178 -0.10210292 -0.0085769296 1.8442432e-38
0.038104277 -0.10210292 -0.0085769296 1.5860969e-38
0.034796547 -0.087878346 0.050425828 1.6322302e-38
0.036323216 -0.087380111 0.052492499 1.6966593e-38
0.03802925 -0.087380111 0.052492499 1.6505614e-38
0.039735299 -0.087380111 0.052492499 1.6320504e-38
0.041441333 -0.087380111 0.052492499 1.6504895e-38
0.043344852 -0.087878346 0.050425828 1.7425777e-38
0.045054507 -0.087878346 0.050425828 1.9270386e-38
0.049339678 -0.094146177 0.024427235 1.8716862e-38
0.051094931 -0.094146177 0.024427235 1.4845039e-38
0.052535634 -0.093406871 0.027493834 1.0696607e-38
0.054285493 -0.093406871 0.027493834 5.8113249e-39
0.055722456 -0.092695728 0.030443609 3.5068055e-39
0.057140451 -0.091965273 0.033473492 4.5220448e-39
0.058879834 -0.091965273 0.033473492 4.9833915e-39
0.060283925 -0.091239244 0.036485016 5.0755843e-39
0.062018018 -0.091239244 0.036485016 5.2599644e-39
0.069680035 -0.092695728 0.030443609 5.2588854e-39
0.071424738 -0.092695728 0.030443609 5.8131381e-39
0.073169425 -0.092695728 0.030443609 5.1670457e-39
0.074914128 -0.092695728 0.030443609 5.9968063e-39
0.076658815 -0.092695728 0.030443609 4.521672e-39
0.078403518 -0.092695728 0.030443609 3.8766558e-39
0.080148205 -0.092695728 0.030443609 2.6781098e-39
0.083084568 -0.094865978 0.021441519 1.480277e-39
0.084845051 -0.094865978 0.021441519 9.2709766e-40
0.087013647 -0.09559007 0.018438041 1.0196478e-39
0.088779405 -0.09559007 0.018438041 1.2040363e-39
0.090545148 -0.09559007 0.018438041 1.3869856e-39
0.092310891 -0.09559007 0.018438041 4.519479e-39
0.094076633 -0.09559007 0.018438041 3.503888e-39
0.095842376 -0.09559007 0.018438041 1.8440107e-39
-0.11068961 -0.12915494 -0.11251062 6.9143317e-39
-0.10869427 -0.12915494 -0.11251062 7.3774426e-39
-0.10650098 -0.12819304 -0.10854942 1.0170372e-39
-0.10451259 -0.12819304 -0.10854942 5.465064e-44
-0.10233553 -0.12720706 -0.10448915 6.0857005e-39
-0.10004526 -0.12552883 -0.097578228 1.7058033e-38
-0.09790504 -0.1245618 -0.093596041 2.2958873e-38
-0.09594287 -0.1245618 -0.093596041 2.3142544e-38
-0.093819842 -0.12357174 -0.089518964 2.3142544e-38
-0.091864809 -0.12357174 -0.089518964 2.0468537e-38
-0.089803874 -0.12285618 -0.086572349 4.14993e-39
-0.087716356 -0.12187846 -0.082546055 7.5670117e-44
-0.08567524 -0.12114246 -0.079515278 8.211609e-43
-0.083615765 -0.12017711 -0.075539887 1.8479862e-39
-0.081571072 -0.11921866 -0.071593106 1.8490596e-39
-0.079563498 -0.11846836 -0.06850332 2.1252583e-39
-0.077645317 -0.11846836 -0.06850332 1.941216e-39
-0.07563211 -0.11749353 -0.064488947 1.5720803e-39
-0.073656693 -0.11678131 -0.061556041 5.2588349e-39
-0.071689516 -0.11604463 -0.058522403 9.1306996e-39
-0.069716275 -0.11508749 -0.054580867 1.0236697e-38
-0.067772612 -0.1143602 -0.051585972 7.3782806e-39
-0.065824404 -0.11338757 -0.047580659 2.0309383e-39
-0.063902535 -0.11264218 -0.044511139 3.137646e-39
-0.062026419 -0.11264218 -0.044511139 9.5913401e-39
-0.060121957 -0.11192839 -0.041571796 9.0381663e-39
-0.05821909 -0.11094652 -0.037528455 3.7213162e-40
-0.056336731 -0.11021499 -0.034516037 2.986167e-42
-0.054478139 -0.11021499 -0.034516037 1.4799099e-39
-0.052611671 -0.10948761 -0.031520665 1.5721027e-39
-0.050755717 -0.10876434 -0.028542221 1.5739006e-39
-0.048911154 -0.10777976 -0.024487674 5.6227101e-40
-0.047077876 -0.10706602 -0.021548569 6.5518971e-40
-0.045255303 -0.10633011 -0.018518031 4.6900339e-40
-0.043443251 -0.10559841 -0.015504897 5.6047875e-40
-0.04164163 -0.10487093 -0.012509167 1.4809973e-39
-0.039859541 -0.10391603 -0.0085769296 1.8483407e-39
-0.038114808 -0.10245901 -0.0025768876 2.0309341e-39
-0.036312219 -0.10245901 -0.0025768876 2.6748644e-39
-0.03455472 -0.10172421 0.00044900179 1.1068198e-39
-0.032757435 -0.10172421 0.00044900179 1.1060995e-39
-0.031070586 -0.10026747 0.0064478517 1.6592705e-39
-0.029343765 -0.099545494 0.0094209313 1.1060967e-39
-0.027562208 -0.099545494 0.0094209313 1.1993714e-39
-0.025710281 -0.10026747 0.0064478517 2.4901074e-39
-0.023999097 -0.099545494 0.0094209313 3.3198708e-39
-0.022383226 -0.098065019 0.015517533 5.071585e-39
-0.020612359 -0.098065019 0.015517533 9.5877275e-39
-0.01902326 -0.096626461 0.021441519 1.2906404e-38
-0.017262779 -0.096626461 0.021441519 1.3920556e-38
-0.0155023 -0.096626461 0.021441519 1.5303845e-38
-0.013741821 -0.096626461 0.021441519 1.6687133e-38
-0.012093894 -0.095901415 0.024427235 1.9361145e-38
-0.010338649 -0.095901415 0.024427235 1.8347e-38
-0.0085834041 -0.095901415 0.024427235 2.0836612e-38
-0.0075613633 -0.091756567 0.041495681 1.9730638e-38
-0.0058360435 -0.091756567 0.041495681 2.1021718e-38
-0.0042483993 -0.091037035 0.044458747 2.2312796e-38
-0.0025282763 -0.091037035 0.044458747 1.917852e-38
-0.0008081533 -0.091037035 0.044458747 2.0377417e-38
0.0046878234 -0.10876434 -0.028542221 2.1391564e-38
0.0065359399 -0.10876434 -0.028542221 1.97324e-38
0.0083840601 -0.10876434 -0.028542221 1.8441304e-38
0.010001134 -0.10777976 -0.024487674 1.8624621e-38
0.011842143 -0.10777976 -0.024487674 1.9085602e-38
0.013683155 -0.10777976 -0.024487674 2.148197e-38
0.015524164 -0.10777976 -0.024487674 1.9269275e-38
0.017177083 -0.10706602 -0.021548569 2.0928793e-38
0.018813677 -0.10633011 -0.018518031 2.2403914e-38
0.020440824 -0.10559841 -0.015504897 2.3233662e-38
0.022266082 -0.10559841 -0.015504897 2.3141826e-38
0.024091341 -0.10559841 -0.015504897 2.2588302e-38
0.025916599 -0.10559841 -0.015504897 1.8533167e-38
0.027741857 -0.10559841 -0.015504897 1.6688903e-38
0.029338636 -0.10487093 -0.012509167 1.4661691e-38
0.026086994 -0.089086145 0.052492499 1.3463156e-38
0.027317353 -0.087638199 0.05845511 1.5123404e-38
0.029012941 -0.087638199 0.05845511 1.733646e-38
0.036291178 -0.10391603 -0.0085769296 1.9087791e-38
0.038104277 -0.10391603 -0.0085769296 1.9455133e-38
0.034796547 -0.089588001 0.050425828 1.8532473e-38
0.036323216 -0.089086145 0.052492499 1.6320857e-38
0.03802925 -0.089086145 0.052492499 1.6505249e-38
0.039925527 -0.089588001 0.050425828 1.733393e-38
0.041909765 -0.090298802 0.047498763 1.8163691e-38
0.043344852 -0.089588001 0.050425828 1.9178551e-38
0.045054507 -0.089588001 0.050425828 1.7887831e-38
0.046764176 -0.089588001 0.050425828 1.7427219e-38
0.048473831 -0.089588001 0.050425828 1.3647569e-38
0.051922288 -0.093704656 0.033473492 9.8679158e-39
0.053661685 -0.093704656 0.033473492 5.4421766e-39
0.055401068 -0.093704656 0.033473492 3.3216897e-39
0.057140451 -0.093704656 0.033473492 4.613153e-39
0.058549818 -0.092973351 0.036485016 5.6276721e-39
0.060283925 -0.092973351 0.036485016 6.3652357e-39
0.062018018 -0.092973351 0.036485016 5.0752018e-39
0.06375213 -0.092973351 0.036485016 5.2595874e-39
0.065837368 -0.093704656 0.033473492 6.2730233e-39
0.067576751 -0.093704656 0.033473492 5.5361771e-39
0.069316134 -0.093704656 0.033473492 5.1666785e-39
0.071424738 -0.094440416 0.030443609 5.259593e-39
0.073169425 -0.094440416 0.030443609 4.8900916e-39
0.074914128 -0.094440416 0.030443609 5.5354582e-39
0.076658815 -0.094440416 0.030443609 3.9684885e-39
0.078403518 -0.094440416 0.030443609 2.6777454e-39
0.080148205 -0.094440416 0.030443609 1.3873626e-39
0.082283393 -0.095156729 0.027493834 1.1111274e-39
0.084845051 -0.096626461 0.021441519 1.480263e-39
0.086605534 -0.096626461 0.021441519 1.8490399e-39
0.088779405 -0.097355813 0.018438041 1.9415929e-39
0.090545148 -0.097355813 0.018438041 2.1249052e-39
0.092310891 -0.097355813 0.018438041 4.2439683e-39
0.094076633 -0.097355813 0.018438041 1.9372853e-39
0.095842376 -0.097355813 0.018438041 7.3874493e-40
-0.11085463 -0.13190506 -0.11559647 7.8359279e-39
-0.10869427 -0.13115029 -0.11251062 7.3774426e-39
-0.10650098 -0.13018142 -0.10854942 1.3847393e-39
-0.10451259 -0.13018142 -0.10854942 5.1848043e-44
-0.10233553 -0.12918831 -0.10448915 5.1633799e-39
-0.10035425 -0.12918831 -0.10448915 1.5767284e-38
-0.098076105 -0.12749799 -0.097578228 2.2312796e-38
-0.09594287 -0.12652399 -0.093596041 2.3234379e-38
-0.093819842 -0.12552677 -0.089518964 2.3233662e-38
-0.091864809 -0.12552677 -0.089518964 2.2403552e-38
-0.089803874 -0.12480606 -0.086572349 1.5673647e-38
-0.087716356 -0.12382124 -0.082546055 4.0577512e-39
-0.08567524 -0.12307997 -0.079515278 1.5688517e-39
-0.083615765 -0.12210761 -0.075539887 1.8987594e-42
-0.081571072 -0.12114228 -0.071593106 9.5527918e-41
-0.079563498 -0.12038656 -0.06850332 1.0178219e-39
-0.077645317 -0.12038656 -0.06850332 9.6576089e-41
-0.07563211 -0.11940466 -0.064488947 4.6500408e-40
-0.073656693 -0.11868732 -0.061556041 1.8475854e-39
-0.071750686 -0.11868732 -0.061556041 4.9818879e-39
-0.069716275 -0.11698125 -0.054580867 1.0421438e-38
-0.067772612 -0.11624874 -0.051585972 8.3005887e-39
-0.065884091 -0.11624874 -0.051585972 1.1093337e-39
-0.063902535 -0.1145183 -0.044511139 4.1521524e-39
-0.062026419 -0.1145183 -0.044511139 8.3009586e-39
-0.060121957 -0.11379938 -0.041571796 7.3790023e-39
-0.05821909 -0.11281042 -0.037528455 5.5760188e-40
-0.056336731 -0.11207359 -0.034516037 1.1107729e-39
-0.054465011 -0.11134095 -0.031520665 1.849054e-39
-0.052603833 -0.11061247 -0.028542221 1.1118463e-39
-0.050752163 -0.10962076 -0.024487674 1.2054824e-39
-0.048913732 -0.10890187 -0.021548569 7.4594621e-40
-0.047085844 -0.10816063 -0.018518031 2.8533379e-40
-0.045255303 -0.10816063 -0.018518031 8.3867713e-42
-0.043443251 -0.10742365 -0.015504897 6.5339885e-40
-0.04164163 -0.10669093 -0.012509167 2.0352543e-39
-0.039859541 -0.10572915 -0.0085769296 2.1263709e-39
-0.038114808 -0.10426159 -0.0025768876 2.0327404e-39
-0.036312219 -0.10426159 -0.0025768876 2.8610619e-39
-0.03455472 -0.10352151 0.00044900179 3.1369299e-39
-0.032807544 -0.10278571 0.0034572482 2.3990048e-39
-0.031070586 -0.10205424 0.0064478517 3.0432952e-39
-0.029343765 -0.10132705 0.0094209313 2.2135317e-39
-0.027562208 -0.10132705 0.0094209313 1.6599964e-39
-0.025710281 -0.10205424 0.0064478517 2.3975614e-39
-0.023999097 -0.10132705 0.0094209313 2.1198955e-39
-0.022383226 -0.099835888 0.015517533 1.8433086e-39
-0.02069685 -0.099121556 0.018438041 2.3964824e-39
-0.01902326 -0.098386943 0.021441519 3.6872212e-39
-0.017359629 -0.097656667 0.024427235 2.7656209e-39
-0.015604384 -0.097656667 0.024427235 4.7017263e-39
-0.013849139 -0.097656667 0.024427235 5.8084284e-39
-0.012093894 -0.097656667 0.024427235 1.0418204e-38
-0.010575995 -0.096185118 0.030443609 1.4198578e-38
-0.0090802237 -0.094707444 0.036485016 2.2773049e-38
-0.0075613633 -0.093481898 0.041495681 2.2220243e-38
-0.0058360435 -0.093481898 0.041495681 1.770342e-38
-0.0042483993 -0.092757151 0.044458747 2.0377434e-38
-0.0025282763 -0.092757151 0.044458747 1.9824618e-38
-0.0008081533 -0.092757151 0.044458747 2.1300094e-38
0.00091196969 -0.092757151 0.044458747 2.2775202e-38
0.0026320927 -0.092757151 0.044458747 2.1208609e-38
0.0081601255 -0.10962076 -0.024487674 2.2775202e-38
0.010001134 -0.10962076 -0.024487674 2.2314231e-38
0.011842143 -0.10962076 -0.024487674 2.2221319e-38
0.013683155 -0.10962076 -0.024487674 2.2129125e-38
0.015524164 -0.10962076 -0.024487674 2.0377417e-38
0.017365173 -0.10962076 -0.024487674 2.0745121e-38
0.019206181 -0.10962076 -0.024487674 2.0376341e-38
0.020440824 -0.10742365 -0.015504897 2.0652574e-38
0.022266082 -0.10742365 -0.015504897 1.973134e-38
0.024091341 -0.10742365 -0.015504897 1.9177815e-38
0.025916599 -0.10742365 -0.015504897 1.687329e-38
0.027741857 -0.10742365 -0.015504897 1.5951701e-38
0.024152875 -0.090060756 0.055482924 1.4108517e-38
0.025853671 -0.090060756 0.055482924 1.3739743e-38
0.027317353 -0.089333788 0.05845511 1.6506336e-38
0.029012941 -0.089333788 0.05845511 1.8350955e-38
0.031205103 -0.090792179 0.052492499 1.8811209e-38
0.032911144 -0.090792179 0.052492499 1.9177474e-38
0.034617182 -0.090792179 0.052492499 1.8162978e-38
0.036506202 -0.091297671 0.050425828 1.8162978e-38
0.038215872 -0.091297671 0.050425828 1.8716862e-38
0.039925527 -0.091297671 0.050425828 1.8072577e-38
0.041909765 -0.092013597 0.047498763 1.6873678e-38
0.043344852 -0.091297671 0.050425828 1.3555354e-38
0.045054507 -0.091297671 0.050425828 8.6697103e-39
0.046764176 -0.091297671 0.050425828 6.8261634e-39
0.048473831 -0.091297671 0.050425828 5.7201802e-39
0.05048373 -0.092013597 0.047498763 5.9042211e-39
0.053347509 -0.094707444 0.036485016 4.7975219e-39
0.055081602 -0.094707444 0.036485016 4.0596051e-39
0.05681571 -0.094707444 0.036485016 4.8890154e-39
0.058549818 -0.094707444 0.036485016 4.3365661e-39
0.060283925 -0.094707444 0.036485016 4.0603338e-39
0.062018018 -0.094707444 0.036485016 2.40116e-39
0.06375213 -0.094707444 0.036485016 1.571751e-39
0.065486237 -0.094707444 0.036485016 2.3082398e-39
0.067576751 -0.095444039 0.033473492 2.5855498e-39
0.069316134 -0.095444039 0.033473492 2.1234941e-39
0.071055517 -0.095444039 0.033473492 1.387008e-39
0.072794899 -0.095444039 0.033473492 1.6625159e-39
0.074914128 -0.096185118 0.030443609 2.2167687e-39
0.076658815 -0.096185118 0.030443609 2.216047e-39
0.078403518 -0.096185118 0.030443609 1.1107729e-39
0.080148205 -0.096185118 0.030443609 7.4234487e-40
0.081892908 -0.096185118 0.030443609 1.5724587e-39
0.084444582 -0.097656667 0.024427235 2.5866078e-39
0.086605534 -0.098386943 0.021441519 2.8635492e-39
0.088366017 -0.098386943 0.021441519 2.6791523e-39
0.090545148 -0.099121556 0.018438041 2.7702718e-39
0.092310891 -0.099121556 0.018438041 2.5844456e-39
0.094076633 -0.099121556 0.018438041 6.4726256e-40
0.095842376 -0.099121556 0.018438041 7.3874493e-40
-0.11085463 -0.13390581 -0.11559647 8.3891003e-39
-0.10885388 -0.13390581 -0.11559647 7.2845254e-39
-0.10650098 -0.13216983 -0.10854942 1.7531589e-39
-0.10451259 -0.13216983 -0.10854942 1.8444451e-40
-0.10233553 -0.1311696 -0.10448915 5.4392437e-39
-0.10035425 -0.1311696 -0.10448915 1.687219e-38
-0.098076105 -0.12946714 -0.097578228 2.3417691e-38
-0.09594287 -0.12848614 -0.093596041 2.304891e-38
-0.093819842 -0.1274818 -0.089518964 2.3416971e-38
-0.091864809 -0.1274818 -0.089518964 2.3416974e-38
-0.089803874 -0.12675591 -0.086572349 1.9913554e-38
-0.087716356 -0.12576406 -0.082546055 1.5488551e-38
-0.08567524 -0.12501745 -0.079515278 8.4824225e-39
-0.083615765 -0.12403814 -0.075539887 6.5470416e-39
-0.081571072 -0.12306587 -0.071593106 8.4842288e-39
-0.079563498 -0.12230472 -0.06850332 7.0094477e-39
-0.077645317 -0.12230472 -0.06850332 2.2156308e-39
-0.07563211 -0.12131582 -0.064488947 2.6769719e-39
-0.073720962 -0.12131582 -0.064488947 7.4051197e-40
-0.071750686 -0.12059332 -0.061556041 2.399683e-39
-0.069788828 -0.119846 -0.058522403 9.2228869e-39
-0.067822501 -0.11887501 -0.054580867 8.9463084e-39
-0.065884091 -0.11813726 -0.051585972 6.5492276e-39
-0.063942894 -0.11715056 -0.047580659 6.8261788e-39
-0.062026419 -0.11639442 -0.044511139 6.6414317e-39
-0.060121957 -0.11567034 -0.041571796 4.7064052e-39
-0.05821909 -0.11467429 -0.037528455 6.4979751e-40
-0.056336731 -0.11393218 -0.034516037 1.5717538e-39
-0.054465011 -0.1131943 -0.031520665 1.1114917e-39
-0.052603833 -0.11246057 -0.028542221 8.3490484e-40
-0.050752163 -0.11146177 -0.024487674 2.0348872e-39
-0.048913732 -0.11073773 -0.021548569 1.2987641e-39
-0.047085844 -0.10999118 -0.018518031 5.6192068e-40
-0.045255303 -0.10999118 -0.018518031 4.6936772e-40
-0.043443251 -0.10924892 -0.015504897 2.1288919e-39
-0.04164163 -0.10851096 -0.012509167 3.326719e-39
-0.039859541 -0.10754226 -0.0085769296 2.0359802e-39
-0.038114808 -0.10606419 -0.0025768876 1.1129477e-39
-0.036312219 -0.10606419 -0.0025768876 1.7575982e-39
-0.03455472 -0.1053188 0.00044900179 2.4933682e-39
-0.032807544 -0.10457774 0.0034572482 1.4788533e-39
-0.031070586 -0.10384102 0.0064478517 2.1227836e-39
-0.029343765 -0.1031086 0.0094209313 1.6610838e-39
-0.027562208 -0.1031086 0.0094209313 1.9369476e-39
-0.025780654 -0.1031086 0.0094209313 3.2258886e-39
-0.024076829 -0.10235542 0.012478411 2.8567431e-39
-0.022462595 -0.1008873 0.018438041 2.3042882e-39
-0.02069685 -0.1008873 0.018438041 1.4756065e-39
-0.01902326 -0.10014741 0.021441519 2.3057273e-39
-0.017359629 -0.099411905 0.024427235 1.6603579e-39
-0.015604384 -0.099411905 0.024427235 3.4120749e-39
-0.013849139 -0.099411905 0.024427235 3.5046278e-39
-0.012209494 -0.098656476 0.027493834 7.008059e-39
-0.010575995 -0.09792982 0.030443609 9.1285557e-39
-0.0090802237 -0.096441552 0.036485016 1.5951384e-38
-0.0075613633 -0.095207214 0.041495681 1.6965886e-38
-0.0059685223 -0.094477281 0.044458747 1.4385116e-38
-0.0042483993 -0.094477281 0.044458747 1.4754248e-38
-0.0025282763 -0.094477281 0.044458747 1.7243879e-38
-0.0008081533 -0.094477281 0.044458747 1.8535322e-38
0.00075472891 -0.093728393 0.047498763 2.2499695e-38
0.0024695247 -0.093728393 0.047498763 2.2499695e-38
0.0041843168 -0.093728393 0.047498763 2.1578829e-38
0.005444143 -0.091761544 0.055482924 2.2499695e-38
0.0071449392 -0.091761544 0.055482924 2.2591531e-38
0.0088457316 -0.091761544 0.055482924 1.9734209e-38
0.0096777715 -0.088323236 0.069440305 1.9641656e-38
0.018486209 -0.089803949 0.063429534 1.7703415e-38
0.020173065 -0.089803949 0.063429534 1.4569489e-38
0.022452086 -0.091761544 0.055482924 1.4385464e-38
0.024152875 -0.091761544 0.055482924 1.457058e-38
0.025853671 -0.091761544 0.055482924 1.4663142e-38
0.027554467 -0.091761544 0.055482924 1.6046798e-38
0.029255256 -0.091761544 0.055482924 1.6599616e-38
0.030956052 -0.091761544 0.055482924 1.6875484e-38
0.032656848 -0.091761544 0.055482924 1.7701649e-38
0.034617182 -0.092498213 0.052492499 1.5949215e-38
0.036506202 -0.093007326 0.050425828 1.7425064e-38
0.038215872 -0.093007326 0.050425828 1.6319076e-38
0.04019497 -0.093728393 0.047498763 1.4753548e-38
0.041909765 -0.093728393 0.047498763 1.3740836e-38
0.043344852 -0.093007326 0.050425828 8.8551861e-39
0.045054507 -0.093007326 0.050425828 5.1680826e-39
0.046764176 -0.093007326 0.050425828 5.2609999e-39
0.048473831 -0.093007326 0.050425828 4.7074702e-39
0.05048373 -0.093728393 0.047498763 5.8138234e-39
0.053135764 -0.095941558 0.038514674 5.2602951e-39
0.055081602 -0.096441552 0.036485016 4.3372668e-39
0.05681571 -0.096441552 0.036485016 4.0606841e-39
0.058327403 -0.095941558 0.038514674 2.7688691e-39
0.060057949 -0.095941558 0.038514674 1.84691e-39
0.061788496 -0.095941558 0.038514674 2.6770196e-39
0.06375213 -0.096441552 0.036485016 2.0320047e-39
0.065486237 -0.096441552 0.036485016 1.7547003e-39
0.067220345 -0.096441552 0.036485016 1.4784764e-39
0.069316134 -0.097183421 0.033473492 1.2933691e-39
0.071055517 -0.097183421 0.033473492 2.1238486e-39
0.072794899 -0.097183421 0.033473492 3.2294801e-39
0.074914128 -0.09792982 0.030443609 2.3082398e-39
0.076658815 -0.09792982 0.030443609 2.3078769e-39
0.078403518 -0.09792982 0.030443609 1.8476148e-39
0.080148205 -0.09792982 0.030443609 1.8476106e-39
0.081892908 -0.09792982 0.030443609 2.4933332e-39
0.084033251 -0.098656476 0.027493834 2.9543085e-39
0.08619982 -0.099411905 0.024427235 2.7702718e-39
0.088366017 -0.10014741 0.021441519 2.3096496e-39
0.090545148 -0.1008873 0.018438041 1.940867e-39
0.092310891 -0.1008873 0.018438041 2.216019e-39
0.094076633 -0.1008873 0.018438041 7.4053439e-40
0.095842376 -0.1008873 0.018438041 8.3165663e-40
-0.10885388 -0.13590656 -0.11559647 8.1139203e-39
-0.10669892 -0.13514097 -0.11251062 3.2275659e-39
-0.10451259 -0.13415821 -0.10854942 7.3689942e-40
-0.10252419 -0.13415821 -0.10854942 4.608767e-39
-0.10035425 -0.13315089 -0.10448915 1.6410135e-38
-0.098076105 -0.1314363 -0.097578228 2.3509527e-38
-0.09594287 -0.13044833 -0.093596041 2.3509527e-38
-0.093980685 -0.13044833 -0.093596041 2.3508081e-38
-0.091864809 -0.12943684 -0.089518964 2.3509521e-38
-0.089803874 -0.12870578 -0.086572349 2.3509168e-38
-0.087716356 -0.12770687 -0.082546055 2.3508809e-38
-0.08567524 -0.12695493 -0.079515278 2.1481254e-38
-0.083494663 -0.12498946 -0.071593106 2.2681214e-38
-0.081571072 -0.12498946 -0.071593106 2.2865961e-38
-0.0794544 -0.12322696 -0.064488947 2.240499e-38
-0.077543259 -0.12322696 -0.064488947 1.585986e-38
-0.07563211 -0.12322696 -0.064488947 1.3001441e-38
-0.073720962 -0.12322696 -0.064488947 2.1230821e-39
-0.071750686 -0.1224993 -0.061556041 2.7881776e-40
-0.069788828 -0.12174667 -0.058522403 6.2719008e-39
-0.067822501 -0.1207688 -0.054580867 7.6552052e-39
-0.065884091 -0.12002577 -0.051585972 8.0243549e-39
-0.063942894 -0.11903207 -0.047580659 8.2091119e-39
-0.062026419 -0.11827053 -0.044511139 4.2447012e-39
-0.060121957 -0.1175413 -0.041571796 2.4937073e-39
-0.05821909 -0.11653815 -0.037528455 1.1114945e-39
-0.056336731 -0.11579077 -0.034516037 1.8490596e-39
-0.054465011 -0.11504765 -0.031520665 4.6612512e-40
-0.052603833 -0.1143087 -0.028542221 2.8245413e-40
-0.050752163 -0.11330278 -0.024487674 1.9426943e-39
-0.048913732 -0.11257361 -0.021548569 1.2976879e-39
-0.047085844 -0.11182173 -0.018518031 1.3909625e-39
-0.045255303 -0.11182173 -0.018518031 2.1288919e-39
-0.043443251 -0.11107419 -0.015504897 3.6962204e-39
-0.04164163 -0.11033095 -0.012509167 4.1568426e-39
-0.039859541 -0.10935538 -0.0085769296 2.3129328e-39
-0.038114808 -0.10786678 -0.0025768876 8.3780272e-40
-0.036312219 -0.10786678 -0.0025768876 1.2980634e-39
-0.03455472 -0.10711606 0.00044900179 1.6657669e-39
-0.032807544 -0.10636975 0.0034572482 1.388101e-39
-0.031070586 -0.10562779 0.0064478517 2.1238682e-39
-0.029343765 -0.10489015 0.0094209313 1.9380364e-39
-0.027562208 -0.10489015 0.0094209313 2.3975726e-39
-0.025780654 -0.10489015 0.0094209313 2.9493045e-39
-0.024076829 -0.10413162 0.012478411 2.1184648e-39
-0.022462595 -0.10265306 0.018438041 2.3035693e-39
-0.020783741 -0.10190789 0.021441519 2.8592528e-39
-0.01902326 -0.10190789 0.021441519 5.811308e-39
-0.017359629 -0.10116716 0.024427235 7.3786366e-39
-0.015604384 -0.10116716 0.024427235 7.3782806e-39
-0.013849139 -0.10116716 0.024427235 5.8109591e-39
-0.01232069 -0.099674508 0.030443609 8.2080455e-39
-0.010695525 -0.098922804 0.033473492 8.3002411e-39
-0.0091638528 -0.097672105 0.038514674 1.0512935e-38
-0.0075613633 -0.09693253 0.041495681 9.9601142e-39
-0.0059685223 -0.096197397 0.044458747 6.5492276e-39
-0.0043896474 -0.095443189 0.047498763 4.1524916e-39
-0.0026748553 -0.095443189 0.047498763 1.2025803e-39
-0.0011063293 -0.094716981 0.050425828 3.7352732e-40
0.00060333312 -0.094716981 0.050425828 1.2635895e-38
0.0022024736 -0.094204247 0.052492499 1.9643109e-38
0.0037433505 -0.093462333 0.055482924 2.2224189e-38
0.005444143 -0.093462333 0.055482924 2.1672099e-38
0.0071449392 -0.093462333 0.055482924 1.8906252e-38
0.018272124 -0.090742856 0.066444337 1.6690359e-38
0.020173065 -0.091490805 0.063429534 1.4016332e-38
0.021859929 -0.091490805 0.063429534 1.2726315e-38
0.023546793 -0.091490805 0.063429534 1.0974964e-38
0.025384113 -0.091969252 0.061501086 9.7771424e-39
0.027317353 -0.092724949 0.05845511 1.0238842e-38
0.029012941 -0.092724949 0.05845511 8.8559078e-39
0.030708522 -0.092724949 0.05845511 7.0102002e-39
0.032656848 -0.093462333 0.055482924 7.190644e-39
0.034617182 -0.094204247 0.052492499 4.6084489e-39
0.036323216 -0.094204247 0.052492499 5.0701445e-39
0.03802925 -0.094204247 0.052492499 2.3057147e-39
0.039925527 -0.094716981 0.050425828 1.2933606e-39
0.041909765 -0.095443189 0.047498763 2.6784503e-39
0.043344852 -0.094716981 0.050425828 5.5974867e-40
0.045054507 -0.094716981 0.050425828 1.2054782e-39
0.046764176 -0.094716981 0.050425828 2.3125446e-39
0.048473831 -0.094716981 0.050425828 1.1140043e-39
0.05048373 -0.095443189 0.047498763 1.4820693e-39
0.052824777 -0.09693253 0.041495681 9.2817666e-40
0.054550093 -0.09693253 0.041495681 8.3490764e-40
0.056596857 -0.097672105 0.038514674 1.9405363e-39
0.058327403 -0.097672105 0.038514674 2.216047e-39
0.060057949 -0.097672105 0.038514674 2.4004355e-39
0.061788496 -0.097672105 0.038514674 2.6766552e-39
0.063519046 -0.097672105 0.038514674 3.3223806e-39
0.065249577 -0.097672105 0.038514674 2.6762951e-39
0.067220345 -0.09817566 0.036485016 1.7546989e-39
0.068954438 -0.09817566 0.036485016 2.5837449e-39
0.071055517 -0.098922804 0.033473492 5.9957021e-39
0.072794899 -0.098922804 0.033473492 7.7470631e-39
0.074914128 -0.099674508 0.030443609 4.2436292e-39
0.076658815 -0.099674508 0.030443609 3.6908114e-39
0.078403518 -0.099674508 0.030443609 3.6908072e-39
0.080533519 -0.10040633 0.027493834 3.5067718e-39
0.082283393 -0.10040633 0.027493834 3.1387026e-39
0.084033251 -0.10040633 0.027493834 3.2305339e-39
0.08619982 -0.10116716 0.024427235 3.2312499e-39
0.088366017 -0.10190789 0.021441519 2.8621045e-39
0.090126485 -0.10190789 0.021441519 2.3089279e-39
0.092310891 -0.10265306 0.018438041 2.4933219e-39
0.094076633 -0.10265306 0.018438041 1.3862583e-39
0.096264839 -0.10337763 0.015517533 8.3165382e-40
0.098035708 -0.10337763 0.015517533 8.3165663e-40
-0.11085463 -0.13790731 -0.11559647 9.9564092e-39
-0.10885388 -0.13790731 -0.11559647 9.128068e-39
-0.10669892 -0.13713633 -0.11251062 3.9651281e-39
-0.10451259 -0.13614662 -0.10854942 3.681169e-40
-0.10252419 -0.13614662 -0.10854942 2.9488897e-39
-0.10035425 -0.13513215 -0.10448915 1.5026129e-38
-0.098076105 -0.13340546 -0.097578228 2.2494313e-38
-0.09594287 -0.13241051 -0.093596041 2.3322983e-38
-0.093980685 -0.13241051 -0.093596041 2.3508446e-38
-0.091864809 -0.13139187 -0.089518964 2.3137499e-38
-0.089803874 -0.13065563 -0.086572349 2.3508807e-38
-0.087716356 -0.12964968 -0.082546055 2.2585783e-38
-0.08567524 -0.12889244 -0.079515278 2.3508809e-38
-0.083494663 -0.12691309 -0.071593106 2.3142185e-38
-0.081571072 -0.12691309 -0.071593106 2.1944377e-38
-0.0794544 -0.12513812 -0.064488947 2.2957796e-38
-0.077543259 -0.12513812 -0.064488947 1.9639162e-38
-0.07563211 -0.12513812 -0.064488947 1.641196e-38
-0.073656693 -0.12440531 -0.061556041 2.7673725e-39
-0.071750686 -0.12440531 -0.061556041 9.2418436e-40
-0.069788828 -0.12364738 -0.058522403 5.0733562e-39
-0.067822501 -0.12266256 -0.054580867 8.1165393e-39
-0.065884091 -0.12191428 -0.051585972 8.9463084e-39
-0.063942894 -0.12091358 -0.047580659 8.3935003e-39
-0.062026419 -0.12014665 -0.044511139 2.2163973e-39
-0.060121957 -0.11941226 -0.041571796 1.2951641e-39
-0.05821909 -0.11840202 -0.037528455 1.7568639e-39
-0.056336731 -0.11764936 -0.034516037 2.1252905e-39
-0.054465011 -0.11690097 -0.031520665 9.8065669e-41
-0.052603833 -0.1161568 -0.028542221 2.8245693e-40
-0.050752163 -0.11514379 -0.024487674 1.2051321e-39
-0.048913732 -0.11440946 -0.021548569 1.3898835e-39
-0.047085844 -0.11365227 -0.018518031 3.2348751e-39
-0.045255303 -0.11365227 -0.018518031 4.2493914e-39
-0.043443251 -0.11289944 -0.015504897 3.9728073e-39
-0.04164163 -0.11215095 -0.012509167 2.9593784e-39
-0.039859541 -0.11116849 -0.0085769296 1.4846113e-39
-0.038081318 -0.11040358 -0.0055155158 7.4704763e-40
-0.036312219 -0.10966937 -0.0025768876 1.2073097e-39
-0.03455472 -0.10891335 0.00044900179 1.0218395e-39
-0.032807544 -0.10816176 0.0034572482 1.4813785e-39
-0.031070586 -0.10741456 0.0064478517 2.0323942e-39
-0.029343765 -0.10667174 0.0094209313 1.4777785e-39
-0.027562208 -0.10667174 0.0094209313 1.752206e-39
-0.025780654 -0.10667174 0.0094209313 1.565654e-39
-0.024076829 -0.10590781 0.012478411 1.2876251e-39
-0.022462595 -0.1044188 0.018438041 3.3180758e-39
-0.020783741 -0.10366838 0.021441519 3.322012e-39
-0.01902326 -0.10366838 0.021441519 5.5364966e-39
-0.017359629 -0.10292239 0.024427235 7.8406769e-39
-0.015709229 -0.10215621 0.027493834 6.6421393e-39
-0.014065385 -0.10141921 0.030443609 5.2584972e-39
-0.01232069 -0.10141921 0.030443609 8.3931542e-39
-0.010695525 -0.10066219 0.033473492 9.5913457e-39
-0.0091638528 -0.099402651 0.038514674 9.4065985e-39
-0.0075613633 -0.098657846 0.041495681 1.0051968e-38
-0.0059685223 -0.097917527 0.044458747 6.0879118e-39
-0.0043896474 -0.09715797 0.047498763 4.8897203e-39
-0.0026748553 -0.09715797 0.047498763 2.1238458e-39
-0.0011063293 -0.096426651 0.050425828 3.333689e-42
0.00060333312 -0.096426651 0.050425828 1.0699099e-38
0.002042558 -0.095163137 0.055482924 1.2451169e-38
0.0037433505 -0.095163137 0.055482924 2.102674e-38
0.005444143 -0.095163137 0.055482924 2.1948682e-38
0.0071449392 -0.095163137 0.055482924 1.7616966e-38
0.0081826746 -0.092424423 0.066444337 1.5587949e-38
0.0096777715 -0.091675878 0.069440305 1.3006117e-38
0.011354096 -0.091675878 0.069440305 1.3005043e-38
0.013030417 -0.091675878 0.069440305 1.5309582e-38
0.014706738 -0.091675878 0.069440305 1.4755338e-38
0.016383059 -0.091675878 0.069440305 1.6875484e-38
0.018272124 -0.092424423 0.066444337 1.4294011e-38
0.019953698 -0.092424423 0.066444337 1.2173158e-38
0.021635279 -0.092424423 0.066444337 1.0790587e-38
0.023316853 -0.092424423 0.066444337 7.933604e-39
0.025233649 -0.093177676 0.063429534 6.3666398e-39
0.027074359 -0.09365949 0.061501086 7.1052839e-39
0.029012941 -0.094420537 0.05845511 5.1691756e-39
0.030708522 -0.094420537 0.05845511 2.4926283e-39
0.032656848 -0.095163137 0.055482924 2.6730707e-39
0.034617182 -0.095910296 0.052492499 2.2106604e-39
0.036323216 -0.095910296 0.052492499 2.4883235e-39
0.03802925 -0.095910296 0.052492499 1.5681651e-39
0.039925527 -0.096426651 0.050425828 1.5703203e-39
0.041635197 -0.096426651 0.050425828 1.6653914e-39
0.043344852 -0.096426651 0.050425828 7.4487001e-40
0.045054507 -0.096426651 0.050425828 1.9448523e-39
0.046764176 -0.096426651 0.050425828 2.0370452e-39
0.048473831 -0.096426651 0.050425828 9.306976e-40
0.050183486 -0.096426651 0.050425828 1.5757041e-39
0.052515667 -0.097917527 0.044458747 1.4824294e-39
0.054235782 -0.097917527 0.044458747 1.1125679e-39
0.056275409 -0.098657846 0.041495681 1.6646627e-39
0.058000725 -0.098657846 0.041495681 9.263788e-40
0.059726056 -0.098657846 0.041495681 9.2493966e-40
0.061451372 -0.098657846 0.041495681 1.9387301e-39
0.063519046 -0.099402651 0.038514674 2.3075098e-39
0.065249577 -0.099402651 0.038514674 2.3986292e-39
0.066980124 -0.099402651 0.038514674 3.3216645e-39
0.068954438 -0.099909768 0.036485016 4.9797523e-39
0.071055517 -0.10066219 0.033473492 7.6545046e-39
0.072794899 -0.10066219 0.033473492 8.3920724e-39
0.074914128 -0.10141921 0.030443609 3.505704e-39
0.076658815 -0.10141921 0.030443609 3.0447231e-39
0.078403518 -0.10141921 0.030443609 3.5056984e-39
0.080533519 -0.10215621 0.027493834 3.4138601e-39
0.082283393 -0.10215621 0.027493834 2.769204e-39
0.084033251 -0.10215621 0.027493834 3.2298164e-39
0.085783124 -0.10215621 0.027493834 3.8759033e-39
0.088366017 -0.10366838 0.021441519 3.6911463e-39
0.090126485 -0.10366838 0.021441519 2.4933191e-39
0.092310891 -0.1044188 0.018438041 1.6635585e-39
0.09449397 -0.10514848 0.015517533 1.7557569e-39
0.096264839 -0.10514848 0.015517533 1.8468819e-39
0.098480642 -0.10590781 0.012478411 2.1223926e-39
-0.11068961 -0.13913165 -0.11251062 1.1430819e-38
-0.10869427 -0.13913165 -0.11251062 1.0510651e-38
-0.10669892 -0.13913165 -0.11251062 5.2565956e-39
-0.10451259 -0.138135 -0.10854942 3.6956024e-40
-0.10252419 -0.138135 -0.10854942 2.7737862e-40
-0.10035425 -0.13711344 -0.10448915 9.4976395e-39
-0.098076105 -0.13537462 -0.097578228 1.5121912e-38
-0.09594287 -0.1343727 -0.093596041 1.6134972e-38
-0.093980685 -0.1343727 -0.093596041 2.166562e-38
-0.091864809 -0.13334687 -0.089518964 2.0743298e-38
-0.089803874 -0.13260551 -0.086572349 2.2955993e-38
-0.087612733 -0.13082992 -0.079515278 2.3233302e-38
-0.085546285 -0.12982969 -0.075539887 2.341805e-38
-0.083615765 -0.12982969 -0.075539887 2.3049991e-38
-0.081571072 -0.12883668 -0.071593106 2.2865961e-38
-0.079563498 -0.12805928 -0.06850332 2.3142185e-38
-0.077645317 -0.12805928 -0.06850332 1.9638069e-38
-0.07563211 -0.12704925 -0.064488947 1.4567683e-38
-0.073656693 -0.12631132 -0.061556041 1.6603089e-39
-0.071750686 -0.12631132 -0.061556041 5.5397392e-40
-0.069788828 -0.12554805 -0.058522403 1.0156807e-39
-0.067822501 -0.12455635 -0.054580867 6.1789976e-39
-0.065884091 -0.12380283 -0.051585972 9.4069264e-39
-0.063942894 -0.12279506 -0.047580659 9.2221792e-39
-0.062026419 -0.12202276 -0.044511139 1.478112e-39
-0.060121957 -0.12128322 -0.041571796 6.4871571e-40
-0.05821909 -0.12026589 -0.037528455 1.6628704e-39
-0.056336731 -0.11950795 -0.034516037 1.387008e-39
-0.054465011 -0.11875431 -0.031520665 9.6988071e-41
-0.052603833 -0.11800493 -0.028542221 1.2033356e-39
-0.050752163 -0.1169848 -0.024487674 1.4813617e-39
-0.048913732 -0.11624531 -0.021548569 2.4051158e-39
-0.047077876 -0.11624531 -0.021548569 5.3557389e-39
-0.045255303 -0.11548282 -0.018518031 5.9089155e-39
-0.043443251 -0.11472471 -0.015504897 3.3270819e-39
-0.04164163 -0.11397095 -0.012509167 1.2065824e-39
-0.039821621 -0.11397095 -0.012509167 4.690174e-40
-0.038046427 -0.1129816 -0.0085769296 7.4524415e-40
-0.036312219 -0.11147197 -0.0025768876 1.2062195e-39
-0.03455472 -0.11071064 0.00044900179 7.4451828e-40
-0.032757435 -0.11071064 0.00044900179 1.2044146e-39
-0.031070586 -0.10920133 0.0064478517 9.2674874e-40
-0.029343765 -0.10845329 0.0094209313 2.6330398e-42
-0.027562208 -0.10845329 0.0094209313 8.3023711e-40
-0.025780654 -0.10845329 0.0094209313 1.5660043e-39
-0.024076829 -0.107684 0.012478411 3.5003174e-39
-0.022462595 -0.10618456 0.018438041 8.2966342e-39
-0.020783741 -0.10542886 0.021441519 7.3804064e-39
-0.01902326 -0.10542886 0.021441519 7.2900044e-39
-0.017359629 -0.10467763 0.024427235 1.0607256e-38
-0.015709229 -0.10390608 0.027493834 1.1250836e-38
-0.014065385 -0.10316391 0.030443609 1.0789861e-38
-0.012434907 -0.10240157 0.033473492 1.1250486e-38
-0.010814328 -0.10164386 0.036485016 8.4857002e-39
-0.0090802237 -0.10164386 0.036485016 3.9684843e-39
-0.0075613633 -0.10038316 0.041495681 5.9049596e-39
-0.0058360435 -0.10038316 0.041495681 1.1989152e-38
-0.0043896474 -0.098872766 0.047498763 9.0378062e-39
-0.0026748553 -0.098872766 0.047498763 6.7325455e-39
-0.0011063293 -0.098136306 0.050425828 6.5488577e-39
0.00049643591 -0.09761633 0.052492499 1.7243901e-38
0.002042558 -0.096863925 0.055482924 1.3649708e-38
0.0035791956 -0.096116111 0.05845511 1.254479e-38
0.0051012114 -0.095349744 0.061501086 1.5035137e-38
0.0066781826 -0.094864532 0.063429534 1.3560361e-38
0.0081826746 -0.094106004 0.066444337 1.319123e-38
0.0096777715 -0.093352199 0.069440305 9.2850317e-40
0.011354096 -0.093352199 0.069440305 9.2780252e-40
0.013030417 -0.093352199 0.069440305 8.948472e-39
0.014706738 -0.093352199 0.069440305 7.5648187e-39
0.016383059 -0.093352199 0.069440305 5.8131017e-39
0.018272124 -0.094106004 0.066444337 4.244697e-39
0.019953698 -0.094106004 0.066444337 7.4126727e-40
0.021635279 -0.094106004 0.066444337 1.0167822e-39
0.023316853 -0.094106004 0.066444337 2.3082398e-39
0.024998426 -0.094106004 0.066444337 2.5851799e-39
0.027074359 -0.095349744 0.061501086 2.494059e-39
0.029012941 -0.096116111 0.05845511 1.8486896e-39
0.030708522 -0.096116111 0.05845511 1.8476148e-39
0.032404102 -0.096116111 0.05845511 2.4897584e-39
0.034357648 -0.096863925 0.055482924 3.4113616e-39
0.036058437 -0.096863925 0.055482924 2.582317e-39
0.037759226 -0.096863925 0.055482924 2.9525387e-39
0.039925527 -0.098136306 0.050425828 3.2312836e-39
0.041635197 -0.098136306 0.050425828 1.7579513e-39
0.043344852 -0.098136306 0.050425828 1.4828064e-39
0.045054507 -0.098136306 0.050425828 2.4054816e-39
0.046764176 -0.098136306 0.050425828 1.851942e-39
0.048473831 -0.098136306 0.050425828 6.5267438e-40
0.050183486 -0.098136306 0.050425828 1.1132868e-39
0.052198511 -0.098872766 0.047498763 1.2051181e-39
0.054235782 -0.099637643 0.044458747 1.6646543e-39
0.055955913 -0.099637643 0.044458747 3.1383494e-39
0.057676028 -0.099637643 0.044458747 3.229829e-39
0.059396159 -0.099637643 0.044458747 3.5982514e-39
0.061451372 -0.10038316 0.041495681 4.4269331e-39
0.063176692 -0.10038316 0.041495681 3.4127811e-39
0.064902008 -0.10038316 0.041495681 4.0581477e-39
0.066980124 -0.1011332 0.038514674 7.9307201e-39
0.068954438 -0.10164386 0.036485016 9.037788e-39
0.071055517 -0.10240157 0.033473492 8.7612011e-39
0.072794899 -0.10240157 0.033473492 7.5630236e-39
0.074914128 -0.10316391 0.030443609 2.5844596e-39
0.076658815 -0.10316391 0.030443609 2.3082286e-39
0.078403518 -0.10316391 0.030443609 3.3216617e-39
0.080148205 -0.10316391 0.030443609 3.4135056e-39
0.081892908 -0.10316391 0.030443609 3.3205855e-39
0.083637595 -0.10316391 0.030443609 4.1503322e-39
0.085783124 -0.10390608 0.027493834 5.5325379e-39
0.087955073 -0.10467763 0.024427235 4.9793642e-39
0.090126485 -0.10542886 0.021441519 3.0443377e-39
0.092310891 -0.10618456 0.018438041 1.9397922e-39
0.09449397 -0.10691936 0.015517533 3.5089186e-39
0.096264839 -0.10691936 0.015517533 5.2595566e-39
0.098035708 -0.10691936 0.015517533 5.8120129e-39
-0.11068961 -0.14112701 -0.11251062 1.0692546e-38
-0.10869427 -0.14112701 -0.11251062 1.1248957e-38
-0.10650098 -0.14012341 -0.10854942 4.6130465e-39
-0.10451259 -0.14012341 -0.10854942 2.2238607e-42
-0.10252419 -0.14012341 -0.10854942 1.1532686e-42
-0.10035425 -0.13909473 -0.10448915 3.7747898e-40
-0.098076105 -0.13734378 -0.097578228 7.3850517e-39
-0.09594287 -0.13633488 -0.093596041 1.2085936e-38
-0.093980685 -0.13633488 -0.093596041 1.7524032e-38
-0.091864809 -0.1353019 -0.089518964 1.807648e-38
-0.089803874 -0.13455538 -0.086572349 2.222383e-38
-0.087612733 -0.13276742 -0.079515278 2.2867034e-38
-0.085546285 -0.13176022 -0.075539887 2.286703e-38
-0.083615765 -0.13176022 -0.075539887 2.2867037e-38
-0.081571072 -0.13076027 -0.071593106 2.286632e-38
-0.079563498 -0.12997745 -0.06850332 2.3418047e-38
-0.077645317 -0.12997745 -0.06850332 2.2587941e-38
-0.07563211 -0.12896039 -0.064488947 1.2446458e-38
-0.073720962 -0.12896039 -0.064488947 2.4890017e-39
-0.071750686 -0.12821732 -0.061556041 1.0142556e-39
