# .PCD v0.7 - Point Cloud Data file format
VERSION 0.7
FIELDS x y z rgb
SIZE 4 4 4 4
TYPE F F F F
COUNT 1 1 1 1
WIDTH 920
HEIGHT 1
VIEWPOINT 0 0 0 1 0 0 0
POINTS 920
DATA ascii
0.015396691 -0.079834178 -0.0086363405 2.3509527e-38
0.017250035 -0.079834178 -0.0086363405 2.3509527e-38
0.019103374 -0.079834178 -0.0086363405 2.3509527e-38
0.020956714 -0.079834178 -0.0086363405 2.3509168e-38
0.022645555 -0.079194456 -0.0056578964 2.3509527e-38
0.024493672 -0.079194456 -0.0056578964 2.3509527e-38
0.026341792 -0.079194456 -0.0056578964 2.350988e-38
0.028189909 -0.079194456 -0.0056578964 2.3509869e-38
0.030038025 -0.079194456 -0.0056578964 2.3509866e-38
0.031886142 -0.079194456 -0.0056578964 2.3509873e-38
0.033734266 -0.079194456 -0.0056578964 2.3509883e-38
0.035308685 -0.078323603 -0.00160335 2.3509527e-38
0.037149694 -0.078323603 -0.00160335 2.3417691e-38
0.039278615 -0.079194456 -0.0056578964 2.341805e-38
0.041126732 -0.079194456 -0.0056578964 2.268157e-38
0.043419998 -0.080477536 -0.011631712 2.3142544e-38
0.045816738 -0.081992984 -0.018687472 2.2958873e-38
0.047687702 -0.081992984 -0.018687472 2.1853259e-38
0.050910927 -0.085633695 -0.035638079 2.2775202e-38
0.052811615 -0.085633695 -0.035638079 2.2775202e-38
0.054712288 -0.085633695 -0.035638079 1.5307382e-38
0.056612976 -0.085633695 -0.035638079 2.1223422e-39
-0.099961706 -0.097487867 -0.081604823 4.1531838e-39
-0.097980432 -0.097487867 -0.081604823 3.6922309e-39
-0.095999151 -0.097487867 -0.081604823 1.4799099e-39
-0.094227888 -0.098367065 -0.085665092 2.2171176e-39
-0.092437424 -0.099224806 -0.089626297 1.7561451e-39
-0.090442084 -0.099224806 -0.089626297 1.2026196e-39
-0.088776469 -0.10076147 -0.096722826 1.2022692e-39
-0.086768687 -0.10076147 -0.096722826 4.6435248e-40
-0.084760897 -0.10076147 -0.096722826 2.1235193e-39
-0.082587861 -0.099893004 -0.092712149 6.086858e-39
-0.0803091 -0.098367065 -0.085665092 6.9162627e-39
-0.078320704 -0.098367065 -0.085665092 8.1140884e-39
-0.076332308 -0.098367065 -0.085665092 4.7943297e-39
-0.069159426 -0.10421051 -0.11265109 5.9921456e-39
-0.067015268 -0.10334648 -0.1086608 6.3648672e-39
-0.064986549 -0.10334648 -0.1086608 7.3815218e-39
-0.062957838 -0.10334648 -0.1086608 6.0911319e-39
-0.061016575 -0.10421051 -0.11265109 5.9063665e-39
-0.05898086 -0.10421051 -0.11265109 2.9511346e-42
-0.057019118 -0.10508056 -0.11666904 5.5935631e-40
-0.055043753 -0.10595666 -0.12071501 9.6863537e-39
-0.052993901 -0.10595666 -0.12071501 1.9458721e-38
-0.050944049 -0.10595666 -0.12071501 2.2316024e-38
-0.048939075 -0.1068093 -0.12465273 2.2499695e-38
-0.046844348 -0.10595666 -0.12071501 2.2591531e-38
-0.044794496 -0.10595666 -0.12071501 2.1853259e-38
-0.042744644 -0.10595666 -0.12071501 2.2037289e-38
-0.040694792 -0.10595666 -0.12071501 2.2867037e-38
-0.029021792 -0.083863959 -0.018687472 2.3509527e-38
-0.027150828 -0.083863959 -0.018687472 2.3509527e-38
-0.025279867 -0.083863959 -0.018687472 2.3325138e-38
-0.023408905 -0.083863959 -0.018687472 2.3232944e-38
-0.021537941 -0.083863959 -0.018687472 2.3509527e-38
-0.019666977 -0.083863959 -0.018687472 2.3509886e-38
-0.017796014 -0.083863959 -0.018687472 2.3509886e-38
-0.01592505 -0.083863959 -0.018687472 2.3509883e-38
-0.014054087 -0.083863959 -0.018687472 2.350988e-38
-0.012183123 -0.083863959 -0.018687472 2.3509879e-38
-0.010312161 -0.083863959 -0.018687472 2.3509876e-38
-0.0083664702 -0.084500432 -0.021626815 2.3509873e-38
-0.0064903526 -0.084500432 -0.021626815 2.3509876e-38
-0.0046142368 -0.084500432 -0.021626815 2.3509883e-38
-0.0027381191 -0.084500432 -0.021626815 2.3509527e-38
-0.00095734466 -0.083863959 -0.018687472 2.3509527e-38
0.00091361906 -0.083863959 -0.018687472 2.3509527e-38
0.0027845828 -0.083863959 -0.018687472 2.3509527e-38
0.0045031225 -0.082988426 -0.014644131 2.3509886e-38
0.006366997 -0.082988426 -0.014644131 2.341805e-38
0.0082308715 -0.082988426 -0.014644131 2.341805e-38
0.010094746 -0.082988426 -0.014644131 2.3509886e-38
0.011958621 -0.082988426 -0.014644131 2.3509886e-38
0.013682528 -0.082336128 -0.011631712 2.3509527e-38
0.01554112 -0.082336128 -0.011631712 2.3509527e-38
0.017399713 -0.082336128 -0.011631712 2.3509527e-38
0.019258305 -0.082336128 -0.011631712 2.3509527e-38
0.021116897 -0.082336128 -0.011631712 2.3509168e-38
0.022810053 -0.08168751 -0.0086363405 2.3509524e-38
0.024663392 -0.08168751 -0.0086363405 2.3509876e-38
0.026516736 -0.08168751 -0.0086363405 2.3418035e-38
0.028189909 -0.081042573 -0.0056578964 2.3509869e-38
0.030038025 -0.081042573 -0.0056578964 2.3509873e-38
0.031886142 -0.081042573 -0.0056578964 2.3509527e-38
0.033734266 -0.081042573 -0.0056578964 2.3509168e-38
0.035582382 -0.081042573 -0.0056578964 2.3508809e-38
0.037430499 -0.081042573 -0.0056578964 2.3509168e-38
0.039278615 -0.081042573 -0.0056578964 2.3509527e-38
0.041343454 -0.08168751 -0.0086363405 2.341805e-38
0.043419998 -0.082336128 -0.011631712 2.2035846e-38
0.045816738 -0.083863959 -0.018687472 2.2680855e-38
0.047917031 -0.084500432 -0.021626815 2.3142544e-38
0.050357558 -0.086032391 -0.028701648 2.2682649e-38
0.052811615 -0.087534383 -0.035638079 2.2958873e-38
0.05438403 -0.086680889 -0.031696543 2.2867037e-38
0.056277804 -0.086680889 -0.031696543 1.9362911e-38
-0.099961706 -0.09946914 -0.081604823 2.2181882e-39
-0.097980432 -0.09946914 -0.081604823 8.3599505e-40
-0.095999151 -0.09946914 -0.081604823 5.8854536e-42
-0.094227888 -0.10035546 -0.085665092 1.2047916e-39
-0.092437424 -0.10122015 -0.089626297 5.5906904e-40
-0.090442084 -0.10122015 -0.089626297 2.8248355e-40
-0.088776469 -0.10276926 -0.096722826 9.2678097e-40
-0.086589374 -0.10189377 -0.092712149 1.2033721e-39
-0.084588617 -0.10189377 -0.092712149 4.245109e-39
-0.082587861 -0.10189377 -0.092712149 6.5489235e-39
-0.080148928 -0.09946914 -0.081604823 5.9028353e-39
-0.078167647 -0.09946914 -0.081604823 7.1006554e-39
-0.076186374 -0.09946914 -0.081604823 5.5326108e-39
-0.073832653 -0.097091287 -0.070711717 6.4531238e-39
-0.071999647 -0.097960562 -0.074693903 7.2825215e-39
-0.070030488 -0.097960562 -0.074693903 7.2814425e-39
-0.069159426 -0.10624625 -0.11265109 5.531508e-39
-0.067123711 -0.10624625 -0.11265109 8.3005887e-39
-0.064986549 -0.10537519 -0.1086608 4.3379534e-39
-0.062957838 -0.10537519 -0.1086608 2.3099985e-39
-0.060842261 -0.10451011 -0.10469781 3.5085305e-39
-0.058820494 -0.10451011 -0.10469781 2.402529e-39
-0.056871686 -0.10537519 -0.1086608 6.551324e-39
-0.054909434 -0.10624625 -0.11265109 1.3188681e-38
-0.052993901 -0.10800649 -0.12071501 2.2591531e-38
-0.049602389 -0.085734919 -0.018687472 2.2775202e-38
-0.047685344 -0.084852293 -0.014644131 2.1853259e-38
-0.045821469 -0.084852293 -0.014644131 2.2867037e-38
-0.044794496 -0.10800649 -0.12071501 2.2958873e-38
-0.042744644 -0.10800649 -0.12071501 2.3142544e-38
-0.036510915 -0.087046593 -0.024696335 2.2865955e-38
-0.034623276 -0.088574663 -0.031696543 2.3141103e-38
-0.027150828 -0.085734919 -0.018687472 2.3417333e-38
-0.025279867 -0.085734919 -0.018687472 2.3325138e-38
-0.023408905 -0.085734919 -0.018687472 2.3325138e-38
-0.021537941 -0.085734919 -0.018687472 2.3232944e-38
-0.019666977 -0.085734919 -0.018687472 2.3509527e-38
-0.017796014 -0.085734919 -0.018687472 2.3509886e-38
-0.01592505 -0.085734919 -0.018687472 2.3509886e-38
-0.014054087 -0.085734919 -0.018687472 2.3509883e-38
-0.012183123 -0.085734919 -0.018687472 2.350988e-38
-0.010312161 -0.085734919 -0.018687472 2.3509879e-38
-0.0083664702 -0.086376548 -0.021626815 2.3509879e-38
-0.0064903526 -0.086376548 -0.021626815 2.3509879e-38
-0.0046142368 -0.086376548 -0.021626815 2.3509524e-38
-0.0027381191 -0.086376548 -0.021626815 2.3509527e-38
-0.00095734466 -0.085734919 -0.018687472 2.3509527e-38
0.00091361906 -0.085734919 -0.018687472 2.3509527e-38
0.0027845828 -0.085734919 -0.018687472 2.3509527e-38
0.0046555465 -0.085734919 -0.018687472 2.3509886e-38
0.0065265065 -0.085734919 -0.018687472 2.341805e-38
0.0083974702 -0.085734919 -0.018687472 2.341805e-38
0.010268434 -0.085734919 -0.018687472 2.341805e-38
0.011958621 -0.084852293 -0.014644131 2.341805e-38
0.013822495 -0.084852293 -0.014644131 2.3509886e-38
0.01554112 -0.08419472 -0.011631712 2.3509886e-38
0.017399713 -0.08419472 -0.011631712 2.3509527e-38
0.019414116 -0.084852293 -0.014644131 2.3509527e-38
0.02127799 -0.084852293 -0.014644131 2.3509527e-38
0.022975489 -0.08419472 -0.011631712 2.3509879e-38
0.024663392 -0.083540857 -0.0086363405 2.3418028e-38
0.026516736 -0.083540857 -0.0086363405 2.323436e-38
0.028370071 -0.083540857 -0.0086363405 2.341805e-38
0.030223418 -0.083540857 -0.0086363405 2.3417691e-38
0.031886142 -0.082890689 -0.0056578964 2.3509168e-38
0.033734266 -0.082890689 -0.0056578964 2.3509168e-38
0.035582382 -0.082890689 -0.0056578964 2.3509527e-38
0.037430499 -0.082890689 -0.0056578964 2.3509527e-38
0.039490115 -0.083540857 -0.0086363405 2.3509168e-38
0.041343454 -0.083540857 -0.0086363405 2.2494669e-38
0.043419998 -0.08419472 -0.011631712 2.3508809e-38
0.045508351 -0.084852293 -0.014644131 2.3509168e-38
0.047917031 -0.086376548 -0.021626815 2.3417691e-38
0.050038032 -0.087046593 -0.024696335 2.3234379e-38
0.052490257 -0.088574663 -0.031696543 2.314253e-38
0.05438403 -0.088574663 -0.031696543 2.2682635e-38
0.056277804 -0.088574663 -0.031696543 2.2958873e-38
-0.12178851 -0.095955089 -0.056630954 6.8239298e-39
-0.11985102 -0.095955089 -0.056630954 7.0076204e-39
-0.11791352 -0.095955089 -0.056630954 6.7314104e-39
-0.11597603 -0.095955089 -0.056630954 6.5470304e-39
-0.11279387 -0.098156333 -0.06663464 4.8885992e-39
-0.11083884 -0.098156333 -0.06663464 4.0602805e-39
-0.10888381 -0.098156333 -0.06663464 3.0472118e-39
-0.10718969 -0.099053472 -0.070711717 2.1263443e-39
-0.10522752 -0.099053472 -0.070711717 1.7582919e-39
-0.10326534 -0.099053472 -0.070711717 1.482435e-39
-0.10130317 -0.099053472 -0.070711717 7.4524135e-40
-0.099340983 -0.099053472 -0.070711717 7.6833195e-42
-0.097764723 -0.100591 -0.07769917 6.5270521e-40
-0.095790289 -0.100591 -0.07769917 1.113689e-39
-0.094017871 -0.10145043 -0.081604823 1.4831946e-39
-0.092239492 -0.10234386 -0.085665092 9.3002217e-40
-0.090251088 -0.10234386 -0.085665092 1.2055301e-39
-0.088590123 -0.10389452 -0.092712149 1.666511e-39
-0.086589374 -0.10389452 -0.092712149 2.4955528e-39
-0.084588617 -0.10389452 -0.092712149 5.1681471e-39
-0.082460716 -0.1032155 -0.089626297 5.444371e-39
-0.079876289 -0.09992972 -0.074693903 2.4015509e-39
-0.077907123 -0.09992972 -0.074693903 2.2157177e-39
-0.075794838 -0.099053472 -0.070711717 9.2353276e-40
-0.073832653 -0.099053472 -0.070711717 1.5678162e-39
-0.071999647 -0.09992972 -0.074693903 1.5674518e-39
-0.070030488 -0.09992972 -0.074693903 2.3954118e-39
-0.068148263 -0.100591 -0.07769917 2.6734196e-39
-0.066173837 -0.100591 -0.07769917 5.2577447e-39
-0.064782411 -0.10563703 -0.1006311 1.1528106e-38
-0.062864035 -0.10653187 -0.10469781 2.1577753e-38
-0.060842261 -0.10653187 -0.10469781 2.2038724e-38
-0.058820494 -0.10653187 -0.10469781 2.2591531e-38
-0.056798726 -0.10653187 -0.10469781 2.2407142e-38
-0.054842971 -0.10740392 -0.1086608 2.2406783e-38
-0.051473349 -0.087605879 -0.018687472 2.2958873e-38
-0.049602389 -0.087605879 -0.018687472 2.3142544e-38
-0.047685344 -0.086716175 -0.014644131 2.2773765e-38
-0.045821469 -0.086716175 -0.014644131 2.3050349e-38
-0.043957595 -0.086716175 -0.014644131 2.341805e-38
-0.042093724 -0.086716175 -0.014644131 2.3509886e-38
-0.040247571 -0.087605879 -0.018687472 2.3509883e-38
-0.038392413 -0.088928089 -0.024696335 2.350988e-38
-0.034623276 -0.090468436 -0.031696543 2.3325847e-38
-0.032729506 -0.090468436 -0.031696543 2.3509883e-38
-0.030848861 -0.089809433 -0.028701648 2.3509886e-38
-0.028984919 -0.088928089 -0.024696335 2.3233299e-38
-0.02710342 -0.088928089 -0.024696335 2.3141106e-38
-0.025221922 -0.088928089 -0.024696335 2.3509886e-38
-0.023375405 -0.088252664 -0.021626815 2.3509527e-38
-0.021499287 -0.088252664 -0.021626815 2.3509527e-38
-0.019666977 -0.087605879 -0.018687472 2.3509527e-38
-0.017796014 -0.087605879 -0.018687472 2.3509527e-38
-0.01592505 -0.087605879 -0.018687472 2.3509886e-38
-0.014054087 -0.087605879 -0.018687472 2.3509886e-38
-0.012118704 -0.088252664 -0.021626815 2.3509886e-38
-0.010242586 -0.088252664 -0.021626815 2.3509883e-38
-0.0083664702 -0.088252664 -0.021626815 2.3509883e-38
-0.0064903526 -0.088252664 -0.021626815 2.3509883e-38
-0.0046142368 -0.088252664 -0.021626815 2.3509168e-38
-0.0027381191 -0.088252664 -0.021626815 2.3509168e-38
-0.0008620033 -0.088252664 -0.021626815 2.3509168e-38
0.0010141162 -0.088252664 -0.021626815 2.3509527e-38
0.002890232 -0.088252664 -0.021626815 2.3509527e-38
0.0047663478 -0.088252664 -0.021626815 2.3509886e-38
0.0066424636 -0.088252664 -0.021626815 2.3509886e-38
0.0085185831 -0.088252664 -0.021626815 2.341805e-38
0.010394699 -0.088252664 -0.021626815 2.341805e-38
0.012139398 -0.087605879 -0.018687472 2.341805e-38
0.014010361 -0.087605879 -0.018687472 2.3509886e-38
0.01568637 -0.086716175 -0.014644131 2.3509886e-38
0.017550241 -0.086716175 -0.014644131 2.3509527e-38
0.01962325 -0.087605879 -0.018687472 2.3509527e-38
0.02127799 -0.086716175 -0.014644131 2.3509527e-38
0.023141865 -0.086716175 -0.014644131 2.350988e-38
0.024834082 -0.086053312 -0.011631712 2.3234362e-38
0.026692674 -0.086053312 -0.011631712 2.3142531e-38
0.028370071 -0.085394189 -0.0086363405 2.3234379e-38
0.030223418 -0.085394189 -0.0086363405 2.3417333e-38
0.032076757 -0.085394189 -0.0086363405 2.3509168e-38
0.033930097 -0.085394189 -0.0086363405 2.3509168e-38
0.035582382 -0.084738806 -0.0056578964 2.3509524e-38
0.037430499 -0.084738806 -0.0056578964 2.3509521e-38
0.039490115 -0.085394189 -0.0086363405 2.3509168e-38
0.041343454 -0.085394189 -0.0086363405 2.2217e-38
0.043419998 -0.086053312 -0.011631712 2.3508809e-38
0.045508351 -0.086716175 -0.014644131 2.3509168e-38
0.047687702 -0.087605879 -0.018687472 2.3048189e-38
0.050038032 -0.088928089 -0.024696335 2.2957064e-38
0.052490257 -0.090468436 -0.031696543 2.268083e-38
0.05438403 -0.090468436 -0.031696543 2.341804e-38
0.056277804 -0.090468436 -0.031696543 2.3142544e-38
-0.12178851 -0.097892582 -0.056630954 7.1009048e-39
-0.11985102 -0.097892582 -0.056630954 7.1924026e-39
-0.11791352 -0.097892582 -0.056630954 6.8232768e-39
-0.11597603 -0.097892582 -0.056630954 5.9020505e-39
-0.11425375 -0.098564804 -0.059661731 4.981183e-39
-0.11231095 -0.098564804 -0.059661731 2.6766566e-39
-0.11063994 -0.099457815 -0.063688025 1.7561451e-39
-0.10888381 -0.10011137 -0.06663464 9.2782774e-40
-0.10692877 -0.10011137 -0.06663464 6.5197233e-40
-0.10522752 -0.10101564 -0.070711717 3.7647565e-40
-0.10326534 -0.10101564 -0.070711717 1.9281727e-40
-0.10130317 -0.10101564 -0.070711717 1.9318861e-40
-0.099340983 -0.10101564 -0.070711717 1.9390888e-40
-0.097598739 -0.10189888 -0.074693903 8.0672753e-42
-0.095790289 -0.10256544 -0.07769917 1.0232954e-39
-0.094017871 -0.10343169 -0.081604823 9.1448738e-42
-0.092036597 -0.10343169 -0.081604823 8.4246064e-42
-0.089530088 -0.10101564 -0.070711717 7.4670991e-40
-0.087567903 -0.10101564 -0.070711717 8.3854401e-40
-0.085605733 -0.10101564 -0.070711717 1.3909961e-39
-0.083643548 -0.10101564 -0.070711717 2.1278381e-39
-0.081681371 -0.10101564 -0.070711717 2.5877288e-39
-0.07955835 -0.10011137 -0.06663464 4.084785e-42
-0.077603318 -0.10011137 -0.06663464 4.4393135e-42
-0.075794838 -0.10101564 -0.070711717 1.5484348e-42
-0.073832653 -0.10101564 -0.070711717 4.6252098e-40
-0.071870476 -0.10101564 -0.070711717 6.465437e-40
-0.069908299 -0.10101564 -0.070711717 3.1343838e-39
-0.068061322 -0.10189888 -0.074693903 5.439978e-39
-0.066092163 -0.10189888 -0.074693903 1.2355704e-38
-0.064502634 -0.10521083 -0.089626297 1.9271078e-38
-0.062767774 -0.10765167 -0.1006311 2.2682649e-38
-0.060842261 -0.10855366 -0.10469781 2.2958873e-38
-0.058820494 -0.10855366 -0.10469781 2.1945444e-38
-0.056798726 -0.10855366 -0.10469781 2.3142544e-38
-0.054842971 -0.10943262 -0.1086608 2.2958864e-38
-0.051473349 -0.089476839 -0.018687472 2.2313135e-38
-0.049602389 -0.089476839 -0.018687472 2.332621e-38
-0.047685344 -0.088580042 -0.014644131 2.3509886e-38
-0.045821469 -0.088580042 -0.014644131 2.3324775e-38
-0.043957595 -0.088580042 -0.014644131 2.3509168e-38
-0.042093724 -0.088580042 -0.014644131 2.3047468e-38
-0.040247571 -0.089476839 -0.018687472 2.3509165e-38
-0.038392413 -0.090809584 -0.024696335 2.3508441e-38
-0.03651705 -0.09236221 -0.031696543 2.2402451e-38
-0.034623276 -0.09236221 -0.031696543 2.3417323e-38
-0.032729506 -0.09236221 -0.031696543 2.3509879e-38
-0.030848861 -0.091697961 -0.028701648 2.350988e-38
-0.028984919 -0.090809584 -0.024696335 2.3325847e-38
-0.02710342 -0.090809584 -0.024696335 2.3325492e-38
-0.025221922 -0.090809584 -0.024696335 2.3509886e-38
-0.023340423 -0.090809584 -0.024696335 2.3509886e-38
-0.021458924 -0.090809584 -0.024696335 2.3509527e-38
-0.019666977 -0.089476839 -0.018687472 2.3509527e-38
-0.017796014 -0.089476839 -0.018687472 2.3509527e-38
-0.01592505 -0.089476839 -0.018687472 2.3509527e-38
-0.014054087 -0.089476839 -0.018687472 2.3509527e-38
-0.012118704 -0.090128779 -0.021626815 2.3509527e-38
-0.010242586 -0.090128779 -0.021626815 2.3509527e-38
-0.0083664702 -0.090128779 -0.021626815 2.3509527e-38
-0.0064903526 -0.090128779 -0.021626815 2.3509527e-38
-0.0045254352 -0.090809584 -0.024696335 2.3509168e-38
-0.0027381191 -0.090128779 -0.021626815 2.3508809e-38
-0.0008620033 -0.090128779 -0.021626815 2.3509168e-38
0.0010141162 -0.090128779 -0.021626815 2.3509527e-38
0.0030005602 -0.090809584 -0.024696335 2.3509527e-38
0.0048820591 -0.090809584 -0.024696335 2.3509886e-38
0.0067635579 -0.090809584 -0.024696335 2.3509886e-38
0.0086450567 -0.090809584 -0.024696335 2.341805e-38
0.010526556 -0.090809584 -0.024696335 2.341805e-38
0.012270815 -0.090128779 -0.021626815 2.341805e-38
0.014146934 -0.090128779 -0.021626815 2.341805e-38
0.015881326 -0.089476839 -0.018687472 2.3509886e-38
0.01775229 -0.089476839 -0.018687472 2.3509527e-38
0.01962325 -0.089476839 -0.018687472 2.3509527e-38
0.02127799 -0.088580042 -0.014644131 2.3509527e-38
0.023141865 -0.088580042 -0.014644131 2.3509527e-38
0.025005739 -0.088580042 -0.014644131 2.3234379e-38
0.026692674 -0.087911904 -0.011631712 2.3142544e-38
0.028551262 -0.087911904 -0.011631712 2.3142544e-38
0.030409854 -0.087911904 -0.011631712 2.3234379e-38
0.032268446 -0.087911904 -0.011631712 2.341805e-38
0.033930097 -0.087247536 -0.0086363405 2.3509527e-38
0.035783436 -0.087247536 -0.0086363405 2.3509527e-38
0.037636776 -0.087247536 -0.0086363405 2.3509168e-38
0.039702814 -0.087911904 -0.011631712 2.3508445e-38
0.041561406 -0.087911904 -0.011631712 2.3509521e-38
0.043419998 -0.087911904 -0.011631712 2.350952e-38
0.045508351 -0.088580042 -0.014644131 2.2309536e-38
0.047687702 -0.089476839 -0.018687472 2.3231492e-38
0.049793147 -0.090128779 -0.021626815 2.3509879e-38
0.052490257 -0.09236221 -0.031696543 2.3509524e-38
0.05438403 -0.09236221 -0.031696543 2.3417687e-38
0.056277804 -0.09236221 -0.031696543 2.3142537e-38
0.058171578 -0.09236221 -0.031696543 2.2683359e-38
0.060065351 -0.09236221 -0.031696543 2.2958873e-38
-0.12372599 -0.099830076 -0.056630954 8.0224954e-39
-0.12178851 -0.099830076 -0.056630954 8.4827757e-39
-0.11985102 -0.099830076 -0.056630954 9.0348915e-39
-0.11791352 -0.099830076 -0.056630954 8.9430658e-39
-0.11597603 -0.099830076 -0.056630954 7.9292782e-39
-0.11425375 -0.1005076 -0.059661731 6.6399813e-39
-0.11231095 -0.1005076 -0.059661731 4.0603085e-39
-0.11063994 -0.10140768 -0.063688025 2.494429e-39
-0.10888381 -0.1020664 -0.06663464 1.2040643e-39
-0.10692877 -0.1020664 -0.06663464 1.2040783e-39
-0.10522752 -0.10297783 -0.070711717 1.3884808e-39
-0.10326534 -0.10297783 -0.070711717 1.2037378e-39
-0.10130317 -0.10297783 -0.070711717 9.2715091e-40
-0.099340983 -0.10297783 -0.070711717 7.4383865e-40
-0.097598739 -0.10386805 -0.074693903 4.6868809e-40
-0.095790289 -0.10453986 -0.07769917 1.8523414e-39
-0.094017871 -0.10541297 -0.081604823 6.991078e-42
-0.091841429 -0.10453986 -0.07769917 7.7155493e-42
-0.089530088 -0.10297783 -0.070711717 1.5761231e-39
-0.087567903 -0.10297783 -0.070711717 1.4832058e-39
-0.085605733 -0.10297783 -0.070711717 1.3913605e-39
-0.083643548 -0.10297783 -0.070711717 4.6831395e-40
-0.081513382 -0.1020664 -0.06663464 1.9099418e-40
-0.07955835 -0.1020664 -0.06663464 1.6653886e-39
-0.077603318 -0.1020664 -0.06663464 9.50128e-39
-0.075648293 -0.1020664 -0.06663464 1.6690727e-38
-0.073832653 -0.10297783 -0.070711717 2.240499e-38
-0.071870476 -0.10297783 -0.070711717 2.2957438e-38
-0.069908299 -0.10297783 -0.070711717 2.3141109e-38
-0.068061322 -0.10386805 -0.074693903 2.3232944e-38
-0.066092163 -0.10386805 -0.074693903 2.2772691e-38
-0.064502634 -0.10720618 -0.089626297 2.323402e-38
-0.062767774 -0.1096663 -0.1006311 2.2773408e-38
-0.05945947 -0.096470937 -0.041604623 2.3141467e-38
-0.057428021 -0.095137119 -0.035638079 2.3509883e-38
-0.055454776 -0.094255984 -0.031696543 2.240389e-38
-0.053561002 -0.094255984 -0.031696543 2.3509879e-38
-0.051517159 -0.092004895 -0.021626815 2.3509879e-38
-0.049602389 -0.091347814 -0.018687472 2.3418043e-38
-0.047685344 -0.090443924 -0.014644131 2.3509523e-38
-0.045821469 -0.090443924 -0.014644131 2.3509524e-38
-0.043957595 -0.090443924 -0.014644131 2.3508807e-38
-0.042093724 -0.090443924 -0.014644131 2.3231141e-38
-0.040247571 -0.091347814 -0.018687472 2.3508807e-38
-0.038402945 -0.093586475 -0.028701648 2.3508804e-38
-0.036514424 -0.093586475 -0.028701648 2.3508441e-38
-0.034623276 -0.094255984 -0.031696543 2.3509876e-38
-0.032729506 -0.094255984 -0.031696543 2.3326203e-38
-0.030848861 -0.093586475 -0.028701648 2.3418042e-38
-0.02896034 -0.093586475 -0.028701648 2.350988e-38
-0.027071819 -0.093586475 -0.028701648 2.3509883e-38
-0.025183298 -0.093586475 -0.028701648 2.3233299e-38
-0.023340423 -0.092691094 -0.024696335 2.2587932e-38
-0.021458924 -0.092691094 -0.024696335 2.2311345e-38
-0.019623172 -0.092004895 -0.021626815 2.3509527e-38
-0.017747056 -0.092004895 -0.021626815 2.3509527e-38
-0.015870936 -0.092004895 -0.021626815 2.3509886e-38
-0.013994819 -0.092004895 -0.021626815 2.3509886e-38
-0.012118704 -0.092004895 -0.021626815 2.3509886e-38
-0.010242586 -0.092004895 -0.021626815 2.3509886e-38
-0.0083664702 -0.092004895 -0.021626815 2.3509886e-38
-0.0064903526 -0.092004895 -0.021626815 2.3509527e-38
-0.0044095619 -0.093586475 -0.028701648 2.3509527e-38
-0.0026439363 -0.092691094 -0.024696335 2.3509165e-38
-0.00076243747 -0.092691094 -0.024696335 2.3509527e-38
0.0011190614 -0.092691094 -0.024696335 2.3509527e-38
0.0031445241 -0.093586475 -0.028701648 2.3509527e-38
0.0050330451 -0.093586475 -0.028701648 2.3509886e-38
0.0069215661 -0.093586475 -0.028701648 2.3509886e-38
0.0088100871 -0.093586475 -0.028701648 2.3509886e-38
0.010698612 -0.093586475 -0.028701648 2.3509886e-38
0.012408054 -0.092691094 -0.024696335 2.3509886e-38
0.014289553 -0.092691094 -0.024696335 2.3509886e-38
0.016023051 -0.092004895 -0.021626815 2.3509886e-38
0.01775229 -0.091347814 -0.018687472 2.3509886e-38
0.01962325 -0.091347814 -0.018687472 2.3509527e-38
0.02127799 -0.090443924 -0.014644131 2.3509527e-38
0.023141865 -0.090443924 -0.014644131 2.3509527e-38
0.025005739 -0.090443924 -0.014644131 2.3417333e-38
0.026869614 -0.090443924 -0.014644131 2.3417333e-38
0.028551262 -0.089770496 -0.011631712 2.341805e-38
0.030409854 -0.089770496 -0.011631712 2.3418047e-38
0.032268446 -0.089770496 -0.011631712 2.350988e-38
0.034127038 -0.089770496 -0.011631712 2.350988e-38
0.03598563 -0.089770496 -0.011631712 2.3509527e-38
0.037844222 -0.089770496 -0.011631712 2.3509168e-38
0.039702814 -0.089770496 -0.011631712 2.3508082e-38
0.041561406 -0.089770496 -0.011631712 2.3509517e-38
0.043419998 -0.089770496 -0.011631712 2.3508434e-38
0.04527859 -0.089770496 -0.011631712 2.3509873e-38
0.047372226 -0.090443924 -0.014644131 2.3509876e-38
0.049236096 -0.090443924 -0.014644131 2.286415e-38
0.051919527 -0.092691094 -0.024696335 2.3509886e-38
0.0541346 -0.093586475 -0.028701648 2.3234379e-38
0.056023128 -0.093586475 -0.028701648 2.2958873e-38
0.057911642 -0.093586475 -0.028701648 2.2407142e-38
0.05980017 -0.093586475 -0.028701648 2.2683366e-38
-0.12372599 -0.10176755 -0.056630954 9.1263248e-39
-0.12178851 -0.10176755 -0.056630954 7.8338161e-39
-0.11985102 -0.10176755 -0.056630954 8.2937293e-39
-0.11791352 -0.10176755 -0.056630954 1.0322395e-38
-0.11597603 -0.10176755 -0.056630954 1.4473699e-38
-0.11403853 -0.10176755 -0.056630954 1.4014874e-38
-0.11210106 -0.10176755 -0.056630954 1.3279472e-38
-0.11036814 -0.1024504 -0.059661731 1.0699088e-38
-0.10869008 -0.10335754 -0.063688025 7.4711923e-39
-0.1067402 -0.10335754 -0.063688025 5.0730438e-39
-0.10479034 -0.10335754 -0.063688025 4.148219e-39
-0.10301872 -0.10402142 -0.06663464 3.9627431e-39
-0.10106369 -0.10402142 -0.06663464 4.1445994e-39
-0.099340983 -0.10494001 -0.070711717 3.409198e-39
-0.096990883 -0.10335754 -0.063688025 2.2146359e-39
-0.093860075 -0.098382086 -0.041604623 2.3100854e-39
-0.091797225 -0.097721294 -0.038671717 1.6640083e-39
-0.089891233 -0.097721294 -0.038671717 1.4803471e-39
-0.088126637 -0.098382086 -0.041604623 6.5059485e-40
-0.086215496 -0.098382086 -0.041604623 2.0338866e-39
-0.085291699 -0.10335754 -0.063688025 9.2824392e-40
-0.083341837 -0.10335754 -0.063688025 4.8274732e-42
-0.081513382 -0.10402142 -0.06663464 1.6657585e-39
-0.079442106 -0.10335754 -0.063688025 1.3742279e-38
-0.077492245 -0.10335754 -0.063688025 1.7982172e-38
-0.075542383 -0.10335754 -0.063688025 2.2774843e-38
-0.073693261 -0.10402142 -0.06663464 2.3233662e-38
-0.071738228 -0.10402142 -0.06663464 2.2955285e-38
-0.069783203 -0.10402142 -0.06663464 2.3508451e-38
-0.068061322 -0.10583721 -0.074693903 2.3508809e-38
-0.066092163 -0.10583721 -0.074693903 2.3509168e-38
-0.064782411 -0.11168094 -0.1006311 2.332478e-38
-0.062767774 -0.11168094 -0.1006311 2.3509168e-38
-0.059395194 -0.097721294 -0.038671717 2.3139308e-38
-0.057428021 -0.097037792 -0.035638079 2.3509168e-38
-0.055454776 -0.096149758 -0.031696543 2.3508445e-38
-0.053561002 -0.096149758 -0.031696543 2.3509524e-38
-0.051562905 -0.094572589 -0.024696335 2.2771958e-38
-0.049641039 -0.093881011 -0.021626815 2.3417687e-38
-0.047731422 -0.093218774 -0.018687472 2.3509883e-38
-0.045860462 -0.093218774 -0.018687472 2.31411e-38
-0.043989498 -0.093218774 -0.018687472 2.3509883e-38
-0.042136572 -0.093881011 -0.021626815 2.2863074e-38
-0.040273912 -0.094572589 -0.024696335 2.3509163e-38
-0.038402945 -0.095475003 -0.028701648 2.3508445e-38
-0.036514424 -0.095475003 -0.028701648 2.3506283e-38
-0.034623276 -0.096149758 -0.031696543 2.3509879e-38
-0.032729506 -0.096149758 -0.031696543 2.2681916e-38
-0.030848861 -0.095475003 -0.028701648 2.2589e-38
-0.02896034 -0.095475003 -0.028701648 2.3418045e-38
-0.027048189 -0.096149758 -0.031696543 2.3418047e-38
-0.025183298 -0.095475003 -0.028701648 2.1758885e-38
-0.023294775 -0.095475003 -0.028701648 2.2034756e-38
-0.021406254 -0.095475003 -0.028701648 2.3048907e-38
-0.019577425 -0.094572589 -0.024696335 2.2864153e-38
-0.017747056 -0.093881011 -0.021626815 2.3509883e-38
-0.015870936 -0.093881011 -0.021626815 2.350988e-38
-0.013994819 -0.093881011 -0.021626815 2.3509879e-38
-0.012118704 -0.093881011 -0.021626815 2.3509879e-38
-0.010242586 -0.093881011 -0.021626815 2.3509874e-38
-0.0082884328 -0.094572589 -0.024696335 2.3233285e-38
-0.006406934 -0.094572589 -0.024696335 2.3509876e-38
-0.0043229191 -0.096149758 -0.031696543 2.3326208e-38
-0.002521039 -0.095475003 -0.028701648 2.3326208e-38
-0.00063251797 -0.095475003 -0.028701648 2.332621e-38
0.0013584001 -0.096149758 -0.031696543 2.3418047e-38
0.00325217 -0.096149758 -0.031696543 2.3509883e-38
0.0051459437 -0.096149758 -0.031696543 2.3509883e-38
0.0069215661 -0.095475003 -0.028701648 2.3509883e-38
0.0088100871 -0.095475003 -0.028701648 2.3509523e-38
0.010698612 -0.095475003 -0.028701648 2.3509883e-38
0.012408054 -0.094572589 -0.024696335 2.3509883e-38
0.014289553 -0.094572589 -0.024696335 2.3509883e-38
0.016023051 -0.093881011 -0.021626815 2.3417687e-38
0.01775229 -0.093218774 -0.018687472 2.3233296e-38
0.01962325 -0.093218774 -0.018687472 2.3141819e-38
0.02127799 -0.092307791 -0.014644131 2.332621e-38
0.023141865 -0.092307791 -0.014644131 2.3509886e-38
0.025005739 -0.092307791 -0.014644131 2.3508092e-38
0.026869614 -0.092307791 -0.014644131 2.3507733e-38
0.028733488 -0.092307791 -0.014644131 2.3414822e-38
0.030409854 -0.091629088 -0.011631712 2.3323699e-38
0.032268446 -0.091629088 -0.011631712 2.3509161e-38
0.034127038 -0.091629088 -0.011631712 2.3509879e-38
0.03598563 -0.091629088 -0.011631712 2.3509879e-38
0.037844222 -0.091629088 -0.011631712 2.3509161e-38
0.039702814 -0.091629088 -0.011631712 2.3508802e-38
0.041561406 -0.091629088 -0.011631712 2.3046024e-38
0.043419998 -0.091629088 -0.011631712 2.3509165e-38
0.04527859 -0.091629088 -0.011631712 2.3509883e-38
0.047137182 -0.091629088 -0.011631712 2.3509883e-38
0.048995771 -0.091629088 -0.011631712 2.268228e-38
0.051429622 -0.093218774 -0.018687472 2.2130904e-38
0.0541346 -0.095475003 -0.028701648 2.2683366e-38
0.056023128 -0.095475003 -0.028701648 2.2775202e-38
0.057911642 -0.095475003 -0.028701648 2.166923e-38
0.05980017 -0.095475003 -0.028701648 1.5955301e-38
0.061327018 -0.094572589 -0.024696335 1.0518293e-38
0.062655412 -0.093218774 -0.018687472 2.9597091e-39
0.064147092 -0.092307791 -0.014644131 1.0236191e-39
0.066010959 -0.092307791 -0.014644131 1.2058664e-39
0.067874841 -0.092307791 -0.014644131 2.126029e-39
-0.12428898 -0.10530742 -0.063688025 4.3307199e-39
-0.12202498 -0.1043932 -0.059661731 2.0236978e-39
-0.11985102 -0.10370506 -0.056630954 3.1289804e-39
-0.11791352 -0.10370506 -0.056630954 5.3423915e-39
-0.11597603 -0.10370506 -0.056630954 9.6780791e-39
-0.11403853 -0.10370506 -0.056630954 1.0602545e-38
-0.11210106 -0.10370506 -0.056630954 1.1804325e-38
-0.11036814 -0.1043932 -0.059661731 1.2450435e-38
-0.10842534 -0.1043932 -0.059661731 1.3370985e-38
-0.10648254 -0.1043932 -0.059661731 1.4382639e-38
-0.10453973 -0.1043932 -0.059661731 1.5947448e-38
-0.10284048 -0.10530742 -0.063688025 1.7235656e-38
-0.10106369 -0.10597645 -0.06663464 1.695653e-38
-0.099108659 -0.10597645 -0.06663464 1.5206252e-38
-0.09599293 -0.10120471 -0.045618996 1.5488618e-38
-0.093860075 -0.10029322 -0.041604623 1.3278463e-38
-0.091797225 -0.099627286 -0.038671717 1.1895906e-38
-0.089891233 -0.099627286 -0.038671717 1.0973963e-38
-0.087985225 -0.099627286 -0.038671717 7.3787066e-39
-0.086079217 -0.099627286 -0.038671717 7.4716211e-39
-0.084304355 -0.10029322 -0.041604623 5.6273386e-39
-0.082393207 -0.10029322 -0.041604623 2.0327656e-39
-0.080482058 -0.10029322 -0.041604623 4.9826362e-39
-0.078729279 -0.10120471 -0.045618996 1.9733151e-38
-0.077076361 -0.10280241 -0.052655563 2.203693e-38
-0.075145841 -0.10280241 -0.052655563 2.2864885e-38
-0.073693261 -0.10597645 -0.06663464 2.3508809e-38
-0.071738228 -0.10597645 -0.06663464 2.3508092e-38
-0.069015197 -0.10029322 -0.041604623 2.3505938e-38
-0.066931441 -0.09893848 -0.035638079 2.3507016e-38
-0.065030754 -0.09893848 -0.035638079 2.3508809e-38
-0.063207194 -0.099627286 -0.038671717 2.3509168e-38
-0.061301194 -0.099627286 -0.038671717 2.3509168e-38
-0.059395194 -0.099627286 -0.038671717 2.3507374e-38
-0.057428021 -0.09893848 -0.035638079 2.3508451e-38
-0.055454776 -0.098043531 -0.031696543 2.3508092e-38
-0.053561002 -0.098043531 -0.031696543 2.2954921e-38
-0.051562905 -0.096454084 -0.024696335 1.9729513e-38
-0.049641039 -0.095757127 -0.021626815 1.8255102e-38
-0.047764923 -0.095757127 -0.021626815 1.7242028e-38
-0.045888808 -0.095757127 -0.021626815 1.7149832e-38
-0.044012688 -0.095757127 -0.021626815 2.1020967e-38
-0.042136572 -0.095757127 -0.021626815 2.2587213e-38
-0.040260457 -0.095757127 -0.021626815 2.3508809e-38
-0.038402945 -0.097363517 -0.028701648 2.3508092e-38
-0.036514424 -0.097363517 -0.028701648 2.350773e-38
-0.034623276 -0.098043531 -0.031696543 2.3509883e-38
-0.032729506 -0.098043531 -0.031696543 2.3234376e-38
-0.030848861 -0.097363517 -0.028701648 2.2496453e-38
-0.02896034 -0.097363517 -0.028701648 2.1021322e-38
-0.027071819 -0.097363517 -0.028701648 2.1758532e-38
-0.025183298 -0.097363517 -0.028701648 2.3509886e-38
-0.023294775 -0.097363517 -0.028701648 2.3509886e-38
-0.021406254 -0.097363517 -0.028701648 2.3417691e-38
-0.019577425 -0.096454084 -0.024696335 2.3509527e-38
-0.017695926 -0.096454084 -0.024696335 2.3509883e-38
-0.015814427 -0.096454084 -0.024696335 2.2864153e-38
-0.013932929 -0.096454084 -0.024696335 2.2495368e-38
-0.012051431 -0.096454084 -0.024696335 2.3509879e-38
-0.010075125 -0.097363517 -0.028701648 2.3509876e-38
-0.0081104646 -0.098043531 -0.031696543 2.3509873e-38
-0.0061095739 -0.09893848 -0.035638079 2.3509873e-38
-0.0042088898 -0.09893848 -0.035638079 2.3418045e-38
-0.0024291473 -0.098043531 -0.031696543 2.3234376e-38
-0.00053537358 -0.098043531 -0.031696543 2.3418047e-38
0.0014931588 -0.09893848 -0.035638079 2.3418047e-38
0.0033938428 -0.09893848 -0.035638079 2.3509886e-38
0.0051459437 -0.098043531 -0.031696543 2.3509527e-38
0.0070397174 -0.098043531 -0.031696543 2.3509527e-38
0.0089334873 -0.098043531 -0.031696543 2.3509527e-38
0.010827261 -0.098043531 -0.031696543 2.3416251e-38
0.012587133 -0.097363517 -0.028701648 2.3509167e-38
0.014475654 -0.097363517 -0.028701648 2.3509527e-38
0.016171053 -0.096454084 -0.024696335 2.3509883e-38
0.017899167 -0.095757127 -0.021626815 2.3509886e-38
0.01962325 -0.095089734 -0.018687472 2.3418047e-38
0.02127799 -0.094171658 -0.014644131 2.3418047e-38
0.023141865 -0.094171658 -0.014644131 2.3417691e-38
0.025005739 -0.094171658 -0.014644131 2.3507374e-38
0.026869614 -0.094171658 -0.014644131 2.3508451e-38
0.028733488 -0.094171658 -0.014644131 2.3509168e-38
0.030597363 -0.094171658 -0.014644131 2.3509527e-38
0.032268446 -0.09348768 -0.011631712 2.3509886e-38
0.034127038 -0.09348768 -0.011631712 2.332621e-38
0.03598563 -0.09348768 -0.011631712 2.3234015e-38
0.037844222 -0.09348768 -0.011631712 2.3325494e-38
0.039702814 -0.09348768 -0.011631712 2.3509527e-38
0.041561406 -0.09348768 -0.011631712 2.1480514e-38
0.043419998 -0.09348768 -0.011631712 1.8254033e-38
0.04527859 -0.09348768 -0.011631712 1.705693e-38
0.047137182 -0.09348768 -0.011631712 1.281737e-38
0.048995771 -0.09348768 -0.011631712 1.2727691e-38
0.050854377 -0.09348768 -0.011631712 8.7654358e-39
0.052712969 -0.09348768 -0.011631712 8.0275218e-39
0.056277804 -0.098043531 -0.031696543 7.6555247e-39
0.058171578 -0.098043531 -0.031696543 8.9459216e-39
0.05980017 -0.097363517 -0.028701648 8.9488111e-39
0.061327018 -0.096454084 -0.024696335 7.1077936e-39
0.062655412 -0.095089734 -0.018687472 4.3440995e-39
0.064147092 -0.094171658 -0.014644131 1.487128e-39
0.066010959 -0.094171658 -0.014644131 6.5522054e-40
0.067874841 -0.094171658 -0.014644131 9.9171294e-41
0.085439377 -0.095757127 -0.021626815 2.309707e-39
0.086513571 -0.094171658 -0.014644131 2.8603627e-39
0.088377453 -0.094171658 -0.014644131 2.9518394e-39
0.091383643 -0.092807561 -0.0086363405 2.8596326e-39
0.092874043 -0.092131287 -0.0056578964 2.5830401e-39
0.094722159 -0.092131287 -0.0056578964 2.213889e-39
0.096570276 -0.092131287 -0.0056578964 1.7529053e-39
0.098418392 -0.092131287 -0.0056578964 3.4113392e-39
0.099744 -0.091210663 -0.00160335 3.7804748e-39
0.10158501 -0.091210663 -0.00160335 4.148893e-39
0.10303695 -0.09054333 0.001335755 4.4251142e-39
0.1048728 -0.09054333 0.001335755 5.0694018e-39
0.10942949 -0.095089734 -0.018687472 5.4385388e-39
0.11130045 -0.095089734 -0.018687472 5.2534259e-39
-0.12843412 -0.10793148 -0.06663464 7.3770713e-39
-0.12647909 -0.10793148 -0.06663464 5.1633182e-39
-0.12428898 -0.10725726 -0.063688025 2.9481526e-39
-0.12233912 -0.10725726 -0.063688025 1.1021086e-39
-0.12008216 -0.10633601 -0.059661731 2.2992309e-39
-0.11791352 -0.10564254 -0.056630954 1.9315246e-39
-0.11597603 -0.10564254 -0.056630954 2.5790296e-39
-0.11403853 -0.10564254 -0.056630954 2.3978641e-39
-0.11210106 -0.10564254 -0.056630954 4.0599036e-39
-0.11016356 -0.10564254 -0.056630954 4.7985616e-39
-0.10822607 -0.10564254 -0.056630954 5.5347198e-39
-0.10628857 -0.10564254 -0.056630954 7.0077072e-39
-0.10435108 -0.10564254 -0.056630954 1.1153997e-38
-0.1024136 -0.10564254 -0.056630954 1.6959791e-38
-0.099829294 -0.1031229 -0.045618996 2.0830513e-38
-0.097911112 -0.1031229 -0.045618996 2.1476949e-38
-0.095771216 -0.10220437 -0.041604623 1.9544816e-38
-0.093860075 -0.10220437 -0.041604623 1.493685e-38
-0.091797225 -0.10153329 -0.038671717 1.1894413e-38
-0.089891233 -0.10153329 -0.038671717 1.0327104e-38
-0.087985225 -0.10153329 -0.038671717 6.5471004e-39
-0.086079217 -0.10153329 -0.038671717 8.7601613e-39
-0.084173225 -0.10153329 -0.038671717 9.6817547e-39
-0.082267217 -0.10153329 -0.038671717 6.9165906e-39
-0.080361217 -0.10153329 -0.038671717 7.4690259e-39
-0.078455217 -0.10153329 -0.038671717 1.4751739e-38
-0.076549217 -0.10153329 -0.038671717 1.7331758e-38
-0.074392498 -0.099937305 -0.031696543 2.0924856e-38
-0.072498731 -0.099937305 -0.031696543 2.0738661e-38
-0.070604958 -0.099937305 -0.031696543 1.9537957e-38
-0.068711184 -0.099937305 -0.031696543 2.0458118e-38
-0.066730767 -0.099252045 -0.028701648 1.9537957e-38
-0.064842246 -0.099252045 -0.028701648 1.7422127e-38
-0.063029863 -0.099937305 -0.031696543 1.7608674e-38
-0.061229385 -0.10083917 -0.035638079 1.8714662e-38
-0.059395194 -0.10153329 -0.038671717 1.7976378e-38
-0.057428021 -0.10083917 -0.035638079 1.8251883e-38
-0.055454776 -0.099937305 -0.031696543 1.7054419e-38
-0.053561002 -0.099937305 -0.031696543 1.6040986e-38
-0.051622596 -0.099252045 -0.028701648 1.4197792e-38
-0.049681403 -0.098335579 -0.024696335 1.2631543e-38
-0.047764923 -0.097633243 -0.021626815 1.3369468e-38
-0.045888808 -0.097633243 -0.021626815 1.373825e-38
-0.043989498 -0.096960694 -0.018687472 1.5858387e-38
-0.042118534 -0.096960694 -0.018687472 1.8161838e-38
-0.040247571 -0.096960694 -0.018687472 2.1202135e-38
-0.038392413 -0.098335579 -0.024696335 2.2767663e-38
-0.036514424 -0.099252045 -0.028701648 2.3508092e-38
-0.034625903 -0.099252045 -0.028701648 2.2863448e-38
-0.032737382 -0.099252045 -0.028701648 1.9822428e-38
-0.030848861 -0.099252045 -0.028701648 1.9545125e-38
-0.02896034 -0.099252045 -0.028701648 1.9729516e-38
-0.027071819 -0.099252045 -0.028701648 2.1849659e-38
-0.025221922 -0.098335579 -0.024696335 2.3509168e-38
-0.023340423 -0.098335579 -0.024696335 2.3140033e-38
-0.021458924 -0.098335579 -0.024696335 2.3509168e-38
-0.019623172 -0.097633243 -0.021626815 2.3324421e-38
-0.017747056 -0.097633243 -0.021626815 2.3509168e-38
-0.015814427 -0.098335579 -0.024696335 2.3509168e-38
-0.013932929 -0.098335579 -0.024696335 2.3509527e-38
-0.012051431 -0.098335579 -0.024696335 2.3509527e-38
-0.010075125 -0.099252045 -0.028701648 2.3416971e-38
-0.0081104646 -0.099937305 -0.031696543 2.314074e-38
-0.0059474232 -0.10220437 -0.041604623 2.3417327e-38
-0.0041211257 -0.10153329 -0.038671717 2.3509886e-38
-0.0022151256 -0.10153329 -0.038671717 2.341805e-38
-0.00030912179 -0.10153329 -0.038671717 2.3417691e-38
0.0015968783 -0.10153329 -0.038671717 2.3416974e-38
0.0035028821 -0.10153329 -0.038671717 2.3324778e-38
0.0051459437 -0.099937305 -0.031696543 2.3508451e-38
0.0070397174 -0.099937305 -0.031696543 2.3508809e-38
0.0089334873 -0.099937305 -0.031696543 2.3508809e-38
0.010827261 -0.099937305 -0.031696543 2.3509168e-38
0.012587133 -0.099252045 -0.028701648 2.3509168e-38
0.014475654 -0.099252045 -0.028701648 2.3509168e-38
0.016171053 -0.098335579 -0.024696335 2.3509527e-38
0.017899167 -0.097633243 -0.021626815 2.3509886e-38
0.01962325 -0.096960694 -0.018687472 2.341805e-38
0.021494213 -0.096960694 -0.018687472 2.341805e-38
0.023141865 -0.09603554 -0.014644131 2.341805e-38
0.025005739 -0.09603554 -0.014644131 2.341805e-38
0.026869614 -0.09603554 -0.014644131 2.3234379e-38
0.028733488 -0.09603554 -0.014644131 2.286632e-38
0.030597363 -0.09603554 -0.014644131 2.2499334e-38
0.032268446 -0.095346272 -0.011631712 2.2591531e-38
0.034127038 -0.095346272 -0.011631712 2.2591531e-38
0.03598563 -0.095346272 -0.011631712 2.2775202e-38
0.037844222 -0.095346272 -0.011631712 2.2775202e-38
0.039702814 -0.095346272 -0.011631712 2.0746564e-38
0.041561406 -0.095346272 -0.011631712 1.8256932e-38
0.043419998 -0.095346272 -0.011631712 1.5305964e-38
0.04527859 -0.095346272 -0.011631712 1.4293254e-38
0.047137182 -0.095346272 -0.011631712 8.7636786e-39
0.048995771 -0.095346272 -0.011631712 6.8297283e-39
0.050854377 -0.095346272 -0.011631712 2.3135816e-39
0.052712969 -0.095346272 -0.011631712 2.3121453e-39
0.054571562 -0.095346272 -0.011631712 3.4127419e-39
0.057911642 -0.099252045 -0.028701648 1.0419258e-38
0.05980017 -0.099252045 -0.028701648 1.3925224e-38
0.061327018 -0.098335579 -0.024696335 8.6733242e-39
0.062925972 -0.097633243 -0.021626815 8.0304884e-39
0.063864522 -0.095346272 -0.011631712 8.122698e-39
0.065723114 -0.095346272 -0.011631712 7.5673774e-39
0.068268292 -0.096960694 -0.018687472 3.4164189e-39
0.085439377 -0.097633243 -0.021626815 1.7554542e-39
0.086513571 -0.09603554 -0.014644131 1.6618195e-39
0.087676965 -0.094660893 -0.0086363405 1.8454919e-39
0.089530297 -0.094660893 -0.0086363405 2.3068231e-39
0.091025911 -0.093979403 -0.0056578964 2.4908501e-39
0.092874043 -0.093979403 -0.0056578964 2.0298663e-39
0.094722159 -0.093979403 -0.0056578964 2.213889e-39
0.096570276 -0.093979403 -0.0056578964 2.5826659e-39
0.098418392 -0.093979403 -0.0056578964 3.7801217e-39
0.099744 -0.093051672 -0.00160335 4.6102355e-39
0.10158501 -0.093051672 -0.00160335 4.9786509e-39
0.10303695 -0.092379183 0.001335755 4.7938939e-39
0.1048728 -0.092379183 0.001335755 5.0697591e-39
0.10847072 -0.095346272 -0.011631712 5.6229301e-39
0.11130045 -0.096960694 -0.018687472 5.438536e-39
0.11317141 -0.096960694 -0.018687472 4.7006067e-39
0.11504237 -0.096960694 -0.018687472 3.8701201e-39
0.11733336 -0.097633243 -0.021626815 1.1049561e-39
-0.12843412 -0.10988651 -0.06663464 7.5611094e-39
-0.12647909 -0.10988651 -0.06663464 5.8094149e-39
-0.12428898 -0.10920714 -0.063688025 3.96195e-39
-0.12233912 -0.10920714 -0.063688025 1.0102815e-39
-0.12008216 -0.10827883 -0.059661731 2.0230154e-39
-0.11813936 -0.10827883 -0.059661731 1.1939722e-39
-0.11619657 -0.10827883 -0.059661731 9.1916771e-41
-0.11403853 -0.10758002 -0.056630954 9.2987363e-41
-0.11210106 -0.10758002 -0.056630954 6.1657132e-44
-0.11016356 -0.10758002 -0.056630954 7.9593753e-43
-0.10822607 -0.10758002 -0.056630954 8.211609e-43
-0.10603417 -0.10666345 -0.052655563 1.1630777e-43
-0.10410365 -0.10666345 -0.052655563 7.3660655e-40
-0.10193438 -0.10575347 -0.048708782 2.1180907e-39
-0.099829294 -0.10504107 -0.045618996 2.485769e-39
-0.097682364 -0.1041155 -0.041604623 1.6567089e-39
-0.095771216 -0.1041155 -0.041604623 2.4889779e-39
-0.093860075 -0.1041155 -0.041604623 4.6283487e-40
-0.091797225 -0.10343929 -0.038671717 1.1574725e-42
-0.089891233 -0.10343929 -0.038671717 1.3848276e-39
-0.087985225 -0.10343929 -0.038671717 1.2008133e-39
-0.086079217 -0.10343929 -0.038671717 4.8882868e-39
-0.084037587 -0.10273984 -0.035638079 6.3634168e-39
-0.082136907 -0.10273984 -0.035638079 5.257421e-39
-0.080236219 -0.10273984 -0.035638079 8.8519576e-39
-0.078335539 -0.10273984 -0.035638079 8.3902423e-39
-0.076434858 -0.10273984 -0.035638079 9.403304e-39
-0.074392498 -0.10183108 -0.031696543 1.4471899e-38
-0.072396331 -0.10114056 -0.028701648 1.4561216e-38
-0.07050781 -0.10114056 -0.028701648 1.2531474e-38
-0.068619289 -0.10114056 -0.028701648 1.4004812e-38
-0.066730767 -0.10114056 -0.028701648 1.2623673e-38
-0.064842246 -0.10114056 -0.028701648 1.4380774e-38
-0.063029863 -0.10183108 -0.031696543 1.3553884e-38
-0.061229385 -0.10273984 -0.035638079 1.4382206e-38
-0.059395194 -0.10343929 -0.038671717 1.4749909e-38
-0.057428021 -0.10273984 -0.035638079 1.5671863e-38
-0.055527337 -0.10273984 -0.035638079 1.5764058e-38
-0.053561002 -0.10183108 -0.031696543 1.5488551e-38
-0.051622596 -0.10114056 -0.028701648 1.650342e-38
-0.049509604 -0.097204864 -0.011631712 1.6965477e-38
-0.047616877 -0.09651424 -0.0086363405 1.7703758e-38
-0.045763534 -0.09651424 -0.0086363405 1.7980345e-38
-0.043910194 -0.09651424 -0.0086363405 1.7703037e-38
-0.042056855 -0.09651424 -0.0086363405 1.8161497e-38
-0.040216643 -0.097204864 -0.011631712 1.8437004e-38
-0.038392413 -0.10021709 -0.024696335 1.9633029e-38
-0.036505647 -0.098831654 -0.018687472 2.3044251e-38
-0.034634683 -0.098831654 -0.018687472 2.3508451e-38
-0.032747917 -0.10021709 -0.024696335 1.7516113e-38
-0.030866418 -0.10021709 -0.024696335 1.5580008e-38
-0.028984919 -0.10021709 -0.024696335 1.5211225e-38
-0.02710342 -0.10021709 -0.024696335 1.5948074e-38
-0.025221922 -0.10021709 -0.024696335 1.6224661e-38
-0.023340423 -0.10021709 -0.024696335 1.53949e-38
-0.021458924 -0.10021709 -0.024696335 1.9083444e-38
-0.019623172 -0.099509358 -0.021626815 2.046566e-38
-0.017747056 -0.099509358 -0.021626815 2.221809e-38
-0.015870936 -0.099509358 -0.021626815 2.3324062e-38
-0.013932929 -0.10021709 -0.024696335 2.3416974e-38
-0.012051431 -0.10021709 -0.024696335 2.3508809e-38
-0.010075125 -0.10114056 -0.028701648 2.3416974e-38
-0.0080102561 -0.10273984 -0.035638079 2.3509168e-38
-0.0059474232 -0.1041155 -0.041604623 2.3509168e-38
-0.0040362785 -0.1041155 -0.041604623 2.3509168e-38
-0.0021251338 -0.1041155 -0.041604623 2.3509168e-38
-0.00021398906 -0.1041155 -0.041604623 2.3509168e-38
0.0016971556 -0.1041155 -0.041604623 2.3509168e-38
0.0035028821 -0.10343929 -0.038671717 2.3508809e-38
0.0052945269 -0.10273984 -0.035638079 2.3508809e-38
0.0070397174 -0.10183108 -0.031696543 2.3508451e-38
0.0089334873 -0.10183108 -0.031696543 2.3508451e-38
0.010827261 -0.10183108 -0.031696543 2.3508451e-38
0.012721035 -0.10183108 -0.031696543 2.3509168e-38
0.014475654 -0.10114056 -0.028701648 2.3509168e-38
0.016364176 -0.10114056 -0.028701648 2.3508809e-38
0.018052552 -0.10021709 -0.024696335 2.3417333e-38
0.019775283 -0.099509358 -0.021626815 2.3325856e-38
0.021494213 -0.098831654 -0.018687472 2.341805e-38
0.023365177 -0.098831654 -0.018687472 2.3234379e-38
0.025005739 -0.097899407 -0.014644131 2.2958873e-38
0.026869614 -0.097899407 -0.014644131 2.2591526e-38
0.028733488 -0.097899407 -0.014644131 2.2316023e-38
0.030597363 -0.097899407 -0.014644131 2.2499695e-38
0.032461237 -0.097899407 -0.014644131 2.2224189e-38
0.034325104 -0.097899407 -0.014644131 2.0843065e-38
0.036188979 -0.097899407 -0.014644131 1.7707706e-38
0.037844222 -0.097204864 -0.011631712 1.5125518e-38
0.039702814 -0.097204864 -0.011631712 1.5492516e-38
0.041561406 -0.097204864 -0.011631712 1.3463861e-38
0.043196794 -0.09651424 -0.0086363405 1.4385465e-38
0.045050133 -0.09651424 -0.0086363405 1.3464954e-38
0.04690348 -0.09651424 -0.0086363405 1.0608693e-38
0.048756815 -0.09651424 -0.0086363405 8.3052438e-39
0.050854377 -0.097204864 -0.011631712 8.9531299e-39
0.052712969 -0.097204864 -0.011631712 1.254588e-38
0.052105449 -0.0905184 0.017368808 1.8163694e-38
0.053913198 -0.0905184 0.017368808 2.0467117e-38
0.055720933 -0.0905184 0.017368808 1.6782574e-38
0.061049856 -0.099509358 -0.021626815 6.9198136e-39
0.062925972 -0.099509358 -0.021626815 7.8432259e-39
0.063864522 -0.097204864 -0.011631712 1.1623621e-38
0.065723114 -0.097204864 -0.011631712 1.0423287e-38
0.067581706 -0.097204864 -0.011631712 3.8756048e-39
0.086513571 -0.097899407 -0.014644131 2.3993845e-39
0.087676965 -0.09651424 -0.0086363405 2.3064672e-39
0.089530297 -0.09651424 -0.0086363405 2.399016e-39
0.090538956 -0.094892681 -0.00160335 2.7674341e-39
0.092379965 -0.094892681 -0.00160335 3.3209611e-39
0.094220974 -0.094892681 -0.00160335 4.3343885e-39
0.096061982 -0.094892681 -0.00160335 5.1644995e-39
0.097902991 -0.094892681 -0.00160335 5.0708605e-39
0.099744 -0.094892681 -0.00160335 5.532189e-39
0.10158501 -0.094892681 -0.00160335 5.0708465e-39
0.10396274 -0.09582752 -0.0056578964 3.5960696e-39
0.10581086 -0.09582752 -0.0056578964 3.1347271e-39
0.10847072 -0.097204864 -0.011631712 3.8712103e-39
0.11130045 -0.098831654 -0.018687472 3.9637619e-39
0.11317141 -0.098831654 -0.018687472 3.3183911e-39
0.11504237 -0.098831654 -0.018687472 4.2399816e-39
0.11733336 -0.099509358 -0.021626815 1.6581298e-39
0.11920948 -0.099509358 -0.021626815 9.1857917e-41
