# .PCD v0.7 - Point Cloud Data file format
VERSION 0.7
FIELDS x y z rgb
SIZE 4 4 4 4
TYPE F F F F
COUNT 1 1 1 1
WIDTH 938
HEIGHT 1
VIEWPOINT 0 0 0 1 0 0 0
POINTS 938
DATA ascii
0.045135353 -0.10534529 -0.024426129 9.3125826e-39
0.04704136 -0.10534529 -0.024426129 1.1895506e-38
0.043518338 -0.091643453 0.034553025 1.0421452e-38
0.045320917 -0.091643453 0.034553025 2.9917722e-42
0.04712351 -0.091643453 0.034553025 9.4842683e-41
0.048047904 -0.089546859 0.043577764 9.3772091e-41
0.049834672 -0.089546859 0.043577764 1.4763464e-39
0.051621456 -0.089546859 0.043577764 2.858555e-39
0.065481767 -0.092326149 0.031614397 9.6671377e-41
0.069097251 -0.092326149 0.031614397 2.3093637e-39
0.070905 -0.092326149 0.031614397 2.3089994e-39
0.07308042 -0.093037367 0.028552983 2.0327656e-39
0.074893534 -0.093037367 0.028552983 3.2305815e-39
0.077563018 -0.094646841 0.021625016 3.50716e-39
0.079388276 -0.094646841 0.021625016 1.7554374e-39
0.081596553 -0.095346853 0.018611882 2.7688635e-39
0.083427101 -0.095346853 0.018611882 2.6770224e-39
0.085257635 -0.095346853 0.018611882 3.2298304e-39
0.087088183 -0.095346853 0.018611882 3.6908072e-39
0.088918716 -0.095346853 0.018611882 3.506053e-39
0.090339825 -0.094646841 0.021625016 2.6762895e-39
0.092165083 -0.094646841 0.021625016 2.8599605e-39
0.093990341 -0.094646841 0.021625016 3.4131202e-39
-0.113207 -0.12456764 -0.09840551 2.5223372e-44
-0.11117129 -0.12456764 -0.09840551 3.688666e-40
-0.10893618 -0.12363364 -0.094415218 1.4935796e-38
-0.10671638 -0.12270601 -0.090452224 2.1113194e-38
-0.10450566 -0.12175412 -0.086385518 2.2497901e-38
-0.10249102 -0.12175412 -0.086385518 1.9456209e-38
-0.10030849 -0.12083931 -0.082477242 6.4570292e-39
-0.09830071 -0.12083931 -0.082477242 2.2715048e-42
-0.096134707 -0.11990054 -0.078466564 4.0763772e-42
-0.094017625 -0.11917825 -0.075380713 3.7392949e-40
-0.091879904 -0.11825104 -0.071419507 1.5731929e-39
-0.089891508 -0.11825104 -0.071419507 8.3599224e-40
-0.087771401 -0.11730064 -0.067359239 6.5889054e-42
-0.085670292 -0.11638646 -0.063453585 5.4958926e-42
-0.08349371 -0.11475091 -0.056466129 3.3270497e-39
-0.081531525 -0.11475091 -0.056466129 6.7393628e-39
-0.079569355 -0.11475091 -0.056466129 1.1533537e-38
-0.07760717 -0.11475091 -0.056466129 1.0701992e-38
-0.075555637 -0.11379658 -0.052389052 4.6828032e-40
-0.073541194 -0.11310686 -0.049442437 2.8352192e-40
-0.071461409 -0.11145501 -0.042385366 5.7223522e-39
-0.069523916 -0.11145501 -0.042385366 8.4857324e-39
-0.067527175 -0.11052449 -0.038409974 6.2723212e-39
-0.065544754 -0.10960068 -0.034463193 5.0741115e-39
-0.063585952 -0.10887744 -0.031373408 3.7141276e-40
-0.061667763 -0.10887744 -0.031373408 1.4770597e-39
-0.059694767 -0.1072513 -0.024426129 1.4770583e-39
-0.057788763 -0.1072513 -0.024426129 1.5703077e-39
-0.055882759 -0.1072513 -0.024426129 1.2940711e-39
-0.053958416 -0.10561861 -0.017450955 1.754336e-39
-0.052062016 -0.1049176 -0.01445606 2.2156771e-39
-0.050177008 -0.10398008 -0.010450747 1.5703077e-39
-0.048303582 -0.1032616 -0.0073812269 1.0171353e-39
-0.046427462 -0.1032616 -0.0073812269 1.0164164e-39
-0.044551346 -0.1032616 -0.0073812269 1.7532612e-39
-0.042698421 -0.10257359 -0.0044418834 1.9372965e-39
-0.040827457 -0.10257359 -0.0044418834 1.5681539e-39
-0.039002575 -0.10162716 -0.00039854273 1.5670721e-39
-0.037178315 -0.10092205 0.002613876 1.8432974e-39
-0.035319723 -0.10092205 0.002613876 2.4883011e-39
-0.033511024 -0.10022092 0.0056092478 3.5939228e-39
-0.031712517 -0.099523753 0.0085876919 5.6218623e-39
-0.030005414 -0.097886756 0.015581343 7.7427135e-39
-0.028235978 -0.097177386 0.018611882 9.0327237e-39
-0.026405435 -0.097177386 0.018611882 1.0323817e-38
-0.024574893 -0.097177386 0.018611882 1.2997125e-38
-0.022826238 -0.096472099 0.021625016 1.5487477e-38
-0.021000978 -0.096472099 0.021625016 1.7424659e-38
-0.019175719 -0.096472099 0.021625016 2.0836246e-38
-0.017447632 -0.095770895 0.024620745 2.2311002e-38
-0.015762068 -0.094850481 0.028552983 2.3417691e-38
-0.013948955 -0.094850481 0.028552983 2.3509527e-38
-0.012135845 -0.094850481 0.028552983 2.2771253e-38
-0.010322731 -0.094850481 0.028552983 2.3508809e-38
-0.0087568387 -0.093446046 0.034553025 2.2863091e-38
-0.0074696355 -0.090637714 0.046550844 2.3509168e-38
0.0011228099 -0.089210689 0.052647445 2.3234379e-38
0.0028936751 -0.089210689 0.052647445 2.3142544e-38
0.004664544 -0.089210689 0.052647445 2.3234379e-38
0.0066085868 -0.089922056 0.049608324 2.3508451e-38
0.01214771 -0.1049176 -0.01445606 2.3509168e-38
0.014036231 -0.1049176 -0.01445606 2.3509168e-38
0.012127481 -0.090637714 0.046550844 2.3509168e-38
0.013909034 -0.090637714 0.046550844 2.3509521e-38
0.015289739 -0.089210689 0.052647445 2.3509521e-38
0.017060608 -0.089210689 0.052647445 2.3509521e-38
0.018831477 -0.089210689 0.052647445 2.350988e-38
0.022373207 -0.089210689 0.052647445 2.341805e-38
0.023926452 -0.088527083 0.055567954 2.3142544e-38
0.025692195 -0.088527083 0.055567954 2.2958514e-38
0.032921452 -0.1049176 -0.01445606 2.2405349e-38
0.034809966 -0.1049176 -0.01445606 1.8441334e-38
0.036698494 -0.1049176 -0.01445606 1.2633734e-38
0.03825343 -0.10398008 -0.010450747 8.8537302e-39
0.04013494 -0.10398008 -0.010450747 5.2563252e-39
0.042623986 -0.10561861 -0.017450955 8.3095458e-40
0.044866744 -0.1065412 -0.021392491 1.2611686e-43
0.040632371 -0.090637714 0.046550844 1.2930341e-39
0.042413939 -0.090637714 0.046550844 3.1380201e-39
0.044195492 -0.090637714 0.046550844 1.8472841e-39
0.046261135 -0.091333628 0.043577764 2.0313265e-39
0.048047904 -0.091333628 0.043577764 3.7826875e-39
0.049834672 -0.091333628 0.043577764 2.9518408e-39
0.051621456 -0.091333628 0.043577764 4.8875819e-39
0.054635305 -0.094133899 0.031614397 3.7815833e-39
0.056443039 -0.094133899 0.031614397 4.8886497e-39
0.061866272 -0.094133899 0.031614397 4.3390801e-39
0.063674018 -0.094133899 0.031614397 4.6160327e-39
0.065481767 -0.094133899 0.031614397 3.8770439e-39
0.067289501 -0.094133899 0.031614397 2.7703418e-39
0.069097251 -0.094133899 0.031614397 3.8770439e-39
0.070905 -0.094133899 0.031614397 4.7071549e-39
0.072712734 -0.094133899 0.031614397 2.6792028e-39
0.074520484 -0.094133899 0.031614397 1.1118659e-39
0.076706648 -0.094850481 0.028552983 1.1122176e-39
0.079012722 -0.095770895 0.024620745 9.2817666e-40
0.081213534 -0.096472099 0.021625016 1.66502e-39
0.083427101 -0.097177386 0.018611882 6.508653e-40
0.085257635 -0.097177386 0.018611882 9.2744939e-40
0.087088183 -0.097177386 0.018611882 2.8207998e-40
0.088918716 -0.097177386 0.018611882 1.6650172e-39
0.090339825 -0.096472099 0.021625016 7.4234487e-40
0.092165083 -0.096472099 0.021625016 1.0185744e-39
0.093990341 -0.096472099 0.021625016 8.3272862e-40
0.095392779 -0.095770895 0.024620745 1.6606592e-39
-0.11342186 -0.12755089 -0.10242346 3.643376e-43
-0.11117129 -0.12660335 -0.09840551 8.2945939e-40
-0.10913557 -0.12660335 -0.09840551 1.9452981e-38
-0.10671638 -0.1247278 -0.090452224 2.1850748e-38
-0.10450566 -0.12376876 -0.086385518 2.222096e-38
-0.10249102 -0.12376876 -0.086385518 2.2590454e-38
-0.10030849 -0.1228471 -0.082477242 1.1896186e-38
-0.09830071 -0.1228471 -0.082477242 1.0174842e-39
-0.096134707 -0.12190129 -0.078466564 9.2565713e-40
-0.094017625 -0.12117358 -0.075380713 1.8973581e-42
-0.091879904 -0.12023942 -0.071419507 4.6720132e-40
-0.089752682 -0.11928193 -0.067359239 2.8282407e-40
-0.087644719 -0.11836089 -0.063453585 1.9027251e-40
-0.085578077 -0.11765216 -0.060448315 9.9148873e-41
-0.08349371 -0.11671309 -0.056466129 1.298041e-39
-0.081531525 -0.11671309 -0.056466129 4.5248712e-39
-0.079569355 -0.11671309 -0.056466129 1.0794531e-38
-0.07760717 -0.11671309 -0.056466129 1.1162609e-38
-0.075491056 -0.11505674 -0.049442437 1.4813504e-39
-0.073460013 -0.11410724 -0.045416143 2.9735553e-42
-0.071461409 -0.11339252 -0.042385366 7.012012e-39
-0.069523916 -0.11339252 -0.042385366 9.1307361e-39
-0.067527175 -0.11245503 -0.038409974 3.5990011e-39
-0.065596655 -0.11245503 -0.038409974 9.2602987e-40
-0.063585952 -0.11079563 -0.031373408 2.7958146e-40
-0.061667763 -0.11079563 -0.031373408 1.4777785e-39
-0.059717909 -0.10984896 -0.027359035 9.2460335e-40
-0.057788763 -0.10915731 -0.024426129 1.017501e-39
-0.055869464 -0.1084419 -0.021392491 4.6468038e-40
-0.053958416 -0.1075124 -0.017450955 1.1093337e-39
-0.052062016 -0.10680611 -0.01445606 9.5547536e-41
-0.050177008 -0.10586159 -0.010450747 9.6988071e-41
-0.048303582 -0.10513772 -0.0073812269 5.5868929e-40
-0.046440348 -0.10444455 -0.0044418834 1.4795666e-39
-0.044569384 -0.10444455 -0.0044418834 2.0323802e-39
-0.042698421 -0.10444455 -0.0044418834 2.3078881e-39
-0.040866449 -0.10349102 -0.00039854273 2.122778e-39
-0.039002575 -0.10349102 -0.00039854273 1.844752e-39
-0.037178315 -0.10278064 0.002613876 1.4752506e-39
-0.035364363 -0.10207425 0.0056092478 2.7598433e-40
-0.033511024 -0.10207425 0.0056092478 1.0930128e-43
-0.031712517 -0.10137187 0.0085876919 4.5964551e-40
-0.030005414 -0.099722609 0.015581343 1.3819507e-39
-0.028235978 -0.099007934 0.018611882 2.487571e-39
-0.026405435 -0.099007934 0.018611882 3.6868219e-39
-0.024574893 -0.099007934 0.018611882 6.0842614e-39
-0.022826238 -0.098297372 0.021625016 8.4813435e-39
-0.021000978 -0.098297372 0.021625016 1.2262796e-38
-0.019175719 -0.098297372 0.021625016 1.6965125e-38
-0.017447632 -0.097590908 0.024620745 1.9731696e-38
-0.015762068 -0.096663594 0.028552983 2.2958873e-38
-0.013948955 -0.096663594 0.028552983 2.3142544e-38
-0.012135845 -0.096663594 0.028552983 2.2865602e-38
-0.010559432 -0.09524864 0.034553025 2.3233662e-38
0.0028936751 -0.090981558 0.052647445 2.240786e-38
0.004664544 -0.090981558 0.052647445 2.249826e-38
0.0066085868 -0.091698244 0.049608324 2.3416974e-38
0.0083847828 -0.091698244 0.049608324 2.3508092e-38
0.010160979 -0.091698244 0.049608324 2.3507374e-38
0.011937171 -0.091698244 0.049608324 2.3507733e-38
0.013518877 -0.090981558 0.052647445 2.3508809e-38
0.015289739 -0.090981558 0.052647445 2.3509168e-38
0.017060608 -0.090981558 0.052647445 2.3509168e-38
0.018831477 -0.090981558 0.052647445 2.3509527e-38
0.025692195 -0.090292826 0.055567954 2.2038007e-38
0.027457938 -0.090292826 0.055567954 1.9179985e-38
0.028984077 -0.089584544 0.058571432 1.3649345e-38
0.03074456 -0.089584544 0.058571432 6.6428442e-39
0.032505039 -0.089584544 0.058571432 1.0192849e-39
0.034520928 -0.090292826 0.055567954 1.385929e-39
0.036286671 -0.090292826 0.055567954 2.1231479e-39
0.038052414 -0.090292826 0.055567954 3.3220611e-39
0.040081877 -0.090981558 0.052647445 2.3086294e-39
0.042132486 -0.091698244 0.049608324 2.0320411e-39
0.044195492 -0.092419267 0.046550844 4.1525406e-39
0.045977045 -0.092419267 0.046550844 3.0458385e-39
0.048047904 -0.093120396 0.043577764 3.3220625e-39
0.049834672 -0.093120396 0.043577764 3.5057293e-39
0.051621456 -0.093120396 0.043577764 4.6124257e-39
0.054333884 -0.09524864 0.034553025 4.2443509e-39
0.056136478 -0.09524864 0.034553025 4.3376199e-39
0.058250789 -0.095941633 0.031614397 3.231994e-39
0.059741665 -0.09524864 0.034553025 3.048323e-39
0.061544258 -0.09524864 0.034553025 3.1415892e-39
0.063346848 -0.09524864 0.034553025 3.0497608e-39
0.065481767 -0.095941633 0.031614397 3.0487042e-39
0.067289501 -0.095941633 0.031614397 1.9420049e-39
0.069097251 -0.095941633 0.031614397 3.4174867e-39
0.070905 -0.095941633 0.031614397 4.1554007e-39
0.072712734 -0.095941633 0.031614397 1.482435e-39
0.074520484 -0.095941633 0.031614397 3.7643361e-40
0.076706648 -0.096663594 0.028552983 2.2206979e-39
0.078519762 -0.096663594 0.028552983 3.6039827e-39
0.08083272 -0.097590908 0.024620745 5.9092308e-39
0.083038792 -0.098297372 0.021625016 4.4341007e-39
0.085257635 -0.099007934 0.018611882 4.3415477e-39
0.087088183 -0.099007934 0.018611882 7.4592098e-40
0.088918716 -0.099007934 0.018611882 1.5753285e-39
0.090339825 -0.098297372 0.021625016 5.1273511e-42
0.091752768 -0.097590908 0.024620745 7.4450007e-40
0.093572766 -0.097590908 0.024620745 2.8207157e-40
0.095392779 -0.097590908 0.024620745 8.3162019e-40
-0.11342186 -0.12959366 -0.10242346 1.0141491e-39
-0.11117129 -0.12863909 -0.09840551 4.3440252e-44
-0.10913557 -0.12863909 -0.09840551 2.04664e-38
-0.10690746 -0.12769108 -0.094415218 2.2771973e-38
-0.1046946 -0.12674956 -0.090452224 2.1022435e-38
-0.10249102 -0.1257834 -0.086385518 2.2590096e-38
-0.10030849 -0.12485488 -0.082477242 1.5492148e-38
-0.09830071 -0.12485488 -0.082477242 7.3785959e-39
-0.096134707 -0.12390204 -0.078466564 5.7201662e-39
-0.094017625 -0.12316893 -0.075380713 7.4196792e-40
-0.091879904 -0.12222783 -0.071419507 2.8171985e-40
-0.089752682 -0.12126322 -0.067359239 2.9917722e-42
-0.087644719 -0.12033533 -0.063453585 4.8050524e-42
-0.085578077 -0.11962132 -0.060448315 4.6649927e-40
-0.08349371 -0.11867525 -0.056466129 4.7910394e-42
-0.081531525 -0.11867525 -0.056466129 1.2040363e-39
-0.079569355 -0.11867525 -0.056466129 5.8141709e-39
-0.07760717 -0.11867525 -0.056466129 8.6718823e-39
-0.075491056 -0.11700659 -0.049442437 5.8138206e-39
-0.073460013 -0.11605005 -0.045416143 2.9550372e-39
-0.071461409 -0.11533 -0.042385366 8.671169e-39
-0.069523916 -0.11533 -0.042385366 8.0250934e-39
-0.067527175 -0.11438553 -0.038409974 2.4933584e-39
-0.065596655 -0.11438553 -0.038409974 9.6267803e-41
-0.063621163 -0.11344786 -0.034463193 4.6505172e-40
-0.061667763 -0.1127138 -0.031373408 1.0171521e-39
-0.059717909 -0.11176009 -0.027359035 5.5581803e-40
-0.057788763 -0.11106332 -0.024426129 1.1093449e-39
-0.055869464 -0.11034258 -0.021392491 1.8738583e-40
-0.053958416 -0.10940616 -0.017450955 1.7547143e-39
-0.052058503 -0.10774307 -0.010450747 1.2951781e-39
-0.050179698 -0.10701384 -0.0073812269 7.4416796e-40
-0.048303582 -0.10701384 -0.0073812269 1.8512358e-39
-0.046440348 -0.10631551 -0.0044418834 2.5880806e-39
-0.044569384 -0.10631551 -0.0044418834 1.8497938e-39
-0.042698421 -0.10631551 -0.0044418834 1.4806512e-39
-0.040866449 -0.10535492 -0.00039854273 1.9405503e-39
-0.039002575 -0.10535492 -0.00039854273 2.0309509e-39
-0.037178315 -0.10463922 0.002613876 1.3848626e-39
-0.035364363 -0.1039276 0.0056092478 2.1220675e-39
-0.033560634 -0.10322 0.0085876919 2.4897683e-39
-0.031712517 -0.10322 0.0085876919 2.2128156e-39
-0.030005414 -0.10155846 0.015581343 2.028053e-39
-0.028169557 -0.10155846 0.015581343 2.4893801e-39
-0.026405435 -0.10083848 0.018611882 2.7666746e-39
-0.024574893 -0.10083848 0.018611882 1.5684832e-39
-0.022826238 -0.10012263 0.021625016 4.3440252e-43
-0.021000978 -0.10012263 0.021625016 2.5822778e-39
-0.019175719 -0.10012263 0.021625016 7.1924138e-39
-0.017447632 -0.099410906 0.024620745 9.4068872e-39
-0.015762068 -0.098476708 0.028552983 1.3002866e-38
-0.014164615 -0.097051233 0.034553025 1.4662387e-38
-0.012362026 -0.097051233 0.034553025 1.5398876e-38
-0.010559432 -0.097051233 0.034553025 1.8348068e-38
-0.0092511885 -0.094200835 0.046550844 1.7794534e-38
-0.0074696355 -0.094200835 0.046550844 2.185039e-38
-0.0058247782 -0.093474448 0.049608324 2.2495749e-38
-0.0022723861 -0.093474448 0.049608324 2.2958873e-38
-0.0007939972 -0.092058569 0.055567954 2.185541e-38
0.00081640109 -0.091345012 0.058571432 2.0012232e-38
0.0028936751 -0.092752427 0.052647445 1.8076505e-38
0.004664544 -0.092752427 0.052647445 1.7061285e-38
0.0064354092 -0.092752427 0.052647445 1.7610139e-38
0.0082062744 -0.092752427 0.052647445 1.7607977e-38
0.0099771433 -0.092752427 0.052647445 1.7515775e-38
0.011748008 -0.092752427 0.052647445 1.8806869e-38
0.013518877 -0.092752427 0.052647445 2.0927721e-38
0.015289739 -0.092752427 0.052647445 2.267942e-38
0.017060608 -0.092752427 0.052647445 2.3416974e-38
0.018831477 -0.092752427 0.052647445 2.3233662e-38
0.020181678 -0.091345012 0.058571432 2.2219884e-38
0.021942161 -0.091345012 0.058571432 1.650486e-38
0.023702636 -0.091345012 0.058571432 1.0513238e-38
0.025692195 -0.092058569 0.055567954 6.0889375e-39
0.027457938 -0.092058569 0.055567954 3.4156412e-39
0.029223688 -0.092058569 0.055567954 3.6011227e-39
0.03074456 -0.091345012 0.058571432 4.1553866e-39
0.032505039 -0.091345012 0.058571432 3.3252742e-39
0.034520928 -0.092058569 0.055567954 3.4174755e-39
0.036286671 -0.092058569 0.055567954 4.6149467e-39
0.038052414 -0.092058569 0.055567954 3.6007962e-39
0.040081877 -0.092752427 0.052647445 5.3521572e-39
0.042132486 -0.093474448 0.049608324 4.0614184e-39
0.043908689 -0.093474448 0.049608324 3.6919156e-39
0.045977045 -0.094200835 0.046550844 3.0461902e-39
0.048047904 -0.094907165 0.043577764 2.7692404e-39
0.050130937 -0.095617667 0.040587161 2.3086168e-39
0.051922951 -0.095617667 0.040587161 2.5851981e-39
0.054333884 -0.097051233 0.034553025 2.9543323e-39
0.056136478 -0.097051233 0.034553025 2.8632087e-39
0.057939071 -0.097051233 0.034553025 2.2189155e-39
0.059741665 -0.097051233 0.034553025 1.758652e-39
0.061544258 -0.097051233 0.034553025 1.5746139e-39
0.063346848 -0.097051233 0.034553025 1.7593737e-39
0.065481767 -0.097749382 0.031614397 1.1129477e-39
0.06695202 -0.097051233 0.034553025 2.6799189e-39
0.068754613 -0.097051233 0.034553025 3.049409e-39
0.070905 -0.097749382 0.031614397 7.3021663e-42
0.072712734 -0.097749382 0.031614397 2.8459111e-40
0.074520484 -0.097749382 0.031614397 9.504503e-39
0.076328233 -0.097749382 0.031614397 1.8910219e-38
0.078519762 -0.098476708 0.028552983 2.1305834e-38
0.08083272 -0.099410906 0.024620745 2.0754462e-38
0.083038792 -0.10012263 0.021625016 1.8818383e-38
0.08486405 -0.10012263 0.021625016 1.7066327e-38
0.086689308 -0.10012263 0.021625016 8.4003022e-39
0.088918716 -0.10083848 0.018611882 5.3567787e-39
0.090749264 -0.10083848 0.018611882 8.0000129e-42
0.091752768 -0.099410906 0.024620745 5.6190107e-40
0.093572766 -0.099410906 0.024620745 6.2007457e-42
0.095392779 -0.099410906 0.024620745 9.4778223e-41
0.097640872 -0.10012263 0.021625016 4.0637655e-44
-0.11342186 -0.1316364 -0.10242346 2.7550929e-40
-0.11117129 -0.13067479 -0.09840551 2.2098659e-39
-0.10913557 -0.13067479 -0.09840551 2.0096185e-38
-0.10690746 -0.12971978 -0.094415218 2.3508809e-38
-0.1046946 -0.12877132 -0.090452224 2.2404628e-38
-0.10249102 -0.12779804 -0.086385518 2.2313147e-38
-0.10030849 -0.12686269 -0.082477242 1.834946e-38
-0.09830071 -0.12686269 -0.082477242 1.8717904e-38
-0.096134707 -0.12590279 -0.078466564 1.0237002e-38
-0.094017625 -0.12516426 -0.075380713 7.6555331e-39
-0.091879904 -0.12421621 -0.071419507 6.1814989e-39
-0.089752682 -0.12324448 -0.067359239 5.8113066e-39
-0.087644719 -0.12230973 -0.063453585 9.2495087e-40
-0.085578077 -0.12159048 -0.060448315 8.3275805e-40
-0.08349371 -0.12063743 -0.056466129 2.0312984e-39
-0.081531525 -0.12063743 -0.056466129 2.1234814e-39
-0.079569355 -0.12063743 -0.056466129 4.1521384e-39
-0.07751067 -0.11966167 -0.052389052 7.9325124e-39
-0.075491056 -0.11895646 -0.049442437 7.4711783e-39
-0.073460013 -0.11799283 -0.045416143 4.7056751e-39
-0.071461409 -0.11726747 -0.042385366 7.2875087e-39
-0.069523916 -0.11726747 -0.042385366 8.4860491e-39
-0.067527175 -0.11631607 -0.038409974 1.1104015e-39
-0.065596655 -0.11631607 -0.038409974 4.6432445e-40
-0.063621163 -0.11537148 -0.034463193 1.5706748e-39
-0.061667763 -0.114632 -0.031373408 4.6432725e-40
-0.059717909 -0.11367123 -0.027359035 5.5652569e-40
-0.057788763 -0.11296929 -0.024426129 1.3855787e-39
-0.055869464 -0.11224325 -0.021392491 1.1089946e-39
-0.053958416 -0.11129995 -0.017450955 1.4777785e-39
-0.052058503 -0.10962458 -0.010450747 9.2712289e-40
-0.050179698 -0.10888995 -0.0073812269 7.4633156e-40
-0.048303582 -0.10888995 -0.0073812269 1.3005843e-39
-0.046440348 -0.10818647 -0.0044418834 2.8675471e-39
-0.044569384 -0.10818647 -0.0044418834 5.6229483e-40
-0.042698421 -0.10818647 -0.0044418834 9.2963541e-40
-0.040866449 -0.10721879 -0.00039854273 8.3636078e-40
-0.039036907 -0.10649781 0.002613876 1.4802953e-39
-0.037217703 -0.10578094 0.0056092478 1.3863032e-39
-0.035364363 -0.10578094 0.0056092478 1.6618139e-39
-0.033560634 -0.1050681 0.0085876919 1.7536494e-39
-0.031787161 -0.10409774 0.012642238 2.3990146e-39
-0.030005414 -0.10339431 0.015581343 1.2926572e-39
-0.028169557 -0.10339431 0.015581343 1.9383755e-39
-0.026405435 -0.10266902 0.018611882 2.8610367e-39
-0.024574893 -0.10266902 0.018611882 8.3308455e-40
-0.022826238 -0.10194789 0.021625016 8.3272862e-40
-0.021000978 -0.10194789 0.021625016 2.3060819e-39
-0.019267637 -0.10123092 0.024620745 6.1793773e-39
-0.017575178 -0.10028981 0.028552983 5.0740919e-39
-0.015866738 -0.099557132 0.031614397 9.5001898e-39
-0.014381502 -0.09740968 0.040587161 1.0330669e-38
-0.012702227 -0.096693933 0.043577764 1.0237399e-38
-0.011032745 -0.095982388 0.046550844 1.1343035e-38
-0.0092511885 -0.095982388 0.046550844 9.5898757e-39
-0.0074696355 -0.095982388 0.046550844 1.0325995e-38
-0.0058247782 -0.095250636 0.049608324 1.2907816e-38
-0.0040485822 -0.095250636 0.049608324 2.0653658e-38
-0.0022723861 -0.095250636 0.049608324 2.130117e-38
-0.0007939972 -0.093824327 0.055567954 2.2224189e-38
0.00081640109 -0.093105495 0.058571432 1.734003e-38
0.0025768802 -0.093105495 0.058571432 1.1071829e-38
0.0043373592 -0.093105495 0.058571432 7.3829357e-39
0.006097842 -0.093105495 0.058571432 7.4711699e-39
0.0076829493 -0.092390925 0.061557148 8.8512191e-39
0.0094381943 -0.092390925 0.061557148 9.1281591e-39
0.011748008 -0.094523281 0.052647445 1.3921968e-38
0.013518877 -0.094523281 0.052647445 1.5489644e-38
0.014703929 -0.092390925 0.061557148 2.3141109e-38
0.016459174 -0.092390925 0.061557148 2.2495749e-38
0.018214419 -0.092390925 0.061557148 2.2865243e-38
0.020181678 -0.093105495 0.058571432 2.1483048e-38
0.021942161 -0.093105495 0.058571432 1.0973863e-38
0.023702636 -0.093105495 0.058571432 7.1027391e-39
0.025463119 -0.093105495 0.058571432 3.1386998e-39
0.027457938 -0.093824327 0.055567954 4.2472193e-39
0.029223688 -0.093824327 0.055567954 3.9713625e-39
0.030989431 -0.093824327 0.055567954 3.9724541e-39
0.032755185 -0.093824327 0.055567954 4.0646498e-39
0.034520928 -0.093824327 0.055567954 3.4192663e-39
0.036286671 -0.093824327 0.055567954 4.340494e-39
0.038052414 -0.093824327 0.055567954 4.1557426e-39
0.040081877 -0.094523281 0.052647445 4.1550265e-39
0.042132486 -0.095250636 0.049608324 4.24579e-39
0.043908689 -0.095250636 0.049608324 2.5855512e-39
0.045684878 -0.095250636 0.049608324 1.5714021e-39
0.047758598 -0.095982388 0.046550844 2.8621409e-39
0.050130937 -0.09740968 0.040587161 2.3086112e-39
0.051922951 -0.09740968 0.040587161 3.2312864e-39
0.054333884 -0.098853827 0.034553025 1.6650397e-39
0.056136478 -0.098853827 0.034553025 1.8494281e-39
0.057939071 -0.098853827 0.034553025 2.0348928e-39
0.059741665 -0.098853827 0.034553025 1.8504959e-39
0.061544258 -0.098853827 0.034553025 5.8630328e-42
0.063346848 -0.098853827 0.034553025 3.6944113e-39
0.065481767 -0.099557132 0.031614397 3.0490531e-39
0.06695202 -0.098853827 0.034553025 2.4958793e-39
0.068754613 -0.098853827 0.034553025 2.0356088e-39
0.070905 -0.099557132 0.031614397 6.530205e-40
0.072712734 -0.099557132 0.031614397 4.0301344e-42
0.074520484 -0.099557132 0.031614397 1.7988276e-38
0.076328233 -0.099557132 0.031614397 2.0478238e-38
0.078519762 -0.10028981 0.028552983 2.1030327e-38
0.08083272 -0.10123092 0.024620745 2.1213998e-38
0.082652733 -0.10123092 0.024620745 1.7989702e-38
0.08486405 -0.10194789 0.021625016 1.8081903e-38
0.086689308 -0.10194789 0.021625016 1.0706621e-38
0.088514566 -0.10194789 0.021625016 6.5563896e-39
0.090749264 -0.10266902 0.018611882 1.2097732e-39
0.092579812 -0.10266902 0.018611882 5.8392107e-42
0.093990341 -0.10194789 0.021625016 4.3958733e-42
0.095815614 -0.10194789 0.021625016 9.4778223e-41
0.097640872 -0.10194789 0.021625016 4.0637655e-43
-0.11546463 -0.13367917 -0.10242346 5.7157661e-39
-0.11342186 -0.13367917 -0.10242346 8.2726215e-40
-0.11117129 -0.1327105 -0.09840551 1.4708729e-39
-0.10913557 -0.1327105 -0.09840551 2.0925219e-38
-0.10690746 -0.13174851 -0.094415218 2.3508809e-38
-0.10450566 -0.12981267 -0.086385518 2.2864519e-38
-0.10249102 -0.12981267 -0.086385518 2.3326203e-38
-0.10030849 -0.12887047 -0.082477242 2.3234372e-38
-0.09830071 -0.12887047 -0.082477242 2.2958873e-38
-0.096134707 -0.12790357 -0.078466564 2.1484481e-38
-0.094017625 -0.12715961 -0.075380713 2.2775202e-38
-0.091733962 -0.12522577 -0.067359239 2.2591172e-38
-0.089752682 -0.12522577 -0.067359239 1.9639522e-38
-0.087644719 -0.12428416 -0.063453585 1.4107825e-38
-0.085578077 -0.12355967 -0.060448315 1.5121979e-38
-0.08349371 -0.12259962 -0.056466129 9.2211058e-39
-0.081531525 -0.12259962 -0.056466129 2.8596074e-39
-0.079569355 -0.12259962 -0.056466129 1.5688657e-39
-0.07751067 -0.12161671 -0.052389052 2.5837253e-39
-0.075491056 -0.12090631 -0.049442437 7.5630096e-39
-0.073460013 -0.11993565 -0.045416143 8.3002257e-39
-0.071461409 -0.11920498 -0.042385366 7.7477652e-39
-0.069523916 -0.11920498 -0.042385366 7.4722405e-39
-0.067527175 -0.11824657 -0.038409974 1.8914727e-40
-0.065596655 -0.11824657 -0.038409974 4.6467898e-40
-0.063621163 -0.11729507 -0.034463193 2.2160414e-39
-0.061667763 -0.11655019 -0.031373408 1.2022412e-39
-0.059717909 -0.11558239 -0.027359035 4.422498e-42
-0.057788763 -0.1148753 -0.024426129 5.5582083e-40
-0.055869464 -0.11414395 -0.021392491 3.014193e-42
-0.05396878 -0.11414395 -0.021392491 1.2008357e-39
-0.052062016 -0.11247168 -0.01445606 3.7848315e-39
-0.050177008 -0.11150609 -0.010450747 2.3140202e-39
-0.048303582 -0.11076607 -0.0073812269 5.6481717e-40
-0.046440348 -0.11005743 -0.0044418834 9.3323535e-40
-0.044569384 -0.11005743 -0.0044418834 7.4739935e-40
-0.042698421 -0.11005743 -0.0044418834 2.0377752e-39
-0.040866449 -0.10908265 -0.00039854273 1.390608e-39
-0.039036907 -0.1083564 0.002613876 1.296976e-39
-0.037217703 -0.10763429 0.0056092478 9.2712148e-40
-0.03540875 -0.10691623 0.0085876919 8.3385106e-40
-0.033628169 -0.10593875 0.012642238 1.386306e-39
-0.031841271 -0.10523017 0.015581343 1.0175207e-39
-0.030005414 -0.10523017 0.015581343 1.0178752e-39
-0.028235978 -0.10449956 0.018611882 2.1245717e-39
-0.026476756 -0.10377313 0.021625016 6.3662755e-39
-0.024651496 -0.10377313 0.021625016 5.6290608e-39
-0.022826238 -0.10377313 0.021625016 6.5499437e-39
-0.021087645 -0.10305093 0.024620745 5.0730438e-39
-0.019388292 -0.10210292 0.028552983 8.3917319e-39
-0.017674483 -0.10136487 0.031614397 7.1953327e-39
-0.015967209 -0.10065642 0.034553025 1.0331055e-38
-0.014381502 -0.099201679 0.040587161 1.0608718e-38
-0.012702227 -0.098480701 0.043577764 9.501294e-39
-0.011032745 -0.097763941 0.046550844 7.8410566e-39
-0.0092511885 -0.097763941 0.046550844 4.6324545e-40
-0.0074696355 -0.097763941 0.046550844 8.6880505e-44
-0.0058247782 -0.09702684 0.049608324 1.0153094e-39
-0.0040485822 -0.09702684 0.049608324 2.0301606e-39
-0.0025597401 -0.09559007 0.055567954 1.890411e-38
-0.00094407797 -0.094865978 0.058571432 1.9275408e-38
0.00081640109 -0.094865978 0.058571432 1.6972704e-38
0.0025768802 -0.094865978 0.058571432 9.9680161e-39
0.0043373592 -0.094865978 0.058571432 2.4991023e-39
0.0059277043 -0.094146177 0.061557148 4.7071213e-39
0.0073295683 -0.092695728 0.067573518 6.7332629e-39
0.0090742633 -0.092695728 0.067573518 1.0144136e-38
0.010818958 -0.092695728 0.067573518 1.6228679e-38
0.012563653 -0.092695728 0.067573518 1.6319427e-38
0.014703929 -0.094146177 0.061557148 1.5490018e-38
0.016459174 -0.094146177 0.061557148 1.1064265e-38
0.018214419 -0.094146177 0.061557148 9.4969388e-39
0.019969665 -0.094146177 0.061557148 7.1002154e-39
0.02172491 -0.094146177 0.061557148 5.3499431e-39
0.023702636 -0.094865978 0.058571432 6.180794e-39
0.025463119 -0.094865978 0.058571432 5.0755367e-39
0.027457938 -0.09559007 0.055567954 1.2973277e-39
0.029223688 -0.09559007 0.055567954 2.2203742e-39
0.030989431 -0.09559007 0.055567954 2.2214616e-39
0.032755185 -0.09559007 0.055567954 1.3916982e-39
0.034520928 -0.09559007 0.055567954 8.3958377e-40
0.036286671 -0.09559007 0.055567954 2.0370367e-39
0.038052414 -0.09559007 0.055567954 1.6668095e-39
0.040081877 -0.09629415 0.052647445 1.0207212e-39
0.041852746 -0.09629415 0.052647445 2.1252793e-39
0.043908689 -0.09702684 0.049608324 2.308237e-39
0.045684878 -0.09702684 0.049608324 1.7547003e-39
0.047758598 -0.097763941 0.046550844 1.8472589e-39
0.049834672 -0.098480701 0.043577764 2.1245717e-39
0.051621456 -0.098480701 0.043577764 1.8483491e-39
0.054023523 -0.099926919 0.037578914 1.6654026e-39
0.055820812 -0.099926919 0.037578914 2.4951633e-39
0.057939071 -0.10065642 0.034553025 1.2969704e-39
0.059741665 -0.10065642 0.034553025 1.3895206e-39
0.061544258 -0.10065642 0.034553025 1.481719e-39
0.063346848 -0.10065642 0.034553025 5.3535809e-39
0.065481767 -0.10136487 0.031614397 5.9064016e-39
0.067289501 -0.10136487 0.031614397 4.7085744e-39
0.069097251 -0.10136487 0.031614397 1.3895177e-39
0.070905 -0.10136487 0.031614397 1.4831371e-39
0.072712734 -0.10136487 0.031614397 4.3419051e-39
0.074520484 -0.10136487 0.031614397 2.0477879e-38
0.076706648 -0.10210292 0.028552983 2.1213998e-38
0.079012722 -0.10305093 0.024620745 2.1305834e-38
0.08083272 -0.10305093 0.024620745 1.9096041e-38
0.082652733 -0.10305093 0.024620745 1.5685163e-38
0.08486405 -0.10377313 0.021625016 1.4394072e-38
0.086689308 -0.10377313 0.021625016 1.1628932e-38
0.088514566 -0.10377313 0.021625016 1.070555e-38
0.090339825 -0.10377313 0.021625016 3.7912494e-39
0.092165083 -0.10377313 0.021625016 9.0790128e-42
0.093990341 -0.10377313 0.021625016 8.3739775e-40
0.095815614 -0.10377313 0.021625016 1.5007907e-42
0.098071426 -0.10449956 0.018611882 1.126644e-42
0.099901974 -0.10449956 0.018611882 3.5032462e-44
-0.11546463 -0.13572191 -0.10242346 3.9629912e-39
-0.11342186 -0.13572191 -0.10242346 1.2871865e-39
-0.11117129 -0.13474621 -0.09840551 2.0233489e-39
-0.10913557 -0.13474621 -0.09840551 1.7789879e-38
-0.10690746 -0.13377722 -0.094415218 2.2770897e-38
-0.10450566 -0.13182731 -0.086385518 2.3325138e-38
-0.10249102 -0.13182731 -0.086385518 2.3234364e-38
-0.10030849 -0.13087825 -0.082477242 2.3234364e-38
-0.09830071 -0.13087825 -0.082477242 2.30507e-38
-0.096134707 -0.12990431 -0.078466564 2.3142544e-38
-0.094017625 -0.12915494 -0.075380713 2.2958873e-38
-0.091733962 -0.12720706 -0.067359239 2.2867037e-38
-0.089619145 -0.1262586 -0.063453585 2.1483406e-38
-0.087547235 -0.12552883 -0.060448315 2.0284881e-38
-0.085578077 -0.12552883 -0.060448315 2.2774125e-38
-0.08349371 -0.1245618 -0.056466129 9.3129133e-39
-0.081531525 -0.1245618 -0.056466129 2.0284019e-39
-0.079569355 -0.1245618 -0.056466129 3.6888341e-40
-0.07751067 -0.12357174 -0.052389052 3.6923234e-40
-0.075491056 -0.12285618 -0.049442437 8.7601137e-39
-0.073541194 -0.12285618 -0.049442437 1.0419646e-38
-0.071517199 -0.12187846 -0.045416143 6.6410575e-39
-0.069523916 -0.12114246 -0.042385366 5.7205179e-39
-0.067527175 -0.12017711 -0.038409974 6.5047994e-40
-0.065596655 -0.12017711 -0.038409974 1.5372244e-42
-0.063621163 -0.11921866 -0.034463193 1.1107729e-39
-0.061667763 -0.11846836 -0.031373408 1.2036733e-39
-0.059717909 -0.11749353 -0.027359035 4.6647404e-40
-0.05780676 -0.11749353 -0.027359035 2.0320299e-39
-0.055882759 -0.11678131 -0.024426129 2.2164324e-39
-0.05396878 -0.11604463 -0.021392491 2.1238738e-39
-0.052062016 -0.1143602 -0.01445606 4.5231154e-39
-0.050177008 -0.11338757 -0.010450747 5.4493905e-39
-0.048303582 -0.11264218 -0.0073812269 2.1321401e-39
-0.046440348 -0.11192839 -0.0044418834 4.7261033e-40
-0.044569384 -0.11192839 -0.0044418834 1.0310053e-40
-0.042698421 -0.11192839 -0.0044418834 7.4738534e-40
-0.040866449 -0.11094652 -0.00039854273 7.300765e-42
-0.039036907 -0.11021499 0.002613876 6.5267438e-40
-0.03725687 -0.10876434 0.0085876919 1.7575884e-39
-0.03540875 -0.10876434 0.0085876919 1.3873766e-39
-0.033628169 -0.10777976 0.012642238 1.3870206e-39
-0.031841271 -0.10706602 0.015581343 2.6470528e-42
-0.030005414 -0.10706602 0.015581343 1.8883338e-40
-0.028235978 -0.10633011 0.018611882 8.3455171e-40
-0.026476756 -0.10559841 0.021625016 6.3669972e-39
-0.024651496 -0.10559841 0.021625016 5.814894e-39
-0.022907652 -0.10487093 0.024620745 6.1826031e-39
-0.021087645 -0.10487093 0.024620745 8.5771938e-39
-0.019388292 -0.10391603 0.028552983 1.152818e-38
-0.017769802 -0.10245901 0.034553025 1.2359733e-38
-0.015967209 -0.10245901 0.034553025 7.8428601e-39
-0.014381502 -0.10099369 0.040587161 6.2762533e-39
-0.012702227 -0.10026747 0.043577764 8.9499251e-39
-0.011032745 -0.099545494 0.046550844 8.8559274e-39
-0.0092511885 -0.099545494 0.046550844 3.1383522e-39
-0.0076009743 -0.098803028 0.049608324 1.3844605e-39
-0.0058247782 -0.098803028 0.049608324 2.1216514e-39
-0.0041897893 -0.098065019 0.052647445 1.0160058e-39
-0.0027045608 -0.096626461 0.058571432 1.4848226e-38
-0.00094407797 -0.096626461 0.058571432 1.5681232e-38
0.00066196918 -0.095901415 0.061557148 1.6052545e-38
0.0024172142 -0.095901415 0.061557148 1.5317872e-38
0.0041724592 -0.095901415 0.061557148 3.7005224e-39
0.0055848695 -0.094440416 0.067573518 2.7735424e-39
0.0073295683 -0.094440416 0.067573518 5.6294489e-39
0.0090742633 -0.094440416 0.067573518 1.0054115e-38
0.010818958 -0.094440416 0.067573518 1.5400372e-38
0.012563653 -0.094440416 0.067573518 1.5214895e-38
0.014308356 -0.094440416 0.067573518 1.0696222e-38
0.016053051 -0.094440416 0.067573518 6.4544942e-39
0.018002033 -0.095156729 0.064623743 4.0577652e-39
0.019751906 -0.095156729 0.064623743 4.3339947e-39
0.02172491 -0.095901415 0.061557148 3.8740984e-39
0.023480155 -0.095901415 0.061557148 2.8610339e-39
0.0252354 -0.095901415 0.061557148 5.4443192e-39
0.027223602 -0.096626461 0.058571432 1.6657445e-39
0.029223688 -0.097355813 0.055567954 3.2337975e-39
0.030989431 -0.097355813 0.055567954 2.6817125e-39
0.032755185 -0.097355813 0.055567954 1.1154658e-39
0.034520928 -0.097355813 0.055567954 5.6264516e-40
0.036286671 -0.097355813 0.055567954 2.036685e-39
0.038052414 -0.097355813 0.055567954 2.1277904e-39
0.040081877 -0.098065019 0.052647445 1.6646515e-39
0.041852746 -0.098065019 0.052647445 2.492264e-39
0.0436236 -0.098065019 0.052647445 3.2294689e-39
0.045684878 -0.098803028 0.049608324 2.9528764e-39
0.047461081 -0.098803028 0.049608324 2.6770084e-39
0.049834672 -0.10026747 0.043577764 4.0603085e-39
0.051621456 -0.10026747 0.043577764 3.7848119e-39
0.054023523 -0.10172421 0.037578914 3.048337e-39
0.055820812 -0.10172421 0.037578914 2.4958821e-39
0.057939071 -0.10245901 0.034553025 1.6661074e-39
0.059741665 -0.10245901 0.034553025 1.6661046e-39
0.061544258 -0.10245901 0.034553025 1.9419783e-39
0.063346848 -0.10245901 0.034553025 5.6294517e-39
0.065149426 -0.10245901 0.034553025 6.5510563e-39
0.067289501 -0.10317262 0.031614397 2.9561442e-39
0.069097251 -0.10317262 0.031614397 2.8245693e-40
0.070905 -0.10317262 0.031614397 5.6308684e-39
0.072712734 -0.10317262 0.031614397 1.125586e-38
0.074893534 -0.10391603 0.028552983 2.1489505e-38
0.076706648 -0.10391603 0.028552983 2.1397669e-38
0.079012722 -0.10487093 0.024620745 1.863363e-38
0.08083272 -0.10487093 0.024620745 1.5499332e-38
0.082652733 -0.10487093 0.024620745 1.4209316e-38
0.084472746 -0.10487093 0.024620745 1.1904074e-38
0.086689308 -0.10559841 0.021625016 1.254981e-38
0.088514566 -0.10559841 0.021625016 1.3101919e-38
0.090339825 -0.10559841 0.021625016 5.634083e-39
0.092165083 -0.10559841 0.021625016 9.8006815e-42
0.093990341 -0.10559841 0.021625016 9.9832706e-41
0.095815614 -0.10559841 0.021625016 9.5497089e-41
0.098071426 -0.10633011 0.018611882 1.1081931e-39
0.099901974 -0.10633011 0.018611882 7.3904061e-40
0.10173252 -0.10633011 0.018611882 1.8549548e-40
-0.11546463 -0.13776468 -0.10242346 5.5314029e-39
-0.11342186 -0.13776468 -0.10242346 6.4290733e-40
-0.1113791 -0.13776468 -0.10242346 1.3787137e-39
-0.10913557 -0.13678192 -0.09840551 8.3859361e-39
-0.10690746 -0.13580595 -0.094415218 1.6778213e-38
-0.1046946 -0.13483663 -0.090452224 2.019086e-38
-0.10249102 -0.13384195 -0.086385518 2.0838005e-38
-0.10030849 -0.13288604 -0.082477242 2.1668117e-38
-0.09830071 -0.13288604 -0.082477242 2.3234372e-38
-0.096134707 -0.13190506 -0.078466564 2.3234372e-38
-0.0938683 -0.13018142 -0.071419507 2.2498243e-38
-0.091733962 -0.12918831 -0.067359239 2.3050707e-38
-0.089619145 -0.12823303 -0.063453585 2.3142544e-38
-0.087547235 -0.12749799 -0.060448315 2.2958514e-38
-0.085578077 -0.12749799 -0.060448315 2.2958514e-38
-0.08349371 -0.12652399 -0.056466129 4.7952994e-39
-0.081531525 -0.12652399 -0.056466129 2.3971733e-39
-0.079569355 -0.12652399 -0.056466129 1.1057296e-39
-0.07760717 -0.12652399 -0.056466129 1.3833843e-39
-0.075555637 -0.12552677 -0.052389052 8.9445049e-39
-0.073541194 -0.12480606 -0.049442437 9.9586709e-39
-0.071517199 -0.12382124 -0.045416143 5.996051e-39
-0.069523916 -0.12307997 -0.042385366 3.6925798e-39
-0.067586422 -0.12307997 -0.042385366 9.2779131e-40
-0.065596655 -0.12210761 -0.038409974 7.427064e-40
-0.063621163 -0.12114228 -0.034463193 7.4378821e-40
-0.061667763 -0.12038656 -0.031373408 7.4413713e-40
-0.059717909 -0.11940466 -0.027359035 3.6980266e-42
-0.05780676 -0.11940466 -0.027359035 8.3528178e-40
-0.055882759 -0.11868732 -0.024426129 4.4302009e-39
-0.05396878 -0.11794533 -0.021392491 5.3525131e-39
-0.052062016 -0.11624874 -0.01445606 5.3535921e-39
-0.050177008 -0.11526908 -0.010450747 1.5775272e-39
-0.048303582 -0.1145183 -0.0073812269 1.1176266e-39
-0.046440348 -0.11379938 -0.0044418834 9.328612e-40
-0.044569384 -0.11379938 -0.0044418834 1.4860238e-39
-0.042730324 -0.11281042 -0.00039854273 2.2221413e-39
-0.040895499 -0.11207359 0.002613876 1.4831343e-39
-0.039036907 -0.11207359 0.002613876 1.4816994e-39
-0.03725687 -0.11061247 0.0085876919 8.3525936e-40
-0.03540875 -0.11061247 0.0085876919 9.2602847e-40
-0.033628169 -0.10962076 0.012642238 7.4164142e-40
-0.031841271 -0.10890187 0.015581343 5.5689703e-40
-0.030005414 -0.10890187 0.015581343 2.7703082e-39
-0.028235978 -0.10816063 0.018611882 5.3521376e-39
-0.026476756 -0.10742365 0.021625016 9.5023702e-39
-0.024651496 -0.10742365 0.021625016 9.2261323e-39
-0.022907652 -0.10669093 0.024620745 8.0275891e-39
-0.021201404 -0.10572915 0.028552983 1.0052673e-38
-0.019482225 -0.10498036 0.031614397 1.0882079e-38
-0.017769802 -0.10426159 0.034553025 1.1345934e-38
-0.016070664 -0.10352151 0.037578914 6.9504404e-42
-0.014381502 -0.10278571 0.040587161 1.0022507e-40
-0.012702227 -0.10205424 0.043577764 9.4112564e-39
-0.011032745 -0.10132705 0.046550844 1.1346637e-38
-0.0092511885 -0.10132705 0.046550844 1.2174226e-38
-0.0076009743 -0.10057923 0.049608324 2.1391571e-38
-0.0059606582 -0.099835888 0.052647445 2.1483048e-38
-0.0041897893 -0.099835888 0.052647445 2.2406066e-38
-0.0027045608 -0.098386943 0.058571432 2.1117858e-38
-0.00094407797 -0.098386943 0.058571432 1.9000619e-38
0.00066196918 -0.097656667 0.061557148 1.6514595e-38
0.0024172142 -0.097656667 0.061557148 1.4766847e-38
0.0041724592 -0.097656667 0.061557148 1.3052268e-39
0.0055848695 -0.096185118 0.067573518 1.5778789e-39
0.0073295683 -0.096185118 0.067573518 2.7739109e-39
0.0088909864 -0.095444039 0.0706034 2.3114881e-39
0.010630369 -0.095444039 0.0706034 3.6004206e-39
0.012369752 -0.095444039 0.0706034 3.5071348e-39
0.014109135 -0.095444039 0.0706034 2.7677621e-39
0.015848525 -0.095444039 0.0706034 2.8588675e-39
0.017797746 -0.096185118 0.067573518 2.9506988e-39
0.019542441 -0.096185118 0.067573518 3.8726551e-39
0.021501772 -0.096906602 0.064623743 3.596787e-39
0.023480155 -0.097656667 0.061557148 3.6897043e-39
0.0252354 -0.097656667 0.061557148 9.9604519e-39
0.027223602 -0.098386943 0.058571432 8.6715166e-39
0.028984077 -0.098386943 0.058571432 2.4958541e-39
0.030989431 -0.099121556 0.055567954 1.2976766e-39
0.032755185 -0.099121556 0.055567954 2.5898588e-39
0.034520928 -0.099121556 0.055567954 2.58987e-39
0.036286671 -0.099121556 0.055567954 2.6817013e-39
0.038052414 -0.099121556 0.055567954 2.9568294e-39
0.040081877 -0.099835888 0.052647445 3.3234456e-39
0.041852746 -0.099835888 0.052647445 3.0443489e-39
0.0436236 -0.099835888 0.052647445 2.1216738e-39
0.045684878 -0.10057923 0.049608324 2.2145771e-39
0.047461081 -0.10057923 0.049608324 3.2294451e-39
0.049540151 -0.10132705 0.046550844 3.415644e-39
0.051621456 -0.10205424 0.043577764 3.8777123e-39
0.053714965 -0.10278571 0.040587161 2.4955136e-39
0.055820812 -0.10352151 0.037578914 7.4451828e-40
0.057939071 -0.10426159 0.034553025 1.4820679e-39
0.059741665 -0.10426159 0.034553025 2.0348759e-39
0.061544258 -0.10426159 0.034553025 2.9554043e-39
0.063346848 -0.10426159 0.034553025 7.5644782e-39
0.065149426 -0.10426159 0.034553025 8.6704768e-39
0.067289501 -0.10498036 0.031614397 1.387022e-39
0.069097251 -0.10498036 0.031614397 8.3455311e-40
0.070905 -0.10498036 0.031614397 1.0885659e-38
0.072712734 -0.10498036 0.031614397 1.3928817e-38
0.074893534 -0.10572915 0.028552983 1.8539289e-38
0.076706648 -0.10572915 0.028552983 1.8171222e-38
0.079012722 -0.10669093 0.024620745 1.2548359e-38
0.08083272 -0.10669093 0.024620745 1.3931288e-38
0.082652733 -0.10669093 0.024620745 1.57752e-38
0.084472746 -0.10669093 0.024620745 1.3931653e-38
0.086689308 -0.10742365 0.021625016 1.5129848e-38
0.088514566 -0.10742365 0.021625016 1.3930955e-38
0.090339825 -0.10742365 0.021625016 8.0297275e-39
0.092165083 -0.10742365 0.021625016 3.236282e-39
0.093990341 -0.10742365 0.021625016 7.272739e-42
0.096240893 -0.10816063 0.018611882 2.7988555e-40
0.098071426 -0.10816063 0.018611882 1.9379509e-39
0.099901974 -0.10816063 0.018611882 1.8457441e-39
0.10173252 -0.10816063 0.018611882 7.3974546e-40
0.10356306 -0.10816063 0.018611882 7.3901819e-40
-0.11818822 -0.14275078 -0.11437157 7.7465909e-39
-0.11612451 -0.14275078 -0.11437157 6.3626027e-39
-0.11342186 -0.13980745 -0.10242346 5.1848043e-44
-0.1113791 -0.13980745 -0.10242346 3.6744008e-40
-0.10913557 -0.13881765 -0.09840551 1.3808745e-39
-0.10690746 -0.13783465 -0.094415218 8.9426748e-39
-0.1046946 -0.13685839 -0.090452224 1.7241332e-38
-0.10249102 -0.13585658 -0.086385518 1.7979954e-38
-0.10030849 -0.13489382 -0.082477242 2.1207153e-38
-0.09830071 -0.13489382 -0.082477242 2.2221308e-38
-0.096134707 -0.13390581 -0.078466564 2.2866674e-38
-0.0938683 -0.13216983 -0.071419507 2.3142534e-38
-0.091733962 -0.1311696 -0.067359239 2.277483e-38
-0.089619145 -0.13020746 -0.063453585 2.3142544e-38
-0.087644719 -0.13020746 -0.063453585 2.3142544e-38
-0.085578077 -0.12946714 -0.060448315 2.1391547e-38
-0.08349371 -0.12848614 -0.056466129 6.6391868e-39
-0.081531525 -0.12848614 -0.056466129 5.7162019e-39
-0.079569355 -0.12848614 -0.056466129 1.1060827e-39
-0.07760717 -0.12848614 -0.056466129 1.1989944e-39
-0.075555637 -0.1274818 -0.052389052 7.8385217e-39
-0.073541194 -0.12675591 -0.049442437 9.4987717e-39
-0.071517199 -0.12576406 -0.045416143 6.8261788e-39
-0.069523916 -0.12501745 -0.042385366 1.3880674e-39
-0.067586422 -0.12501745 -0.042385366 1.9096615e-40
-0.065596655 -0.12403814 -0.038409974 7.4415394e-40
-0.063621163 -0.12306587 -0.034463193 6.9504404e-42
-0.061667763 -0.12230472 -0.031373408 1.2058482e-39
-0.059749581 -0.12230472 -0.031373408 7.4559028e-40
-0.05780676 -0.12131582 -0.027359035 1.4828036e-39
-0.055882759 -0.12059332 -0.024426129 6.1847835e-39
-0.05396878 -0.119846 -0.021392491 7.0145414e-39
-0.052062016 -0.11813726 -0.01445606 2.6820656e-39
-0.050177008 -0.11715056 -0.010450747 2.2218134e-39
-0.048303582 -0.11639442 -0.0073812269 4.2508305e-39
-0.046440348 -0.11567034 -0.0044418834 3.3288602e-39
-0.044569384 -0.11567034 -0.0044418834 2.6827565e-39
-0.042730324 -0.11467429 -0.00039854273 3.0504474e-39
-0.040895499 -0.11393218 0.002613876 4.7096058e-39
-0.039036907 -0.11393218 0.002613876 5.9063539e-39
-0.03725687 -0.11246057 0.0085876919 4.2454019e-39
-0.03540875 -0.11246057 0.0085876919 2.4926171e-39
-0.033628169 -0.11146177 0.012642238 8.3274684e-40
-0.031841271 -0.11073773 0.015581343 1.5703203e-39
-0.03006652 -0.10999118 0.018611882 3.5064285e-39
-0.028235978 -0.10999118 0.018611882 7.1956872e-39
-0.026476756 -0.10924892 0.021625016 8.8562792e-39
-0.024651496 -0.10924892 0.021625016 9.6871104e-39
-0.022907652 -0.10851096 0.024620745 7.4736908e-39
-0.021201404 -0.10754226 0.028552983 7.8403154e-39
-0.019482225 -0.10678811 0.031614397 1.143559e-38
-0.017769802 -0.10606419 0.034553025 1.2544104e-38
-0.016070664 -0.1053188 0.037578914 1.2054824e-39
-0.014381502 -0.10457774 0.040587161 9.5288296e-44
-0.012702227 -0.10384102 0.043577764 2.6816803e-39
-0.011032745 -0.1031086 0.046550844 9.7792864e-39
-0.0092511885 -0.1031086 0.046550844 2.0195916e-38
-0.0076009743 -0.10235542 0.049608324 2.2774843e-38
-0.0059606582 -0.10160676 0.052647445 2.2681931e-38
-0.0041897893 -0.10160676 0.052647445 2.2958873e-38
-0.0027045608 -0.10014741 0.058571432 2.2591531e-38
-0.00094407797 -0.10014741 0.058571432 2.0751951e-38
0.00066196918 -0.099411905 0.061557148 1.9558089e-38
0.0024172142 -0.099411905 0.061557148 1.4491314e-38
0.0040030926 -0.098656476 0.064623743 4.9948275e-39
0.0055848695 -0.09792982 0.067573518 1.0899299e-41
0.0071516037 -0.097183421 0.0706034 5.6301089e-40
0.0088909864 -0.097183421 0.0706034 8.0322428e-42
0.010630369 -0.097183421 0.0706034 3.1412375e-39
0.012369752 -0.097183421 0.0706034 3.5993276e-39
0.014109135 -0.097183421 0.0706034 3.5978772e-39
0.015848525 -0.097183421 0.0706034 2.9506988e-39
0.017587908 -0.097183421 0.0706034 5.0701094e-39
0.019542441 -0.09792982 0.067573518 3.5027795e-39
0.021501772 -0.098656476 0.064623743 2.3967879e-39
0.023480155 -0.099411905 0.061557148 4.0570295e-39
0.0252354 -0.099411905 0.061557148 1.1895096e-38
0.027223602 -0.10014741 0.058571432 1.7059493e-38
0.028984077 -0.10014741 0.058571432 3.9691555e-39
0.030989431 -0.1008873 0.055567954 1.2962011e-39
0.032755185 -0.1008873 0.055567954 3.4185152e-39
0.034520928 -0.1008873 0.055567954 4.1568286e-39
0.036286671 -0.1008873 0.055567954 1.2058482e-39
0.038052414 -0.1008873 0.055567954 9.2815704e-40
0.040081877 -0.10160676 0.052647445 3.3227155e-39
0.041852746 -0.10160676 0.052647445 4.0574107e-39
0.043908689 -0.10235542 0.049608324 3.2265668e-39
0.045684878 -0.10235542 0.049608324 4.7953134e-39
0.047461081 -0.10235542 0.049608324 7.7473686e-39
0.049540151 -0.1031086 0.046550844 9.6852845e-39
0.051321719 -0.1031086 0.046550844 4.1546384e-39
0.053714965 -0.10457774 0.040587161 2.2196329e-39
0.055506978 -0.10457774 0.040587161 1.667178e-39
0.0576181 -0.1053188 0.037578914 1.2983787e-39
0.059415374 -0.1053188 0.037578914 2.4965561e-39
0.061212663 -0.1053188 0.037578914 5.537584e-39
0.063346848 -0.10606419 0.034553025 8.4864232e-39
0.065149426 -0.10606419 0.034553025 7.8403518e-39
0.067289501 -0.10678811 0.031614397 5.5689703e-40
0.069097251 -0.10678811 0.031614397 2.8065906e-40
0.070905 -0.10678811 0.031614397 1.208276e-38
0.07308042 -0.10754226 0.028552983 1.4203962e-38
0.074893534 -0.10754226 0.028552983 1.4758199e-38
0.076706648 -0.10754226 0.028552983 1.5957445e-38
0.079012722 -0.10851096 0.024620745 1.3284479e-38
0.08083272 -0.10851096 0.024620745 1.4575212e-38
0.082652733 -0.10851096 0.024620745 1.6235813e-38
0.084472746 -0.10851096 0.024620745 1.5590449e-38
0.086689308 -0.10924892 0.021625016 1.6696443e-38
0.088514566 -0.10924892 0.021625016 1.3837671e-38
0.090339825 -0.10924892 0.021625016 9.4119318e-39
0.092165083 -0.10924892 0.021625016 6.6457112e-39
0.093990341 -0.10924892 0.021625016 2.8277082e-40
0.096240893 -0.10999118 0.018611882 2.9301151e-42
0.098071426 -0.10999118 0.018611882 1.5698859e-39
0.099901974 -0.10999118 0.018611882 1.6620689e-39
0.10173252 -0.10999118 0.018611882 7.3974266e-40
0.10356306 -0.10999118 0.018611882 1.015961e-39
0.1053936 -0.10999118 0.018611882 1.292178e-39
-0.11818822 -0.14481448 -0.11437157 7.28561e-39
-0.11612451 -0.14481448 -0.11437157 4.7052309e-39
-0.11363822 -0.14285399 -0.10646942 2.7879534e-40
-0.11158837 -0.14285399 -0.10646942 1.8484248e-40
-0.10933635 -0.14185019 -0.10242346 8.6880505e-44
-0.10709986 -0.14085336 -0.09840551 1.2918823e-39
-0.1046946 -0.13888018 -0.090452224 1.7150584e-38
-0.10249102 -0.13787122 -0.086385518 1.8903003e-38
-0.10030849 -0.1369016 -0.082477242 2.2498978e-38
-0.09830071 -0.1369016 -0.082477242 2.2958873e-38
-0.096134707 -0.13590656 -0.078466564 2.2958873e-38
-0.0938683 -0.13415821 -0.071419507 2.3142541e-38
-0.091733962 -0.13315089 -0.067359239 2.1668483e-38
-0.089619145 -0.1321819 -0.063453585 2.277376e-38
-0.087547235 -0.1314363 -0.060448315 2.3142539e-38
-0.085578077 -0.1314363 -0.060448315 2.3234367e-38
