# .PCD v0.7 - Point Cloud Data file format
VERSION 0.7
FIELDS x y z rgb
SIZE 4 4 4 4
TYPE F F F F
COUNT 1 1 1 1
WIDTH 930
HEIGHT 1
VIEWPOINT 0 0 0 1 0 0 0
POINTS 930
DATA ascii
0.058922298 -0.088038266 -0.047612071 2.3509527e-38
0.060724892 -0.088038266 -0.047612071 2.3233648e-38
0.06279283 -0.088710666 -0.050550699 2.295778e-38
0.064600579 -0.088710666 -0.050550699 2.3142544e-38
0.066408314 -0.088710666 -0.050550699 3.044653e-39
0.068216063 -0.088710666 -0.050550699 1.2911886e-39
0.070023812 -0.088710666 -0.050550699 1.2908621e-39
0.006538366 -0.089143202 -0.044586182 2.3509886e-38
0.0083356509 -0.089143202 -0.044586182 2.3509886e-38
0.010132936 -0.089143202 -0.044586182 2.3509886e-38
0.011930224 -0.089143202 -0.044586182 2.3509886e-38
0.013727509 -0.089143202 -0.044586182 2.3509886e-38
0.015524798 -0.089143202 -0.044586182 2.3509886e-38
0.017462678 -0.089840859 -0.047612071 2.3509886e-38
0.019265268 -0.089840859 -0.047612071 2.3509886e-38
0.021067861 -0.089840859 -0.047612071 2.3509886e-38
0.022870451 -0.089840859 -0.047612071 2.3509886e-38
0.024673045 -0.089840859 -0.047612071 2.3509527e-38
0.026475638 -0.089840859 -0.047612071 2.3509886e-38
0.028278228 -0.089840859 -0.047612071 2.3509886e-38
0.030080821 -0.089840859 -0.047612071 2.3509886e-38
0.031883415 -0.089840859 -0.047612071 2.3509886e-38
0.033686008 -0.089840859 -0.047612071 2.3509886e-38
0.035488594 -0.089840859 -0.047612071 2.3509886e-38
0.037291188 -0.089840859 -0.047612071 2.3509886e-38
0.039093781 -0.089840859 -0.047612071 2.3509886e-38
0.040896375 -0.089840859 -0.047612071 2.3509886e-38
0.042698968 -0.089840859 -0.047612071 2.3509886e-38
0.044501562 -0.089840859 -0.047612071 2.3509886e-38
0.046304148 -0.089840859 -0.047612071 2.3509886e-38
0.048106741 -0.089840859 -0.047612071 2.3509886e-38
0.049909335 -0.089840859 -0.047612071 2.3509886e-38
0.051946361 -0.0905184 -0.050550699 2.3509886e-38
0.053514518 -0.089840859 -0.047612071 2.3509886e-38
0.055317111 -0.089840859 -0.047612071 2.3509527e-38
0.057119705 -0.089840859 -0.047612071 2.3140391e-38
0.058922298 -0.089840859 -0.047612071 2.3417691e-38
0.060724892 -0.089840859 -0.047612071 2.3418045e-38
0.062527485 -0.089840859 -0.047612071 2.2774479e-38
0.064330079 -0.089840859 -0.047612071 2.2497543e-38
0.066132657 -0.089840859 -0.047612071 9.2309696e-40
0.068216063 -0.0905184 -0.050550699 9.5288296e-44
0.0064302394 -0.090241626 -0.041577935 2.3509886e-38
0.0082222493 -0.090241626 -0.041577935 2.3509886e-38
0.010014263 -0.090241626 -0.041577935 2.3509886e-38
0.011806273 -0.090241626 -0.041577935 2.3509886e-38
0.013598287 -0.090241626 -0.041577935 2.3509886e-38
0.0153903 -0.090241626 -0.041577935 2.3509886e-38
0.017322082 -0.09094049 -0.044586182 2.3509527e-38
0.019119371 -0.09094049 -0.044586182 2.3509527e-38
0.020916656 -0.09094049 -0.044586182 2.3509527e-38
0.022713944 -0.09094049 -0.044586182 2.3509527e-38
0.024511229 -0.09094049 -0.044586182 2.3509527e-38
0.026475638 -0.091643453 -0.047612071 2.3509527e-38
0.028278228 -0.091643453 -0.047612071 2.3509886e-38
0.030080821 -0.091643453 -0.047612071 2.3509886e-38
0.031883415 -0.091643453 -0.047612071 2.3509886e-38
0.033686008 -0.091643453 -0.047612071 2.3509886e-38
0.035488594 -0.091643453 -0.047612071 2.3509886e-38
0.037291188 -0.091643453 -0.047612071 2.3509886e-38
0.039093781 -0.091643453 -0.047612071 2.3509886e-38
0.040896375 -0.091643453 -0.047612071 2.3509886e-38
0.042698968 -0.091643453 -0.047612071 2.3509886e-38
0.044501562 -0.091643453 -0.047612071 2.3509886e-38
0.046078671 -0.09094049 -0.044586182 2.3509886e-38
0.047875959 -0.09094049 -0.044586182 2.3509886e-38
0.049673248 -0.09094049 -0.044586182 2.3509886e-38
0.051711928 -0.091643453 -0.047612071 2.3509886e-38
0.053022556 -0.090241626 -0.041577935 2.3509886e-38
0.054565497 -0.089546859 -0.038587332 2.341805e-38
0.056352265 -0.089546859 -0.038587332 2.3417691e-38
0.058139034 -0.089546859 -0.038587332 2.2128404e-38
0.059925802 -0.089546859 -0.038587332 2.3142544e-38
0.06171257 -0.089546859 -0.038587332 2.2867037e-38
0.063499339 -0.089546859 -0.038587332 2.2774125e-38
0.066132657 -0.091643453 -0.047612071 6.8240054e-39
0.0064302394 -0.09203364 -0.041577935 2.3509886e-38
0.0082222493 -0.09203364 -0.041577935 2.3509886e-38
0.010014263 -0.09203364 -0.041577935 2.3509886e-38
0.011806273 -0.09203364 -0.041577935 2.3509886e-38
0.013598287 -0.09203364 -0.041577935 2.3509886e-38
0.0153903 -0.09203364 -0.041577935 2.3509886e-38
0.017182309 -0.09203364 -0.041577935 2.3509886e-38
0.018974323 -0.09203364 -0.041577935 2.3509527e-38
0.020916656 -0.092737779 -0.044586182 2.3509527e-38
0.022558346 -0.09203364 -0.041577935 2.3509527e-38
0.02435036 -0.09203364 -0.041577935 2.3509527e-38
0.026142374 -0.09203364 -0.041577935 2.3509527e-38
0.027934384 -0.09203364 -0.041577935 2.3509886e-38
0.030080821 -0.093446046 -0.047612071 2.3509886e-38
0.031883415 -0.093446046 -0.047612071 2.3509886e-38
0.033686008 -0.093446046 -0.047612071 2.3509886e-38
0.035294954 -0.092737779 -0.044586182 2.3509886e-38
0.037092235 -0.092737779 -0.044586182 2.3509886e-38
0.038889524 -0.092737779 -0.044586182 2.3509886e-38
0.040686812 -0.092737779 -0.044586182 2.3509886e-38
0.042484101 -0.092737779 -0.044586182 2.3509886e-38
0.044281382 -0.092737779 -0.044586182 2.3509886e-38
0.046078671 -0.092737779 -0.044586182 2.3509886e-38
0.047875959 -0.092737779 -0.044586182 2.3509886e-38
0.049673248 -0.092737779 -0.044586182 2.3509886e-38
0.050991964 -0.091333628 -0.038587332 2.3509886e-38
0.052778728 -0.091333628 -0.038587332 2.3509886e-38
0.054565497 -0.091333628 -0.038587332 2.341805e-38
0.056352265 -0.091333628 -0.038587332 2.3142544e-38
0.058139034 -0.091333628 -0.038587332 2.2590454e-38
0.059662558 -0.090637714 -0.035614252 2.1761065e-38
0.061444111 -0.090637714 -0.035614252 1.1342623e-38
0.063499339 -0.091333628 -0.038587332 1.0788768e-38
0.065286107 -0.091333628 -0.038587332 1.0419294e-38
0.0064302394 -0.093825653 -0.041577935 2.3509886e-38
0.0082222493 -0.093825653 -0.041577935 2.3509883e-38
0.010014263 -0.093825653 -0.041577935 2.350988e-38
0.011806273 -0.093825653 -0.041577935 2.350988e-38
0.01346982 -0.093120396 -0.038587332 2.3509883e-38
0.015256588 -0.093120396 -0.038587332 2.3509883e-38
0.017182309 -0.093825653 -0.041577935 2.3509527e-38
0.018830124 -0.093120396 -0.038587332 2.3509527e-38
0.020616896 -0.093120396 -0.038587332 2.3509886e-38
0.022403665 -0.093120396 -0.038587332 2.3509527e-38
0.024190433 -0.093120396 -0.038587332 2.3509527e-38
0.025977202 -0.093120396 -0.038587332 2.3509527e-38
0.02776397 -0.093120396 -0.038587332 2.3509886e-38
0.029903091 -0.094535068 -0.044586182 2.3509886e-38
0.031700376 -0.094535068 -0.044586182 2.3509886e-38
0.033310425 -0.093825653 -0.041577935 2.3509886e-38
0.035102431 -0.093825653 -0.041577935 2.3509886e-38
0.037092235 -0.094535068 -0.044586182 2.3509886e-38
0.038889524 -0.094535068 -0.044586182 2.3509886e-38
0.040478472 -0.093825653 -0.041577935 2.3509886e-38
0.042270485 -0.093825653 -0.041577935 2.3509886e-38
0.044062492 -0.093825653 -0.041577935 2.3509886e-38
0.045631658 -0.093120396 -0.038587332 2.3509886e-38
0.046503935 -0.090292826 -0.026597142 2.3509886e-38
0.048269678 -0.090292826 -0.026597142 2.3509886e-38
0.050268415 -0.090981558 -0.029517651 2.3509886e-38
0.052536335 -0.092419267 -0.035614252 2.3509886e-38
0.054565497 -0.093120396 -0.038587332 2.3234379e-38
0.056099452 -0.092419267 -0.035614252 2.2958873e-38
0.057881005 -0.092419267 -0.035614252 2.2407142e-38
0.059662558 -0.092419267 -0.035614252 2.2591531e-38
0.061444111 -0.092419267 -0.035614252 9.6834881e-39
0.063225679 -0.092419267 -0.035614252 7.3771946e-39
0.065007232 -0.092419267 -0.035614252 1.1249432e-38
-0.027633682 -0.094200835 -0.035614252 8.3745099e-40
-0.025852125 -0.094200835 -0.035614252 1.0214877e-39
0.0081095146 -0.094907165 -0.038587332 2.350988e-38
0.009896283 -0.094907165 -0.038587332 2.3509879e-38
0.011683051 -0.094907165 -0.038587332 2.3509879e-38
0.01346982 -0.094907165 -0.038587332 2.3509879e-38
0.015123663 -0.094200835 -0.035614252 2.3509879e-38
0.016905218 -0.094200835 -0.035614252 2.350988e-38
0.018830124 -0.094907165 -0.038587332 2.3509883e-38
0.020616896 -0.094907165 -0.038587332 2.3509886e-38
0.022403665 -0.094907165 -0.038587332 2.3509886e-38
0.024190433 -0.094907165 -0.038587332 2.3509527e-38
0.025812998 -0.094200835 -0.035614252 2.3509527e-38
0.027594555 -0.094200835 -0.035614252 2.3509886e-38
0.029550739 -0.094907165 -0.038587332 2.3509886e-38
0.031337507 -0.094907165 -0.038587332 2.3509886e-38
0.032939222 -0.094200835 -0.035614252 2.3509886e-38
0.034720775 -0.094200835 -0.035614252 2.3509886e-38
0.036301304 -0.093474448 -0.032556772 2.3509886e-38
0.037872348 -0.092752427 -0.029517651 2.3509886e-38
0.039440949 -0.092058569 -0.026597142 2.3509886e-38
0.040993419 -0.091345012 -0.023593664 2.3509886e-38
0.042753901 -0.091345012 -0.023593664 2.3509886e-38
0.044514377 -0.091345012 -0.023593664 2.3509886e-38
0.046274859 -0.091345012 -0.023593664 2.3509886e-38
0.048035342 -0.091345012 -0.023593664 2.3509886e-38
0.050268415 -0.092752427 -0.029517651 2.3509886e-38
0.052287061 -0.093474448 -0.032556772 2.3509886e-38
0.054317899 -0.094200835 -0.035614252 2.3234379e-38
0.056099452 -0.094200835 -0.035614252 2.2223463e-38
0.057615645 -0.093474448 -0.032556772 6.3665529e-39
0.059391849 -0.093474448 -0.032556772 2.8613604e-39
0.061168037 -0.093474448 -0.032556772 8.1275311e-44
0.062664486 -0.092752427 -0.029517651 1.3844969e-39
0.06443534 -0.092752427 -0.029517651 1.9373189e-39
-0.029412631 -0.096693933 -0.038587332 1.205879e-39
-0.027633682 -0.095982388 -0.035614252 3.7611832e-40
-0.025852125 -0.095982388 -0.035614252 1.666881e-39
0.0081095146 -0.096693933 -0.038587332 2.350988e-38
0.009778996 -0.095982388 -0.035614252 2.3232932e-38
0.011560553 -0.095982388 -0.035614252 2.3509876e-38
0.013342106 -0.095982388 -0.035614252 2.3509513e-38
0.015123663 -0.095982388 -0.035614252 2.3509153e-38
0.016763158 -0.095250636 -0.032556772 2.3508795e-38
0.018539354 -0.095250636 -0.032556772 2.3417323e-38
0.020315547 -0.095250636 -0.032556772 2.3418043e-38
0.022091743 -0.095250636 -0.032556772 2.3509883e-38
0.023867939 -0.095250636 -0.032556772 2.341769e-38
0.025812998 -0.095982388 -0.035614252 2.3417691e-38
0.027594555 -0.095982388 -0.035614252 2.3325494e-38
0.029550739 -0.096693933 -0.038587332 2.341769e-38
0.031337507 -0.096693933 -0.038587332 2.341769e-38
0.032748912 -0.095250636 -0.032556772 2.3509886e-38
0.034525108 -0.095250636 -0.032556772 2.3509886e-38
0.036301304 -0.095250636 -0.032556772 2.3509886e-38
0.037675206 -0.093824327 -0.026597142 2.3509886e-38
0.039440949 -0.093824327 -0.026597142 2.3509886e-38
0.040993419 -0.093105495 -0.023593664 2.3509886e-38
0.042753901 -0.093105495 -0.023593664 2.2956712e-38
0.044514377 -0.093105495 -0.023593664 2.3509886e-38
0.046274859 -0.093105495 -0.023593664 2.3509886e-38
0.048035342 -0.093105495 -0.023593664 2.2587929e-38
0.050035428 -0.093824327 -0.026597142 2.3325494e-38
0.052039284 -0.094523281 -0.029517651 2.3509886e-38
0.054063253 -0.095250636 -0.032556772 2.3142539e-38
0.055839457 -0.095250636 -0.032556772 2.2683359e-38
0.057615645 -0.095250636 -0.032556772 5.5378713e-39
0.059391849 -0.095250636 -0.032556772 1.8721347e-42
0.060893618 -0.094523281 -0.029517651 1.1086177e-39
0.062664486 -0.094523281 -0.029517651 2.0295174e-39
0.06443534 -0.094523281 -0.029517651 2.2139058e-39
-0.029415235 -0.097763941 -0.035614252 7.8443077e-39
-0.027641721 -0.09702684 -0.032556772 9.319086e-39
-0.025865525 -0.09702684 -0.032556772 1.0332193e-38
-0.024089333 -0.09702684 -0.032556772 1.0054906e-38
-0.022289012 -0.097763941 -0.035614252 5.1674647e-39
0.009778996 -0.097763941 -0.035614252 2.2863071e-38
0.011560553 -0.097763941 -0.035614252 2.3509876e-38
0.013210767 -0.09702684 -0.032556772 2.3509513e-38
0.014986963 -0.09702684 -0.032556772 2.3509509e-38
0.016621951 -0.09629415 -0.029517651 2.3509513e-38
0.018392816 -0.09629415 -0.029517651 2.3509876e-38
0.020163681 -0.09629415 -0.029517651 2.3509879e-38
0.022091743 -0.09702684 -0.032556772 2.350988e-38
0.023867939 -0.09702684 -0.032556772 2.3509883e-38
0.030788884 -0.09629415 -0.029517651 2.3509886e-38
0.032559749 -0.09629415 -0.029517651 2.3509886e-38
0.034525108 -0.09702684 -0.032556772 2.3509886e-38
0.036101479 -0.09629415 -0.029517651 2.3509886e-38
0.037675206 -0.09559007 -0.026597142 2.3509886e-38
0.039232943 -0.094865978 -0.023593664 2.3509886e-38
0.040993419 -0.094865978 -0.023593664 2.3509886e-38
0.042753901 -0.094865978 -0.023593664 2.3233299e-38
0.044514377 -0.094865978 -0.023593664 2.3509886e-38
0.046274859 -0.094865978 -0.023593664 2.3509886e-38
0.048035342 -0.094865978 -0.023593664 2.3141103e-38
0.050035428 -0.09559007 -0.026597142 2.3509886e-38
0.052039284 -0.09629415 -0.029517651 2.341769e-38
0.053810142 -0.09629415 -0.029517651 2.1298986e-38
0.055581011 -0.09629415 -0.029517651 1.9735612e-38
0.05735188 -0.09629415 -0.029517651 6.9208085e-39
0.059122749 -0.09629415 -0.029517651 4.3365157e-39
0.060893618 -0.09629415 -0.029517651 4.3347571e-39
0.062664486 -0.09629415 -0.029517651 3.320259e-39
0.06443534 -0.09629415 -0.029517651 1.1068338e-39
-0.043430027 -0.095156729 -0.017541349 1.604574e-38
-0.04164654 -0.094440416 -0.014591575 1.5309605e-38
-0.039901845 -0.094440416 -0.014591575 1.5126281e-38
-0.038157146 -0.094440416 -0.014591575 1.1255144e-38
-0.036467694 -0.096626461 -0.023593664 1.0055893e-38
-0.034694128 -0.095901415 -0.020607948 9.2261463e-39
-0.032938883 -0.095901415 -0.020607948 8.4878792e-39
-0.031188887 -0.097355813 -0.026597142 7.4740832e-39
-0.029417917 -0.098803028 -0.032556772 7.9350445e-39
-0.027649716 -0.098065019 -0.029517651 9.5949344e-39
-0.025878847 -0.098065019 -0.029517651 9.5013389e-39
-0.024089333 -0.098803028 -0.032556772 9.5017186e-39
-0.022289012 -0.099545494 -0.035614252 3.9696263e-39
0.009778996 -0.099545494 -0.035614252 2.3509167e-38
0.011434571 -0.098803028 -0.032556772 2.3140016e-38
0.013080218 -0.098065019 -0.029517651 2.3509517e-38
0.014851083 -0.098065019 -0.029517651 2.3509873e-38
0.016486254 -0.097355813 -0.026597142 2.3509873e-38
0.01810718 -0.096626461 -0.023593664 2.3509876e-38
0.019867662 -0.096626461 -0.023593664 2.3509879e-38
0.030788884 -0.098065019 -0.029517651 2.3509886e-38
0.032559749 -0.098065019 -0.029517651 2.3509886e-38
0.034330618 -0.098065019 -0.029517651 2.3509886e-38
0.035909455 -0.097355813 -0.026597142 2.3509886e-38
0.03747246 -0.096626461 -0.023593664 2.3509886e-38
0.039232943 -0.096626461 -0.023593664 2.3509886e-38
0.040993419 -0.096626461 -0.023593664 2.341769e-38
0.042753901 -0.096626461 -0.023593664 2.3509886e-38
0.044291895 -0.095901415 -0.020607948 2.3509886e-38
0.04604714 -0.095901415 -0.020607948 2.3048907e-38
0.047802385 -0.095901415 -0.020607948 2.3325494e-38
0.050035428 -0.097355813 -0.026597142 2.3509886e-38
0.051801171 -0.097355813 -0.026597142 2.3509886e-38
0.053810142 -0.098065019 -0.029517651 2.1852159e-38
0.055581011 -0.098065019 -0.029517651 1.4387187e-38
0.05735188 -0.098065019 -0.029517651 1.4848556e-38
0.059122749 -0.098065019 -0.029517651 1.4108176e-38
0.060893618 -0.098065019 -0.029517651 3.5964689e-39
0.062664486 -0.098065019 -0.029517651 2.0287929e-39
0.06443534 -0.098065019 -0.029517651 2.7663439e-39
-0.043430027 -0.096906602 -0.017541349 9.4073062e-39
-0.04161201 -0.095444039 -0.011561692 1.3373496e-38
-0.039872624 -0.095444039 -0.011561692 1.4664939e-38
-0.038157146 -0.096185118 -0.014591575 9.0410025e-39
-0.036449373 -0.097656667 -0.020607948 8.1194162e-39
-0.034694128 -0.097656667 -0.020607948 9.2250589e-39
-0.032938883 -0.097656667 -0.020607948 8.7630213e-39
-0.031186253 -0.098386943 -0.023593664 7.1031371e-39
-0.029420581 -0.099835888 -0.029517651 9.1325003e-39
-0.027649716 -0.099835888 -0.029517651 9.8693549e-39
-0.025878847 -0.099835888 -0.029517651 9.5009661e-39
-0.024107981 -0.099835888 -0.029517651 1.0238907e-38
0.0096583785 -0.10057923 -0.032556772 2.3508451e-38
0.011434571 -0.10057923 -0.032556772 2.3509527e-38
0.013080218 -0.099835888 -0.029517651 2.3509521e-38
0.014851083 -0.099835888 -0.029517651 2.350952e-38
0.0163467 -0.098386943 -0.023593664 2.3509517e-38
0.017963219 -0.097656667 -0.020607948 2.3509879e-38
0.019718464 -0.097656667 -0.020607948 2.3509521e-38
0.034330618 -0.099835888 -0.029517651 2.341769e-38
0.035909455 -0.099121556 -0.026597142 2.3509886e-38
0.03747246 -0.098386943 -0.023593664 2.3509886e-38
0.039232943 -0.098386943 -0.023593664 2.3509886e-38
0.040781405 -0.097656667 -0.020607948 2.3233299e-38
0.04253665 -0.097656667 -0.020607948 2.3509886e-38
0.044291895 -0.097656667 -0.020607948 2.341769e-38
0.045813251 -0.096906602 -0.017541349 2.3048907e-38
0.047563117 -0.096906602 -0.017541349 2.3509886e-38
0.049312983 -0.096906602 -0.017541349 2.3509886e-38
0.0515563 -0.098386943 -0.023593664 2.341769e-38
0.053566925 -0.099121556 -0.026597142 2.3050347e-38
0.055332668 -0.099121556 -0.026597142 2.2683365e-38
0.057098411 -0.099121556 -0.026597142 2.2591531e-38
0.058864154 -0.099121556 -0.026597142 1.7058071e-38
0.060893618 -0.099835888 -0.029517651 1.0789998e-43
0.062664486 -0.099835888 -0.029517651 3.6925756e-40
0.064161398 -0.099121556 -0.026597142 1.2908425e-39
0.06592714 -0.099121556 -0.026597142 7.3872251e-40
0.067977078 -0.099835888 -0.029517651 1.7528604e-39
-0.043311793 -0.096441552 -0.0085501671 2.6756057e-39
-0.041577689 -0.096441552 -0.0085501671 5.5347324e-39
-0.039843585 -0.096441552 -0.0085501671 7.7481309e-39
-0.038157146 -0.09792982 -0.014591575 5.8123786e-39
-0.036412451 -0.09792982 -0.014591575 7.5630236e-39
-0.034667756 -0.09792982 -0.014591575 7.5626747e-39
-0.032946736 -0.10014741 -0.023593664 6.1790354e-39
-0.031186253 -0.10014741 -0.023593664 5.8098899e-39
-0.029420581 -0.10160676 -0.029517651 7.1928034e-39
-0.027649716 -0.10160676 -0.029517651 7.6545046e-39
-0.025878847 -0.10160676 -0.029517651 8.7623081e-39
-0.024107981 -0.10160676 -0.029517651 9.1329025e-39
0.0023112493 -0.087811574 0.026482165 2.3140391e-38
0.0038773799 -0.087081313 0.029446542 2.028165e-38
0.0055448646 -0.087081313 0.029446542 2.0465308e-38
0.0072123455 -0.087081313 0.029446542 2.1940064e-38
0.0088798301 -0.087081313 0.029446542 2.3507733e-38
0.010547311 -0.087081313 0.029446542 2.34141e-38
0.012214796 -0.087081313 0.029446542 2.3507009e-38
0.0163467 -0.10014741 -0.023593664 2.3508085e-38
0.017963219 -0.099411905 -0.020607948 2.3508444e-38
0.019718464 -0.099411905 -0.020607948 2.3416251e-38
0.021473709 -0.099411905 -0.020607948 2.3141103e-38
0.035711978 -0.10014741 -0.023593664 2.3509886e-38
0.03747246 -0.10014741 -0.023593664 2.3509886e-38
0.039232943 -0.10014741 -0.023593664 2.3509886e-38
0.040781405 -0.099411905 -0.020607948 2.2956712e-38
0.04253665 -0.099411905 -0.020607948 2.3509886e-38
0.044291895 -0.099411905 -0.020607948 2.3509886e-38
0.045813251 -0.098656476 -0.017541349 2.3509886e-38
0.047563117 -0.098656476 -0.017541349 2.3509886e-38
0.049312983 -0.098656476 -0.017541349 2.3048907e-38
0.0515563 -0.10014741 -0.023593664 2.2772321e-38
0.053566925 -0.1008873 -0.026597142 2.3234379e-38
0.055332668 -0.1008873 -0.026597142 2.2406783e-38
0.057098411 -0.1008873 -0.026597142 2.2683007e-38
0.058864154 -0.1008873 -0.026597142 1.807185e-38
0.060893618 -0.10160676 -0.029517651 1.0149577e-39
0.062664486 -0.10160676 -0.029517651 9.8090893e-44
0.064161398 -0.1008873 -0.026597142 2.0280362e-39
0.06592714 -0.1008873 -0.026597142 2.5819134e-39
0.067977078 -0.10160676 -0.029517651 2.8584891e-39
-0.041554555 -0.097672105 -0.0065205097 5.7187635e-39
-0.039824013 -0.097672105 -0.0065205097 7.0091324e-39
-0.038109481 -0.09817566 -0.0085501671 5.7187509e-39
-0.036375377 -0.09817566 -0.0085501671 7.2849948e-39
-0.034641273 -0.09817566 -0.0085501671 6.6396282e-39
-0.032907169 -0.09817566 -0.0085501671 6.0857369e-39
-0.031191446 -0.10337763 -0.029517651 7.1910055e-39
-0.029420581 -0.10337763 -0.029517651 7.1909971e-39
-0.027649716 -0.10337763 -0.029517651 7.1002406e-39
-0.026102077 -0.090742856 0.021409154 7.2867927e-39
-0.024420504 -0.090742856 0.021409154 7.0130882e-39
0.00063856971 -0.089484259 0.026482165 9.4036866e-39
0.0023112493 -0.089484259 0.026482165 1.5671899e-38
0.0038773799 -0.088748798 0.029446542 1.7607272e-38
0.0055448646 -0.088748798 0.029446542 2.0095821e-38
0.0072123455 -0.088748798 0.029446542 2.1386186e-38
0.0088798301 -0.088748798 0.029446542 2.313788e-38
0.010547311 -0.088748798 0.029446542 2.3508092e-38
0.012214796 -0.088748798 0.029446542 2.3508451e-38
0.013882277 -0.088748798 0.029446542 2.3508809e-38
0.015549761 -0.088748798 0.029446542 2.3509168e-38
0.03534935 -0.087995812 0.032481611 2.3325494e-38
0.040781405 -0.10116716 -0.020607948 2.3509886e-38
0.04253665 -0.10116716 -0.020607948 2.3509886e-38
0.044291895 -0.10116716 -0.020607948 2.3509886e-38
0.04604714 -0.10116716 -0.020607948 2.3509886e-38
0.047802385 -0.10116716 -0.020607948 2.3325494e-38
0.049795818 -0.10190789 -0.023593664 2.3325494e-38
0.0515563 -0.10190789 -0.023593664 2.3509886e-38
0.06443534 -0.10337763 -0.029517651 3.5031579e-39
0.066206209 -0.10337763 -0.029517651 2.2124149e-39
-0.0547655 -0.093177676 0.018394351 1.0602936e-38
-0.053078637 -0.093177676 0.018394351 1.2170975e-38
-0.05143404 -0.09365949 0.016465902 1.1434843e-38
-0.049704917 -0.093177676 0.018394351 1.2633387e-38
-0.048018053 -0.093177676 0.018394351 1.1527399e-38
-0.046331193 -0.093177676 0.018394351 1.1712515e-38
-0.044673074 -0.09365949 0.016465902 1.1066794e-38
-0.042982832 -0.09365949 0.016465902 1.134303e-38
-0.041418809 -0.096426651 0.0053906441 1.1896208e-38
-0.039709147 -0.096426651 0.0053906441 1.3001477e-38
-0.037999488 -0.096426651 0.0053906441 1.0604026e-38
-0.036326446 -0.097917527 -0.00057643652 1.1156471e-38
-0.034606323 -0.097917527 -0.00057643652 1.1433766e-38
-0.032857206 -0.095163137 0.010447741 1.2724491e-38
-0.03115641 -0.095163137 0.010447741 1.4383296e-38
-0.029455617 -0.095163137 0.010447741 1.5856642e-38
-0.027783651 -0.092424423 0.021409154 1.6779678e-38
-0.026102077 -0.092424423 0.021409154 1.4847871e-38
-0.024420504 -0.092424423 0.021409154 1.3652202e-38
-0.0090460898 -0.095163137 0.010447741 4.0617855e-39
-0.007487745 -0.09365949 0.016465902 2.5870128e-39
-0.0057975044 -0.09365949 0.016465902 3.2330842e-39
-0.0041596713 -0.093177676 0.018394351 3.8770089e-39
-0.0025600279 -0.092424423 0.021409154 4.7038955e-39
-0.00097037945 -0.091675878 0.024405122 4.5169833e-39
0.00063856971 -0.09115693 0.026482165 5.2541812e-39
0.0023112493 -0.09115693 0.026482165 1.0323848e-38
0.0039839307 -0.09115693 0.026482165 1.3365568e-38
0.0056566121 -0.09115693 0.026482165 1.5393139e-38
0.0072123455 -0.090416282 0.029446542 1.8804359e-38
0.0088798301 -0.090416282 0.029446542 2.2123385e-38
0.010763873 -0.091675878 0.024405122 2.304461e-38
0.012440198 -0.091675878 0.024405122 2.3321551e-38
0.013741259 -0.089657977 0.032481611 2.3507016e-38
0.015403421 -0.089657977 0.032481611 2.3507733e-38
0.044514377 -0.10366838 -0.023593664 2.341769e-38
0.046274859 -0.10366838 -0.023593664 2.3048907e-38
0.048035342 -0.10366838 -0.023593664 2.2956712e-38
0.049795818 -0.10366838 -0.023593664 2.3509886e-38
0.0515563 -0.10366838 -0.023593664 2.3509886e-38
-0.056452356 -0.094864532 0.018394351 3.5045718e-39
-0.0547655 -0.094864532 0.018394351 3.2287248e-39
-0.053078637 -0.094864532 0.018394351 3.966643e-39
-0.05143404 -0.095349744 0.016465902 4.7967581e-39
-0.049704917 -0.094864532 0.018394351 4.7974714e-39
-0.048018053 -0.094864532 0.018394351 4.2442976e-39
-0.046331193 -0.094864532 0.018394351 4.3372191e-39
-0.044644333 -0.094864532 0.018394351 5.2588237e-39
-0.04295747 -0.094864532 0.018394351 5.6276174e-39
-0.041292589 -0.095349744 0.016465902 5.3510347e-39
-0.039602347 -0.095349744 0.016465902 7.7474023e-39
-0.03789689 -0.094864532 0.018394351 8.39205e-39
-0.036210027 -0.094864532 0.018394351 1.0235593e-38
-0.034523167 -0.094864532 0.018394351 1.0972786e-38
-0.032836307 -0.094864532 0.018394351 1.2816685e-38
-0.031149443 -0.094864532 0.018394351 1.5120137e-38
-0.029465228 -0.094106004 0.021409154 1.622506e-38
-0.027783651 -0.094106004 0.021409154 2.1019924e-38
-0.026102077 -0.094106004 0.021409154 2.028524e-38
-0.024420504 -0.094106004 0.021409154 1.8813351e-38
-0.022762567 -0.093352199 0.024405122 1.669574e-38
-0.021086242 -0.093352199 0.024405122 1.7066331e-38
-0.019409921 -0.093352199 0.024405122 1.6329856e-38
-0.017694201 -0.094106004 0.021409154 1.6052915e-38
-0.016012628 -0.094106004 0.021409154 1.5684131e-38
-0.014331053 -0.094106004 0.021409154 1.7065975e-38
-0.012649477 -0.094106004 0.021409154 1.6141881e-38
-0.0091779875 -0.095349744 0.016465902 1.3650472e-38
-0.0075333929 -0.094864532 0.018394351 1.2820708e-38
-0.0058465311 -0.094864532 0.018394351 1.2083846e-38
-0.0042416034 -0.094106004 0.021409154 1.0146299e-38
-0.0026467005 -0.093352199 0.024405122 1.0418943e-38
-0.00097037945 -0.093352199 0.024405122 1.1891918e-38
0.00063856971 -0.092829615 0.026482165 1.0600814e-38
0.0023112493 -0.092829615 0.026482165 1.2075214e-38
0.0038773799 -0.092083767 0.029446542 1.3089354e-38
0.0055448646 -0.092083767 0.029446542 1.1613852e-38
0.0072123455 -0.092083767 0.029446542 1.3365202e-38
0.0088798301 -0.092083767 0.029446542 1.4564097e-38
0.010547311 -0.092083767 0.029446542 1.5855186e-38
0.012214796 -0.092083767 0.029446542 1.650091e-38
0.013741259 -0.091320127 0.032481611 1.7515059e-38
0.015403421 -0.091320127 0.032481611 1.8252979e-38
0.017065581 -0.091320127 0.032481611 1.8990541e-38
0.018727742 -0.091320127 0.032481611 1.9820302e-38
0.020389903 -0.091320127 0.032481611 2.0742614e-38
0.022052065 -0.091320127 0.032481611 2.1387981e-38
0.03534935 -0.091320127 0.032481611 2.3325138e-38
0.036872793 -0.090828612 0.034435153 2.3048556e-38
0.038531531 -0.090828612 0.034435153 2.3048556e-38
0.044514377 -0.10542886 -0.023593664 2.3417691e-38
0.046274859 -0.10542886 -0.023593664 2.3509168e-38
0.048035342 -0.10542886 -0.023593664 2.3509168e-38
0.049795818 -0.10542886 -0.023593664 2.3509527e-38
0.0515563 -0.10542886 -0.023593664 2.2218798e-38
-0.056452356 -0.096551389 0.018394351 2.9259112e-42
-0.0547655 -0.096551389 0.018394351 2.813415e-40
-0.053124286 -0.097039983 0.016465902 2.8027371e-40
-0.05143404 -0.097039983 0.016465902 1.3855535e-39
-0.049743801 -0.097039983 0.016465902 4.6216925e-40
-0.048018053 -0.096551389 0.018394351 1.9369448e-39
-0.046331193 -0.096551389 0.018394351 1.9183776e-42
-0.044644333 -0.096551389 0.018394351 1.385213e-39
-0.04295747 -0.096551389 0.018394351 8.3311257e-40
-0.04127061 -0.096551389 0.018394351 3.7844433e-39
-0.03958375 -0.096551389 0.018394351 1.8486896e-39
-0.0378731 -0.09578757 0.021409154 1.8490456e-39
-0.036191527 -0.09578757 0.021409154 1.8472449e-39
-0.034509953 -0.09578757 0.021409154 2.6766454e-39
-0.032828376 -0.09578757 0.021409154 3.7811951e-39
-0.031146802 -0.09578757 0.021409154 4.4251226e-39
-0.029467855 -0.09502852 0.024405122 5.8991653e-39
-0.02779153 -0.09502852 0.024405122 7.7423562e-39
-0.026115209 -0.09502852 0.024405122 8.2040532e-39
-0.024438888 -0.09502852 0.024405122 7.2835388e-39
-0.022762567 -0.09502852 0.024405122 7.3761002e-39
-0.021086242 -0.09502852 0.024405122 8.298781e-39
-0.019409921 -0.09502852 0.024405122 9.959024e-39
-0.0177336 -0.09502852 0.024405122 1.1342679e-38
-0.016012628 -0.09578757 0.021409154 1.327914e-38
-0.014331053 -0.09578757 0.021409154 1.2080597e-38
-0.012649477 -0.09578757 0.021409154 1.1988401e-38
-0.010967902 -0.09578757 0.021409154 1.2172792e-38
-0.0092863282 -0.09578757 0.021409154 1.3739765e-38
-0.0076047527 -0.09578757 0.021409154 1.3647925e-38
-0.0059231771 -0.09578757 0.021409154 1.4478402e-38
-0.0042416034 -0.09578757 0.021409154 1.3093673e-38
-0.0026467005 -0.09502852 0.024405122 1.3828729e-38
-0.00097037945 -0.09502852 0.024405122 1.3089368e-38
0.00063856971 -0.0945023 0.026482165 1.3826933e-38
0.0023112493 -0.0945023 0.026482165 1.3089368e-38
0.0038773799 -0.093751252 0.029446542 1.3735816e-38
0.0055448646 -0.093751252 0.029446542 1.1154699e-38
0.0072123455 -0.093751252 0.029446542 9.7724859e-39
0.0088798301 -0.093751252 0.029446542 9.6810134e-39
0.010547311 -0.093751252 0.029446542 1.0234909e-38
0.012079098 -0.092982292 0.032481611 7.6534284e-39
0.013741259 -0.092982292 0.032481611 9.03636e-39
0.015403421 -0.092982292 0.032481611 7.5601425e-39
0.017065581 -0.092982292 0.032481611 9.2178562e-39
0.018727742 -0.092982292 0.032481611 1.1982279e-38
0.020285435 -0.09248735 0.034435153 1.1335103e-38
0.021944169 -0.09248735 0.034435153 1.2994978e-38
0.023602907 -0.09248735 0.034435153 1.3640702e-38
0.025261641 -0.09248735 0.034435153 1.3825813e-38
0.026920378 -0.09248735 0.034435153 1.3088613e-38
0.028700709 -0.092982292 0.032481611 1.4748139e-38
0.030362871 -0.092982292 0.032481611 1.8159742e-38
0.032025032 -0.092982292 0.032481611 1.9174604e-38
0.033687193 -0.092982292 0.032481611 1.8898022e-38
0.03534935 -0.092982292 0.032481611 2.0373488e-38
0.036872793 -0.09248735 0.034435153 2.1295789e-38
0.038531531 -0.09248735 0.034435153 2.2679061e-38
-0.058283128 -0.099507287 0.013419926 2.3063439e-39
-0.056452356 -0.09823826 0.018394351 1.8948498e-40
-0.0547655 -0.09823826 0.018394351 7.7071416e-44
-0.053124286 -0.098730221 0.016465902 4.568233e-43
-0.05143404 -0.098730221 0.016465902 1.3852046e-39
-0.049743801 -0.098730221 0.016465902 1.5681651e-39
-0.048018053 -0.09823826 0.018394351 9.2279848e-40
-0.046331193 -0.09823826 0.018394351 1.5582439e-42
-0.044644333 -0.09823826 0.018394351 1.0930128e-43
-0.04295747 -0.09823826 0.018394351 1.1100456e-39
-0.04127061 -0.09823826 0.018394351 8.3956485e-39
-0.039554678 -0.097469151 0.021409154 6.920873e-39
-0.0378731 -0.097469151 0.021409154 2.2185399e-39
-0.036191527 -0.097469151 0.021409154 4.0539565e-42
-0.034509953 -0.097469151 0.021409154 2.2644983e-42
-0.032828376 -0.097469151 0.021409154 1.0789998e-43
-0.031146802 -0.097469151 0.021409154 1.0128291e-39
-0.029467855 -0.096704841 0.024405122 8.2877976e-40
-0.02779153 -0.096704841 0.024405122 4.5927137e-40
-0.026115209 -0.096704841 0.024405122 2.7560598e-40
-0.024438888 -0.096704841 0.024405122 3.6744708e-40
-0.022762567 -0.096704841 0.024405122 2.7561579e-40
-0.021086242 -0.096704841 0.024405122 3.6745269e-40
-0.019409921 -0.096704841 0.024405122 6.4296338e-40
-0.0177336 -0.096704841 0.024405122 6.4368084e-40
-0.016057277 -0.096704841 0.024405122 9.8090893e-44
-0.014415552 -0.09617497 0.026482165 1.8412922e-40
-0.012742872 -0.09617497 0.026482165 1.1989972e-39
-0.011070191 -0.09617497 0.026482165 2.7811711e-40
-0.0093975114 -0.09617497 0.026482165 5.5434807e-40
-0.0077248299 -0.09617497 0.026482165 5.5506974e-40
-0.0060521504 -0.09617497 0.026482165 2.1231185e-39
-0.0043794708 -0.09617497 0.026482165 1.5688657e-39
-0.0027067894 -0.09617497 0.026482165 2.2120771e-39
-0.0010341099 -0.09617497 0.026482165 1.9347742e-39
0.00063856971 -0.09617497 0.026482165 3.225513e-39
0.0023112493 -0.09617497 0.026482165 3.3180702e-39
0.0039839307 -0.09617497 0.026482165 2.5812296e-39
0.0055448646 -0.095418736 0.029446542 9.2207681e-40
0.0072123455 -0.095418736 0.029446542 1.1082757e-39
0.0087547759 -0.094644457 0.032481611 2.3082623e-39
0.010416937 -0.094644457 0.032481611 1.6632586e-39
0.012079098 -0.094644457 0.032481611 9.7011893e-41
0.013741259 -0.094644457 0.032481611 1.9337919e-42
0.015309227 -0.094146088 0.034435153 8.3204479e-40
0.01696796 -0.094146088 0.034435153 1.4745261e-39
0.018727742 -0.094644457 0.032481611 1.8418555e-39
0.020285435 -0.094146088 0.034435153 1.6549363e-39
0.021944169 -0.094146088 0.034435153 1.746762e-39
0.023602907 -0.094146088 0.034435153 1.5634427e-39
0.025261641 -0.094146088 0.034435153 6.4292414e-40
0.026920378 -0.094146088 0.034435153 1.8411156e-39
0.028579112 -0.094146088 0.034435153 1.2890306e-39
0.030362871 -0.094644457 0.032481611 3.6780161e-40
0.031896584 -0.094146088 0.034435153 8.291455e-40
0.033555318 -0.094146088 0.034435153 1.8440163e-39
0.035214055 -0.094146088 0.034435153 1.8449215e-40
-0.059978712 -0.10120286 0.013419926 1.0417739e-38
-0.058283128 -0.10120286 0.013419926 2.6744118e-39
-0.056504767 -0.10042046 0.016465902 2.4004047e-39
-0.054814525 -0.10042046 0.016465902 1.2940851e-39
-0.053124286 -0.10042046 0.016465902 1.1840972e-42
-0.05143404 -0.10042046 0.016465902 6.2708429e-39
-0.049743801 -0.10042046 0.016465902 8.6668404e-39
-0.048018053 -0.099925116 0.018394351 4.7031346e-39
-0.046280976 -0.099150717 0.021409154 1.2933214e-39
-0.044599403 -0.099150717 0.021409154 4.2457284e-39
-0.042917825 -0.099150717 0.021409154 5.7219276e-39
-0.04127061 -0.099925116 0.018394351 1.4941851e-38
-0.039554678 -0.099150717 0.021409154 1.7799921e-38
-0.0378731 -0.099150717 0.021409154 1.0700153e-38
-0.036191527 -0.099150717 0.021409154 2.0316249e-39
-0.034509953 -0.099150717 0.021409154 9.3738459e-41
-0.032828376 -0.099150717 0.021409154 1.1630777e-43
-0.031146802 -0.099150717 0.021409154 2.2113765e-39
-0.029467855 -0.098381177 0.024405122 1.9344197e-39
-0.02779153 -0.098381177 0.024405122 8.2842663e-40
-0.026115209 -0.098381177 0.024405122 1.4734415e-39
-0.024438888 -0.098381177 0.024405122 2.3954034e-39
-0.022762567 -0.098381177 0.024405122 1.4730926e-39
-0.021106273 -0.097847655 0.026482165 1.0128333e-39
-0.019433592 -0.097847655 0.026482165 1.6582027e-39
-0.017760912 -0.097847655 0.026482165 1.6589188e-39
-0.016088232 -0.097847655 0.026482165 3.6817856e-40
-0.014415552 -0.097847655 0.026482165 9.2667867e-41
-0.012797446 -0.097086221 0.029446542 1.5685168e-39
-0.011129963 -0.097086221 0.029446542 9.242264e-40
-0.0094624804 -0.097086221 0.029446542 9.2387187e-40
-0.0077949977 -0.097086221 0.029446542 9.4476944e-41
-0.0061275149 -0.097086221 0.029446542 1.0167962e-39
-0.0044600321 -0.097086221 0.029446542 6.4836959e-40
-0.0027925493 -0.097086221 0.029446542 7.3875614e-40
-0.0011250665 -0.097086221 0.029446542 6.4619477e-40
0.00054241624 -0.097086221 0.029446542 5.5399914e-40
0.0023112493 -0.097847655 0.026482165 4.6180632e-40
0.0038773799 -0.097086221 0.029446542 1.0649868e-43
0.0055448646 -0.097086221 0.029446542 8.3203918e-40
0.0070926147 -0.096306622 0.032481611 1.7554402e-39
0.0087547759 -0.096306622 0.032481611 1.1115141e-39
0.010416937 -0.096306622 0.032481611 1.4806624e-39
0.011991755 -0.095804825 0.034435153 2.8283808e-40
0.013650489 -0.095804825 0.034435153 5.1651861e-42
0.015309227 -0.095804825 0.034435153 1.7557933e-39
0.01696796 -0.095804825 0.034435153 9.9492191e-44
0.018626697 -0.095804825 0.034435153 9.1927982e-41
0.020285435 -0.095804825 0.034435153 1.6567243e-39
0.021944169 -0.095804825 0.034435153 5.6218399e-39
0.023602907 -0.095804825 0.034435153 8.6664369e-39
0.025261641 -0.095804825 0.034435153 5.9945572e-39
0.026920378 -0.095804825 0.034435153 5.9942083e-39
0.028579112 -0.095804825 0.034435153 2.7684515e-39
0.03023785 -0.095804825 0.034435153 1.8806687e-40
0.031896584 -0.095804825 0.034435153 7.9874012e-44
0.033555318 -0.095804825 0.034435153 3.7391548e-40
-0.059733577 -0.1008323 0.021409154 1.0694326e-38
-0.058052003 -0.1008323 0.021409154 3.5038193e-39
-0.056452356 -0.10161197 0.018394351 8.3128949e-40
-0.0547655 -0.10161197 0.018394351 1.0229479e-43
-0.053078637 -0.10161197 0.018394351 9.9492191e-44
-0.051391777 -0.10161197 0.018394351 1.8347726e-38
-0.049704917 -0.10161197 0.018394351 1.9362222e-38
-0.048018053 -0.10161197 0.018394351 1.9270368e-38
-0.046280976 -0.1008323 0.021409154 1.8718256e-38
-0.044599403 -0.1008323 0.021409154 2.2591531e-38
-0.042917825 -0.1008323 0.021409154 2.2499695e-38
-0.041236252 -0.1008323 0.021409154 2.1948682e-38
-0.039554678 -0.1008323 0.021409154 2.2132353e-38
-0.0378731 -0.1008323 0.021409154 1.5032966e-38
-0.036191527 -0.1008323 0.021409154 2.9535616e-39
-0.034509953 -0.1008323 0.021409154 1.0149549e-39
-0.032828376 -0.1008323 0.021409154 7.36231e-40
-0.031146802 -0.1008323 0.021409154 1.8377609e-40
-0.029467855 -0.1000575 0.024405122 1.6592593e-39
-0.02779153 -0.1000575 0.024405122 9.2485699e-44
-0.026115209 -0.1000575 0.024405122 9.9492191e-44
-0.024438888 -0.1000575 0.024405122 6.4511577e-40
-0.022762567 -0.1000575 0.024405122 1.0509738e-43
-0.021106273 -0.099520341 0.026482165 2.7633886e-40
-0.019433592 -0.099520341 0.026482165 8.2950984e-40
-0.017760912 -0.099520341 0.026482165 9.9492191e-44
-0.016088232 -0.099520341 0.026482165 7.383904e-40
-0.014415552 -0.099520341 0.026482165 9.3886997e-44
-0.012797446 -0.098753691 0.029446542 1.8666136e-40
-0.011129963 -0.098753691 0.029446542 8.3239511e-40
-0.0095289992 -0.097968772 0.032481611 1.7543612e-39
-0.007866838 -0.097968772 0.032481611 4.6506574e-40
-0.0062046768 -0.097968772 0.032481611 9.5932893e-41
-0.0045425156 -0.097968772 0.032481611 3.0099891e-42
-0.0027925493 -0.098753691 0.029446542 5.5616835e-40
-0.0012181932 -0.097968772 0.032481611 1.8468988e-39
0.00044396799 -0.097968772 0.032481611 9.2494247e-40
0.002209899 -0.098753691 0.029446542 6.4835558e-40
0.0038773799 -0.098753691 0.029446542 4.6433006e-40
0.0054304535 -0.097968772 0.032481611 5.9045967e-39
0.0070926147 -0.097968772 0.032481611 7.1967802e-39
0.0087547759 -0.097968772 0.032481611 3.3256456e-39
0.010333017 -0.097463563 0.034435153 1.6668459e-39
0.011991755 -0.097463563 0.034435153 9.2999835e-40
0.013650489 -0.097463563 0.034435153 2.831842e-40
0.015309227 -0.097463563 0.034435153 9.9492191e-44
0.01696796 -0.097463563 0.034435153 1.29479e-39
0.018626697 -0.097463563 0.034435153 1.7887831e-38
0.020285435 -0.097463563 0.034435153 2.1389418e-38
0.021944169 -0.097463563 0.034435153 2.2957796e-38
0.023602907 -0.097463563 0.034435153 2.2775202e-38
0.025261641 -0.097463563 0.034435153 2.2499695e-38
0.026920378 -0.097463563 0.034435153 2.2224189e-38
0.028579112 -0.097463563 0.034435153 2.0659039e-38
0.03023785 -0.097463563 0.034435153 1.8723678e-38
0.031699117 -0.096686855 0.037438452 8.4903511e-39
-0.061415151 -0.10251388 0.021409154 1.2353849e-38
-0.059733577 -0.10251388 0.021409154 1.1431892e-38
-0.058052003 -0.10251388 0.021409154 4.6094466e-39
-0.056452356 -0.10329883 0.018394351 4.4281031e-43
-0.0547655 -0.10329883 0.018394351 6.4619477e-40
-0.053078637 -0.10329883 0.018394351 7.7071416e-44
-0.051391777 -0.10329883 0.018394351 1.9084917e-38
-0.049704917 -0.10329883 0.018394351 2.3141826e-38
-0.048018053 -0.10329883 0.018394351 2.2773408e-38
-0.046280976 -0.10251388 0.021409154 1.9824216e-38
-0.044599403 -0.10251388 0.021409154 2.2775189e-38
-0.042917825 -0.10251388 0.021409154 2.2775192e-38
-0.041236252 -0.10251388 0.021409154 2.2316014e-38
-0.039554678 -0.10251388 0.021409154 2.2499695e-38
-0.037849464 -0.10173382 0.024405122 1.6876141e-38
-0.036173142 -0.10173382 0.024405122 4.9811242e-39
-0.034496818 -0.10173382 0.024405122 2.1219933e-39
-0.032820497 -0.10173382 0.024405122 2.3964348e-39
-0.031144176 -0.10173382 0.024405122 2.950333e-39
-0.029467855 -0.10173382 0.024405122 2.1220073e-39
-0.02779153 -0.10173382 0.024405122 2.7881776e-40
-0.026115209 -0.10173382 0.024405122 1.8662493e-40
-0.024438888 -0.10173382 0.024405122 3.7066026e-40
-0.022762567 -0.10173382 0.024405122 5.5397392e-40
-0.021086242 -0.10173382 0.024405122 2.4911611e-39
-0.019433592 -0.10119301 0.026482165 3.3209218e-39
-0.017760912 -0.10119301 0.026482165 1.0160311e-39
-0.016088232 -0.10119301 0.026482165 2.2378736e-42
-0.014415552 -0.10119301 0.026482165 8.0294402e-43
-0.012853322 -0.099630937 0.032481611 1.2947872e-39
-0.01119116 -0.099630937 0.032481611 3.3392942e-42
-0.0095289992 -0.099630937 0.032481611 3.7120396e-42
-0.007866838 -0.099630937 0.032481611 9.8079682e-41
-0.0062046768 -0.099630937 0.032481611 7.4310017e-40
-0.0045425156 -0.099630937 0.032481611 7.4309737e-40
-0.0028803544 -0.099630937 0.032481611 1.9141737e-42
-0.0012181932 -0.099630937 0.032481611 6.5051638e-40
0.00044396799 -0.099630937 0.032481611 2.8173386e-40
0.0021061311 -0.099630937 0.032481611 2.0334508e-39
0.0037682923 -0.099630937 0.032481611 2.9550512e-39
0.0054304535 -0.099630937 0.032481611 7.4733615e-39
0.0070926147 -0.099630937 0.032481611 7.6588346e-39
0.0086742835 -0.099122301 0.034435153 2.2207344e-39
0.010333017 -0.099122301 0.034435153 1.7608352e-39
0.011991755 -0.099122301 0.034435153 7.3133767e-42
0.013650489 -0.099122301 0.034435153 3.7022305e-42
0.015164417 -0.098340333 0.037438452 1.8515665e-39
0.016817886 -0.098340333 0.037438452 6.9208702e-39
0.018471356 -0.098340333 0.037438452 2.1854336e-38
0.020124827 -0.098340333 0.037438452 2.2774484e-38
0.021778297 -0.098340333 0.037438452 2.2775202e-38
0.023431767 -0.098340333 0.037438452 2.2316024e-38
0.025085237 -0.098340333 0.037438452 2.1489505e-38
0.026738707 -0.098340333 0.037438452 2.1673176e-38
0.028392177 -0.098340333 0.037438452 2.0385685e-38
0.030045647 -0.098340333 0.037438452 2.0387479e-38
0.031699117 -0.098340333 0.037438452 1.2183207e-38
-0.06357374 -0.10785256 0.0074573159 1.2446044e-38
-0.061867703 -0.10785256 0.0074573159 1.2999218e-38
-0.059733577 -0.10419546 0.021409154 1.1892871e-38
-0.058052003 -0.10419546 0.021409154 4.7016422e-39
-0.056452356 -0.1049857 0.018394351 1.6599613e-39
-0.0547655 -0.1049857 0.018394351 9.8090893e-44
-0.053078637 -0.1049857 0.018394351 4.6105382e-40
-0.051391777 -0.1049857 0.018394351 1.8623565e-38
-0.049704917 -0.1049857 0.018394351 2.2864167e-38
-0.048018053 -0.1049857 0.018394351 2.2773037e-38
-0.046280976 -0.10419546 0.021409154 2.2865937e-38
-0.044599403 -0.10419546 0.021409154 1.5491362e-38
-0.042917825 -0.10419546 0.021409154 1.8350869e-38
-0.041236252 -0.10419546 0.021409154 2.1855388e-38
-0.039554678 -0.10419546 0.021409154 2.2775202e-38
-0.037849464 -0.10341014 0.024405122 2.2775202e-38
-0.036173142 -0.10341014 0.024405122 2.2313872e-38
-0.034496818 -0.10341014 0.024405122 2.286632e-38
-0.032820497 -0.10341014 0.024405122 2.102064e-38
-0.031144176 -0.10341014 0.024405122 2.1481971e-38
-0.029467855 -0.10341014 0.024405122 2.0838764e-38
-0.02779153 -0.10341014 0.024405122 1.6599217e-38
-0.026115209 -0.10341014 0.024405122 1.3832632e-38
-0.024438888 -0.10341014 0.024405122 1.4938979e-38
-0.022762567 -0.10341014 0.024405122 1.9272174e-38
-0.021086242 -0.10341014 0.024405122 2.2591172e-38
-0.019433592 -0.10286568 0.026482165 2.1944736e-38
-0.017760912 -0.10286568 0.026482165 1.6598145e-38
-0.016132411 -0.10208866 0.029446542 1.650667e-38
-0.014464929 -0.10208866 0.029446542 1.7705939e-38
-0.012853322 -0.1012931 0.032481611 1.7430082e-38
-0.01119116 -0.1012931 0.032481611 7.5655263e-39
-0.0095289992 -0.1012931 0.032481611 8.3598103e-40
-0.0079130782 -0.10078102 0.034435153 5.8742432e-42
-0.0062543424 -0.10078102 0.034435153 1.9063965e-40
-0.0045956066 -0.10078102 0.034435153 5.1679887e-42
-0.0028803544 -0.1012931 0.032481611 7.4416235e-40
-0.0012181932 -0.1012931 0.032481611 1.9098017e-40
0.00044396799 -0.1012931 0.032481611 3.7537142e-40
0.0021061311 -0.1012931 0.032481611 5.998586e-39
0.0037682923 -0.1012931 0.032481611 9.1332374e-39
0.0054304535 -0.1012931 0.032481611 9.3179902e-39
0.0070155459 -0.10078102 0.034435153 6.9223458e-39
0.0086742835 -0.10078102 0.034435153 1.6679137e-39
0.010333017 -0.10078102 0.034435153 1.2083747e-39
0.011857477 -0.099993795 0.037438452 1.9029633e-42
0.013510947 -0.099993795 0.037438452 7.2937585e-42
0.015164417 -0.099993795 0.037438452 1.6512093e-38
0.016817886 -0.099993795 0.037438452 2.0935981e-38
0.018471356 -0.099993795 0.037438452 2.1487352e-38
0.020124827 -0.099993795 0.037438452 2.2039083e-38
0.021778297 -0.099993795 0.037438452 2.2499695e-38
0.023431767 -0.099993795 0.037438452 2.2224189e-38
0.025085237 -0.099993795 0.037438452 2.0938125e-38
0.026738707 -0.099993795 0.037438452 2.158134e-38
0.028392177 -0.099993795 0.037438452 1.9650642e-38
0.030045647 -0.099993795 0.037438452 1.8361358e-38
0.031699117 -0.099993795 0.037438452 1.5412568e-38
-0.06357374 -0.1095586 0.0074573159 1.2262016e-38
-0.061867703 -0.1095586 0.0074573159 1.2999581e-38
-0.05982608 -0.10667257 0.018394351 1.1524451e-38
-0.05813922 -0.10667257 0.018394351 3.8718815e-39
-0.056452356 -0.10667257 0.018394351 7.8472714e-44
-0.0547655 -0.10667257 0.018394351 7.3729739e-40
-0.053078637 -0.10667257 0.018394351 9.1902758e-41
-0.051391777 -0.10667257 0.018394351 1.7331741e-38
-0.049704917 -0.10667257 0.018394351 2.3509168e-38
-0.048018053 -0.10667257 0.018394351 2.350988e-38
-0.046280976 -0.10587703 0.021409154 2.350987e-38
-0.044599403 -0.10587703 0.021409154 1.5029307e-38
-0.042917825 -0.10587703 0.021409154 1.8810774e-38
-0.041236252 -0.10587703 0.021409154 2.2958867e-38
-0.039554678 -0.10587703 0.021409154 2.2867037e-38
-0.037849464 -0.10508646 0.024405122 2.2683366e-38
-0.036173142 -0.10508646 0.024405122 2.2683366e-38
-0.034496818 -0.10508646 0.024405122 2.2682649e-38
-0.032820497 -0.10508646 0.024405122 2.1943647e-38
-0.031144176 -0.10508646 0.024405122 2.3142544e-38
-0.029467855 -0.10508646 0.024405122 2.1853977e-38
-0.02779153 -0.10508646 0.024405122 2.2591531e-38
-0.026115209 -0.10508646 0.024405122 2.2775202e-38
-0.024438888 -0.10508646 0.024405122 2.1669588e-38
-0.022762567 -0.10508646 0.024405122 2.0839831e-38
-0.021086242 -0.10508646 0.024405122 2.1485197e-38
-0.019433592 -0.10453837 0.026482165 2.2406425e-38
-0.017760912 -0.10453837 0.026482165 2.2407142e-38
-0.016132411 -0.10375614 0.029446542 2.240786e-38
-0.014464929 -0.10375614 0.029446542 2.2499695e-38
-0.012853322 -0.10295527 0.032481611 2.1671382e-38
-0.01119116 -0.10295527 0.032481611 9.4090592e-39
-0.0095289992 -0.10295527 0.032481611 9.2780252e-40
-0.0079130782 -0.10243976 0.034435153 4.7826317e-42
-0.0062543424 -0.10243976 0.034435153 4.7994472e-42
-0.0045956066 -0.10243976 0.034435153 4.084785e-42
-0.0028803544 -0.10295527 0.032481611 6.2371795e-42
-0.0012181932 -0.10295527 0.032481611 6.230173e-42
0.00044396799 -0.10295527 0.032481611 1.5735573e-39
0.0021061311 -0.10295527 0.032481611 8.1198043e-39
0.0037682923 -0.10295527 0.032481611 1.1161541e-38
0.0054304535 -0.10295527 0.032481611 7.0130994e-39
0.0070155459 -0.10243976 0.034435153 4.8011232e-39
0.0086742835 -0.10243976 0.034435153 1.7597464e-39
0.010333017 -0.10243976 0.034435153 9.4671724e-42
0.011857477 -0.10164727 0.037438452 5.1357589e-42
0.013510947 -0.10164727 0.037438452 3.7930767e-40
0.015164417 -0.10164727 0.037438452 1.8541083e-38
0.016817886 -0.10164727 0.037438452 2.1673176e-38
0.018471356 -0.10164727 0.037438452 2.2132353e-38
0.020124827 -0.10164727 0.037438452 2.2316024e-38
0.021778297 -0.10164727 0.037438452 2.1210049e-38
0.023431767 -0.10164727 0.037438452 2.0382085e-38
-0.063265733 -0.10887168 0.016465902 1.1708845e-38
-0.061575495 -0.10887168 0.016465902 1.2815193e-38
-0.059733577 -0.10755859 0.021409154 1.1063476e-38
-0.058052003 -0.10755859 0.021409154 2.9495693e-39
-0.056452356 -0.10835941 0.018394351 5.5289492e-40
-0.0547655 -0.10835941 0.018394351 5.5219007e-40
-0.053078637 -0.10835941 0.018394351 9.1902758e-41
-0.051391777 -0.10835941 0.018394351 2.0096891e-38
-0.049704917 -0.10835941 0.018394351 2.2125886e-38
-0.047962554 -0.10755859 0.021409154 2.3416245e-38
-0.046280976 -0.10755859 0.021409154 2.350987e-38
-0.044599403 -0.10755859 0.021409154 1.5489568e-38
-0.042917825 -0.10755859 0.021409154 2.0100438e-38
-0.041236252 -0.10755859 0.021409154 2.3142544e-38
-0.039525785 -0.10676278 0.024405122 2.1761773e-38
-0.037849464 -0.10676278 0.024405122 2.2867037e-38
-0.036173142 -0.10676278 0.024405122 2.2958873e-38
-0.034496818 -0.10676278 0.024405122 2.2958873e-38
-0.032820497 -0.10676278 0.024405122 2.3234379e-38
-0.031144176 -0.10676278 0.024405122 2.3050707e-38
-0.029469673 -0.10621105 0.026482165 2.2775202e-38
-0.027796995 -0.10621105 0.026482165 2.2775202e-38
-0.026115209 -0.10676278 0.024405122 2.2407501e-38
-0.024451632 -0.10621105 0.026482165 2.2407142e-38
-0.022778954 -0.10621105 0.026482165 2.2867037e-38
-0.021106273 -0.10621105 0.026482165 2.2958873e-38
-0.019433592 -0.10621105 0.026482165 2.2590813e-38
-0.017760912 -0.10621105 0.026482165 2.2775202e-38
-0.016132411 -0.10542361 0.029446542 2.2867037e-38
-0.014464929 -0.10542361 0.029446542 2.0656162e-38
-0.012853322 -0.10461743 0.032481611 1.8720071e-38
-0.01119116 -0.10461743 0.032481611 8.5792901e-39
-0.0095289992 -0.10461743 0.032481611 2.1259814e-39
-0.0079130782 -0.10409851 0.034435153 5.5831514e-40
-0.0062543424 -0.10409851 0.034435153 4.0805811e-42
-0.0045956066 -0.10409851 0.034435153 4.8050524e-42
-0.0028803544 -0.10461743 0.032481611 9.8792943e-41
-0.0012181932 -0.10461743 0.032481611 3.5103872e-39
