# .PCD v0.7 - Point Cloud Data file format
VERSION 0.7
FIELDS x y z rgb
SIZE 4 4 4 4
TYPE F F F F
COUNT 1 1 1 1
WIDTH 919
HEIGHT 1
VIEWPOINT 0 0 0 1 0 0 0
POINTS 919
DATA ascii
-0.059099682 -0.090097278 -0.077012897 1.8903756e-38
-0.057216819 -0.090737507 -0.079945803 2.2591172e-38
-0.055305675 -0.090737507 -0.079945803 2.2683363e-38
-0.053381674 -0.090097278 -0.077012897 2.2683342e-38
-0.051467694 -0.089435071 -0.073979259 2.2590778e-38
-0.049563557 -0.088574663 -0.070037723 2.3418028e-38
-0.047669783 -0.088574663 -0.070037723 2.350988e-38
-0.04577601 -0.088574663 -0.070037723 2.3509886e-38
-0.043895364 -0.087920904 -0.067042828 2.3509886e-38
-0.042006843 -0.087920904 -0.067042828 2.3417691e-38
-0.040118322 -0.087920904 -0.067042828 2.3509886e-38
-0.038298026 -0.086376548 -0.059967995 2.3509886e-38
-0.03642191 -0.086376548 -0.059967995 2.3509886e-38
-0.03454579 -0.086376548 -0.059967995 2.3417691e-38
-0.032669675 -0.086376548 -0.059967995 2.3509886e-38
-0.030842518 -0.085734919 -0.057028651 2.3509886e-38
-0.029045992 -0.084852293 -0.052985311 2.341769e-38
-0.027182119 -0.084852293 -0.052985311 2.3325494e-38
-0.025229627 -0.085734919 -0.057028651 2.3325494e-38
-0.023525674 -0.08419472 -0.049972892 2.341769e-38
-0.021743234 -0.083540857 -0.04697752 2.3509886e-38
-0.019889895 -0.083540857 -0.04697752 2.3509886e-38
-0.018036554 -0.083540857 -0.04697752 2.3509886e-38
-0.016274603 -0.082890689 -0.043999076 2.3509886e-38
-0.014426487 -0.082890689 -0.043999076 2.3509886e-38
-0.012716992 -0.08200562 -0.03994453 2.3509886e-38
-0.010875983 -0.08200562 -0.03994453 2.3509886e-38
-0.0091457684 -0.081364051 -0.037005424 2.3509886e-38
-0.0074294675 -0.080702513 -0.033974886 2.3509886e-38
-0.0057230759 -0.080044776 -0.030961752 2.3509886e-38
-0.0038978178 -0.080044776 -0.030961752 2.3509886e-38
-0.002519181 -0.077864185 -0.020972371 2.3509886e-38
-0.00098857097 -0.076562196 -0.015007854 2.3509886e-38
0.00080871768 -0.076562196 -0.015007854 2.3509886e-38
0.0026060026 -0.076562196 -0.015007854 2.3509886e-38
0.0044032913 -0.076562196 -0.015007854 2.3509886e-38
0.0062005762 -0.076562196 -0.015007854 2.3509886e-38
0.0079978649 -0.076562196 -0.015007854 2.341805e-38
0.0097951498 -0.076562196 -0.015007854 2.3234379e-38
0.011592438 -0.076562196 -0.015007854 2.3234379e-38
0.013389723 -0.076562196 -0.015007854 2.3234379e-38
0.015187012 -0.076562196 -0.015007854 2.341805e-38
0.016984301 -0.076562196 -0.015007854 2.3509886e-38
0.018781582 -0.076562196 -0.015007854 2.3509883e-38
0.020578871 -0.076562196 -0.015007854 2.350988e-38
0.022585722 -0.07722272 -0.018033743 2.3509521e-38
0.024388315 -0.07722272 -0.018033743 2.350988e-38
0.026190909 -0.07722272 -0.018033743 2.3509883e-38
0.028212475 -0.077864185 -0.020972371 2.3509527e-38
0.030020216 -0.077864185 -0.020972371 2.3509527e-38
0.031827964 -0.077864185 -0.020972371 2.3233662e-38
0.033635706 -0.077864185 -0.020972371 2.2864526e-38
0.035693057 -0.078532472 -0.024033785 2.2773049e-38
0.037251197 -0.077864185 -0.020972371 2.2958514e-38
0.039058946 -0.077864185 -0.020972371 2.2224189e-38
-0.080170214 -0.10828196 -0.15099227 4.244264e-39
-0.077932306 -0.10653187 -0.14303899 4.2038954e-44
-0.075910538 -0.10653187 -0.14303899 2.7953662e-40
-0.073888764 -0.10653187 -0.14303899 1.6621376e-39
-0.071785003 -0.10563703 -0.13897228 2.9525415e-39
-0.069624573 -0.10389452 -0.13105333 3.3206191e-39
-0.067572422 -0.1032155 -0.12796748 2.859641e-39
-0.065577082 -0.1032155 -0.12796748 1.8667538e-40
-0.062911682 -0.092003286 -0.077012897 1.0167738e-39
-0.061005682 -0.092003286 -0.077012897 2.2313872e-38
-0.059099682 -0.092003286 -0.077012897 2.2774843e-38
-0.057216819 -0.09264864 -0.079945803 2.3142544e-38
-0.055305675 -0.09264864 -0.079945803 2.2127314e-38
-0.053381674 -0.092003286 -0.077012897 2.3509876e-38
-0.051475674 -0.092003286 -0.077012897 2.3509869e-38
-0.04956701 -0.091335744 -0.073979259 2.304817e-38
-0.047666326 -0.091335744 -0.073979259 2.3509883e-38
-0.04577601 -0.090468436 -0.070037723 2.3417691e-38
-0.043882236 -0.090468436 -0.070037723 2.3509886e-38
-0.042006843 -0.089809433 -0.067042828 2.3509886e-38
-0.040118322 -0.089809433 -0.067042828 2.3509886e-38
-0.038298026 -0.088252664 -0.059967995 2.3417691e-38
-0.03642191 -0.088252664 -0.059967995 2.3233302e-38
-0.03454579 -0.088252664 -0.059967995 2.3233302e-38
-0.032669675 -0.088252664 -0.059967995 2.3509886e-38
-0.030842518 -0.087605879 -0.057028651 2.3509886e-38
-0.029045992 -0.086716175 -0.052985311 2.3509886e-38
-0.027182119 -0.086716175 -0.052985311 2.341769e-38
-0.025165208 -0.088252664 -0.059967995 2.341769e-38
-0.02328909 -0.088252664 -0.059967995 2.341769e-38
-0.021590497 -0.086716175 -0.052985311 2.3509886e-38
-0.019726623 -0.086716175 -0.052985311 2.3509886e-38
-0.017862748 -0.086716175 -0.052985311 2.3509886e-38
-0.016091308 -0.086053312 -0.049972892 2.3509886e-38
-0.014329875 -0.085394189 -0.04697752 2.3509886e-38
-0.012578366 -0.084738806 -0.043999076 2.3509886e-38
-0.01073025 -0.084738806 -0.043999076 2.3509886e-38
-0.0088821296 -0.084738806 -0.043999076 2.3509886e-38
-0.0071939658 -0.083846629 -0.03994453 2.3509886e-38
-0.0054740552 -0.083199903 -0.037005424 2.3509886e-38
-0.0038978178 -0.081870034 -0.030961752 2.3509886e-38
-0.0023823064 -0.080345586 -0.024033785 2.3509886e-38
-0.00084797479 -0.079025313 -0.018033743 2.3509886e-38
0.00080871768 -0.078359485 -0.015007854 2.3509886e-38
0.0026060026 -0.078359485 -0.015007854 2.3509886e-38
0.0044032913 -0.078359485 -0.015007854 2.3509886e-38
0.0062005762 -0.078359485 -0.015007854 2.3509886e-38
0.0079978649 -0.078359485 -0.015007854 2.3509886e-38
0.0097951498 -0.078359485 -0.015007854 2.341805e-38
0.011592438 -0.078359485 -0.015007854 2.341805e-38
0.013389723 -0.078359485 -0.015007854 2.3509527e-38
0.015187012 -0.078359485 -0.015007854 2.3509886e-38
0.016984301 -0.078359485 -0.015007854 2.3509527e-38
0.018781582 -0.078359485 -0.015007854 2.3509524e-38
0.020578871 -0.078359485 -0.015007854 2.3509524e-38
0.022585722 -0.079025313 -0.018033743 2.3509524e-38
0.024388315 -0.079025313 -0.018033743 2.3509527e-38
0.026190909 -0.079025313 -0.018033743 2.2587932e-38
0.027993495 -0.079025313 -0.018033743 2.2680136e-38
0.029796088 -0.079025313 -0.018033743 2.323402e-38
0.03159868 -0.079025313 -0.018033743 2.3142185e-38
0.033401273 -0.079025313 -0.018033743 2.2958514e-38
0.035443448 -0.079671934 -0.020972371 2.2958514e-38
0.037251197 -0.079671934 -0.020972371 2.2130201e-38
0.039058946 -0.079671934 -0.020972371 1.1344817e-38
-0.080170214 -0.11031766 -0.15099227 5.350243e-39
-0.077828914 -0.10765167 -0.13897228 3.643376e-44
-0.075721771 -0.10678484 -0.13506401 1.8625078e-40
-0.073713981 -0.10678484 -0.13506401 1.3844605e-39
-0.07162533 -0.10589527 -0.13105333 2.3060819e-39
-0.069567762 -0.10521083 -0.12796748 2.8585508e-39
-0.06750644 -0.10433225 -0.12400627 2.8585508e-39
-0.06545753 -0.10343169 -0.119946 8.3657518e-43
-0.063333012 -0.10101564 -0.1090529 3.8733935e-39
-0.061039105 -0.094559789 -0.079945803 2.1942942e-38
-0.059127964 -0.094559789 -0.079945803 2.3141109e-38
-0.057216819 -0.094559789 -0.079945803 2.3324062e-38
-0.055305675 -0.094559789 -0.079945803 2.3508092e-38
-0.05339453 -0.094559789 -0.079945803 2.3507016e-38
-0.051475674 -0.093909279 -0.077012897 2.2582911e-38
-0.04956967 -0.093909279 -0.077012897 2.3508092e-38
-0.047663666 -0.093909279 -0.077012897 2.3323702e-38
-0.045757666 -0.093909279 -0.077012897 2.2864519e-38
-0.043851662 -0.093909279 -0.077012897 2.3325494e-38
-0.041988462 -0.09236221 -0.070037723 2.3509886e-38
-0.040094692 -0.09236221 -0.070037723 2.341769e-38
-0.038298026 -0.090128779 -0.059967995 2.2772321e-38
-0.03642191 -0.090128779 -0.059967995 2.3509886e-38
-0.03454579 -0.090128779 -0.059967995 2.3509886e-38
-0.032669675 -0.090128779 -0.059967995 2.2956712e-38
-0.030793559 -0.090128779 -0.059967995 2.3048907e-38
-0.028971555 -0.089476839 -0.057028651 2.3325494e-38
-0.027100591 -0.089476839 -0.057028651 2.3509886e-38
-0.025165208 -0.090128779 -0.059967995 2.3509883e-38
-0.02328909 -0.090128779 -0.059967995 2.3509883e-38
-0.021412974 -0.090128779 -0.059967995 2.3509883e-38
-0.019536857 -0.090128779 -0.059967995 2.3417687e-38
-0.017660741 -0.090128779 -0.059967995 2.3509886e-38
-0.015998876 -0.088580042 -0.052985311 2.3509886e-38
-0.014232716 -0.087911904 -0.049972892 2.3509886e-38
-0.012476536 -0.087247536 -0.04697752 2.3509886e-38
-0.010623192 -0.087247536 -0.04697752 2.3509886e-38
-0.008769853 -0.087247536 -0.04697752 2.3509886e-38
-0.007034013 -0.086586922 -0.043999076 2.3509886e-38
-0.0051858928 -0.086586922 -0.043999076 2.3509886e-38
-0.0037683826 -0.084363595 -0.033974886 2.3509886e-38
-0.002206495 -0.08303085 -0.027966022 2.3509886e-38
-0.00038648956 -0.08303085 -0.027966022 2.3509886e-38
0.0010963064 -0.081479684 -0.020972371 2.3509886e-38
0.0029040519 -0.081479684 -0.020972371 2.3509886e-38
0.0045597982 -0.080827907 -0.018033743 2.3509886e-38
0.0062005762 -0.080156773 -0.015007854 2.3509886e-38
0.0079978649 -0.080156773 -0.015007854 2.3509886e-38
0.0097951498 -0.080156773 -0.015007854 2.3509527e-38
0.011592438 -0.080156773 -0.015007854 2.3509168e-38
0.013389723 -0.080156773 -0.015007854 2.3509168e-38
0.015187012 -0.080156773 -0.015007854 2.3509527e-38
0.016984301 -0.080156773 -0.015007854 2.3509524e-38
0.018781582 -0.080156773 -0.015007854 2.3509165e-38
0.020578871 -0.080156773 -0.015007854 2.3509165e-38
0.022376159 -0.080156773 -0.015007854 2.3509527e-38
0.024173448 -0.080156773 -0.015007854 2.3509527e-38
0.026190909 -0.080827907 -0.018033743 2.2864526e-38
0.027993495 -0.080827907 -0.018033743 2.323402e-38
0.029796088 -0.080827907 -0.018033743 2.2958514e-38
0.03159868 -0.080827907 -0.018033743 2.2497901e-38
0.033401273 -0.080827907 -0.018033743 2.2221678e-38
0.035443448 -0.081479684 -0.020972371 2.1761424e-38
0.037251197 -0.081479684 -0.020972371 1.9088867e-38
0.039058946 -0.081479684 -0.020972371 5.2602811e-39
-0.077729553 -0.10879262 -0.13506401 3.8675838e-43
-0.07555379 -0.10720618 -0.12796748 1.8732418e-40
-0.07355845 -0.10720618 -0.12796748 1.0160297e-39
-0.07148324 -0.10632066 -0.12400627 9.2349913e-40
-0.069494836 -0.10632066 -0.12400627 1.383771e-39
-0.067438811 -0.10541297 -0.119946 2.3979258e-39
-0.065399326 -0.10453986 -0.11604035 6.4656332e-40
-0.063240647 -0.10140768 -0.1020292 3.0436329e-39
-0.061084859 -0.097368345 -0.083960176 9.5887841e-39
-0.059127964 -0.096470937 -0.079945803 1.4474415e-38
-0.057216819 -0.096470937 -0.079945803 1.5764061e-38
-0.055330306 -0.097368345 -0.083960176 1.31815e-38
-0.053412125 -0.097368345 -0.083960176 1.3733235e-38
-0.051483385 -0.096470937 -0.079945803 1.4929982e-38
-0.049572241 -0.096470937 -0.079945803 1.4470797e-38
-0.047661096 -0.096470937 -0.079945803 1.475061e-38
-0.045749951 -0.096470937 -0.079945803 1.4107033e-38
-0.043838806 -0.096470937 -0.079945803 1.4567647e-38
-0.041927662 -0.096470937 -0.079945803 1.5121176e-38
-0.040016517 -0.096470937 -0.079945803 1.4659472e-38
-0.038105372 -0.096470937 -0.079945803 1.4290686e-38
-0.03634128 -0.093586475 -0.067042828 1.6319345e-38
-0.034505427 -0.092691094 -0.063037515 1.9268884e-38
-0.032623928 -0.092691094 -0.063037515 2.1666326e-38
-0.030793559 -0.092004895 -0.059967995 2.2127304e-38
-0.028917441 -0.092004895 -0.059967995 2.2680122e-38
-0.027041323 -0.092004895 -0.059967995 2.3325492e-38
-0.025165208 -0.092004895 -0.059967995 2.3509883e-38
-0.02328909 -0.092004895 -0.059967995 2.3509886e-38
-0.021412974 -0.092004895 -0.059967995 2.3509886e-38
-0.019536857 -0.092004895 -0.059967995 2.341769e-38
-0.017660741 -0.092004895 -0.059967995 2.3509886e-38
-0.015874812 -0.091347814 -0.057028651 2.3509883e-38
-0.014135001 -0.090443924 -0.052985311 2.3509883e-38
-0.012271127 -0.090443924 -0.052985311 2.3509883e-38
-0.010515532 -0.089770496 -0.049972892 2.3509883e-38
-0.0086569395 -0.089770496 -0.049972892 2.3509886e-38
-0.0069165137 -0.089100882 -0.04697752 2.3509886e-38
-0.0050631743 -0.089100882 -0.04697752 2.3509886e-38
-0.0035119448 -0.087528646 -0.03994453 2.3509886e-38
-0.0020725559 -0.085520551 -0.030961752 2.3509886e-38
-0.00038648956 -0.084850863 -0.027966022 2.3509886e-38
0.0012439173 -0.083971798 -0.024033785 2.3509886e-38
0.003057031 -0.083971798 -0.024033785 2.3509886e-38
0.0047117937 -0.083287418 -0.020972371 2.3509886e-38
0.0063623916 -0.0826305 -0.018033743 2.3509886e-38
0.0081649851 -0.0826305 -0.018033743 2.3509886e-38
0.0099675748 -0.0826305 -0.018033743 2.3509527e-38
0.011592438 -0.081954062 -0.015007854 2.3509527e-38
0.013389723 -0.081954062 -0.015007854 2.3509527e-38
0.015187012 -0.081954062 -0.015007854 2.3509527e-38
0.016984301 -0.081954062 -0.015007854 2.3509527e-38
0.018781582 -0.081954062 -0.015007854 2.3509527e-38
0.020578871 -0.081954062 -0.015007854 2.3509168e-38
0.022376159 -0.081954062 -0.015007854 2.3509168e-38
0.024173448 -0.081954062 -0.015007854 2.3416615e-38
0.026190909 -0.0826305 -0.018033743 2.2771614e-38
0.027993495 -0.0826305 -0.018033743 2.323402e-38
0.029796088 -0.0826305 -0.018033743 2.0468905e-38
0.031827964 -0.083287418 -0.020972371 1.1619937e-38
0.033635706 -0.083287418 -0.020972371 6.7346586e-39
0.035693057 -0.083971798 -0.024033785 5.9049092e-39
0.037251197 -0.083287418 -0.020972371 3.6011114e-39
0.039058946 -0.083287418 -0.020972371 4.8911482e-39
-0.077729553 -0.1108004 -0.13506401 5.0600888e-42
-0.07555379 -0.10920154 -0.12796748 4.6570473e-40
-0.07355845 -0.10920154 -0.12796748 2.8025689e-40
-0.07148324 -0.10830905 -0.12400627 4.6431324e-40
-0.069494836 -0.10830905 -0.12400627 1.5706776e-39
-0.067438811 -0.10739426 -0.119946 2.3078853e-39
-0.065399326 -0.10651429 -0.11604035 1.0175038e-39
-0.063240647 -0.10335754 -0.1020292 1.2940739e-39
-0.061084859 -0.099286526 -0.083960176 9.3150797e-39
-0.059166677 -0.099286526 -0.083960176 1.2080213e-38
-0.057248496 -0.099286526 -0.083960176 1.4292179e-38
-0.055330306 -0.099286526 -0.083960176 1.3830118e-38
-0.053412125 -0.099286526 -0.083960176 1.3644289e-38
-0.051483385 -0.098382086 -0.079945803 1.3642854e-38
-0.049572241 -0.098382086 -0.079945803 1.4289305e-38
-0.047661096 -0.098382086 -0.079945803 1.3093283e-38
-0.045749951 -0.098382086 -0.079945803 1.3463861e-38
-0.043821208 -0.099286526 -0.083960176 1.3187263e-38
-0.041903026 -0.099286526 -0.083960176 1.2356412e-38
-0.039984845 -0.099286526 -0.083960176 1.1526637e-38
-0.038105372 -0.098382086 -0.079945803 1.1618458e-38
-0.036194228 -0.098382086 -0.079945803 1.3646392e-38
-0.034230296 -0.099286526 -0.083960176 1.668848e-38
-0.03231211 -0.099286526 -0.083960176 2.1113504e-38
-0.030793559 -0.093881011 -0.059967995 2.2588634e-38
-0.028917441 -0.093881011 -0.059967995 2.3049256e-38
-0.027041323 -0.093881011 -0.059967995 2.3325846e-38
-0.025165208 -0.093881011 -0.059967995 2.3418047e-38
-0.02328909 -0.093881011 -0.059967995 2.3325856e-38
-0.021412974 -0.093881011 -0.059967995 2.2864883e-38
-0.019536857 -0.093881011 -0.059967995 2.341805e-38
-0.017660741 -0.093881011 -0.059967995 2.2865232e-38
-0.015784623 -0.093881011 -0.059967995 2.3141816e-38
-0.013908507 -0.093881011 -0.059967995 2.3418045e-38
-0.012132885 -0.093218774 -0.057028651 2.3418045e-38
-0.010407252 -0.092307791 -0.052985311 2.350988e-38
-0.0085433815 -0.092307791 -0.052985311 2.3417687e-38
-0.006679507 -0.092307791 -0.052985311 2.3509167e-38
-0.0049397517 -0.091629088 -0.049972892 2.3509167e-38
-0.0033377763 -0.090283155 -0.043999076 2.3416974e-38
-0.0019378383 -0.088024676 -0.033974886 2.3509168e-38
-0.00024729781 -0.087345809 -0.030961752 2.3509527e-38
0.0014335159 -0.086670861 -0.027966022 2.3509527e-38
0.0032535251 -0.086670861 -0.027966022 2.3508809e-38
0.0048701409 -0.085784912 -0.024033785 2.3324421e-38
0.0065195393 -0.085095167 -0.020972371 2.3324421e-38
0.0083272848 -0.085095167 -0.020972371 2.3325138e-38
0.0099675748 -0.084433094 -0.018033743 2.3142538e-38
0.011770168 -0.084433094 -0.018033743 2.2683355e-38
0.013572762 -0.084433094 -0.018033743 2.2958873e-38
0.015187012 -0.083751351 -0.015007854 2.3142544e-38
0.016984301 -0.083751351 -0.015007854 2.3142544e-38
0.018781582 -0.083751351 -0.015007854 2.3142185e-38
0.020578871 -0.083751351 -0.015007854 2.3509527e-38
0.022376159 -0.083751351 -0.015007854 2.3324421e-38
0.024173448 -0.083751351 -0.015007854 2.3139312e-38
0.026190909 -0.084433094 -0.018033743 2.3047838e-38
0.027993495 -0.084433094 -0.018033743 2.3417333e-38
0.029796088 -0.084433094 -0.018033743 1.1433736e-38
0.031827964 -0.085095167 -0.020972371 9.9597106e-39
0.033635706 -0.085095167 -0.020972371 6.4977229e-40
0.035693057 -0.085784912 -0.024033785 2.7720893e-39
0.037251197 -0.085095167 -0.020972371 3.6936924e-39
0.039058946 -0.085095167 -0.020972371 7.5648215e-39
-0.07555379 -0.11119686 -0.12796748 4.366446e-42
-0.073471636 -0.11029746 -0.12400627 1.8878013e-40
-0.07132262 -0.10848872 -0.11604035 1.0182059e-39
-0.069348186 -0.10848872 -0.11604035 4.3376227e-39
-0.067373753 -0.10848872 -0.11604035 4.3372682e-39
-0.065354533 -0.10780637 -0.11303508 1.8881936e-40
-0.063187703 -0.1043932 -0.098002911 4.7770265e-42
-0.061120071 -0.10190627 -0.087049961 8.7633436e-39
-0.059166677 -0.10120471 -0.083960176 1.3096524e-38
-0.057248496 -0.10120471 -0.083960176 1.6690708e-38
-0.055305675 -0.10029322 -0.079945803 1.7150244e-38
-0.05339453 -0.10029322 -0.079945803 1.6504158e-38
-0.051483385 -0.10029322 -0.079945803 1.5858076e-38
-0.049572241 -0.10029322 -0.079945803 1.6411614e-38
-0.047661096 -0.10029322 -0.079945803 1.438476e-38
-0.045749951 -0.10029322 -0.079945803 1.4294363e-38
-0.043821208 -0.10120471 -0.083960176 1.3832294e-38
-0.041903026 -0.10120471 -0.083960176 1.300252e-38
-0.039984845 -0.10120471 -0.083960176 1.2909229e-38
-0.038066663 -0.10120471 -0.083960176 1.2817376e-38
-0.036148477 -0.10120471 -0.083960176 1.4015545e-38
-0.034230296 -0.10120471 -0.083960176 1.6135674e-38
-0.03231211 -0.10120471 -0.083960176 1.8992651e-38
-0.030675715 -0.097363517 -0.067042828 2.2403887e-38
-0.028787194 -0.097363517 -0.067042828 2.3509876e-38
-0.027041323 -0.095757127 -0.059967995 2.3509879e-38
-0.025229627 -0.095089734 -0.057028651 2.2957428e-38
-0.023358665 -0.095089734 -0.057028651 2.3233662e-38
-0.021412974 -0.095757127 -0.059967995 2.341805e-38
-0.019344587 -0.097363517 -0.067042828 2.3325856e-38
-0.017456066 -0.097363517 -0.067042828 2.3234376e-38
-0.015567543 -0.097363517 -0.067042828 2.3234374e-38
-0.013679022 -0.097363517 -0.067042828 2.3418045e-38
-0.011790501 -0.097363517 -0.067042828 2.3326208e-38
-0.010156272 -0.095757127 -0.059967995 2.3509883e-38
-0.0082801562 -0.095757127 -0.059967995 2.3509883e-38
-0.006679507 -0.094171658 -0.052985311 2.3509527e-38
-0.0048156325 -0.094171658 -0.052985311 2.3509527e-38
-0.0033377763 -0.092131287 -0.043999076 2.3509527e-38
-0.0019378383 -0.089855224 -0.033974886 2.3509527e-38
-0.00010729767 -0.089855224 -0.033974886 2.3509527e-38
0.0015779603 -0.089171067 -0.030961752 2.3509527e-38
0.0032535251 -0.088490874 -0.027966022 2.3509168e-38
0.0048701409 -0.087598026 -0.024033785 2.3509168e-38
0.0066832546 -0.087598026 -0.024033785 2.3509168e-38
0.0083272848 -0.086902916 -0.020972371 2.3509527e-38
0.01013503 -0.086902916 -0.020972371 2.2866311e-38
0.011770168 -0.086235672 -0.018033743 2.295887e-38
0.013572762 -0.086235672 -0.018033743 2.2958873e-38
0.015375355 -0.086235672 -0.018033743 2.2682649e-38
0.017177941 -0.086235672 -0.018033743 2.2865961e-38
0.018980535 -0.086235672 -0.018033743 2.3234379e-38
0.020783128 -0.086235672 -0.018033743 2.3509527e-38
0.022585722 -0.086235672 -0.018033743 2.3508809e-38
0.024388315 -0.086235672 -0.018033743 2.3509165e-38
0.026190909 -0.086235672 -0.018033743 2.3507725e-38
0.027993495 -0.086235672 -0.018033743 2.1111731e-38
0.029796088 -0.086235672 -0.018033743 3.3194322e-39
0.031827964 -0.086902916 -0.020972371 3.6896819e-39
0.033879936 -0.087598026 -0.024033785 2.2163791e-39
0.03601364 -0.088490874 -0.027966022 3.7858881e-39
0.038083144 -0.089171067 -0.030961752 1.5735601e-39
-0.073471636 -0.11228584 -0.12400627 1.2029377e-39
-0.07132262 -0.11046316 -0.11604035 7.4126307e-40
-0.069348186 -0.11046316 -0.11604035 4.7982449e-39
-0.0673237 -0.10977553 -0.11303508 4.7982463e-39
-0.06529519 -0.10886435 -0.1090529 1.1868998e-42
-0.063187703 -0.10633601 -0.098002911 9.5288296e-44
-0.061120071 -0.10382988 -0.087049961 8.5789524e-39
-0.059166677 -0.1031229 -0.083960176 1.3557502e-38
-0.057216819 -0.10220437 -0.079945803 1.5860947e-38
-0.055305675 -0.10220437 -0.079945803 1.6874736e-38
-0.05339453 -0.10220437 -0.079945803 1.7518308e-38
-0.051475674 -0.10153329 -0.077012897 1.5765877e-38
-0.04956967 -0.10153329 -0.077012897 1.4106004e-38
-0.047663666 -0.10153329 -0.077012897 1.3831226e-38
-0.045757666 -0.10153329 -0.077012897 1.3923785e-38
-0.043821208 -0.1031229 -0.083960176 1.3555356e-38
-0.041903026 -0.1031229 -0.083960176 1.3739377e-38
-0.039960466 -0.10382988 -0.087049961 1.4844634e-38
-0.038036864 -0.10382988 -0.087049961 1.5213403e-38
-0.036148477 -0.1031229 -0.083960176 1.5858401e-38
-0.034230296 -0.1031229 -0.083960176 1.7056933e-38
-0.03231211 -0.1031229 -0.083960176 1.6779256e-38
-0.030393928 -0.1031229 -0.083960176 1.9176338e-38
-0.028971555 -0.096960694 -0.057028651 2.2772321e-38
-0.027100591 -0.096960694 -0.057028651 2.350988e-38
-0.025229627 -0.096960694 -0.057028651 2.3234012e-38
-0.023358665 -0.096960694 -0.057028651 2.3326206e-38
-0.021412974 -0.097633243 -0.059967995 2.3234372e-38
-0.019073633 -0.10153329 -0.077012897 2.2774113e-38
-0.01716763 -0.10153329 -0.077012897 2.341805e-38
-0.01526163 -0.10153329 -0.077012897 2.3325856e-38
-0.013355626 -0.10153329 -0.077012897 2.3141103e-38
-0.011449626 -0.10153329 -0.077012897 2.3141103e-38
-0.0096526612 -0.10083917 -0.073979259 2.3325494e-38
-0.0081644449 -0.098335579 -0.063037515 2.341769e-38
-0.0065199975 -0.096960694 -0.057028651 2.3417691e-38
-0.0046490338 -0.096960694 -0.057028651 2.3325497e-38
-0.0032098312 -0.094660893 -0.04697752 2.3416974e-38
-0.0019378383 -0.091685757 -0.033974886 2.3324778e-38
-0.00010729767 -0.091685757 -0.033974886 2.3140387e-38
0.0015779603 -0.090996325 -0.030961752 2.3140387e-38
0.0032535251 -0.090310872 -0.027966022 2.3325497e-38
0.0050735306 -0.090310872 -0.027966022 2.3509886e-38
0.0066832546 -0.089411139 -0.024033785 2.3417691e-38
0.0084963683 -0.089411139 -0.024033785 2.332478e-38
0.01013503 -0.088710666 -0.020972371 2.3508809e-38
0.011942772 -0.088710666 -0.020972371 2.3509168e-38
0.013572762 -0.088038266 -0.018033743 2.3416974e-38
0.015375355 -0.088038266 -0.018033743 2.332478e-38
0.017177941 -0.088038266 -0.018033743 2.3416974e-38
0.018980535 -0.088038266 -0.018033743 2.3509527e-38
0.020783128 -0.088038266 -0.018033743 2.3508801e-38
0.022585722 -0.088038266 -0.018033743 2.3509511e-38
0.024388315 -0.088038266 -0.018033743 2.350986e-38
0.026190909 -0.088038266 -0.018033743 2.304708e-38
0.027993495 -0.088038266 -0.018033743 2.2770867e-38
0.029796088 -0.088038266 -0.018033743 6.6377322e-39
0.031827964 -0.088710666 -0.020972371 5.0725911e-39
0.033879936 -0.089411139 -0.024033785 3.5982094e-39
0.036257885 -0.090996325 -0.030961752 4.3368814e-39
0.038083144 -0.090996325 -0.030961752 3.9688346e-39
-0.073471636 -0.11427425 -0.12400627 7.4088331e-40
-0.07132262 -0.11243759 -0.11604035 7.40547e-40
-0.069348186 -0.11243759 -0.11604035 5.9960678e-39
-0.0673237 -0.11174469 -0.11303508 6.7343546e-39
-0.065085337 -0.10758002 -0.094972134 1.01858e-39
-0.06309557 -0.10666345 -0.090996742 5.5830674e-40
-0.061084859 -0.10504107 -0.083960176 7.3804092e-39
-0.059127964 -0.1041155 -0.079945803 6.8272214e-39
-0.057138644 -0.10183108 -0.070037723 2.3092684e-39
-0.05524487 -0.10183108 -0.070037723 4.5205216e-39
-0.053381674 -0.10343929 -0.077012897 1.1802897e-38
-0.051457327 -0.10183108 -0.070037723 1.5858073e-38
-0.049563557 -0.10183108 -0.070037723 1.6134305e-38
-0.047663666 -0.10343929 -0.077012897 1.539747e-38
-0.045757666 -0.10343929 -0.077012897 1.5490748e-38
-0.043790367 -0.10666345 -0.090996742 1.539747e-38
-0.041859847 -0.10666345 -0.090996742 1.5582216e-38
-0.039929327 -0.10666345 -0.090996742 1.6687479e-38
-0.037998803 -0.10666345 -0.090996742 1.7148089e-38
-0.036113262 -0.10575347 -0.087049961 1.7332113e-38
-0.034189664 -0.10575347 -0.087049961 1.8161502e-38
-0.032266065 -0.10575347 -0.087049961 1.6225741e-38
-0.028971555 -0.098831654 -0.057028651 1.7700856e-38
-0.027100591 -0.098831654 -0.057028651 2.341805e-38
-0.025229627 -0.098831654 -0.057028651 2.3418047e-38
-0.023358665 -0.098831654 -0.057028651 2.3418043e-38
-0.021487702 -0.098831654 -0.057028651 2.3234369e-38
-0.01888483 -0.10504107 -0.083960176 2.3050698e-38
-0.017082782 -0.1041155 -0.079945803 2.3325856e-38
-0.015171638 -0.1041155 -0.079945803 2.3509527e-38
-0.013260493 -0.1041155 -0.079945803 2.3509527e-38
-0.011349348 -0.1041155 -0.079945803 2.3509527e-38
-0.0094382036 -0.1041155 -0.079945803 2.3509527e-38
-0.0077519771 -0.10273984 -0.073979259 2.3509527e-38
-0.0062829461 -0.10021709 -0.063037515 2.3509886e-38
-0.0044014473 -0.10021709 -0.063037515 2.3509886e-38
-0.0032098312 -0.09651424 -0.04697752 2.3509886e-38
-0.0013564918 -0.09651424 -0.04697752 2.3509886e-38
3.3510849e-05 -0.094215035 -0.037005424 2.3509527e-38
0.0017232429 -0.093516305 -0.033974886 2.3509886e-38
0.0034032222 -0.092821583 -0.030961752 2.3509886e-38
0.0050735306 -0.092130885 -0.027966022 2.3509883e-38
0.0068935361 -0.092130885 -0.027966022 2.3509883e-38
0.0087135453 -0.092130885 -0.027966022 2.3509527e-38
0.010309478 -0.091224253 -0.024033785 2.3508092e-38
0.011942772 -0.0905184 -0.020972371 2.3507733e-38
0.013750518 -0.0905184 -0.020972371 2.2862374e-38
0.015375355 -0.089840859 -0.018033743 2.3508809e-38
0.017177941 -0.089840859 -0.018033743 2.3509168e-38
0.018980535 -0.089840859 -0.018033743 2.3509527e-38
0.020783128 -0.089840859 -0.018033743 2.2771958e-38
0.022585722 -0.089840859 -0.018033743 2.3509873e-38
0.024388315 -0.089840859 -0.018033743 2.3509869e-38
0.026190909 -0.089840859 -0.018033743 2.3508788e-38
0.027993495 -0.089840859 -0.018033743 2.3509879e-38
0.029796088 -0.089840859 -0.018033743 1.4290337e-38
0.03159868 -0.089840859 -0.018033743 8.5756747e-39
0.034193635 -0.092130885 -0.027966022 1.108933e-39
0.036503546 -0.093516305 -0.033974886 1.0171213e-39
0.038334094 -0.093516305 -0.033974886 3.3234708e-39
-0.073471636 -0.11626263 -0.12400627 4.6429923e-40
-0.07132262 -0.11441202 -0.11604035 4.6396011e-40
-0.06909024 -0.11115701 -0.1020292 6.5492416e-39
-0.067073315 -0.11022164 -0.098002911 8.2094832e-39
-0.065085337 -0.10951753 -0.094972134 1.9405335e-39
-0.06309557 -0.10859399 -0.090996742 1.2958718e-39
-0.061039105 -0.10602666 -0.079945803 7.3800533e-39
-0.059070423 -0.10464053 -0.073979259 6.9190611e-39
-0.057115015 -0.10302909 -0.067042828 6.4939394e-40
-0.055226494 -0.10302909 -0.067042828 1.9386908e-39
-0.053337969 -0.10302909 -0.067042828 8.3913059e-39
-0.051457327 -0.10372485 -0.070037723 1.281598e-38
-0.049563557 -0.10372485 -0.070037723 1.4291112e-38
-0.047669783 -0.10372485 -0.070037723 1.5305266e-38
-0.04571043 -0.10951753 -0.094972134 1.5950999e-38
-0.043772943 -0.10951753 -0.094972134 1.5858084e-38
-0.04183545 -0.10951753 -0.094972134 1.5765526e-38
-0.039929327 -0.10859399 -0.090996742 1.6410895e-38
-0.037998803 -0.10859399 -0.090996742 1.7332128e-38
-0.036113262 -0.10767709 -0.087049961 1.834556e-38
-0.034189664 -0.10767709 -0.087049961 1.9912157e-38
-0.032266065 -0.10767709 -0.087049961 1.7515781e-38
-0.031542443 -0.09094049 -0.015007854 1.1984395e-38
-0.028971555 -0.10070263 -0.057028651 1.4105242e-38
-0.027100591 -0.10070263 -0.057028651 2.1112459e-38
-0.026150584 -0.09094049 -0.015007854 2.3141467e-38
-0.024353297 -0.09094049 -0.015007854 2.2497173e-38
-0.022556011 -0.09094049 -0.015007854 2.3234374e-38
-0.01888483 -0.10695927 -0.083960176 2.3418045e-38
-0.016966647 -0.10695927 -0.083960176 2.314075e-38
-0.01495366 -0.10767709 -0.087049961 2.3508809e-38
-0.013130279 -0.10695927 -0.083960176 2.3509168e-38
-0.011349348 -0.10602666 -0.079945803 2.3509168e-38
-0.0094382036 -0.10602666 -0.079945803 2.3325138e-38
-0.0076376181 -0.10534529 -0.077012897 2.3232944e-38
-0.0060067866 -0.10372485 -0.070037723 2.3417333e-38
-0.0041130167 -0.10372485 -0.070037723 2.3509886e-38
-0.0025199484 -0.10209858 -0.063037515 2.3325497e-38
-0.0010878835 -0.099763289 -0.052985311 2.341805e-38
3.3510849e-05 -0.096050888 -0.037005424 2.3509886e-38
0.0017232429 -0.095346853 -0.033974886 2.3418047e-38
0.0034032222 -0.094646841 -0.030961752 2.3049624e-38
0.0052284803 -0.094646841 -0.030961752 2.3234012e-38
0.0068935361 -0.093950883 -0.027966022 2.3418045e-38
0.0087135453 -0.093950883 -0.027966022 2.350988e-38
0.010309478 -0.093037367 -0.024033785 2.3509165e-38
0.012122592 -0.093037367 -0.024033785 2.3509168e-38
0.013750518 -0.092326149 -0.020972371 2.3508809e-38
0.015375355 -0.091643453 -0.018033743 2.3417691e-38
0.017177941 -0.091643453 -0.018033743 2.323402e-38
0.018980535 -0.091643453 -0.018033743 2.2958873e-38
0.020783128 -0.091643453 -0.018033743 2.2589378e-38
0.022585722 -0.091643453 -0.018033743 2.2681572e-38
0.024388315 -0.091643453 -0.018033743 2.3142544e-38
0.026190909 -0.091643453 -0.018033743 2.3141826e-38
0.027768018 -0.09094049 -0.015007854 2.1390136e-38
0.029565306 -0.09094049 -0.015007854 1.4014509e-38
0.03159868 -0.091643453 -0.018033743 8.5760727e-39
0.033401273 -0.091643453 -0.018033743 1.7543388e-39
0.035693057 -0.093037367 -0.024033785 2.2153394e-39
0.037506171 -0.093037367 -0.024033785 2.4011768e-39
-0.073471636 -0.11825104 -0.12400627 2.9535784e-39
-0.07109952 -0.11379658 -0.10497582 1.5344218e-42
-0.06909024 -0.11310686 -0.1020292 3.5993318e-39
-0.067073315 -0.11216442 -0.098002911 7.1956844e-39
-0.06502609 -0.11052449 -0.090996742 2.7702914e-39
-0.063043669 -0.10960068 -0.087049961 2.7710019e-39
-0.061039105 -0.1079378 -0.079945803 5.7216137e-39
-0.059070423 -0.1065412 -0.073979259 5.4439366e-39
-0.057115015 -0.1049176 -0.067042828 2.2294659e-42
-0.055201914 -0.10398008 -0.063037515 6.4459729e-44
-0.053320415 -0.10398008 -0.063037515 1.5695566e-39
-0.051438916 -0.10398008 -0.063037515 5.6250881e-39
-0.049540728 -0.099523753 -0.043999076 1.0050115e-38
-0.047645263 -0.11216442 -0.098002911 1.4383306e-38
-0.045702461 -0.11216442 -0.098002911 1.5950269e-38
-0.043772943 -0.11145501 -0.094972134 1.641125e-38
-0.04183545 -0.11145501 -0.094972134 1.5949914e-38
-0.039929327 -0.11052449 -0.090996742 1.6317976e-38
-0.037998803 -0.11052449 -0.090996742 1.7423605e-38
-0.036068283 -0.11052449 -0.090996742 1.9175322e-38
-0.034137763 -0.11052449 -0.090996742 2.1479101e-38
-0.033339731 -0.092737779 -0.015007854 1.8805809e-38
-0.031542443 -0.092737779 -0.015007854 1.3735404e-38
-0.02980054 -0.09203364 -0.011999607 1.4289286e-38
-0.028008526 -0.09203364 -0.011999607 1.8715026e-38
-0.026150584 -0.092737779 -0.015007854 1.9822802e-38
-0.024353297 -0.092737779 -0.015007854 2.0837305e-38
-0.022556011 -0.092737779 -0.015007854 2.2958155e-38
-0.020758724 -0.092737779 -0.015007854 2.341805e-38
-0.016877258 -0.10960068 -0.087049961 2.3509527e-38
-0.01495366 -0.10960068 -0.087049961 2.3509168e-38
-0.013130279 -0.10887744 -0.083960176 2.3509168e-38
-0.011349348 -0.1079378 -0.079945803 2.3508809e-38
-0.0094382036 -0.1079378 -0.079945803 2.3232944e-38
-0.0076376181 -0.1072513 -0.077012897 2.3232944e-38
-0.005851293 -0.1065412 -0.073979259 2.3509527e-38
-0.0041130167 -0.10561861 -0.070037723 2.341805e-38
-0.0023478922 -0.1049176 -0.067042828 2.3141467e-38
-0.00063844956 -0.10398008 -0.063037515 2.341805e-38
-0.00010729767 -0.097177386 -0.033974886 2.341805e-38
0.0015779603 -0.096472099 -0.030961752 2.341805e-38
0.0034032222 -0.096472099 -0.030961752 2.3234018e-38
0.0052284803 -0.096472099 -0.030961752 2.3418047e-38
0.0068935361 -0.095770895 -0.027966022 2.3418047e-38
0.0087135453 -0.095770895 -0.027966022 2.3325492e-38
0.010309478 -0.094850481 -0.024033785 2.3416971e-38
0.012122592 -0.094850481 -0.024033785 2.3509527e-38
0.013750518 -0.094133899 -0.020972371 2.1021342e-38
0.01555826 -0.094133899 -0.020972371 1.7703392e-38
0.017177941 -0.093446046 -0.018033743 1.2265301e-38
0.018781582 -0.092737779 -0.015007854 1.226675e-38
0.020578871 -0.092737779 -0.015007854 9.7778333e-39
0.0219607 -0.091333628 -0.0090090036 7.1038069e-39
0.023747468 -0.091333628 -0.0090090036 3.5996555e-39
0.025534237 -0.091333628 -0.0090090036 3.5071039e-39
0.027543852 -0.09203364 -0.011999607 1.8472309e-39
0.029335866 -0.09203364 -0.011999607 1.6628536e-39
0.030894542 -0.091333628 -0.0090090036 1.9394573e-39
0.032681309 -0.091333628 -0.0090090036 2.8067308e-40
0.035443448 -0.094133899 -0.020972371 2.4944626e-39
0.037251197 -0.094133899 -0.020972371 1.8498121e-39
-0.073054552 -0.11575161 -0.10497582 4.7049241e-39
-0.07109952 -0.11575161 -0.10497582 2.9637463e-42
-0.06909024 -0.11505674 -0.1020292 3.7283648e-40
-0.067073315 -0.11410724 -0.098002911 5.6287104e-39
-0.06502609 -0.11245503 -0.090996742 5.2599279e-39
-0.063043669 -0.11152427 -0.087049961 3.7851538e-39
-0.061039105 -0.10984896 -0.079945803 3.6929525e-39
-0.059070423 -0.1084419 -0.073979259 3.2305311e-39
-0.057115015 -0.10680611 -0.067042828 7.9733883e-43
-0.055201914 -0.10586159 -0.063037515 2.5980074e-42
-0.05326315 -0.10278064 -0.049972892 1.8819438e-42
-0.051396679 -0.10207425 -0.04697752 1.936914e-39
-0.049540728 -0.10137187 -0.043999076 6.3619385e-39
-0.047692612 -0.10137187 -0.043999076 1.2539027e-38
-0.045844492 -0.10137187 -0.043999076 1.5396723e-38
-0.043772943 -0.11339252 -0.094972134 1.7240279e-38
-0.04183545 -0.11339252 -0.094972134 1.7424673e-38
-0.03989796 -0.11339252 -0.094972134 1.7516152e-38
-0.038876902 -0.090981558 6.0677528e-05 1.7884938e-38
-0.037106037 -0.090981558 6.0677528e-05 1.9175676e-38
-0.035335168 -0.090981558 6.0677528e-05 2.1019565e-38
-0.033339731 -0.094535068 -0.015007854 1.8530301e-38
-0.031691886 -0.092419267 -0.006035924 1.4842832e-38
-0.02991033 -0.092419267 -0.006035924 1.4842828e-38
-0.028128775 -0.092419267 -0.006035924 1.7240266e-38
-0.026216514 -0.093825653 -0.011999607 1.7885989e-38
-0.024424503 -0.093825653 -0.011999607 1.9084885e-38
-0.022632491 -0.093825653 -0.011999607 2.1113906e-38
-0.016877258 -0.11152427 -0.087049961 2.3508451e-38
-0.01495366 -0.11152427 -0.087049961 2.3507733e-38
-0.013130279 -0.11079563 -0.083960176 2.3324421e-38
-0.011212097 -0.11079563 -0.083960176 2.3509168e-38
-0.0094382036 -0.10984896 -0.079945803 2.3509527e-38
-0.0075270589 -0.10984896 -0.079945803 2.3509527e-38
-0.005731618 -0.10915731 -0.077012897 2.3417691e-38
-0.0041130167 -0.1075124 -0.070037723 2.3142185e-38
-0.002219243 -0.1075124 -0.070037723 2.2681212e-38
-0.00045937113 -0.10680611 -0.067042828 2.3049991e-38
-0.00024729781 -0.098297372 -0.030961752 2.3049991e-38
0.0015779603 -0.098297372 -0.030961752 2.2865602e-38
0.0032535251 -0.097590908 -0.027966022 2.341805e-38
0.0050735306 -0.097590908 -0.027966022 2.341805e-38
0.0068935361 -0.097590908 -0.027966022 2.341805e-38
0.0084963683 -0.096663594 -0.024033785 2.2772332e-38
0.010309478 -0.096663594 -0.024033785 2.323402e-38
0.012122592 -0.096663594 -0.024033785 2.2405349e-38
0.013572762 -0.09524864 -0.018033743 1.8626449e-38
0.015375355 -0.09524864 -0.018033743 1.3742257e-38
0.017177941 -0.09524864 -0.018033743 4.5241552e-39
0.018781582 -0.094535068 -0.015007854 3.4192663e-39
0.020578871 -0.094535068 -0.015007854 1.4831693e-39
0.0219607 -0.093120396 -0.0090090036 4.4449187e-42
0.023747468 -0.093120396 -0.0090090036 6.9700586e-42
0.025534237 -0.093120396 -0.0090090036 3.3687215e-42
0.027321005 -0.093120396 -0.0090090036 8.4498297e-43
0.029107774 -0.093120396 -0.0090090036 9.916709e-41
0.030894542 -0.093120396 -0.0090090036 9.2964943e-40
0.032681309 -0.093120396 -0.0090090036 1.0225667e-39
0.035203867 -0.09524864 -0.018033743 1.2073237e-39
0.03700646 -0.09524864 -0.018033743 2.8536462e-40
-0.078033052 -0.12769108 -0.14700198 1.8533869e-38
-0.076004341 -0.12769108 -0.14700198 1.8626079e-38
-0.073975623 -0.12769108 -0.14700198 3.7833167e-39
-0.07095892 -0.11605005 -0.098002911 8.3343067e-40
-0.069016114 -0.11605005 -0.098002911 7.4268819e-44
-0.067140378 -0.11700659 -0.1020292 3.1386998e-39
-0.065085337 -0.11533 -0.094972134 4.4305204e-39
-0.063043669 -0.11344786 -0.087049961 5.2602811e-39
-0.061039105 -0.11176009 -0.079945803 3.32417e-39
-0.059070423 -0.11034258 -0.073979259 1.8479609e-39
-0.057115015 -0.10869466 -0.067042828 8.1275311e-44
-0.055140227 -0.10535492 -0.052985311 3.7175187e-40
-0.053250019 -0.1039276 -0.04697752 1.5330205e-42
-0.051388845 -0.10322 -0.043999076 8.9683102e-44
-0.049537174 -0.10225673 -0.03994453 3.688722e-40
-0.04769874 -0.10155846 -0.037005424 4.7020472e-39
-0.045862883 -0.10155846 -0.037005424 9.3114573e-39
-0.04402703 -0.10155846 -0.037005424 1.3644652e-38
-0.041816853 -0.11605005 -0.098002911 1.6041738e-38
-0.040670812 -0.092058569 0.0029811859 1.7332477e-38
-0.038905066 -0.092058569 0.0029811859 1.8162235e-38
-0.037139319 -0.092058569 0.0029811859 1.9452614e-38
-0.035373572 -0.092058569 0.0029811859 2.0836253e-38
-0.033607826 -0.092058569 0.0029811859 1.7700893e-38
-0.031691886 -0.094200835 -0.006035924 1.4382206e-38
-0.02991033 -0.094200835 -0.006035924 1.4382203e-38
-0.028128775 -0.094200835 -0.006035924 1.7055875e-38
-0.026282059 -0.094907165 -0.0090090036 1.7885636e-38
-0.024424503 -0.095617667 -0.011999607 1.8254774e-38
-0.016877258 -0.11344786 -0.087049961 1.9912835e-38
-0.01495366 -0.11344786 -0.087049961 2.0096501e-38
-0.013130279 -0.1127138 -0.083960176 2.0374166e-38
-0.011212097 -0.1127138 -0.083960176 2.1481233e-38
-0.0094382036 -0.11176009 -0.079945803 2.258758e-38
-0.0075270589 -0.11176009 -0.079945803 2.2587941e-38
-0.005731618 -0.11106332 -0.077012897 2.1206088e-38
-0.0038256142 -0.11106332 -0.077012897 2.0007545e-38
-0.0019196142 -0.11106332 -0.077012897 2.009974e-38
-0.0020725559 -0.10012263 -0.030961752 2.0099384e-38
-0.00024729781 -0.10012263 -0.030961752 1.9914993e-38
0.0014335159 -0.099410906 -0.027966022 2.0007189e-38
0.0032535251 -0.099410906 -0.027966022 2.1204654e-38
0.00098979287 -0.080653399 0.050987482 2.2034415e-38
0.002511153 -0.07994163 0.05398345 2.129685e-38
0.004187474 -0.07994163 0.05398345 1.9730606e-38
0.010309478 -0.098476708 -0.024033785 1.7518997e-38
0.011592438 -0.096332356 -0.015007854 1.5215915e-38
0.013207754 -0.095617667 -0.011999607 1.3834441e-38
0.014999771 -0.095617667 -0.011999607 1.3283092e-38
0.016791778 -0.095617667 -0.011999607 5.8170716e-39
0.018583791 -0.095617667 -0.011999607 6.1869555e-39
0.020375805 -0.095617667 -0.011999607 7.8464965e-39
0.021754796 -0.094200835 -0.006035924 9.0454096e-39
0.023536349 -0.094200835 -0.006035924 1.2999047e-39
0.025317902 -0.094200835 -0.006035924 3.7830434e-40
0.027099462 -0.094200835 -0.006035924 8.4400207e-42
0.028193282 -0.092058569 0.0029811859 7.3540143e-42
0.029959025 -0.092058569 0.0029811859 8.3855242e-40
0.031724773 -0.092058569 0.0029811859 5.0799073e-39
0.035203867 -0.097051233 -0.018033743 3.7902447e-39
0.03700646 -0.097051233 -0.018033743 2.0378033e-39
0.06439168 -0.086580619 0.026038826 4.0603338e-39
0.066116996 -0.086580619 0.026038826 2.9528932e-39
-0.077932306 -0.12877132 -0.14303899 1.8441304e-38
-0.075910538 -0.12877132 -0.14303899 2.0009359e-38
-0.073888764 -0.12877132 -0.14303899 1.0421745e-38
-0.07095892 -0.11799283 -0.098002911 5.2588027e-39
-0.069016114 -0.11799283 -0.098002911 2.0330487e-39
-0.067140378 -0.11895646 -0.1020292 1.2032978e-39
-0.065085337 -0.11726747 -0.094972134 4.6152634e-39
-0.063043669 -0.11537148 -0.087049961 6.4591788e-39
-0.061039105 -0.11367123 -0.079945803 3.0475859e-39
-0.059070423 -0.11224325 -0.073979259 2.8064085e-40
-0.057115015 -0.11058317 -0.067042828 9.6689594e-44
-0.055103362 -0.10578094 -0.04697752 1.0089349e-43
-0.053236961 -0.1050681 -0.043999076 1.8557956e-40
-0.051378183 -0.10409774 -0.03994453 6.4584445e-40
-0.049534597 -0.10339431 -0.037005424 2.7633325e-40
-0.047701396 -0.10266902 -0.033974886 9.2132431e-40
-0.045870855 -0.10266902 -0.033974886 3.3180393e-39
-0.044040315 -0.10266902 -0.033974886 7.6515871e-39
-0.042436555 -0.093824327 0.0029811859 1.087843e-38
-0.040670812 -0.093824327 0.0029811859 1.7885651e-38
-0.038905066 -0.093824327 0.0029811859 1.9270016e-38
-0.037139319 -0.093824327 0.0029811859 1.9638073e-38
-0.035373572 -0.093824327 0.0029811859 2.0376713e-38
-0.033607826 -0.093824327 0.0029811859 1.9361835e-38
-0.031842083 -0.093824327 0.0029811859 1.475205e-38
-0.030076336 -0.093824327 0.0029811859 1.5674007e-38
-0.028310589 -0.093824327 0.0029811859 1.6227183e-38
-0.026414229 -0.095250636 -0.0029784441 1.862427e-38
-0.024424503 -0.09740968 -0.011999607 1.8716468e-38
-0.015048465 -0.114632 -0.083960176 1.8898313e-38
-0.013130279 -0.114632 -0.083960176 1.9083425e-38
-0.011212097 -0.114632 -0.083960176 2.0098298e-38
-0.0094382036 -0.11367123 -0.079945803 2.0375245e-38
-0.0075270589 -0.11367123 -0.079945803 2.1021697e-38
-0.0056159142 -0.11367123 -0.079945803 2.0744754e-38
-0.0037047695 -0.11367123 -0.079945803 1.871717e-38
-0.0017936248 -0.11367123 -0.079945803 1.8440227e-38
-0.002206495 -0.10123092 -0.027966022 1.8348035e-38
-0.00038648956 -0.10123092 -0.027966022 1.8808297e-38
0.0014335159 -0.10123092 -0.027966022 1.8992689e-38
0.0032535251 -0.10123092 -0.027966022 1.9636983e-38
0.00083483197 -0.081617951 0.05398345 2.0374548e-38
0.0024000797 -0.081120849 0.056060493 2.2955285e-38
0.0040727612 -0.081120849 0.056060493 1.9452588e-38
0.0057454389 -0.081120849 0.056060493 1.7703739e-38
0.011240086 -0.096693933 -0.0090090036 1.5124425e-38
0.013026854 -0.096693933 -0.0090090036 1.5217722e-38
0.014813626 -0.096693933 -0.0090090036 1.3744775e-38
0.016791778 -0.09740968 -0.011999607 1.0704868e-38
0.018583791 -0.09740968 -0.011999607 7.9401032e-39
0.020375805 -0.09740968 -0.011999607 6.8334179e-39
0.021754796 -0.095982388 -0.006035924 9.5993037e-39
0.023536349 -0.095982388 -0.006035924 7.385538e-39
0.025317902 -0.095982388 -0.006035924 3.6969953e-39
0.027099462 -0.095982388 -0.006035924 7.3708299e-42
0.028193282 -0.093824327 0.0029811859 1.390664e-39
0.029959025 -0.093824327 0.0029811859 2.5892016e-39
0.031724773 -0.093824327 0.0029811859 4.2497963e-39
0.035203867 -0.098853827 -0.018033743 2.9601337e-39
0.03700646 -0.098853827 -0.018033743 3.3274743e-39
0.062666364 -0.088305935 0.026038826 2.8635969e-39
0.06439168 -0.088305935 0.026038826 3.8763026e-39
0.066116996 -0.088305935 0.026038826 3.9670563e-39
0.067842312 -0.088305935 0.026038826 3.3198821e-39
0.069567628 -0.088305935 0.026038826 2.4883151e-39
0.071292944 -0.088305935 0.026038826 2.3943076e-39
-0.077932306 -0.13079311 -0.14303899 1.9179576e-38
-0.075814277 -0.12981267 -0.13897228 2.0931662e-38
-0.07379964 -0.12981267 -0.13897228 2.1024946e-38
-0.071262017 -0.12355967 -0.11303508 1.7613723e-38
-0.069144487 -0.12161671 -0.10497582 7.288903e-39
-0.067140378 -0.12090631 -0.1020292 4.8918306e-39
-0.065085337 -0.11920498 -0.094972134 5.0765904e-39
-0.06309557 -0.11824657 -0.090996742 7.1045426e-39
-0.061005682 -0.1148753 -0.077012897 2.7709962e-39
-0.059032418 -0.11319371 -0.070037723 5.5687181e-40
-0.057115015 -0.11247168 -0.067042828 1.2022454e-39
-0.055103362 -0.10763429 -0.04697752 1.3855675e-39
-0.053236961 -0.10691623 -0.043999076 7.3948061e-40
-0.051378183 -0.10593875 -0.03994453 8.3060285e-40
-0.049534597 -0.10523017 -0.037005424 1.1990196e-39
-0.047701396 -0.10449956 -0.033974886 1.9347756e-39
-0.045870855 -0.10449956 -0.033974886 1.4741464e-39
-0.044040315 -0.10449956 -0.033974886 1.5666937e-39
-0.042436555 -0.09559007 0.0029811859 3.7800965e-39
-0.040670812 -0.09559007 0.0029811859 7.8370531e-39
-0.038905066 -0.09559007 0.0029811859 2.2036213e-38
-0.037139319 -0.09559007 0.0029811859 2.2866678e-38
-0.035373572 -0.09559007 0.0029811859 2.2221678e-38
-0.033652589 -0.094865978 0.005984664 2.2406425e-38
-0.03189211 -0.094865978 0.005984664 2.2406066e-38
-0.030131629 -0.094865978 0.005984664 2.2129483e-38
-0.02837115 -0.094865978 0.005984664 2.1851822e-38
-0.026414229 -0.09702684 -0.0029784441 2.1206096e-38
-0.015048465 -0.11655019 -0.083960176 1.9728794e-38
-0.013130279 -0.11655019 -0.083960176 2.0098298e-38
-0.011212097 -0.11655019 -0.083960176 2.1297205e-38
-0.0094382036 -0.11558239 -0.079945803 2.1758906e-38
-0.0075270589 -0.11558239 -0.079945803 2.2312796e-38
-0.0054575484 -0.11655019 -0.083960176 2.1851466e-38
-0.0035393629 -0.11655019 -0.083960176 1.991536e-38
-0.0040549319 -0.084016547 0.050987482 1.8070383e-38
-0.0023733582 -0.084016547 0.050987482 1.9176374e-38
-0.00084149279 -0.083294272 0.05398345 1.9636275e-38
0.00083483197 -0.083294272 0.05398345 1.8805798e-38
0.0024000797 -0.082793534 0.056060493 2.0649712e-38
0.0040727612 -0.082793534 0.056060493 1.8344817e-38
0.0057454389 -0.082793534 0.056060493 1.7978184e-38
0.011240086 -0.098480701 -0.0090090036 1.5951322e-38
0.013026854 -0.098480701 -0.0090090036 1.5953494e-38
0.014813626 -0.098480701 -0.0090090036 1.4479819e-38
0.016791778 -0.099201679 -0.011999607 1.1439543e-38
0.018387163 -0.098480701 -0.0090090036 1.0150263e-38
0.020173931 -0.098480701 -0.0090090036 1.2455891e-38
0.021754796 -0.097763941 -0.006035924 1.8263783e-38
0.023536349 -0.097763941 -0.006035924 1.8170512e-38
0.025317902 -0.097763941 -0.006035924 1.1808026e-38
0.027099462 -0.097763941 -0.006035924 3.6944477e-39
0.028881015 -0.097763941 -0.006035924 1.112247e-39
0.027691612 -0.088584006 0.032041907 5.8966639e-42
0.029885309 -0.090031251 0.026038826 8.3673213e-40
0.03161063 -0.090031251 0.026038826 9.9883153e-41
0.056937449 -0.092695728 0.014986753 6.3652371e-39
0.058355443 -0.091965273 0.018016636 7.2871934e-39
0.05976481 -0.091239244 0.021028161 7.3793891e-39
0.061272942 -0.090749919 0.023057818 6.7350916e-39
0.062666364 -0.090031251 0.026038826 8.6722606e-39
0.06439168 -0.090031251 0.026038826 9.6856881e-39
0.066116996 -0.090031251 0.026038826 1.1158669e-38
0.067842312 -0.090031251 0.026038826 1.1249429e-38
0.069567628 -0.090031251 0.026038826 1.226106e-38
0.071292944 -0.090031251 0.026038826 1.1983023e-38
0.073018275 -0.090031251 0.026038826 1.1244001e-38
0.074743591 -0.090031251 0.026038826 9.584817e-39
-0.080061771 -0.13377722 -0.14700198 7.8373474e-39
-0.077932306 -0.13281487 -0.14303899 1.7703719e-38
-0.075721771 -0.13087825 -0.13506401 2.2314228e-38
-0.073626079 -0.12990431 -0.13105333 2.2775202e-38
-0.071262017 -0.12552883 -0.11303508 2.1946889e-38
-0.069219545 -0.1245618 -0.1090529 1.401917e-38
-0.067140378 -0.12285618 -0.1020292 6.4591423e-39
-0.065085337 -0.12114246 -0.094972134 3.0489942e-39
-0.06309557 -0.12017711 -0.090996742 7.1970927e-39
-0.061005682 -0.11678131 -0.077012897 3.0483006e-39
-0.059032418 -0.11508749 -0.070037723 1.1111246e-39
-0.057115015 -0.1143602 -0.067042828 2.4004327e-39
-0.055121742 -0.11021499 -0.049972892 2.7685033e-39
-0.053236961 -0.10876434 -0.043999076 1.9376707e-39
-0.051378183 -0.10777976 -0.03994453 1.4766953e-39
-0.049531937 -0.10633011 -0.033974886 1.8443988e-39
-0.047704041 -0.10559841 -0.030961752 3.1329797e-39
-0.045878779 -0.10559841 -0.030961752 2.5801562e-39
-0.044053517 -0.10559841 -0.030961752 1.3819647e-39
-0.042399988 -0.098803028 -0.0029784441 2.4890144e-39
-0.040647767 -0.098065019 6.0677528e-05 4.425826e-39
-0.038876902 -0.098065019 6.0677528e-05 2.1206824e-38
-0.037139319 -0.097355813 0.0029811859 2.1852901e-38
-0.035373572 -0.097355813 0.0029811859 2.2314589e-38
-0.033652589 -0.096626461 0.005984664 2.2407501e-38
-0.03189211 -0.096626461 0.005984664 2.2867037e-38
-0.030131629 -0.096626461 0.005984664 2.2867037e-38
-0.02837115 -0.096626461 0.005984664 2.2958873e-38
-0.02485019 -0.096626461 0.005984664 2.2589736e-38
-0.014832558 -0.12017711 -0.090996742 2.2218445e-38
-0.012902038 -0.12017711 -0.090996742 2.1573437e-38
-0.011212097 -0.11846836 -0.083960176 2.1943298e-38
-0.009293912 -0.11846836 -0.083960176 2.2404631e-38
-0.0072592553 -0.11921866 -0.087049961 2.2774484e-38
-0.0053356569 -0.11921866 -0.087049961 2.2405349e-38
-0.0034120549 -0.11921866 -0.087049961 2.1114629e-38
-0.0023733582 -0.085698128 0.050987482 2.0189098e-38
-0.00069178455 -0.085698128 0.050987482 1.9911794e-38
0.00083483197 -0.084970593 0.05398345 1.7421796e-38
0.002511153 -0.084970593 0.05398345 1.8711459e-38
0.004187474 -0.084970593 0.05398345 1.7973896e-38
0.0058637951 -0.084970593 0.05398345 1.7604762e-38
0.011240086 -0.10026747 -0.0090090036 1.5853768e-38
0.013026854 -0.10026747 -0.0090090036 1.5948125e-38
