# .PCD v0.7 - Point Cloud Data file format
VERSION 0.7
FIELDS x y z rgb
SIZE 4 4 4 4
TYPE F F F F
COUNT 1 1 1 1
WIDTH 941
HEIGHT 1
VIEWPOINT 0 0 0 1 0 0 0
POINTS 941
DATA ascii
-0.066193193 -0.098065019 0.01615648 4.2483264e-39
-0.064467624 -0.098803028 0.013117358 4.1561279e-39
-0.062651455 -0.098065019 0.01615648 3.2341716e-39
-0.060880594 -0.098065019 0.01615648 2.6810007e-39
-0.059109725 -0.098065019 0.01615648 2.6810007e-39
-0.05733886 -0.098065019 0.01615648 3.2338185e-39
-0.055550072 -0.097355813 0.019076988 3.04943e-39
-0.053784326 -0.097355813 0.019076988 2.4040606e-39
-0.052018579 -0.097355813 0.019076988 2.6795699e-39
-0.050252832 -0.097355813 0.019076988 3.6000941e-39
-0.048481863 -0.098803028 0.013117358 4.6099356e-39
-0.046705671 -0.098803028 0.013117358 4.5155764e-39
-0.044929475 -0.098803028 0.013117358 4.9776111e-39
-0.043153279 -0.098803028 0.013117358 5.1627016e-39
-0.041377082 -0.098803028 0.013117358 6.6388911e-39
-0.039600886 -0.098803028 0.013117358 6.0871452e-39
-0.037859328 -0.098065019 0.01615648 5.8105555e-39
-0.036088463 -0.098065019 0.01615648 4.8886021e-39
-0.034317594 -0.098065019 0.01615648 5.2566769e-39
-0.032546729 -0.098065019 0.01615648 4.3350906e-39
-0.030775862 -0.098065019 0.01615648 5.0719479e-39
-0.029004995 -0.098065019 0.01615648 4.8875623e-39
-0.027234128 -0.098065019 0.01615648 3.965606e-39
-0.025391325 -0.098803028 0.013117358 3.5978969e-39
-0.023615131 -0.098803028 0.013117358 3.0450776e-39
-0.021755844 -0.099545494 0.010059878 3.2283899e-39
-0.019974288 -0.099545494 0.010059878 2.581224e-39
-0.018101506 -0.10026747 0.0070867985 3.1336817e-39
-0.016314737 -0.10026747 0.0070867985 2.2117226e-39
-0.014527969 -0.10026747 0.0070867985 1.4741576e-39
-0.012741201 -0.10026747 0.0070867985 1.475231e-39
-0.010954432 -0.10026747 0.0070867985 4.6107624e-40
-0.0091676638 -0.10026747 0.0070867985 9.2205439e-40
-0.0073808953 -0.10026747 0.0070867985 6.4537922e-39
-0.0054656602 -0.10099369 0.0040961951 8.9430742e-39
-0.0036736466 -0.10099369 0.0040961951 1.3277348e-38
-0.0017418638 -0.10172421 0.0010879487 1.4291503e-38
-0.00023382157 -0.10026747 0.0070867985 8.6672132e-39
0.0015529506 -0.10026747 0.0070867985 5.9013457e-39
0.003339719 -0.10026747 0.0070867985 1.568514e-39
0.0051264875 -0.10026747 0.0070867985 2.7705913e-40
0.0069132559 -0.10026747 0.0070867985 1.1911037e-42
0.0087000243 -0.10026747 0.0070867985 9.6689594e-44
0.010312162 -0.099545494 0.010059878 1.5456322e-42
0.012093719 -0.099545494 0.010059878 9.4465733e-41
0.013875276 -0.099545494 0.010059878 4.6943499e-43
0.015656829 -0.099545494 0.010059878 4.6943499e-43
0.017438389 -0.099545494 0.010059878 1.8666136e-40
0.019219942 -0.099545494 0.010059878 9.4109804e-41
0.021414526 -0.10099369 0.0040961951 1.0789998e-43
0.023206539 -0.10099369 0.0040961951 1.1210388e-43
0.024998546 -0.10099369 0.0040961951 1.1953076e-42
0.026790559 -0.10099369 0.0040961951 1.5582439e-42
0.028354481 -0.10026747 0.0070867985 1.1770907e-43
0.030141249 -0.10026747 0.0070867985 1.1350518e-43
0.0321666 -0.10099369 0.0040961951 1.1490647e-43
0.03395861 -0.10099369 0.0040961951 4.7784278e-43
0.035750624 -0.10099369 0.0040961951 4.8204667e-43
0.037288319 -0.10026747 0.0070867985 1.1995115e-42
0.039075088 -0.10026747 0.0070867985 1.9197789e-42
0.040861856 -0.10026747 0.0070867985 2.6400463e-42
0.042918678 -0.10099369 0.0040961951 2.2841165e-42
0.044710677 -0.10099369 0.0040961951 8.4498297e-43
0.046502691 -0.10099369 0.0040961951 1.2611686e-43
0.048294704 -0.10099369 0.0040961951 7.3768835e-40
0.050086718 -0.10099369 0.0040961951 1.567449e-39
0.052476492 -0.10245901 -0.0019379407 7.3660655e-40
0.054279085 -0.10245901 -0.0019379407 2.3042868e-39
0.056081679 -0.10245901 -0.0019379407 1.3826864e-39
0.057884272 -0.10245901 -0.0019379407 9.2278166e-40
0.059686866 -0.10245901 -0.0019379407 1.7525409e-39
0.061489459 -0.10245901 -0.0019379407 1.9380042e-39
0.063292056 -0.10245901 -0.0019379407 2.030197e-39
0.06509465 -0.10245901 -0.0019379407 4.3365297e-39
0.066897228 -0.10245901 -0.0019379407 5.6283587e-39
0.068699822 -0.10245901 -0.0019379407 5.5365302e-39
0.070502415 -0.10245901 -0.0019379407 5.7194978e-39
0.072305009 -0.10245901 -0.0019379407 3.7823162e-39
0.074460536 -0.10317262 -0.0048765689 7.6538137e-39
0.075910196 -0.10245901 -0.0019379407 9.4973606e-39
0.077712789 -0.10245901 -0.0019379407 1.0787728e-38
0.079515383 -0.10245901 -0.0019379407 2.3982803e-39
0.081317976 -0.10245901 -0.0019379407 1.1939063e-42
0.083120555 -0.10245901 -0.0019379407 7.3948061e-40
0.084923148 -0.10245901 -0.0019379407 2.4922822e-39
0.086725742 -0.10245901 -0.0019379407 5.5361743e-39
0.088528335 -0.10245901 -0.0019379407 7.1060027e-39
0.090730235 -0.10317262 -0.0048765689 1.1993791e-38
0.092537984 -0.10317262 -0.0048765689 1.3840552e-38
0.094345734 -0.10317262 -0.0048765689 1.9831085e-38
0.096153468 -0.10317262 -0.0048765689 2.2775202e-38
0.097961217 -0.10317262 -0.0048765689 2.2773049e-38
0.099768966 -0.10317262 -0.0048765689 2.2406425e-38
0.10202491 -0.10391603 -0.0079379827 2.2224189e-38
0.10383803 -0.10391603 -0.0079379827 2.158134e-38
0.10565114 -0.10391603 -0.0079379827 1.9097118e-38
0.10746424 -0.10391603 -0.0079379827 1.587209e-38
0.10927735 -0.10391603 -0.0079379827 1.3476093e-38
0.11109047 -0.10391603 -0.0079379827 1.2000614e-38
-0.11349139 -0.11207359 -0.03387709 6.4544102e-39
-0.11128192 -0.11061247 -0.027903274 1.1617012e-38
-0.10903527 -0.10890187 -0.020909622 1.9177784e-38
-0.10686563 -0.10742365 -0.01486595 1.7335326e-38
-0.10370742 -0.10132705 0.010059878 1.294378e-39
-0.10192586 -0.10132705 0.010059878 2.1259449e-39
-0.10104366 -0.10572915 -0.0079379827 1.6232967e-38
-0.098650292 -0.10278571 0.0040961951 1.4482703e-38
-0.096581191 -0.10132705 0.010059878 4.8943712e-39
-0.094662935 -0.10057923 0.013117358 2.3125446e-39
-0.092886746 -0.10057923 0.013117358 3.7873258e-39
-0.090985328 -0.099835888 0.01615648 4.6160187e-39
-0.089099243 -0.099121556 0.019076988 3.047621e-39
-0.087220281 -0.098386943 0.022080466 2.5855652e-39
-0.08535248 -0.097656667 0.025066182 3.0472664e-39
-0.083597235 -0.097656667 0.025066182 2.9557897e-39
-0.081742525 -0.096906602 0.028132781 1.6657669e-39
-0.079992652 -0.096906602 0.028132781 7.4560849e-40
-0.0783315 -0.097656667 0.025066182 1.2980634e-39
-0.0766574 -0.098386943 0.022080466 9.2784175e-40
-0.074896917 -0.098386943 0.022080466 6.49457e-40
-0.073136434 -0.098386943 0.022080466 5.1665874e-42
-0.071375959 -0.098386943 0.022080466 5.1665874e-42
-0.069676042 -0.099121556 0.019076988 2.8175208e-40
-0.067910299 -0.099121556 0.019076988 4.6614334e-40
-0.066144548 -0.099121556 0.019076988 1.9027531e-40
-0.064422324 -0.099835888 0.01615648 5.1637848e-42
-0.062613055 -0.099121556 0.019076988 7.4344909e-40
-0.060847308 -0.099121556 0.019076988 9.8079682e-41
-0.059081562 -0.099121556 0.019076988 4.8036511e-42
-0.057315819 -0.099121556 0.019076988 4.0833837e-42
-0.055550072 -0.099121556 0.019076988 3.0029826e-42
-0.053784326 -0.099121556 0.019076988 1.5638491e-42
-0.052018579 -0.099121556 0.019076988 2.6442502e-42
-0.050252832 -0.099121556 0.019076988 4.0931928e-42
-0.048484527 -0.099835888 0.01615648 1.6611118e-39
-0.046713661 -0.099835888 0.01615648 1.1075779e-39
-0.044929475 -0.10057923 0.013117358 1.2926712e-39
-0.043153279 -0.10057923 0.013117358 1.9383867e-39
-0.041377082 -0.10057923 0.013117358 2.7688523e-39
-0.039600886 -0.10057923 0.013117358 2.9535952e-39
-0.037859328 -0.099835888 0.01615648 3.5074851e-39
-0.036088463 -0.099835888 0.01615648 4.0606589e-39
-0.034317594 -0.099835888 0.01615648 2.0320047e-39
-0.032546729 -0.099835888 0.01615648 1.1854985e-42
-0.030775862 -0.099835888 0.01615648 2.2785113e-42
-0.029004995 -0.099835888 0.01615648 1.9197789e-42
-0.027234128 -0.099835888 0.01615648 2.2841165e-42
-0.025463263 -0.099835888 0.01615648 7.4020929e-40
-0.023615131 -0.10057923 0.013117358 1.9197789e-42
-0.021838935 -0.10057923 0.013117358 1.8667257e-40
-0.020062741 -0.10057923 0.013117358 1.0146382e-39
-0.018192731 -0.10132705 0.010059878 1.4752534e-39
-0.016411174 -0.10132705 0.010059878 1.4752534e-39
-0.014629621 -0.10132705 0.010059878 7.3804148e-40
-0.012848064 -0.10132705 0.010059878 4.6217206e-40
-0.011066508 -0.10132705 0.010059878 1.1911037e-42
-0.0092849508 -0.10132705 0.010059878 8.3094897e-40
-0.007503394 -0.10132705 0.010059878 1.051149e-38
-0.005721841 -0.10132705 0.010059878 1.1710033e-38
-0.0038073584 -0.10205424 0.0070867985 1.3092968e-38
-0.00202059 -0.10205424 0.0070867985 1.0972468e-38
-0.00037717074 -0.10132705 0.010059878 1.8451037e-39
0.0014043823 -0.10132705 0.010059878 5.5401035e-40
0.003185939 -0.10132705 0.010059878 1.1770907e-43
0.0049674958 -0.10132705 0.010059878 7.3840442e-40
0.0067490526 -0.10132705 0.010059878 3.707009e-40
0.0085306093 -0.10132705 0.010059878 1.6617998e-39
0.010312162 -0.10132705 0.010059878 1.2930173e-39
0.012093719 -0.10132705 0.010059878 1.1086261e-39
0.013875276 -0.10132705 0.010059878 1.2937362e-39
0.015656829 -0.10132705 0.010059878 1.2937362e-39
0.017438389 -0.10132705 0.010059878 9.2495648e-40
0.019219942 -0.10132705 0.010059878 7.4056522e-40
0.021001503 -0.10132705 0.010059878 9.2460055e-40
0.022994176 -0.10205424 0.0070867985 1.3855787e-39
0.024998546 -0.10278571 0.0040961951 9.2460335e-40
0.026790559 -0.10278571 0.0040961951 6.4801646e-40
0.028354481 -0.10205424 0.0070867985 9.2460475e-40
0.030141249 -0.10205424 0.0070867985 2.0309523e-39
0.0321666 -0.10278571 0.0040961951 2.4926507e-39
0.03395861 -0.10278571 0.0040961951 1.9394798e-39
0.035750624 -0.10278571 0.0040961951 9.2532782e-40
0.037288319 -0.10205424 0.0070867985 9.2712289e-40
0.039075088 -0.10205424 0.0070867985 6.50536e-40
0.040861856 -0.10205424 0.0070867985 3.7394911e-40
0.042918678 -0.10278571 0.0040961951 3.7287011e-40
0.044710677 -0.10278571 0.0040961951 5.5689983e-40
0.046502691 -0.10278571 0.0040961951 1.016799e-39
0.048294704 -0.10278571 0.0040961951 1.3852186e-39
0.050086718 -0.10278571 0.0040961951 1.7532794e-39
0.05217674 -0.10352151 0.0010879487 1.3837738e-39
0.053974029 -0.10352151 0.0010879487 2.6745098e-39
0.055771317 -0.10352151 0.0010879487 1.0153458e-39
0.057884272 -0.10426159 -0.0019379407 7.3875614e-40
0.059686866 -0.10426159 -0.0019379407 6.4763671e-40
0.061489459 -0.10426159 -0.0019379407 2.6759378e-39
0.063292056 -0.10426159 -0.0019379407 2.3075126e-39
0.06509465 -0.10426159 -0.0019379407 2.9539624e-39
0.066897228 -0.10426159 -0.0019379407 4.9837082e-39
0.068699822 -0.10426159 -0.0019379407 5.353218e-39
0.070502415 -0.10426159 -0.0019379407 7.1031497e-39
0.072305009 -0.10426159 -0.0019379407 2.8603599e-39
0.074460536 -0.10498036 -0.0048765689 7.4694225e-39
0.075910196 -0.10426159 -0.0019379407 7.4690567e-39
0.077712789 -0.10426159 -0.0019379407 1.0879205e-38
0.079515383 -0.10426159 -0.0019379407 1.0789998e-43
0.081317976 -0.10426159 -0.0019379407 8.3377259e-43
0.083120555 -0.10426159 -0.0019379407 4.7504018e-43
0.084923148 -0.10426159 -0.0019379407 1.1911037e-43
0.086725742 -0.10426159 -0.0019379407 1.915575e-42
0.088922501 -0.10498036 -0.0048765689 9.2889553e-40
0.090730235 -0.10498036 -0.0048765689 1.2547685e-38
0.092537984 -0.10498036 -0.0048765689 1.5592989e-38
0.094345734 -0.10498036 -0.0048765689 2.1213998e-38
0.096585572 -0.10572915 -0.0079379827 2.0656169e-38
0.098398685 -0.10572915 -0.0079379827 1.945547e-38
0.1002118 -0.10572915 -0.0079379827 1.8075052e-38
0.10202491 -0.10572915 -0.0079379827 1.7247093e-38
0.10383803 -0.10572915 -0.0079379827 1.4853247e-38
0.10565114 -0.10572915 -0.0079379827 1.1168307e-38
0.10746424 -0.10572915 -0.0079379827 8.4964397e-39
0.10927735 -0.10572915 -0.0079379827 7.8514389e-39
0.11109047 -0.10572915 -0.0079379827 9.3269403e-39
-0.11349139 -0.11393218 -0.03387709 5.9930789e-39
-0.11128192 -0.11246057 -0.027903274 1.0787256e-38
-0.10903527 -0.11073773 -0.020909622 1.8901561e-38
-0.10670017 -0.10851096 -0.01187022 1.7888144e-38
-0.10370742 -0.1031086 0.010059878 3.6914644e-39
-0.10192586 -0.1031086 0.010059878 3.6932678e-39
-0.10074383 -0.10606419 -0.0019379407 1.558795e-38
-0.098506093 -0.10384102 0.0070867985 1.2822816e-38
-0.096439138 -0.10235542 0.013117358 2.8660561e-39
-0.094527051 -0.10160676 0.01615648 2.0359465e-39
-0.092630729 -0.1008873 0.019076988 2.6806083e-39
-0.090864986 -0.1008873 0.019076988 1.9412524e-39
-0.088980757 -0.10014741 0.022080466 6.4944158e-40
-0.087107725 -0.099411905 0.025066182 3.717799e-40
-0.08535248 -0.099411905 0.025066182 1.2015434e-39
-0.083492391 -0.098656476 0.028132781 1.2944621e-39
-0.081742525 -0.098656476 0.028132781 1.8883338e-40
-0.079992652 -0.098656476 0.028132781 3.3603137e-42
-0.0783315 -0.099411905 0.025066182 4.8008485e-42
-0.0766574 -0.10014741 0.022080466 9.2639841e-40
-0.074896917 -0.10014741 0.022080466 3.7250297e-40
-0.073136434 -0.10014741 0.022080466 3.0029826e-42
-0.071375959 -0.10014741 0.022080466 3.0029826e-42
-0.069615483 -0.10014741 0.022080466 1.8811451e-40
-0.067855 -0.10014741 0.022080466 4.647014e-40
-0.066094518 -0.10014741 0.022080466 9.6637746e-41
-0.064378798 -0.1008873 0.019076988 3.361715e-42
-0.06257356 -0.10014741 0.022080466 3.7218487e-42
-0.060813081 -0.10014741 0.022080466 4.4421161e-42
-0.059052601 -0.10014741 0.022080466 3.3603137e-42
-0.057292119 -0.10014741 0.022080466 8.3657518e-43
-0.05553164 -0.10014741 0.022080466 4.7644148e-43
-0.053771161 -0.10014741 0.022080466 3.7134409e-42
-0.052010681 -0.10014741 0.022080466 5.1553771e-42
-0.050250202 -0.10014741 0.022080466 5.5211159e-42
-0.048484527 -0.10160676 0.01615648 1.0189682e-39
-0.046713661 -0.10160676 0.01615648 6.4982834e-40
-0.044942796 -0.10160676 0.01615648 5.5798724e-40
-0.043171927 -0.10160676 0.01615648 1.8490778e-39
-0.041377082 -0.10235542 0.013117358 3.2323626e-39
-0.039600886 -0.10235542 0.013117358 4.4312603e-39
-0.037859328 -0.10160676 0.01615648 4.3390618e-39
-0.036088463 -0.10160676 0.01615648 4.1550265e-39
-0.034317594 -0.10160676 0.01615648 4.4312575e-39
-0.032546729 -0.10160676 0.01615648 1.4810001e-39
-0.030775862 -0.10160676 0.01615648 1.387371e-39
-0.029004995 -0.10160676 0.01615648 5.1609822e-42
-0.027234128 -0.10160676 0.01615648 1.5638491e-42
-0.025463263 -0.10160676 0.01615648 3.7302565e-42
-0.023692396 -0.10160676 0.01615648 8.5339076e-43
-0.021838935 -0.10235542 0.013117358 2.7996122e-40
-0.020062741 -0.10235542 0.013117358 1.9351932e-42
-0.018286545 -0.10235542 0.013117358 2.7851928e-40
-0.016510349 -0.10235542 0.013117358 1.3848626e-39
-0.014734156 -0.10235542 0.013117358 1.6618055e-39
-0.01295796 -0.10235542 0.013117358 1.0164332e-39
-0.011181764 -0.10235542 0.013117358 1.3855689e-39
-0.0094055682 -0.10235542 0.013117358 2.2146093e-39
-0.0076293759 -0.10235542 0.013117358 1.2540876e-38
-0.005721841 -0.1031086 0.010059878 1.5030158e-38
-0.0039402843 -0.1031086 0.010059878 1.1526724e-38
-0.0021587275 -0.1031086 0.010059878 7.746703e-39
-0.00037717074 -0.1031086 0.010059878 9.4109804e-41
0.0014043823 -0.1031086 0.010059878 5.5508935e-40
0.003185939 -0.1031086 0.010059878 5.5509216e-40
0.0049674958 -0.1031086 0.010059878 1.2001056e-39
0.0067490526 -0.1031086 0.010059878 6.4693186e-40
0.0085306093 -0.1031086 0.010059878 2.0305852e-39
0.010312162 -0.1031086 0.010059878 1.1093477e-39
0.012093719 -0.1031086 0.010059878 6.4836959e-40
0.013684966 -0.10235542 0.013117358 8.3348112e-40
0.015461162 -0.10235542 0.013117358 1.0178724e-39
0.017438389 -0.1031086 0.010059878 7.4128829e-40
0.019219942 -0.1031086 0.010059878 4.647014e-40
0.021001503 -0.1031086 0.010059878 5.5725997e-40
0.022783056 -0.1031086 0.010059878 1.3870206e-39
0.024780944 -0.10384102 0.0070867985 5.5834037e-40
0.026567712 -0.10384102 0.0070867985 5.1665874e-42
0.028354481 -0.10384102 0.0070867985 4.6578881e-40
0.030141249 -0.10384102 0.0070867985 1.7565276e-39
0.0321666 -0.10457774 0.0040961951 2.3104203e-39
0.03395861 -0.10457774 0.0040961951 1.572858e-39
0.035750624 -0.10457774 0.0040961951 1.9028652e-40
0.037542637 -0.10457774 0.0040961951 5.5979351e-40
0.039075088 -0.10384102 0.0070867985 3.7540506e-40
0.040861856 -0.10384102 0.0070867985 2.8248636e-40
0.042918678 -0.10457774 0.0040961951 9.737623e-41
0.044710677 -0.10457774 0.0040961951 1.8885019e-40
0.046502691 -0.10457774 0.0040961951 6.4910667e-40
0.048294704 -0.10457774 0.0040961951 1.0175263e-39
0.050086718 -0.10457774 0.0040961951 1.2930313e-39
0.05217674 -0.1053188 0.0010879487 1.2004728e-39
0.053974029 -0.1053188 0.0010879487 1.2004728e-39
0.055771317 -0.1053188 0.0010879487 9.4123817e-41
0.057884272 -0.10606419 -0.0019379407 4.6326227e-40
0.059686866 -0.10606419 -0.0019379407 1.2008273e-39
0.061489459 -0.10606419 -0.0019379407 6.1793913e-39
0.063292056 -0.10606419 -0.0019379407 6.8247607e-39
0.06509465 -0.10606419 -0.0019379407 4.4294666e-39
0.066897228 -0.10606419 -0.0019379407 4.0628281e-39
0.068699822 -0.10606419 -0.0019379407 6.8294158e-39
0.070502415 -0.10606419 -0.0019379407 9.3161951e-39
0.072305009 -0.10606419 -0.0019379407 6.734007e-39
0.074460536 -0.10678811 -0.0048765689 1.0235643e-38
0.075910196 -0.10606419 -0.0019379407 1.0327476e-38
0.077712789 -0.10606419 -0.0019379407 1.170932e-38
0.079883769 -0.10678811 -0.0048765689 5.5364602e-40
0.081691518 -0.10678811 -0.0048765689 6.4656051e-40
0.083499268 -0.10678811 -0.0048765689 4.7504018e-43
0.085307002 -0.10678811 -0.0048765689 1.1630777e-43
0.087114751 -0.10678811 -0.0048765689 1.0649868e-43
0.088922501 -0.10678811 -0.0048765689 4.7784278e-42
0.090730235 -0.10678811 -0.0048765689 1.5590859e-38
0.092959344 -0.10754226 -0.0079379827 1.8359564e-38
0.094772458 -0.10754226 -0.0079379827 1.9095683e-38
0.096585572 -0.10754226 -0.0079379827 1.7247096e-38
0.098398685 -0.10754226 -0.0079379827 1.5124436e-38
0.1002118 -0.10754226 -0.0079379827 1.3190486e-38
0.10202491 -0.10754226 -0.0079379827 1.3376675e-38
0.10383803 -0.10754226 -0.0079379827 1.3010773e-38
0.10624062 -0.10851096 -0.01187022 1.1353058e-38
0.10806063 -0.10851096 -0.01187022 9.9715698e-39
0.10988063 -0.10851096 -0.01187022 9.6038761e-39
0.11170064 -0.10851096 -0.01187022 9.7879184e-39
-0.10886258 -0.11182173 -0.017879084 1.7887056e-38
-0.10670017 -0.11033095 -0.01187022 1.6505212e-38
-0.10402633 -0.10636975 0.0040961951 4.7974546e-39
-0.10223432 -0.10636975 0.0040961951 5.0762023e-39
-0.10074383 -0.10786678 -0.0019379407 1.5311363e-38
-0.098506093 -0.10562779 0.0070867985 1.346854e-38
-0.096439138 -0.10413162 0.013117358 2.2210398e-39
-0.094396487 -0.10265306 0.019076988 1.2987318e-39
-0.092501715 -0.10190789 0.022080466 5.1231472e-42
-0.090618216 -0.10116716 0.025066182 6.5050237e-40
-0.088741995 -0.10040633 0.028132781 1.8809349e-40
-0.08699213 -0.10040633 0.028132781 1.870215e-40
-0.085242257 -0.10040633 0.028132781 9.2387187e-40
-0.083492391 -0.10040633 0.028132781 1.1086261e-39
-0.081742525 -0.10040633 0.028132781 5.5617396e-40
-0.079992652 -0.10040633 0.028132781 1.8811451e-40
-0.0783315 -0.10116716 0.025066182 4.646986e-40
-0.076576263 -0.10116716 0.025066182 7.4056242e-40
-0.07482101 -0.10116716 0.025066182 2.7958427e-40
-0.073136434 -0.10190789 0.022080466 2.2785113e-42
-0.071375959 -0.10190789 0.022080466 2.6400463e-42
-0.069615483 -0.10190789 0.022080466 3.7106383e-40
-0.067855 -0.10190789 0.022080466 4.6397833e-40
-0.066094518 -0.10190789 0.022080466 3.7142677e-40
-0.064334035 -0.10190789 0.022080466 1.8703551e-40
-0.06257356 -0.10190789 0.022080466 1.8703551e-40
-0.060813081 -0.10190789 0.022080466 6.4909266e-40
-0.059052601 -0.10190789 0.022080466 5.5689423e-40
-0.057292119 -0.10190789 0.022080466 3.3561098e-42
-0.05553164 -0.10190789 0.022080466 4.0721733e-42
-0.053771161 -0.10190789 0.022080466 5.5904382e-40
-0.052010681 -0.10190789 0.022080466 1.1122176e-39
-0.050250202 -0.10190789 0.022080466 7.4379661e-40
-0.04848709 -0.10265306 0.019076988 8.3708385e-40
-0.046721343 -0.10265306 0.019076988 1.2980662e-39
-0.044942796 -0.10337763 0.01615648 1.5746531e-39
-0.043171927 -0.10337763 0.01615648 3.4185629e-39
-0.041401062 -0.10337763 0.01615648 4.7093003e-39
-0.039630197 -0.10337763 0.01615648 6.8301557e-39
-0.037892614 -0.10265306 0.019076988 7.1067398e-39
-0.036126867 -0.10265306 0.019076988 7.2914842e-39
-0.03436112 -0.10265306 0.019076988 8.7655339e-39
-0.032595374 -0.10265306 0.019076988 7.3825994e-39
-0.030775862 -0.10337763 0.01615648 6.7372314e-39
-0.029004995 -0.10337763 0.01615648 4.2475963e-39
-0.027298136 -0.10265306 0.019076988 1.1125931e-39
-0.025532391 -0.10265306 0.019076988 4.8106576e-42
-0.023692396 -0.10337763 0.01615648 2.2995308e-42
-0.021921529 -0.10337763 0.01615648 3.3813332e-42
-0.020150661 -0.10337763 0.01615648 3.7180232e-40
-0.018379796 -0.10337763 0.01615648 3.014193e-42
-0.016608927 -0.10337763 0.01615648 6.4874093e-40
-0.014838062 -0.10337763 0.01615648 1.1100736e-39
-0.01295796 -0.10413162 0.013117358 4.646986e-40
-0.011181764 -0.10413162 0.013117358 4.2439964e-39
-0.0094055682 -0.10413162 0.013117358 6.1804591e-39
-0.0076293759 -0.10413162 0.013117358 1.3556107e-38
-0.0058531798 -0.10413162 0.013117358 1.2357564e-38
-0.0040769838 -0.10413162 0.013117358 4.7049633e-39
-0.0021587275 -0.10489015 0.010059878 2.1231297e-39
-0.00037717074 -0.10489015 0.010059878 2.6330398e-42
0.0014043823 -0.10489015 0.010059878 1.6614369e-39
0.003185939 -0.10489015 0.010059878 1.6614397e-39
0.0049674958 -0.10489015 0.010059878 1.5688882e-39
0.0067490526 -0.10489015 0.010059878 1.8461939e-39
0.0085306093 -0.10489015 0.010059878 8.3275805e-40
0.010132577 -0.10413162 0.013117358 8.3383705e-40
0.011908773 -0.10413162 0.013117358 5.5725016e-40
0.013684966 -0.10413162 0.013117358 9.6632141e-41
0.015461162 -0.10413162 0.013117358 2.810262e-40
0.017237358 -0.10413162 0.013117358 6.4980872e-40
0.019013554 -0.10413162 0.013117358 2.8102901e-40
0.02078975 -0.10413162 0.013117358 2.6400463e-42
0.022783056 -0.10489015 0.010059878 1.9027531e-40
0.024564609 -0.10489015 0.010059878 9.2820189e-40
0.026346169 -0.10489015 0.010059878 1.8501582e-39
0.028127722 -0.10489015 0.010059878 2.4955304e-39
0.029909283 -0.10489015 0.010059878 2.4966094e-39
0.031928018 -0.10562779 0.0070867985 2.2196666e-39
0.03395861 -0.10636975 0.0040961951 1.2984291e-39
0.035750624 -0.10636975 0.0040961951 3.7647565e-40
0.037542637 -0.10636975 0.0040961951 6.9812689e-42
0.039334651 -0.10636975 0.0040961951 1.9245573e-40
0.041126665 -0.10636975 0.0040961951 5.6051518e-40
0.042918678 -0.10636975 0.0040961951 6.6197339e-42
0.044710677 -0.10636975 0.0040961951 4.4547278e-42
0.046502691 -0.10636975 0.0040961951 4.0917915e-42
0.048294704 -0.10636975 0.0040961951 2.8067728e-40
0.050086718 -0.10636975 0.0040961951 6.4873813e-40
0.05217674 -0.10711606 0.0010879487 2.7995561e-40
0.053974029 -0.10711606 0.0010879487 1.9253841e-42
0.055771317 -0.10711606 0.0010879487 4.8625057e-43
0.057884272 -0.10786678 -0.0019379407 3.0057852e-42
0.059686866 -0.10786678 -0.0019379407 1.6621684e-39
0.061489459 -0.10786678 -0.0019379407 7.1024322e-39
0.063292056 -0.10786678 -0.0019379407 8.9452686e-39
0.06509465 -0.10786678 -0.0019379407 5.5361771e-39
0.066897228 -0.10786678 -0.0019379407 4.8011078e-39
0.068699822 -0.10786678 -0.0019379407 4.1568104e-39
0.070502415 -0.10786678 -0.0019379407 6.5159258e-40
0.072652802 -0.10859586 -0.0048765689 2.6330398e-42
0.074460536 -0.10859586 -0.0048765689 1.5582439e-42
0.076268286 -0.10859586 -0.0048765689 6.4728498e-40
0.078076035 -0.10859586 -0.0048765689 1.291567e-39
0.079883769 -0.10859586 -0.0048765689 9.3886997e-44
0.081691518 -0.10859586 -0.0048765689 1.0649868e-43
0.083499268 -0.10859586 -0.0048765689 1.0789998e-43
0.085307002 -0.10859586 -0.0048765689 3.00018e-42
0.087114751 -0.10859586 -0.0048765689 4.0791798e-42
0.088922501 -0.10859586 -0.0048765689 1.6668235e-39
0.091146231 -0.10935538 -0.0079379827 1.6973781e-38
0.092959344 -0.10935538 -0.0079379827 1.7160681e-38
0.094772458 -0.10935538 -0.0079379827 1.3565393e-38
0.096585572 -0.10935538 -0.0079379827 1.411424e-38
0.098398685 -0.10935538 -0.0079379827 1.3191918e-38
0.1002118 -0.10935538 -0.0079379827 1.2824574e-38
0.10202491 -0.10935538 -0.0079379827 1.3932004e-38
0.10383803 -0.10935538 -0.0079379827 1.4395503e-38
0.10624062 -0.11033095 -0.01187022 1.3566824e-38
0.10806063 -0.11033095 -0.01187022 1.209314e-38
0.10988063 -0.11033095 -0.01187022 1.1264467e-38
0.11170064 -0.11033095 -0.01187022 1.1724378e-38
-0.10886258 -0.11365227 -0.017879084 1.7426801e-38
-0.10670017 -0.11215095 -0.01187022 1.6874358e-38
-0.10402633 -0.10816176 0.0040961951 6.365502e-39
-0.10176772 -0.10590781 0.013117358 6.2747483e-39
-0.099991515 -0.10590781 0.013117358 1.4665994e-38
-0.098362744 -0.10667174 0.010059878 1.3560732e-38
-0.09629792 -0.10514848 0.01615648 6.5370994e-40
-0.094396487 -0.1044188 0.019076988 1.0217806e-39
-0.092373461 -0.10292239 0.025066182 3.6770072e-42
-0.090618216 -0.10292239 0.025066182 1.8843961e-40
-0.088741995 -0.10215621 0.028132781 5.5579e-40
-0.08699213 -0.10215621 0.028132781 9.2350053e-40
-0.085242257 -0.10215621 0.028132781 9.2242854e-40
-0.083492391 -0.10215621 0.028132781 6.4620598e-40
-0.081742525 -0.10215621 0.028132781 3.7034497e-40
-0.079992652 -0.10215621 0.028132781 3.7106664e-40
-0.0783315 -0.10292239 0.025066182 4.6397833e-40
-0.076576263 -0.10292239 0.025066182 7.4019948e-40
-0.07482101 -0.10292239 0.025066182 7.4019948e-40
-0.073065773 -0.10292239 0.025066182 6.4728498e-40
-0.07131052 -0.10292239 0.025066182 4.6325666e-40
-0.069555283 -0.10292239 0.025066182 5.5473623e-40
-0.06780003 -0.10292239 0.025066182 4.6326227e-40
-0.066044793 -0.10292239 0.025066182 5.5510197e-40
-0.06428954 -0.10292239 0.025066182 6.472976e-40
-0.06257356 -0.10366838 0.022080466 1.8631945e-40
-0.060813081 -0.10366838 0.022080466 3.7142677e-40
-0.059023809 -0.10292239 0.025066182 4.6397833e-40
-0.057268564 -0.10292239 0.025066182 2.8066327e-40
-0.055513319 -0.10292239 0.025066182 2.8065906e-40
-0.053758074 -0.10292239 0.025066182 3.7392949e-40
-0.052002829 -0.10292239 0.025066182 5.5831795e-40
-0.050247584 -0.10292239 0.025066182 3.7536862e-40
-0.04848972 -0.10366838 0.022080466 7.3077715e-42
-0.046721343 -0.1044188 0.019076988 2.864212e-40
-0.044955596 -0.1044188 0.019076988 1.1158287e-39
-0.04318985 -0.1044188 0.019076988 3.6051122e-39
-0.041424103 -0.1044188 0.019076988 4.4348756e-39
-0.03965836 -0.1044188 0.019076988 6.6475679e-39
-0.037892614 -0.1044188 0.019076988 7.753554e-39
-0.036126867 -0.1044188 0.019076988 9.3208741e-39
-0.03436112 -0.1044188 0.019076988 8.1219623e-39
-0.032595374 -0.1044188 0.019076988 8.7673289e-39
-0.030829629 -0.1044188 0.019076988 8.7666129e-39
-0.029004995 -0.10514848 0.01615648 7.6599108e-39
-0.027298136 -0.1044188 0.019076988 4.524909e-39
-0.025532391 -0.1044188 0.019076988 1.8508841e-39
-0.023692396 -0.10514848 0.01615648 9.2749984e-40
-0.021921529 -0.10514848 0.01615648 2.3023334e-42
-0.020150661 -0.10514848 0.01615648 4.4589317e-42
-0.018379796 -0.10514848 0.01615648 2.6540593e-42
-0.016608927 -0.10514848 0.01615648 2.2897217e-42
-0.014838062 -0.10514848 0.01615648 3.3659189e-42
-0.01295796 -0.10590781 0.013117358 2.9987787e-42
-0.011181764 -0.10590781 0.013117358 7.2875283e-39
-0.0094055682 -0.10590781 0.013117358 9.7771649e-39
-0.0076293759 -0.10590781 0.013117358 1.1436683e-38
-0.0058531798 -0.10590781 0.013117358 1.0238137e-38
-0.0040769838 -0.10590781 0.013117358 1.5710279e-39
-0.0023007877 -0.10590781 0.013117358 5.5652008e-40
-0.00052459165 -0.10590781 0.013117358 7.4091134e-40
0.0012516007 -0.10590781 0.013117358 5.5580402e-40
0.0030277967 -0.10590781 0.013117358 8.3239371e-40
0.0048039928 -0.10590781 0.013117358 3.7141696e-40
0.0065801889 -0.10590781 0.013117358 6.4800385e-40
0.0085306093 -0.10667174 0.010059878 8.3275524e-40
0.010132577 -0.10590781 0.013117358 7.4163861e-40
0.011908773 -0.10590781 0.013117358 8.3383424e-40
0.013684966 -0.10590781 0.013117358 7.4235748e-40
0.015461162 -0.10590781 0.013117358 5.5761029e-40
0.017237358 -0.10590781 0.013117358 2.821024e-40
0.019013554 -0.10590781 0.013117358 4.6649646e-40
0.02078975 -0.10590781 0.013117358 6.5160659e-40
0.022565946 -0.10590781 0.013117358 8.3636078e-40
0.024564609 -0.10667174 0.010059878 1.8515917e-39
0.026346169 -0.10667174 0.010059878 2.8661066e-39
0.028127722 -0.10667174 0.010059878 2.7739123e-39
0.029909283 -0.10667174 0.010059878 1.8526763e-39
0.031928018 -0.10741456 0.0070867985 1.1151141e-39
0.03395861 -0.10816176 0.0040961951 6.5413593e-40
0.035750624 -0.10816176 0.0040961951 2.8607228e-40
0.037542637 -0.10816176 0.0040961951 9.1280582e-42
0.039334651 -0.10816176 0.0040961951 1.9423959e-40
0.041126665 -0.10816176 0.0040961951 2.8607228e-40
0.042918678 -0.10816176 0.0040961951 8.7637206e-42
0.044710677 -0.10816176 0.0040961951 7.6791156e-42
0.046502691 -0.10816176 0.0040961951 9.9871943e-41
0.048294704 -0.10816176 0.0040961951 2.8281846e-40
0.050086718 -0.10816176 0.0040961951 5.8700393e-42
0.05217674 -0.10891335 0.0010879487 9.2674734e-40
0.053974029 -0.10891335 0.0010879487 7.4235608e-40
0.055771317 -0.10891335 0.0010879487 7.4163861e-40
0.057568606 -0.10891335 0.0010879487 9.6988071e-41
0.059365895 -0.10891335 0.0010879487 2.4011628e-39
0.061489459 -0.10966937 -0.0019379407 5.3517858e-39
0.063292056 -0.10966937 -0.0019379407 7.0105911e-39
0.06509465 -0.10966937 -0.0019379407 5.5376078e-39
0.066897228 -0.10966937 -0.0019379407 1.8522713e-39
0.068699822 -0.10966937 -0.0019379407 3.5117871e-39
0.070502415 -0.10966937 -0.0019379407 1.6660934e-39
0.072652802 -0.11040358 -0.0048765689 3.3406955e-42
0.074460536 -0.11040358 -0.0048765689 9.4825867e-41
0.076268286 -0.11040358 -0.0048765689 1.1868998e-42
0.078076035 -0.11040358 -0.0048765689 9.8090893e-44
0.079883769 -0.11040358 -0.0048765689 6.4619337e-40
0.081691518 -0.11040358 -0.0048765689 9.3739861e-41
0.083499268 -0.11040358 -0.0048765689 1.1210388e-43
0.085307002 -0.11040358 -0.0048765689 4.7924407e-43
0.087114751 -0.11040358 -0.0048765689 2.810262e-40
0.088922501 -0.11040358 -0.0048765689 3.3263476e-39
0.091146231 -0.11116849 -0.0079379827 1.5222801e-38
0.092959344 -0.11116849 -0.0079379827 1.5593719e-38
0.094772458 -0.11116849 -0.0079379827 1.3565753e-38
0.096585572 -0.11116849 -0.0079379827 1.3655773e-38
0.098398685 -0.11116849 -0.0079379827 1.4024188e-38
0.1002118 -0.11116849 -0.0079379827 1.4025627e-38
0.10202491 -0.11116849 -0.0079379827 1.3935229e-38
0.10383803 -0.11116849 -0.0079379827 1.3844116e-38
0.10565114 -0.11116849 -0.0079379827 1.3661166e-38
0.10806063 -0.11215095 -0.01187022 1.3201276e-38
0.10988063 -0.11215095 -0.01187022 1.283286e-38
0.11170064 -0.11215095 -0.01187022 1.2094226e-38
-0.10886258 -0.11548282 -0.017879084 1.1711391e-38
-0.10615161 -0.11147197 -0.0019379407 1.088344e-38
-0.10402633 -0.10995375 0.0040961951 4.4311888e-39
-0.10176772 -0.107684 0.013117358 7.1045061e-39
-0.099991515 -0.107684 0.013117358 1.4849661e-38
-0.098362744 -0.10845329 0.010059878 1.4850385e-38
-0.09629792 -0.10691936 0.01615648 2.1270351e-39
-0.094262198 -0.10542886 0.022080466 3.0475607e-39
-0.092373461 -0.10467763 0.025066182 9.6590102e-41
-0.090491861 -0.10390608 0.028132781 1.8735921e-40
-0.088741995 -0.10390608 0.028132781 1.1082435e-39
-0.08699213 -0.10390608 0.028132781 1.5681511e-39
-0.085242257 -0.10390608 0.028132781 1.1068198e-39
-0.083492391 -0.10390608 0.028132781 5.5401035e-40
-0.081742525 -0.10390608 0.028132781 5.5509216e-40
-0.079992652 -0.10390608 0.028132781 8.3167905e-40
-0.0783315 -0.10467763 0.025066182 9.2423481e-40
-0.076576263 -0.10467763 0.025066182 9.2459074e-40
-0.07482101 -0.10467763 0.025066182 1.016785e-39
-0.073065773 -0.10467763 0.025066182 1.2004588e-39
-0.07131052 -0.10467763 0.025066182 8.3167624e-40
-0.069555283 -0.10467763 0.025066182 5.5401316e-40
-0.06780003 -0.10467763 0.025066182 3.696247e-40
-0.066044793 -0.10467763 0.025066182 4.614644e-40
-0.06428954 -0.10467763 0.025066182 5.5473903e-40
-0.062534302 -0.10467763 0.025066182 9.376088e-41
-0.060779054 -0.10467763 0.025066182 1.5610465e-42
-0.059023809 -0.10467763 0.025066182 2.788654e-40
-0.057268564 -0.10467763 0.025066182 1.0171465e-39
-0.055513319 -0.10467763 0.025066182 1.2018923e-39
-0.053758074 -0.10467763 0.025066182 7.4091134e-40
-0.052002829 -0.10467763 0.025066182 8.334629e-40
-0.050247584 -0.10467763 0.025066182 1.2036874e-39
-0.04848972 -0.10542886 0.022080466 1.1143728e-39
-0.046721343 -0.10618456 0.019076988 5.6264235e-40
-0.044955596 -0.10618456 0.019076988 6.5448486e-40
-0.04318985 -0.10618456 0.019076988 3.9735331e-39
-0.041424103 -0.10618456 0.019076988 5.0795234e-39
-0.03965836 -0.10618456 0.019076988 6.9237933e-39
-0.037892614 -0.10618456 0.019076988 7.2003774e-39
-0.036126867 -0.10618456 0.019076988 8.6758606e-39
-0.03436112 -0.10618456 0.019076988 9.7814809e-39
-0.032595374 -0.10618456 0.019076988 1.1256964e-38
-0.030829629 -0.10618456 0.019076988 1.1348441e-38
-0.029063882 -0.10618456 0.019076988 1.1809422e-38
-0.027298136 -0.10618456 0.019076988 9.7804103e-39
-0.025532391 -0.10618456 0.019076988 6.3688216e-39
-0.023692396 -0.10691936 0.01615648 4.1550545e-39
-0.021921529 -0.10691936 0.01615648 5.1749952e-42
-0.020150661 -0.10691936 0.01615648 3.014193e-42
-0.018379796 -0.10691936 0.01615648 4.8106576e-42
-0.016608927 -0.10691936 0.01615648 5.8854536e-42
-0.014838062 -0.10691936 0.01615648 6.5089052e-40
-0.01295796 -0.107684 0.013117358 7.4200155e-40
-0.011181764 -0.107684 0.013117358 1.014631e-38
-0.0094055682 -0.107684 0.013117358 1.1528882e-38
-0.0076293759 -0.107684 0.013117358 7.7477792e-39
-0.0058531798 -0.107684 0.013117358 5.9042225e-39
-0.0040769838 -0.107684 0.013117358 1.0229479e-43
-0.0023007877 -0.107684 0.013117358 2.7957306e-40
-0.00052459165 -0.107684 0.013117358 1.0171381e-39
0.0012516007 -0.107684 0.013117358 8.2956869e-43
0.0030277967 -0.107684 0.013117358 1.8458268e-39
0.0048039928 -0.107684 0.013117358 1.7536325e-39
0.0065801889 -0.107684 0.013117358 1.1082617e-39
0.0085306093 -0.10845329 0.010059878 9.242264e-40
0.010132577 -0.107684 0.013117358 1.5498361e-42
0.011908773 -0.107684 0.013117358 2.9945748e-42
0.013684966 -0.107684 0.013117358 1.2948152e-39
0.015461162 -0.107684 0.013117358 8.3563211e-40
0.017237358 -0.107684 0.013117358 4.070772e-42
0.019013554 -0.107684 0.013117358 5.6012422e-40
0.02078975 -0.107684 0.013117358 3.1423249e-39
0.022565946 -0.107684 0.013117358 4.0642868e-39
0.024564609 -0.10845329 0.010059878 3.6036716e-39
0.026346169 -0.10845329 0.010059878 2.4973241e-39
0.028127722 -0.10845329 0.010059878 4.700992e-40
0.029909283 -0.10845329 0.010059878 6.2371795e-42
0.031928018 -0.10920133 0.0070867985 6.2371795e-42
0.03395861 -0.10995375 0.0040961951 9.1210517e-42
0.035750624 -0.10995375 0.0040961951 4.700992e-40
0.037542637 -0.10995375 0.0040961951 3.771749e-40
0.039334651 -0.10995375 0.0040961951 1.0022367e-40
0.041126665 -0.10995375 0.0040961951 7.300765e-42
0.042918678 -0.10995375 0.0040961951 8.3783635e-42
0.044710677 -0.10995375 0.0040961951 1.3905911e-39
0.046502691 -0.10995375 0.0040961951 2.0359577e-39
0.048294704 -0.10995375 0.0040961951 1.3898695e-39
0.050086718 -0.10995375 0.0040961951 1.9061022e-40
0.05217674 -0.11071064 0.0010879487 2.9819631e-42
0.053974029 -0.11071064 0.0010879487 1.902585e-40
0.055771317 -0.11071064 0.0010879487 9.806707e-41
0.057568606 -0.11071064 0.0010879487 8.2956869e-43
0.059365895 -0.11071064 0.0010879487 1.4806456e-39
0.061489459 -0.11147197 -0.0019379407 1.7575884e-39
0.063292056 -0.11147197 -0.0019379407 3.0479713e-39
0.06509465 -0.11147197 -0.0019379407 4.4316106e-39
0.066897228 -0.11147197 -0.0019379407 1.5218113e-38
0.068699822 -0.11147197 -0.0019379407 1.9643826e-38
0.070502415 -0.11147197 -0.0019379407 1.6507774e-38
0.072652802 -0.11221133 -0.0048765689 1.4791784e-39
0.074460536 -0.11221133 -0.0048765689 9.5177593e-41
0.076268286 -0.11221133 -0.0048765689 1.0229479e-43
0.078076035 -0.11221133 -0.0048765689 1.8665856e-40
0.079515383 -0.11147197 -0.0019379407 8.2676609e-43
0.081317976 -0.11147197 -0.0019379407 1.8665576e-40
0.083499268 -0.11221133 -0.0048765689 1.8737743e-40
0.085307002 -0.11221133 -0.0048765689 2.2715048e-42
0.087114751 -0.11221133 -0.0048765689 1.6646683e-39
0.088922501 -0.11221133 -0.0048765689 5.2620887e-39
0.090730235 -0.11221133 -0.0048765689 1.2917186e-38
0.092959344 -0.1129816 -0.0079379827 1.2089558e-38
0.094772458 -0.1129816 -0.0079379827 1.2550517e-38
0.096585572 -0.1129816 -0.0079379827 1.3101518e-38
0.098398685 -0.1129816 -0.0079379827 1.4207137e-38
0.1002118 -0.1129816 -0.0079379827 1.4761389e-38
0.10202491 -0.1129816 -0.0079379827 1.4854663e-38
0.10383803 -0.1129816 -0.0079379827 1.5225244e-38
0.10565114 -0.1129816 -0.0079379827 1.5226684e-38
0.10806063 -0.11397095 -0.01187022 1.3844839e-38
0.10988063 -0.11397095 -0.01187022 1.2185682e-38
0.11170064 -0.11397095 -0.01187022 1.2093137e-38
-0.10615161 -0.11327456 -0.0019379407 8.0289624e-39
-0.10402633 -0.11174576 0.0040961951 3.6039379e-39
-0.10192586 -0.11023484 0.010059878 7.7509433e-39
-0.1001443 -0.11023484 0.010059878 1.5770531e-38
-0.098362744 -0.11023484 0.010059878 1.5953847e-38
-0.09629792 -0.10869022 0.01615648 3.3208966e-39
-0.094262198 -0.10718934 0.022080466 3.5964171e-39
-0.092373461 -0.1064329 0.025066182 1.3833731e-39
-0.090491861 -0.10565595 0.028132781 1.4755813e-39
-0.088741995 -0.10565595 0.028132781 9.3886997e-44
-0.08699213 -0.10565595 0.028132781 1.6607096e-39
-0.085242257 -0.10565595 0.028132781 7.3947921e-40
-0.083492391 -0.10565595 0.028132781 3.7141556e-40
-0.081742525 -0.10565595 0.028132781 2.7921993e-40
-0.079992652 -0.10565595 0.028132781 1.2011734e-39
-0.0783315 -0.1064329 0.025066182 3.7141276e-40
-0.076576263 -0.1064329 0.025066182 1.2940907e-39
-0.07482101 -0.1064329 0.025066182 1.1096995e-39
-0.073065773 -0.1064329 0.025066182 9.2387187e-40
-0.07131052 -0.1064329 0.025066182 1.1071841e-39
-0.069555283 -0.1064329 0.025066182 1.2912139e-39
-0.06780003 -0.1064329 0.025066182 4.6037559e-40
-0.066044793 -0.1064329 0.025066182 1.1630777e-43
-0.06428954 -0.1064329 0.025066182 4.6109866e-40
-0.062534302 -0.1064329 0.025066182 2.7850246e-40
-0.060779054 -0.1064329 0.025066182 1.870243e-40
-0.059023809 -0.1064329 0.025066182 9.482867e-41
-0.057268564 -0.1064329 0.025066182 6.4800245e-40
-0.055513319 -0.1064329 0.025066182 1.1086149e-39
-0.053758074 -0.1064329 0.025066182 2.7885139e-40
-0.052010681 -0.10718934 0.022080466 2.7741225e-40
-0.050250202 -0.10718934 0.022080466 1.2919271e-39
-0.04848709 -0.10795029 0.019076988 1.4784792e-39
-0.046721343 -0.10795029 0.019076988 1.5721167e-39
-0.044955596 -0.10795029 0.019076988 2.3093273e-39
-0.04318985 -0.10795029 0.019076988 3.4167538e-39
-0.041447803 -0.10718934 0.022080466 4.3394318e-39
-0.039687321 -0.10718934 0.022080466 4.7082115e-39
-0.037926842 -0.10718934 0.022080466 6.3684489e-39
-0.036166362 -0.10718934 0.022080466 9.1346695e-39
-0.034405883 -0.10718934 0.022080466 9.3201356e-39
-0.032595374 -0.10795029 0.019076988 1.0703423e-38
-0.030829629 -0.10795029 0.019076988 1.0241722e-38
-0.029063882 -0.10795029 0.019076988 1.1163322e-38
-0.027298136 -0.10795029 0.019076988 1.2545543e-38
-0.025532391 -0.10795029 0.019076988 9.6871244e-39
-0.023692396 -0.10869022 0.01615648 5.7219991e-39
-0.022000898 -0.10795029 0.019076988 3.6940624e-39
-0.020235153 -0.10795029 0.019076988 1.0023768e-40
-0.018379796 -0.10869022 0.01615648 7.6833195e-42
-0.016608927 -0.10869022 0.01615648 9.9518816e-41
-0.014838062 -0.10869022 0.01615648 4.4407148e-42
-0.01295796 -0.10946019 0.013117358 1.7572325e-39
-0.011181764 -0.10946019 0.013117358 1.0606571e-38
-0.0094055682 -0.10946019 0.013117358 1.2172456e-38
-0.0076293759 -0.10946019 0.013117358 3.1369215e-39
-0.0058531798 -0.10946019 0.013117358 1.8451009e-39
-0.0040769838 -0.10946019 0.013117358 8.3058884e-40
-0.0023007877 -0.10946019 0.013117358 6.4584165e-40
-0.00052459165 -0.10946019 0.013117358 1.014627e-39
0.0012516007 -0.10946019 0.013117358 8.3059724e-40
0.0030277967 -0.10946019 0.013117358 1.1071869e-39
0.0048039928 -0.10946019 0.013117358 1.1993854e-39
0.0065801889 -0.10946019 0.013117358 7.3804148e-40
0.0083563812 -0.10946019 0.013117358 1.3816018e-39
0.010132577 -0.10946019 0.013117358 1.7500284e-39
0.011908773 -0.10946019 0.013117358 1.1911037e-43
0.013684966 -0.10946019 0.013117358 5.554579e-40
0.015461162 -0.10946019 0.013117358 5.5869209e-40
0.017438389 -0.11023484 0.010059878 1.4831595e-39
0.019219942 -0.11023484 0.010059878 1.2991284e-39
0.021001503 -0.11023484 0.010059878 3.4203538e-39
0.022783056 -0.11023484 0.010059878 3.3278092e-39
0.024564609 -0.11023484 0.010059878 3.1430648e-39
0.026346169 -0.11023484 0.010059878 2.0359914e-39
0.028127722 -0.11023484 0.010059878 1.9243051e-40
0.029909283 -0.11023484 0.010059878 4.0651668e-42
0.031928018 -0.1109881 0.0070867985 1.1150945e-39
0.033714782 -0.1109881 0.0070867985 7.6791156e-42
0.035750624 -0.11174576 0.0040961951 1.4820805e-39
0.037542637 -0.11174576 0.0040961951 1.7557709e-39
0.039334651 -0.11174576 0.0040961951 3.4145566e-39
0.041126665 -0.11174576 0.0040961951 4.2446718e-39
0.043190312 -0.11250792 0.0010879487 5.6286782e-39
0.0449876 -0.11250792 0.0010879487 6.1825695e-39
0.046784874 -0.11250792 0.0010879487 5.7223158e-39
0.048294704 -0.11174576 0.0040961951 5.1691504e-39
0.050086718 -0.11174576 0.0040961951 2.4962072e-39
0.05217674 -0.11250792 0.0010879487 1.8504959e-39
0.053974029 -0.11250792 0.0010879487 1.2969732e-39
0.055771317 -0.11250792 0.0010879487 6.6029184e-42
0.057568606 -0.11250792 0.0010879487 1.0207548e-39
0.059365895 -0.11250792 0.0010879487 5.5977389e-40
0.061489459 -0.11327456 -0.0019379407 3.6947756e-39
0.063292056 -0.11327456 -0.0019379407 2.4043885e-39
0.06509465 -0.11327456 -0.0019379407 5.5375868e-39
0.066897228 -0.11327456 -0.0019379407 1.6135027e-38
0.068699822 -0.11327456 -0.0019379407 2.1757478e-38
0.070502415 -0.11327456 -0.0019379407 1.6411966e-38
0.072652802 -0.11401908 -0.0048765689 2.6759069e-39
0.074460536 -0.11401908 -0.0048765689 9.4811854e-41
0.076268286 -0.11401908 -0.0048765689 6.4800245e-40
0.077712789 -0.11327456 -0.0019379407 2.6400463e-42
0.079515383 -0.11327456 -0.0019379407 1.8739144e-40
0.081317976 -0.11327456 -0.0019379407 3.7212882e-40
0.083499268 -0.11401908 -0.0048765689 1.1770907e-42
0.085307002 -0.11401908 -0.0048765689 8.1275311e-43
0.087114751 -0.11401908 -0.0048765689 3.1397788e-39
0.088922501 -0.11401908 -0.0048765689 8.3960003e-39
0.090730235 -0.11401908 -0.0048765689 1.2731337e-38
0.092537984 -0.11401908 -0.0048765689 1.4484827e-38
0.094345734 -0.11401908 -0.0048765689 1.4853235e-38
0.096153468 -0.11401908 -0.0048765689 1.5401374e-38
0.098398685 -0.11479472 -0.0079379827 1.5860911e-38
0.1002118 -0.11479472 -0.0079379827 1.5954537e-38
0.10202491 -0.11479472 -0.0079379827 1.7154875e-38
0.10383803 -0.11479472 -0.0079379827 1.6879364e-38
0.10565114 -0.11479472 -0.0079379827 1.5774815e-38
0.10806063 -0.11579098 -0.01187022 1.5499315e-38
0.10988063 -0.11579098 -0.01187022 1.365685e-38
0.11170064 -0.11579098 -0.01187022 1.3841256e-38
-0.10615161 -0.11507715 -0.0019379407 7.6608973e-39
-0.10418721 -0.11430521 0.0010879487 3.9737966e-39
-0.10238992 -0.11430521 0.0010879487 8.4888643e-39
-0.10044231 -0.11353777 0.0040961951 1.6600645e-38
-0.098506093 -0.11277486 0.0070867985 1.6689252e-38
-0.09616223 -0.10971604 0.019076988 3.6885987e-39
-0.094128698 -0.10818814 0.025066182 3.7793692e-39
-0.092373461 -0.10818814 0.025066182 1.6581635e-39
-0.090491861 -0.10740583 0.028132781 9.2169145e-40
-0.088741995 -0.10740583 0.028132781 5.5399774e-40
-0.08699213 -0.10740583 0.028132781 1.6617914e-39
-0.085242257 -0.10740583 0.028132781 6.4872131e-40
-0.083492391 -0.10740583 0.028132781 9.253082e-40
-0.081742525 -0.10740583 0.028132781 2.6288359e-42
-0.079992652 -0.10740583 0.028132781 5.5615995e-40
-0.0783315 -0.10818814 0.025066182 1.0174982e-39
-0.076576263 -0.10818814 0.025066182 1.9113711e-42
-0.07482101 -0.10818814 0.025066182 9.6269204e-41
-0.073065773 -0.10818814 0.025066182 7.4019808e-40
-0.07131052 -0.10818814 0.025066182 1.3841284e-39
-0.069555283 -0.10818814 0.025066182 1.8443876e-39
-0.06780003 -0.10818814 0.025066182 1.751113e-39
-0.066044793 -0.10818814 0.025066182 1.5678007e-39
-0.06428954 -0.10818814 0.025066182 2.213889e-39
-0.062534302 -0.10818814 0.025066182 4.6289232e-40
-0.060779054 -0.10818814 0.025066182 8.3311257e-40
-0.059023809 -0.10818814 0.025066182 1.017501e-39
-0.057268564 -0.10818814 0.025066182 7.4091414e-40
-0.055513319 -0.10818814 0.025066182 4.6360839e-40
-0.053771161 -0.10894983 0.022080466 1.9099698e-42
-0.052010681 -0.10894983 0.022080466 5.5364602e-40
-0.050250202 -0.10894983 0.022080466 1.7521892e-39
-0.04848709 -0.10971604 0.019076988 1.9380224e-39
-0.046721343 -0.10971604 0.019076988 9.2459074e-40
-0.044955596 -0.10971604 0.019076988 6.4836398e-40
-0.04318985 -0.10971604 0.019076988 1.1104211e-39
-0.041447803 -0.10894983 0.022080466 1.0189444e-39
-0.039687321 -0.10894983 0.022080466 1.902613e-40
-0.037926842 -0.10894983 0.022080466 3.7536862e-40
-0.036166362 -0.10894983 0.022080466 1.4820693e-39
-0.034405883 -0.10894983 0.022080466 3.5107249e-39
-0.032595374 -0.10971604 0.019076988 5.5390231e-39
-0.030829629 -0.10971604 0.019076988 9.1342926e-39
-0.029063882 -0.10971604 0.019076988 9.9640532e-39
-0.027298136 -0.10971604 0.019076988 1.0055173e-38
-0.025532391 -0.10971604 0.019076988 1.3926673e-38
-0.023766644 -0.10971604 0.019076988 1.3741929e-38
-0.022000898 -0.10971604 0.019076988 5.9985832e-39
-0.020235153 -0.10971604 0.019076988 1.7601121e-39
-0.018469406 -0.10971604 0.019076988 7.3203832e-42
-0.016703662 -0.10971604 0.019076988 5.8784471e-42
-0.014838062 -0.11046107 0.01615648 6.5196672e-40
-0.013067197 -0.11046107 0.01615648 3.5089494e-39
-0.011296328 -0.11046107 0.01615648 1.0790962e-38
-0.0094055682 -0.11123641 0.013117358 1.1157585e-38
-0.0076293759 -0.11123641 0.013117358 1.5685168e-39
-0.0058531798 -0.11123641 0.013117358 4.7223758e-43
-0.0040769838 -0.11123641 0.013117358 4.6037419e-40
-0.0023007877 -0.11123641 0.013117358 1.1057436e-39
-0.00052459165 -0.11123641 0.013117358 1.106824e-39
0.0012516007 -0.11123641 0.013117358 5.5329429e-40
0.0030277967 -0.11123641 0.013117358 5.5401596e-40
0.0048039928 -0.11123641 0.013117358 1.0146382e-39
0.0065801889 -0.11123641 0.013117358 1.0142724e-39
0.0083563812 -0.11123641 0.013117358 9.1946199e-41
0.010132577 -0.11123641 0.013117358 1.289416e-39
0.011908773 -0.11123641 0.013117358 5.543873e-40
0.013875276 -0.11201639 0.010059878 3.014193e-42
0.015656829 -0.11201639 0.010059878 7.4381063e-40
0.017438389 -0.11201639 0.010059878 4.3423101e-39
0.019219942 -0.11201639 0.010059878 3.8827668e-39
0.021001503 -0.11201639 0.010059878 4.7125303e-39
0.022783056 -0.11201639 0.010059878 1.3920667e-39
0.024564609 -0.11201639 0.010059878 5.6086691e-40
0.026346169 -0.11201639 0.010059878 1.6661243e-39
0.028127722 -0.11201639 0.010059878 2.9561316e-39
0.029909283 -0.11201639 0.010059878 2.5880525e-39
0.031928018 -0.11277486 0.0070867985 5.1695274e-39
0.033714782 -0.11277486 0.0070867985 4.523809e-39
0.035501551 -0.11277486 0.0070867985 4.8911482e-39
0.037542637 -0.11353777 0.0040961951 8.9445021e-39
0.039334651 -0.11353777 0.0040961951 1.1525245e-38
0.041126665 -0.11353777 0.0040961951 1.1157178e-38
0.043190312 -0.11430521 0.0010879487 1.05136e-38
0.0449876 -0.11430521 0.0010879487 1.1160768e-38
0.046784874 -0.11430521 0.0010879487 1.0884189e-38
0.048582163 -0.11430521 0.0010879487 1.0516497e-38
0.050379451 -0.11430521 0.0010879487 1.143883e-38
0.05217674 -0.11430521 0.0010879487 9.7796858e-39
0.053974029 -0.11430521 0.0010879487 4.8014959e-39
0.055771317 -0.11430521 0.0010879487 4.0903902e-42
0.057568606 -0.11430521 0.0010879487 6.9714599e-42
0.059365895 -0.11430521 0.0010879487 2.8653877e-39
0.061489459 -0.11507715 -0.0019379407 8.3052802e-39
0.063292056 -0.11507715 -0.0019379407 6.4620753e-39
0.06509465 -0.11507715 -0.0019379407 7.5651718e-39
0.066897228 -0.11507715 -0.0019379407 1.7147029e-38
0.068699822 -0.11507715 -0.0019379407 2.1662414e-38
0.070502415 -0.11507715 -0.0019379407 1.8345916e-38
0.072305009 -0.11507715 -0.0019379407 2.5819134e-39
0.074460536 -0.11582683 -0.0048765689 2.7812972e-40
0.076268286 -0.11582683 -0.0048765689 1.1911037e-43
0.077712789 -0.11507715 -0.0019379407 1.9337919e-42
0.079515383 -0.11507715 -0.0019379407 8.5058817e-43
0.081317976 -0.11507715 -0.0019379407 3.3491033e-42
0.083499268 -0.11582683 -0.0048765689 1.5330205e-42
0.085307002 -0.11582683 -0.0048765689 4.0483513e-42
