# .PCD v0.7 - Point Cloud Data file format
VERSION 0.7
FIELDS x y z rgb
SIZE 4 4 4 4
TYPE F F F F
COUNT 1 1 1 1
WIDTH 924
HEIGHT 1
VIEWPOINT 0 0 0 1 0 0 0
POINTS 924
DATA ascii
0.050678167 -0.080477536 -0.026182272 2.3509876e-38
0.05253676 -0.080477536 -0.026182272 2.3509873e-38
0.054395352 -0.080477536 -0.026182272 2.3509876e-38
0.056531224 -0.081124544 -0.02919469 2.3234379e-38
0.058774386 -0.081992984 -0.033238031 2.3142544e-38
0.060926218 -0.082624316 -0.036177374 2.2958873e-38
0.06280233 -0.082624316 -0.036177374 2.2867037e-38
0.064678445 -0.082624316 -0.036177374 2.2775202e-38
0.066864029 -0.083283588 -0.039246894 2.2315307e-38
0.068745524 -0.083283588 -0.039246894 2.2867037e-38
0.070627019 -0.083283588 -0.039246894 7.838809e-39
0.072508529 -0.083283588 -0.039246894 2.2420775e-44
-0.064411685 -0.10076147 -0.11127339 4.6112893e-39
-0.062403891 -0.10076147 -0.11127339 4.7960547e-39
-0.060461208 -0.10160775 -0.11518166 5.2570441e-39
-0.058446568 -0.10160775 -0.11518166 5.3499684e-39
-0.056431931 -0.10160775 -0.11518166 4.4283736e-39
-0.054463644 -0.10248834 -0.11924837 4.3361808e-39
-0.052441873 -0.10248834 -0.11924837 4.3354619e-39
-0.050420105 -0.10248834 -0.11924837 4.3343857e-39
-0.048398338 -0.10248834 -0.11924837 4.1492784e-39
-0.046293143 -0.098367065 -0.10021565 3.9638095e-39
-0.044304743 -0.098367065 -0.10021565 3.6865038e-39
-0.042316347 -0.098367065 -0.10021565 3.3195191e-39
-0.040327951 -0.098367065 -0.10021565 3.8741306e-39
-0.038339555 -0.098367065 -0.10021565 3.5982626e-39
-0.036368951 -0.097487867 -0.096155383 2.8606948e-39
-0.034387674 -0.097487867 -0.096155383 2.2149596e-39
-0.032437213 -0.096642151 -0.092249729 3.5982514e-39
-0.030462783 -0.096642151 -0.092249729 5.9946091e-39
-0.028567985 -0.095129102 -0.085262276 4.3347234e-39
-0.02665942 -0.094246268 -0.081185199 2.7666718e-39
-0.024704389 -0.094246268 -0.081185199 5.2555867e-39
-0.022681449 -0.095129102 -0.085262276 6.2697302e-39
-0.020719269 -0.095129102 -0.085262276 7.1909607e-39
-0.018676797 -0.095991403 -0.089244463 7.3749848e-39
-0.016707635 -0.095991403 -0.089244463 8.9426636e-39
-0.014832731 -0.095129102 -0.085262276 1.2537569e-38
-0.012870554 -0.095129102 -0.085262276 1.4196368e-38
-0.010908375 -0.095129102 -0.085262276 1.9083439e-38
-0.0089461952 -0.095129102 -0.085262276 2.1020957e-38
-0.007659141 -0.090364665 -0.063259341 2.3418033e-38
-0.0058357604 -0.089695618 -0.060169555 2.3509873e-38
-0.0040548295 -0.088826358 -0.056155182 2.3509876e-38
-0.002249103 -0.088191271 -0.053222276 2.3141456e-38
-0.0004574582 -0.087534383 -0.050188638 2.3509883e-38
0.0014432259 -0.087534383 -0.050188638 2.3509886e-38
0.0031815022 -0.086680889 -0.046247102 2.304891e-38
0.0049466267 -0.086032391 -0.043252207 2.3509527e-38
0.0066560693 -0.085165098 -0.039246894 2.3509527e-38
0.0083949491 -0.084500432 -0.036177374 2.3509886e-38
0.01012934 -0.083863959 -0.033238031 2.3509886e-38
0.012000304 -0.083863959 -0.033238031 2.3509883e-38
0.013871264 -0.083863959 -0.033238031 2.350988e-38
0.015526004 -0.082988426 -0.02919469 2.350988e-38
0.017389879 -0.082988426 -0.02919469 2.350988e-38
0.019253753 -0.082988426 -0.02919469 2.3509883e-38
0.021355115 -0.083863959 -0.033238031 2.3509883e-38
0.023226082 -0.083863959 -0.033238031 2.3509886e-38
0.025097042 -0.083863959 -0.033238031 2.3509886e-38
0.027156115 -0.084500432 -0.036177374 2.3509886e-38
0.029234052 -0.085165098 -0.039246894 2.3509886e-38
0.030908346 -0.084500432 -0.036177374 2.3509527e-38
0.032784469 -0.084500432 -0.036177374 2.3509527e-38
0.034164742 -0.082988426 -0.02919469 2.3509527e-38
0.035374746 -0.081042573 -0.020208456 2.3509527e-38
0.03722287 -0.081042573 -0.020208456 2.3509527e-38
0.039070986 -0.081042573 -0.020208456 2.3509527e-38
0.040919103 -0.081042573 -0.020208456 2.3509883e-38
0.042767216 -0.081042573 -0.020208456 2.3509883e-38
0.044615332 -0.081042573 -0.020208456 2.3509521e-38
0.046711508 -0.08168751 -0.0231869 2.3509524e-38
0.048564855 -0.08168751 -0.0231869 2.3509527e-38
0.050418187 -0.08168751 -0.0231869 2.3509883e-38
0.052271534 -0.08168751 -0.0231869 2.350987e-38
0.054124866 -0.08168751 -0.0231869 2.3418035e-38
0.055978213 -0.08168751 -0.0231869 2.341805e-38
0.058112536 -0.082336128 -0.026182272 2.3234379e-38
0.059971128 -0.082336128 -0.026182272 2.323402e-38
0.062122855 -0.082988426 -0.02919469 2.3142544e-38
0.064387262 -0.083863959 -0.033238031 2.3142544e-38
0.066554561 -0.084500432 -0.036177374 2.2405699e-38
0.068430677 -0.084500432 -0.036177374 2.286632e-38
0.070306793 -0.084500432 -0.036177374 1.6135337e-38
0.072182924 -0.084500432 -0.036177374 4.6173065e-40
-0.068259269 -0.10122015 -0.10417686 6.362251e-39
-0.066263929 -0.10122015 -0.10417686 3.5049263e-39
-0.064268589 -0.10122015 -0.10417686 3.6900589e-39
-0.062330056 -0.10189377 -0.10726271 3.6897183e-39
-0.060329307 -0.10189377 -0.10726271 3.6904554e-39
-0.05832855 -0.10189377 -0.10726271 3.8752166e-39
-0.056380536 -0.10276926 -0.11127339 4.0603338e-39
-0.054417294 -0.10362239 -0.11518166 3.7833895e-39
-0.052402657 -0.10362239 -0.11518166 3.7826693e-39
-0.048232656 -0.098616585 -0.092249729 3.9656256e-39
-0.046258226 -0.098616585 -0.092249729 4.0578212e-39
-0.042312786 -0.09946914 -0.096155383 3.4124518e-39
-0.040331513 -0.09946914 -0.096155383 2.9536289e-39
-0.038350232 -0.09946914 -0.096155383 2.6777609e-39
-0.036368951 -0.09946914 -0.096155383 2.4011726e-39
-0.034387674 -0.09946914 -0.096155383 2.6773965e-39
-0.032437213 -0.098616585 -0.092249729 3.59935e-39
-0.030462783 -0.098616585 -0.092249729 1.5703203e-39
-0.028522603 -0.097960562 -0.089244463 9.2458654e-40
-0.026605807 -0.097091287 -0.085262276 9.2457813e-40
-0.024643628 -0.097091287 -0.085262276 1.9372825e-39
-0.022615118 -0.097960562 -0.089244463 1.475933e-39
-0.020719269 -0.097091287 -0.085262276 5.5432565e-40
-0.01875709 -0.097091287 -0.085262276 1.8553192e-40
-0.016707635 -0.097960562 -0.089244463 6.4649886e-40
-0.014832731 -0.097091287 -0.085262276 4.3346758e-39
-0.012870554 -0.097091287 -0.085262276 5.9931153e-39
-0.010908375 -0.097091287 -0.085262276 1.0879823e-38
-0.0089461952 -0.097091287 -0.085262276 1.6227501e-38
-0.0058357604 -0.091613799 -0.060169555 2.3141804e-38
-0.0040548295 -0.090737507 -0.056155182 2.3509873e-38
-0.002249103 -0.090097278 -0.053222276 2.3509879e-38
-0.0004574582 -0.089435071 -0.050188638 2.350988e-38
0.0014432259 -0.089435071 -0.050188638 2.3509886e-38
0.0031815022 -0.088574663 -0.046247102 2.2956715e-38
0.0049466267 -0.087920904 -0.043252207 2.3509527e-38
0.0066560693 -0.087046593 -0.039246894 2.3509527e-38
0.0083949491 -0.086376548 -0.036177374 2.3509527e-38
0.01012934 -0.085734919 -0.033238031 2.3509886e-38
0.012000304 -0.085734919 -0.033238031 2.3509886e-38
0.01366213 -0.084852293 -0.02919469 2.3509883e-38
0.015526004 -0.084852293 -0.02919469 2.350988e-38
0.017389879 -0.084852293 -0.02919469 2.350988e-38
0.019253753 -0.084852293 -0.02919469 2.350988e-38
0.021117628 -0.084852293 -0.02919469 2.350988e-38
0.022981502 -0.084852293 -0.02919469 2.3509883e-38
0.025097042 -0.085734919 -0.033238031 2.3509883e-38
0.02696801 -0.085734919 -0.033238031 2.3509527e-38
0.02883897 -0.085734919 -0.033238031 2.3509527e-38
0.030709937 -0.085734919 -0.033238031 2.3509527e-38
0.032784469 -0.086376548 -0.036177374 2.3509527e-38
0.034164742 -0.084852293 -0.02919469 2.3509527e-38
0.034426108 -0.080044776 -0.0071711317 2.3509527e-38
0.036251366 -0.080044776 -0.0071711317 2.3509527e-38
0.038076632 -0.080044776 -0.0071711317 2.3509527e-38
0.03990189 -0.080044776 -0.0071711317 2.3509883e-38
0.042443756 -0.08200562 -0.016153909 2.3509883e-38
0.044284765 -0.08200562 -0.016153909 2.350988e-38
0.046463463 -0.082890689 -0.020208456 2.3509883e-38
0.04831158 -0.082890689 -0.020208456 2.3509527e-38
0.050159696 -0.082890689 -0.020208456 2.341805e-38
0.052007813 -0.082890689 -0.020208456 2.3418038e-38
0.05385593 -0.082890689 -0.020208456 2.3418038e-38
0.055704046 -0.082890689 -0.020208456 2.3418047e-38
0.057831559 -0.083540857 -0.0231869 2.3509527e-38
0.059684891 -0.083540857 -0.0231869 2.3509168e-38
0.061538238 -0.083540857 -0.0231869 2.3509168e-38
0.063391566 -0.083540857 -0.0231869 2.3509886e-38
0.0655469 -0.08419472 -0.026182272 2.2957428e-38
0.067405492 -0.08419472 -0.026182272 2.341805e-38
0.069264084 -0.08419472 -0.026182272 2.2404272e-38
0.071122676 -0.08419472 -0.026182272 1.3184012e-38
0.072658271 -0.083540857 -0.0231869 2.7734219e-40
-0.068259269 -0.1032155 -0.10417686 5.6250376e-39
-0.066263929 -0.1032155 -0.10417686 1.2925843e-39
-0.064268589 -0.1032155 -0.10417686 1.3851653e-39
-0.062273245 -0.1032155 -0.10417686 1.4781022e-39
-0.060277905 -0.1032155 -0.10417686 2.1234941e-39
-0.058282562 -0.1032155 -0.10417686 2.7695949e-39
-0.056327797 -0.10389452 -0.10726271 3.7837553e-39
-0.054200459 -0.10145043 -0.096155383 3.5993668e-39
-0.052219179 -0.10145043 -0.096155383 3.2305857e-39
-0.048232656 -0.100591 -0.092249729 3.1369495e-39
-0.046258226 -0.100591 -0.092249729 3.3213408e-39
-0.044283792 -0.100591 -0.092249729 3.3206219e-39
-0.042312786 -0.10145043 -0.096155383 2.8603627e-39
-0.040331513 -0.10145043 -0.096155383 3.2323822e-39
-0.038360506 -0.100591 -0.092249729 2.9565113e-39
-0.036386073 -0.100591 -0.092249729 2.1267507e-39
-0.034411643 -0.100591 -0.092249729 1.2962683e-39
-0.032437213 -0.100591 -0.092249729 2.3107762e-39
-0.030462783 -0.100591 -0.092249729 1.0193171e-39
-0.028567985 -0.099053472 -0.085262276 1.2951753e-39
-0.02665942 -0.098156333 -0.081185199 8.3418877e-40
-0.024704389 -0.098156333 -0.081185199 1.3862723e-39
-0.022749359 -0.098156333 -0.081185199 1.9390762e-39
-0.020719269 -0.099053472 -0.085262276 3.4149111e-39
-0.01875709 -0.099053472 -0.085262276 7.378949e-39
-0.016794911 -0.099053472 -0.085262276 8.2086957e-39
-0.014832731 -0.099053472 -0.085262276 1.0974193e-38
-0.012870554 -0.099053472 -0.085262276 1.0051871e-38
-0.010800151 -0.09992972 -0.089244463 1.1066008e-38
-0.0040548295 -0.09264864 -0.056155182 2.304961e-38
-0.0021436848 -0.09264864 -0.056155182 2.3509876e-38
-0.0004574582 -0.091335744 -0.050188638 2.3233652e-38
0.0014432259 -0.091335744 -0.050188638 2.341769e-38
0.0031815022 -0.090468436 -0.046247102 2.3509886e-38
0.0049466267 -0.089809433 -0.043252207 2.3509527e-38
0.0066560693 -0.088928089 -0.039246894 2.3509527e-38
0.0083949491 -0.088252664 -0.036177374 2.3509527e-38
0.01012934 -0.087605879 -0.033238031 2.3509527e-38
0.012000304 -0.087605879 -0.033238031 2.3509886e-38
0.01366213 -0.086716175 -0.02919469 2.3509886e-38
0.015364911 -0.086053312 -0.026182272 2.3509883e-38
0.017223503 -0.086053312 -0.026182272 2.350988e-38
0.019082095 -0.086053312 -0.026182272 2.3509879e-38
0.020940688 -0.086053312 -0.026182272 2.3509879e-38
0.022799276 -0.086053312 -0.026182272 2.3509521e-38
0.024657868 -0.086053312 -0.026182272 2.3509883e-38
0.02651646 -0.086053312 -0.026182272 2.3509527e-38
0.028573118 -0.086716175 -0.02919469 2.3509527e-38
0.029556699 -0.083846629 -0.016153909 2.3509527e-38
0.031397708 -0.083846629 -0.016153909 2.3509527e-38
0.03260085 -0.081870034 -0.0071711317 2.3509527e-38
0.034426108 -0.081870034 -0.0071711317 2.3509527e-38
0.036028139 -0.081210837 -0.0041754022 2.3509527e-38
0.037848145 -0.081210837 -0.0041754022 2.3509527e-38
0.03990189 -0.081870034 -0.0071711317 2.3509527e-38
0.042209286 -0.083199903 -0.013214804 2.3509883e-38
0.044284765 -0.083846629 -0.016153909 2.3509883e-38
0.046125773 -0.083846629 -0.016153909 2.3509886e-38
0.04831158 -0.084738806 -0.020208456 2.3234379e-38
0.050159696 -0.084738806 -0.020208456 2.3234379e-38
0.052007813 -0.084738806 -0.020208456 2.3234376e-38
0.05385593 -0.084738806 -0.020208456 2.3418045e-38
0.055704046 -0.084738806 -0.020208456 2.3509883e-38
0.057552163 -0.084738806 -0.020208456 2.3509527e-38
0.059684891 -0.085394189 -0.0231869 2.3509168e-38
0.061538238 -0.085394189 -0.0231869 2.3509168e-38
0.063391566 -0.085394189 -0.0231869 2.3508444e-38
0.065244913 -0.085394189 -0.0231869 2.3509527e-38
0.067098245 -0.085394189 -0.0231869 2.3417333e-38
0.068951592 -0.085394189 -0.0231869 2.295672e-38
0.070804924 -0.085394189 -0.0231869 2.3233662e-38
0.072658271 -0.085394189 -0.0231869 3.9236357e-43
-0.068332314 -0.10589527 -0.10726271 6.1789121e-39
-0.066331565 -0.10589527 -0.10726271 5.5572134e-40
-0.064268589 -0.10521083 -0.10417686 3.7208118e-40
-0.062273245 -0.10521083 -0.10417686 4.6466216e-40
-0.060277905 -0.10521083 -0.10417686 1.4795554e-39
-0.058282562 -0.10521083 -0.10417686 2.770311e-39
-0.056287218 -0.10521083 -0.10417686 3.416049e-39
-0.054121695 -0.10189888 -0.089244463 3.7848343e-39
-0.052152537 -0.10189888 -0.089244463 3.6926415e-39
-0.050183374 -0.10189888 -0.089244463 2.9550736e-39
-0.048214212 -0.10189888 -0.089244463 2.7699593e-39
-0.046245053 -0.10189888 -0.089244463 3.0458273e-39
-0.044275891 -0.10189888 -0.089244463 3.6904736e-39
-0.042306729 -0.10189888 -0.089244463 3.5075243e-39
-0.040334933 -0.10256544 -0.092249729 2.0356312e-39
-0.038368408 -0.10189888 -0.089244463 2.2214616e-39
-0.036399245 -0.10189888 -0.089244463 2.7746354e-39
-0.034430087 -0.10189888 -0.089244463 2.3125783e-39
-0.032437213 -0.10256544 -0.092249729 2.7731935e-39
-0.030462783 -0.10256544 -0.092249729 2.3114937e-39
-0.028567985 -0.10101564 -0.085262276 1.5735601e-39
-0.02665942 -0.10011137 -0.081185199 5.1469693e-42
-0.024704389 -0.10011137 -0.081185199 1.019645e-39
-0.022749359 -0.10011137 -0.081185199 2.5869567e-39
-0.020719269 -0.10101564 -0.085262276 5.4450044e-39
-0.01875709 -0.10101564 -0.085262276 1.2083076e-38
-0.016794911 -0.10101564 -0.085262276 1.2451841e-38
-0.014832731 -0.10101564 -0.085262276 1.457269e-38
-0.012870554 -0.10101564 -0.085262276 1.4480123e-38
-0.0040548295 -0.094559789 -0.056155182 2.2865217e-38
-0.0021436848 -0.094559789 -0.056155182 2.3326199e-38
-0.0004574582 -0.093236431 -0.050188638 2.2864868e-38
0.0014432259 -0.093236431 -0.050188638 2.341769e-38
0.0031815022 -0.09236221 -0.046247102 2.3509886e-38
0.0049466267 -0.091697961 -0.043252207 2.3509527e-38
0.0066560693 -0.090809584 -0.039246894 2.3509527e-38
0.0083949491 -0.090128779 -0.036177374 2.3509527e-38
0.01012934 -0.089476839 -0.033238031 2.3509527e-38
0.012000304 -0.089476839 -0.033238031 2.3509886e-38
0.01366213 -0.088580042 -0.02919469 2.3509886e-38
0.015364911 -0.087911904 -0.026182272 2.3509883e-38
0.017223503 -0.087911904 -0.026182272 2.350988e-38
0.018911406 -0.087247536 -0.0231869 2.3509879e-38
0.020764749 -0.087247536 -0.0231869 2.350952e-38
0.022618085 -0.087247536 -0.0231869 2.350952e-38
0.024471432 -0.087247536 -0.0231869 2.3509521e-38
0.026324771 -0.087247536 -0.0231869 2.3509524e-38
0.028178111 -0.087247536 -0.0231869 2.3509527e-38
0.029153727 -0.084363595 -0.010184266 2.3509168e-38
0.030775592 -0.083695292 -0.0071711317 2.3509168e-38
0.03260085 -0.083695292 -0.0071711317 2.3509527e-38
0.034426108 -0.083695292 -0.0071711317 2.3509527e-38
0.036028139 -0.08303085 -0.0041754022 2.3509886e-38
0.037848145 -0.08303085 -0.0041754022 2.3509886e-38
0.040136985 -0.084363595 -0.010184266 2.3509886e-38
0.042209286 -0.085035756 -0.013214804 2.3509883e-38
0.044284765 -0.085687637 -0.016153909 2.3509883e-38
0.046125773 -0.085687637 -0.016153909 2.3418047e-38
0.04831158 -0.086586922 -0.020208456 2.3142544e-38
0.050159696 -0.086586922 -0.020208456 2.2958873e-38
0.052007813 -0.086586922 -0.020208456 2.3234379e-38
0.05385593 -0.086586922 -0.020208456 2.341805e-38
0.055704046 -0.086586922 -0.020208456 2.3509527e-38
0.057552163 -0.086586922 -0.020208456 2.3509879e-38
0.059400279 -0.086586922 -0.020208456 2.3509517e-38
0.061538238 -0.087247536 -0.0231869 2.3509161e-38
0.063391566 -0.087247536 -0.0231869 2.3230065e-38
0.065244913 -0.087247536 -0.0231869 2.3508809e-38
0.067098245 -0.087247536 -0.0231869 2.3231151e-38
0.068951592 -0.087247536 -0.0231869 2.1941855e-38
0.070804924 -0.087247536 -0.0231869 2.3417691e-38
0.072658271 -0.087247536 -0.0231869 6.823578e-39
0.074185222 -0.086586922 -0.020208456 4.6173065e-40
-0.070534393 -0.1096663 -0.11518166 5.9019398e-39
-0.068332314 -0.10789602 -0.10726271 7.0083098e-39
-0.066331565 -0.10789602 -0.10726271 1.1081763e-39
-0.064268589 -0.10720618 -0.10417686 5.5575357e-40
-0.062200319 -0.10632066 -0.10021565 1.8833451e-42
-0.060211923 -0.10632066 -0.10021565 2.2658996e-42
-0.058223527 -0.10632066 -0.10021565 2.8102901e-40
-0.056090858 -0.10386805 -0.089244463 1.2962683e-39
-0.054076314 -0.10297783 -0.085262276 2.1267507e-39
-0.052114133 -0.10297783 -0.085262276 2.5877288e-39
-0.050151955 -0.10297783 -0.085262276 2.0345522e-39
-0.048189774 -0.10297783 -0.085262276 1.5735713e-39
-0.046227597 -0.10297783 -0.085262276 2.3107762e-39
-0.044265419 -0.10297783 -0.085262276 3.4171238e-39
-0.042303238 -0.10297783 -0.085262276 4.1550489e-39
-0.04033757 -0.10386805 -0.089244463 2.7728404e-39
-0.038368408 -0.10386805 -0.089244463 1.9445216e-39
-0.036399245 -0.10386805 -0.089244463 2.4984115e-39
-0.034430087 -0.10386805 -0.089244463 2.2221805e-39
-0.032437213 -0.10453986 -0.092249729 2.9597427e-39
-0.030462783 -0.10453986 -0.092249729 4.8954866e-39
-0.028522603 -0.10386805 -0.089244463 6.9230618e-39
-0.026605807 -0.10297783 -0.085262276 8.027959e-39
-0.024643628 -0.10297783 -0.085262276 9.0410179e-39
-0.022615118 -0.10386805 -0.089244463 1.1897991e-38
-0.020719269 -0.10297783 -0.085262276 1.5676556e-38
-0.01875709 -0.10297783 -0.085262276 2.2591172e-38
-0.016794911 -0.10297783 -0.085262276 2.1393364e-38
-0.014832731 -0.10297783 -0.085262276 2.2591531e-38
-0.0021436848 -0.096470937 -0.056155182 2.3418042e-38
-0.0004574582 -0.095137119 -0.050188638 2.350988e-38
0.0014432259 -0.095137119 -0.050188638 2.3509886e-38
0.0031815022 -0.094255984 -0.046247102 2.3141106e-38
0.0049466267 -0.093586475 -0.043252207 2.3509527e-38
0.0066560693 -0.092691094 -0.039246894 2.3509527e-38
0.0083949491 -0.092004895 -0.036177374 2.3509527e-38
0.01012934 -0.091347814 -0.033238031 2.3509527e-38
0.011798255 -0.090443924 -0.02919469 2.3509886e-38
0.01366213 -0.090443924 -0.02919469 2.3509886e-38
0.015364911 -0.089770496 -0.026182272 2.3509883e-38
0.017058067 -0.089100882 -0.0231869 2.350988e-38
0.018741686 -0.088435039 -0.020208456 2.3509879e-38
0.020589806 -0.088435039 -0.020208456 2.3509876e-38
0.022437923 -0.088435039 -0.020208456 2.3509879e-38
0.024033673 -0.087528646 -0.016153909 2.3509521e-38
0.025686592 -0.086871609 -0.013214804 2.3509524e-38
0.027323186 -0.086194143 -0.010184266 2.3509527e-38
0.028950334 -0.085520551 -0.0071711317 2.3509168e-38
0.030568115 -0.084850863 -0.0041754022 2.3509527e-38
0.032388121 -0.084850863 -0.0041754022 2.3509527e-38
0.034208134 -0.084850863 -0.0041754022 2.3509527e-38
0.035735123 -0.083971798 -0.0002431646 2.3509886e-38
0.037548229 -0.083971798 -0.0002431646 2.3509886e-38
0.03966815 -0.084850863 -0.0041754022 2.3509886e-38
0.04196753 -0.086194143 -0.010184266 2.3509886e-38
0.044284765 -0.087528646 -0.016153909 2.3509883e-38
0.046125773 -0.087528646 -0.016153909 2.3418047e-38
0.04831158 -0.088435039 -0.020208456 2.3234379e-38
0.050159696 -0.088435039 -0.020208456 2.3234379e-38
0.052007813 -0.088435039 -0.020208456 2.3417691e-38
0.05385593 -0.088435039 -0.020208456 2.3509527e-38
0.055704046 -0.088435039 -0.020208456 2.3509524e-38
0.057552163 -0.088435039 -0.020208456 2.3509873e-38
0.059400279 -0.088435039 -0.020208456 2.3509869e-38
0.061248396 -0.088435039 -0.020208456 2.3509511e-38
0.063096508 -0.088435039 -0.020208456 2.3508807e-38
0.06494464 -0.088435039 -0.020208456 2.3138593e-38
0.067098245 -0.089100882 -0.0231869 2.2954565e-38
0.068640873 -0.088435039 -0.020208456 2.3509168e-38
0.070488989 -0.088435039 -0.020208456 2.2957438e-38
0.072337106 -0.088435039 -0.020208456 8.9448034e-39
0.074185222 -0.088435039 -0.020208456 4.2038954e-44
-0.07254903 -0.11168094 -0.11518166 7.9280857e-39
-0.070534393 -0.11168094 -0.11518166 7.8366173e-39
-0.068259269 -0.10920154 -0.10417686 5.9920111e-39
-0.066263929 -0.10920154 -0.10417686 2.1201828e-39
-0.064188719 -0.10830905 -0.10021565 2.3056825e-39
-0.062200319 -0.10830905 -0.10021565 9.3886997e-44
-0.060144294 -0.10739426 -0.096155383 1.0369609e-43
-0.058163013 -0.10739426 -0.096155383 1.2026308e-39
-0.056038491 -0.10494001 -0.085262276 1.2962683e-39
-0.054029848 -0.10402142 -0.081185199 1.2055146e-39
-0.052074816 -0.10402142 -0.081185199 2.128187e-39
-0.050119787 -0.10402142 -0.081185199 1.2073069e-39
-0.048146673 -0.10335754 -0.078238584 2.6831559e-39
-0.04617916 -0.1024504 -0.07421229 2.6838747e-39
-0.044236355 -0.1024504 -0.07421229 3.8824179e-39
-0.042303238 -0.10494001 -0.085262276 3.6965945e-39
-0.04033757 -0.10583721 -0.089244463 3.6011731e-39
-0.038368408 -0.10583721 -0.089244463 4.7075235e-39
-0.036399245 -0.10583721 -0.089244463 3.3274603e-39
-0.034712322 -0.095475003 -0.043252207 3.7909481e-39
-0.032460924 -0.10583721 -0.089244463 2.8707827e-39
-0.030491762 -0.10583721 -0.089244463 6.558238e-39
-0.028522603 -0.10583721 -0.089244463 6.3720376e-39
-0.026698168 -0.10335754 -0.078238584 9.2268539e-39
-0.024748303 -0.10335754 -0.078238584 1.0790213e-38
-0.022798439 -0.10335754 -0.078238584 1.290818e-38
-0.020848576 -0.10335754 -0.078238584 1.816008e-38
-0.0021436848 -0.098382086 -0.056155182 2.3509527e-38
-0.00023254007 -0.098382086 -0.056155182 2.3509527e-38
0.0014432259 -0.097037792 -0.050188638 2.3509886e-38
0.0031815022 -0.096149758 -0.046247102 2.3325497e-38
0.0050752759 -0.096149758 -0.046247102 2.3509886e-38
0.0066560693 -0.094572589 -0.039246894 2.3509886e-38
0.0083949491 -0.093881011 -0.036177374 2.3509886e-38
0.01012934 -0.093218774 -0.033238031 2.3509886e-38
0.011798255 -0.092307791 -0.02919469 2.3509886e-38
0.013506319 -0.091629088 -0.026182272 2.3509883e-38
0.015045449 -0.090283155 -0.020208456 2.3509883e-38
0.016893569 -0.090283155 -0.020208456 2.350988e-38
0.018741686 -0.090283155 -0.020208456 2.3509879e-38
0.020351652 -0.089369655 -0.016153909 2.3509879e-38
0.022192664 -0.089369655 -0.016153909 2.3509879e-38
0.023850732 -0.088707477 -0.013214804 2.3509879e-38
0.02529981 -0.087345809 -0.0071711317 2.350988e-38
0.027125075 -0.087345809 -0.0071711317 2.3509883e-38
0.02874811 -0.086670861 -0.0041754022 2.3509883e-38
0.030295782 -0.085784912 -0.0002431646 2.3509883e-38
0.032108895 -0.085784912 -0.0002431646 2.3509886e-38
0.033922009 -0.085784912 -0.0002431646 2.3509886e-38
0.035735123 -0.085784912 -0.0002431646 2.3509886e-38
0.037548229 -0.085784912 -0.0002431646 2.3509886e-38
0.03966815 -0.086670861 -0.0041754022 2.3509886e-38
0.04196753 -0.088024676 -0.010184266 2.3509886e-38
0.044045139 -0.088707477 -0.013214804 2.3509886e-38
0.046125773 -0.089369655 -0.016153909 2.3509886e-38
0.047966797 -0.089369655 -0.016153909 2.3509527e-38
0.050159696 -0.090283155 -0.020208456 2.3509527e-38
0.051648814 -0.089369655 -0.016153909 2.3509168e-38
0.053489823 -0.089369655 -0.016153909 2.3509527e-38
0.055704046 -0.090283155 -0.020208456 2.3509521e-38
0.057552163 -0.090283155 -0.020208456 2.3509873e-38
0.059400279 -0.090283155 -0.020208456 2.3509869e-38
0.061248396 -0.090283155 -0.020208456 2.3509509e-38
0.063096508 -0.090283155 -0.020208456 2.3508793e-38
0.06494464 -0.090283155 -0.020208456 2.350988e-38
0.066792756 -0.090283155 -0.020208456 2.2772323e-38
0.068640873 -0.090283155 -0.020208456 2.3234379e-38
0.070488989 -0.090283155 -0.020208456 2.2958514e-38
0.072337106 -0.090283155 -0.020208456 1.678181e-38
0.074511617 -0.090954214 -0.0231869 4.5190895e-39
0.076364949 -0.090954214 -0.0231869 1.0160058e-39
-0.070254616 -0.11119686 -0.10417686 7.4674789e-39
-0.068259269 -0.11119686 -0.10417686 7.3749483e-39
-0.066177115 -0.11029746 -0.10021565 1.4748148e-39
-0.064106852 -0.10937552 -0.096155383 9.2631434e-41
-0.062125571 -0.10937552 -0.096155383 4.6215804e-40
-0.060029183 -0.10780637 -0.089244463 2.2785113e-42
-0.058060016 -0.10780637 -0.089244463 2.2883204e-42
-0.055984881 -0.10597645 -0.081185199 1.8920192e-40
-0.053996269 -0.10530742 -0.078238584 1.9063965e-40
-0.052007575 -0.1043932 -0.07421229 6.9630521e-42
-0.050064772 -0.1043932 -0.07421229 2.8570794e-40
-0.048103366 -0.10370506 -0.071181513 1.0236331e-39
-0.046148449 -0.10280241 -0.067206122 1.4853315e-39
-0.044217929 -0.10280241 -0.067206122 1.6708018e-39
-0.042287409 -0.10280241 -0.067206122 3.2356164e-39
-0.040377889 -0.097363517 -0.043252207 3.3235044e-39
-0.038489368 -0.097363517 -0.043252207 4.2454635e-39
-0.036600847 -0.097363517 -0.043252207 3.0497944e-39
-0.028693918 -0.1043932 -0.07421229 9.5992476e-39
-0.026751114 -0.1043932 -0.07421229 1.5403605e-38
-0.024808308 -0.1043932 -0.07421229 1.7150629e-38
-0.022865504 -0.1043932 -0.07421229 1.7515801e-38
-0.0209227 -0.1043932 -0.07421229 1.8157918e-38
-0.0019993931 -0.10120471 -0.060169555 2.3509527e-38
-8.1211329e-05 -0.10120471 -0.060169555 2.3509168e-38
0.0015629008 -0.099627286 -0.053222276 2.3233302e-38
0.0034689046 -0.099627286 -0.053222276 2.304891e-38
0.0052445903 -0.09893848 -0.050188638 2.3509886e-38
0.0068351477 -0.097363517 -0.043252207 2.3509886e-38
0.0085375682 -0.096454084 -0.039246894 2.3509886e-38
0.01012934 -0.095089734 -0.033238031 2.3509886e-38
0.011798255 -0.094171658 -0.02919469 2.3509883e-38
0.013351388 -0.092807561 -0.0231869 2.3509883e-38
0.015045449 -0.092131287 -0.020208456 2.3509883e-38
0.016893569 -0.092131287 -0.020208456 2.3509883e-38
0.018510643 -0.091210663 -0.016153909 2.350988e-38
0.020351652 -0.091210663 -0.016153909 2.350988e-38
0.022192664 -0.091210663 -0.016153909 2.350988e-38
0.023850732 -0.09054333 -0.013214804 2.350988e-38
0.025108099 -0.088490874 -0.0041754022 2.350988e-38
0.026669562 -0.087598026 -0.0002431646 2.3509883e-38
0.028482668 -0.087598026 -0.0002431646 2.3509883e-38
0.030295782 -0.087598026 -0.0002431646 2.3509883e-38
0.032108895 -0.087598026 -0.0002431646 2.3509883e-38
0.033922009 -0.087598026 -0.0002431646 2.3509883e-38
0.035506994 -0.086902916 0.0028182492 2.3509886e-38
0.037314735 -0.086902916 0.0028182492 2.3509886e-38
0.039361343 -0.087598026 -0.0002431646 2.3509886e-38
0.041727144 -0.089171067 -0.0071711317 2.3509886e-38
0.043798063 -0.089855224 -0.010184266 2.3509886e-38
0.046125773 -0.091210663 -0.016153909 2.3509886e-38
0.047966797 -0.091210663 -0.016153909 2.3509527e-38
0.049807806 -0.091210663 -0.016153909 2.3509167e-38
0.051648814 -0.091210663 -0.016153909 2.3508807e-38
0.053489823 -0.091210663 -0.016153909 2.3508804e-38
0.055330832 -0.091210663 -0.016153909 2.3508445e-38
0.057552163 -0.092131287 -0.020208456 2.350916e-38
0.059400279 -0.092131287 -0.020208456 2.3509513e-38
0.061248396 -0.092131287 -0.020208456 2.3509869e-38
0.063096508 -0.092131287 -0.020208456 2.350987e-38
0.06494464 -0.092131287 -0.020208456 2.3509876e-38
0.066792756 -0.092131287 -0.020208456 2.2773037e-38
0.068640873 -0.092131287 -0.020208456 2.3234379e-38
0.070488989 -0.092131287 -0.020208456 2.2589737e-38
0.072337106 -0.092131287 -0.020208456 2.286632e-38
0.074185222 -0.092131287 -0.020208456 2.0284881e-38
0.076033339 -0.092131287 -0.020208456 6.4757786e-40
-0.070050687 -0.11135681 -0.096155383 7.1008544e-39
-0.068069406 -0.11135681 -0.096155383 8.760038e-39
-0.066088125 -0.11135681 -0.096155383 2.9517413e-39
-0.064028099 -0.11046316 -0.092249729 6.5861028e-44
-0.062053669 -0.11046316 -0.092249729 4.526194e-43
-0.060029183 -0.10977553 -0.089244463 2.6330398e-42
-0.058000673 -0.10886435 -0.085262276 3.7250577e-40
-0.05594613 -0.10725726 -0.078238584 5.1651861e-42
-0.053950381 -0.10633601 -0.07421229 3.0483398e-39
-0.05197835 -0.10564254 -0.071181513 1.6661215e-39
-0.050009493 -0.10473295 -0.067206122 9.8795746e-41
-0.048035789 -0.1031229 -0.060169555 4.4379122e-42
-0.046100013 -0.10220437 -0.056155182 2.2203742e-39
-0.044173174 -0.10083917 -0.050188638 2.7731921e-39
-0.042272493 -0.10083917 -0.050188638 4.3394402e-39
-0.040377889 -0.099252045 -0.043252207 6.6421757e-39
-0.038489368 -0.099252045 -0.043252207 7.0106023e-39
-0.036600847 -0.099252045 -0.043252207 5.9074946e-39
-0.028693918 -0.10633601 -0.07421229 9.4137914e-39
-0.026751114 -0.10633601 -0.07421229 1.5772028e-38
-0.024853477 -0.10564254 -0.071181513 1.7611607e-38
-0.022915987 -0.10564254 -0.071181513 1.8990929e-38
-0.0209227 -0.10633601 -0.07421229 1.8434858e-38
-0.0018883385 -0.10382988 -0.063259341 2.3509527e-38
-8.1211329e-05 -0.1031229 -0.060169555 2.3509527e-38
0.0016786046 -0.10220437 -0.056155182 2.3509886e-38
0.0034689046 -0.10153329 -0.053222276 2.3509886e-38
0.0053749047 -0.10153329 -0.053222276 2.3509886e-38
0.0069690496 -0.099937305 -0.046247102 2.3509886e-38
0.0085375682 -0.098335579 -0.039246894 2.3509886e-38
0.01012934 -0.096960694 -0.033238031 2.3509886e-38
0.011798255 -0.09603554 -0.02919469 2.3509883e-38
0.013351388 -0.094660893 -0.0231869 2.3509883e-38
0.015045449 -0.093979403 -0.020208456 2.3509883e-38
0.016893569 -0.093979403 -0.020208456 2.3509883e-38
0.018510643 -0.093051672 -0.016153909 2.3509883e-38
0.020351652 -0.093051672 -0.016153909 2.3509883e-38
0.022014879 -0.092379183 -0.013214804 2.3509883e-38
0.023474552 -0.090996325 -0.0071711317 2.3509883e-38
0.024856448 -0.089411139 -0.0002431646 2.3509883e-38
0.026669562 -0.089411139 -0.0002431646 2.3509886e-38
0.028276019 -0.088710666 0.0028182492 2.3509886e-38
0.030083761 -0.088710666 0.0028182492 2.3509886e-38
0.031891502 -0.088710666 0.0028182492 2.3509886e-38
0.033699252 -0.088710666 0.0028182492 2.3509886e-38
0.035506994 -0.088710666 0.0028182492 2.3509886e-38
0.037314735 -0.088710666 0.0028182492 2.3509886e-38
0.039361343 -0.089411139 -0.0002431646 2.3509886e-38
0.041727144 -0.090996325 -0.0071711317 2.3509886e-38
0.043798063 -0.091685757 -0.010184266 2.3509886e-38
0.045628611 -0.091685757 -0.010184266 2.3509886e-38
0.047966797 -0.093051672 -0.016153909 2.341805e-38
0.049807806 -0.093051672 -0.016153909 2.341805e-38
0.051388565 -0.092379183 -0.013214804 2.3325856e-38
0.053224418 -0.092379183 -0.013214804 2.3325138e-38
0.055330832 -0.093051672 -0.016153909 2.3509168e-38
0.05717184 -0.093051672 -0.016153909 2.3509527e-38
0.059012849 -0.093051672 -0.016153909 2.3509527e-38
0.060853858 -0.093051672 -0.016153909 2.3509524e-38
0.062694862 -0.093051672 -0.016153909 2.3509518e-38
0.064535871 -0.093051672 -0.016153909 2.3509879e-38
0.06637688 -0.093051672 -0.016153909 2.3140737e-38
0.068217888 -0.093051672 -0.016153909 2.3509886e-38
0.069425657 -0.091685757 -0.010184266 2.2957079e-38
0.071256191 -0.091685757 -0.010184266 2.323402e-38
0.074185222 -0.093979403 -0.020208456 2.3233662e-38
0.076033339 -0.093979403 -0.020208456 6.7310307e-39
-0.067905828 -0.11174469 -0.089244463 8.1157448e-39
-0.06593667 -0.11174469 -0.089244463 3.321956e-39
-0.063967496 -0.11174469 -0.089244463 5.5575637e-40
-0.061998341 -0.11174469 -0.089244463 3.32388e-42
-0.05996285 -0.11082654 -0.085262276 4.6242849e-43
-0.057939909 -0.10988651 -0.081185199 3.7177709e-40
-0.055893186 -0.10827883 -0.07421229 2.5851981e-39
-0.05391584 -0.10758002 -0.071181513 6.9191116e-39
-0.051940013 -0.10666345 -0.067206122 4.4309057e-39
-0.049953975 -0.10504107 -0.060169555 1.9141737e-42
-0.047993157 -0.10343929 -0.053222276 1.1210388e-43
-0.046073858 -0.10273984 -0.050188638 5.1673946e-39
-0.04416281 -0.10183108 -0.046247102 1.0053766e-38
-0.042269036 -0.10183108 -0.046247102 1.2911827e-38
-0.040381402 -0.10021709 -0.039246894 1.3002581e-38
-0.038507976 -0.099509358 -0.036177374 1.2266458e-38
-0.036631856 -0.099509358 -0.036177374 1.1162999e-38
-0.03475574 -0.099509358 -0.036177374 1.1072253e-38
-0.026751114 -0.10827883 -0.07421229 1.3189847e-38
-0.024853477 -0.10758002 -0.071181513 1.5766983e-38
-0.022915987 -0.10758002 -0.071181513 1.9175321e-38
-0.0058357604 -0.10504107 -0.060169555 2.3509168e-38
-0.0039175786 -0.10504107 -0.060169555 2.3509527e-38
-0.0018883385 -0.10575347 -0.063259341 2.3509527e-38
3.5263598e-05 -0.10575347 -0.063259341 2.3509527e-38
0.0019588619 -0.10575347 -0.063259341 2.3509886e-38
0.003755156 -0.10504107 -0.060169555 2.3509886e-38
0.005500894 -0.1041155 -0.056155182 2.3509886e-38
0.0074120387 -0.1041155 -0.056155182 2.3509886e-38
0.0093231834 -0.1041155 -0.056155182 2.3509886e-38
0.0099343844 -0.097899407 -0.02919469 2.3509886e-38
0.011647727 -0.097204864 -0.026182272 2.3509883e-38
0.013197333 -0.09582752 -0.020208456 2.3509883e-38
0.015045449 -0.09582752 -0.020208456 2.3509883e-38
0.016893569 -0.09582752 -0.020208456 2.3509883e-38
0.018510643 -0.094892681 -0.016153909 2.3509886e-38
0.020179022 -0.094215035 -0.013214804 2.3509886e-38
0.021649294 -0.092821583 -0.0071711317 2.3509886e-38
0.023043334 -0.091224253 -0.0002431646 2.3509886e-38
0.024660528 -0.0905184 0.0028182492 2.3509886e-38
0.026275054 -0.089840859 0.0057568774 2.3509886e-38
0.028077647 -0.089840859 0.0057568774 2.3509886e-38
0.030083761 -0.0905184 0.0028182492 2.3509886e-38
0.031891502 -0.0905184 0.0028182492 2.3509886e-38
0.033699252 -0.0905184 0.0028182492 2.3509886e-38
0.035506994 -0.0905184 0.0028182492 2.3509886e-38
0.037314735 -0.0905184 0.0028182492 2.3509886e-38
0.039361343 -0.091224253 -0.0002431646 2.3509886e-38
0.041727144 -0.092821583 -0.0071711317 2.3509886e-38
0.043552402 -0.092821583 -0.0071711317 2.3509886e-38
0.045628611 -0.093516305 -0.010184266 2.341805e-38
0.047459144 -0.093516305 -0.010184266 2.3142544e-38
0.049289692 -0.093516305 -0.010184266 2.2958873e-38
0.051388565 -0.094215035 -0.013214804 2.3142544e-38
0.053224418 -0.094215035 -0.013214804 2.3234379e-38
0.055060286 -0.094215035 -0.013214804 2.3325497e-38
0.056896139 -0.094215035 -0.013214804 2.3509168e-38
0.058731992 -0.094215035 -0.013214804 2.3509168e-38
0.060272951 -0.093516305 -0.010184266 2.3509168e-38
0.062103484 -0.093516305 -0.010184266 2.3324055e-38
0.063934028 -0.093516305 -0.010184266 2.3509521e-38
0.066075414 -0.094215035 -0.013214804 2.3509879e-38
0.067595109 -0.093516305 -0.010184266 2.3417323e-38
0.069425657 -0.093516305 -0.010184266 2.350988e-38
0.071256191 -0.093516305 -0.010184266 2.2864153e-38
0.073086739 -0.093516305 -0.010184266 2.2034756e-38
-0.06593667 -0.11371385 -0.089244463 1.9400949e-39
-0.063967496 -0.11371385 -0.089244463 1.2943906e-39
-0.061998341 -0.11371385 -0.089244463 1.5710013e-39
-0.05996285 -0.11278872 -0.085262276 2.972154e-42
-0.057939909 -0.11184154 -0.081185199 2.6232307e-42
-0.055893186 -0.11022164 -0.07421229 2.4926311e-39
-0.05391584 -0.10951753 -0.071181513 7.3790023e-39
-0.051901951 -0.10767709 -0.063259341 6.6414373e-39
-0.049922302 -0.10602666 -0.056155182 1.9113711e-42
-0.047950353 -0.10372485 -0.046247102 2.9945748e-42
-0.04605658 -0.10372485 -0.046247102 5.8109591e-39
-0.044154931 -0.10302909 -0.043252207 1.0789167e-38
-0.042262897 -0.10209858 -0.039246894 1.1158304e-38
-0.040384091 -0.10138547 -0.036177374 1.1066459e-38
-0.038515702 -0.10070263 -0.033238031 1.0330336e-38
-0.036644742 -0.10070263 -0.033238031 9.6871441e-39
-0.0058357604 -0.10695927 -0.060169555 2.3325138e-38
-0.0039175786 -0.10695927 -0.060169555 2.3509527e-38
-0.0017464757 -0.10859399 -0.067206122 2.3509527e-38
0.00018404424 -0.10859399 -0.067206122 2.3417333e-38
0.0021145642 -0.10859399 -0.067206122 2.3233302e-38
0.0040450841 -0.10859399 -0.067206122 2.3417691e-38
0.0059756041 -0.10859399 -0.067206122 2.3509886e-38
0.007906124 -0.10859399 -0.067206122 2.3509886e-38
0.0080705099 -0.099763289 -0.02919469 2.3509886e-38
0.0099343844 -0.099763289 -0.02919469 2.3509886e-38
0.011647727 -0.099063456 -0.026182272 2.3509883e-38
0.013197333 -0.097675636 -0.020208456 2.3509883e-38
0.014828626 -0.096733689 -0.016153909 2.3509883e-38
0.016669635 -0.096733689 -0.016153909 2.3509886e-38
0.018343166 -0.096050888 -0.013214804 2.3509886e-38
0.019824035 -0.094646841 -0.0071711317 2.3509886e-38
0.021230221 -0.093037367 -0.0002431646 2.3509527e-38
0.022852778 -0.092326149 0.0028182492 2.3509886e-38
0.02447246 -0.091643453 0.0057568774 2.3509527e-38
0.026076101 -0.09094049 0.0087827668 2.3509527e-38
0.027873389 -0.09094049 0.0087827668 2.3509527e-38
0.029880241 -0.091643453 0.0057568774 2.3509527e-38
0.031891502 -0.092326149 0.0028182492 2.3509886e-38
0.033699252 -0.092326149 0.0028182492 2.3509886e-38
0.035506994 -0.092326149 0.0028182492 2.3509886e-38
0.037314735 -0.092326149 0.0028182492 2.3509886e-38
0.039361343 -0.093037367 -0.0002431646 2.3509886e-38
0.041488156 -0.093950883 -0.0041754022 2.3509886e-38
0.042737965 -0.092326149 0.0028182492 2.3509886e-38
0.044300977 -0.091643453 0.0057568774 2.341805e-38
0.046103571 -0.091643453 0.0057568774 2.2591166e-38
0.0484269 -0.093037367 -0.0002431646 2.2683366e-38
0.050588194 -0.093950883 -0.0041754022 2.2958873e-38
0.052408192 -0.093950883 -0.0041754022 2.2867037e-38
0.054228205 -0.093950883 -0.0041754022 2.3049632e-38
0.056329224 -0.094646841 -0.0071711317 2.314075e-38
0.058154482 -0.094646841 -0.0071711317 2.3232227e-38
0.059688229 -0.093950883 -0.0041754022 2.3416256e-38
0.061118696 -0.093037367 -0.0002431646 2.3509168e-38
0.062931806 -0.093037367 -0.0002431646 2.2770879e-38
0.064744905 -0.093037367 -0.0002431646 2.3509876e-38
0.066238642 -0.092326149 0.0028182492 2.350987e-38
0.067734674 -0.091643453 0.0057568774 2.2679386e-38
0.069537267 -0.091643453 0.0057568774 2.3509866e-38
0.071339861 -0.091643453 0.0057568774 2.3509866e-38
-0.066002533 -0.11638646 -0.092249729 1.9404494e-39
-0.063967496 -0.115683 -0.089244463 1.8839477e-40
-0.061998341 -0.115683 -0.089244463 6.0255834e-44
-0.05996285 -0.11475091 -0.085262276 7.4268819e-44
-0.057895996 -0.11310686 -0.078238584 2.7991918e-40
-0.055893186 -0.11216442 -0.07421229 3.7176448e-40
-0.05391584 -0.11145501 -0.071181513 7.563025e-39
-0.051872157 -0.10887744 -0.060169555 8.5771797e-39
-0.049922302 -0.1079378 -0.056155182 1.1854985e-42
-0.047950353 -0.10561861 -0.046247102 1.1897024e-42
-0.04605658 -0.10561861 -0.046247102 6.0871817e-39
-0.044154931 -0.1049176 -0.043252207 8.1144093e-39
-0.042254087 -0.10162716 -0.02919469 1.0164192e-39
-0.040390212 -0.10162716 -0.02919469 6.4798563e-40
-0.038534261 -0.10092205 -0.026182272 1.1111246e-39
-0.036675669 -0.10092205 -0.026182272 1.8501498e-39
-0.0095827393 -0.10960068 -0.063259341 2.009831e-38
-0.007659141 -0.10960068 -0.063259341 2.0558921e-38
-0.0058357604 -0.10887744 -0.060169555 2.1849659e-38
-0.0039175786 -0.10887744 -0.060169555 2.3509527e-38
-0.0017464757 -0.11052449 -0.067206122 2.3509527e-38
0.00018404424 -0.11052449 -0.067206122 2.3509527e-38
0.0021145642 -0.11052449 -0.067206122 2.3417333e-38
0.0040450841 -0.11052449 -0.067206122 2.3509886e-38
0.0059756041 -0.11052449 -0.067206122 2.3509886e-38
0.0076529793 -0.099523753 -0.020208456 2.3509886e-38
0.0097891353 -0.10092205 -0.026182272 2.3509886e-38
0.011647727 -0.10092205 -0.026182272 2.3509883e-38
0.012987617 -0.098574698 -0.016153909 2.3509883e-38
0.014671452 -0.097886756 -0.013214804 2.3509883e-38
0.016339932 -0.097177386 -0.010184266 2.3509886e-38
0.017998777 -0.096472099 -0.0071711317 2.3509886e-38
0.019648075 -0.095770895 -0.0041754022 2.3509527e-38
0.021045037 -0.094133899 0.0028182492 2.3509527e-38
0.022669874 -0.093446046 0.0057568774 2.3509527e-38
0.02447246 -0.093446046 0.0057568774 2.3509527e-38
0.026076101 -0.092737779 0.0087827668 2.3509886e-38
0.027873389 -0.092737779 0.0087827668 2.3509527e-38
0.029670678 -0.092737779 0.0087827668 2.3509886e-38
0.031682834 -0.093446046 0.0057568774 2.3509886e-38
0.033699252 -0.094133899 0.0028182492 2.3509886e-38
0.035506994 -0.094133899 0.0028182492 2.3509886e-38
0.037314735 -0.094133899 0.0028182492 2.3509886e-38
0.039361343 -0.094850481 -0.0002431646 2.3509886e-38
0.041488156 -0.095770895 -0.0041754022 2.3509886e-38
0.042737965 -0.094133899 0.0028182492 2.3509886e-38
0.044300977 -0.093446046 0.0057568774 2.341805e-38
0.046103571 -0.093446046 0.0057568774 2.2867033e-38
0.048161212 -0.094133899 0.0028182492 2.2867037e-38
0.049968947 -0.094133899 0.0028182492 2.2958873e-38
0.052408192 -0.095770895 -0.0041754022 2.2958873e-38
0.053866241 -0.094850481 -0.0002431646 2.3141826e-38
0.055679355 -0.094850481 -0.0002431646 2.3232944e-38
0.057492469 -0.094850481 -0.0002431646 2.3325138e-38
0.059305582 -0.094850481 -0.0002431646 2.3509168e-38
0.060815413 -0.094133899 0.0028182492 2.3509168e-38
0.062623158 -0.094133899 0.0028182492 2.3509527e-38
0.064129487 -0.093446046 0.0057568774 2.3416603e-38
0.06593208 -0.093446046 0.0057568774 2.350987e-38
0.067413703 -0.092737779 0.0087827668 2.2402797e-38
0.068886608 -0.09203364 0.011791013 2.3509863e-38
0.070678622 -0.09203364 0.011791013 2.3509866e-38
0.073142454 -0.093446046 0.0057568774 2.2310977e-38
-0.066088125 -0.11928193 -0.096155383 5.5349916e-39
-0.064028099 -0.11836089 -0.092249729 4.7045345e-39
-0.061998341 -0.11765216 -0.089244463 2.0312368e-39
-0.05996285 -0.11671309 -0.085262276 1.9390552e-39
-0.057895996 -0.11505674 -0.078238584 1.5204088e-42
-0.055893186 -0.11410724 -0.07421229 9.5164981e-41
-0.053870533 -0.11245503 -0.067206122 7.1938754e-39
-0.051872157 -0.11079563 -0.060169555 8.5768126e-39
-0.049899161 -0.10915731 -0.053222276 8.323825e-40
-0.047950353 -0.1075124 -0.046247102 4.6382979e-43
-0.046012443 -0.10513772 -0.036177374 7.1935236e-39
-0.044136323 -0.10513772 -0.036177374 8.8519688e-39
-0.042254087 -0.10349102 -0.02919469 4.6359998e-40
-0.040392853 -0.10278064 -0.026182272 1.5316192e-42
-0.038534261 -0.10278064 -0.026182272 6.4942337e-40
-0.036675669 -0.10278064 -0.026182272 1.4810001e-39
-0.015260121 -0.11245503 -0.067206122 1.972847e-38
-0.013329601 -0.11245503 -0.067206122 1.8991984e-38
-0.011399081 -0.11245503 -0.067206122 1.7978187e-38
-0.0095827393 -0.11152427 -0.063259341 1.8623182e-38
-0.007659141 -0.11152427 -0.063259341 1.8992317e-38
-0.0057355389 -0.11152427 -0.063259341 2.0283055e-38
-0.0038119368 -0.11152427 -0.063259341 2.2219161e-38
-0.0017464757 -0.11245503 -0.067206122 2.3233303e-38
0.00018404424 -0.11245503 -0.067206122 2.3233662e-38
0.0021145642 -0.11245503 -0.067206122 2.341805e-38
0.0040450841 -0.11245503 -0.067206122 2.341805e-38
0.0059756041 -0.11245503 -0.067206122 2.3509886e-38
0.0076529793 -0.10137187 -0.020208456 2.3509883e-38
0.0095010959 -0.10137187 -0.020208456 2.3509883e-38
0.011146609 -0.10041572 -0.016153909 2.3509883e-38
0.012835596 -0.099722609 -0.013214804 2.3509883e-38
0.014509391 -0.099007934 -0.010184266 2.3509883e-38
0.016173515 -0.098297372 -0.0071711317 2.3509886e-38
0.017998777 -0.098297372 -0.0071711317 2.341805e-38
0.019648075 -0.097590908 -0.0041754022 2.341805e-38
0.020867281 -0.09524864 0.0057568774 2.341805e-38
0.022669874 -0.09524864 0.0057568774 2.341805e-38
0.02427882 -0.094535068 0.0087827668 2.341805e-38
0.02587831 -0.093825653 0.011791013 2.341805e-38
0.027670324 -0.093825653 0.011791013 2.341805e-38
0.029670678 -0.094535068 0.0087827668 2.341805e-38
0.031682834 -0.09524864 0.0057568774 2.341805e-38
0.033699252 -0.095941633 0.0028182492 2.3418047e-38
0.035288014 -0.09524864 0.0057568774 2.341805e-38
0.037090607 -0.09524864 0.0057568774 2.3418047e-38
0.0388932 -0.09524864 0.0057568774 2.3418047e-38
0.041174456 -0.096663594 -0.0002431646 2.3418047e-38
0.042737965 -0.095941633 0.0028182492 2.3418047e-38
0.044300977 -0.09524864 0.0057568774 2.3418045e-38
0.045846257 -0.094535068 0.0087827668 2.3234372e-38
0.047382463 -0.093825653 0.011791013 2.3142538e-38
0.049174476 -0.093825653 0.011791013 2.3142544e-38
0.051238123 -0.094535068 0.0087827668 2.3142185e-38
0.053584445 -0.095941633 0.0028182492 2.2773408e-38
0.05539218 -0.095941633 0.0028182492 2.295672e-38
0.057199929 -0.095941633 0.0028182492 2.3325497e-38
0.059007678 -0.095941633 0.0028182492 2.3509527e-38
0.060815413 -0.095941633 0.0028182492 2.2771967e-38
0.062623158 -0.095941633 0.0028182492 2.3509527e-38
0.064129487 -0.09524864 0.0057568774 2.2956346e-38
0.06593208 -0.09524864 0.0057568774 2.3509879e-38
0.066777363 -0.093120396 0.014781617 2.3509879e-38
0.068564132 -0.093120396 0.014781617 2.3418042e-38
0.0703509 -0.093120396 0.014781617 2.3418043e-38
0.073142454 -0.09524864 0.0057568774 2.3417691e-38
-0.066177115 -0.12222783 -0.10021565 1.1710654e-38
-0.064028099 -0.12033533 -0.092249729 1.5398497e-38
-0.062053669 -0.12033533 -0.092249729 1.5859491e-38
-0.05996285 -0.11867525 -0.085262276 1.1803976e-38
-0.057895996 -0.11700659 -0.078238584 6.1657132e-44
-0.055893186 -0.11605005 -0.07421229 4.3720512e-43
-0.053870533 -0.11438553 -0.067206122 4.0595757e-39
-0.051872157 -0.1127138 -0.060169555 7.286787e-39
-0.049899161 -0.11106332 -0.053222276 6.2726379e-39
-0.047950353 -0.10940616 -0.046247102 2.3082286e-39
-0.046012443 -0.10701384 -0.036177374 5.4428801e-39
-0.044117961 -0.10535492 -0.02919469 5.0733815e-39
-0.042251445 -0.10463922 -0.026182272 3.7212041e-40
-0.040392853 -0.10463922 -0.026182272 1.8945555e-42
-0.038542137 -0.1039276 -0.0231869 2.6176255e-42
-0.036719628 -0.10225673 -0.016153909 2.986167e-42
-0.034878619 -0.10225673 -0.016153909 1.1350518e-43
-0.01734486 -0.1127138 -0.060169555 1.9360065e-38
-0.015426677 -0.1127138 -0.060169555 1.9360414e-38
-0.013508493 -0.1127138 -0.060169555 1.9084899e-38
-0.011399081 -0.11438553 -0.067206122 1.8439881e-38
-0.0094685592 -0.11438553 -0.067206122 1.9638057e-38
-0.0075380392 -0.11438553 -0.067206122 1.9545136e-38
-0.0057355389 -0.11344786 -0.063259341 2.0006111e-38
-0.0038119368 -0.11344786 -0.063259341 2.1205012e-38
-0.0017464757 -0.11438553 -0.067206122 2.1942574e-38
0.00018404424 -0.11438553 -0.067206122 2.2034767e-38
0.0021145642 -0.11438553 -0.067206122 2.2588296e-38
0.0095010959 -0.10322 -0.020208456 2.3509883e-38
0.011146609 -0.10225673 -0.016153909 2.3509883e-38
0.012835596 -0.10155846 -0.013214804 2.3509883e-38
0.014509391 -0.10083848 -0.010184266 2.3509883e-38
0.016173515 -0.10012263 -0.0071711317 2.3509883e-38
0.017998777 -0.10012263 -0.0071711317 2.341805e-38
0.019824035 -0.10012263 -0.0071711317 2.341805e-38
0.020867281 -0.097051233 0.0057568774 2.341805e-38
0.022669874 -0.097051233 0.0057568774 2.341805e-38
0.02427882 -0.096332356 0.0087827668 2.341805e-38
0.02587831 -0.095617667 0.011791013 2.3418047e-38
0.02746845 -0.094907165 0.014781617 2.3418047e-38
0.029255219 -0.094907165 0.014781617 2.3418047e-38
0.031682834 -0.097051233 0.0057568774 2.3418047e-38
0.033699252 -0.097749382 0.0028182492 2.3418045e-38
0.035288014 -0.097051233 0.0057568774 2.3418047e-38
0.036859825 -0.096332356 0.0087827668 2.3418045e-38
0.038657114 -0.096332356 0.0087827668 2.3418045e-38
0.040930226 -0.097749382 0.0028182492 2.3418045e-38
0.042498384 -0.097051233 0.0057568774 2.3418045e-38
0.044048969 -0.096332356 0.0087827668 2.3418043e-38
0.045846257 -0.096332356 0.0087827668 2.3509876e-38
0.047382463 -0.095617667 0.011791013 2.3418042e-38
0.049174476 -0.095617667 0.011791013 2.31411e-38
0.05096649 -0.095617667 0.011791013 2.2496097e-38
0.053313944 -0.097051233 0.0057568774 2.2218794e-38
0.055116523 -0.097051233 0.0057568774 2.2219514e-38
0.056919117 -0.097051233 0.0057568774 2.2772688e-38
0.05872171 -0.097051233 0.0057568774 2.3325856e-38
0.060524303 -0.097051233 0.0057568774 2.341805e-38
0.062623158 -0.097749382 0.0028182492 2.2864879e-38
0.064129487 -0.097051233 0.0057568774 2.3234379e-38
0.06593208 -0.097051233 0.0057568774 2.2958155e-38
0.066777363 -0.094907165 0.014781617 2.3142544e-38
0.068564132 -0.094907165 0.014781617 2.2589378e-38
0.0703509 -0.094907165 0.014781617 2.2865602e-38
-0.066002533 -0.12230973 -0.092249729 1.4566556e-38
-0.064028099 -0.12230973 -0.092249729 1.7240242e-38
-0.061998341 -0.12159048 -0.089244463 1.6595963e-38
-0.05996285 -0.12063743 -0.085262276 1.5582904e-38
-0.057895996 -0.11895646 -0.078238584 1.4951855e-42
-0.055893186 -0.11799283 -0.07421229 6.1657132e-44
-0.053870533 -0.11631607 -0.067206122 1.2025803e-39
-0.051872157 -0.114632 -0.060169555 5.167361e-39
-0.049899161 -0.11296929 -0.053222276 5.7201774e-39
-0.047950353 -0.11129995 -0.046247102 2.4944122e-39
-0.046012443 -0.10888995 -0.036177374 4.6149144e-39
-0.044117961 -0.10721879 -0.02919469 5.2602839e-39
-0.042251445 -0.10649781 -0.026182272 2.2560905e-42
-0.040398091 -0.1050681 -0.020208456 2.2602944e-42
-0.038549975 -0.1050681 -0.020208456 2.2616957e-42
-0.036745794 -0.10266902 -0.010184266 1.1826959e-42
-0.034915254 -0.10266902 -0.010184266 3.3463007e-42
-0.02283711 -0.093105495 0.029775284 9.6792183e-39
-0.021076631 -0.093105495 0.029775284 1.8622515e-38
-0.01734486 -0.114632 -0.060169555 1.9175681e-38
-0.015521698 -0.11367123 -0.056155182 1.9084191e-38
-0.013610553 -0.11367123 -0.056155182 1.7979629e-38
-0.011699408 -0.11367123 -0.056155182 1.9915009e-38
-0.0094685592 -0.11631607 -0.067206122 1.9085245e-38
