# .PCD v0.7 - Point Cloud Data file format
VERSION 0.7
FIELDS x y z rgb
SIZE 4 4 4 4
TYPE F F F F
COUNT 1 1 1 1
WIDTH 920
HEIGHT 1
VIEWPOINT 0 0 0 1 0 0 0
POINTS 920
DATA ascii
-0.047791287 -0.089435071 -0.099593073 2.3509527e-38
-0.04588715 -0.088574663 -0.095651537 2.3509527e-38
-0.043996006 -0.087920904 -0.092656642 2.3509886e-38
-0.042133819 -0.085734919 -0.082642466 2.3509886e-38
-0.040280581 -0.084852293 -0.078599125 2.3509886e-38
-0.038416706 -0.084852293 -0.078599125 2.3509886e-38
-0.036576599 -0.08419472 -0.075586706 2.3509886e-38
-0.034718007 -0.08419472 -0.075586706 2.3509886e-38
-0.032893553 -0.083540857 -0.072591335 2.3509886e-38
-0.031040214 -0.083540857 -0.072591335 2.3509886e-38
-0.029186873 -0.083540857 -0.072591335 2.3509886e-38
-0.027383143 -0.082890689 -0.06961289 2.3509886e-38
-0.025535027 -0.082890689 -0.06961289 2.3509886e-38
-0.023768662 -0.08200562 -0.065558344 2.3509886e-38
-0.021927651 -0.08200562 -0.065558344 2.3509886e-38
-0.020961629 -0.073936298 -0.028592259 2.3509886e-38
-0.019262699 -0.073272884 -0.025553137 2.3509886e-38
-0.017491832 -0.073272884 -0.025553137 2.341805e-38
-0.015720965 -0.073272884 -0.025553137 2.341805e-38
-0.0139501 -0.073272884 -0.025553137 2.341805e-38
-0.012179231 -0.073272884 -0.025553137 2.3509886e-38
-0.010408366 -0.073272884 -0.025553137 2.3509886e-38
-0.0085282642 -0.073936298 -0.028592259 2.3509527e-38
-0.0067520682 -0.073936298 -0.028592259 2.3509883e-38
-0.0049758721 -0.073936298 -0.028592259 2.3509527e-38
-0.0031996798 -0.073936298 -0.028592259 2.3509527e-38
-0.0014234837 -0.073936298 -0.028592259 2.3509886e-38
0.00048941188 -0.074603721 -0.031649739 2.341805e-38
0.0022709686 -0.074603721 -0.031649739 2.3418047e-38
0.0041958746 -0.075252712 -0.034622818 2.3418047e-38
0.0059826467 -0.075252712 -0.034622818 2.3509883e-38
0.0080796946 -0.076562196 -0.040621668 2.3509883e-38
0.010038795 -0.07722272 -0.043647557 2.3509883e-38
0.011841388 -0.07722272 -0.043647557 2.3509883e-38
0.013811434 -0.077864185 -0.046586186 2.3509883e-38
0.015619176 -0.077864185 -0.046586186 2.3509883e-38
0.017612105 -0.078532472 -0.049647599 2.2589e-38
0.019234663 -0.077864185 -0.046586186 2.3142541e-38
0.020854345 -0.07722272 -0.043647557 2.2958873e-38
0.022656938 -0.07722272 -0.043647557 1.4292884e-38
-0.063163005 -0.093531981 -0.10957399 1.9727411e-38
-0.061184995 -0.09264864 -0.10555962 2.3507733e-38
-0.059273846 -0.09264864 -0.10555962 2.3509168e-38
-0.057362705 -0.09264864 -0.10555962 2.3508801e-38
-0.055451557 -0.09264864 -0.10555962 2.3508441e-38
-0.053517275 -0.092003286 -0.10262671 2.3509164e-38
-0.051611274 -0.092003286 -0.10262671 2.3232944e-38
-0.049705271 -0.092003286 -0.10262671 2.2864526e-38
-0.047799267 -0.092003286 -0.10262671 2.2496821e-38
-0.045893267 -0.092003286 -0.10262671 2.2589374e-38
-0.043987263 -0.092003286 -0.10262671 2.3509886e-38
-0.042081259 -0.092003286 -0.10262671 2.3509886e-38
-0.040280581 -0.086716175 -0.078599125 2.3509886e-38
-0.038416706 -0.086716175 -0.078599125 2.3509886e-38
-0.036576599 -0.086053312 -0.075586706 2.3509886e-38
-0.034718007 -0.086053312 -0.075586706 2.3509886e-38
-0.032859415 -0.086053312 -0.075586706 2.341769e-38
-0.031000823 -0.086053312 -0.075586706 2.3325494e-38
-0.029142233 -0.086053312 -0.075586706 2.3509886e-38
-0.027283641 -0.086053312 -0.075586706 2.3509886e-38
-0.025480192 -0.085394189 -0.072591335 2.3509886e-38
-0.023686908 -0.084738806 -0.06961289 2.3509886e-38
-0.02183879 -0.084738806 -0.06961289 2.3509886e-38
-0.020961629 -0.075712487 -0.028592259 2.3509886e-38
-0.019336948 -0.07440111 -0.022632629 2.3509886e-38
-0.017571202 -0.07440111 -0.022632629 2.341805e-38
-0.015805457 -0.07440111 -0.022632629 2.3142544e-38
-0.01403971 -0.07440111 -0.022632629 2.3142544e-38
-0.012273965 -0.07440111 -0.022632629 2.341805e-38
-0.010508219 -0.07440111 -0.022632629 2.3509886e-38
-0.0086375009 -0.075043753 -0.025553137 2.3509527e-38
-0.006866632 -0.075043753 -0.025553137 2.3509527e-38
-0.0049758721 -0.075712487 -0.028592259 2.3509527e-38
-0.0031996798 -0.075712487 -0.028592259 2.3509886e-38
-0.0014234837 -0.075712487 -0.028592259 2.341805e-38
0.00035271235 -0.075712487 -0.028592259 2.3234379e-38
0.0022709686 -0.076385275 -0.031649739 2.3234379e-38
0.0040525254 -0.076385275 -0.031649739 2.3234376e-38
0.0058340784 -0.076385275 -0.031649739 2.3418047e-38
0.0077694152 -0.07703948 -0.034622818 2.3509883e-38
0.0098769795 -0.078359485 -0.040621668 2.3509524e-38
0.011674268 -0.078359485 -0.040621668 2.3509527e-38
0.013643978 -0.079025313 -0.043647557 2.2401027e-38
0.015446572 -0.079025313 -0.043647557 2.3509527e-38
0.017426921 -0.079671934 -0.046586186 2.2588281e-38
0.019234663 -0.079671934 -0.046586186 2.2405685e-38
0.020854345 -0.079025313 -0.043647557 2.2683359e-38
0.022656938 -0.079025313 -0.043647557 2.2775202e-38
0.024459532 -0.079025313 -0.043647557 1.595314e-38
0.026262125 -0.079025313 -0.043647557 3.6882176e-42
-0.063163005 -0.095450163 -0.10957399 2.3506298e-38
-0.061184995 -0.094559789 -0.10555962 2.3504505e-38
-0.059273846 -0.094559789 -0.10555962 2.3508445e-38
-0.057362705 -0.094559789 -0.10555962 2.3509151e-38
-0.055451557 -0.094559789 -0.10555962 2.3509514e-38
-0.053540416 -0.094559789 -0.10555962 2.3509879e-38
-0.051629271 -0.094559789 -0.10555962 2.3509527e-38
-0.049718127 -0.094559789 -0.10555962 2.3234379e-38
-0.047806982 -0.094559789 -0.10555962 2.3142544e-38
-0.045895837 -0.094559789 -0.10555962 2.3142544e-38
-0.043987263 -0.093909279 -0.10262671 2.3141822e-38
-0.042089239 -0.093236431 -0.099593073 2.3325492e-38
-0.040262856 -0.089476839 -0.082642466 2.3509883e-38
-0.038416706 -0.088580042 -0.078599125 2.3509883e-38
-0.036552832 -0.088580042 -0.078599125 2.3509883e-38
-0.034688957 -0.088580042 -0.078599125 2.3509883e-38
-0.032859415 -0.087911904 -0.075586706 2.341769e-38
-0.031000823 -0.087911904 -0.075586706 2.3325494e-38
-0.029142233 -0.087911904 -0.075586706 2.3509886e-38
-0.027283641 -0.087911904 -0.075586706 2.3509886e-38
-0.025425049 -0.087911904 -0.075586706 2.3509886e-38
-0.023626853 -0.087247536 -0.072591335 2.3509886e-38
-0.021773512 -0.087247536 -0.072591335 2.3509527e-38
-0.019849271 -0.087911904 -0.075586706 2.3509527e-38
-0.019489214 -0.074838474 -0.016643435 2.3509527e-38
-0.017733969 -0.074838474 -0.016643435 2.341805e-38
-0.015892347 -0.075500697 -0.019629151 2.3142544e-38
-0.01403971 -0.076166868 -0.022632629 2.2958873e-38
-0.012273965 -0.076166868 -0.022632629 2.3234379e-38
-0.010508219 -0.076166868 -0.022632629 2.341805e-38
-0.0086375009 -0.076814622 -0.025553137 2.3509527e-38
-0.006866632 -0.076814622 -0.025553137 2.3509527e-38
-0.0050957669 -0.076814622 -0.025553137 2.3509886e-38
-0.0033249017 -0.076814622 -0.025553137 2.3509886e-38
-0.0015540328 -0.076814622 -0.025553137 2.341805e-38
0.00035271235 -0.077488691 -0.028592259 2.3234379e-38
0.0022709686 -0.078166828 -0.031649739 2.3234379e-38
0.0040525254 -0.078166828 -0.031649739 2.3234379e-38
0.0058340784 -0.078166828 -0.031649739 2.3418047e-38
0.0077694152 -0.078826249 -0.034622818 2.3509883e-38
0.0097161103 -0.079489544 -0.037613422 2.3509524e-38
0.011674268 -0.080156773 -0.040621668 2.3509168e-38
0.013643978 -0.080827907 -0.043647557 2.3508451e-38
0.015446572 -0.080827907 -0.043647557 2.3509168e-38
0.017249165 -0.080827907 -0.043647557 2.350988e-38
0.019051759 -0.080827907 -0.043647557 2.3418038e-38
0.020660704 -0.080156773 -0.040621668 2.2590789e-38
0.022457985 -0.080156773 -0.040621668 2.2775199e-38
0.024255274 -0.080156773 -0.040621668 2.1947606e-38
0.026052563 -0.080156773 -0.040621668 4.7405927e-42
0.027849851 -0.080156773 -0.040621668 9.6267803e-41
-0.065138072 -0.098059073 -0.11266378 9.3986433e-39
-0.063163005 -0.097368345 -0.10957399 1.8064644e-38
-0.061184995 -0.096470937 -0.10555962 1.8157532e-38
-0.059273846 -0.096470937 -0.10555962 1.7789806e-38
-0.057362705 -0.096470937 -0.10555962 1.7790154e-38
-0.055451557 -0.096470937 -0.10555962 1.7883791e-38
-0.053540416 -0.096470937 -0.10555962 1.8345135e-38
-0.051629271 -0.096470937 -0.10555962 1.816219e-38
-0.049718127 -0.096470937 -0.10555962 1.8071434e-38
-0.047806982 -0.096470937 -0.10555962 1.8717522e-38
-0.045895837 -0.096470937 -0.10555962 1.9639474e-38
-0.043984693 -0.096470937 -0.10555962 2.2219513e-38
-0.042089239 -0.095137119 -0.099593073 2.2496097e-38
-0.040249974 -0.092004895 -0.085581809 2.2956712e-38
-0.038391896 -0.091347814 -0.082642466 2.3325494e-38
-0.036520928 -0.091347814 -0.082642466 2.3509886e-38
-0.034649968 -0.091347814 -0.082642466 2.3509883e-38
-0.032825083 -0.090443924 -0.078599125 2.3509883e-38
-0.030961212 -0.090443924 -0.078599125 2.3417687e-38
-0.029142233 -0.089770496 -0.075586706 2.3509527e-38
-0.027283641 -0.089770496 -0.075586706 2.3509886e-38
-0.025425049 -0.089770496 -0.075586706 2.3509886e-38
-0.023626853 -0.089100882 -0.072591335 2.3509886e-38
-0.021773512 -0.089100882 -0.072591335 2.3509527e-38
-0.019920172 -0.089100882 -0.072591335 2.3509527e-38
-0.019489214 -0.076593727 -0.016643435 2.3509527e-38
-0.017817309 -0.075908184 -0.013576835 2.341805e-38
-0.01606744 -0.075908184 -0.013576835 2.3142544e-38
-0.014131866 -0.07726118 -0.019629151 2.3142544e-38
-0.012371385 -0.07726118 -0.019629151 2.3234379e-38
-0.010508219 -0.077932611 -0.022632629 2.341805e-38
-0.0087424722 -0.077932611 -0.022632629 2.3509527e-38
-0.0069767255 -0.077932611 -0.022632629 2.3509527e-38
-0.0050957669 -0.078585491 -0.025553137 2.3509527e-38
-0.0033249017 -0.078585491 -0.025553137 2.3509886e-38
-0.0015540328 -0.078585491 -0.025553137 2.341805e-38
0.00035271235 -0.079264879 -0.028592259 2.341805e-38
0.0022709686 -0.079948381 -0.031649739 2.3234379e-38
0.0040525254 -0.079948381 -0.031649739 2.341805e-38
0.0058340784 -0.079948381 -0.031649739 2.3509886e-38
0.0077694152 -0.080613017 -0.034622818 2.3509883e-38
0.0097161103 -0.081281558 -0.037613422 2.3509527e-38
0.011508124 -0.081281558 -0.037613422 2.3509168e-38
0.013471553 -0.081954062 -0.040621668 2.3508451e-38
0.015268842 -0.081954062 -0.040621668 2.2309187e-38
0.017249165 -0.0826305 -0.043647557 2.3509521e-38
0.018863415 -0.081954062 -0.040621668 2.2957417e-38
0.020660704 -0.081954062 -0.040621668 2.323436e-38
0.022457985 -0.081954062 -0.040621668 2.2131609e-38
0.024255274 -0.081954062 -0.040621668 2.2591531e-38
0.026052563 -0.081954062 -0.040621668 3.5092311e-39
0.027849851 -0.081954062 -0.040621668 9.6246784e-41
-0.06706167 -0.099982664 -0.11266378 4.0556072e-39
-0.065081187 -0.099286526 -0.10957399 8.1114932e-39
-0.063163005 -0.099286526 -0.10957399 1.216773e-38
-0.061244823 -0.099286526 -0.10957399 1.5670795e-38
-0.059273846 -0.098382086 -0.10555962 1.5486753e-38
-0.057362705 -0.098382086 -0.10555962 1.3920137e-38
-0.055451557 -0.098382086 -0.10555962 1.3643545e-38
-0.053540416 -0.098382086 -0.10555962 1.4012685e-38
-0.051629271 -0.098382086 -0.10555962 1.5580005e-38
-0.049718127 -0.098382086 -0.10555962 1.51201e-38
-0.047817539 -0.099286526 -0.10957399 1.7701572e-38
-0.045899354 -0.099286526 -0.10957399 1.724167e-38
-0.043984693 -0.098382086 -0.10555962 1.8901197e-38
-0.042073548 -0.098382086 -0.10555962 1.9085586e-38
-0.040175259 -0.097721294 -0.10262671 2.0928775e-38
-0.038287874 -0.097037792 -0.099593073 2.102025e-38
-0.03647352 -0.094572589 -0.088651329 2.1204998e-38
-0.034649968 -0.093218774 -0.082642466 2.314074e-38
-0.032779004 -0.093218774 -0.082642466 2.350988e-38
-0.030961212 -0.092307791 -0.078599125 2.350988e-38
-0.029097337 -0.092307791 -0.078599125 2.3509879e-38
-0.027283641 -0.091629088 -0.075586706 2.350988e-38
-0.025425049 -0.091629088 -0.075586706 2.350988e-38
-0.023566457 -0.091629088 -0.075586706 2.3509886e-38
-0.021773512 -0.090954214 -0.072591335 2.3509886e-38
-0.019920172 -0.090954214 -0.072591335 2.341805e-38
-0.017990679 -0.091629088 -0.075586706 2.3325856e-38
-0.017817309 -0.077658057 -0.013576835 2.3048914e-38
-0.01606744 -0.077658057 -0.013576835 2.3417691e-38
-0.014223479 -0.078348964 -0.016643435 2.3417691e-38
-0.012371385 -0.079021662 -0.019629151 2.3417691e-38
-0.010610906 -0.079021662 -0.019629151 2.3509527e-38
-0.0088504273 -0.079021662 -0.019629151 2.3509527e-38
-0.0070899483 -0.079021662 -0.019629151 2.3509527e-38
-0.0052109789 -0.079698354 -0.022632629 2.3509527e-38
-0.003445236 -0.079698354 -0.022632629 2.3509527e-38
-0.0015540328 -0.080356359 -0.025553137 2.3509886e-38
0.00035271235 -0.081041083 -0.028592259 2.3509886e-38
0.0021289084 -0.081041083 -0.028592259 2.3509527e-38
0.0040525254 -0.081729934 -0.031649739 2.3509527e-38
0.0058340784 -0.081729934 -0.031649739 2.3509527e-38
0.0077694152 -0.082399786 -0.034622818 2.3509527e-38
0.0097161103 -0.083073571 -0.037613422 2.3509168e-38
0.011508124 -0.083073571 -0.037613422 2.3509168e-38
0.013471553 -0.083751351 -0.040621668 2.3509168e-38
0.015268842 -0.083751351 -0.040621668 2.3509527e-38
0.017066127 -0.083751351 -0.040621668 2.3232933e-38
0.018863415 -0.083751351 -0.040621668 2.3325843e-38
0.020660704 -0.083751351 -0.040621668 2.3418033e-38
0.022457985 -0.083751351 -0.040621668 2.2314202e-38
0.024255274 -0.083751351 -0.040621668 2.2223097e-38
0.026052563 -0.083751351 -0.040621668 1.0053665e-38
0.027849851 -0.083751351 -0.040621668 1.940853e-39
-0.068985276 -0.10190627 -0.11266378 1.8457721e-39
-0.066999368 -0.10120471 -0.10957399 2.7670124e-39
-0.065081187 -0.10120471 -0.10957399 7.8370559e-39
-0.063163005 -0.10120471 -0.10957399 1.3275519e-38
-0.061244823 -0.10120471 -0.10957399 1.742432e-38
-0.059273846 -0.10029322 -0.10555962 1.6502e-38
-0.057362705 -0.10029322 -0.10555962 1.5211615e-38
-0.055451557 -0.10029322 -0.10555962 1.4565165e-38
-0.053540416 -0.10029322 -0.10555962 1.4012341e-38
-0.051629271 -0.10029322 -0.10555962 1.4196724e-38
-0.049718127 -0.10029322 -0.10555962 1.2537197e-38
-0.047806982 -0.10029322 -0.10555962 1.3736098e-38
-0.045895837 -0.10029322 -0.10555962 1.2722662e-38
-0.043984693 -0.10029322 -0.10555962 1.1524839e-38
-0.042089239 -0.09893848 -0.099593073 1.0695797e-38
-0.040188558 -0.09893848 -0.099593073 1.3276909e-38
-0.038287874 -0.09893848 -0.099593073 1.6687423e-38
-0.036418289 -0.098043531 -0.095651537 2.0098296e-38
-0.034621622 -0.095757127 -0.085581809 2.3232583e-38
-0.032745507 -0.095757127 -0.085581809 2.3509527e-38
-0.030908041 -0.095089734 -0.082642466 2.3509521e-38
-0.029037077 -0.095089734 -0.082642466 2.3508801e-38
-0.027233463 -0.094171658 -0.078599125 2.3509161e-38
-0.025369588 -0.094171658 -0.078599125 2.3417327e-38
-0.023505716 -0.094171658 -0.078599125 2.3324775e-38
-0.021707863 -0.09348768 -0.075586706 2.3233302e-38
-0.019849271 -0.09348768 -0.075586706 2.3233662e-38
-0.017914094 -0.094171658 -0.078599125 2.3417691e-38
-0.017817309 -0.079407915 -0.013576835 2.3417691e-38
-0.01606744 -0.079407915 -0.013576835 2.3509527e-38
-0.014223479 -0.080104217 -0.016643435 2.3509527e-38
-0.012371385 -0.080782145 -0.019629151 2.3509527e-38
-0.010610906 -0.080782145 -0.019629151 2.3509527e-38
-0.0088504273 -0.080782145 -0.019629151 2.3509886e-38
-0.0070899483 -0.080782145 -0.019629151 2.3509886e-38
-0.0053294692 -0.080782145 -0.019629151 2.3509527e-38
-0.003445236 -0.081464097 -0.022632629 2.3509527e-38
-0.0016794894 -0.081464097 -0.022632629 2.3509167e-38
8.6257234e-05 -0.081464097 -0.022632629 2.3232936e-38
0.0019877013 -0.082127213 -0.025553137 2.323258e-38
0.0037585665 -0.082127213 -0.025553137 2.3509167e-38
0.0056812968 -0.082817271 -0.028592259 2.3509167e-38
0.0076156352 -0.083511502 -0.031649739 2.323258e-38
0.0095561836 -0.084186554 -0.034622818 2.3416251e-38
0.011342952 -0.084186554 -0.034622818 2.3509167e-38
0.013300134 -0.084865585 -0.037613422 2.3509527e-38
0.015268842 -0.085548624 -0.040621668 2.3509883e-38
0.017066127 -0.085548624 -0.040621668 2.323258e-38
0.018863415 -0.085548624 -0.040621668 2.350988e-38
0.020468181 -0.084865585 -0.037613422 2.3234367e-38
0.022260195 -0.084865585 -0.037613422 2.2774467e-38
0.024255274 -0.085548624 -0.040621668 2.2958867e-38
0.025844222 -0.084865585 -0.037613422 1.8811522e-38
0.027636236 -0.084865585 -0.037613422 7.563692e-39
-0.068985276 -0.10382988 -0.11266378 2.3067503e-39
-0.066999368 -0.1031229 -0.10957399 3.5045718e-39
-0.065081187 -0.1031229 -0.10957399 8.7593626e-39
-0.063163005 -0.1031229 -0.10957399 1.3829043e-38
-0.061244823 -0.1031229 -0.10957399 1.7516866e-38
-0.059273846 -0.10220437 -0.10555962 1.5764433e-38
-0.057362705 -0.10220437 -0.10555962 1.5764788e-38
-0.055451557 -0.10220437 -0.10555962 1.5394571e-38
-0.053517275 -0.10153329 -0.10262671 1.4933949e-38
-0.051611274 -0.10153329 -0.10262671 1.4841753e-38
-0.049718127 -0.10220437 -0.10555962 1.3366623e-38
-0.047806982 -0.10220437 -0.10555962 1.4104188e-38
-0.045895837 -0.10220437 -0.10555962 1.3183309e-38
-0.043984693 -0.10220437 -0.10555962 1.3276574e-38
-0.042089239 -0.10083917 -0.099593073 1.1617049e-38
-0.040188558 -0.10083917 -0.099593073 1.2262771e-38
-0.038287874 -0.10083917 -0.099593073 1.4475102e-38
-0.036418289 -0.099937305 -0.095651537 1.8715375e-38
-0.034553397 -0.099252045 -0.092656642 2.332478e-38
-0.032710522 -0.098335579 -0.088651329 2.3509168e-38
-0.030829024 -0.098335579 -0.088651329 2.332478e-38
-0.028993271 -0.097633243 -0.085581809 2.3509168e-38
-0.027166115 -0.096960694 -0.082642466 2.3509168e-38
-0.025295151 -0.096960694 -0.082642466 2.3509527e-38
-0.023424188 -0.096960694 -0.082642466 2.3509527e-38
-0.021553224 -0.096960694 -0.082642466 2.3232944e-38
-0.019682262 -0.096960694 -0.082642466 2.3141467e-38
-0.017811298 -0.096960694 -0.082642466 2.3417691e-38
-0.015940335 -0.096960694 -0.082642466 2.341805e-38
-0.015892347 -0.082542613 -0.019629151 2.3509883e-38
-0.014131866 -0.082542613 -0.019629151 2.3509879e-38
-0.012371385 -0.082542613 -0.019629151 2.3509879e-38
-0.010610906 -0.082542613 -0.019629151 2.3509879e-38
-0.0088504273 -0.082542613 -0.019629151 2.3509879e-38
-0.0070899483 -0.082542613 -0.019629151 2.3509879e-38
-0.0053294692 -0.082542613 -0.019629151 2.3509879e-38
-0.0035689864 -0.082542613 -0.019629151 2.3509879e-38
-0.0016794894 -0.08322984 -0.022632629 2.3509879e-38
8.6257234e-05 -0.08322984 -0.022632629 2.3509876e-38
0.0019877013 -0.083898082 -0.025553137 2.3509879e-38
0.0037585665 -0.083898082 -0.025553137 2.3509879e-38
0.0055294316 -0.083898082 -0.025553137 2.3509879e-38
0.0074574929 -0.084593475 -0.028592259 2.323365e-38
0.0092336889 -0.084593475 -0.028592259 2.3232932e-38
0.011178749 -0.085293055 -0.031649739 2.350988e-38
0.012960305 -0.085293055 -0.031649739 2.2772674e-38
0.014916489 -0.085973322 -0.034622818 2.3509883e-38
0.016703257 -0.085973322 -0.034622818 2.3325138e-38
0.018490029 -0.085973322 -0.034622818 2.341805e-38
0.020276798 -0.085973322 -0.034622818 2.2864879e-38
0.022063566 -0.085973322 -0.034622818 2.3234379e-38
0.024052208 -0.086657599 -0.037613422 2.3142544e-38
0.025844222 -0.086657599 -0.037613422 2.2958873e-38
0.027636236 -0.086657599 -0.037613422 1.6044601e-38
-0.068985276 -0.10575347 -0.11266378 3.9662688e-39
-0.06706167 -0.10575347 -0.11266378 4.1502971e-39
-0.065138072 -0.10575347 -0.11266378 7.1005559e-39
-0.063163005 -0.10504107 -0.10957399 1.0788018e-38
-0.061244823 -0.10504107 -0.10957399 1.456696e-38
-0.059273846 -0.1041155 -0.10555962 1.5765149e-38
-0.057362705 -0.1041155 -0.10555962 1.7055171e-38
-0.055451557 -0.1041155 -0.10555962 1.6502003e-38
-0.053517275 -0.10343929 -0.10262671 1.603959e-38
-0.051611274 -0.10343929 -0.10262671 1.557826e-38
-0.049718127 -0.1041155 -0.10555962 1.4471915e-38
-0.047806982 -0.1041155 -0.10555962 1.511693e-38
-0.045895837 -0.1041155 -0.10555962 1.4657383e-38
-0.043989923 -0.10273984 -0.099593073 1.5028665e-38
-0.042089239 -0.10273984 -0.099593073 1.4660229e-38
-0.040188558 -0.10273984 -0.099593073 1.4568388e-38
-0.038287874 -0.10273984 -0.099593073 1.3645706e-38
-0.036418289 -0.10183108 -0.095651537 1.6319015e-38
-0.034553397 -0.10114056 -0.092656642 2.249539e-38
-0.032664876 -0.10114056 -0.092656642 2.3509168e-38
-0.030829024 -0.10021709 -0.088651329 2.3508809e-38
-0.028993271 -0.099509358 -0.085581809 2.3509527e-38
-0.027117155 -0.099509358 -0.085581809 2.3509168e-38
-0.025241038 -0.099509358 -0.085581809 2.3509527e-38
-0.02336492 -0.099509358 -0.085581809 2.3509527e-38
-0.021553224 -0.098831654 -0.082642466 2.3509886e-38
-0.019682262 -0.098831654 -0.082642466 2.3509886e-38
-0.017811298 -0.098831654 -0.082642466 2.3417333e-38
-0.015940335 -0.098831654 -0.082642466 2.3233299e-38
-0.015978724 -0.083614707 -0.016643435 2.3509876e-38
-0.014223479 -0.083614707 -0.016643435 2.3509873e-38
-0.012371385 -0.084303096 -0.019629151 2.3509873e-38
-0.010610906 -0.084303096 -0.019629151 2.3509873e-38
-0.0088504273 -0.084303096 -0.019629151 2.3509873e-38
-0.0070899483 -0.084303096 -0.019629151 2.3509873e-38
-0.0053294692 -0.084303096 -0.019629151 2.3509873e-38
-0.0035689864 -0.084303096 -0.019629151 2.3509876e-38
-0.0016794894 -0.084995598 -0.022632629 2.3049256e-38
8.6257234e-05 -0.084995598 -0.022632629 2.3049256e-38
0.0019877013 -0.085668951 -0.025553137 2.3233648e-38
0.0037585665 -0.085668951 -0.025553137 2.3326203e-38
0.0055294316 -0.085668951 -0.025553137 2.3509879e-38
0.0074574929 -0.086369663 -0.028592259 2.3418043e-38
0.0092336889 -0.086369663 -0.028592259 2.3418043e-38
0.011178749 -0.087074608 -0.031649739 2.3418043e-38
0.012960305 -0.087074608 -0.031649739 2.3326208e-38
0.014741858 -0.087074608 -0.031649739 2.3418047e-38
0.016523415 -0.087074608 -0.031649739 2.341805e-38
0.018490029 -0.087760091 -0.034622818 2.3417691e-38
0.020086525 -0.087074608 -0.031649739 2.3048914e-38
0.021868085 -0.087074608 -0.031649739 2.2865602e-38
0.023649639 -0.087074608 -0.031649739 2.2035843e-38
0.025431199 -0.087074608 -0.031649739 2.2773767e-38
0.027212752 -0.087074608 -0.031649739 2.2681931e-38
-0.069158904 -0.10951753 -0.12058595 4.8882223e-39
-0.06714125 -0.10859399 -0.11661056 3.873706e-39
-0.06521073 -0.10859399 -0.11661056 3.6896707e-39
-0.063214473 -0.10767709 -0.11266378 5.5335805e-39
-0.061244823 -0.10695927 -0.10957399 9.4972765e-39
-0.059273846 -0.10602666 -0.10555962 1.336914e-38
-0.057362705 -0.10602666 -0.10555962 1.6226132e-38
-0.055451557 -0.10602666 -0.10555962 1.5764803e-38
-0.053517275 -0.10534529 -0.10262671 1.521056e-38
-0.051611274 -0.10534529 -0.10262671 1.4472288e-38
-0.049718127 -0.10602666 -0.10555962 1.4103155e-38
-0.047806982 -0.10602666 -0.10555962 1.4931485e-38
-0.045895837 -0.10602666 -0.10555962 1.5117305e-38
-0.043989923 -0.10464053 -0.099593073 1.4106356e-38
-0.042099606 -0.10372485 -0.095651537 1.5121929e-38
-0.040205836 -0.10372485 -0.095651537 1.6136077e-38
-0.038312063 -0.10372485 -0.095651537 1.4199603e-38
-0.036418289 -0.10372485 -0.095651537 1.4660212e-38
-0.034553397 -0.10302909 -0.092656642 1.9269628e-38
-0.032664876 -0.10302909 -0.092656642 2.2495748e-38
-0.030776355 -0.10302909 -0.092656642 2.3417333e-38
-0.028887833 -0.10302909 -0.092656642 2.3509168e-38
-0.026999312 -0.10302909 -0.092656642 2.3325131e-38
-0.025110791 -0.10302909 -0.092656642 2.3232933e-38
-0.02330303 -0.10209858 -0.088651329 2.3417323e-38
-0.021488804 -0.10138547 -0.085581809 2.3509879e-38
-0.019612687 -0.10138547 -0.085581809 2.3509876e-38
-0.017736571 -0.10138547 -0.085581809 2.3509879e-38
-0.015860453 -0.10138547 -0.085581809 2.3509874e-38
-0.015978724 -0.085369945 -0.016643435 2.350987e-38
-0.014223479 -0.085369945 -0.016643435 2.350987e-38
-0.012468236 -0.085369945 -0.016643435 2.350987e-38
-0.010610906 -0.086063579 -0.019629151 2.350987e-38
-0.0088504273 -0.086063579 -0.019629151 2.3509873e-38
-0.0070899483 -0.086063579 -0.019629151 2.3509873e-38
-0.0052109789 -0.08676134 -0.022632629 2.3509876e-38
-0.003445236 -0.08676134 -0.022632629 2.3509879e-38
-0.0016794894 -0.08676134 -0.022632629 2.350988e-38
0.00021683238 -0.08743982 -0.025553137 2.3418045e-38
0.0019877013 -0.08743982 -0.025553137 2.3418047e-38
0.0037585665 -0.08743982 -0.025553137 2.3050703e-38
0.0055294316 -0.08743982 -0.025553137 2.3141822e-38
0.0074574929 -0.088145852 -0.028592259 2.3234379e-38
0.0092336889 -0.088145852 -0.028592259 2.3234379e-38
0.011009885 -0.088145852 -0.028592259 2.2774116e-38
0.012786077 -0.088145852 -0.028592259 2.3234374e-38
0.014741858 -0.088856161 -0.031649739 2.3234376e-38
0.016523415 -0.088856161 -0.031649739 2.3234379e-38
0.018490029 -0.089546859 -0.034622818 2.2312078e-38
0.020086525 -0.088856161 -0.031649739 2.3233662e-38
0.021667054 -0.088145852 -0.028592259 2.323402e-38
0.02344325 -0.088145852 -0.028592259 2.3234379e-38
0.025219446 -0.088145852 -0.028592259 2.3234379e-38
0.026995642 -0.088145852 -0.028592259 2.3233662e-38
-0.06714125 -0.11052449 -0.11661056 5.1648008e-39
-0.06521073 -0.11052449 -0.11661056 3.6896679e-39
-0.063214473 -0.10960068 -0.11266378 2.2145378e-39
-0.061244823 -0.10887744 -0.10957399 3.5052794e-39
-0.059326641 -0.10887744 -0.10957399 8.667883e-39
-0.057408459 -0.10887744 -0.10957399 1.3368791e-38
-0.05549027 -0.10887744 -0.10957399 1.4013811e-38
-0.053572088 -0.10887744 -0.10957399 1.4380807e-38
-0.051629271 -0.1079378 -0.10555962 1.4195348e-38
-0.049718127 -0.1079378 -0.10555962 1.4655977e-38
-0.047806982 -0.1079378 -0.10555962 1.5299916e-38
-0.045890607 -0.1065412 -0.099593073 1.5763041e-38
-0.043989923 -0.1065412 -0.099593073 1.5950636e-38
-0.042099606 -0.10561861 -0.095651537 1.5675468e-38
-0.040205836 -0.10561861 -0.095651537 1.6965485e-38
-0.038312063 -0.10561861 -0.095651537 1.5490709e-38
-0.036441918 -0.1049176 -0.092656642 1.3738624e-38
-0.034553397 -0.1049176 -0.092656642 1.5305582e-38
-0.032664876 -0.1049176 -0.092656642 1.9085234e-38
-0.030776355 -0.1049176 -0.092656642 2.3325497e-38
-0.021333747 -0.1049176 -0.092656642 2.3509874e-38
-0.019445226 -0.1049176 -0.092656642 2.3509873e-38
-0.017556705 -0.1049176 -0.092656642 2.3509873e-38
-0.015668184 -0.1049176 -0.092656642 2.3509873e-38
-0.013779663 -0.1049176 -0.092656642 2.3509873e-38
-0.014223479 -0.087125197 -0.016643435 2.3509873e-38
-0.012468236 -0.087125197 -0.016643435 2.3509876e-38
-0.010610906 -0.087824062 -0.019629151 2.3509876e-38
-0.0088504273 -0.087824062 -0.019629151 2.3509879e-38
-0.0070899483 -0.087824062 -0.019629151 2.350988e-38
-0.0052109789 -0.088527083 -0.022632629 2.3509883e-38
-0.003445236 -0.088527083 -0.022632629 2.341805e-38
-0.0015540328 -0.089210689 -0.025553137 2.2957075e-38
0.00021683238 -0.089210689 -0.025553137 2.3234379e-38
0.0019877013 -0.089210689 -0.025553137 2.3234379e-38
0.0037585665 -0.089210689 -0.025553137 2.286632e-38
0.0055294316 -0.089210689 -0.025553137 2.2958514e-38
0.0074574929 -0.089922056 -0.028592259 2.3142544e-38
0.0092336889 -0.089922056 -0.028592259 2.3142544e-38
0.010842035 -0.089210689 -0.025553137 2.3142544e-38
0.0126129 -0.089210689 -0.025553137 2.3142541e-38
0.014562273 -0.089922056 -0.028592259 2.3142541e-38
0.016523415 -0.090637714 -0.031649739 2.3234379e-38
0.018304972 -0.090637714 -0.031649739 2.2404272e-38
0.020086525 -0.090637714 -0.031649739 2.3233662e-38
0.021667054 -0.089922056 -0.028592259 2.323402e-38
0.02344325 -0.089922056 -0.028592259 2.2957796e-38
0.025219446 -0.089922056 -0.028592259 2.3049991e-38
0.026995642 -0.089922056 -0.028592259 2.2404272e-38
-0.065283917 -0.11339252 -0.12058595 5.6261419e-39
-0.06328021 -0.11245503 -0.11661056 1.7539254e-39
-0.06134969 -0.11245503 -0.11661056 3.7063644e-40
-0.059367269 -0.11152427 -0.11266378 4.7956763e-39
-0.057443671 -0.11152427 -0.11266378 1.1433047e-38
-0.05549027 -0.11079563 -0.10957399 1.3644674e-38
-0.053572088 -0.11079563 -0.10957399 1.4935063e-38
-0.051629271 -0.10984896 -0.10555962 1.5025828e-38
-0.049718127 -0.10984896 -0.10555962 1.5302062e-38
-0.047799267 -0.10915731 -0.10262671 1.4932567e-38
-0.04588715 -0.1075124 -0.095651537 1.5302062e-38
-0.043993376 -0.1075124 -0.095651537 1.6503458e-38
-0.042099606 -0.1075124 -0.095651537 1.4938277e-38
-0.040205836 -0.1075124 -0.095651537 1.6043543e-38
-0.038312063 -0.1075124 -0.095651537 1.5582555e-38
-0.036441918 -0.10680611 -0.092656642 1.3369856e-38
-0.034553397 -0.10680611 -0.092656642 1.3462043e-38
-0.019445226 -0.10680611 -0.092656642 2.3509158e-38
-0.017556705 -0.10680611 -0.092656642 2.3509516e-38
-0.015668184 -0.10680611 -0.092656642 2.3509876e-38
-0.013779663 -0.10680611 -0.092656642 2.3509521e-38
-0.01189114 -0.10680611 -0.092656642 2.3509524e-38
-0.0099054743 -0.1075124 -0.095651537 2.3509527e-38
-0.010610906 -0.089584544 -0.019629151 2.3509527e-38
-0.0088504273 -0.089584544 -0.019629151 2.3509527e-38
-0.0069767255 -0.090292826 -0.022632629 2.3509527e-38
-0.0052109789 -0.090292826 -0.022632629 2.3509168e-38
-0.003445236 -0.090292826 -0.022632629 2.3417691e-38
-0.0014234837 -0.091698244 -0.028592259 2.323402e-38
0.00021683238 -0.090981558 -0.025553137 2.2681214e-38
0.0019877013 -0.090981558 -0.025553137 2.2773408e-38
0.0037585665 -0.090981558 -0.025553137 2.2958514e-38
0.0055294316 -0.090981558 -0.025553137 2.2958514e-38
0.0074574929 -0.091698244 -0.028592259 2.2681931e-38
0.0090711657 -0.090981558 -0.025553137 2.2681931e-38
0.010680733 -0.090292826 -0.022632629 2.2958873e-38
0.01244648 -0.090292826 -0.022632629 2.2774481e-38
0.014212226 -0.090292826 -0.022632629 2.3234379e-38
0.016338469 -0.091698244 -0.028592259 2.2957796e-38
0.018304972 -0.092419267 -0.031649739 2.323402e-38
0.020086525 -0.092419267 -0.031649739 2.3142544e-38
0.021667054 -0.091698244 -0.028592259 2.3142544e-38
0.02344325 -0.091698244 -0.028592259 2.3142544e-38
0.025219446 -0.091698244 -0.028592259 2.2774125e-38
0.026995642 -0.091698244 -0.028592259 2.3142185e-38
-0.063346431 -0.11533 -0.12058595 2.3989459e-39
-0.061408937 -0.11533 -0.12058595 9.2454169e-40
-0.059471443 -0.11533 -0.12058595 4.6213002e-40
-0.057533957 -0.11533 -0.12058595 8.575351e-39
-0.055520065 -0.11344786 -0.11266378 1.2354654e-38
-0.053596467 -0.11344786 -0.11266378 1.5211647e-38
-0.051629271 -0.11176009 -0.10555962 1.5764824e-38
-0.049718127 -0.11176009 -0.10555962 1.6593507e-38
-0.047799267 -0.11106332 -0.10262671 1.5763027e-38
-0.04588715 -0.10940616 -0.095651537 1.5948136e-38
-0.043993376 -0.10940616 -0.095651537 1.6688212e-38
-0.042099606 -0.10940616 -0.095651537 1.576733e-38
-0.040205836 -0.10940616 -0.095651537 1.7149542e-38
-0.038330439 -0.10869466 -0.092656642 1.6596721e-38
-0.036441918 -0.10869466 -0.092656642 1.4568053e-38
-0.034553397 -0.10869466 -0.092656642 1.401523e-38
-0.019445226 -0.10869466 -0.092656642 2.3508091e-38
-0.017658534 -0.10774307 -0.088651329 2.3509167e-38
-0.015777035 -0.10774307 -0.088651329 2.3509527e-38
-0.013895536 -0.10774307 -0.088651329 2.3509168e-38
-0.01189114 -0.10869466 -0.092656642 2.3509527e-38
-0.0099054743 -0.10940616 -0.095651537 2.3509527e-38
-0.0080117006 -0.10940616 -0.095651537 2.3509527e-38
-0.0087424722 -0.092058569 -0.022632629 2.3509168e-38
-0.0069767255 -0.092058569 -0.022632629 2.3417691e-38
-0.0050957669 -0.092752427 -0.025553137 2.3417333e-38
-0.0033249017 -0.092752427 -0.025553137 2.3233662e-38
-0.0014234837 -0.093474448 -0.028592259 2.1758913e-38
0.00035271235 -0.093474448 -0.028592259 1.9178523e-38
0.0019877013 -0.092752427 -0.025553137 1.7518645e-38
0.0037585665 -0.092752427 -0.025553137 1.6873998e-38
0.0055294316 -0.092752427 -0.025553137 1.4569107e-38
0.0073003005 -0.092752427 -0.025553137 1.0881282e-38
0.0089149866 -0.092058569 -0.022632629 9.2214043e-39
0.010680733 -0.092058569 -0.022632629 9.86748e-39
0.01244648 -0.092058569 -0.022632629 1.115748e-38
0.014212226 -0.092058569 -0.022632629 1.1802485e-38
0.016338469 -0.093474448 -0.028592259 1.1156764e-38
0.018304972 -0.094200835 -0.031649739 1.6780342e-38
0.020086525 -0.094200835 -0.031649739 1.7703014e-38
0.021667054 -0.093474448 -0.028592259 2.120788e-38
0.02344325 -0.093474448 -0.028592259 2.2222387e-38
0.025219446 -0.093474448 -0.028592259 2.2867037e-38
0.026995642 -0.093474448 -0.028592259 2.249826e-38
-0.06145411 -0.11799283 -0.12361673 1.3855311e-39
-0.059471443 -0.11726747 -0.12058595 1.0160339e-39
-0.057533957 -0.11726747 -0.12058595 6.3633804e-39
-0.055596463 -0.11726747 -0.12058595 6.9154724e-39
-0.053658973 -0.11726747 -0.12058595 1.1801479e-38
-0.051629271 -0.11367123 -0.10555962 1.6595286e-38
-0.049718127 -0.11367123 -0.10555962 1.6779675e-38
-0.047799267 -0.11296929 -0.10262671 1.5672603e-38
-0.04588715 -0.11129995 -0.095651537 1.687187e-38
-0.043993376 -0.11129995 -0.095651537 1.6411625e-38
-0.042099606 -0.11129995 -0.095651537 1.6688938e-38
-0.040205836 -0.11129995 -0.095651537 1.6135761e-38
-0.038330439 -0.11058317 -0.092656642 1.5490748e-38
-0.036441918 -0.11058317 -0.092656642 1.5397828e-38
-0.034553397 -0.11058317 -0.092656642 1.4291114e-38
-0.019445226 -0.11058317 -0.092656642 2.3508809e-38
-0.017658534 -0.10962458 -0.088651329 2.3508809e-38
-0.015860453 -0.10888995 -0.085581809 2.3231151e-38
-0.013984337 -0.10888995 -0.085581809 2.3509168e-38
-0.012014037 -0.10962458 -0.088651329 2.3509527e-38
-0.010132538 -0.10962458 -0.088651329 2.3417333e-38
-0.0082510393 -0.10962458 -0.088651329 2.3417333e-38
-0.0085282642 -0.095250636 -0.028592259 2.3509168e-38
-0.0067520682 -0.095250636 -0.028592259 2.3232944e-38
-0.0049758721 -0.095250636 -0.028592259 2.1850748e-38
-0.0031996798 -0.095250636 -0.028592259 2.046818e-38
-0.0014234837 -0.095250636 -0.028592259 1.8808664e-38
0.00035271235 -0.095250636 -0.028592259 1.6043518e-38
0.0021289084 -0.095250636 -0.028592259 1.6227912e-38
0.0037585665 -0.094523281 -0.025553137 1.5490707e-38
0.0055294316 -0.094523281 -0.025553137 1.4568751e-38
0.0073003005 -0.094523281 -0.025553137 1.0420666e-38
0.0089149866 -0.093824327 -0.022632629 5.626495e-39
0.010680733 -0.093824327 -0.022632629 8.7607793e-39
0.01244648 -0.093824327 -0.022632629 6.2704043e-39
0.014212226 -0.093824327 -0.022632629 8.8507945e-39
0.016523415 -0.095982388 -0.031649739 8.1143084e-39
0.018304972 -0.095982388 -0.031649739 1.5582152e-38
0.020086525 -0.095982388 -0.031649739 1.5675418e-38
0.021667054 -0.095250636 -0.028592259 2.0932364e-38
0.02344325 -0.095250636 -0.028592259 2.185468e-38
0.025219446 -0.095250636 -0.028592259 1.9181381e-38
0.027212752 -0.095982388 -0.031649739 1.8812988e-38
-0.06145411 -0.11993565 -0.12361673 2.7681138e-39
-0.059471443 -0.11920498 -0.12058595 2.3993341e-39
-0.057533957 -0.11920498 -0.12058595 2.4915269e-39
-0.055596463 -0.11920498 -0.12058595 4.3350737e-39
-0.053658973 -0.11920498 -0.12058595 9.5894974e-39
-0.04978399 -0.11920498 -0.12058595 1.7794886e-38
-0.047791287 -0.11414395 -0.099593073 2.0099049e-38
-0.043989923 -0.11414395 -0.099593073 1.8440634e-38
-0.042089239 -0.11414395 -0.099593073 1.8717579e-38
-0.040205836 -0.11319371 -0.095651537 1.788783e-38
-0.038330439 -0.11247168 -0.092656642 1.5859882e-38
-0.036441918 -0.11247168 -0.092656642 1.4014888e-38
-0.034553397 -0.11247168 -0.092656642 1.3277678e-38
-0.017736571 -0.11076607 -0.085581809 2.0373815e-38
-0.015860453 -0.11076607 -0.085581809 2.0005387e-38
-0.013984337 -0.11076607 -0.085581809 2.00061e-38
-0.012014037 -0.11150609 -0.088651329 2.1205361e-38
-0.010132538 -0.11150609 -0.088651329 2.2403905e-38
-0.011774784 -0.086659163 0.014412254 2.3141109e-38
-0.0084183682 -0.097763941 -0.031649739 2.3417333e-38
-0.0066368114 -0.097763941 -0.031649739 2.323402e-38
-0.0048552547 -0.097763941 -0.031649739 2.1851466e-38
-0.0030736979 -0.097763941 -0.031649739 2.000828e-38
-0.0012921449 -0.097763941 -0.031649739 1.8532797e-38
0.00035271235 -0.09702684 -0.028592259 1.6505215e-38
0.0021289084 -0.09702684 -0.028592259 1.6228628e-38
0.0039051045 -0.09702684 -0.028592259 1.3370927e-38
0.0056812968 -0.09702684 -0.028592259 1.3463122e-38
0.0074574929 -0.09702684 -0.028592259 1.7335336e-38
0.0092336889 -0.09702684 -0.028592259 1.8719349e-38
0.0078638773 -0.083294272 0.028369635 2.0931317e-38
0.0095401984 -0.083294272 0.028369635 2.1758913e-38
0.014741858 -0.097763941 -0.031649739 2.3233662e-38
0.016523415 -0.097763941 -0.031649739 2.3049632e-38
0.018304972 -0.097763941 -0.031649739 2.3142544e-38
0.020086525 -0.097763941 -0.031649739 2.1669213e-38
0.021467229 -0.09629415 -0.025553137 2.2407854e-38
0.023238098 -0.09629415 -0.025553137 2.2499695e-38
0.025219446 -0.09702684 -0.028592259 1.8261234e-38
0.026995642 -0.09702684 -0.028592259 1.7061648e-38
-0.06145411 -0.12187846 -0.12361673 2.9532295e-39
-0.059471443 -0.12114246 -0.12058595 3.6907945e-39
-0.057533957 -0.12114246 -0.12058595 3.1368991e-39
-0.055596463 -0.12114246 -0.12058595 2.8606611e-39
-0.053658973 -0.12114246 -0.12058595 5.5343232e-39
-0.042339109 -0.092973351 -0.0045856535 1.9363291e-38
-0.04068828 -0.088359952 0.014412254 1.8441334e-38
-0.03902442 -0.086898521 0.020430416 1.6966204e-38
-0.017736571 -0.11264218 -0.085581809 2.1111731e-38
-0.015860453 -0.11264218 -0.085581809 2.0835859e-38
-0.013984337 -0.11264218 -0.085581809 1.9361445e-38
-0.012014037 -0.11338757 -0.088651329 2.1022046e-38
-0.010132538 -0.11338757 -0.088651329 2.2404625e-38
-0.011774784 -0.088359952 0.014412254 2.2312433e-38
-0.010073988 -0.088359952 0.014412254 2.2127688e-38
-0.0084852371 -0.087638199 0.01738444 2.2220601e-38
-0.0067896526 -0.087638199 0.01738444 2.1482686e-38
-0.0030736979 -0.099545494 -0.031649739 2.0100476e-38
-0.0012921449 -0.099545494 -0.031649739 1.7611194e-38
0.00048941188 -0.099545494 -0.031649739 1.6689601e-38
0.0022709686 -0.099545494 -0.031649739 1.7519361e-38
0.0040525254 -0.099545494 -0.031649739 1.456982e-38
0.0058340784 -0.099545494 -0.031649739 1.4385429e-38
0.0045112353 -0.084970593 0.028369635 2.0379221e-38
0.0061875563 -0.084970593 0.028369635 2.2591531e-38
0.0078638773 -0.084970593 0.028369635 2.2775202e-38
0.0095401984 -0.084970593 0.028369635 2.2680855e-38
0.011216523 -0.084970593 0.028369635 2.3233303e-38
0.013074068 -0.085698128 0.025373667 2.3049632e-38
0.014755646 -0.085698128 0.025373667 2.2129125e-38
0.020086525 -0.099545494 -0.031649739 2.2775202e-38
0.021467229 -0.098065019 -0.025553137 2.2591531e-38
0.023238098 -0.098065019 -0.025553137 2.2316024e-38
0.025008967 -0.098065019 -0.025553137 1.5864162e-38
-0.06145411 -0.12382124 -0.12361673 3.6915134e-39
-0.059471443 -0.12307997 -0.12058595 3.5993178e-39
-0.057533957 -0.12307997 -0.12058595 3.7833447e-39
-0.055596463 -0.12307997 -0.12058595 2.5851532e-39
-0.051009625 -0.094707444 -0.0045856535 1.0143725e-38
-0.049275525 -0.094707444 -0.0045856535 1.9178885e-38
-0.047541421 -0.094707444 -0.0045856535 2.0654004e-38
-0.045807317 -0.094707444 -0.0045856535 2.2221319e-38
-0.044073213 -0.094707444 -0.0045856535 2.2867037e-38
-0.015361028 -0.088588774 0.020430416 2.1945089e-38
-0.013670785 -0.088588774 0.020430416 2.2497184e-38
-0.011774784 -0.090060756 0.014412254 2.0285216e-38
-0.010073988 -0.090060756 0.014412254 1.8256918e-38
-0.0084852371 -0.089333788 0.01738444 1.7795584e-38
-0.0067896526 -0.089333788 0.01738444 1.7611197e-38
-0.0050940719 -0.089333788 0.01738444 1.6873995e-38
-0.0011644308 -0.10205424 -0.034622818 1.7427171e-38
-0.0019253138 -0.088117093 0.022358865 1.7150584e-38
-0.00037852861 -0.087379694 0.025373667 1.8995213e-38
0.0013030451 -0.087379694 0.025373667 1.9179604e-38
0.0029846188 -0.087379694 0.025373667 1.9641659e-38
0.0045112353 -0.086646914 0.028369635 2.2407501e-38
0.0061875563 -0.086646914 0.028369635 2.2591531e-38
0.0078638773 -0.086646914 0.028369635 2.2222036e-38
0.0095401984 -0.086646914 0.028369635 2.258902e-38
0.011216523 -0.086646914 0.028369635 2.2681214e-38
0.012892844 -0.086646914 0.028369635 2.286632e-38
0.014755646 -0.087379694 0.025373667 2.2590454e-38
0.01624549 -0.086646914 0.028369635 2.2591531e-38
0.017921811 -0.086646914 0.028369635 1.9274671e-38
0.020003876 -0.088117093 0.022358865 1.3282681e-38
0.021690739 -0.088117093 0.022358865 3.1415402e-39
0.023730835 -0.089333788 0.01738444 1.2054684e-39
0.025426416 -0.089333788 0.01738444 1.5732098e-39
0.027566312 -0.090792179 0.011421829 2.862906e-39
0.029272353 -0.090792179 0.011421829 2.2179122e-39
0.030978387 -0.090792179 0.011421829 2.2179079e-39
0.03268443 -0.090792179 0.011421829 2.680307e-39
0.053365223 -0.091297671 0.0093551576 8.0258361e-39
0.055074878 -0.091297671 0.0093551576 1.0237805e-38
0.056784548 -0.091297671 0.0093551576 1.0789889e-38
-0.059471443 -0.12501745 -0.12058595 5.3517494e-39
-0.057533957 -0.12501745 -0.12058595 3.230887e-39
-0.055596463 -0.12501745 -0.12058595 3.5993024e-39
-0.051009625 -0.096441552 -0.0045856535 6.2715141e-39
-0.049275525 -0.096441552 -0.0045856535 1.1157514e-38
-0.047541421 -0.096441552 -0.0045856535 1.5859124e-38
-0.045807317 -0.096441552 -0.0045856535 2.2497901e-38
-0.044073213 -0.096441552 -0.0045856535 2.2406066e-38
-0.042389072 -0.091761544 0.014412254 2.2499336e-38
-0.04068828 -0.091761544 0.014412254 2.2867037e-38
-0.013670785 -0.090279013 0.020430416 2.2958514e-38
-0.011980543 -0.090279013 0.020430416 2.0008646e-38
-0.010180818 -0.091029361 0.01738444 1.7150228e-38
-0.0083731953 -0.091761544 0.014412254 1.6412668e-38
-0.0067896526 -0.091029361 0.01738444 1.6781094e-38
-0.0050940719 -0.091029361 0.01738444 1.6874012e-38
-0.0035293344 -0.090279013 0.020430416 1.7611577e-38
-0.0019253138 -0.089803949 0.022358865 1.7795968e-38
-0.00037852861 -0.089061275 0.025373667 1.8717921e-38
0.0013030451 -0.089061275 0.025373667 2.0561823e-38
0.0029846188 -0.089061275 0.025373667 2.2774843e-38
0.0045112353 -0.088323236 0.028369635 2.2774843e-38
0.0061875563 -0.088323236 0.028369635 2.2037289e-38
0.0078638773 -0.088323236 0.028369635 2.2774843e-38
0.0095401984 -0.088323236 0.028369635 2.2774484e-38
0.011216523 -0.088323236 0.028369635 2.2774125e-38
0.012892844 -0.088323236 0.028369635 2.2590454e-38
0.014755646 -0.089061275 0.025373667 2.1945812e-38
0.01624549 -0.088323236 0.028369635 1.9734227e-38
0.017921811 -0.088323236 0.028369635 1.4387615e-38
0.019800371 -0.089061275 0.025373667 8.3963408e-39
0.021481944 -0.089061275 0.025373667 2.4036388e-39
0.023377603 -0.089803949 0.022358865 9.2817666e-40
0.025064459 -0.089803949 0.022358865 2.5862883e-39
0.026751323 -0.089803949 0.022358865 3.5079125e-39
0.029272353 -0.092498213 0.011421829 2.8618354e-39
0.030978387 -0.092498213 0.011421829 3.507558e-39
0.03268443 -0.092498213 0.011421829 4.8904784e-39
0.041925944 -0.094477281 0.003388077 9.038518e-39
0.043646075 -0.094477281 0.003388077 9.776439e-39
0.044816919 -0.093007326 0.0093551576 1.0145942e-38
0.046526588 -0.093007326 0.0093551576 1.0699116e-38
0.053156875 -0.092498213 0.011421829 1.0698045e-38
0.054862909 -0.092498213 0.011421829 1.1711475e-38
0.056784548 -0.093007326 0.0093551576 1.0882068e-38
-0.049253561 -0.09693253 0.00042501092 4.703831e-39
-0.047528245 -0.09693253 0.00042501092 1.0235207e-38
-0.045795098 -0.094716981 0.0093551576 2.2958155e-38
-0.044089869 -0.093462333 0.014412254 2.2405707e-38
-0.042389072 -0.093462333 0.014412254 2.1576307e-38
-0.04068828 -0.093462333 0.014412254 2.0101179e-38
-0.03902442 -0.091969252 0.020430416 1.807324e-38
-0.037373178 -0.090742856 0.025373667 1.7336043e-38
-0.035720494 -0.089999557 0.028369635 1.8810819e-38
-0.034044173 -0.089999557 0.028369635 2.0102284e-38
-0.015512703 -0.090742856 0.025373667 1.8901958e-38
-0.013831129 -0.090742856 0.025373667 1.7979286e-38
-0.012149556 -0.090742856 0.025373667 1.5490725e-38
-0.010180818 -0.092724949 0.01738444 1.3923047e-38
-0.0084852371 -0.092724949 0.01738444 1.4660613e-38
-0.0067896526 -0.092724949 0.01738444 1.6688561e-38
-0.0052990336 -0.091490805 0.022358865 1.8255889e-38
-0.0036121737 -0.091490805 0.022358865 1.890125e-38
-0.0019253138 -0.091490805 0.022358865 2.0007581e-38
-0.00023845024 -0.091490805 0.022358865 1.936258e-38
0.0014484096 -0.091490805 0.022358865 1.936258e-38
0.0029846188 -0.090742856 0.025373667 2.0653658e-38
0.0045112353 -0.089999557 0.028369635 1.8717567e-38
0.0061875563 -0.089999557 0.028369635 1.5306328e-38
0.0078638773 -0.089999557 0.028369635 1.4660959e-38
0.0095401984 -0.089999557 0.028369635 1.0420686e-38
0.011216523 -0.089999557 0.028369635 9.1303143e-39
0.012892844 -0.089999557 0.028369635 7.8399468e-39
0.014755646 -0.090742856 0.025373667 7.8399524e-39
0.016437219 -0.090742856 0.025373667 7.1949459e-39
0.018118797 -0.090742856 0.025373667 6.5502954e-39
0.019800371 -0.090742856 0.025373667 6.5513744e-39
0.021481944 -0.090742856 0.025373667 7.5655347e-39
0.023377603 -0.091490805 0.022358865 7.0116589e-39
0.025064459 -0.091490805 0.022358865 7.7485233e-39
0.026751323 -0.091490805 0.022358865 7.8396623e-39
0.028585268 -0.091969252 0.020430416 7.9307888e-39
0.030978387 -0.094204247 0.011421829 9.405193e-39
0.032849297 -0.094716981 0.0093551576 1.0235659e-38
0.034558959 -0.094716981 0.0093551576 1.0143801e-38
0.036268622 -0.094716981 0.0093551576 9.9597583e-39
0.037978284 -0.094716981 0.0093551576 1.0788803e-38
0.039687939 -0.094716981 0.0093551576 1.0881354e-38
0.04165677 -0.095443189 0.0064280927 1.0881349e-38
0.043107264 -0.094716981 0.0093551576 1.0697315e-38
0.04462669 -0.094204247 0.011421829 1.0604393e-38
0.046332724 -0.094204247 0.011421829 1.0327807e-38
0.048038758 -0.094204247 0.011421829 1.0143415e-38
0.049744792 -0.094204247 0.011421829 1.005122e-38
0.051450826 -0.094204247 0.011421829 1.0879908e-38
0.05285538 -0.093462333 0.014412254 9.4969752e-39
0.054556184 -0.093462333 0.014412254 8.4835422e-39
0.056784548 -0.094716981 0.0093551576 6.2708457e-39
0.058804698 -0.095443189 0.0064280927 4.7038731e-39
0.060519494 -0.095443189 0.0064280927 4.9804544e-39
-0.05268082 -0.097917527 0.003388077 8.0246898e-39
-0.050960697 -0.097917527 0.003388077 9.0374026e-39
-0.049240574 -0.097917527 0.003388077 6.6392372e-39
-0.047520451 -0.097917527 0.003388077 1.0050113e-38
-0.045795098 -0.096426651 0.0093551576 2.0652223e-38
-0.044089869 -0.095163137 0.014412254 2.2312437e-38
-0.042409971 -0.093177676 0.022358865 2.1206465e-38
-0.040723115 -0.093177676 0.022358865 1.8993781e-38
-0.039054751 -0.092424423 0.025373667 1.7518659e-38
-0.037373178 -0.092424423 0.025373667 1.7980005e-38
-0.035720494 -0.091675878 0.028369635 1.8809415e-38
-0.034067843 -0.09115693 0.030446678 1.8625744e-38
-0.032395162 -0.09115693 0.030446678 1.8625385e-38
-0.030722484 -0.09115693 0.030446678 1.9270745e-38
-0.015512703 -0.092424423 0.025373667 1.5490748e-38
-0.013831129 -0.092424423 0.025373667 1.4383324e-38
-0.012149556 -0.092424423 0.025373667 1.3185504e-38
-0.010467978 -0.092424423 0.025373667 1.3185149e-38
-0.0084852371 -0.094420537 0.01738444 1.42915e-38
-0.0069858935 -0.093177676 0.022358865 1.6226532e-38
-0.0052990336 -0.093177676 0.022358865 1.7517261e-38
-0.0036121737 -0.093177676 0.022358865 1.7609455e-38
-0.0019253138 -0.093177676 0.022358865 1.8531397e-38
-0.00023845024 -0.093177676 0.022358865 1.7794202e-38
0.0014484096 -0.093177676 0.022358865 1.6411272e-38
0.0029846188 -0.092424423 0.025373667 1.5212363e-38
0.0046661962 -0.092424423 0.025373667 1.3000022e-38
0.0063477699 -0.092424423 0.025373667 1.0049762e-38
0.0080293436 -0.092424423 0.025373667 7.3768023e-39
0.009710921 -0.092424423 0.025373667 6.7343069e-39
0.011392495 -0.092424423 0.025373667 5.4439366e-39
0.013074068 -0.092424423 0.025373667 5.1670064e-39
0.014755646 -0.092424423 0.025373667 5.5350841e-39
0.016437219 -0.092424423 0.025373667 6.1811808e-39
0.018118797 -0.092424423 0.025373667 5.8124011e-39
0.019800371 -0.092424423 0.025373667 6.3655706e-39
0.021481944 -0.092424423 0.025373667 8.3016789e-39
0.023377603 -0.093177676 0.022358865 7.2875311e-39
0.025064459 -0.093177676 0.022358865 7.5626901e-39
0.026751323 -0.093177676 0.022358865 7.653462e-39
0.028585268 -0.09365949 0.020430416 8.5747051e-39
0.030978387 -0.095910296 0.011421829 9.3111883e-39
0.03268443 -0.095910296 0.011421829 8.9423946e-39
0.034390464 -0.095910296 0.011421829 8.2048085e-39
0.035847448 -0.095163137 0.014412254 6.9140683e-39
0.037548244 -0.095163137 0.014412254 7.4679721e-39
0.039508574 -0.095910296 0.011421829 7.1910293e-39
0.041214608 -0.095910296 0.011421829 6.8215209e-39
0.042920642 -0.095910296 0.011421829 6.0843076e-39
0.04462669 -0.095910296 0.011421829 5.2541812e-39
0.046332724 -0.095910296 0.011421829 4.5169707e-39
0.048038758 -0.095910296 0.011421829 4.0552737e-39
0.049453802 -0.095163137 0.014412254 3.7786868e-39
0.051154591 -0.095163137 0.014412254 3.7783323e-39
0.05285538 -0.095163137 0.014412254 3.5017482e-39
0.054556184 -0.095163137 0.014412254 2.1191767e-39
0.056784548 -0.096426651 0.0093551576 8.2915671e-40
0.058274977 -0.095910296 0.011421829 9.9492191e-44
0.059981011 -0.095910296 0.011421829 1.0229479e-43
0.06168706 -0.095910296 0.011421829 3.7032535e-40
0.063623182 -0.096426651 0.0093551576 1.8447183e-39
-0.054429516 -0.10038316 0.00042501092 7.7484574e-39
