# .PCD v0.7 - Point Cloud Data file format
VERSION 0.7
FIELDS x y z rgb
SIZE 4 4 4 4
TYPE F F F F
COUNT 1 1 1 1
WIDTH 915
HEIGHT 1
VIEWPOINT 0 0 0 1 0 0 0
POINTS 915
DATA ascii
-0.038461182 -0.079959169 -0.048155136 2.3509527e-38
-0.036511317 -0.079959169 -0.048155136 2.3509527e-38
-0.034561455 -0.079959169 -0.048155136 2.3509167e-38
-0.03261159 -0.079959169 -0.048155136 2.3509168e-38
-0.030661725 -0.079959169 -0.048155136 2.3509527e-38
-0.028711859 -0.079959169 -0.048155136 2.3509886e-38
-0.026761997 -0.079959169 -0.048155136 2.3509886e-38
-0.024812132 -0.079959169 -0.048155136 2.3509886e-38
-0.022862267 -0.079959169 -0.048155136 2.3509886e-38
-0.020912405 -0.079959169 -0.048155136 2.3509886e-38
-0.01896254 -0.079959169 -0.048155136 2.3509886e-38
-0.017012674 -0.079959169 -0.048155136 2.3509886e-38
-0.015062812 -0.079959169 -0.048155136 2.3509886e-38
-0.013172952 -0.079136744 -0.044128843 2.3509886e-38
-0.011230147 -0.079136744 -0.044128843 2.3509886e-38
-0.0092873434 -0.079136744 -0.044128843 2.3509886e-38
-0.0073445374 -0.079136744 -0.044128843 2.3509886e-38
-0.0054017333 -0.079136744 -0.044128843 2.3509886e-38
-0.0034589292 -0.079136744 -0.044128843 2.3509886e-38
-0.0015161233 -0.079136744 -0.044128843 2.3509886e-38
0.00053610187 -0.079959169 -0.048155136 2.3509886e-38
0.0024859654 -0.079959169 -0.048155136 2.3509886e-38
0.0045262435 -0.080561057 -0.051101752 2.3509886e-38
0.0064812722 -0.080561057 -0.051101752 2.3509886e-38
0.0084363045 -0.080561057 -0.051101752 2.3509883e-38
0.010537879 -0.081393853 -0.055178829 2.3509883e-38
0.012500056 -0.081393853 -0.055178829 2.3509883e-38
0.014462237 -0.081393853 -0.055178829 2.3509883e-38
0.016588494 -0.082207277 -0.059161015 2.3509883e-38
0.018686749 -0.082821131 -0.062166281 2.3509886e-38
0.020661183 -0.082821131 -0.062166281 2.2403538e-38
0.022635613 -0.082821131 -0.062166281 2.2957075e-38
0.024610043 -0.082821131 -0.062166281 2.3234379e-38
0.026584473 -0.082821131 -0.062166281 2.3234379e-38
0.028403461 -0.082207277 -0.059161015 2.2774125e-38
0.030159667 -0.081393853 -0.055178829 2.2958873e-38
0.031896669 -0.080561057 -0.051101752 2.2958873e-38
0.033683792 -0.079959169 -0.048155136 2.3142544e-38
0.035633653 -0.079959169 -0.048155136 2.194366e-38
0.037583522 -0.079959169 -0.048155136 2.3142185e-38
0.041031621 -0.078517675 -0.041098066 1.2357114e-38
0.042969108 -0.078517675 -0.041098066 6.7338991e-39
0.044906601 -0.078517675 -0.041098066 1.2032375e-39
-0.061859552 -0.081909031 -0.048155136 2.3508054e-38
-0.05990969 -0.081909031 -0.048155136 2.3509158e-38
-0.057959825 -0.081909031 -0.048155136 2.267797e-38
-0.056176212 -0.083356038 -0.055178829 2.3507728e-38
-0.054214034 -0.083356038 -0.055178829 2.3509168e-38
-0.052251853 -0.083356038 -0.055178829 2.3231141e-38
-0.050289672 -0.083356038 -0.055178829 2.3509524e-38
-0.048327494 -0.083356038 -0.055178829 2.3509524e-38
-0.046365317 -0.083356038 -0.055178829 2.3509524e-38
-0.044403136 -0.083356038 -0.055178829 2.3139658e-38
-0.042394493 -0.082516089 -0.051101752 2.2494289e-38
-0.04043946 -0.082516089 -0.051101752 2.2402093e-38
-0.038461182 -0.081909031 -0.048155136 2.2956349e-38
-0.036511317 -0.081909031 -0.048155136 2.3509523e-38
-0.034561455 -0.081909031 -0.048155136 2.3416971e-38
-0.03261159 -0.081909031 -0.048155136 2.3416974e-38
-0.030661725 -0.081909031 -0.048155136 2.3509168e-38
-0.028711859 -0.081909031 -0.048155136 2.3509886e-38
-0.026761997 -0.081909031 -0.048155136 2.3509886e-38
-0.024812132 -0.081909031 -0.048155136 2.3509886e-38
-0.022862267 -0.081909031 -0.048155136 2.3509886e-38
-0.020912405 -0.081909031 -0.048155136 2.3509886e-38
-0.01896254 -0.081909031 -0.048155136 2.3509886e-38
-0.017012674 -0.081909031 -0.048155136 2.3509886e-38
-0.015062812 -0.081909031 -0.048155136 2.3509886e-38
-0.013172952 -0.081079558 -0.044128843 2.3509886e-38
-0.011280631 -0.080455169 -0.041098066 2.3509886e-38
-0.0093431389 -0.080455169 -0.041098066 2.3509886e-38
-0.0074056489 -0.080455169 -0.041098066 2.3509886e-38
-0.0054681571 -0.080455169 -0.041098066 2.3509886e-38
-0.0035306672 -0.080455169 -0.041098066 2.3509886e-38
-0.0015161233 -0.081079558 -0.044128843 2.3509886e-38
0.00042668078 -0.081079558 -0.044128843 2.3509886e-38
0.0023694867 -0.081079558 -0.044128843 2.341805e-38
0.0044358307 -0.081909031 -0.048155136 2.341805e-38
0.0064812722 -0.082516089 -0.051101752 2.3509886e-38
0.0084363045 -0.082516089 -0.051101752 2.3509886e-38
0.010391333 -0.082516089 -0.051101752 2.3509527e-38
0.012500056 -0.083356038 -0.055178829 2.3509883e-38
0.014462237 -0.083356038 -0.055178829 2.3509883e-38
0.016424414 -0.083356038 -0.055178829 2.3509883e-38
0.018557653 -0.084176436 -0.059161015 2.3509886e-38
0.020661183 -0.084795564 -0.062166281 2.3509886e-38
0.022635613 -0.084795564 -0.062166281 2.3325856e-38
0.024610043 -0.084795564 -0.062166281 2.3325856e-38
0.026584473 -0.084795564 -0.062166281 2.2957075e-38
0.028403461 -0.084176436 -0.059161015 2.2958155e-38
0.030159667 -0.083356038 -0.055178829 2.3142544e-38
0.031896669 -0.082516089 -0.051101752 2.2865602e-38
0.033683792 -0.081909031 -0.048155136 2.3417691e-38
0.035633653 -0.081909031 -0.048155136 2.3417691e-38
0.037583522 -0.081909031 -0.048155136 2.323402e-38
0.039282776 -0.081079558 -0.044128843 2.3142544e-38
0.041031621 -0.080455169 -0.041098066 2.2683007e-38
0.042969108 -0.080455169 -0.041098066 2.240786e-38
0.044906601 -0.080455169 -0.041098066 1.6508078e-38
0.046844095 -0.080455169 -0.041098066 1.5731061e-39
0.048781581 -0.080455169 -0.041098066 4.699955e-42
-0.063809417 -0.083858907 -0.048155136 1.7605365e-38
-0.061859552 -0.083858907 -0.048155136 2.3505537e-38
-0.05990969 -0.083858907 -0.048155136 2.3414442e-38
-0.057959825 -0.083858907 -0.048155136 2.3508809e-38
-0.056176212 -0.085318208 -0.055178829 2.3508809e-38
-0.054214034 -0.085318208 -0.055178829 2.3508809e-38
-0.052251853 -0.085318208 -0.055178829 2.3414456e-38
-0.050289672 -0.085318208 -0.055178829 2.3323339e-38
-0.048327494 -0.085318208 -0.055178829 2.3046752e-38
-0.046365317 -0.085318208 -0.055178829 2.3323336e-38
-0.044403136 -0.085318208 -0.055178829 2.2309182e-38
-0.042440958 -0.085318208 -0.055178829 2.1387941e-38
-0.040478777 -0.085318208 -0.055178829 2.120355e-38
-0.038484432 -0.084471121 -0.051101752 2.2402093e-38
-0.036529399 -0.084471121 -0.051101752 2.3508804e-38
-0.034561455 -0.083858907 -0.048155136 2.3509527e-38
-0.03261159 -0.083858907 -0.048155136 2.3509168e-38
-0.030661725 -0.083858907 -0.048155136 2.3509527e-38
-0.028711859 -0.083858907 -0.048155136 2.3509886e-38
-0.026761997 -0.083858907 -0.048155136 2.3509886e-38
-0.024812132 -0.083858907 -0.048155136 2.3509886e-38
-0.022844184 -0.084471121 -0.051101752 2.3509886e-38
-0.020912405 -0.083858907 -0.048155136 2.3509886e-38
-0.01896254 -0.083858907 -0.048155136 2.3509886e-38
-0.017012674 -0.083858907 -0.048155136 2.3509886e-38
-0.015115757 -0.083022356 -0.044128843 2.3509886e-38
-0.013218121 -0.082392648 -0.041098066 2.3509886e-38
-0.011280631 -0.082392648 -0.041098066 2.3509886e-38
-0.0093431389 -0.082392648 -0.041098066 2.3509886e-38
-0.0074056489 -0.082392648 -0.041098066 2.3509886e-38
-0.0054681571 -0.082392648 -0.041098066 2.3509886e-38
-0.0035306672 -0.082392648 -0.041098066 2.3509886e-38
-0.0015931772 -0.082392648 -0.041098066 2.3509886e-38
0.00034431461 -0.082392648 -0.041098066 2.3509886e-38
0.0022818046 -0.082392648 -0.041098066 2.341805e-38
0.0043122889 -0.083022356 -0.044128843 2.341805e-38
0.0062550949 -0.083022356 -0.044128843 2.341805e-38
0.0083355578 -0.083858907 -0.048155136 2.341805e-38
0.010391333 -0.084471121 -0.051101752 2.3509886e-38
0.012346365 -0.084471121 -0.051101752 2.3509886e-38
0.014462237 -0.085318208 -0.055178829 2.3509886e-38
0.016424414 -0.085318208 -0.055178829 2.3509886e-38
0.018557653 -0.086145595 -0.059161015 2.3048907e-38
0.020526815 -0.086145595 -0.059161015 2.3509886e-38
0.022495978 -0.086145595 -0.059161015 2.3509886e-38
0.024465136 -0.086145595 -0.059161015 2.3509886e-38
0.026434299 -0.086145595 -0.059161015 2.3509886e-38
0.02819749 -0.085318208 -0.055178829 2.341805e-38
0.029941637 -0.084471121 -0.051101752 2.341805e-38
0.031733926 -0.083858907 -0.048155136 2.3417691e-38
0.033454359 -0.083022356 -0.044128843 2.3416974e-38
0.035397165 -0.083022356 -0.044128843 2.3509168e-38
0.03733997 -0.083022356 -0.044128843 2.2587941e-38
0.039282776 -0.083022356 -0.044128843 2.3142544e-38
0.041225582 -0.083022356 -0.044128843 2.1761065e-38
0.042969108 -0.082392648 -0.041098066 2.2591531e-38
0.044906601 -0.082392648 -0.041098066 2.2316024e-38
0.046844095 -0.082392648 -0.041098066 1.2545108e-38
0.048996799 -0.083022356 -0.044128843 2.7723709e-39
-0.063809417 -0.085808769 -0.048155136 4.0522693e-39
-0.061859552 -0.085808769 -0.048155136 7.1865662e-39
-0.05990969 -0.085808769 -0.048155136 7.5564417e-39
-0.057959825 -0.085808769 -0.048155136 1.6684175e-38
-0.056176212 -0.087280393 -0.055178829 1.7790168e-38
-0.054214034 -0.087280393 -0.055178829 2.1018094e-38
-0.052251853 -0.087280393 -0.055178829 2.2399952e-38
-0.050289672 -0.087280393 -0.055178829 2.1478716e-38
-0.048327494 -0.087280393 -0.055178829 2.194005e-38
-0.046424661 -0.088114753 -0.059161015 2.2216636e-38
-0.044455502 -0.088114753 -0.059161015 2.1848206e-38
-0.04248634 -0.088114753 -0.059161015 2.0742212e-38
-0.040517181 -0.088114753 -0.059161015 2.0558538e-38
-0.0385166 -0.087280393 -0.055178829 2.2125864e-38
-0.036554419 -0.087280393 -0.055178829 2.3508804e-38
-0.034574371 -0.086426154 -0.051101752 2.3509527e-38
-0.03261159 -0.085808769 -0.048155136 2.3509527e-38
-0.030658197 -0.084965169 -0.044128843 2.3509527e-38
-0.028715391 -0.084965169 -0.044128843 2.3509886e-38
-0.026761997 -0.085808769 -0.048155136 2.3509886e-38
-0.024812132 -0.085808769 -0.048155136 2.3509886e-38
-0.022862267 -0.085808769 -0.048155136 2.3509886e-38
-0.020912405 -0.085808769 -0.048155136 2.3509886e-38
-0.019001367 -0.084965169 -0.044128843 2.3509886e-38
-0.017058562 -0.084965169 -0.044128843 2.3509886e-38
-0.015155612 -0.084330142 -0.041098066 2.3509886e-38
-0.013218121 -0.084330142 -0.041098066 2.3509886e-38
-0.011346848 -0.083497211 -0.037122674 2.3509886e-38
-0.0094163259 -0.083497211 -0.037122674 2.3509886e-38
-0.007485806 -0.083497211 -0.037122674 2.3509886e-38
-0.0055552861 -0.083497211 -0.037122674 2.3509886e-38
-0.0036247643 -0.083497211 -0.037122674 2.3509886e-38
-0.0016942443 -0.083497211 -0.037122674 2.3509886e-38
0.00023627561 -0.083497211 -0.037122674 2.3509886e-38
0.0022818046 -0.084330142 -0.041098066 2.341805e-38
0.0042192945 -0.084330142 -0.041098066 2.341805e-38
0.0062550949 -0.084965169 -0.044128843 2.341805e-38
0.0081979008 -0.084965169 -0.044128843 2.341805e-38
0.010140703 -0.084965169 -0.044128843 2.3509886e-38
0.012083509 -0.084965169 -0.044128843 2.3509886e-38
0.01418515 -0.085808769 -0.048155136 2.3509886e-38
0.016256426 -0.086426154 -0.051101752 2.3509886e-38
0.018386591 -0.087280393 -0.055178829 2.3233299e-38
0.020526815 -0.088114753 -0.059161015 2.3509886e-38
0.022495978 -0.088114753 -0.059161015 2.341769e-38
0.024465136 -0.088114753 -0.059161015 2.3141103e-38
0.026434299 -0.088114753 -0.059161015 2.3509886e-38
0.02819749 -0.087280393 -0.055178829 2.3509883e-38
0.029784065 -0.085808769 -0.048155136 2.3140384e-38
0.031733926 -0.085808769 -0.048155136 2.3509883e-38
0.033454359 -0.084965169 -0.044128843 2.3509168e-38
0.035397165 -0.084965169 -0.044128843 2.3509167e-38
0.03733997 -0.084965169 -0.044128843 2.2955996e-38
0.039282776 -0.084965169 -0.044128843 2.3234379e-38
0.041031621 -0.084330142 -0.041098066 2.2958873e-38
0.042969108 -0.084330142 -0.041098066 2.1947247e-38
0.044906601 -0.084330142 -0.041098066 2.2316024e-38
0.047053993 -0.084965169 -0.044128843 2.1765011e-38
0.048996799 -0.084965169 -0.044128843 1.6049258e-38
0.052252069 -0.088744432 -0.062166281 9.4104507e-39
0.054226499 -0.088744432 -0.062166281 3.5095702e-39
-0.061859552 -0.087758631 -0.048155136 6.4286389e-40
-0.05990969 -0.087758631 -0.048155136 7.3469658e-40
-0.057959825 -0.087758631 -0.048155136 5.6210678e-39
-0.056176212 -0.089242578 -0.055178829 1.3734289e-38
-0.054214034 -0.089242578 -0.055178829 1.7975649e-38
-0.052251853 -0.089242578 -0.055178829 1.9634455e-38
-0.050289672 -0.089242578 -0.055178829 2.1202499e-38
-0.048393827 -0.090083912 -0.059161015 2.1294692e-38
-0.046424661 -0.090083912 -0.059161015 2.1110655e-38
-0.04449502 -0.090718865 -0.062166281 2.1111007e-38
-0.04252059 -0.090718865 -0.062166281 2.1387944e-38
-0.040517181 -0.090083912 -0.059161015 2.0650376e-38
-0.0385166 -0.089242578 -0.055178829 2.2679038e-38
-0.036554419 -0.089242578 -0.055178829 2.3509883e-38
-0.034574371 -0.088381186 -0.051101752 2.3509167e-38
-0.03261159 -0.087758631 -0.048155136 2.2771607e-38
-0.030658197 -0.086907968 -0.044128843 2.3509527e-38
-0.028715391 -0.086907968 -0.044128843 2.3509886e-38
-0.026772585 -0.086907968 -0.044128843 2.3509886e-38
-0.024812132 -0.087758631 -0.048155136 2.3509886e-38
-0.022886977 -0.086907968 -0.044128843 2.3509886e-38
-0.020944171 -0.086907968 -0.044128843 2.3509886e-38
-0.019001367 -0.086907968 -0.044128843 2.3509886e-38
-0.017058562 -0.086907968 -0.044128843 2.3509886e-38
-0.015155612 -0.086267635 -0.041098066 2.3509886e-38
-0.013218121 -0.086267635 -0.041098066 2.3509886e-38
-0.011346848 -0.085427731 -0.037122674 2.3509886e-38
-0.0094163259 -0.085427731 -0.037122674 2.3509886e-38
-0.007485806 -0.085427731 -0.037122674 2.3509886e-38
-0.0055552861 -0.085427731 -0.037122674 2.3509886e-38
-0.0036247643 -0.085427731 -0.037122674 2.3509886e-38
-0.0016942443 -0.085427731 -0.037122674 2.3509886e-38
0.00023627561 -0.085427731 -0.037122674 2.3509886e-38
0.0021667974 -0.085427731 -0.037122674 2.341805e-38
0.0040973173 -0.085427731 -0.037122674 2.341805e-38
0.0060278373 -0.085427731 -0.037122674 2.341805e-38
0.0079583572 -0.085427731 -0.037122674 2.341805e-38
0.0098888809 -0.085427731 -0.037122674 2.341805e-38
0.011969258 -0.086267635 -0.041098066 2.341805e-38
0.013906748 -0.086267635 -0.041098066 2.3509886e-38
0.015844241 -0.086267635 -0.041098066 2.3509886e-38
0.018386591 -0.089242578 -0.055178829 2.3509886e-38
0.020348772 -0.089242578 -0.055178829 2.3509886e-38
0.02231095 -0.089242578 -0.055178829 2.3509883e-38
0.024273131 -0.089242578 -0.055178829 2.3509883e-38
0.026235308 -0.089242578 -0.055178829 2.3509883e-38
0.027986608 -0.088381186 -0.051101752 2.350988e-38
0.029784065 -0.087758631 -0.048155136 2.3509524e-38
0.031511556 -0.086907968 -0.044128843 2.3509521e-38
0.033281654 -0.086267635 -0.041098066 2.3509161e-38
0.035219148 -0.086267635 -0.041098066 2.350952e-38
0.03733997 -0.086907968 -0.044128843 2.3509524e-38
0.039282776 -0.086907968 -0.044128843 2.341805e-38
0.041031621 -0.086267635 -0.041098066 2.2958873e-38
0.042969108 -0.086267635 -0.041098066 2.2591531e-38
0.044906601 -0.086267635 -0.041098066 2.2316024e-38
0.047053993 -0.086907968 -0.044128843 2.2224189e-38
0.049282707 -0.087758631 -0.048155136 2.2040518e-38
0.052252069 -0.090718865 -0.062166281 2.2040518e-38
0.054226499 -0.090718865 -0.062166281 1.6877932e-38
0.056808483 -0.092401877 -0.070132203 9.9621741e-39
0.058796879 -0.092401877 -0.070132203 7.28634e-39
-0.061944798 -0.090336218 -0.051101752 1.2165909e-38
-0.059989769 -0.090336218 -0.051101752 1.0876233e-38
-0.058034737 -0.090336218 -0.051101752 6.0824159e-39
-0.056176212 -0.091204748 -0.055178829 3.9626422e-39
-0.054214034 -0.091204748 -0.055178829 4.0544833e-39
-0.052332144 -0.092053071 -0.059161015 5.8980428e-39
-0.050362986 -0.092053071 -0.059161015 1.1061354e-38
-0.048393827 -0.092053071 -0.059161015 1.6777836e-38
-0.046469454 -0.092693284 -0.062166281 2.1019187e-38
-0.04449502 -0.092693284 -0.062166281 1.9913188e-38
-0.04252059 -0.092693284 -0.062166281 2.1019888e-38
-0.040517181 -0.092053071 -0.059161015 2.1020241e-38
-0.0385166 -0.091204748 -0.055178829 2.3048542e-38
-0.036529399 -0.090336218 -0.051101752 2.3509883e-38
-0.034574371 -0.090336218 -0.051101752 2.3509527e-38
-0.03261159 -0.089708492 -0.048155136 2.3509527e-38
-0.030658197 -0.088850766 -0.044128843 2.3509168e-38
-0.028715391 -0.088850766 -0.044128843 2.3509886e-38
-0.026772585 -0.088850766 -0.044128843 2.3509886e-38
-0.024829783 -0.088850766 -0.044128843 2.3509886e-38
-0.022886977 -0.088850766 -0.044128843 2.3509886e-38
-0.020944171 -0.088850766 -0.044128843 2.3509886e-38
-0.019030593 -0.088205129 -0.041098066 2.3509886e-38
-0.017093103 -0.088205129 -0.041098066 2.3509886e-38
-0.015155612 -0.088205129 -0.041098066 2.3509886e-38
-0.013218121 -0.088205129 -0.041098066 2.3509886e-38
-0.011346848 -0.087358251 -0.037122674 2.3509886e-38
-0.0094163259 -0.087358251 -0.037122674 2.3509886e-38
-0.007485806 -0.087358251 -0.037122674 2.3509886e-38
-0.0055552861 -0.087358251 -0.037122674 2.3509886e-38
-0.0036247643 -0.087358251 -0.037122674 2.3509886e-38
-0.0016942443 -0.087358251 -0.037122674 2.3509886e-38
0.00023627561 -0.087358251 -0.037122674 2.3509886e-38
0.0020526173 -0.086517468 -0.033175893 2.3509886e-38
0.0039762156 -0.086517468 -0.033175893 2.341805e-38
0.0058998177 -0.086517468 -0.033175893 2.3509886e-38
0.007717778 -0.085859254 -0.030086106 2.341805e-38
0.0096359635 -0.085859254 -0.030086106 2.341805e-38
0.01167062 -0.086517468 -0.033175893 2.341805e-38
0.013594219 -0.086517468 -0.033175893 2.3509886e-38
0.015517821 -0.086517468 -0.033175893 2.3509886e-38
0.018386591 -0.091204748 -0.055178829 2.3509886e-38
0.020348772 -0.091204748 -0.055178829 2.3509886e-38
0.022121515 -0.090336218 -0.051101752 2.3509883e-38
0.024076547 -0.090336218 -0.051101752 2.3509883e-38
0.026235308 -0.091204748 -0.055178829 2.3509521e-38
0.027986608 -0.090336218 -0.051101752 2.3509521e-38
0.029784065 -0.089708492 -0.048155136 2.3509521e-38
0.031511556 -0.088850766 -0.044128843 2.350952e-38
0.033281654 -0.088205129 -0.041098066 2.3509517e-38
0.035219148 -0.088205129 -0.041098066 2.3509517e-38
0.037156641 -0.088205129 -0.041098066 2.3509879e-38
0.039094128 -0.088205129 -0.041098066 2.350988e-38
0.041031621 -0.088205129 -0.041098066 2.3142544e-38
0.042969108 -0.088205129 -0.041098066 2.2867037e-38
0.044906601 -0.088205129 -0.041098066 2.2499695e-38
0.047053993 -0.088850766 -0.044128843 2.2316024e-38
0.048996799 -0.088850766 -0.044128843 2.1764652e-38
0.052252069 -0.092693284 -0.062166281 2.2316024e-38
0.054517534 -0.093525305 -0.066071935 2.2499695e-38
0.056808483 -0.094390273 -0.070132203 2.240786e-38
0.058796879 -0.094390273 -0.070132203 2.2958873e-38
-0.090493098 -0.081992984 -0.0031545814 5.6260886e-39
-0.08862213 -0.081992984 -0.0031545814 6.4555214e-39
-0.086751163 -0.081992984 -0.0031545814 7.0079917e-39
-0.084880203 -0.081992984 -0.0031545814 7.0991139e-39
-0.083009243 -0.081992984 -0.0031545814 5.1622897e-39
-0.085089326 -0.099593118 -0.085098214 3.5016907e-39
-0.062495351 -0.096378669 -0.070132203 1.0691512e-38
-0.060208794 -0.094022244 -0.059161015 1.1061717e-38
-0.058239628 -0.094022244 -0.059161015 5.346304e-39
-0.056270469 -0.094022244 -0.059161015 4.1474091e-39
-0.05430131 -0.094022244 -0.059161015 4.5161972e-39
-0.052392744 -0.094667718 -0.062166281 3.4094951e-39
-0.050418314 -0.094667718 -0.062166281 4.9768194e-39
-0.04844388 -0.094667718 -0.062166281 9.9550177e-39
-0.046527658 -0.095506594 -0.066071935 1.5118681e-38
-0.044546381 -0.095506594 -0.066071935 1.8254034e-38
-0.04252059 -0.094667718 -0.062166281 1.7240231e-38
-0.040517181 -0.094022244 -0.059161015 1.6779605e-38
-0.0385166 -0.093166932 -0.055178829 2.22195e-38
-0.036529399 -0.092291236 -0.051101752 2.3509883e-38
-0.034561455 -0.091658354 -0.048155136 2.2956712e-38
-0.03261159 -0.091658354 -0.048155136 2.3509527e-38
-0.030658197 -0.09079358 -0.044128843 2.2679773e-38
-0.028715391 -0.09079358 -0.044128843 2.3509886e-38
-0.026772585 -0.09079358 -0.044128843 2.3509886e-38
-0.024829783 -0.09079358 -0.044128843 2.3509886e-38
-0.022886977 -0.09079358 -0.044128843 2.3509886e-38
-0.020944171 -0.09079358 -0.044128843 2.3509886e-38
-0.019030593 -0.090142623 -0.041098066 2.3509886e-38
-0.017093103 -0.090142623 -0.041098066 2.3509886e-38
-0.015155612 -0.090142623 -0.041098066 2.3509886e-38
-0.013218121 -0.090142623 -0.041098066 2.3509886e-38
-0.011280631 -0.090142623 -0.041098066 2.3509886e-38
-0.0093431389 -0.090142623 -0.041098066 2.3509886e-38
-0.0074056489 -0.090142623 -0.041098066 2.3509886e-38
-0.0054681571 -0.090142623 -0.041098066 2.3509886e-38
-0.0035306672 -0.090142623 -0.041098066 2.3509886e-38
-0.0016942443 -0.089288771 -0.037122674 2.3509886e-38
0.00023627561 -0.089288771 -0.037122674 2.3509886e-38
0.0020526173 -0.088441074 -0.033175893 2.3509886e-38
0.0039762156 -0.088441074 -0.033175893 2.3509883e-38
0.0058998177 -0.088441074 -0.033175893 2.3509527e-38
0.007717778 -0.087777436 -0.030086106 2.3509886e-38
0.0096359635 -0.087777436 -0.030086106 2.3509886e-38
0.01167062 -0.088441074 -0.033175893 2.3509886e-38
0.013594219 -0.088441074 -0.033175893 2.341805e-38
0.015517821 -0.088441074 -0.033175893 2.341805e-38
0.017781731 -0.090142623 -0.041098066 2.3509886e-38
0.019854728 -0.09079358 -0.044128843 2.3509886e-38
0.02179753 -0.09079358 -0.044128843 2.3509883e-38
0.023740336 -0.09079358 -0.044128843 2.3509883e-38
0.026031576 -0.092291236 -0.051101752 2.3509521e-38
0.027986608 -0.092291236 -0.051101752 2.3509521e-38
0.029784065 -0.091658354 -0.048155136 2.350952e-38
0.031511556 -0.09079358 -0.044128843 2.350952e-38
0.033281654 -0.090142623 -0.041098066 2.3509517e-38
0.035219148 -0.090142623 -0.041098066 2.3509873e-38
0.037156641 -0.090142623 -0.041098066 2.3509876e-38
0.039094128 -0.090142623 -0.041098066 2.3509879e-38
0.041031621 -0.090142623 -0.041098066 2.3234374e-38
0.042969108 -0.090142623 -0.041098066 2.2958873e-38
0.044906601 -0.090142623 -0.041098066 2.2867037e-38
0.046844095 -0.090142623 -0.041098066 2.2591531e-38
0.048996799 -0.09079358 -0.044128843 2.2591531e-38
0.052252069 -0.094667718 -0.062166281 2.2591531e-38
0.054517534 -0.095506594 -0.066071935 2.2775202e-38
0.056808483 -0.096378669 -0.070132203 2.2867037e-38
0.058796879 -0.096378669 -0.070132203 2.3142544e-38
-0.090493098 -0.083863959 -0.0031545814 2.9524378e-39
-0.08862213 -0.083863959 -0.0031545814 3.0443097e-39
-0.086751163 -0.083863959 -0.0031545814 3.3201973e-39
-0.084880203 -0.083863959 -0.0031545814 3.0428916e-39
-0.087103963 -0.10160775 -0.085098214 2.0280236e-39
-0.085089326 -0.10160775 -0.085098214 2.3035329e-39
-0.082893096 -0.10076147 -0.081189938 4.2407201e-39
-0.080706 -0.099893004 -0.077179261 5.0711997e-39
-0.078705244 -0.099893004 -0.077179261 3.6886253e-39
-0.075962082 -0.095991403 -0.059161015 3.0450538e-39
-0.073992915 -0.095991403 -0.059161015 3.9680877e-39
-0.072023749 -0.095991403 -0.059161015 5.0744352e-39
-0.069911465 -0.095129102 -0.055178829 5.1655491e-39
-0.06794928 -0.095129102 -0.055178829 6.5470416e-39
-0.065987103 -0.095129102 -0.055178829 9.9572009e-39
-0.064024925 -0.095129102 -0.055178829 1.1062107e-38
-0.062495351 -0.098367065 -0.070132203 8.4809834e-39
-0.060506951 -0.098367065 -0.070132203 7.8366818e-39
-0.058518555 -0.098367065 -0.070132203 2.5815281e-39
-0.056341603 -0.096642151 -0.062166281 2.4889835e-39
-0.054367173 -0.096642151 -0.062166281 3.8715649e-39
-0.052471492 -0.097487867 -0.066071935 2.3960802e-39
-0.050490215 -0.097487867 -0.066071935 1.1056974e-39
-0.048508938 -0.097487867 -0.066071935 1.1053302e-39
-0.046527658 -0.097487867 -0.066071935 1.6592088e-39
-0.04449502 -0.096642151 -0.062166281 1.2911284e-39
-0.04248634 -0.095991403 -0.059161015 1.2611686e-44
-0.040517181 -0.095991403 -0.059161015 1.9364712e-39
-0.0385166 -0.095129102 -0.055178829 1.8162536e-38
-0.036529399 -0.094246268 -0.051101752 2.31411e-38
-0.034561455 -0.093608215 -0.048155136 2.3233299e-38
-0.03261159 -0.093608215 -0.048155136 2.3509527e-38
-0.030658197 -0.092736378 -0.044128843 2.3509527e-38
-0.028715391 -0.092736378 -0.044128843 2.3509886e-38
-0.026772585 -0.092736378 -0.044128843 2.3509886e-38
-0.024829783 -0.092736378 -0.044128843 2.3509886e-38
-0.022886977 -0.092736378 -0.044128843 2.3509886e-38
-0.020944171 -0.092736378 -0.044128843 2.3509886e-38
-0.019030593 -0.092080101 -0.041098066 2.3509886e-38
-0.017093103 -0.092080101 -0.041098066 2.3509886e-38
-0.015155612 -0.092080101 -0.041098066 2.3509886e-38
-0.013218121 -0.092080101 -0.041098066 2.3509886e-38
-0.011280631 -0.092080101 -0.041098066 2.3509886e-38
-0.0093431389 -0.092080101 -0.041098066 2.3509886e-38
-0.0074056489 -0.092080101 -0.041098066 2.3509886e-38
-0.0054681571 -0.092080101 -0.041098066 2.3509886e-38
-0.0035306672 -0.092080101 -0.041098066 2.3509886e-38
-0.0016942443 -0.091219291 -0.037122674 2.3509886e-38
0.00023627561 -0.091219291 -0.037122674 2.3509886e-38
0.0020526173 -0.090364665 -0.033175893 2.3509883e-38
0.0039762156 -0.090364665 -0.033175893 2.3509883e-38
0.0058998177 -0.090364665 -0.033175893 2.3509883e-38
0.007717778 -0.089695618 -0.030086106 2.3509883e-38
0.0096359635 -0.089695618 -0.030086106 2.3509527e-38
0.01167062 -0.090364665 -0.033175893 2.3509886e-38
0.013594219 -0.090364665 -0.033175893 2.341805e-38
0.015517821 -0.090364665 -0.033175893 2.341805e-38
0.01761096 -0.091219291 -0.037122674 2.3509886e-38
0.019719221 -0.092080101 -0.041098066 2.3509886e-38
0.021656711 -0.092080101 -0.041098066 2.3509527e-38
0.023740336 -0.092736378 -0.044128843 2.3509883e-38
0.025884334 -0.093608215 -0.048155136 2.3509524e-38
0.027834199 -0.093608215 -0.048155136 2.3509521e-38
0.029784065 -0.093608215 -0.048155136 2.3509521e-38
0.031511556 -0.092736378 -0.044128843 2.350952e-38
0.033281654 -0.092080101 -0.041098066 2.350952e-38
0.035219148 -0.092080101 -0.041098066 2.3509876e-38
0.037156641 -0.092080101 -0.041098066 2.3509879e-38
0.038846686 -0.091219291 -0.037122674 2.3509879e-38
0.040777206 -0.091219291 -0.037122674 2.3418045e-38
0.042969108 -0.092080101 -0.041098066 2.3234374e-38
0.044906601 -0.092080101 -0.041098066 2.3142541e-38
0.046844095 -0.092080101 -0.041098066 2.295887e-38
0.048781581 -0.092080101 -0.041098066 2.2958873e-38
0.050719075 -0.092080101 -0.041098066 2.2958873e-38
0.054517534 -0.097487867 -0.066071935 2.2591166e-38
0.056498807 -0.097487867 -0.066071935 2.2682283e-38
-0.10208131 -0.093149811 -0.037122674 3.9647652e-39
-0.10015079 -0.093149811 -0.037122674 3.8736584e-39
-0.098220274 -0.093149811 -0.037122674 3.781474e-39
-0.096957102 -0.095558092 -0.048155136 2.6758537e-39
-0.095007241 -0.095558092 -0.048155136 1.8457399e-39
-0.090660587 -0.086376548 -0.0060939249 1.661727e-39
-0.088784471 -0.086376548 -0.0060939249 1.5695678e-39
-0.086908355 -0.086376548 -0.0060939249 1.3844773e-39
-0.08503224 -0.086376548 -0.0060939249 8.3058463e-40
-0.087103963 -0.10362239 -0.085098214 1.8449496e-40
-0.085089326 -0.10362239 -0.085098214 1.197928e-39
-0.082893096 -0.10276926 -0.081189938 4.2410999e-39
-0.08056803 -0.10122015 -0.074093409 5.5329149e-39
-0.078572683 -0.10122015 -0.074093409 4.2439711e-39
-0.075962082 -0.097960562 -0.059161015 1.6635697e-39
-0.073992915 -0.097960562 -0.059161015 1.7571988e-39
-0.071873635 -0.097091287 -0.055178829 2.6791523e-39
-0.069911465 -0.097091287 -0.055178829 2.8628191e-39
-0.06794928 -0.097091287 -0.055178829 3.2305198e-39
-0.065854855 -0.096201301 -0.051101752 6.2715337e-39
-0.06389983 -0.096201301 -0.051101752 7.9296131e-39
-0.062495351 -0.10035546 -0.070132203 6.085339e-39
-0.060506951 -0.10035546 -0.070132203 6.4551977e-39
-0.058518555 -0.10035546 -0.070132203 2.2142015e-39
-0.056530159 -0.10035546 -0.070132203 1.1997007e-39
-0.054452773 -0.09946914 -0.066071935 1.2915446e-39
-0.052471492 -0.09946914 -0.066071935 1.1064372e-39
-0.050490215 -0.09946914 -0.066071935 1.8439995e-39
-0.048508938 -0.09946914 -0.066071935 1.2908145e-39
-0.046527658 -0.09946914 -0.066071935 3.6956024e-40
-0.04449502 -0.098616585 -0.062166281 4.6137752e-40
-0.04248634 -0.097960562 -0.059161015 1.6815582e-44
-0.040517181 -0.097960562 -0.059161015 1.1077923e-39
-0.0385166 -0.097091287 -0.055178829 2.065254e-38
-0.036529399 -0.096201301 -0.051101752 2.341805e-38
-0.034561455 -0.095558092 -0.048155136 2.341805e-38
-0.03261159 -0.095558092 -0.048155136 2.3048914e-38
-0.030658197 -0.094679192 -0.044128843 2.3325497e-38
-0.028715391 -0.094679192 -0.044128843 2.3509886e-38
-0.026772585 -0.094679192 -0.044128843 2.3509886e-38
-0.024843067 -0.094017595 -0.041098066 2.3509886e-38
-0.022905575 -0.094017595 -0.041098066 2.3509886e-38
-0.020968083 -0.094017595 -0.041098066 2.3509886e-38
-0.019030593 -0.094017595 -0.041098066 2.3509886e-38
-0.017093103 -0.094017595 -0.041098066 2.3509886e-38
-0.015155612 -0.094017595 -0.041098066 2.3509886e-38
-0.013218121 -0.094017595 -0.041098066 2.3509886e-38
-0.011280631 -0.094017595 -0.041098066 2.3509886e-38
-0.0093431389 -0.094017595 -0.041098066 2.3509886e-38
-0.0073445374 -0.094679192 -0.044128843 2.3509886e-38
-0.0054681571 -0.094017595 -0.041098066 2.3509886e-38
-0.0035306672 -0.094017595 -0.041098066 2.3509886e-38
-0.0016942443 -0.093149811 -0.037122674 2.3509886e-38
0.00023627561 -0.093149811 -0.037122674 2.3509883e-38
0.0020526173 -0.092288271 -0.033175893 2.3509521e-38
0.0039762156 -0.092288271 -0.033175893 2.3509521e-38
0.0058998177 -0.092288271 -0.033175893 2.3509521e-38
0.0078234198 -0.092288271 -0.033175893 2.350988e-38
0.0097470181 -0.092288271 -0.033175893 2.3509883e-38
0.01167062 -0.092288271 -0.033175893 2.3509886e-38
0.013594219 -0.092288271 -0.033175893 2.341805e-38
0.015517821 -0.092288271 -0.033175893 2.341805e-38
0.017441422 -0.092288271 -0.033175893 2.341805e-38
0.01954148 -0.093149811 -0.037122674 2.341805e-38
0.021472003 -0.093149811 -0.037122674 2.3509886e-38
0.023594204 -0.094017595 -0.041098066 2.3509883e-38
0.025683142 -0.094679192 -0.044128843 2.3509883e-38
0.027834199 -0.095558092 -0.048155136 2.350988e-38
0.029784065 -0.095558092 -0.048155136 2.3509521e-38
0.031511556 -0.094679192 -0.044128843 2.3509521e-38
0.033281654 -0.094017595 -0.041098066 2.3509883e-38
0.035219148 -0.094017595 -0.041098066 2.3509883e-38
0.037156641 -0.094017595 -0.041098066 2.350988e-38
0.038846686 -0.093149811 -0.037122674 2.350988e-38
0.040777206 -0.093149811 -0.037122674 2.350988e-38
0.042707726 -0.093149811 -0.037122674 2.350988e-38
0.044638246 -0.093149811 -0.037122674 2.350988e-38
0.046568766 -0.093149811 -0.037122674 2.3418045e-38
0.048781581 -0.094017595 -0.041098066 2.3418047e-38
0.050939605 -0.094679192 -0.044128843 2.3418047e-38
0.052882411 -0.094679192 -0.044128843 2.3418047e-38
0.056498807 -0.09946914 -0.066071935 2.341805e-38
0.058480095 -0.09946914 -0.066071935 2.341805e-38
-0.10401183 -0.095080331 -0.037122674 5.9930691e-39
-0.10208131 -0.095080331 -0.037122674 5.8079716e-39
-0.10015079 -0.095080331 -0.037122674 5.7168675e-39
-0.098220274 -0.095080331 -0.037122674 5.2559034e-39
-0.096957102 -0.097507954 -0.048155136 3.7811447e-39
-0.095007241 -0.097507954 -0.048155136 2.1219919e-39
-0.093225285 -0.098156333 -0.051101752 8.3198873e-40
-0.088784471 -0.088252664 -0.0060939249 1.3855507e-39
-0.086908355 -0.088252664 -0.0060939249 1.293725e-39
-0.085191004 -0.088928089 -0.0091634449 9.242264e-40
-0.086908668 -0.10477705 -0.081189938 9.3383931e-41
-0.084900886 -0.10477705 -0.081189938 5.5400195e-40
-0.082706749 -0.10389452 -0.077179261 3.4124266e-39
-0.080390923 -0.10234386 -0.070132203 5.9027848e-39
-0.07793124 -0.09992972 -0.059161015 6.0886124e-39
-0.075962082 -0.09992972 -0.059161015 4.9840599e-39
-0.07383582 -0.099053472 -0.055178829 1.2973109e-39
-0.071873635 -0.099053472 -0.055178829 1.4816994e-39
-0.069911465 -0.099053472 -0.055178829 4.7078219e-39
-0.06794928 -0.099053472 -0.055178829 4.9840459e-39
-0.065854855 -0.098156333 -0.051101752 3.4152782e-39
-0.06389983 -0.098156333 -0.051101752 2.5833568e-39
-0.062377885 -0.10145043 -0.066071935 2.0301816e-39
-0.060506951 -0.10234386 -0.070132203 6.4796602e-40
-0.058619261 -0.1032155 -0.074093409 4.3720512e-43
-0.056696963 -0.10389452 -0.077179261 8.0995051e-43
-0.054628577 -0.1032155 -0.074093409 4.596259e-43
-0.052553363 -0.10234386 -0.070132203 5.5399774e-40
-0.050564963 -0.10234386 -0.070132203 1.8450925e-39
-0.048576567 -0.10234386 -0.070132203 1.2915446e-39
-0.046527658 -0.10145043 -0.066071935 8.305482e-40
-0.044546381 -0.10145043 -0.066071935 1.8427075e-42
-0.04248634 -0.09992972 -0.059161015 1.4773133e-39
-0.040517181 -0.09992972 -0.059161015 5.5335441e-39
-0.0385166 -0.099053472 -0.055178829 2.1943999e-38
-0.036529399 -0.098156333 -0.051101752 2.2588648e-38
-0.034561455 -0.097507954 -0.048155136 2.341805e-38
-0.03261159 -0.097507954 -0.048155136 2.3233303e-38
-0.030658197 -0.09662199 -0.044128843 2.3417691e-38
-0.028715391 -0.09662199 -0.044128843 2.3509886e-38
-0.026772585 -0.09662199 -0.044128843 2.3509886e-38
-0.024843067 -0.095955089 -0.041098066 2.3509886e-38
-0.022905575 -0.095955089 -0.041098066 2.3509886e-38
-0.020968083 -0.095955089 -0.041098066 2.3509886e-38
-0.019030593 -0.095955089 -0.041098066 2.3509886e-38
-0.017093103 -0.095955089 -0.041098066 2.3509886e-38
-0.015155612 -0.095955089 -0.041098066 2.3509886e-38
-0.013218121 -0.095955089 -0.041098066 2.3509886e-38
-0.011280631 -0.095955089 -0.041098066 2.3509886e-38
-0.0093431389 -0.095955089 -0.041098066 2.3509886e-38
-0.0073445374 -0.09662199 -0.044128843 2.3509886e-38
-0.0054017333 -0.09662199 -0.044128843 2.3509886e-38
-0.0034589292 -0.09662199 -0.044128843 2.3509886e-38
-0.0015931772 -0.095955089 -0.041098066 2.3509886e-38
0.00023627561 -0.095080331 -0.037122674 2.3509883e-38
0.0021667974 -0.095080331 -0.037122674 2.350952e-38
0.0040973173 -0.095080331 -0.037122674 2.350952e-38
0.0058998177 -0.094211861 -0.033175893 2.350952e-38
0.0078234198 -0.094211861 -0.033175893 2.3509521e-38
0.0097470181 -0.094211861 -0.033175893 2.3509883e-38
0.01167062 -0.094211861 -0.033175893 2.3509883e-38
0.013594219 -0.094211861 -0.033175893 2.3509886e-38
0.015517821 -0.094211861 -0.033175893 2.341805e-38
0.017441422 -0.094211861 -0.033175893 2.341805e-38
0.01936502 -0.094211861 -0.033175893 2.341805e-38
0.021472003 -0.095080331 -0.037122674 2.3509886e-38
0.023594204 -0.095955089 -0.041098066 2.3509886e-38
0.025683142 -0.09662199 -0.044128843 2.3509883e-38
0.027625944 -0.09662199 -0.044128843 2.3509883e-38
0.02956875 -0.09662199 -0.044128843 2.3509521e-38
0.031511556 -0.09662199 -0.044128843 2.3509883e-38
0.033281654 -0.095955089 -0.041098066 2.3509886e-38
0.035219148 -0.095955089 -0.041098066 2.3509886e-38
0.037156641 -0.095955089 -0.041098066 2.3509886e-38
0.038846686 -0.095080331 -0.037122674 2.3509527e-38
0.040777206 -0.095080331 -0.037122674 2.3509883e-38
0.042707726 -0.095080331 -0.037122674 2.3509521e-38
0.044638246 -0.095080331 -0.037122674 2.3509879e-38
0.046568766 -0.095080331 -0.037122674 2.3509879e-38
0.048781581 -0.095955089 -0.041098066 2.3232933e-38
0.050939605 -0.09662199 -0.044128843 2.2679759e-38
0.052882411 -0.09662199 -0.044128843 2.3417327e-38
0.056498807 -0.10145043 -0.066071935 2.3509886e-38
0.058480095 -0.10145043 -0.066071935 2.3141106e-38
-0.10594235 -0.097010851 -0.037122674 6.0838214e-39
-0.10401183 -0.097010851 -0.037122674 6.2693028e-39
-0.10208131 -0.097010851 -0.037122674 6.5451877e-39
-0.10015079 -0.097010851 -0.037122674 5.8083611e-39
-0.098220274 -0.097010851 -0.037122674 4.794226e-39
-0.096957102 -0.099457815 -0.048155136 3.5038613e-39
-0.095007241 -0.099457815 -0.048155136 1.8443512e-39
-0.093225285 -0.10011137 -0.051101752 3.7030853e-40
-0.089175209 -0.091697961 -0.013168758 3.3280839e-42
-0.087072507 -0.090809584 -0.0091634449 5.1301537e-42
-0.085191004 -0.090809584 -0.0091634449 8.3309576e-40
-0.086908668 -0.10678484 -0.081189938 8.3237689e-40
-0.08455871 -0.10521083 -0.074093409 1.016771e-39
-0.082379319 -0.10433225 -0.070132203 3.4138601e-39
-0.080390923 -0.10433225 -0.070132203 6.1800906e-39
-0.07793124 -0.10189888 -0.059161015 6.9190947e-39
-0.075962082 -0.10189888 -0.059161015 5.9989391e-39
-0.07383582 -0.10101564 -0.055178829 1.1129309e-39
-0.071719944 -0.10011137 -0.051101752 9.9497796e-41
-0.06976492 -0.10011137 -0.051101752 4.063191e-39
-0.06794928 -0.10101564 -0.055178829 5.6290776e-39
-0.065854855 -0.10011137 -0.051101752 3.2301933e-39
-0.06389983 -0.10011137 -0.051101752 1.1086149e-39
-0.062377885 -0.10343169 -0.066071935 8.323825e-40
-0.060506951 -0.10433225 -0.070132203 1.5710139e-39
-0.058619261 -0.10521083 -0.074093409 4.0483513e-42
-0.056791894 -0.10678484 -0.081189938 1.0089349e-43
-0.054784108 -0.10678484 -0.081189938 1.0930128e-43
-0.048576567 -0.10433225 -0.070132203 7.3945819e-40
-0.046588171 -0.10433225 -0.070132203 1.7539506e-39
-0.04248634 -0.10189888 -0.059161015 5.810152e-39
-0.040517181 -0.10189888 -0.059161015 1.2079437e-38
-0.0385166 -0.10101564 -0.055178829 2.3142544e-38
-0.036529399 -0.10011137 -0.051101752 2.3234379e-38
-0.034561455 -0.099457815 -0.048155136 2.3234379e-38
-0.032600999 -0.098564804 -0.044128843 2.3233303e-38
-0.030658197 -0.098564804 -0.044128843 2.2864526e-38
-0.028715391 -0.098564804 -0.044128843 2.3509886e-38
-0.026780557 -0.097892582 -0.041098066 2.3509886e-38
-0.024843067 -0.097892582 -0.041098066 2.3509886e-38
-0.022905575 -0.097892582 -0.041098066 2.3509886e-38
-0.020968083 -0.097892582 -0.041098066 2.3509886e-38
-0.019030593 -0.097892582 -0.041098066 2.3509886e-38
-0.017093103 -0.097892582 -0.041098066 2.3509886e-38
-0.015155612 -0.097892582 -0.041098066 2.3509886e-38
-0.013218121 -0.097892582 -0.041098066 2.3509886e-38
-0.011280631 -0.097892582 -0.041098066 2.3509886e-38
-0.0092873434 -0.098564804 -0.044128843 2.3509886e-38
-0.0073445374 -0.098564804 -0.044128843 2.3509886e-38
-0.0054017333 -0.098564804 -0.044128843 2.3509886e-38
-0.0034589292 -0.098564804 -0.044128843 2.3509886e-38
-0.0015161233 -0.098564804 -0.044128843 2.3509886e-38
0.00034431461 -0.097892582 -0.041098066 2.3509883e-38
0.0022818046 -0.097892582 -0.041098066 2.350952e-38
0.0040973173 -0.097010851 -0.037122674 2.3509517e-38
0.0060278373 -0.097010851 -0.037122674 2.350952e-38
0.0078234198 -0.096135467 -0.033175893 2.3509521e-38
0.0097470181 -0.096135467 -0.033175893 2.3509883e-38
0.01167062 -0.096135467 -0.033175893 2.3509883e-38
0.013594219 -0.096135467 -0.033175893 2.3509886e-38
0.015517821 -0.096135467 -0.033175893 2.341805e-38
0.017441422 -0.096135467 -0.033175893 2.341805e-38
0.01936502 -0.096135467 -0.033175893 2.341805e-38
0.021288622 -0.096135467 -0.033175893 2.341805e-38
0.023402523 -0.097010851 -0.037122674 2.3509886e-38
0.025531694 -0.097892582 -0.041098066 2.3509883e-38
0.027625944 -0.098564804 -0.044128843 2.3509883e-38
0.02956875 -0.098564804 -0.044128843 2.3509521e-38
0.031511556 -0.098564804 -0.044128843 2.3509527e-38
0.033281654 -0.097892582 -0.041098066 2.341805e-38
0.035219148 -0.097892582 -0.041098066 2.3417691e-38
0.037156641 -0.097892582 -0.041098066 2.3509527e-38
0.039094128 -0.097892582 -0.041098066 2.3509527e-38
0.041031621 -0.097892582 -0.041098066 2.3509527e-38
0.042969108 -0.097892582 -0.041098066 2.3509165e-38
0.044638246 -0.097010851 -0.037122674 2.3509521e-38
0.046568766 -0.097010851 -0.037122674 2.350952e-38
0.048499294 -0.097010851 -0.037122674 2.3509161e-38
0.050429814 -0.097010851 -0.037122674 2.3509161e-38
0.052656561 -0.097892582 -0.041098066 2.3509165e-38
0.054594051 -0.097892582 -0.041098066 2.3509168e-38
0.058480095 -0.10343169 -0.066071935 2.3325138e-38
-0.10566901 -0.098059073 -0.033175893 7.2831016e-39
-0.10401183 -0.098941371 -0.037122674 7.5597039e-39
-0.10208131 -0.098941371 -0.037122674 6.4540935e-39
-0.10015079 -0.098941371 -0.037122674 4.4261652e-39
-0.098220274 -0.098941371 -0.037122674 2.8595709e-39
-0.096289754 -0.098941371 -0.037122674 2.4911597e-39
-0.094592735 -0.099830076 -0.041098066 2.583368e-39
-0.093057379 -0.10140768 -0.048155136 2.1238346e-39
-0.089175209 -0.093586475 -0.013168758 2.8639135e-39
-0.087072507 -0.092691094 -0.0091634449 2.8639135e-39
-0.085191004 -0.092691094 -0.0091634449 3.4160153e-39
-0.083659306 -0.094255984 -0.016163653 3.4160153e-39
-0.08455871 -0.10720618 -0.074093409 3.3227449e-39
-0.082379319 -0.10632066 -0.070132203 4.1521496e-39
-0.080390923 -0.10632066 -0.070132203 5.0751877e-39
-0.07793124 -0.10386805 -0.059161015 4.8922384e-39
-0.075962082 -0.10386805 -0.059161015 5.2613825e-39
-0.07383582 -0.10297783 -0.055178829 2.4962324e-39
-0.071719944 -0.1020664 -0.051101752 4.6792859e-40
-0.06976492 -0.1020664 -0.051101752 5.5940535e-40
-0.06794928 -0.10297783 -0.055178829 1.2044146e-39
-0.065987103 -0.10297783 -0.055178829 1.387008e-39
-0.064024925 -0.10297783 -0.055178829 1.6625159e-39
-0.062377885 -0.10541297 -0.066071935 2.1231297e-39
-0.060396608 -0.10541297 -0.066071935 2.3089447e-39
-0.058415327 -0.10541297 -0.066071935 2.76992e-39
-0.056623917 -0.10720618 -0.074093409 3.0461566e-39
-0.054628577 -0.10720618 -0.074093409 2.5844638e-39
-0.052633233 -0.10720618 -0.074093409 2.5837449e-39
-0.05063789 -0.10720618 -0.074093409 2.1220423e-39
-0.04864255 -0.10720618 -0.074093409 4.4269191e-39
-0.046424661 -0.10386805 -0.059161015 1.1249019e-38
-0.04248634 -0.10386805 -0.059161015 1.650377e-38
-0.040517181 -0.10386805 -0.059161015 1.9454735e-38
-0.0385166 -0.10297783 -0.055178829 2.3234379e-38
-0.036511317 -0.10140768 -0.048155136 2.3233303e-38
-0.034543805 -0.1005076 -0.044128843 2.3048914e-38
-0.032600999 -0.1005076 -0.044128843 2.3325138e-38
-0.030658197 -0.1005076 -0.044128843 2.3417691e-38
-0.028718047 -0.099830076 -0.041098066 2.3509527e-38
-0.026780557 -0.099830076 -0.041098066 2.3509527e-38
-0.02486049 -0.098941371 -0.037122674 2.3509527e-38
-0.02292997 -0.098941371 -0.037122674 2.3509527e-38
-0.02099945 -0.098941371 -0.037122674 2.3509527e-38
-0.01906893 -0.098941371 -0.037122674 2.3509886e-38
-0.017138408 -0.098941371 -0.037122674 2.3509527e-38
-0.015207889 -0.098941371 -0.037122674 2.341805e-38
-0.013218121 -0.099830076 -0.041098066 2.341805e-38
-0.011280631 -0.099830076 -0.041098066 2.341805e-38
-0.0092873434 -0.1005076 -0.044128843 2.341805e-38
-0.0073445374 -0.1005076 -0.044128843 2.341805e-38
-0.0054017333 -0.1005076 -0.044128843 2.341805e-38
-0.0034589292 -0.1005076 -0.044128843 2.341805e-38
-0.0015161233 -0.1005076 -0.044128843 2.341805e-38
0.00034431461 -0.099830076 -0.041098066 2.3509886e-38
0.0022818046 -0.099830076 -0.041098066 2.3509521e-38
0.0040973173 -0.098941371 -0.037122674 2.3509517e-38
0.0060278373 -0.098941371 -0.037122674 2.350952e-38
0.0078234198 -0.098059073 -0.033175893 2.3509521e-38
0.0097470181 -0.098059073 -0.033175893 2.3509883e-38
0.01167062 -0.098059073 -0.033175893 2.3509886e-38
0.013594219 -0.098059073 -0.033175893 2.3509527e-38
0.015517821 -0.098059073 -0.033175893 2.341805e-38
0.017441422 -0.098059073 -0.033175893 2.3417691e-38
0.01936502 -0.098059073 -0.033175893 2.3417691e-38
0.021288622 -0.098059073 -0.033175893 2.3417691e-38
0.023402523 -0.098941371 -0.037122674 2.3509527e-38
0.025531694 -0.099830076 -0.041098066 2.3509527e-38
0.027469184 -0.099830076 -0.041098066 2.3509527e-38
0.02956875 -0.1005076 -0.044128843 2.3509527e-38
0.031511556 -0.1005076 -0.044128843 2.3509527e-38
0.033454359 -0.1005076 -0.044128843 2.3509527e-38
0.035219148 -0.099830076 -0.041098066 2.3509527e-38
0.037156641 -0.099830076 -0.041098066 2.3509527e-38
0.039094128 -0.099830076 -0.041098066 2.3509886e-38
0.041031621 -0.099830076 -0.041098066 2.3509527e-38
0.042707726 -0.098941371 -0.037122674 2.3509527e-38
0.044371828 -0.098059073 -0.033175893 2.3509527e-38
0.046295427 -0.098059073 -0.033175893 2.3509527e-38
0.048219033 -0.098059073 -0.033175893 2.3416974e-38
0.050142631 -0.098059073 -0.033175893 2.3509527e-38
0.052360334 -0.098941371 -0.037122674 2.3509168e-38
0.053989824 -0.098059073 -0.033175893 2.3047838e-38
0.05591343 -0.098059073 -0.033175893 2.3140391e-38
0.10164072 -0.080613017 0.044865064 2.7705913e-40
0.10342748 -0.080613017 0.044865064 3.6852888e-40
0.10521425 -0.080613017 0.044865064 9.5288296e-44
-0.10566901 -0.099982664 -0.033175893 6.0853109e-39
-0.10374542 -0.099982664 -0.033175893 6.639226e-39
-0.10182181 -0.099982664 -0.033175893 6.8247075e-39
-0.099898204 -0.099982664 -0.033175893 4.5212615e-39
-0.097974613 -0.099982664 -0.033175893 2.3100013e-39
-0.095864102 -0.099286526 -0.030086106 3.1408466e-39
-0.09394592 -0.099286526 -0.030086106 4.1557286e-39
-0.093057379 -0.10335754 -0.048155136 2.5884127e-39
-0.089340627 -0.096149758 -0.016163653 2.4043885e-39
-0.087286696 -0.095475003 -0.013168758 2.3121957e-39
-0.085398167 -0.095475003 -0.013168758 2.4955136e-39
-0.083509654 -0.095475003 -0.013168758 2.8642961e-39
-0.081621125 -0.095475003 -0.013168758 3.5089522e-39
-0.082379319 -0.10830905 -0.070132203 3.8777348e-39
-0.080390923 -0.10830905 -0.070132203 3.8777376e-39
-0.078402519 -0.10830905 -0.070132203 3.6937064e-39
-0.076246828 -0.10739426 -0.066071935 3.0483398e-39
-0.073674977 -0.10402142 -0.051101752 3.048337e-39
-0.071608871 -0.10335754 -0.048155136 2.9564945e-39
-0.06965901 -0.10335754 -0.048155136 1.7575884e-39
-0.067809887 -0.10402142 -0.051101752 1.6643124e-39
-0.065987103 -0.10494001 -0.055178829 1.6646655e-39
-0.064024925 -0.10494001 -0.055178829 1.1107729e-39
-0.062264893 -0.10651429 -0.062166281 2.2174749e-39
-0.060290467 -0.10651429 -0.062166281 1.9401594e-39
-0.058415327 -0.10739426 -0.066071935 4.9822522e-39
-0.056623917 -0.10920154 -0.074093409 5.7190984e-39
-0.054628577 -0.10920154 -0.074093409 4.8882587e-39
-0.052633233 -0.10920154 -0.074093409 4.1503294e-39
-0.040411048 -0.10335754 -0.048155136 2.1665284e-38
-0.038461182 -0.10335754 -0.048155136 2.3416974e-38
-0.036511317 -0.10335754 -0.048155136 2.3508809e-38
-0.034543805 -0.1024504 -0.044128843 2.3416615e-38
-0.032600999 -0.1024504 -0.044128843 2.3416615e-38
-0.030658197 -0.1024504 -0.044128843 2.3508809e-38
-0.028718047 -0.10176755 -0.041098066 2.3508809e-38
-0.026791014 -0.10087189 -0.037122674 2.3508809e-38
-0.02487779 -0.099982664 -0.033175893 2.3416974e-38
-0.022954192 -0.099982664 -0.033175893 2.3416974e-38
-0.02099945 -0.10087189 -0.037122674 2.3232585e-38
-0.01906893 -0.10087189 -0.037122674 2.3509527e-38
-0.017138408 -0.10087189 -0.037122674 2.3417691e-38
-0.015207889 -0.10087189 -0.037122674 2.2957796e-38
-0.013218121 -0.10176755 -0.041098066 2.3142185e-38
-0.011230147 -0.1024504 -0.044128843 2.323402e-38
-0.0092873434 -0.1024504 -0.044128843 2.3142544e-38
-0.0073445374 -0.1024504 -0.044128843 2.3142544e-38
-0.0054017333 -0.1024504 -0.044128843 2.2774484e-38
-0.0034589292 -0.1024504 -0.044128843 2.2590096e-38
-0.0015161233 -0.1024504 -0.044128843 2.2774484e-38
0.00034431461 -0.10176755 -0.041098066 2.323402e-38
0.0022818046 -0.10176755 -0.041098066 2.3509527e-38
0.0042192945 -0.10176755 -0.041098066 2.350952e-38
0.0060278373 -0.10087189 -0.037122674 2.3509521e-38
0.0078234198 -0.099982664 -0.033175893 2.3509521e-38
0.0097470181 -0.099982664 -0.033175893 2.3417327e-38
0.01167062 -0.099982664 -0.033175893 2.3141106e-38
0.013594219 -0.099982664 -0.033175893 2.3325138e-38
0.015517821 -0.099982664 -0.033175893 2.3509168e-38
0.017441422 -0.099982664 -0.033175893 2.3232227e-38
0.01936502 -0.099982664 -0.033175893 2.3508809e-38
0.021288622 -0.099982664 -0.033175893 2.3416256e-38
0.023402523 -0.10087189 -0.037122674 2.3508451e-38
0.025333043 -0.10087189 -0.037122674 2.3139674e-38
0.027263563 -0.10087189 -0.037122674 2.3508809e-38
0.029406674 -0.10176755 -0.041098066 2.3507733e-38
0.031344164 -0.10176755 -0.041098066 2.3509168e-38
0.033281654 -0.10176755 -0.041098066 2.350952e-38
0.035219148 -0.10176755 -0.041098066 2.3508077e-38
0.036916167 -0.10087189 -0.037122674 2.3509879e-38
0.038846686 -0.10087189 -0.037122674 2.3509883e-38
0.040777206 -0.10087189 -0.037122674 2.2589374e-38
0.042707726 -0.10087189 -0.037122674 2.2774843e-38
0.044371828 -0.099982664 -0.033175893 2.2867037e-38
0.046081439 -0.099286526 -0.030086106 2.2314948e-38
0.04799962 -0.099286526 -0.030086106 2.2314589e-38
0.04991781 -0.099286526 -0.030086106 2.2866678e-38
0.051835991 -0.099286526 -0.030086106 2.2589378e-38
0.053754177 -0.099286526 -0.030086106 2.3141467e-38
0.055672359 -0.099286526 -0.030086106 2.3324421e-38
0.10164072 -0.082399786 0.044865064 9.4465733e-41
0.10342748 -0.082399786 0.044865064 7.3804148e-40
0.10521425 -0.082399786 0.044865064 1.0930128e-43
-0.10566901 -0.10190627 -0.033175893 6.5470276e-39
-0.10374542 -0.10190627 -0.033175893 5.7180082e-39
-0.10182181 -0.10190627 -0.033175893 5.6269028e-39
-0.099061728 -0.09893848 -0.020105189 4.6152662e-39
-0.09716104 -0.09893848 -0.020105189 3.1419256e-39
-0.095443875 -0.099627286 -0.023138827 3.1426444e-39
