# .PCD v0.7 - Point Cloud Data file format
VERSION 0.7
FIELDS x y z rgb
SIZE 4 4 4 4
TYPE F F F F
COUNT 1 1 1 1
WIDTH 949
HEIGHT 1
VIEWPOINT 0 0 0 1 0 0 0
POINTS 949
DATA ascii
0.039723903 -0.11339863 0.048837714 2.2958873e-38
0.041444026 -0.11339863 0.048837714 2.2958873e-38
0.043405727 -0.11418571 0.045874648 2.2957796e-38
0.045131043 -0.11418571 0.045874648 2.3417691e-38
0.047109853 -0.11497755 0.042893641 2.3324421e-38
0.049016561 -0.11551671 0.040863983 1.2998541e-38
0.050750654 -0.11551671 0.040863983 1.0510704e-38
0.052484762 -0.11551671 0.040863983 7.7477204e-39
0.05421887 -0.11551671 0.040863983 3.6010862e-39
0.055952962 -0.11551671 0.040863983 3.418867e-39
0.057974841 -0.11631663 0.037852459 6.0014432e-39
0.059714224 -0.11631663 0.037852459 4.2508193e-39
0.061453607 -0.11631663 0.037852459 5.6300529e-40
0.063192993 -0.11631663 0.037852459 9.8343126e-42
0.065243155 -0.11712147 0.034822576 3.2352366e-39
0.066987857 -0.11712147 0.034822576 1.2268958e-38
0.069045454 -0.11790501 0.031872801 1.1898715e-38
0.070795327 -0.11790501 0.031872801 7.2881954e-39
0.072881237 -0.11871959 0.028806202 7.4711307e-39
0.074636489 -0.11871959 0.028806202 1.0696887e-38
0.076729387 -0.11951269 0.025820486 1.7056228e-38
0.078489855 -0.11951269 0.025820486 2.3416615e-38
0.08060053 -0.1203105 0.022817008 2.286345e-38
0.082366288 -0.1203105 0.022817008 1.9914658e-38
0.084847793 -0.12189357 0.016857378 1.3370212e-38
0.086623996 -0.12189357 0.016857378 4.4275987e-39
0.088400185 -0.12189357 0.016857378 8.0239555e-39
0.090176389 -0.12189357 0.016857378 1.1712146e-38
0.092341229 -0.12270571 0.013799898 9.2217911e-39
0.094122782 -0.12270571 0.013799898 3.7136792e-40
0.095504969 -0.12189357 0.016857378 4.6211881e-40
0.097281158 -0.12189357 0.016857378 9.2308575e-40
0.098649725 -0.12108628 0.0198965 4.6101809e-39
0.10002373 -0.1203105 0.022817008 8.0214052e-39
0.10178949 -0.1203105 0.022817008 8.2972578e-39
0.10355523 -0.1203105 0.022817008 9.0348186e-39
-0.086363092 -0.14907773 -0.078167088 8.9430518e-39
-0.084290102 -0.14826734 -0.075136311 1.0693693e-38
-0.0821888 -0.14720438 -0.07116092 7.3753715e-39
-0.079980686 -0.14532293 -0.064124353 5.5336197e-39
-0.078062512 -0.14532293 -0.064124353 4.1542824e-39
-0.076000035 -0.14424954 -0.06010998 9.8725695e-39
-0.073988616 -0.14346536 -0.057177074 1.1070753e-38
-0.071856365 -0.1416003 -0.0502019 2.9557392e-39
-0.069870695 -0.14079951 -0.047207005 5.5397672e-40
-0.067866303 -0.13972856 -0.043201692 4.2428809e-39
-0.0659848 -0.13972856 -0.043201692 7.1059845e-39
-0.06420514 -0.14079951 -0.047207005 8.0315478e-39
-0.062221806 -0.13972856 -0.043201692 1.005951e-38
-0.060273033 -0.13890781 -0.040132172 1.208853e-38
-0.058337651 -0.13812189 -0.037192829 1.1630049e-38
-0.056392249 -0.13704078 -0.033149488 5.4762744e-42
-0.054478198 -0.13623528 -0.03013707 9.1014335e-42
-0.052574966 -0.13543437 -0.027141698 1.1532843e-38
-0.050682459 -0.134638 -0.024163254 1.3005451e-38
-0.048788134 -0.13355388 -0.020108707 5.4446723e-39
-0.04691878 -0.13276802 -0.017169602 3.5078228e-39
-0.045059014 -0.13195769 -0.014139064 1.3464588e-38
-0.043209981 -0.13115202 -0.01112593 1.5767698e-38
-0.041384723 -0.13115202 -0.01112593 8.1154575e-39
-0.039551586 -0.13035102 -0.0081302002 1.0238809e-38
-0.037731577 -0.13035102 -0.0081302002 1.7706639e-38
-0.035915017 -0.1292996 -0.0041979626 1.8718978e-38
-0.034125645 -0.12688623 0.0048279688 2.0746913e-38
-0.032341544 -0.12608187 0.0078362152 2.0470326e-38
-0.030567884 -0.12528224 0.010826819 2.0286657e-38
-0.028781114 -0.12528224 0.010826819 1.9273591e-38
-0.027023017 -0.1244873 0.013799898 1.899845e-38
-0.025276305 -0.12366976 0.016857378 1.8169424e-38
-0.023500111 -0.12366976 0.016857378 1.2638782e-38
-0.021769207 -0.12285714 0.0198965 1.0149875e-38
-0.020046987 -0.12207626 0.022817008 5.1724042e-39
-0.018336535 -0.12127317 0.025820486 1.2090824e-39
-0.016636258 -0.12047486 0.028806202 2.8821346e-40
-0.014948223 -0.11965488 0.031872801 1.0562007e-40
-0.013268175 -0.11886616 0.034822576 9.8231022e-42
-0.011600509 -0.11805601 0.037852459 1.988933e-40
-0.0098611247 -0.11805601 0.037852459 1.587032e-38
-0.0082088653 -0.11725079 0.040863983 1.946159e-38
-0.006537037 -0.11670811 0.042893641 2.0381379e-38
-0.0049992986 -0.11511876 0.048837714 2.0197691e-38
-0.0033831149 -0.1143059 0.05187773 2.2132353e-38
-0.0017735288 -0.11352326 0.054804794 2.1856847e-38
-6.3870102e-05 -0.11352326 0.054804794 2.1028171e-38
0.0014462881 -0.11217107 0.059861891 1.9553416e-38
0.0030246191 -0.11137636 0.062834077 2.0199144e-38
0.0047202036 -0.11137636 0.062834077 1.9924355e-38
0.0064157844 -0.11137636 0.062834077 1.0428592e-38
0.0079698414 -0.11056192 0.065880053 8.4907308e-39
0.0096600838 -0.11056192 0.065880053 7.448644e-40
0.011502534 -0.11137636 0.062834077 2.5880245e-39
0.013040569 -0.11056192 0.065880053 2.6776978e-39
0.014730811 -0.11056192 0.065880053 2.3046119e-39
0.016421054 -0.11056192 0.065880053 1.3274451e-38
0.018111296 -0.11056192 0.065880053 1.9360417e-38
0.019980446 -0.11137636 0.062834077 1.9822816e-38
0.02167603 -0.11137636 0.062834077 1.7427522e-38
0.023371611 -0.11137636 0.062834077 2.1392647e-38
0.025067195 -0.11137636 0.062834077 1.9827115e-38
0.026762776 -0.11137636 0.062834077 1.7247434e-38
0.028658994 -0.11217107 0.059861891 1.5588631e-38
0.03035979 -0.11217107 0.059861891 1.6880092e-38
0.032060578 -0.11217107 0.059861891 1.5957782e-38
0.033978969 -0.11297067 0.056871466 1.7525112e-38
0.035839006 -0.11352326 0.054804794 2.1119652e-38
0.037548669 -0.11352326 0.054804794 2.2224189e-38
0.039723903 -0.11511876 0.048837714 2.1763576e-38
0.041444026 -0.11511876 0.048837714 2.1486276e-38
0.043405727 -0.11591102 0.045874648 2.2498619e-38
0.045131043 -0.11591102 0.045874648 2.203693e-38
0.046856355 -0.11591102 0.045874648 2.3140391e-38
0.0488404 -0.11670811 0.042893641 1.0509284e-38
0.050570946 -0.11670811 0.042893641 9.6809657e-39
0.052484762 -0.11725079 0.040863983 7.3778785e-39
0.05421887 -0.11725079 0.040863983 4.1539139e-39
0.055952962 -0.11725079 0.040863983 3.8791375e-39
0.057974841 -0.11805601 0.037852459 6.6468182e-39
0.059714224 -0.11805601 0.037852459 3.0522789e-39
0.061453607 -0.11805601 0.037852459 6.9504404e-42
0.063192993 -0.11805601 0.037852459 2.590949e-39
0.065243155 -0.11886616 0.034822576 6.1851352e-39
0.066987857 -0.11886616 0.034822576 1.2361149e-38
0.069045454 -0.11965488 0.031872801 1.171504e-38
0.070795327 -0.11965488 0.031872801 8.395259e-39
0.072881237 -0.12047486 0.028806202 7.8406292e-39
0.074636489 -0.12047486 0.028806202 1.1158585e-38
0.076729387 -0.12127317 0.025820486 1.8808311e-38
0.078489855 -0.12127317 0.025820486 2.2035137e-38
0.08060053 -0.12207626 0.022817008 2.3141109e-38
0.082366288 -0.12207626 0.022817008 1.8994145e-38
0.084482789 -0.12285714 0.0198965 1.226423e-38
0.086623996 -0.12366976 0.016857378 4.8893041e-39
0.088400185 -0.12366976 0.016857378 1.0421052e-38
0.090176389 -0.12366976 0.016857378 1.1159697e-38
0.092341229 -0.1244873 0.013799898 7.931418e-39
0.094122782 -0.1244873 0.013799898 8.3235447e-40
0.095504969 -0.12366976 0.016857378 6.1657132e-44
0.097281158 -0.12366976 0.016857378 2.6755272e-39
0.098649725 -0.12285714 0.0198965 3.5974723e-39
0.10002373 -0.12207626 0.022817008 6.3633272e-39
0.10178949 -0.12207626 0.022817008 7.0998006e-39
0.10355523 -0.12207626 0.022817008 7.4689334e-39
-0.0821888 -0.14913492 -0.07116092 1.5303468e-38
-0.079980686 -0.1472411 -0.064124353 1.2908543e-38
-0.078062512 -0.1472411 -0.064124353 9.6863747e-39
-0.076000035 -0.14616071 -0.06010998 1.107075e-38
-0.073884897 -0.14455487 -0.054143436 9.7800137e-39
-0.071856365 -0.14349405 -0.0502019 1.2029461e-39
-0.069870695 -0.14268802 -0.047207005 8.1275311e-44
-0.067866303 -0.14161004 -0.043201692 2.7673977e-39
-0.0659848 -0.14161004 -0.043201692 7.2918135e-39
-0.06420514 -0.14268802 -0.047207005 1.4301562e-38
-0.062221806 -0.14161004 -0.043201692 1.6697557e-38
-0.060273033 -0.14078392 -0.040132172 1.4025345e-38
-0.058337651 -0.13999285 -0.037192829 9.3262354e-39
-0.056392249 -0.13890465 -0.033149488 5.8350068e-42
-0.054478198 -0.13809387 -0.03013707 1.2090824e-39
-0.052574966 -0.13728772 -0.027141698 1.3560786e-38
-0.050682459 -0.13648613 -0.024163254 1.4480213e-38
-0.048788134 -0.13539489 -0.020108707 2.0337885e-39
-0.04691878 -0.13460387 -0.017169602 2.5825931e-42
-0.045059014 -0.13378824 -0.014139064 8.3023515e-39
-0.043209981 -0.13297729 -0.01112593 8.2076587e-39
-0.041384723 -0.13297729 -0.01112593 1.017473e-39
-0.039551586 -0.13217102 -0.0081302002 7.197792e-39
-0.037731577 -0.13217102 -0.0081302002 1.614003e-38
-0.035915017 -0.13111271 -0.0041979626 1.7888133e-38
-0.034125645 -0.12868352 0.0048279688 2.2035846e-38
-0.032341544 -0.12787388 0.0078362152 2.2589736e-38
-0.030567884 -0.12706901 0.010826819 2.2683007e-38
-0.028781114 -0.12706901 0.010826819 2.2499336e-38
-0.027023017 -0.12626885 0.013799898 2.2591531e-38
-0.025276305 -0.12544595 0.016857378 2.2316024e-38
-0.023500111 -0.12544595 0.016857378 1.8815146e-38
-0.021769207 -0.12462802 0.0198965 1.8723678e-38
-0.020046987 -0.12384202 0.022817008 1.3469994e-38
-0.018336535 -0.12303366 0.025820486 8.4010463e-39
-0.016636258 -0.1222301 0.028806202 5.2674837e-39
-0.014948223 -0.12140475 0.031872801 3.4250117e-39
-0.013198353 -0.12140475 0.031872801 1.1215573e-39
-0.011600509 -0.1197954 0.037852459 5.6945967e-40
-0.0098611247 -0.1197954 0.037852459 1.3197723e-38
-0.0082088653 -0.11898489 0.040863983 1.8632197e-38
-0.006537037 -0.11843865 0.042893641 2.038137e-38
-0.0049992986 -0.11683889 0.048837714 2.0565386e-38
-0.0033831149 -0.11602069 0.05187773 2.1118191e-38
-0.0017735288 -0.11523293 0.054804794 2.0103319e-38
-6.3870102e-05 -0.11523293 0.054804794 2.2499695e-38
0.0014462881 -0.11387186 0.059861891 2.2499695e-38
0.0031470843 -0.11387186 0.059861891 2.0473929e-38
0.0047202036 -0.11307193 0.062834077 1.872437e-38
0.0064157844 -0.11307193 0.062834077 1.0888483e-38
0.0079698414 -0.11225216 0.065880053 1.0425392e-38
0.0096600838 -0.11225216 0.065880053 3.7535741e-40
0.011350326 -0.11225216 0.065880053 1.0192597e-39
0.013040569 -0.11225216 0.065880053 2.9535616e-39
0.014730811 -0.11225216 0.065880053 1.3815794e-39
0.016421054 -0.11225216 0.065880053 4.6999032e-39
0.018111296 -0.11225216 0.065880053 7.3749988e-39
0.019801535 -0.11225216 0.065880053 9.1288597e-39
0.021491777 -0.11225216 0.065880053 1.3370572e-38
0.023371611 -0.11307193 0.062834077 1.8074701e-38
0.025067195 -0.11307193 0.062834077 1.8999166e-38
0.026762776 -0.11307193 0.062834077 1.9830363e-38
0.028458357 -0.11307193 0.062834077 2.1397669e-38
0.03035979 -0.11387186 0.059861891 2.0938492e-38
0.032060578 -0.11387186 0.059861891 2.1305834e-38
0.033978969 -0.1146767 0.056871466 1.8541436e-38
0.035685003 -0.1146767 0.056871466 1.6420223e-38
0.037548669 -0.11523293 0.054804794 1.5496472e-38
0.039723903 -0.11683889 0.048837714 1.4389406e-38
0.041444026 -0.11683889 0.048837714 1.3373815e-38
0.043164149 -0.11683889 0.048837714 1.2912115e-38
0.045131043 -0.11763634 0.045874648 1.2725933e-38
0.046856355 -0.11763634 0.045874648 1.2630874e-38
0.048581686 -0.11763634 0.045874648 9.2059844e-40
0.050570946 -0.11843865 0.042893641 9.2635638e-41
0.052301493 -0.11843865 0.042893641 4.6322023e-40
0.054032039 -0.11843865 0.042893641 3.7246934e-40
0.055762585 -0.11843865 0.042893641 4.3390436e-39
0.057974841 -0.1197954 0.037852459 4.801112e-39
0.059714224 -0.1197954 0.037852459 4.1568286e-39
0.061453607 -0.1197954 0.037852459 4.3412226e-39
0.063192993 -0.1197954 0.037852459 9.5963735e-39
0.065243155 -0.12061088 0.034822576 9.8722318e-39
0.066987857 -0.12061088 0.034822576 1.180761e-38
0.069045454 -0.12140475 0.031872801 1.3098332e-38
0.070795327 -0.12140475 0.031872801 8.8562371e-39
0.072545186 -0.12140475 0.031872801 7.7498756e-39
0.074636489 -0.1222301 0.028806202 1.4571268e-38
0.076729387 -0.12303366 0.025820486 1.5766942e-38
0.078489855 -0.12303366 0.025820486 1.2263511e-38
0.080250338 -0.12303366 0.025820486 1.1433752e-38
0.082366288 -0.12384202 0.022817008 1.1157528e-38
0.084482789 -0.12462802 0.0198965 8.1157952e-39
0.086253658 -0.12462802 0.0198965 4.6392368e-40
0.088400185 -0.12544595 0.016857378 2.492952e-39
0.090176389 -0.12544595 0.016857378 3.3227183e-39
0.092341229 -0.12626885 0.013799898 2.308209e-39
0.093728766 -0.12544595 0.016857378 3.3182748e-42
0.095504969 -0.12544595 0.016857378 1.8734099e-40
0.097281158 -0.12544595 0.016857378 1.8464924e-39
0.099057361 -0.12544595 0.016857378 2.6758789e-39
0.10083355 -0.12544595 0.016857378 6.640277e-39
0.10260975 -0.12544595 0.016857378 6.6402658e-39
-0.080102578 -0.1499963 -0.067214139 1.1801832e-38
-0.078062512 -0.1491593 -0.064124353 1.0699804e-38
-0.076000035 -0.14807184 -0.06010998 9.4101494e-39
-0.073884897 -0.14645557 -0.054143436 8.0272205e-39
-0.071856365 -0.14538784 -0.0502019 4.650265e-40
-0.069870695 -0.14457656 -0.047207005 9.10844e-44
-0.067982182 -0.14457656 -0.047207005 1.292632e-39
-0.066093653 -0.14457656 -0.047207005 5.6333684e-39
-0.06420514 -0.14457656 -0.047207005 1.7805323e-38
-0.062221806 -0.14349155 -0.043201692 1.8818742e-38
-0.060273033 -0.14266007 -0.040132172 1.3011177e-38
-0.058337651 -0.14186381 -0.037192829 6.930221e-39
-0.056392249 -0.14076851 -0.033149488 1.4118082e-41
-0.054478198 -0.13995247 -0.03013707 3.4217775e-39
-0.052574966 -0.13914107 -0.027141698 1.356006e-38
-0.050682459 -0.13833423 -0.024163254 1.4296172e-38
-0.048788134 -0.13723589 -0.020108707 2.5980074e-42
-0.04691878 -0.13643973 -0.017169602 4.2319214e-43
-0.045059014 -0.13561879 -0.014139064 7.9353738e-39
-0.043209981 -0.13480256 -0.01112593 6.5488577e-39
-0.041384723 -0.13480256 -0.01112593 1.8791412e-42
-0.039551586 -0.13399105 -0.0081302002 6.3694733e-39
-0.037731577 -0.13399105 -0.0081302002 1.3375603e-38
-0.035917699 -0.13209651 -0.0011365488 1.5306303e-38
-0.034125645 -0.13048081 0.0048279688 2.1941859e-38
-0.032328356 -0.13048081 0.0048279688 2.3233303e-38
-0.030567884 -0.12885578 0.010826819 2.3233662e-38
-0.028781114 -0.12885578 0.010826819 2.3142542e-38
-0.027023017 -0.1280504 0.013799898 2.2867037e-38
-0.025241461 -0.1280504 0.013799898 2.2775202e-38
-0.023500111 -0.12722217 0.016857378 2.1947606e-38
-0.021769207 -0.12639888 0.0198965 1.9644185e-38
-0.019998342 -0.12639888 0.0198965 1.4667436e-38
-0.018336535 -0.12479414 0.025820486 1.1810824e-38
-0.016636258 -0.12398534 0.028806202 1.1443848e-38
-0.014948223 -0.12315463 0.031872801 1.1077227e-38
-0.013268175 -0.12235557 0.034822576 7.5755877e-39
-0.011600509 -0.12153481 0.037852459 3.2441895e-39
-0.0098611247 -0.12153481 0.037852459 1.0064854e-38
-0.0082088653 -0.120719 0.040863983 1.5592254e-38
-0.006537037 -0.12016918 0.042893641 1.8815121e-38
-0.0049031861 -0.11936165 0.045874648 2.0380632e-38
-0.0032791756 -0.11855899 0.048837714 2.1485172e-38
-0.0016683191 -0.11773549 0.05187773 2.0192635e-38
-6.3870102e-05 -0.11694257 0.054804794 2.295887e-38
0.0014462881 -0.11557265 0.059861891 2.2775202e-38
0.0031470843 -0.11557265 0.059861891 1.8629651e-38
0.0047202036 -0.11476754 0.062834077 1.7894963e-38
0.0064157844 -0.11476754 0.062834077 1.0703727e-38
0.0079698414 -0.1139424 0.065880053 1.1254791e-38
0.0096600838 -0.1139424 0.065880053 4.4168928e-42
0.011350326 -0.1139424 0.065880053 9.5865631e-41
0.013040569 -0.1139424 0.065880053 4.0581141e-39
0.014730811 -0.1139424 0.065880053 2.0265929e-39
0.016314544 -0.11341999 0.067808501 7.9874012e-44
0.018001404 -0.11341999 0.067808501 1.8374947e-40
0.019801535 -0.1139424 0.065880053 7.3835397e-40
0.021491777 -0.1139424 0.065880053 8.7611674e-39
0.023371611 -0.11476754 0.062834077 1.7798487e-38
0.025067195 -0.11476754 0.062834077 1.7893193e-38
0.026762776 -0.11476754 0.062834077 1.9185366e-38
0.028458357 -0.11476754 0.062834077 1.9372266e-38
0.03035979 -0.11557265 0.059861891 1.9557013e-38
0.032060578 -0.11557265 0.059861891 2.0478597e-38
0.033978969 -0.11638273 0.056871466 1.7988994e-38
0.035685003 -0.11638273 0.056871466 1.4300461e-38
0.037548669 -0.11694257 0.054804794 1.1349123e-38
0.039723903 -0.11855899 0.048837714 7.5676675e-39
0.041444026 -0.11855899 0.048837714 4.2471857e-39
0.043164149 -0.11855899 0.048837714 3.1397563e-39
0.044884272 -0.11855899 0.048837714 4.7978456e-39
0.046604391 -0.11855899 0.048837714 6.8229264e-39
0.048581686 -0.11936165 0.045874648 9.3886997e-44
0.050307002 -0.11936165 0.045874648 9.2485699e-44
0.052032318 -0.11936165 0.045874648 1.8959568e-42
0.053757634 -0.11936165 0.045874648 3.7212041e-40
0.05548295 -0.11936165 0.045874648 6.181887e-39
0.05768707 -0.120719 0.040863983 3.785165e-39
0.059714224 -0.12153481 0.037852459 5.2617342e-39
0.061453607 -0.12153481 0.037852459 5.8152639e-39
0.063192993 -0.12153481 0.037852459 8.9499139e-39
0.065243155 -0.12235557 0.034822576 8.7651541e-39
0.066987857 -0.12235557 0.034822576 1.226822e-38
0.069045454 -0.12315463 0.031872801 1.6417009e-38
0.070795327 -0.12315463 0.031872801 9.4104899e-39
0.072545186 -0.12315463 0.031872801 6.9204806e-39
0.074636489 -0.12398534 0.028806202 1.3649683e-38
0.076729387 -0.12479414 0.025820486 1.2726296e-38
0.078489855 -0.12479414 0.025820486 5.3499319e-39
0.080250338 -0.12479414 0.025820486 3.2294324e-39
0.082366288 -0.12560774 0.022817008 3.7829678e-39
0.084132031 -0.12560774 0.022817008 3.8758865e-39
0.085897774 -0.12560774 0.022817008 1.512001e-42
0.088400185 -0.12722217 0.016857378 3.3168735e-42
0.090176389 -0.12722217 0.016857378 3.7246653e-40
0.092341229 -0.1280504 0.013799898 2.9665488e-42
0.093728766 -0.12722217 0.016857378 4.6430203e-40
0.095504969 -0.12722217 0.016857378 9.245529e-40
0.097281158 -0.12722217 0.016857378 7.4015043e-40
0.099057361 -0.12722217 0.016857378 1.4773385e-39
0.10042059 -0.12639888 0.0198965 6.4558885e-39
0.10219145 -0.12639888 0.0198965 7.0094112e-39
0.10396232 -0.12639888 0.0198965 6.271835e-39
-0.076000035 -0.14998297 -0.06010998 6.5520905e-39
-0.073884897 -0.14835624 -0.054143436 5.7219753e-39
-0.071856365 -0.1472816 -0.0502019 8.3381463e-40
-0.069870695 -0.14646508 -0.047207005 4.6107904e-40
-0.067982182 -0.14646508 -0.047207005 1.1756894e-42
-0.066093653 -0.14646508 -0.047207005 2.2228489e-39
-0.06420514 -0.14646508 -0.047207005 1.9558089e-38
-0.062221806 -0.14537306 -0.043201692 2.1213998e-38
-0.060273033 -0.14453618 -0.040132172 1.4394816e-38
-0.058337651 -0.14373477 -0.037192829 5.8245896e-39
-0.056392249 -0.14263238 -0.033149488 7.5312225e-40
-0.054478198 -0.14181106 -0.03013707 5.5422742e-39
-0.052574966 -0.14099441 -0.027141698 1.5864581e-38
-0.050682459 -0.14018236 -0.024163254 1.3835545e-38
-0.048788134 -0.1390769 -0.020108707 5.4720705e-42
-0.04691878 -0.13827558 -0.017169602 7.4627271e-40
-0.045059014 -0.13744931 -0.014139064 1.0979273e-38
-0.043209981 -0.13662781 -0.01112593 9.5005556e-39
-0.041384723 -0.13662781 -0.01112593 8.3451948e-40
-0.039551586 -0.13581105 -0.0081302002 4.0667433e-39
-0.037728131 -0.13473894 -0.0041979626 8.2148096e-39
-0.035917699 -0.13390426 -0.0011365488 1.4476911e-38
-0.034125645 -0.1322781 0.0048279688 2.2402837e-38
-0.032328356 -0.1322781 0.0048279688 2.3417691e-38
-0.030567884 -0.13064255 0.010826819 2.3141467e-38
-0.028781114 -0.13064255 0.010826819 2.3418045e-38
-0.027023017 -0.12983195 0.013799898 2.2773391e-38
-0.025241461 -0.12983195 0.013799898 2.3142544e-38
-0.023500111 -0.12899835 0.016857378 2.2867037e-38
-0.021769207 -0.12816976 0.0198965 2.2591531e-38
-0.019998342 -0.12816976 0.0198965 1.8168338e-38
-0.018336535 -0.12655462 0.025820486 1.7064522e-38
-0.016636258 -0.12574057 0.028806202 1.7988276e-38
-0.014948223 -0.1249045 0.031872801 1.7621652e-38
-0.013268175 -0.12410025 0.034822576 1.2368669e-38
-0.011600509 -0.12327419 0.037852459 5.363596e-39
-0.0098611247 -0.12327419 0.037852459 6.6546851e-39
-0.0082088653 -0.12245311 0.040863983 1.2461201e-38
-0.0064747613 -0.12245311 0.040863983 1.7068449e-38
-0.0049031861 -0.12108697 0.045874648 1.9737069e-38
-0.0032791756 -0.12027912 0.048837714 2.2867037e-38
-0.0015590526 -0.12027912 0.048837714 2.2958151e-38
4.6472996e-05 -0.11945029 0.05187773 2.3142544e-38
0.0015642606 -0.11808877 0.056871466 2.1670665e-38
0.0031470843 -0.11727346 0.059861891 1.8355225e-38
0.0048478767 -0.11727346 0.059861891 1.8080793e-38
0.0064157844 -0.11646311 0.062834077 1.0243829e-38
0.0079698414 -0.11563264 0.065880053 1.0331757e-38
0.0096600838 -0.11563264 0.065880053 8.16957e-43
0.011350326 -0.11563264 0.065880053 5.5432845e-40
0.013040569 -0.11563264 0.065880053 4.4254631e-39
0.014730811 -0.11563264 0.065880053 3.040749e-39
0.016314544 -0.11510687 0.067808501 8.9683102e-44
0.018001404 -0.11510687 0.067808501 6.4329829e-40
0.019801535 -0.11563264 0.065880053 3.6778199e-40
0.021491777 -0.11563264 0.065880053 9.2984561e-41
0.023371611 -0.11646311 0.062834077 4.2442976e-39
0.025067195 -0.11646311 0.062834077 3.6936336e-39
0.026762776 -0.11646311 0.062834077 1.2731679e-38
0.028458357 -0.11646311 0.062834077 1.0244555e-38
0.03035979 -0.11727346 0.059861891 8.2166144e-39
0.032060578 -0.11727346 0.059861891 8.401733e-39
0.033761375 -0.11727346 0.059861891 5.3589241e-39
0.035685003 -0.11808877 0.056871466 3.7856919e-40
0.037391044 -0.11808877 0.056871466 4.0315357e-42
0.039486706 -0.11945029 0.05187773 2.5952048e-42
0.041444026 -0.12027912 0.048837714 1.1574725e-42
0.043164149 -0.12027912 0.048837714 7.4268819e-44
0.044884272 -0.12027912 0.048837714 1.8771514e-40
0.046604391 -0.12027912 0.048837714 9.4088784e-41
0.048324522 -0.12027912 0.048837714 9.5288296e-44
0.050307002 -0.12108697 0.045874648 4.6252098e-40
0.052032318 -0.12108697 0.045874648 4.6324265e-40
0.053757634 -0.12108697 0.045874648 3.045442e-39
0.05548295 -0.12108697 0.045874648 7.7477792e-39
0.057493132 -0.12189974 0.042893641 4.3368968e-39
0.059421178 -0.12245311 0.040863983 4.9833438e-39
0.061453607 -0.12327419 0.037852459 8.763715e-39
0.063192993 -0.12327419 0.037852459 1.8536778e-38
0.065243155 -0.12410025 0.034822576 1.8076166e-38
0.066987857 -0.12410025 0.034822576 9.1331982e-39
0.069045454 -0.1249045 0.031872801 8.0272037e-39
0.070795327 -0.1249045 0.031872801 8.119398e-39
0.072545186 -0.1249045 0.031872801 6.4602325e-39
0.074636489 -0.12574057 0.028806202 2.4025486e-39
0.076391727 -0.12574057 0.028806202 7.1027335e-39
0.078489855 -0.12655462 0.025820486 2.0308977e-39
0.080250338 -0.12655462 0.025820486 1.2933354e-39
0.082010821 -0.12655462 0.025820486 1.8749373e-42
0.084132031 -0.1273735 0.022817008 1.8770953e-40
0.085897774 -0.1273735 0.022817008 9.6235573e-41
0.088024527 -0.12816976 0.0198965 4.6466497e-40
0.089795381 -0.12816976 0.0198965 4.639475e-40
0.091952577 -0.12899835 0.016857378 8.3273002e-40
0.094122782 -0.12983195 0.013799898 8.3272862e-40
0.09590435 -0.12983195 0.013799898 5.5577179e-40
0.097685903 -0.12983195 0.013799898 5.5575917e-40
0.099467456 -0.12983195 0.013799898 1.569537e-39
0.10042059 -0.12816976 0.0198965 6.087106e-39
0.10219145 -0.12816976 0.0198965 7.1934424e-39
0.10396232 -0.12816976 0.0198965 8.3916114e-39
-0.071856365 -0.14917539 -0.0502019 5.5687181e-40
-0.069962591 -0.14917539 -0.0502019 1.1993672e-39
-0.067982182 -0.14835359 -0.047207005 4.55422e-43
-0.066093653 -0.14835359 -0.047207005 3.0536858e-39
-0.06420514 -0.14835359 -0.047207005 1.9190389e-38
-0.062221806 -0.14725454 -0.043201692 2.0478238e-38
-0.060273033 -0.1464123 -0.040132172 1.504017e-38
-0.058337651 -0.14560573 -0.037192829 7.5773841e-39
-0.056466687 -0.14560573 -0.037192829 3.3356817e-39
-0.054478198 -0.14366965 -0.03013707 6.4645878e-39
-0.052619606 -0.14366965 -0.03013707 1.3652244e-38
-0.050721627 -0.14284773 -0.027141698 1.3005779e-38
-0.048788134 -0.14091791 -0.020108707 6.188134e-42
-0.04691878 -0.14011143 -0.017169602 6.5552322e-40
-0.045059014 -0.13927986 -0.014139064 1.1534252e-38
-0.043209981 -0.13845308 -0.01112593 1.0792373e-38
-0.041384723 -0.13845308 -0.01112593 1.0203499e-39
-0.039551586 -0.13763104 -0.0081302002 2.4093828e-39
-0.037728131 -0.13655205 -0.0041979626 8.4942817e-39
-0.035917699 -0.13571201 -0.0011365488 1.4110661e-38
-0.034125645 -0.13407536 0.0048279688 2.240499e-38
-0.032328356 -0.13407536 0.0048279688 2.3142185e-38
-0.03054953 -0.13324992 0.0078362152 2.3049991e-38
-0.028781114 -0.13242932 0.010826819 2.3418045e-38
-0.027023017 -0.13161351 0.013799898 2.3418039e-38
-0.025241461 -0.13161351 0.013799898 2.3509879e-38
-0.023500111 -0.13077454 0.016857378 2.341805e-38
-0.021723915 -0.13077454 0.016857378 2.3142544e-38
-0.019998342 -0.12994061 0.0198965 1.991645e-38
-0.018281242 -0.12913923 0.022817008 1.918142e-38
-0.016636258 -0.12749584 0.028806202 1.8722243e-38
-0.014948223 -0.12665437 0.031872801 1.7895365e-38
-0.013268175 -0.12584494 0.034822576 1.4117865e-38
-0.011600509 -0.12501357 0.037852459 7.9429128e-39
-0.0098611247 -0.12501357 0.037852459 4.9033311e-39
-0.0082088653 -0.12418722 0.040863983 7.396569e-39
-0.006537037 -0.12363027 0.042893641 1.5046997e-38
-0.0049031861 -0.12281232 0.045874648 1.7436514e-38
-0.0032791756 -0.12199925 0.048837714 2.1118933e-38
-0.0015590526 -0.12199925 0.048837714 2.2958873e-38
4.6472996e-05 -0.12116508 0.05187773 2.1208249e-38
0.0016457923 -0.12036191 0.054804794 1.8170477e-38
0.0032702982 -0.1197948 0.056871466 1.6975536e-38
0.0048478767 -0.11897425 0.059861891 1.6978051e-38
0.0064157844 -0.11815868 0.062834077 9.6006251e-39
0.0079698414 -0.11732288 0.065880053 8.7640779e-39
0.0096600838 -0.11732288 0.065880053 9.6689594e-44
0.011350326 -0.11732288 0.065880053 9.2167744e-40
0.013040569 -0.11732288 0.065880053 4.3314752e-39
0.014730811 -0.11732288 0.065880053 2.3039098e-39
0.016421054 -0.11732288 0.065880053 8.2770356e-40
0.018111296 -0.11732288 0.065880053 3.6742466e-40
0.019801535 -0.11732288 0.065880053 1.6560041e-39
0.021491777 -0.11732288 0.065880053 1.8373966e-40
0.023371611 -0.11815868 0.062834077 3.412379e-39
0.025067195 -0.11815868 0.062834077 2.1252289e-39
0.026762776 -0.11815868 0.062834077 8.1204559e-39
0.028458357 -0.11815868 0.062834077 6.9240707e-39
0.030153945 -0.11815868 0.062834077 1.1995196e-38
0.032060578 -0.11897425 0.059861891 1.2088119e-38
0.033761375 -0.11897425 0.059861891 7.8467669e-39
0.035685003 -0.1197948 0.056871466 4.6896695e-40
0.037391044 -0.1197948 0.056871466 7.4268819e-44
0.039486706 -0.12116508 0.05187773 7.9874012e-44
0.041444026 -0.12199925 0.048837714 7.4125186e-40
0.043164149 -0.12199925 0.048837714 1.887549e-42
0.044884272 -0.12199925 0.048837714 4.6322583e-40
0.046604391 -0.12199925 0.048837714 8.1275311e-44
0.048324522 -0.12199925 0.048837714 3.3322877e-42
0.050307002 -0.12281232 0.045874648 2.7992478e-40
0.052032318 -0.12281232 0.045874648 8.3274403e-40
0.053757634 -0.12281232 0.045874648 5.9035065e-39
0.05548295 -0.12281232 0.045874648 5.9027876e-39
0.057493132 -0.12363027 0.042893641 2.8606836e-39
0.059421178 -0.12418722 0.040863983 1.5702951e-39
0.061155286 -0.12418722 0.040863983 8.7619031e-39
0.063192993 -0.12501357 0.037852459 1.7059862e-38
0.064932376 -0.12501357 0.037852459 1.7153131e-38
0.066987857 -0.12584494 0.034822576 1.0330651e-38
0.068732545 -0.12584494 0.034822576 8.9484384e-39
0.070795327 -0.12665437 0.031872801 7.1052502e-39
0.072545186 -0.12665437 0.031872801 6.7361146e-39
0.074636489 -0.12749584 0.028806202 5.8130835e-39
0.076391727 -0.12749584 0.028806202 6.0882326e-39
0.078489855 -0.12831511 0.025820486 1.6617634e-39
0.080250338 -0.12831511 0.025820486 1.6628452e-39
0.082010821 -0.12831511 0.025820486 5.5649766e-40
0.084132031 -0.12913923 0.022817008 8.3308455e-40
0.085897774 -0.12913923 0.022817008 1.2937068e-39
0.088024527 -0.12994061 0.0198965 7.4053719e-40
0.089795381 -0.12994061 0.0198965 1.1082407e-39
0.091952577 -0.13077454 0.016857378 4.628713e-40
0.094122782 -0.13161351 0.013799898 2.7811711e-40
0.09590435 -0.13161351 0.013799898 1.851914e-40
0.097685903 -0.13161351 0.013799898 1.0149395e-39
0.099467456 -0.13161351 0.013799898 2.4904115e-39
0.10124901 -0.13161351 0.013799898 6.6395609e-39
0.10303056 -0.13161351 0.013799898 7.1923605e-39
-0.062221806 -0.14913605 -0.043201692 2.1305834e-38
-0.060273033 -0.14828841 -0.040132172 1.6792236e-38
-0.058337651 -0.14747669 -0.037192829 7.3929901e-39
-0.056466687 -0.14747669 -0.037192829 2.0449429e-39
-0.054478198 -0.14552824 -0.03013707 7.0177588e-39
-0.052574966 -0.14470108 -0.027141698 1.4389804e-38
-0.050682459 -0.14387859 -0.024163254 1.1991979e-38
-0.048754636 -0.14194728 -0.017169602 1.8623257e-42
-0.046889558 -0.14111041 -0.014139064 5.8336055e-42
-0.045059014 -0.14111041 -0.014139064 1.0521546e-38
-0.043209981 -0.14027832 -0.01112593 9.8718562e-39
-0.041384723 -0.14027832 -0.01112593 8.3703481e-40
-0.039551586 -0.13945107 -0.0081302002 1.6732583e-39
-0.037728131 -0.13836516 -0.0041979626 1.0708782e-38
-0.035917699 -0.13751976 -0.0011365488 1.4389051e-38
-0.034125645 -0.13587265 0.0048279688 2.1945812e-38
-0.032328356 -0.13587265 0.0048279688 2.2867037e-38
-0.03054953 -0.13504194 0.0078362152 2.2589737e-38
-0.028781114 -0.13421609 0.010826819 2.3418045e-38
-0.027023017 -0.13339506 0.013799898 2.3417676e-38
-0.025241461 -0.13339506 0.013799898 2.3509873e-38
-0.023500111 -0.13255073 0.016857378 2.3324052e-38
-0.021723915 -0.13255073 0.016857378 2.3508451e-38
-0.019998342 -0.1317115 0.0198965 1.8715026e-38
-0.018281242 -0.13090499 0.022817008 1.7333908e-38
-0.016636258 -0.12925108 0.028806202 1.6875099e-38
-0.014948223 -0.12840421 0.031872801 1.7707745e-38
-0.013339892 -0.12675296 0.037852459 1.5773795e-38
-0.011600509 -0.12675296 0.037852459 8.4928552e-39
-0.0099429674 -0.12592132 0.040863983 1.4811725e-41
-0.0082088653 -0.12592132 0.040863983 1.7784075e-39
-0.006537037 -0.12536083 0.042893641 1.3578722e-38
-0.0049031861 -0.12453763 0.045874648 1.6611449e-38
-0.0032791756 -0.12371938 0.048837714 1.9278274e-38
-0.0015590526 -0.12371938 0.048837714 2.1486276e-38
4.6472996e-05 -0.12287988 0.05187773 1.8998083e-38
0.0016457923 -0.12207155 0.054804794 1.476249e-38
0.0032702982 -0.12150083 0.056871466 1.2830338e-38
0.0048478767 -0.12067504 0.059861891 1.4215427e-38
0.0064157844 -0.11985429 0.062834077 7.4819319e-39
0.0081113689 -0.11985429 0.062834077 6.7357797e-39
0.0096600838 -0.11901312 0.065880053 1.1210388e-43
0.011350326 -0.11901312 0.065880053 1.6570943e-39
0.013040569 -0.11901312 0.065880053 5.251998e-39
0.014730811 -0.11901312 0.065880053 2.0276887e-39
0.016421054 -0.11901312 0.065880053 1.8377469e-40
0.018111296 -0.11901312 0.065880053 8.2660494e-40
0.019801535 -0.11901312 0.065880053 1.3638552e-38
0.021491777 -0.11901312 0.065880053 1.9265355e-38
0.02318202 -0.11901312 0.065880053 1.825407e-38
0.025067195 -0.11985429 0.062834077 1.7334624e-38
0.026762776 -0.11985429 0.062834077 1.8075422e-38
0.028458357 -0.11985429 0.062834077 1.5864886e-38
0.030153945 -0.11985429 0.062834077 1.7525849e-38
0.032060578 -0.12067504 0.059861891 1.4390846e-38
0.033761375 -0.12067504 0.059861891 9.9651056e-39
0.035462171 -0.12067504 0.059861891 2.1270464e-39
0.037391044 -0.12150083 0.056871466 4.3958733e-42
0.039486706 -0.12287988 0.05187773 9.551951e-41
0.041444026 -0.12371938 0.048837714 4.7957016e-39
0.043164149 -0.12371938 0.048837714 6.638175e-39
0.044884272 -0.12371938 0.048837714 8.2980565e-39
0.046604391 -0.12371938 0.048837714 8.671148e-39
0.048581686 -0.12453763 0.045874648 8.3960031e-39
0.050307002 -0.12453763 0.045874648 7.5651718e-39
0.052032318 -0.12453763 0.045874648 5.8120255e-39
0.053757634 -0.12453763 0.045874648 8.2076784e-39
0.05548295 -0.12453763 0.045874648 1.8454568e-39
0.057493132 -0.12536083 0.042893641 9.3369918e-41
0.059421178 -0.12592132 0.040863983 7.9874012e-44
0.061155286 -0.12592132 0.040863983 5.44105e-39
0.063192993 -0.12675296 0.037852459 1.825767e-38
0.064932376 -0.12675296 0.037852459 1.8811559e-38
0.066987857 -0.12758966 0.034822576 1.1252598e-38
0.068732545 -0.12758966 0.034822576 9.9618714e-39
0.070795327 -0.12840421 0.031872801 7.2892884e-39
0.072545186 -0.12840421 0.031872801 5.9985622e-39
0.074295059 -0.12840421 0.031872801 7.8417615e-39
0.076044932 -0.12840421 0.031872801 8.1161876e-39
0.078146964 -0.12925108 0.028806202 5.5506413e-40
0.080250338 -0.13007559 0.025820486 8.1275311e-44
0.082366288 -0.13090499 0.022817008 2.6092177e-42
0.084132031 -0.13090499 0.022817008 5.5506413e-40
0.085897774 -0.13090499 0.022817008 9.10844e-44
0.088400185 -0.13255073 0.016857378 8.6880505e-44
0.090176389 -0.13255073 0.016857378 1.1770907e-42
0.092341229 -0.13339506 0.013799898 4.568233e-43
0.094122782 -0.13339506 0.013799898 1.8484248e-40
0.09590435 -0.13339506 0.013799898 9.2635638e-41
0.097685903 -0.13339506 0.013799898 9.2620223e-41
0.099467456 -0.13339506 0.013799898 1.7517646e-39
0.10124901 -0.13339506 0.013799898 7.6522709e-39
0.10303056 -0.13339506 0.013799898 8.5738531e-39
0.10481213 -0.13339506 0.013799898 7.3760161e-39
-0.058337651 -0.14934768 -0.037192829 9.7900764e-39
-0.056466687 -0.14934768 -0.037192829 6.2863048e-39
-0.054478198 -0.14738683 -0.03013707 1.1258755e-38
-0.052574966 -0.14655443 -0.027141698 1.4758941e-38
-0.050682459 -0.1457267 -0.024163254 1.226892e-38
-0.048754636 -0.14378314 -0.017169602 2.5797905e-42
-0.046889558 -0.14294095 -0.014139064 4.3972746e-42
-0.045035239 -0.1421036 -0.01112593 1.0798496e-38
-0.043209981 -0.1421036 -0.01112593 9.9647707e-39
-0.041384723 -0.1421036 -0.01112593 4.0649609e-39
-0.039551586 -0.14127107 -0.0081302002 3.0576347e-39
-0.037728131 -0.14017828 -0.0041979626 9.4194848e-39
-0.035915017 -0.14017828 -0.0041979626 1.5590474e-38
-0.034117684 -0.13851084 0.0018020794 2.2132353e-38
-0.032328356 -0.13766994 0.0048279688 2.2499695e-38
-0.03054953 -0.13683395 0.0078362152 2.2775202e-38
-0.028781114 -0.13600285 0.010826819 2.3234369e-38
-0.027023017 -0.13517661 0.013799898 2.3509869e-38
-0.025276305 -0.13432692 0.016857378 2.350987e-38
-0.023500111 -0.13432692 0.016857378 2.2861632e-38
-0.021723915 -0.13432692 0.016857378 2.175423e-38
-0.019998342 -0.13348235 0.0198965 1.2903469e-38
-0.018281242 -0.13267075 0.022817008 1.0876625e-38
-0.016636258 -0.13100632 0.028806202 1.3645026e-38
-0.014948223 -0.13015409 0.031872801 1.6966594e-38
-0.013339892 -0.12849234 0.037852459 1.5309233e-38
-0.011600509 -0.12849234 0.037852459 9.4112284e-39
-0.0099429674 -0.12765543 0.040863983 4.7617103e-40
-0.0082088653 -0.12765543 0.040863983 2.6344411e-41
-0.006537037 -0.12709136 0.042893641 1.2017892e-38
-0.0049031861 -0.12626295 0.045874648 1.6892349e-38
-0.0032791756 -0.12543948 0.048837714 1.9465536e-38
-0.0015590526 -0.12543948 0.048837714 2.0474651e-38
4.6472996e-05 -0.12459467 0.05187773 1.8355607e-38
0.0016457923 -0.12378122 0.054804794 1.5042684e-38
0.0032702982 -0.1232069 0.056871466 1.2004544e-38
0.0048478767 -0.12237583 0.059861891 1.2743901e-38
0.0064157844 -0.12154986 0.062834077 3.4274906e-39
0.0081113689 -0.12154986 0.062834077 2.9561274e-39
0.0096600838 -0.12070335 0.065880053 9.2099781e-40
0.01125396 -0.12016745 0.067808501 1.9326064e-39
0.01294082 -0.12016745 0.067808501 5.8966541e-39
0.014627684 -0.12016745 0.067808501 2.4890312e-39
0.016314544 -0.12016745 0.067808501 1.0229479e-43
0.018001404 -0.12016745 0.067808501 4.3257229e-39
0.019688267 -0.12016745 0.067808501 1.4926766e-38
0.021491777 -0.12070335 0.065880053 1.8894045e-38
0.02318202 -0.12070335 0.065880053 1.9173142e-38
0.025067195 -0.12154986 0.062834077 1.9268926e-38
0.026762776 -0.12154986 0.062834077 1.6320818e-38
0.028458357 -0.12154986 0.062834077 1.2544037e-38
0.030153945 -0.12154986 0.062834077 1.2268532e-38
0.032060578 -0.12237583 0.059861891 1.466599e-38
0.033761375 -0.12237583 0.059861891 9.3182915e-39
0.035462171 -0.12237583 0.059861891 2.4940254e-39
0.037548669 -0.12378122 0.054804794 2.0308977e-39
0.039486706 -0.12459467 0.05187773 2.1213024e-39
0.041444026 -0.12543948 0.048837714 7.2828228e-39
0.043164149 -0.12543948 0.048837714 9.5862744e-39
0.044884272 -0.12543948 0.048837714 1.1155395e-38
0.046604391 -0.12543948 0.048837714 1.3281281e-38
0.048581686 -0.12626295 0.045874648 1.2454039e-38
0.050307002 -0.12626295 0.045874648 1.226822e-38
0.052032318 -0.12626295 0.045874648 7.2875087e-39
0.053757634 -0.12626295 0.045874648 6.179729e-39
0.05548295 -0.12626295 0.045874648 1.1798933e-42
0.057493132 -0.12709136 0.042893641 8.4077908e-44
0.059421178 -0.12765543 0.040863983 5.5324945e-40
0.061155286 -0.12765543 0.040863983 3.1354291e-39
0.063192993 -0.12849234 0.037852459 1.7058037e-38
0.064932376 -0.12849234 0.037852459 1.9363642e-38
0.066987857 -0.12933435 0.034822576 1.3095786e-38
0.068732545 -0.12933435 0.034822576 8.2101545e-39
0.070795327 -0.13015409 0.031872801 4.8918503e-39
0.072545186 -0.13015409 0.031872801 4.2461403e-39
0.074295059 -0.13015409 0.031872801 7.7488582e-39
0.076044932 -0.13015409 0.031872801 7.7470519e-39
0.078146964 -0.13100632 0.028806202 1.3841087e-39
0.080250338 -0.13183604 0.025820486 8.4077908e-44
0.082366288 -0.13267075 0.022817008 2.7848004e-40
0.084132031 -0.13267075 0.022817008 5.5434807e-40
0.085897774 -0.13267075 0.022817008 8.1415441e-43
0.088024527 -0.13348235 0.0198965 9.6689594e-44
0.090176389 -0.13432692 0.016857378 7.3766313e-40
0.092341229 -0.13517661 0.013799898 1.8412641e-40
0.094122782 -0.13517661 0.013799898 1.8376208e-40
0.09590435 -0.13517661 0.013799898 4.5997762e-40
0.097685903 -0.13517661 0.013799898 5.6051939e-44
0.099467456 -0.13517661 0.013799898 6.4397512e-40
0.10124901 -0.13517661 0.013799898 7.6511863e-39
0.10303056 -0.13517661 0.013799898 9.6794761e-39
0.10481213 -0.13517661 0.013799898 7.928827e-39
-0.054478198 -0.14924543 -0.03013707 1.4392319e-38
-0.052574966 -0.14840777 -0.027141698 1.568053e-38
-0.050629143 -0.14644094 -0.020108707 1.2451867e-38
-0.048720099 -0.1447715 -0.014139064 5.0937199e-42
-0.046889558 -0.1447715 -0.014139064 6.9182105e-42
-0.045035239 -0.14392884 -0.01112593 1.2824276e-38
-0.043209981 -0.14392884 -0.01112593 1.3466041e-38
-0.041371591 -0.14309107 -0.0081302002 1.2729547e-38
-0.039551586 -0.14309107 -0.0081302002 1.116725e-38
-0.037728131 -0.14199139 -0.0041979626 1.2827123e-38
-0.035915017 -0.14199139 -0.0041979626 1.614112e-38
-0.034117684 -0.14031343 0.0018020794 2.2315307e-38
-0.032328356 -0.13946722 0.0048279688 2.2867037e-38
-0.03054953 -0.13862596 0.0078362152 2.286632e-38
-0.028781114 -0.13778962 0.010826819 2.341804e-38
-0.027023017 -0.13695817 0.013799898 2.3417673e-38
-0.025276305 -0.13610314 0.016857378 2.3509876e-38
-0.023500111 -0.13610314 0.016857378 2.2216989e-38
-0.021723915 -0.13610314 0.016857378 2.2492874e-38
-0.019998342 -0.13525321 0.0198965 8.6642676e-39
-0.018336535 -0.13359652 0.025820486 4.3310983e-39
-0.016636258 -0.13276155 0.028806202 6.8221964e-39
-0.015079277 -0.13023172 0.037852459 7.7459589e-39
-0.013339892 -0.13023172 0.037852459 3.5989619e-39
-0.011600509 -0.13023172 0.037852459 1.9412412e-39
-0.0099429674 -0.12938951 0.040863983 8.3699557e-42
-0.0082088653 -0.12938951 0.040863983 1.9159954e-41
-0.006537037 -0.12882192 0.042893641 9.7108568e-39
-0.0048064925 -0.12882192 0.042893641 1.4680405e-38
-0.0032791756 -0.12715961 0.048837714 1.7624522e-38
-0.0015590526 -0.12715961 0.048837714 1.7621293e-38
4.6472996e-05 -0.12630944 0.05187773 1.6699703e-38
0.0016457923 -0.12549089 0.054804794 1.6244119e-38
0.0032702982 -0.12491293 0.056871466 1.4125781e-38
0.0048478767 -0.12407662 0.059861891 1.3941027e-38
0.0064157844 -0.12324543 0.062834077 5.6800092e-40
0.0079698414 -0.12239362 0.065880053 4.7896382e-42
0.0096600838 -0.12239362 0.065880053 1.1064681e-39
0.01125396 -0.12185432 0.067808501 1.0113732e-39
0.01294082 -0.12185432 0.067808501 4.8839455e-39
0.014627684 -0.12185432 0.067808501 2.1213249e-39
0.016314544 -0.12185432 0.067808501 9.8090893e-44
0.018001404 -0.12185432 0.067808501 7.3475964e-40
0.019688267 -0.12185432 0.067808501 1.2162695e-38
0.021491777 -0.12239362 0.065880053 1.336267e-38
0.02318202 -0.12239362 0.065880053 1.2626896e-38
0.025067195 -0.12324543 0.062834077 1.0785494e-38
0.026762776 -0.12324543 0.062834077 1.263228e-38
0.028458357 -0.12324543 0.062834077 1.2911025e-38
0.030153945 -0.12324543 0.062834077 1.3833345e-38
0.032060578 -0.12407662 0.059861891 1.3741875e-38
0.033761375 -0.12407662 0.059861891 1.3833719e-38
0.035685003 -0.12491293 0.056871466 1.4016681e-38
0.037548669 -0.12549089 0.054804794 1.6043194e-38
0.039486706 -0.12630944 0.05187773 1.1431982e-38
0.041444026 -0.12715961 0.048837714 1.0969569e-38
0.043164149 -0.12715961 0.048837714 1.0783741e-38
0.044884272 -0.12715961 0.048837714 1.19848e-38
0.046604391 -0.12715961 0.048837714 1.069873e-38
0.048581686 -0.12798826 0.045874648 9.7789319e-39
0.050307002 -0.12798826 0.045874648 1.0147004e-38
0.052032318 -0.12798826 0.045874648 3.3223778e-39
0.053757634 -0.12798826 0.045874648 2.3986292e-39
0.05548295 -0.12798826 0.045874648 8.2986156e-40
0.057493132 -0.12882192 0.042893641 8.8281803e-44
0.059421178 -0.12938951 0.040863983 7.5670117e-44
0.061155286 -0.12938951 0.040863983 2.7700868e-40
0.063192993 -0.13023172 0.037852459 6.362272e-39
0.064932376 -0.13023172 0.037852459 1.03274e-38
0.066987857 -0.13107903 0.034822576 1.3647886e-38
0.068732545 -0.13107903 0.034822576 1.1251537e-38
0.070795327 -0.13190396 0.031872801 7.1949431e-39
0.072545186 -0.13190396 0.031872801 2.6773741e-39
0.074636489 -0.13276155 0.028806202 1.1093337e-39
0.076391727 -0.13276155 0.028806202 1.1997231e-39
0.078146964 -0.13276155 0.028806202 2.7704091e-40
0.079902217 -0.13276155 0.028806202 9.10844e-44
0.082010821 -0.13359652 0.025820486 9.10844e-44
0.084132031 -0.13443647 0.022817008 8.1275311e-44
0.085897774 -0.13443647 0.022817008 2.7703811e-40
0.088024527 -0.13525321 0.0198965 5.53625e-40
0.090559676 -0.13695817 0.013799898 8.1275311e-44
0.092341229 -0.13695817 0.013799898 9.2485699e-44
0.094122782 -0.13695817 0.013799898 8.1275311e-44
0.09590435 -0.13695817 0.013799898 5.5181872e-40
0.098079473 -0.13778962 0.010826819 7.3584004e-40
0.099866241 -0.13778962 0.010826819 5.5106903e-40
0.10165301 -0.13778962 0.010826819 6.6366798e-39
0.10343978 -0.13778962 0.010826819 9.0341067e-39
0.10522655 -0.13778962 0.010826819 7.8359097e-39
-0.050629143 -0.14828195 -0.020108707 1.4663111e-38
-0.048720099 -0.14660202 -0.014139064 2.805932e-40
-0.046889558 -0.14660202 -0.014139064 3.0454055e-39
-0.045035239 -0.14575411 -0.01112593 1.2909985e-38
-0.043209981 -0.14575411 -0.01112593 1.4291114e-38
-0.041371591 -0.14491107 -0.0081302002 1.4106719e-38
-0.039551586 -0.14491107 -0.0081302002 1.4108514e-38
-0.037728131 -0.14380451 -0.0041979626 1.355425e-38
-0.035915017 -0.14380451 -0.0041979626 1.9083444e-38
-0.034117684 -0.14211603 0.0018020794 2.3508451e-38
-0.032315094 -0.14211603 0.0018020794 2.2953849e-38
-0.03054953 -0.14041798 0.0078362152 2.3509168e-38
-0.028781114 -0.13957639 0.010826819 2.3324404e-38
-0.027023017 -0.13873972 0.013799898 2.3509876e-38
-0.025241461 -0.13873972 0.013799898 2.341805e-38
-0.023500111 -0.13787933 0.016857378 2.0929501e-38
-0.021723915 -0.13787933 0.016857378 2.1115331e-38
-0.019998342 -0.13702409 0.0198965 8.115763e-39
-0.018336535 -0.13535701 0.025820486 2.6762531e-39
-0.016636258 -0.13451682 0.028806202 7.4711643e-39
-0.015079277 -0.13197111 0.037852459 8.5778804e-39
-0.013339892 -0.13197111 0.037852459 3.5993276e-39
-0.011600509 -0.13197111 0.037852459 9.6267803e-41
-0.0099429674 -0.13112362 0.040863983 6.2287717e-42
-0.0082088653 -0.13112362 0.040863983 1.0173427e-41
-0.006537037 -0.13055246 0.042893641 9.7018675e-39
-0.0048064925 -0.13055246 0.042893641 1.3664113e-38
-0.0031778701 -0.12971358 0.045874648 1.4309115e-38
-0.0015590526 -0.12887974 0.048837714 1.3571187e-38
4.6472996e-05 -0.12802424 0.05187773 1.52307e-38
0.0016457923 -0.12720053 0.054804794 1.587606e-38
0.0032702982 -0.12661897 0.056871466 1.3569394e-38
0.0048478767 -0.12577744 0.059861891 1.1537853e-38
0.0064157844 -0.12494104 0.062834077 1.9348429e-40
0.0079698414 -0.12408386 0.065880053 1.9071672e-42
0.0095671006 -0.12354116 0.067808501 1.2919299e-39
0.01125396 -0.12354116 0.067808501 8.2986156e-40
0.01294082 -0.12354116 0.067808501 2.8592416e-39
0.014627684 -0.12354116 0.067808501 1.8472477e-39
0.016314544 -0.12354116 0.067808501 1.1686829e-42
0.018001404 -0.12354116 0.067808501 1.841124e-40
0.019688267 -0.12354116 0.067808501 1.1890791e-38
0.021491777 -0.12408386 0.065880053 1.1707476e-38
0.02318202 -0.12408386 0.065880053 1.1062821e-38
0.025067195 -0.12494104 0.062834077 9.7731586e-39
0.026762776 -0.12494104 0.062834077 1.2724135e-38
0.028458357 -0.12494104 0.062834077 1.4292179e-38
0.030153945 -0.12494104 0.062834077 1.5398527e-38
0.032060578 -0.12577744 0.059861891 1.4937196e-38
0.033978969 -0.12661897 0.056871466 1.5305981e-38
0.035685003 -0.12661897 0.056871466 1.4383673e-38
0.037548669 -0.12720053 0.054804794 1.1985872e-38
0.039486706 -0.12802424 0.05187773 1.0326e-38
0.041444026 -0.12887974 0.048837714 1.0232728e-38
0.043164149 -0.12887974 0.048837714 1.0509318e-38
0.044884272 -0.12887974 0.048837714 1.0233453e-38
0.046604391 -0.12887974 0.048837714 5.0722997e-39
0.048581686 -0.12971358 0.045874648 5.3499656e-39
0.050307002 -0.12971358 0.045874648 4.8889902e-39
0.052032318 -0.12971358 0.045874648 3.2283899e-39
0.053757634 -0.12971358 0.045874648 1.0149759e-39
0.05548295 -0.12971358 0.045874648 4.596259e-43
0.057493132 -0.13055246 0.042893641 9.2485699e-44
0.059421178 -0.13112362 0.040863983 1.8447814e-40
0.061155286 -0.13112362 0.040863983 7.7071416e-44
0.063192993 -0.13197111 0.037852459 5.5360958e-40
0.065243155 -0.13282375 0.034822576 2.1212912e-39
0.066987857 -0.13282375 0.034822576 7.4689979e-39
0.068732545 -0.13282375 0.034822576 1.0050481e-38
0.070795327 -0.13365383 0.031872801 7.3775323e-39
0.072545186 -0.13365383 0.031872801 3.9659381e-39
0.074295059 -0.13365383 0.031872801 2.7703671e-40
0.076044932 -0.13365383 0.031872801 1.8376348e-40
0.078146964 -0.13451682 0.028806202 7.3585826e-40
0.079902217 -0.13451682 0.028806202 9.1926581e-41
0.082010821 -0.13535701 0.025820486 1.1968364e-39
0.084132031 -0.13620223 0.022817008 8.8281803e-44
0.085897774 -0.13620223 0.022817008 9.1919574e-41
0.088024527 -0.13702409 0.0198965 6.4509055e-40
0.090559676 -0.13873972 0.013799898 8.1275311e-44
0.092719167 -0.13957639 0.010826819 3.6779601e-40
0.094505936 -0.13957639 0.010826819 9.2485699e-44
0.096292704 -0.13957639 0.010826819 9.5288296e-44
0.098079473 -0.13957639 0.010826819 6.4294656e-40
0.099866241 -0.13957639 0.010826819 6.8663625e-44
0.10165301 -0.13957639 0.010826819 5.8991288e-39
0.10343978 -0.13957639 0.010826819 6.2686022e-39
0.10522655 -0.13957639 0.010826819 8.0210198e-39
-0.048754636 -0.14929073 -0.017169602 2.861352e-39
-0.046889558 -0.14843257 -0.014139064 1.1993321e-39
-0.045035239 -0.14757936 -0.01112593 7.4675658e-39
-0.043209981 -0.14757936 -0.01112593 9.3118315e-39
-0.041371591 -0.14673109 -0.0081302002 8.2047609e-39
-0.039551586 -0.14673109 -0.0081302002 7.2828046e-39
-0.037728131 -0.14561762 -0.0041979626 9.585882e-39
-0.035915017 -0.14561762 -0.0041979626 1.6129944e-38
-0.034117684 -0.14391862 0.0018020794 2.3505581e-38
-0.032315094 -0.14391862 0.0018020794 2.3507733e-38
-0.03054953 -0.14220999 0.0078362152 2.3508451e-38
-0.028781114 -0.14136316 0.010826819 2.3509523e-38
-0.027023017 -0.14052127 0.013799898 2.3418047e-38
-0.025276305 -0.13965552 0.016857378 2.2958155e-38
-0.023500111 -0.13965552 0.016857378 2.0654364e-38
-0.021723915 -0.13965552 0.016857378 1.7982841e-38
-0.019998342 -0.13879494 0.0198965 5.2598551e-39
-0.018281242 -0.13796796 0.022817008 4.0609882e-39
-0.016636258 -0.13627206 0.028806202 1.2450447e-38
-0.015079277 -0.13371049 0.037852459 1.5953528e-38
-0.013339892 -0.13371049 0.037852459 1.5215611e-38
-0.011600509 -0.13371049 0.037852459 7.8392616e-39
-0.0099429674 -0.13285773 0.040863983 1.9141737e-42
-0.0082088653 -0.13285773 0.040863983 1.0250568e-39
-0.006537037 -0.13228302 0.042893641 1.0986132e-38
-0.0048064925 -0.13228302 0.042893641 1.0251443e-38
-0.0031778701 -0.1314389 0.045874648 4.9055311e-39
-0.0015590526 -0.13059987 0.048837714 4.0768467e-39
4.6472996e-05 -0.12973903 0.05187773 7.488085e-39
0.0016457923 -0.1289102 0.054804794 9.974853e-39
0.0032702982 -0.128325 0.056871466 1.0063096e-38
0.0048478767 -0.12747823 0.059861891 9.5059674e-39
0.0064157844 -0.12663661 0.062834077 9.8418796e-41
0.0079698414 -0.1257741 0.065880053 9.4825867e-41
0.0095671006 -0.12522803 0.067808501 2.2138834e-39
0.01125396 -0.12522803 0.067808501 2.1213235e-39
0.01294082 -0.12522803 0.067808501 4.0585037e-39
0.014627684 -0.12522803 0.067808501 2.2163833e-39
