# .PCD v0.7 - Point Cloud Data file format
VERSION 0.7
FIELDS x y z rgb
SIZE 4 4 4 4
TYPE F F F F
COUNT 1 1 1 1
WIDTH 937
HEIGHT 1
VIEWPOINT 0 0 0 1 0 0 0
POINTS 937
DATA ascii
0.077300668 -0.10172421 -0.017978914 5.441085e-39
0.079397708 -0.10245901 -0.021004803 2.6770112e-39
0.081200302 -0.10245901 -0.021004803 1.1620703e-38
0.083002895 -0.10245901 -0.021004803 1.5125213e-38
0.084805489 -0.10245901 -0.021004803 6.3684237e-39
0.086608082 -0.10245901 -0.021004803 3.6840137e-42
0.088727549 -0.10317262 -0.023943432 7.4556926e-40
0.090535283 -0.10317262 -0.023943432 7.6468857e-42
0.092343032 -0.10317262 -0.023943432 8.0084207e-42
0.094150782 -0.10317262 -0.023943432 3.5143276e-39
0.095958516 -0.10317262 -0.023943432 1.3286696e-38
0.097766265 -0.10317262 -0.023943432 1.7434752e-38
0.099574015 -0.10317262 -0.023943432 2.1673176e-38
0.10174944 -0.10391603 -0.027004845 2.1488787e-38
0.10356255 -0.10391603 -0.027004845 2.2132353e-38
0.10537566 -0.10391603 -0.027004845 2.0935263e-38
0.10718878 -0.10391603 -0.027004845 1.9922559e-38
0.10950173 -0.10487093 -0.030937083 1.5959943e-38
0.11170781 -0.10559841 -0.033932813 1.3104037e-38
0.11353306 -0.10559841 -0.033932813 1.3751204e-38
0.11535832 -0.10559841 -0.033932813 1.209277e-38
0.11718358 -0.10559841 -0.033932813 1.2461566e-38
0.11941828 -0.10633011 -0.036945947 1.1446712e-38
0.12124883 -0.10633011 -0.036945947 9.4173521e-39
0.12307936 -0.10633011 -0.036945947 7.9986116e-42
0.12490991 -0.10633011 -0.036945947 1.8949899e-40
0.12674044 -0.10633011 -0.036945947 1.2007516e-39
0.12900935 -0.10706602 -0.039976485 9.4738987e-41
0.13084522 -0.10706602 -0.039976485 7.2307001e-43
-0.12317118 -0.11061247 -0.046970136 7.8351866e-39
-0.12132306 -0.11061247 -0.046970136 6.2692916e-39
-0.11910172 -0.10962076 -0.04291559 9.1273674e-39
-0.11699532 -0.10890187 -0.039976485 1.834624e-38
-0.11515947 -0.10890187 -0.039976485 2.3232944e-38
-0.11279908 -0.10742365 -0.033932813 2.1390136e-38
-0.10987446 -0.10426159 -0.021004803 4.7978245e-39
-0.10756932 -0.10278571 -0.014970668 4.7006137e-40
-0.10577732 -0.10278571 -0.014970668 2.5927357e-39
-0.10374673 -0.10205424 -0.011980064 2.4061822e-39
-0.10172799 -0.10132705 -0.0090069845 4.5248768e-39
-0.099713236 -0.10057923 -0.0059495047 4.0610134e-39
-0.09771058 -0.099835888 -0.002910383 5.1651973e-39
-0.095727205 -0.099121556 1.0125339e-05 7.0073065e-39
-0.093961462 -0.099121556 1.0125339e-05 7.4668455e-39
-0.091780916 -0.097656667 0.0059993193 1.0324553e-38
-0.089818671 -0.096906602 0.0090659186 9.5884324e-39
-0.087675631 -0.095444039 0.015045576 9.2207373e-39
-0.085936248 -0.095444039 0.015045576 6.6417862e-39
-0.084196866 -0.095444039 0.015045576 3.8780879e-39
-0.083366975 -0.099121556 1.0125339e-05 2.4969611e-39
-0.062413141 -0.10057923 -0.0059495047 2.2499695e-38
-0.060636945 -0.10057923 -0.0059495047 2.2499695e-38
-0.058751512 -0.099835888 -0.002910383 2.1948682e-38
-0.056980647 -0.099835888 -0.002910383 2.2316024e-38
-0.055209782 -0.099835888 -0.002910383 2.2316024e-38
-0.052121446 -0.089333788 0.040027194 2.1488782e-38
-0.050337743 -0.088588774 0.04307317 2.2040159e-38
-0.048647501 -0.088588774 0.04307317 2.2867037e-38
-0.046957258 -0.088588774 0.04307317 2.2957079e-38
-0.045267019 -0.088588774 0.04307317 2.3141467e-38
-0.044718198 -0.10132705 -0.0090069845 2.2772691e-38
-0.042936642 -0.10132705 -0.0090069845 2.1850748e-38
-0.041155089 -0.10132705 -0.0090069845 2.1390495e-38
-0.039373528 -0.10132705 -0.0090069845 1.982319e-38
-0.037024487 -0.092013597 0.029070847 1.6873293e-38
-0.035309695 -0.092013597 0.029070847 1.7518663e-38
-0.034165598 -0.10426159 -0.021004803 1.7241721e-38
-0.032363005 -0.10426159 -0.021004803 1.687366e-38
-0.030560413 -0.10426159 -0.021004803 1.6781108e-38
-0.028757822 -0.10426159 -0.021004803 1.659672e-38
-0.026955228 -0.10426159 -0.021004803 1.641233e-38
-0.025036726 -0.093481898 0.023067765 1.6504526e-38
-0.023311408 -0.093481898 0.023067765 1.6597447e-38
-0.021583475 -0.094211012 0.020086758 1.6229749e-38
-0.019852931 -0.094211012 0.020086758 1.5308515e-38
-0.018122386 -0.094211012 0.020086758 1.493901e-38
-0.016391842 -0.094211012 0.020086758 1.4292921e-38
-0.014645282 -0.094707444 0.0180571 1.281707e-38
-0.012911178 -0.094707444 0.0180571 1.2263176e-38
-0.011177075 -0.094707444 0.0180571 1.2170262e-38
-0.0094429711 -0.094707444 0.0180571 1.1709284e-38
-0.007708868 -0.094707444 0.0180571 1.0602937e-38
-0.005974764 -0.094707444 0.0180571 1.0325995e-38
-0.00424066 -0.094707444 0.0180571 9.3122084e-39
-0.002506556 -0.094707444 0.0180571 5.533268e-39
-0.00070645101 -0.095444039 0.015045576 5.995335e-39
0.001104651 -0.096185118 0.012015693 4.8893503e-39
0.002849346 -0.096185118 0.012015693 3.0458021e-39
0.0045940429 -0.096185118 0.012015693 1.2951613e-39
0.0064240769 -0.096906602 0.0090659186 7.2889535e-39
0.0081739444 -0.096906602 0.0090659186 1.3374941e-38
0.009923812 -0.096906602 0.0090659186 1.411215e-38
0.011673681 -0.096906602 0.0090659186 8.5804139e-39
0.013533771 -0.097656667 0.0059993193 6.7354223e-39
0.015289016 -0.097656667 0.0059993193 6.5051358e-40
0.017044261 -0.097656667 0.0059993193 2.6274346e-42
0.018799506 -0.097656667 0.0059993193 1.5512374e-42
0.020683009 -0.098386943 0.0030136034 2.6316385e-42
0.022577774 -0.099121556 1.0125339e-05 3.3519059e-42
0.02434352 -0.099121556 1.0125339e-05 2.2729061e-42
0.026109267 -0.099121556 1.0125339e-05 4.7223758e-43
0.027724929 -0.098386943 0.0030136034 4.6943499e-43
0.029485408 -0.098386943 0.0030136034 1.9099698e-42
0.031245887 -0.098386943 0.0030136034 2.2701035e-42
0.033006366 -0.098386943 0.0030136034 4.7504018e-43
0.034766849 -0.098386943 0.0030136034 1.9281867e-42
0.036527328 -0.098386943 0.0030136034 8.5759466e-43
0.038287807 -0.098386943 0.0030136034 4.9746095e-43
0.040235236 -0.099121556 1.0125339e-05 8.6039726e-43
0.042187884 -0.099835888 -0.002910383 9.4139231e-41
0.043958746 -0.099835888 -0.002910383 5.5440132e-40
0.045729615 -0.099835888 -0.002910383 5.5440412e-40
0.047710963 -0.10057923 -0.0059495047 6.4588088e-40
0.049487159 -0.10057923 -0.0059495047 5.5368525e-40
0.051263355 -0.10057923 -0.0059495047 4.6148962e-40
0.053039543 -0.10057923 -0.0059495047 4.6040782e-40
0.054815739 -0.10057923 -0.0059495047 2.7637249e-40
0.056591935 -0.10057923 -0.0059495047 1.8381392e-40
0.05884923 -0.10205424 -0.011980064 1.8381392e-40
0.060635995 -0.10205424 -0.011980064 1.8381252e-40
0.062422764 -0.10205424 -0.011980064 9.1972823e-41
0.064209536 -0.10205424 -0.011980064 9.1967218e-41
0.065996304 -0.10205424 -0.011980064 4.5967074e-40
0.067783073 -0.10205424 -0.011980064 1.1210388e-43
0.069839895 -0.10278571 -0.014970668 1.9351497e-39
0.071631894 -0.10278571 -0.014970668 3.2262445e-39
0.073423907 -0.10278571 -0.014970668 4.7017263e-39
0.075215921 -0.10278571 -0.014970668 7.2842787e-39
0.077300668 -0.10352151 -0.017978914 9.1285472e-39
0.079097956 -0.10352151 -0.017978914 9.6824371e-39
0.081200302 -0.10426159 -0.021004803 1.0974612e-38
0.083002895 -0.10426159 -0.021004803 1.4663156e-38
0.084805489 -0.10426159 -0.021004803 9.6856713e-39
0.086608082 -0.10426159 -0.021004803 3.7535181e-40
0.088410676 -0.10426159 -0.021004803 1.8861477e-42
0.090535283 -0.10498036 -0.023943432 2.249084e-42
0.092343032 -0.10498036 -0.023943432 1.8903516e-42
0.094150782 -0.10498036 -0.023943432 1.0533561e-41
0.095958516 -0.10498036 -0.023943432 1.3934942e-38
0.097766265 -0.10498036 -0.023943432 1.7805682e-38
0.099574015 -0.10498036 -0.023943432 1.9372266e-38
0.10174944 -0.10572915 -0.027004845 1.6236184e-38
0.10356255 -0.10572915 -0.027004845 1.4206435e-38
0.10537566 -0.10572915 -0.027004845 1.3837297e-38
0.10718878 -0.10572915 -0.027004845 1.439155e-38
0.10950173 -0.10669093 -0.030937083 1.3471031e-38
0.11132175 -0.10669093 -0.030937083 1.1537438e-38
0.11314176 -0.10669093 -0.030937083 1.2276438e-38
0.11535832 -0.10742365 -0.033932813 1.2093489e-38
0.11718358 -0.10742365 -0.033932813 1.1356295e-38
0.11900884 -0.10742365 -0.033932813 1.1816571e-38
0.12124883 -0.10816063 -0.036945947 1.0248189e-38
0.12307936 -0.10816063 -0.036945947 1.0159414e-41
0.12490991 -0.10816063 -0.036945947 6.5047714e-40
0.12674044 -0.10816063 -0.036945947 2.123431e-39
0.12857099 -0.10816063 -0.036945947 6.4863443e-40
0.13040154 -0.10816063 -0.036945947 7.2307001e-43
0.13223207 -0.10816063 -0.036945947 3.7129365e-40
-0.12278374 -0.11146177 -0.04291559 8.0192149e-39
-0.12094273 -0.11146177 -0.04291559 5.8997832e-39
-0.11910172 -0.11146177 -0.04291559 9.1270002e-39
-0.11699532 -0.11073773 -0.039976485 1.788525e-38
-0.11489113 -0.10999118 -0.036945947 2.3417333e-38
-0.11253908 -0.10851096 -0.030937083 2.2219884e-38
-0.10961716 -0.1053188 -0.017978914 7.1963388e-39
-0.10756932 -0.10457774 -0.014970668 7.5061113e-40
-0.1055335 -0.10384102 -0.011980064 1.1215741e-39
-0.10350955 -0.1031086 -0.0090069845 5.6515488e-40
-0.10148942 -0.10235542 -0.0059495047 3.8805934e-39
-0.099481449 -0.10160676 -0.002910383 3.6918735e-39
-0.09771058 -0.10160676 -0.002910383 3.7804608e-39
-0.095508665 -0.10014741 0.0030136034 5.1597939e-39
-0.093536168 -0.099411905 0.0059993193 6.2639779e-39
-0.091154411 -0.097183421 0.015045576 8.0156949e-39
-0.089211732 -0.096441552 0.0180571 9.3993482e-39
-0.087477624 -0.096441552 0.0180571 1.0692974e-38
-0.085613638 -0.095941558 0.020086758 8.944858e-39
-0.083323896 -0.093728393 0.029070847 6.9197996e-39
-0.0816091 -0.093728393 0.029070847 5.5404707e-39
-0.069752127 -0.094477281 0.026030831 1.2541588e-38
-0.067890763 -0.093728393 0.029070847 1.9548404e-38
-0.066175967 -0.093728393 0.029070847 1.9824628e-38
-0.064461172 -0.093728393 0.029070847 2.1945095e-38
-0.062746376 -0.093728393 0.029070847 2.2590096e-38
-0.06071661 -0.091761544 0.037055008 2.2775202e-38
-0.059316795 -0.093728393 0.029070847 2.2775202e-38
-0.057602003 -0.093728393 0.029070847 2.2407142e-38
-0.055716474 -0.092498213 0.034064583 2.2775202e-38
-0.053913437 -0.091761544 0.037055008 2.2775202e-38
-0.052027985 -0.090279013 0.04307317 2.2775202e-38
-0.050337743 -0.090279013 0.04307317 2.2867037e-38
-0.048595089 -0.089803949 0.045001619 2.2958155e-38
-0.046908233 -0.089803949 0.045001619 2.2680138e-38
-0.045267019 -0.090279013 0.04307317 2.3141109e-38
-0.043576773 -0.090279013 0.04307317 2.3141109e-38
-0.041886535 -0.090279013 0.04307317 2.2312078e-38
-0.041155089 -0.1031086 -0.0090069845 2.2680496e-38
-0.039373528 -0.1031086 -0.0090069845 2.1390136e-38
-0.037024487 -0.093728393 0.029070847 1.79793e-38
-0.035309695 -0.093728393 0.029070847 1.6596371e-38
-0.033594903 -0.093728393 0.029070847 1.5490748e-38
-0.031909425 -0.094477281 0.026030831 1.466135e-38
-0.030189302 -0.094477281 0.026030831 1.45688e-38
-0.028469179 -0.094477281 0.026030831 1.4477686e-38
-0.026762044 -0.095207214 0.023067765 1.4385134e-38
-0.025036726 -0.095207214 0.023067765 1.4477333e-38
-0.023311408 -0.095207214 0.023067765 1.4569891e-38
-0.021583475 -0.095941558 0.020086758 1.4386941e-38
-0.019852931 -0.095941558 0.020086758 1.291253e-38
-0.018122386 -0.095941558 0.020086758 1.1898016e-38
-0.016391842 -0.095941558 0.020086758 1.0882422e-38
-0.014661296 -0.095941558 0.020086758 9.4987661e-39
-0.012930751 -0.095941558 0.020086758 8.760478e-39
-0.011200206 -0.095941558 0.020086758 8.0221941e-39
-0.0094429711 -0.096441552 0.0180571 6.9151263e-39
-0.007708868 -0.096441552 0.0180571 4.4254883e-39
-0.005974764 -0.096441552 0.0180571 3.6879261e-39
-0.00424066 -0.096441552 0.0180571 3.1354754e-39
-0.002506556 -0.096441552 0.0180571 9.2350053e-40
-0.00070645101 -0.097183421 0.015045576 1.6621544e-39
0.0010329336 -0.097183421 0.015045576 9.2495087e-40
0.002849346 -0.09792982 0.012015693 4.6505453e-40
0.0045940429 -0.09792982 0.012015693 2.7710159e-39
0.0064240769 -0.098656476 0.0090659186 5.9996398e-39
0.0081739444 -0.098656476 0.0090659186 1.2177097e-38
0.0098281316 -0.09792982 0.012015693 1.4204325e-38
0.011572827 -0.09792982 0.012015693 8.4881987e-39
0.013317525 -0.09792982 0.012015693 6.827604e-39
0.01506222 -0.09792982 0.012015693 1.8952422e-40
0.016806915 -0.09792982 0.012015693 9.8090893e-44
0.018551614 -0.09792982 0.012015693 4.6523109e-43
0.020423021 -0.098656476 0.0090659186 1.0789998e-43
0.022172891 -0.098656476 0.0090659186 1.1210388e-43
0.023922756 -0.098656476 0.0090659186 1.1630777e-43
0.025820486 -0.099411905 0.0059993193 1.1350518e-43
0.027575731 -0.099411905 0.0059993193 1.1490647e-43
0.029330976 -0.099411905 0.0059993193 1.1911037e-43
0.031245887 -0.10014741 0.0030136034 1.8523344e-40
0.033006366 -0.10014741 0.0030136034 1.8595651e-40
0.034766849 -0.10014741 0.0030136034 2.2883204e-42
0.036527328 -0.10014741 0.0030136034 3.0099891e-42
0.038287807 -0.10014741 0.0030136034 2.6512567e-42
0.040048286 -0.10014741 0.0030136034 3.3743267e-42
0.042000979 -0.1008873 1.0125339e-05 3.3743267e-42
0.043766722 -0.1008873 1.0125339e-05 1.8668939e-40
0.045729615 -0.10160676 -0.002910383 9.3774893e-41
0.047500484 -0.10160676 -0.002910383 1.5792634e-42
0.049487159 -0.10235542 -0.0059495047 8.6039726e-43
0.051263355 -0.10235542 -0.0059495047 5.0026355e-43
0.053039543 -0.10235542 -0.0059495047 1.3872855e-43
0.054815739 -0.10235542 -0.0059495047 1.3592595e-43
0.056591935 -0.10235542 -0.0059495047 1.3592595e-43
0.05884923 -0.10384102 -0.011980064 1.3592595e-43
0.060635995 -0.10384102 -0.011980064 3.6747791e-40
0.062422764 -0.10384102 -0.011980064 2.7635848e-40
0.064209536 -0.10384102 -0.011980064 1.2611686e-43
0.065996304 -0.10384102 -0.011980064 9.2208242e-40
0.067783073 -0.10384102 -0.011980064 1.0930128e-43
0.069839895 -0.10457774 -0.014970668 5.346744e-39
0.071631894 -0.10457774 -0.014970668 6.3608945e-39
0.073423907 -0.10457774 -0.014970668 5.8080738e-39
0.075215921 -0.10457774 -0.014970668 8.5742973e-39
0.077300668 -0.1053188 -0.017978914 8.6664901e-39
0.079097956 -0.1053188 -0.017978914 5.8095018e-39
0.081200302 -0.10606419 -0.021004803 1.1618545e-38
0.083002895 -0.10606419 -0.021004803 1.5030504e-38
0.084805489 -0.10606419 -0.021004803 8.8541184e-39
0.086608082 -0.10606419 -0.021004803 1.0174898e-39
0.088410676 -0.10606419 -0.021004803 2.6204281e-42
0.090535283 -0.10678811 -0.023943432 9.263788e-40
0.092343032 -0.10678811 -0.023943432 1.8945555e-42
0.094150782 -0.10678811 -0.023943432 5.4888861e-42
0.095958516 -0.10678811 -0.023943432 1.5043442e-38
0.097766265 -0.10678811 -0.023943432 1.9098912e-38
0.099574015 -0.10678811 -0.023943432 1.9557731e-38
0.10174944 -0.10754226 -0.027004845 1.5314588e-38
0.10356255 -0.10754226 -0.027004845 1.1902268e-38
0.10537566 -0.10754226 -0.027004845 1.2085228e-38
0.10718878 -0.10754226 -0.027004845 1.3469244e-38
0.10950173 -0.10851096 -0.030937083 1.4576671e-38
0.11132175 -0.10851096 -0.030937083 1.2919299e-38
0.11314176 -0.10851096 -0.030937083 1.2552306e-38
0.11535832 -0.10924892 -0.033932813 1.2829612e-38
0.11718358 -0.10924892 -0.033932813 1.1078624e-38
0.11900884 -0.10924892 -0.033932813 1.1263027e-38
0.12124883 -0.10999118 -0.036945947 1.0432212e-38
0.12307936 -0.10999118 -0.036945947 6.5624349e-40
0.12490991 -0.10999118 -0.036945947 9.7303363e-41
0.12674044 -0.10999118 -0.036945947 2.3078223e-39
0.12857099 -0.10999118 -0.036945947 1.6627864e-39
0.13040154 -0.10999118 -0.036945947 8.3264454e-40
0.13223207 -0.10999118 -0.036945947 2.2152062e-39
0.13406262 -0.10999118 -0.036945947 2.1215673e-39
-0.12278374 -0.11330278 -0.04291559 7.5571578e-39
-0.12094273 -0.11330278 -0.04291559 6.5444324e-39
-0.11883117 -0.11257361 -0.039976485 1.1339325e-38
-0.11672167 -0.11182173 -0.036945947 1.7147674e-38
-0.11462434 -0.11107419 -0.033932813 2.2402833e-38
-0.1121978 -0.10935538 -0.027004845 2.341805e-38
-0.10961716 -0.10711606 -0.017978914 1.7890656e-38
-0.10756932 -0.10636975 -0.014970668 8.6779793e-39
-0.1055335 -0.10562779 -0.011980064 4.1632956e-39
-0.10350955 -0.10489015 -0.0090069845 5.6478354e-40
-0.10148942 -0.10413162 -0.0059495047 1.7608002e-39
-0.099481449 -0.10337763 -0.002910383 2.6791551e-39
-0.097492948 -0.10265306 1.0125339e-05 2.8606625e-39
-0.095291406 -0.10116716 0.0059993193 3.5035096e-39
-0.092893794 -0.098922804 0.015045576 4.6995319e-39
-0.09094584 -0.09817566 0.0180571 5.6207665e-39
-0.089074731 -0.097672105 0.020086758 5.5292925e-39
-0.087344185 -0.097672105 0.020086758 6.637082e-39
-0.085233241 -0.096197397 0.026030831 7.2846122e-39
-0.083141699 -0.094716981 0.031997912 8.5775147e-39
-0.081126139 -0.093462333 0.037055008 9.5945463e-39
-0.07942535 -0.093462333 0.037055008 7.8446328e-39
-0.07755518 -0.092724949 0.040027194 6.7386579e-39
-0.075859606 -0.092724949 0.040027194 5.814922e-39
-0.074164018 -0.092724949 0.040027194 3.6015136e-39
-0.07117407 -0.094716981 0.031997912 3.9684843e-39
-0.069464415 -0.094716981 0.031997912 4.8900706e-39
-0.06775476 -0.094716981 0.031997912 6.272275e-39
-0.066045091 -0.094716981 0.031997912 7.5622837e-39
-0.064246655 -0.094204247 0.034064583 9.2210708e-39
-0.062417407 -0.093462333 0.037055008 1.1802181e-38
-0.06071661 -0.093462333 0.037055008 1.4383648e-38
-0.059015818 -0.093462333 0.037055008 1.6595616e-38
-0.057315025 -0.093462333 0.037055008 1.8807945e-38
-0.055614229 -0.093462333 0.037055008 1.9638057e-38
-0.05381703 -0.092724949 0.040027194 1.973025e-38
-0.052027985 -0.091969252 0.04307317 2.0375975e-38
-0.050337743 -0.091969252 0.04307317 1.982245e-38
-0.048595089 -0.091490805 0.045001619 2.0928088e-38
-0.046908233 -0.091490805 0.045001619 1.9360781e-38
-0.045267019 -0.091969252 0.04307317 1.8162238e-38
-0.043576773 -0.091969252 0.04307317 1.6317972e-38
-0.041886535 -0.091969252 0.04307317 1.4013806e-38
-0.040252369 -0.092724949 0.040027194 1.3184411e-38
-0.038556784 -0.092724949 0.040027194 1.1525254e-38
-0.036950063 -0.094204247 0.034064583 8.3913311e-39
-0.035309695 -0.095443189 0.029070847 9.5895226e-39
-0.033594903 -0.095443189 0.029070847 7.7459757e-39
-0.031880111 -0.095443189 0.029070847 5.5340051e-39
-0.030165317 -0.095443189 0.029070847 3.9670451e-39
-0.028469179 -0.096197397 0.026030831 2.5837561e-39
-0.026762044 -0.09693253 0.023067765 1.2015434e-39
-0.025036726 -0.09693253 0.023067765 4.636252e-40
-0.023311408 -0.09693253 0.023067765 2.8031294e-40
-0.021586088 -0.09693253 0.023067765 7.4273023e-40
-0.019860771 -0.09693253 0.023067765 5.1609822e-42
-0.018122386 -0.097672105 0.020086758 3.7176448e-42
-0.016391842 -0.097672105 0.020086758 1.915575e-42
-0.014684817 -0.09693253 0.023067765 4.7083628e-43
-0.012959498 -0.09693253 0.023067765 1.1897024e-42
-0.011200206 -0.097672105 0.020086758 1.1883011e-42
-0.0094696609 -0.097672105 0.020086758 9.8090893e-44
-0.0077391164 -0.097672105 0.020086758 4.6180632e-40
-0.006008571 -0.097672105 0.020086758 4.7223758e-43
-0.00424066 -0.09817566 0.0180571 6.4656332e-40
-0.002506556 -0.09817566 0.0180571 4.7504018e-43
-0.00081693754 -0.097672105 0.020086758 1.9211802e-42
0.00091360882 -0.097672105 0.020086758 1.2191297e-43
0.0026957542 -0.09817566 0.0180571 9.6283217e-41
0.0045940429 -0.099674508 0.012015693 6.9191088e-39
0.0063387398 -0.099674508 0.012015693 9.5030751e-39
0.0080834348 -0.099674508 0.012015693 1.2453684e-38
0.009729851 -0.098922804 0.015045576 1.0239913e-38
0.011469238 -0.098922804 0.015045576 1.0199967e-39
0.013317525 -0.099674508 0.012015693 4.661083e-40
0.014948003 -0.098922804 0.015045576 2.2560905e-42
0.016687386 -0.098922804 0.015045576 5.5687601e-40
0.018426772 -0.098922804 0.015045576 9.5544733e-41
0.020296309 -0.099674508 0.012015693 2.7922133e-40
0.022041004 -0.099674508 0.012015693 1.8666977e-40
0.023785703 -0.099674508 0.012015693 2.7814934e-40
0.025672626 -0.10040633 0.0090659186 2.7814934e-40
0.027422495 -0.10040633 0.0090659186 2.7742907e-40
0.029172361 -0.10040633 0.0090659186 4.8204667e-43
0.031086221 -0.10116716 0.0059993193 1.2611686e-43
0.032841466 -0.10116716 0.0059993193 1.2051167e-42
0.034766849 -0.10190789 0.0030136034 4.8765187e-43
0.036527328 -0.10190789 0.0030136034 3.3659189e-42
0.038287807 -0.10190789 0.0030136034 2.8175348e-40
0.040048286 -0.10190789 0.0030136034 7.4165263e-40
0.042000979 -0.10265306 1.0125339e-05 5.5726417e-40
0.043766722 -0.10265306 1.0125339e-05 2.7995841e-40
0.045532472 -0.10265306 1.0125339e-05 9.4488154e-41
0.047500484 -0.10337763 -0.002910383 9.4125218e-41
0.049271345 -0.10337763 -0.002910383 3.7071491e-40
0.051263355 -0.10413162 -0.0059495047 1.8560478e-40
0.053039543 -0.10413162 -0.0059495047 1.2135245e-42
0.054815739 -0.10413162 -0.0059495047 2.7672141e-40
0.056591935 -0.10413162 -0.0059495047 2.7600255e-40
0.058612049 -0.10489015 -0.0090069845 1.8380692e-40
0.060635995 -0.10562779 -0.011980064 3.6747791e-40
0.062422764 -0.10562779 -0.011980064 4.6074974e-40
0.064209536 -0.10562779 -0.011980064 3.6927157e-40
0.065996304 -0.10562779 -0.011980064 1.5652504e-42
0.067783073 -0.10562779 -0.011980064 7.3840722e-40
0.069839895 -0.10636975 -0.014970668 1.1433095e-38
0.071631894 -0.10636975 -0.014970668 1.1248339e-38
0.073423907 -0.10636975 -0.014970668 4.9783132e-39
0.075215921 -0.10636975 -0.014970668 1.659625e-39
0.077300668 -0.10711606 -0.017978914 9.3886997e-44
0.079097956 -0.10711606 -0.017978914 7.3694707e-40
0.081200302 -0.10786678 -0.021004803 1.0142528e-39
0.083002895 -0.10786678 -0.021004803 9.2299326e-41
0.084805489 -0.10786678 -0.021004803 9.3886997e-44
0.086608082 -0.10786678 -0.021004803 9.2278447e-40
0.088410676 -0.10786678 -0.021004803 1.1070258e-43
0.090213269 -0.10786678 -0.021004803 1.0789998e-43
0.092343032 -0.10859586 -0.023943432 4.0623642e-42
0.094150782 -0.10859586 -0.023943432 1.3037849e-39
0.095958516 -0.10859586 -0.023943432 1.4859761e-38
0.097766265 -0.10859586 -0.023943432 1.5779541e-38
0.099936336 -0.10935538 -0.027004845 1.5870281e-38
0.10222171 -0.11033095 -0.030937083 1.5129831e-38
0.10356255 -0.10935538 -0.027004845 1.5036196e-38
0.10537566 -0.10935538 -0.027004845 1.5402832e-38
0.10768174 -0.11033095 -0.030937083 1.6141123e-38
0.10950173 -0.11033095 -0.030937083 1.512769e-38
0.11170781 -0.11107419 -0.033932813 1.448411e-38
0.11353306 -0.11107419 -0.033932813 1.4301862e-38
0.11535832 -0.11107419 -0.033932813 1.4948305e-38
0.11718358 -0.11107419 -0.033932813 1.34739e-38
0.11941828 -0.11182173 -0.036945947 1.2183175e-38
0.12124883 -0.11182173 -0.036945947 1.0982857e-38
0.12307936 -0.11182173 -0.036945947 1.0239386e-39
0.12490991 -0.11182173 -0.036945947 5.1049303e-42
0.12630989 -0.11107419 -0.033932813 1.9390397e-39
0.12813514 -0.11107419 -0.033932813 1.6627864e-39
0.1299604 -0.11107419 -0.033932813 9.2484157e-40
0.13178566 -0.11107419 -0.033932813 1.9386194e-39
-0.12250289 -0.11440946 -0.039976485 6.5430044e-39
-0.12066703 -0.11440946 -0.039976485 5.8983399e-39
-0.11883117 -0.11440946 -0.039976485 1.2353113e-38
-0.11672167 -0.11365227 -0.036945947 1.8346211e-38
-0.11462434 -0.11289944 -0.033932813 2.3509527e-38
-0.1121978 -0.11116849 -0.027004845 2.3418045e-38
-0.10961716 -0.10891335 -0.017978914 2.0009337e-38
-0.10732026 -0.10741456 -0.011980064 1.8905547e-38
-0.1052911 -0.10667174 -0.0090069845 1.3745129e-38
-0.10350955 -0.10667174 -0.0090069845 9.9651084e-39
-0.10148942 -0.10590781 -0.0059495047 6.0010579e-39
-0.099481449 -0.10514848 -0.002910383 3.5121388e-39
-0.097492948 -0.1044188 1.0125339e-05 1.3916421e-39
-0.095291406 -0.10292239 0.0059993193 1.75971e-39
-0.092679948 -0.099909768 0.0180571 3.6032666e-39
-0.090805262 -0.099402651 0.020086758 5.0769604e-39
-0.089074731 -0.099402651 0.020086758 2.8624674e-39
-0.087148175 -0.098657846 0.023067765 2.8610325e-39
-0.085038677 -0.09715797 0.029070847 4.5191147e-39
-0.083013073 -0.095910296 0.034064583 7.0991532e-39
-0.080946356 -0.094420537 0.040027194 9.0334635e-39
-0.079250768 -0.094420537 0.040027194 9.7703097e-39
-0.077381611 -0.09365949 0.04307317 1.1063214e-38
-0.075584859 -0.093177676 0.045001619 8.487868e-39
-0.073898003 -0.093177676 0.045001619 6.5535632e-39
-0.072211146 -0.093177676 0.045001619 5.8152751e-39
-0.070772856 -0.094420537 0.040027194 4.1546706e-39
-0.069077268 -0.094420537 0.040027194 4.3376171e-39
-0.067519784 -0.095163137 0.037055008 6.2726407e-39
-0.065818995 -0.095163137 0.037055008 7.6534116e-39
-0.064118199 -0.095163137 0.037055008 9.0352586e-39
-0.062417407 -0.095163137 0.037055008 8.6650342e-39
-0.060599361 -0.094420537 0.040027194 1.1706047e-38
-0.058903776 -0.094420537 0.040027194 1.502437e-38
-0.057208195 -0.094420537 0.040027194 1.8804028e-38
-0.055512611 -0.094420537 0.040027194 1.9264283e-38
-0.053718228 -0.09365949 0.04307317 1.723598e-38
-0.052027985 -0.09365949 0.04307317 1.6589891e-38
-0.050337743 -0.09365949 0.04307317 1.4655578e-38
-0.048647501 -0.09365949 0.04307317 1.2812743e-38
-0.046957258 -0.09365949 0.04307317 1.1615279e-38
-0.045267019 -0.09365949 0.04307317 1.0601847e-38
-0.043576773 -0.09365949 0.04307317 9.3107525e-39
-0.041886535 -0.09365949 0.04307317 7.8363497e-39
-0.040252369 -0.094420537 0.040027194 7.2835416e-39
-0.038556784 -0.094420537 0.040027194 6.6385394e-39
-0.036950063 -0.095910296 0.034064583 5.0715836e-39
-0.035271205 -0.096426651 0.031997912 2.5826687e-39
-0.033594903 -0.09715797 0.029070847 1.4770485e-39
-0.031880111 -0.09715797 0.029070847 8.3168886e-40
-0.030165317 -0.09715797 0.029070847 7.3986037e-40
-0.028469179 -0.097917527 0.026030831 8.3170147e-40
-0.026749056 -0.097917527 0.026030831 9.249789e-40
-0.025028933 -0.097917527 0.026030831 2.123169e-39
-0.02330881 -0.097917527 0.026030831 3.2313116e-39
-0.021588687 -0.097917527 0.026030831 5.5907044e-40
-0.019860771 -0.098657846 0.023067765 2.8356115e-40
-0.018135453 -0.098657846 0.023067765 5.5942497e-40
-0.016410135 -0.098657846 0.023067765 4.8106576e-42
-0.014684817 -0.098657846 0.023067765 1.2471556e-43
-0.012959498 -0.098657846 0.023067765 1.1995115e-42
-0.01123418 -0.098657846 0.023067765 3.707009e-40
-0.0094696609 -0.099402651 0.020086758 3.696219e-40
-0.0077391164 -0.099402651 0.020086758 1.1210388e-43
-0.006008571 -0.099402651 0.020086758 1.0649868e-43
-0.0042780265 -0.099402651 0.020086758 2.7742907e-40
-0.002547482 -0.099402651 0.020086758 1.8667538e-40
-0.00081693754 -0.099402651 0.020086758 5.5582223e-40
0.00091360882 -0.099402651 0.020086758 1.5708556e-42
0.0026957542 -0.099909768 0.0180571 7.412995e-40
0.0045117009 -0.10066219 0.015045576 9.3169252e-39
0.0063387398 -0.10141921 0.012015693 1.1437049e-38
0.0080834348 -0.10141921 0.012015693 1.1713986e-38
0.009729851 -0.10066219 0.015045576 8.5786189e-39
0.011469238 -0.10066219 0.015045576 5.5760188e-40
0.013317525 -0.10141921 0.012015693 1.1911037e-42
0.014948003 -0.10066219 0.015045576 1.1070258e-43
0.016687386 -0.10066219 0.015045576 2.7958427e-40
0.018426772 -0.10066219 0.015045576 6.4765072e-40
0.020296309 -0.10141921 0.012015693 8.4498297e-43
0.022041004 -0.10141921 0.012015693 1.2191297e-43
0.023785703 -0.10141921 0.012015693 1.1911037e-43
0.025530398 -0.10141921 0.012015693 8.4218038e-43
0.027422495 -0.10215621 0.0090659186 9.2316142e-41
0.029172361 -0.10215621 0.0090659186 1.2051167e-43
0.031086221 -0.10292239 0.0059993193 9.2672071e-41
0.032841466 -0.10292239 0.0059993193 2.7814934e-40
0.034596711 -0.10292239 0.0059993193 1.206518e-42
0.036527328 -0.10366838 0.0030136034 4.4491226e-42
0.038287807 -0.10366838 0.0030136034 4.6650767e-40
0.040048286 -0.10366838 0.0030136034 5.5798444e-40
0.042000979 -0.1044188 1.0125339e-05 5.1665874e-42
0.043766722 -0.1044188 1.0125339e-05 2.6470528e-42
0.045532472 -0.1044188 1.0125339e-05 1.9281867e-42
0.047298215 -0.1044188 1.0125339e-05 2.6470528e-42
0.049271345 -0.10514848 -0.002910383 2.7923534e-40
0.051042214 -0.10514848 -0.002910383 1.929588e-42
0.053039543 -0.10590781 -0.0059495047 8.5339076e-43
0.054815739 -0.10590781 -0.0059495047 8.5339076e-43
0.056591935 -0.10590781 -0.0059495047 1.3592595e-43
0.058612049 -0.10667174 -0.0090069845 1.3032076e-43
0.060635995 -0.10741456 -0.011980064 1.3172206e-43
0.062422764 -0.10741456 -0.011980064 1.3172206e-43
0.064209536 -0.10741456 -0.011980064 4.8905316e-43
0.065996304 -0.10741456 -0.011980064 1.1210388e-43
0.067783073 -0.10741456 -0.011980064 1.8667257e-40
0.069839895 -0.10816176 -0.014970668 8.3917179e-39
0.071631894 -0.10816176 -0.014970668 8.0222137e-39
0.073423907 -0.10816176 -0.014970668 5.532566e-39
0.075215921 -0.10816176 -0.014970668 1.9358546e-39
0.077300668 -0.10891335 -0.017978914 1.3823193e-39
0.079097956 -0.10891335 -0.017978914 6.4403537e-40
0.080895245 -0.10891335 -0.017978914 9.2485699e-44
0.082692534 -0.10891335 -0.017978914 1.7503843e-39
0.084489822 -0.10891335 -0.017978914 5.5148802e-40
0.086287111 -0.10891335 -0.017978914 5.5149082e-40
0.088410676 -0.10966937 -0.021004803 1.837859e-40
0.090213269 -0.10966937 -0.021004803 1.1350518e-43
0.092343032 -0.11040358 -0.023943432 1.9099698e-42
0.094150782 -0.11040358 -0.023943432 2.6849131e-39
0.095958516 -0.11040358 -0.023943432 1.4489168e-38
0.098123223 -0.11116849 -0.027004845 1.4948328e-38
0.10040171 -0.11215095 -0.030937083 1.4393338e-38
0.10222171 -0.11215095 -0.030937083 1.3652894e-38
0.10404173 -0.11215095 -0.030937083 1.466489e-38
0.10586172 -0.11215095 -0.030937083 1.475494e-38
0.10768174 -0.11215095 -0.030937083 1.5953129e-38
0.10988255 -0.11289944 -0.033932813 1.5492869e-38
0.11170781 -0.11289944 -0.033932813 1.5955638e-38
0.11353306 -0.11289944 -0.033932813 1.5589353e-38
0.11535832 -0.11289944 -0.033932813 1.5774815e-38
0.11718358 -0.11289944 -0.033932813 1.5591149e-38
0.11941828 -0.11365227 -0.036945947 1.3470661e-38
0.12124883 -0.11365227 -0.036945947 1.1901916e-38
0.12307936 -0.11365227 -0.036945947 1.2979933e-39
0.12448463 -0.11289944 -0.033932813 5.5791437e-40
0.12630989 -0.11289944 -0.033932813 1.9390397e-39
0.1277018 -0.11215095 -0.030937083 1.9393733e-39
0.12952182 -0.11215095 -0.030937083 9.2556044e-40
0.13134181 -0.11215095 -0.030937083 1.2010543e-39
-0.12250289 -0.11624531 -0.039976485 7.2816499e-39
-0.12066703 -0.11624531 -0.039976485 5.7146717e-39
-0.11883117 -0.11624531 -0.039976485 1.0048585e-38
-0.11672167 -0.11548282 -0.036945947 1.4934973e-38
-0.11462434 -0.11472471 -0.033932813 2.3232944e-38
-0.11253908 -0.11397095 -0.030937083 2.3418045e-38
-0.10961716 -0.11071064 -0.017978914 2.3142544e-38
-0.10732026 -0.10920133 -0.011980064 2.2775202e-38
-0.1052911 -0.10845329 -0.0090069845 2.2131277e-38
-0.10326563 -0.107684 -0.0059495047 2.2316024e-38
-0.10148942 -0.107684 -0.0059495047 1.5218087e-38
-0.099481449 -0.10691936 -0.002910383 8.0279184e-39
-0.097492948 -0.10618456 1.0125339e-05 2.4050752e-39
-0.095291406 -0.10467763 0.0059993193 2.1295785e-39
-0.092679948 -0.10164386 0.0180571 5.4489855e-39
-0.090805262 -0.1011332 0.020086758 5.4489883e-39
-0.088673487 -0.099637643 0.026030831 2.6816803e-39
-0.086753473 -0.098872766 0.029070847 2.6795223e-39
-0.084719107 -0.09761633 0.034064583 3.9673814e-39
-0.082826927 -0.096863925 0.037055008 4.5165993e-39
-0.080946356 -0.096116111 0.040027194 4.6981109e-39
-0.07907185 -0.095349744 0.04307317 7.0919575e-39
-0.07727173 -0.094864532 0.045001619 1.1059611e-38
-0.075584859 -0.094864532 0.045001619 9.5916834e-39
-0.073898003 -0.094864532 0.045001619 1.0148459e-38
-0.072211146 -0.094864532 0.045001619 7.8428489e-39
-0.070524275 -0.094864532 0.045001619 8.3027481e-39
-0.069077268 -0.096116111 0.040027194 7.5637439e-39
-0.067519784 -0.096863925 0.037055008 1.4477336e-38
-0.065818995 -0.096863925 0.037055008 1.4198951e-38
-0.063990526 -0.096116111 0.040027194 1.5027991e-38
-0.062294941 -0.096116111 0.040027194 1.0416769e-38
-0.060599361 -0.096116111 0.040027194 9.216787e-39
-0.058788955 -0.095349744 0.04307317 7.0952085e-39
-0.057098713 -0.095349744 0.04307317 7.1866881e-39
-0.05540847 -0.095349744 0.04307317 5.2502197e-39
-0.053718228 -0.095349744 0.04307317 2.4829145e-39
-0.052027985 -0.095349744 0.04307317 2.2063276e-39
-0.050337743 -0.095349744 0.04307317 7.3478626e-40
-0.04873028 -0.096116111 0.040027194 6.4294376e-40
-0.047034699 -0.096116111 0.040027194 3.6815053e-40
-0.045339115 -0.096116111 0.040027194 3.6815334e-40
-0.04364353 -0.096116111 0.040027194 1.8412361e-40
-0.04194795 -0.096116111 0.040027194 9.2293721e-41
-0.040252369 -0.096116111 0.040027194 8.239635e-43
-0.03860629 -0.096863925 0.037055008 1.1883011e-42
-0.036950063 -0.09761633 0.034064583 1.1953076e-42
-0.035271205 -0.098136306 0.031997912 6.4765353e-40
-0.033561543 -0.098136306 0.031997912 3.7143097e-40
-0.03185188 -0.098136306 0.031997912 4.6399655e-40
-0.030142222 -0.098136306 0.031997912 1.2019259e-39
-0.028450523 -0.098872766 0.029070847 1.8469436e-39
-0.02673573 -0.098872766 0.029070847 2.7699817e-39
-0.025028933 -0.099637643 0.026030831 5.1667122e-39
-0.023306144 -0.098872766 0.029070847 7.2886438e-39
-0.021591352 -0.098872766 0.029070847 7.8436028e-39
-0.019868564 -0.099637643 0.026030831 7.7524764e-39
-0.018135453 -0.10038316 0.023067765 7.2907821e-39
-0.016410135 -0.10038316 0.023067765 4.7082255e-39
-0.014684817 -0.10038316 0.023067765 1.1111582e-39
-0.012959498 -0.10038316 0.023067765 2.6470528e-42
-0.01123418 -0.10038316 0.023067765 2.6484541e-42
-0.0095088612 -0.10038316 0.023067765 1.9281867e-42
-0.0077835433 -0.10038316 0.023067765 4.6326227e-40
-0.0060582254 -0.10038316 0.023067765 4.8484927e-43
-0.0043329075 -0.10038316 0.023067765 4.625434e-40
-0.002547482 -0.1011332 0.020086758 1.2079193e-42
-0.00081693754 -0.1011332 0.020086758 1.9281867e-42
0.00091360882 -0.1011332 0.020086758 1.5708556e-42
0.0026957542 -0.10164386 0.0180571 2.0316782e-39
0.0045117009 -0.10240157 0.015045576 1.2450498e-38
0.0062510837 -0.10240157 0.015045576 1.1712917e-38
0.0080834348 -0.10316391 0.012015693 5.3517718e-39
0.009729851 -0.10240157 0.015045576 5.5652288e-40
0.011469238 -0.10240157 0.015045576 1.0369609e-43
0.013317525 -0.10316391 0.012015693 8.3276085e-40
0.014948003 -0.10240157 0.015045576 4.6326227e-40
0.016687386 -0.10240157 0.015045576 8.4778557e-43
0.018426772 -0.10240157 0.015045576 1.5652504e-42
0.020296309 -0.10316391 0.012015693 3.7034777e-40
0.022041004 -0.10316391 0.012015693 1.2191297e-43
0.023785703 -0.10316391 0.012015693 1.1350518e-43
0.025530398 -0.10316391 0.012015693 1.1770907e-43
0.027422495 -0.10390608 0.0090659186 9.3035008e-41
0.029172361 -0.10390608 0.0090659186 1.8523064e-40
0.031086221 -0.10467763 0.0059993193 6.4728779e-40
0.032841466 -0.10467763 0.0059993193 1.2933831e-39
0.034596711 -0.10467763 0.0059993193 1.4799407e-39
0.036527328 -0.10542886 0.0030136034 1.8494477e-39
0.038287807 -0.10542886 0.0030136034 1.9416406e-39
0.040048286 -0.10542886 0.0030136034 1.1111582e-39
0.042000979 -0.10618456 1.0125339e-05 4.0875876e-42
0.043766722 -0.10618456 1.0125339e-05 1.2051167e-42
0.045532472 -0.10618456 1.0125339e-05 1.5610465e-42
0.047298215 -0.10618456 1.0125339e-05 4.6289653e-40
0.049271345 -0.10691936 -0.002910383 2.7742346e-40
0.051042214 -0.10691936 -0.002910383 9.2672071e-41
0.052813083 -0.10691936 -0.002910383 1.837887e-40
0.054583952 -0.10691936 -0.002910383 4.6001966e-40
0.056354813 -0.10691936 -0.002910383 1.8451457e-40
0.058612049 -0.10845329 -0.0090069845 1.2331426e-43
0.060393602 -0.10845329 -0.0090069845 1.2611686e-43
0.062422764 -0.10920133 -0.011980064 8.4778557e-43
0.064209536 -0.10920133 -0.011980064 1.9225815e-42
0.066255867 -0.10995375 -0.014970668 2.2757087e-42
0.068047881 -0.10995375 -0.014970668 1.9141737e-42
0.070111528 -0.11071064 -0.017978914 1.0509738e-43
0.071908817 -0.11071064 -0.017978914 4.6216645e-40
0.073423907 -0.10995375 -0.014970668 1.1986256e-38
0.075215921 -0.10995375 -0.014970668 1.5949945e-38
0.077007934 -0.10995375 -0.014970668 1.8347009e-38
0.079097956 -0.11071064 -0.017978914 1.6226169e-38
0.080895245 -0.11071064 -0.017978914 9.2485699e-44
0.082692534 -0.11071064 -0.017978914 9.8090893e-44
0.084489822 -0.11071064 -0.017978914 8.2879097e-40
0.086287111 -0.11071064 -0.017978914 1.0649868e-43
0.088410676 -0.11147197 -0.021004803 3.674611e-40
0.090213269 -0.11147197 -0.021004803 4.5965953e-40
0.092343032 -0.11221133 -0.023943432 1.0649868e-43
0.094150782 -0.11221133 -0.023943432 5.1731091e-39
0.095958516 -0.11221133 -0.023943432 1.5317124e-38
0.098123223 -0.1129816 -0.027004845 1.5315667e-38
0.10040171 -0.11397095 -0.030937083 1.4943995e-38
0.10222171 -0.11397095 -0.030937083 1.5218059e-38
0.10404173 -0.11397095 -0.030937083 1.761263e-38
0.10586172 -0.11397095 -0.030937083 1.696619e-38
0.10768174 -0.11397095 -0.030937083 1.7703758e-38
0.10988255 -0.11472471 -0.033932813 1.7335336e-38
0.11170781 -0.11472471 -0.033932813 1.7706266e-38
0.11353306 -0.11472471 -0.033932813 1.5771585e-38
0.11535832 -0.11472471 -0.033932813 1.4113135e-38
0.11718358 -0.11472471 -0.033932813 1.4943259e-38
0.11900884 -0.11472471 -0.033932813 1.3375584e-38
0.1208341 -0.11472471 -0.033932813 1.2452926e-38
0.12265936 -0.11472471 -0.033932813 1.7568079e-39
0.12448463 -0.11472471 -0.033932813 6.4939394e-40
0.12588181 -0.11397095 -0.030937083 2.3078237e-39
0.1277018 -0.11397095 -0.030937083 3.4148565e-39
0.12952182 -0.11397095 -0.030937083 2.8613043e-39
0.13134181 -0.11397095 -0.030937083 2.3988786e-39
-0.1222133 -0.11731337 -0.036945947 6.8224766e-39
-0.12038276 -0.11731337 -0.036945947 6.9150212e-39
-0.11855221 -0.11731337 -0.036945947 6.1781778e-39
-0.11672167 -0.11731337 -0.036945947 1.3461652e-38
-0.11462434 -0.11654995 -0.033932813 2.2957438e-38
-0.11253908 -0.11579098 -0.030937083 2.3142544e-38
-0.10961716 -0.11250792 -0.017978914 2.2958873e-38
-0.10707265 -0.11023484 -0.0090069845 2.2775202e-38
-0.1052911 -0.11023484 -0.0090069845 2.240786e-38
-0.10326563 -0.10946019 -0.0059495047 2.2775202e-38
-0.10148942 -0.10946019 -0.0059495047 1.5306317e-38
-0.099481449 -0.10869022 -0.002910383 1.2447553e-38
-0.097492948 -0.10795029 1.0125339e-05 4.6116606e-39
-0.095291406 -0.1064329 0.0059993193 3.4142077e-39
-0.092535809 -0.10286374 0.020086758 6.4573921e-39
-0.090598822 -0.10210848 0.023067765 6.2747987e-39
-0.088468269 -0.10058756 0.029070847 2.772441e-39
-0.086561024 -0.099845976 0.031997912 2.4958513e-39
-0.084527731 -0.098564714 0.037055008 3.32417e-39
-0.082641929 -0.097811699 0.040027194 3.1361774e-39
-0.080762103 -0.097039983 0.04307317 3.1332964e-39
-0.07907185 -0.097039983 0.04307317 5.1587205e-39
-0.07727173 -0.096551389 0.045001619 8.755069e-39
-0.075418353 -0.09578757 0.048016421 8.9437762e-39
-0.073736787 -0.09578757 0.048016421 9.2228841e-39
-0.072055206 -0.09578757 0.048016421 7.1013112e-39
-0.070373625 -0.09578757 0.048016421 4.7038731e-39
-0.068930402 -0.097039983 0.04307317 4.9801068e-39
-0.067381695 -0.097811699 0.040027194 6.0860999e-39
-0.065686107 -0.097811699 0.040027194 6.3626896e-39
-0.063859679 -0.097039983 0.04307317 5.2556259e-39
-0.062169436 -0.097039983 0.04307317 2.6741483e-39
-0.060479194 -0.097039983 0.04307317 2.0276999e-39
-0.058788955 -0.097039983 0.04307317 1.4738073e-39
-0.057098713 -0.097039983 0.04307317 7.3552475e-40
-0.05540847 -0.097039983 0.04307317 1.837887e-40
-0.053718228 -0.097039983 0.04307317 8.2664698e-40
-0.051968813 -0.096551389 0.045001619 1.0106851e-39
-0.050281953 -0.096551389 0.045001619 1.1911037e-43
-0.048647501 -0.097039983 0.04307317 3.674667e-40
-0.047034699 -0.097811699 0.040027194 9.2316142e-41
-0.045339115 -0.097811699 0.040027194 1.2051167e-43
-0.04364353 -0.097811699 0.040027194 1.1911037e-43
-0.04194795 -0.097811699 0.040027194 4.8204667e-43
-0.040252369 -0.097811699 0.040027194 1.2009128e-42
-0.03860629 -0.098564714 0.037055008 1.9239828e-42
-0.036905497 -0.098564714 0.037055008 2.6456515e-42
-0.035244029 -0.099322364 0.034064583 9.6283217e-41
-0.033561543 -0.099845976 0.031997912 4.4533265e-42
-0.03185188 -0.099845976 0.031997912 1.203721e-39
-0.030142222 -0.099845976 0.031997912 4.6652169e-40
-0.028432561 -0.099845976 0.031997912 1.1118939e-39
-0.02673573 -0.10058756 0.029070847 3.6019004e-39
-0.025020938 -0.10058756 0.029070847 4.8004464e-39
-0.023306144 -0.10058756 0.029070847 6.7376196e-39
-0.021591352 -0.10058756 0.029070847 6.6475525e-39
-0.019868564 -0.10135777 0.026030831 7.938999e-39
-0.018148441 -0.10135777 0.026030831 7.754256e-39
-0.016428318 -0.10135777 0.026030831 6.7386762e-39
-0.014708195 -0.10135777 0.026030831 5.3546711e-39
-0.012988072 -0.10135777 0.026030831 2.4033376e-39
-0.011267949 -0.10135777 0.026030831 1.8992359e-40
-0.0095478259 -0.10135777 0.026030831 5.5798444e-40
-0.0078277029 -0.10135777 0.026030831 1.9281867e-42
-0.0060582254 -0.10210848 0.023067765 7.4020929e-40
-0.0043329075 -0.10210848 0.023067765 4.6397833e-40
-0.0026075877 -0.10210848 0.023067765 2.9973774e-42
-0.00081693754 -0.10286374 0.020086758 1.1630777e-43
0.00091360882 -0.10286374 0.020086758 1.5696098e-39
0.0026957542 -0.10337795 0.0180571 5.4414703e-39
0.0045117009 -0.10414095 0.015045576 1.2264653e-38
0.0062510837 -0.10414095 0.015045576 1.2818525e-38
0.0079904683 -0.10414095 0.015045576 2.5851645e-39
0.009729851 -0.10414095 0.015045576 8.1555571e-43
0.011469238 -0.10414095 0.015045576 1.1868998e-42
0.013317525 -0.1049086 0.012015693 2.7742346e-40
0.014948003 -0.10414095 0.015045576 8.3060285e-40
0.016687386 -0.10414095 0.015045576 1.1911037e-43
0.018426772 -0.10414095 0.015045576 5.5329709e-40
0.020296309 -0.1049086 0.012015693 1.8451177e-40
0.022041004 -0.1049086 0.012015693 1.1210388e-43
0.023785703 -0.1049086 0.012015693 4.7363888e-43
0.025672626 -0.10565595 0.0090659186 1.1070258e-43
0.027422495 -0.10565595 0.0090659186 1.5582439e-42
0.029172361 -0.10565595 0.0090659186 9.2460055e-40
0.031086221 -0.1064329 0.0059993193 7.4093376e-40
0.032841466 -0.1064329 0.0059993193 9.2569076e-40
0.034596711 -0.1064329 0.0059993193 4.4589317e-42
0.036527328 -0.10718934 0.0030136034 2.1256801e-39
0.038287807 -0.10718934 0.0030136034 1.7561759e-39
0.040048286 -0.10718934 0.0030136034 2.8032135e-40
0.042000979 -0.10795029 1.0125339e-05 6.4801786e-40
0.043766722 -0.10795029 1.0125339e-05 4.625406e-40
0.045532472 -0.10795029 1.0125339e-05 1.1350518e-43
0.047298215 -0.10795029 1.0125339e-05 7.362324e-40
0.049271345 -0.10869022 -0.002910383 6.4294656e-40
0.051042214 -0.10869022 -0.002910383 1.3790697e-39
0.052813083 -0.10869022 -0.002910383 1.4712639e-39
0.054583952 -0.10869022 -0.002910383 1.1032002e-39
0.056354813 -0.10869022 -0.002910383 2.303184e-39
0.058612049 -0.11023484 -0.0090069845 1.9358462e-39
0.060393602 -0.11023484 -0.0090069845 2.9510841e-39
0.062422764 -0.1109881 -0.011980064 4.6242849e-43
0.064209536 -0.1109881 -0.011980064 2.2673009e-42
0.066255867 -0.11174576 -0.014970668 2.6260333e-42
0.068047881 -0.11174576 -0.014970668 4.6432445e-40
0.070111528 -0.11250792 -0.017978914 5.5579561e-40
0.071908817 -0.11250792 -0.017978914 9.2485699e-44
0.07370609 -0.11250792 -0.017978914 1.5397121e-38
0.075215921 -0.11174576 -0.014970668 1.6687859e-38
0.077007934 -0.11174576 -0.014970668 1.6781131e-38
0.079097956 -0.11250792 -0.017978914 1.6044287e-38
0.080895245 -0.11250792 -0.017978914 8.0714792e-43
0.082692534 -0.11250792 -0.017978914 2.2546892e-42
0.084489822 -0.11250792 -0.017978914 2.6176255e-42
0.086287111 -0.11250792 -0.017978914 2.263097e-42
0.088410676 -0.11327456 -0.021004803 4.6943499e-43
0.090213269 -0.11327456 -0.021004803 4.7223758e-43
0.092343032 -0.11401908 -0.023943432 1.8987594e-42
0.094150782 -0.11401908 -0.023943432 6.8311871e-39
0.096310109 -0.11479472 -0.027004845 1.5130572e-38
0.098581702 -0.11579098 -0.030937083 1.5128766e-38
0.10040171 -0.11579098 -0.030937083 1.6140751e-38
0.10222171 -0.11579098 -0.030937083 1.503188e-38
0.10404173 -0.11579098 -0.030937083 1.7150935e-38
0.10586172 -0.11579098 -0.030937083 1.7334607e-38
0.10768174 -0.11579098 -0.030937083 1.6136781e-38
0.10988255 -0.11654995 -0.033932813 1.8258e-38
0.11170781 -0.11654995 -0.033932813 1.8167599e-38
0.11353306 -0.11654995 -0.033932813 1.6416958e-38
0.11535832 -0.11654995 -0.033932813 1.4389017e-38
0.11718358 -0.11654995 -0.033932813 1.4665607e-38
0.11900884 -0.11654995 -0.033932813 1.3373798e-38
0.1208341 -0.11654995 -0.033932813 1.2728077e-38
0.12265936 -0.11654995 -0.033932813 1.4787819e-39
0.12448463 -0.11654995 -0.033932813 4.6392788e-40
0.12588181 -0.11579098 -0.030937083 4.0595434e-39
0.1277018 -0.11579098 -0.030937083 3.0460599e-39
0.12952182 -0.11579098 -0.030937083 3.2297127e-39
-0.12192537 -0.11837523 -0.033932813 9.6819831e-39
-0.12010011 -0.11837523 -0.033932813 7.930615e-39
-0.11827485 -0.11837523 -0.033932813 1.4772853e-39
-0.11644959 -0.11837523 -0.033932813 4.150981e-39
-0.11462434 -0.11837523 -0.033932813 1.5675437e-38
-0.11253908 -0.11761098 -0.030937083 1.9548722e-38
-0.10961716 -0.11430521 -0.017978914 2.2683365e-38
-0.10707265 -0.11201639 -0.0090069845 2.2407851e-38
-0.1052911 -0.11201639 -0.0090069845 2.2407854e-38
-0.10326563 -0.11123641 -0.0059495047 2.2958873e-38
-0.10148942 -0.11123641 -0.0059495047 1.4752056e-38
-0.099481449 -0.11046107 -0.002910383 1.1154651e-38
-0.097492948 -0.10971604 1.0125339e-05 6.637082e-39
-0.095291406 -0.10818814 0.0059993193 6.8225663e-39
-0.092535809 -0.10459428 0.020086758 4.98046e-39
-0.090393603 -0.1030779 0.026030831 4.983697e-39
-0.088468269 -0.10230236 0.029070847 2.0348731e-39
-0.086561024 -0.10155563 0.031997912 1.4827728e-39
-0.084527731 -0.10026552 0.037055008 2.0345018e-39
-0.082641929 -0.099507287 0.040027194 2.5855148e-39
-0.080762103 -0.098730221 0.04307317 3.3202001e-39
-0.07907185 -0.098730221 0.04307317 4.5158637e-39
-0.07727173 -0.09823826 0.045001619 7.1888139e-39
-0.075418353 -0.097469151 0.048016421 4.1492307e-39
-0.073736787 -0.097469151 0.048016421 2.3985942e-39
-0.071900249 -0.096704841 0.051012389 8.3056081e-40
-0.070223927 -0.096704841 0.051012389 1.292269e-39
-0.068692058 -0.097469151 0.048016421 1.8447366e-39
-0.067150563 -0.09823826 0.045001619 5.5436488e-40
-0.065463692 -0.09823826 0.045001619 4.7644148e-43
-0.063776836 -0.09823826 0.045001619 1.8523064e-40
-0.06208998 -0.09823826 0.045001619 5.5401316e-40
-0.06040312 -0.09823826 0.045001619 9.303781e-41
-0.058788955 -0.098730221 0.04307317 9.2318944e-41
-0.057098713 -0.098730221 0.04307317 1.2611686e-43
-0.05540847 -0.098730221 0.04307317 9.1963014e-41
-0.053718228 -0.098730221 0.04307317 7.3626043e-40
-0.051968813 -0.09823826 0.045001619 1.1965225e-39
-0.050281953 -0.09823826 0.045001619 3.6748071e-40
-0.048647501 -0.098730221 0.04307317 1.2751816e-43
-0.047034699 -0.099507287 0.040027194 1.2751816e-43
-0.045339115 -0.099507287 0.040027194 4.8905316e-43
-0.04364353 -0.099507287 0.040027194 9.376088e-41
-0.04194795 -0.099507287 0.040027194 1.8667538e-40
-0.040252369 -0.099507287 0.040027194 3.7142677e-40
-0.03860629 -0.10026552 0.037055008 2.8031014e-40
-0.036905497 -0.10026552 0.037055008 2.8102901e-40
-0.035244029 -0.1010284 0.034064583 5.1651861e-42
-0.033537988 -0.1010284 0.034064583 3.7466797e-40
-0.03185188 -0.10155563 0.031997912 2.0338334e-39
-0.030142222 -0.10155563 0.031997912 1.573221e-39
-0.028432561 -0.10155563 0.031997912 2.1274752e-39
-0.026722901 -0.10155563 0.031997912 4.8007925e-39
-0.025020938 -0.10230236 0.029070847 6.3688399e-39
-0.023306144 -0.10230236 0.029070847 8.6740767e-39
-0.021591352 -0.10230236 0.029070847 8.1223113e-39
-0.019876558 -0.10230236 0.029070847 9.4134004e-39
-0.018161766 -0.10230236 0.029070847 9.7818326e-39
-0.016428318 -0.1030779 0.026030831 9.8729604e-39
-0.014708195 -0.1030779 0.026030831 1.0610177e-38
-0.012988072 -0.1030779 0.026030831 9.4101998e-39
-0.011267949 -0.1030779 0.026030831 4.4316386e-39
-0.0095478259 -0.1030779 0.026030831 4.4491226e-42
-0.0078277029 -0.1030779 0.026030831 4.44632e-42
-0.0061075799 -0.1030779 0.026030831 8.4498297e-43
-0.0043329075 -0.10383381 0.023067765 1.5596452e-42
-0.0026075877 -0.10383381 0.023067765 2.6400463e-42
-0.00088226981 -0.10383381 0.023067765 1.9169763e-42
0.00091360882 -0.10459428 0.020086758 5.8113221e-39
0.0026957542 -0.10511206 0.0180571 8.5764721e-39
0.0045117009 -0.10588033 0.015045576 1.1250853e-38
0.0062510837 -0.10588033 0.015045576 9.3150825e-39
0.0079904683 -0.10588033 0.015045576 1.0174702e-39
0.0098281316 -0.10665329 0.012015693 8.8281803e-44
0.011572827 -0.10665329 0.012015693 1.0369609e-43
0.013317525 -0.10665329 0.012015693 4.7644148e-43
0.014948003 -0.10588033 0.015045576 5.5329709e-40
0.016687386 -0.10588033 0.015045576 1.1630777e-43
0.018426772 -0.10588033 0.015045576 1.8451457e-40
0.020296309 -0.10665329 0.012015693 9.2672071e-41
0.022041004 -0.10665329 0.012015693 9.3389536e-41
0.023785703 -0.10665329 0.012015693 4.6324825e-40
0.025672626 -0.10740583 0.0090659186 5.5580682e-40
0.027422495 -0.10740583 0.0090659186 1.9197789e-42
0.029172361 -0.10740583 0.0090659186 9.6283217e-41
0.031086221 -0.10818814 0.0059993193 3.2305843e-39
