# .PCD v0.7 - Point Cloud Data file format
VERSION 0.7
FIELDS x y z rgb
SIZE 4 4 4 4
TYPE F F F F
COUNT 1 1 1 1
WIDTH 920
HEIGHT 1
VIEWPOINT 0 0 0 1 0 0 0
POINTS 920
DATA ascii
0.016165869 -0.073650107 -0.025522724 2.3509886e-38
0.018013986 -0.073650107 -0.025522724 2.3509886e-38
0.019862102 -0.073650107 -0.025522724 2.3509883e-38
0.021710223 -0.073650107 -0.025522724 2.3509883e-38
0.023327297 -0.072800577 -0.021468177 2.3509886e-38
0.025168305 -0.072800577 -0.021468177 2.3509886e-38
0.027009318 -0.072800577 -0.021468177 2.3509886e-38
0.028667385 -0.072184771 -0.018529072 2.3509886e-38
0.030503245 -0.072184771 -0.018529072 2.3509886e-38
0.032139838 -0.071549803 -0.015498534 2.3509886e-38
0.033970378 -0.071549803 -0.015498534 2.3509886e-38
0.035800919 -0.071549803 -0.015498534 2.3509886e-38
0.037631467 -0.071549803 -0.015498534 2.3509527e-38
0.039462008 -0.071549803 -0.015498534 2.3509167e-38
0.041292548 -0.071549803 -0.015498534 2.3324775e-38
0.043123089 -0.071549803 -0.015498534 2.3509167e-38
0.044953637 -0.071549803 -0.015498534 2.3509527e-38
0.047025941 -0.072184771 -0.018529072 2.3509527e-38
0.04910142 -0.072800577 -0.021468177 2.3509527e-38
0.050697662 -0.072184771 -0.018529072 2.3509527e-38
0.052533515 -0.072184771 -0.018529072 2.3509527e-38
0.054369368 -0.072184771 -0.018529072 2.3141467e-38
0.056205221 -0.072184771 -0.018529072 2.341805e-38
0.058041073 -0.072184771 -0.018529072 2.341805e-38
0.060520701 -0.073650107 -0.025522724 2.3326213e-38
0.062368818 -0.073650107 -0.025522724 2.3050347e-38
0.064787783 -0.07490176 -0.03149654 2.3234379e-38
0.06693951 -0.075532928 -0.034508958 2.3142544e-38
0.069495104 -0.076995969 -0.041491643 2.3142544e-38
0.07137122 -0.076995969 -0.041491643 2.3142544e-38
0.00080464222 -0.072110802 -0.0094896704 1.3646395e-38
0.0026246477 -0.072110802 -0.0094896704 2.1667415e-38
0.004562838 -0.072743744 -0.0124854 2.341805e-38
0.0063880961 -0.072743744 -0.0124854 2.3049626e-38
0.0082133543 -0.072743744 -0.0124854 2.341805e-38
0.010038616 -0.072743744 -0.0124854 2.341805e-38
0.012003874 -0.073380336 -0.015498534 2.3509886e-38
0.014122253 -0.074641585 -0.021468177 2.3509886e-38
0.015963262 -0.074641585 -0.021468177 2.3509886e-38
0.018013986 -0.075498223 -0.025522724 2.3509886e-38
0.019862102 -0.075498223 -0.025522724 2.3509886e-38
0.021486288 -0.074641585 -0.021468177 2.3509886e-38
0.023327297 -0.074641585 -0.021468177 2.3509886e-38
0.024995675 -0.074020624 -0.018529072 2.3509886e-38
0.026831532 -0.074020624 -0.018529072 2.3509886e-38
0.028478758 -0.073380336 -0.015498534 2.3509886e-38
0.030309299 -0.073380336 -0.015498534 2.3509886e-38
0.032139838 -0.073380336 -0.015498534 2.3509886e-38
0.033970378 -0.073380336 -0.015498534 2.3509527e-38
0.035592243 -0.072743744 -0.0124854 2.3509527e-38
0.037417501 -0.072743744 -0.0124854 2.3509527e-38
0.039242759 -0.072743744 -0.0124854 2.3509527e-38
0.041068017 -0.072743744 -0.0124854 2.3509527e-38
0.042893283 -0.072743744 -0.0124854 2.3509527e-38
0.044718541 -0.072743744 -0.0124854 2.3509527e-38
0.046784185 -0.073380336 -0.015498534 2.3509527e-38
0.048861794 -0.074020624 -0.018529072 2.3509527e-38
0.050942428 -0.074641585 -0.021468177 2.3509527e-38
0.052533515 -0.074020624 -0.018529072 2.3509886e-38
0.054369368 -0.074020624 -0.018529072 2.3509886e-38
0.056205221 -0.074020624 -0.018529072 2.3509886e-38
0.058041073 -0.074020624 -0.018529072 2.332621e-38
0.060147487 -0.074641585 -0.021468177 2.3234015e-38
0.062368818 -0.075498223 -0.025522724 2.3142539e-38
0.064501546 -0.076127499 -0.028501168 2.3234376e-38
0.06693951 -0.077396795 -0.034508958 2.3234379e-38
0.069203921 -0.078251064 -0.038552299 2.2957796e-38
0.071074896 -0.078251064 -0.038552299 2.3142544e-38
0.073247336 -0.078872085 -0.041491643 2.3141826e-38
0.075123452 -0.078872085 -0.041491643 1.4107413e-38
0.00080464222 -0.073930815 -0.0094896704 2.2681567e-38
0.0026246477 -0.073930815 -0.0094896704 2.3234379e-38
0.004562838 -0.074569002 -0.0124854 2.341805e-38
0.0063880961 -0.074569002 -0.0124854 2.2957431e-38
0.0082133543 -0.074569002 -0.0124854 2.341805e-38
0.010038616 -0.074569002 -0.0124854 2.341805e-38
0.011863874 -0.074569002 -0.0124854 2.3509886e-38
0.01398054 -0.075856477 -0.018529072 2.3509886e-38
0.015963262 -0.076482594 -0.021468177 2.3509886e-38
0.017804271 -0.076482594 -0.021468177 2.3509886e-38
0.019645279 -0.076482594 -0.021468177 2.3509886e-38
0.021486288 -0.076482594 -0.021468177 2.3509886e-38
0.023327297 -0.076482594 -0.021468177 2.3509886e-38
0.024995675 -0.075856477 -0.018529072 2.3509886e-38
0.026831532 -0.075856477 -0.018529072 2.3509886e-38
0.028478758 -0.075210884 -0.015498534 2.3509886e-38
0.030309299 -0.075210884 -0.015498534 2.3509886e-38
0.031941727 -0.074569002 -0.0124854 2.3509886e-38
0.033766985 -0.074569002 -0.0124854 2.3509527e-38
0.035592243 -0.074569002 -0.0124854 2.3509527e-38
0.037417501 -0.074569002 -0.0124854 2.3509527e-38
0.039242759 -0.074569002 -0.0124854 2.3509527e-38
0.041068017 -0.074569002 -0.0124854 2.3509527e-38
0.042893283 -0.074569002 -0.0124854 2.3509527e-38
0.044718541 -0.074569002 -0.0124854 2.3509527e-38
0.046784185 -0.075210884 -0.015498534 2.3509527e-38
0.048861794 -0.075856477 -0.018529072 2.3509527e-38
0.050942428 -0.076482594 -0.021468177 2.3509527e-38
0.052783452 -0.076482594 -0.021468177 2.3417327e-38
0.054369368 -0.075856477 -0.018529072 2.3417687e-38
0.056205221 -0.075856477 -0.018529072 2.350988e-38
0.058041073 -0.075856477 -0.018529072 2.350988e-38
0.060147487 -0.076482594 -0.021468177 2.350988e-38
0.062368818 -0.07734634 -0.025522724 2.3418047e-38
0.064501546 -0.077980831 -0.028501168 2.341805e-38
0.066646375 -0.078618944 -0.03149654 2.3234379e-38
0.069203921 -0.080122024 -0.038552299 2.341805e-38
0.071074896 -0.080122024 -0.038552299 2.258902e-38
0.072945856 -0.080122024 -0.038552299 2.323402e-38
0.074816816 -0.080122024 -0.038552299 2.2680855e-38
0.07855875 -0.080122024 -0.038552299 9.0352194e-39
-0.0063887183 -0.07639426 -0.0124854 2.2496824e-38
-0.0010153633 -0.075750828 -0.0094896704 2.3234379e-38
0.00080464222 -0.075750828 -0.0094896704 2.3234379e-38
0.0026246477 -0.075750828 -0.0094896704 2.3142542e-38
0.0044446569 -0.075750828 -0.0094896704 2.341805e-38
0.0062646624 -0.075750828 -0.0094896704 2.3418047e-38
0.0080846678 -0.075750828 -0.0094896704 2.3418047e-38
0.009904677 -0.075750828 -0.0094896704 2.3418047e-38
0.011863874 -0.07639426 -0.0124854 2.3509883e-38
0.013834415 -0.077041432 -0.015498534 2.3509883e-38
0.015816396 -0.07769233 -0.018529072 2.3509886e-38
0.017652249 -0.07769233 -0.018529072 2.3509886e-38
0.019645279 -0.078323603 -0.021468177 2.3509886e-38
0.021323962 -0.07769233 -0.018529072 2.3509886e-38
0.023159819 -0.07769233 -0.018529072 2.3509886e-38
0.024995675 -0.07769233 -0.018529072 2.3509886e-38
0.02664821 -0.077041432 -0.015498534 2.3509886e-38
0.028478758 -0.077041432 -0.015498534 2.3509886e-38
0.030309299 -0.077041432 -0.015498534 2.3509886e-38
0.031941727 -0.07639426 -0.0124854 2.3509886e-38
0.033766985 -0.07639426 -0.0124854 2.3509886e-38
0.035592243 -0.07639426 -0.0124854 2.3509886e-38
0.037417501 -0.07639426 -0.0124854 2.3509527e-38
0.039242759 -0.07639426 -0.0124854 2.3509527e-38
0.041068017 -0.07639426 -0.0124854 2.3509527e-38
0.042893283 -0.07639426 -0.0124854 2.3509527e-38
0.044718541 -0.07639426 -0.0124854 2.3509527e-38
0.046784185 -0.077041432 -0.015498534 2.3509527e-38
0.048861794 -0.07769233 -0.018529072 2.3509527e-38
0.050942428 -0.078323603 -0.021468177 2.3509883e-38
0.052783452 -0.078323603 -0.021468177 2.3417679e-38
0.054369368 -0.07769233 -0.018529072 2.3509872e-38
0.056205221 -0.07769233 -0.018529072 2.3509876e-38
0.058041073 -0.07769233 -0.018529072 2.3509879e-38
0.060147487 -0.078323603 -0.021468177 2.3509883e-38
0.062368818 -0.079194456 -0.025522724 2.3509886e-38
0.064501546 -0.079834178 -0.028501168 2.3509886e-38
0.066646375 -0.080477536 -0.03149654 2.341805e-38
0.069203921 -0.081992984 -0.038552299 2.2587578e-38
0.071074896 -0.081992984 -0.038552299 2.341805e-38
0.072945856 -0.081992984 -0.038552299 2.341805e-38
0.074816816 -0.081992984 -0.038552299 2.1943647e-38
0.076687776 -0.081992984 -0.038552299 2.3234379e-38
-0.028086161 -0.083863959 -0.038552299 2.323402e-38
-0.026215199 -0.083863959 -0.038552299 2.3234379e-38
-0.024344236 -0.083863959 -0.038552299 2.2588296e-38
-0.013557298 -0.079528198 -0.018529072 2.341805e-38
-0.011864496 -0.078219518 -0.0124854 2.3234379e-38
-0.010039236 -0.078219518 -0.0124854 2.323402e-38
-0.0082139783 -0.078219518 -0.0124854 2.3142544e-38
-0.0063887183 -0.078219518 -0.0124854 2.3234379e-38
-0.0046553779 -0.077570826 -0.0094896704 2.3234379e-38
-0.0028353725 -0.077570826 -0.0094896704 2.2404983e-38
-0.001149809 -0.076719359 -0.0055574328 2.2773763e-38
0.0006633047 -0.076719359 -0.0055574328 2.3234379e-38
0.0024764147 -0.076719359 -0.0055574328 2.3142542e-38
0.0044446569 -0.077570826 -0.0094896704 2.3141819e-38
0.0062646624 -0.077570826 -0.0094896704 2.3234015e-38
0.0080846678 -0.077570826 -0.0094896704 2.3418047e-38
0.009904677 -0.077570826 -0.0094896704 2.3418047e-38
0.011724683 -0.077570826 -0.0094896704 2.3509883e-38
0.013689132 -0.078219518 -0.0124854 2.3509883e-38
0.015664959 -0.078871965 -0.015498534 2.3509886e-38
0.017652249 -0.079528198 -0.018529072 2.3509886e-38
0.019488106 -0.079528198 -0.018529072 2.3509886e-38
0.021323962 -0.079528198 -0.018529072 2.3509886e-38
0.023159819 -0.079528198 -0.018529072 2.3509886e-38
0.024995675 -0.079528198 -0.018529072 2.3509886e-38
0.02664821 -0.078871965 -0.015498534 2.3509886e-38
0.028478758 -0.078871965 -0.015498534 2.3509886e-38
0.030309299 -0.078871965 -0.015498534 2.3509886e-38
0.032139838 -0.078871965 -0.015498534 2.3509886e-38
0.033970378 -0.078871965 -0.015498534 2.3509886e-38
0.035800919 -0.078871965 -0.015498534 2.3509886e-38
0.037631467 -0.078871965 -0.015498534 2.3509886e-38
0.039462008 -0.078871965 -0.015498534 2.3509886e-38
0.041292548 -0.078871965 -0.015498534 2.3509527e-38
0.043123089 -0.078871965 -0.015498534 2.3509886e-38
0.044953637 -0.078871965 -0.015498534 2.3509527e-38
0.047583871 -0.081042573 -0.025522724 2.3509886e-38
0.04910142 -0.080164611 -0.021468177 2.3509527e-38
0.050942428 -0.080164611 -0.021468177 2.350988e-38
0.052783452 -0.080164611 -0.021468177 2.3509873e-38
0.054369368 -0.079528198 -0.018529072 2.350987e-38
0.056205221 -0.079528198 -0.018529072 2.3509876e-38
0.058306478 -0.080164611 -0.021468177 2.3509879e-38
0.060147487 -0.080164611 -0.021468177 2.3509883e-38
0.062368818 -0.081042573 -0.025522724 2.3417691e-38
0.064787783 -0.082336128 -0.03149654 2.3325138e-38
0.06693951 -0.082988426 -0.034508958 2.3232944e-38
0.069203921 -0.083863959 -0.038552299 2.3508809e-38
0.071074896 -0.083863959 -0.038552299 2.2864163e-38
0.072945856 -0.083863959 -0.038552299 2.2495734e-38
0.074816816 -0.083863959 -0.038552299 2.350988e-38
-0.035558611 -0.088574663 -0.05156137 7.65408e-39
-0.033664837 -0.088574663 -0.05156137 3.6893064e-39
-0.031771064 -0.088574663 -0.05156137 6.6388407e-39
-0.028086161 -0.085734919 -0.038552299 2.323402e-38
-0.026215199 -0.085734919 -0.038552299 2.295672e-38
-0.024344236 -0.085734919 -0.038552299 2.3509527e-38
-0.022473272 -0.085734919 -0.038552299 2.3509886e-38
-0.020602308 -0.085734919 -0.038552299 2.3509523e-38
-0.018731346 -0.085734919 -0.038552299 2.3417687e-38
-0.017229009 -0.081364051 -0.018529072 2.3417687e-38
-0.015393155 -0.081364051 -0.018529072 2.3326213e-38
-0.013623718 -0.080702513 -0.015498534 2.3325856e-38
-0.011864496 -0.080044776 -0.0124854 2.3050349e-38
-0.010115398 -0.079390839 -0.0094896704 2.2957796e-38
-0.0082953926 -0.079390839 -0.0094896704 2.2957796e-38
-0.0063887183 -0.080044776 -0.0124854 2.2957796e-38
-0.0046553779 -0.079390839 -0.0094896704 2.3142185e-38
-0.0028353725 -0.079390839 -0.0094896704 2.3234379e-38
-0.001149809 -0.078532472 -0.0055574328 2.3234379e-38
0.0006633047 -0.078532472 -0.0055574328 2.3234379e-38
0.0024764147 -0.078532472 -0.0055574328 2.3234379e-38
0.0044446569 -0.079390839 -0.0094896704 2.3418047e-38
0.0062646624 -0.079390839 -0.0094896704 2.3418045e-38
0.0080846678 -0.079390839 -0.0094896704 2.3418045e-38
0.009904677 -0.079390839 -0.0094896704 2.3418045e-38
0.011724683 -0.079390839 -0.0094896704 2.350988e-38
0.013689132 -0.080044776 -0.0124854 2.3509883e-38
0.015664959 -0.080702513 -0.015498534 2.3509886e-38
0.017652249 -0.081364051 -0.018529072 2.3509886e-38
0.019488106 -0.081364051 -0.018529072 2.3509886e-38
0.021323962 -0.081364051 -0.018529072 2.3509886e-38
0.023159819 -0.081364051 -0.018529072 2.3509886e-38
0.024995675 -0.081364051 -0.018529072 2.3509886e-38
0.026831532 -0.081364051 -0.018529072 2.3509886e-38
0.028478758 -0.080702513 -0.015498534 2.3509886e-38
0.030309299 -0.080702513 -0.015498534 2.3509886e-38
0.032339096 -0.081364051 -0.018529072 2.3509886e-38
0.034174949 -0.081364051 -0.018529072 2.3509886e-38
0.036010809 -0.081364051 -0.018529072 2.3509886e-38
0.037846662 -0.081364051 -0.018529072 2.3509886e-38
0.039682515 -0.081364051 -0.018529072 2.341805e-38
0.041518375 -0.081364051 -0.018529072 2.3509886e-38
0.043354228 -0.081364051 -0.018529072 2.341805e-38
0.045190088 -0.081364051 -0.018529072 2.3509886e-38
0.047583871 -0.082890689 -0.025522724 2.341805e-38
0.04910142 -0.08200562 -0.021468177 2.3509886e-38
0.050942428 -0.08200562 -0.021468177 2.3509883e-38
0.053128235 -0.082890689 -0.025522724 2.3509876e-38
0.054624461 -0.08200562 -0.021468177 2.3509876e-38
0.056465469 -0.08200562 -0.021468177 2.3509518e-38
0.058306478 -0.08200562 -0.021468177 2.3417324e-38
0.060520701 -0.082890689 -0.025522724 2.3509167e-38
0.062648214 -0.083540857 -0.028501168 2.3509527e-38
0.064787783 -0.08419472 -0.03149654 2.3509527e-38
0.066646375 -0.08419472 -0.03149654 2.3509168e-38
0.069203921 -0.085734919 -0.038552299 2.2493941e-38
0.071074896 -0.085734919 -0.038552299 1.7239867e-38
0.072531126 -0.084852293 -0.034508958 1.5211916e-38
0.074395008 -0.084852293 -0.034508958 1.8991933e-38
0.076258875 -0.084852293 -0.034508958 2.2218054e-38
0.079328276 -0.083540857 -0.028501168 2.3509863e-38
-0.033664837 -0.090468436 -0.05156137 1.3922664e-38
-0.029895671 -0.089809433 -0.048566476 2.3233662e-38
-0.028086161 -0.087605879 -0.038552299 2.1665635e-38
-0.026215199 -0.087605879 -0.038552299 2.3233303e-38
-0.024344236 -0.087605879 -0.038552299 2.3509527e-38
-0.022526443 -0.086716175 -0.034508958 2.2403535e-38
-0.020707464 -0.086053312 -0.03149654 2.350952e-38
-0.019064866 -0.083199903 -0.018529072 2.3509879e-38
-0.017284803 -0.082533047 -0.015498534 2.3509879e-38
-0.015454261 -0.082533047 -0.015498534 2.350988e-38
-0.013689756 -0.081870034 -0.0124854 2.3509883e-38
-0.011935405 -0.081210837 -0.0094896704 2.341805e-38
-0.010115398 -0.081210837 -0.0094896704 2.341805e-38
-0.0082953926 -0.081210837 -0.0094896704 2.3234379e-38
-0.0064753853 -0.081210837 -0.0094896704 2.2957796e-38
-0.0046553779 -0.081210837 -0.0094896704 2.3234379e-38
-0.0028353725 -0.081210837 -0.0094896704 2.3234379e-38
-0.001149809 -0.080345586 -0.0055574328 2.3234379e-38
0.0006633047 -0.080345586 -0.0055574328 2.3142542e-38
0.0024764147 -0.080345586 -0.0055574328 2.3234376e-38
0.0044446569 -0.081210837 -0.0094896704 2.3326208e-38
0.0062646624 -0.081210837 -0.0094896704 2.3049621e-38
0.0080846678 -0.081210837 -0.0094896704 2.3418045e-38
0.009904677 -0.081210837 -0.0094896704 2.3418045e-38
0.011724683 -0.081210837 -0.0094896704 2.350988e-38
0.013689132 -0.081870034 -0.0124854 2.350988e-38
0.015664959 -0.082533047 -0.015498534 2.3509886e-38
0.017652249 -0.083199903 -0.018529072 2.3509886e-38
0.019488106 -0.083199903 -0.018529072 2.3509886e-38
0.021323962 -0.083199903 -0.018529072 2.3509886e-38
0.023159819 -0.083199903 -0.018529072 2.3509886e-38
0.024995675 -0.083199903 -0.018529072 2.3509886e-38
0.026831532 -0.083199903 -0.018529072 2.3509886e-38
0.028667385 -0.083199903 -0.018529072 2.3509886e-38
0.030503245 -0.083199903 -0.018529072 2.3509886e-38
0.032339096 -0.083199903 -0.018529072 2.3509886e-38
0.034174949 -0.083199903 -0.018529072 2.3509886e-38
0.036214359 -0.083846629 -0.021468177 2.341805e-38
0.037846662 -0.083199903 -0.018529072 2.341805e-38
0.039682515 -0.083199903 -0.018529072 2.341805e-38
0.041737385 -0.083846629 -0.021468177 2.341805e-38
0.043578394 -0.083846629 -0.021468177 2.341805e-38
0.045419402 -0.083846629 -0.021468177 2.341805e-38
0.047583871 -0.084738806 -0.025522724 2.3234379e-38
0.049431987 -0.084738806 -0.025522724 2.341805e-38
0.051280119 -0.084738806 -0.025522724 2.341805e-38
0.053128235 -0.084738806 -0.025522724 2.3509883e-38
0.054976352 -0.084738806 -0.025522724 2.3509883e-38
0.056824468 -0.084738806 -0.025522724 2.3417327e-38
0.058672585 -0.084738806 -0.025522724 2.3509523e-38
0.060520701 -0.084738806 -0.025522724 2.3509527e-38
0.062648214 -0.085394189 -0.028501168 2.3509527e-38
0.064787783 -0.086053312 -0.03149654 2.3509168e-38
0.066646375 -0.086053312 -0.03149654 2.3509168e-38
0.069203921 -0.087605879 -0.038552299 2.3509168e-38
0.071074896 -0.087605879 -0.038552299 1.6501223e-38
0.072531126 -0.086716175 -0.034508958 7.7422777e-39
0.074395008 -0.086716175 -0.034508958 3.6734198e-40
0.077474929 -0.085394189 -0.028501168 1.1522293e-38
0.079328276 -0.085394189 -0.028501168 2.0187603e-38
0.081181608 -0.085394189 -0.028501168 2.3508451e-38
-0.08843983 -0.091697961 -0.048566476 3.1365306e-39
-0.086551316 -0.091697961 -0.048566476 1.2008077e-39
-0.0782758 -0.098564804 -0.079526559 5.0734431e-39
-0.076224059 -0.097892582 -0.076495782 8.116252e-39
-0.074286565 -0.097892582 -0.076495782 7.2868403e-39
-0.072349079 -0.097892582 -0.076495782 1.0178892e-39
-0.070411585 -0.097892582 -0.076495782 3.1387418e-39
-0.033664837 -0.09236221 -0.05156137 1.9361484e-38
-0.031771064 -0.09236221 -0.05156137 2.2403555e-38
-0.029895671 -0.091697961 -0.048566476 2.2311719e-38
-0.028062969 -0.090128779 -0.041491643 2.3417333e-38
-0.026215199 -0.089476839 -0.038552299 2.3509527e-38
-0.024344236 -0.089476839 -0.038552299 2.3416971e-38
-0.022526443 -0.088580042 -0.034508958 2.350988e-38
-0.020707464 -0.087911904 -0.03149654 2.3509874e-38
-0.019064866 -0.085035756 -0.018529072 2.3509872e-38
-0.017284803 -0.084363595 -0.015498534 2.3509873e-38
-0.015515015 -0.083695292 -0.0124854 2.3509876e-38
-0.013689756 -0.083695292 -0.0124854 2.3509879e-38
-0.011935405 -0.08303085 -0.0094896704 2.3418045e-38
-0.010115398 -0.08303085 -0.0094896704 2.3418047e-38
-0.0082953926 -0.08303085 -0.0094896704 2.341805e-38
-0.0064753853 -0.08303085 -0.0094896704 2.3234379e-38
-0.0046553779 -0.08303085 -0.0094896704 2.3234379e-38
-0.0028353725 -0.08303085 -0.0094896704 2.2773765e-38
-0.001149809 -0.082158685 -0.0055574328 2.2773763e-38
0.0006633047 -0.082158685 -0.0055574328 2.3142542e-38
0.0024764147 -0.082158685 -0.0055574328 2.3234376e-38
0.0044446569 -0.08303085 -0.0094896704 2.3418045e-38
0.0062646624 -0.08303085 -0.0094896704 2.3418045e-38
0.0080846678 -0.08303085 -0.0094896704 2.3418043e-38
0.009904677 -0.08303085 -0.0094896704 2.3418043e-38
0.011863874 -0.083695292 -0.0124854 2.350988e-38
0.013689132 -0.083695292 -0.0124854 2.350988e-38
0.015664959 -0.084363595 -0.015498534 2.3509886e-38
0.017652249 -0.085035756 -0.018529072 2.3509886e-38
0.019645279 -0.085687637 -0.021468177 2.3509886e-38
0.021323962 -0.085035756 -0.018529072 2.3509886e-38
0.023159819 -0.085035756 -0.018529072 2.3509886e-38
0.025168305 -0.085687637 -0.021468177 2.3509886e-38
0.027009318 -0.085687637 -0.021468177 2.3509886e-38
0.028850326 -0.085687637 -0.021468177 2.3509886e-38
0.030691335 -0.085687637 -0.021468177 2.3509886e-38
0.032532342 -0.085687637 -0.021468177 2.3509886e-38
0.034647048 -0.086586922 -0.025522724 2.341805e-38
0.036495164 -0.086586922 -0.025522724 2.341805e-38
0.038343281 -0.086586922 -0.025522724 2.341805e-38
0.040191397 -0.086586922 -0.025522724 2.3234379e-38
0.042039521 -0.086586922 -0.025522724 2.3234379e-38
0.043887638 -0.086586922 -0.025522724 2.3234379e-38
0.045735754 -0.086586922 -0.025522724 2.3234379e-38
0.047583871 -0.086586922 -0.025522724 2.3142544e-38
0.049431987 -0.086586922 -0.025522724 2.3234379e-38
0.051280119 -0.086586922 -0.025522724 2.3234379e-38
0.05338151 -0.087247536 -0.028501168 2.3509527e-38
0.054976352 -0.086586922 -0.025522724 2.3508809e-38
0.056824468 -0.086586922 -0.025522724 2.3509168e-38
0.058672585 -0.086586922 -0.025522724 2.3509527e-38
0.060794868 -0.087247536 -0.028501168 2.3509527e-38
0.062648214 -0.087247536 -0.028501168 2.3509524e-38
0.064787783 -0.087911904 -0.03149654 2.3508445e-38
0.066646375 -0.087911904 -0.03149654 2.3323334e-38
0.068803377 -0.088580042 -0.034508958 2.3508088e-38
0.071074896 -0.089476839 -0.038552299 1.2904877e-38
0.072531126 -0.088580042 -0.034508958 7.8326867e-39
0.074395008 -0.088580042 -0.034508958 9.1838018e-40
0.076258875 -0.088580042 -0.034508958 1.2860935e-39
0.077474929 -0.087247536 -0.028501168 1.1939035e-39
0.079328276 -0.087247536 -0.028501168 1.0873373e-38
0.081181608 -0.087247536 -0.028501168 1.9910351e-38
-0.099770956 -0.093586475 -0.048566476 6.8232151e-39
-0.097882442 -0.093586475 -0.048566476 6.8235836e-39
-0.090328358 -0.093586475 -0.048566476 1.755401e-39
-0.083633713 -0.098059073 -0.068573609 2.6722762e-42
-0.082036532 -0.099830076 -0.076495782 5.572964e-40
-0.080099039 -0.099830076 -0.076495782 3.3231667e-39
-0.078161545 -0.099830076 -0.076495782 5.5358604e-39
-0.076224059 -0.099830076 -0.076495782 6.919148e-39
-0.074286565 -0.099830076 -0.076495782 8.4864625e-39
-0.072349079 -0.099830076 -0.076495782 2.309707e-39
-0.070289604 -0.098941371 -0.07252039 5.3514369e-39
-0.068359084 -0.098941371 -0.07252039 7.5652068e-39
-0.066428564 -0.098941371 -0.07252039 7.9347082e-39
-0.064498045 -0.098941371 -0.07252039 8.3034879e-39
-0.058363356 -0.095137119 -0.055502906 4.1514378e-39
-0.056462668 -0.095137119 -0.055502906 1.4770457e-39
-0.033654474 -0.095137119 -0.055502906 2.2405349e-38
-0.031784192 -0.093586475 -0.048566476 2.3142185e-38
-0.02992025 -0.092691094 -0.044561163 2.2497184e-38
-0.028062969 -0.092004895 -0.041491643 2.3234379e-38
-0.026215199 -0.091347814 -0.038552299 2.3049273e-38
-0.024390316 -0.090443924 -0.034508958 2.3509886e-38
-0.022526443 -0.090443924 -0.034508958 2.3418042e-38
-0.020707464 -0.089770496 -0.03149654 2.3509876e-38
-0.019064866 -0.086871609 -0.018529072 2.3509873e-38
-0.017284803 -0.086194143 -0.015498534 2.3509873e-38
-0.015515015 -0.085520551 -0.0124854 2.3509872e-38
-0.013689756 -0.085520551 -0.0124854 2.3509874e-38
-0.011935405 -0.084850863 -0.0094896704 2.3509518e-38
-0.010115398 -0.084850863 -0.0094896704 2.350988e-38
-0.0082953926 -0.084850863 -0.0094896704 2.3509883e-38
-0.0063887183 -0.085520551 -0.0124854 2.341805e-38
-0.0046553779 -0.084850863 -0.0094896704 2.3142185e-38
-0.0028353725 -0.084850863 -0.0094896704 2.3234379e-38
-0.0010153633 -0.084850863 -0.0094896704 2.3234379e-38
0.00080464222 -0.084850863 -0.0094896704 2.3234379e-38
0.0026246477 -0.084850863 -0.0094896704 2.2866311e-38
0.0044446569 -0.084850863 -0.0094896704 2.2957428e-38
0.0062646624 -0.084850863 -0.0094896704 2.3418045e-38
0.0080846678 -0.084850863 -0.0094896704 2.3418045e-38
0.009904677 -0.084850863 -0.0094896704 2.3418045e-38
0.011863874 -0.085520551 -0.0124854 2.3509883e-38
0.013834415 -0.086194143 -0.015498534 2.3509883e-38
0.015816396 -0.086871609 -0.018529072 2.3509886e-38
0.017804271 -0.087528646 -0.021468177 2.3509886e-38
0.019645279 -0.087528646 -0.021468177 2.3509527e-38
0.021486288 -0.087528646 -0.021468177 2.3509886e-38
0.023327297 -0.087528646 -0.021468177 2.3509886e-38
0.025406459 -0.088435039 -0.025522724 2.3509886e-38
0.027254576 -0.088435039 -0.025522724 2.3509886e-38
0.029102692 -0.088435039 -0.025522724 2.3509886e-38
0.030950809 -0.088435039 -0.025522724 2.3509886e-38
0.032798931 -0.088435039 -0.025522724 2.3509886e-38
0.034848101 -0.089100882 -0.028501168 2.341805e-38
0.036701441 -0.089100882 -0.028501168 2.341805e-38
0.03855478 -0.089100882 -0.028501168 2.341805e-38
0.04040812 -0.089100882 -0.028501168 2.3234379e-38
0.042261459 -0.089100882 -0.028501168 2.341805e-38
0.043887638 -0.088435039 -0.025522724 2.3234379e-38
0.045735754 -0.088435039 -0.025522724 2.3234379e-38
0.047821485 -0.089100882 -0.028501168 2.3234379e-38
0.049674831 -0.089100882 -0.028501168 2.3234379e-38
0.051528163 -0.089100882 -0.028501168 2.341805e-38
0.05338151 -0.089100882 -0.028501168 2.3509168e-38
0.055234842 -0.089100882 -0.028501168 2.3509168e-38
0.057088189 -0.089100882 -0.028501168 2.3508809e-38
0.058941521 -0.089100882 -0.028501168 2.3509527e-38
0.060794868 -0.089100882 -0.028501168 2.3509527e-38
0.062929191 -0.089770496 -0.03149654 2.3325131e-38
0.064787783 -0.089770496 -0.03149654 2.258721e-38
0.066646375 -0.089770496 -0.03149654 2.1849648e-38
0.068803377 -0.090443924 -0.034508958 2.0742949e-38
0.071074896 -0.091347814 -0.038552299 3.9629926e-39
0.072531126 -0.090443924 -0.034508958 8.2835236e-40
0.074395008 -0.090443924 -0.034508958 3.0403426e-39
0.076258875 -0.090443924 -0.034508958 2.5790156e-39
0.077474929 -0.089100882 -0.028501168 1.0113395e-39
0.0782355 -0.086871609 -0.018529072 1.1953763e-39
0.080071352 -0.086871609 -0.018529072 2.0265789e-39
-0.099770956 -0.095475003 -0.048566476 6.6431679e-39
-0.097882442 -0.095475003 -0.048566476 5.4450016e-39
-0.095993914 -0.095475003 -0.048566476 4.7085464e-39
-0.0941054 -0.095475003 -0.048566476 3.5107389e-39
-0.092216872 -0.095475003 -0.048566476 2.0352543e-39
-0.090328358 -0.095475003 -0.048566476 7.4524415e-40
-0.08843983 -0.095475003 -0.048566476 1.0023908e-40
-0.086551316 -0.095475003 -0.048566476 9.9888758e-41
-0.084662788 -0.095475003 -0.048566476 8.0616701e-42
-0.083633713 -0.099982664 -0.068573609 1.002601e-40
-0.081710108 -0.099982664 -0.068573609 3.3841358e-42
-0.079786502 -0.099982664 -0.068573609 3.1416369e-39
-0.078161545 -0.10176755 -0.076495782 6.5514361e-39
-0.076224059 -0.10176755 -0.076495782 7.2882794e-39
-0.074286565 -0.10176755 -0.076495782 7.2879137e-39
-0.072220124 -0.10087189 -0.07252039 3.0461902e-39
-0.070168503 -0.099982664 -0.068573609 4.8897399e-39
-0.068244904 -0.099982664 -0.068573609 8.5775651e-39
-0.066321306 -0.099982664 -0.068573609 8.4875331e-39
-0.0643977 -0.099982664 -0.068573609 9.2254597e-39
-0.062164716 -0.097037792 -0.055502906 6.551785e-39
-0.060264036 -0.097037792 -0.055502906 3.0479881e-39
-0.058363356 -0.097037792 -0.055502906 1.1118771e-39
-0.056390107 -0.096149758 -0.05156137 3.7394771e-40
-0.054496333 -0.096149758 -0.05156137 7.4308335e-40
-0.052602559 -0.096149758 -0.05156137 4.6577059e-40
-0.050708786 -0.096149758 -0.05156137 1.9029633e-42
-0.048927933 -0.098382086 -0.061469451 2.9553931e-39
-0.047016792 -0.098382086 -0.061469451 1.47917e-39
-0.035555154 -0.097037792 -0.055502906 2.2867037e-38
-0.033654474 -0.097037792 -0.055502906 2.2499695e-38
-0.031784192 -0.095475003 -0.048566476 2.2683366e-38
-0.02992025 -0.094572589 -0.044561163 2.2867037e-38
-0.028086161 -0.093218774 -0.038552299 2.2591166e-38
-0.026215199 -0.093218774 -0.038552299 2.268228e-38
-0.024390316 -0.092307791 -0.034508958 2.3234376e-38
-0.022526443 -0.092307791 -0.034508958 2.3234374e-38
-0.020707464 -0.091629088 -0.03149654 2.3418045e-38
-0.019064866 -0.088707477 -0.018529072 2.350988e-38
-0.017340275 -0.087345809 -0.0124854 2.304854e-38
-0.015515015 -0.087345809 -0.0124854 2.3509879e-38
-0.013755413 -0.086670861 -0.0094896704 2.3509879e-38
-0.011935405 -0.086670861 -0.0094896704 2.3508801e-38
-0.010115398 -0.086670861 -0.0094896704 2.3509521e-38
-0.0082139783 -0.087345809 -0.0124854 2.3416248e-38
-0.0063887183 -0.087345809 -0.0124854 2.3509527e-38
-0.0045634601 -0.087345809 -0.0124854 2.3325856e-38
-0.0028353725 -0.086670861 -0.0094896704 2.3141467e-38
-0.0010153633 -0.086670861 -0.0094896704 2.3325856e-38
0.00080464222 -0.086670861 -0.0094896704 2.3325856e-38
0.0026246477 -0.086670861 -0.0094896704 2.3141822e-38
0.0044446569 -0.086670861 -0.0094896704 2.341769e-38
0.0062646624 -0.086670861 -0.0094896704 2.3509883e-38
0.0080846678 -0.086670861 -0.0094896704 2.3417687e-38
0.009904677 -0.086670861 -0.0094896704 2.3417687e-38
0.011863874 -0.087345809 -0.0124854 2.3509167e-38
0.013834415 -0.088024676 -0.015498534 2.3509168e-38
0.015816396 -0.088707477 -0.018529072 2.3509168e-38
0.017804271 -0.089369655 -0.021468177 2.3509168e-38
0.019645279 -0.089369655 -0.021468177 2.3508809e-38
0.021486288 -0.089369655 -0.021468177 2.3508809e-38
0.023558339 -0.090283155 -0.025522724 2.3509527e-38
0.025406459 -0.090283155 -0.025522724 2.3509886e-38
0.027254576 -0.090283155 -0.025522724 2.3509527e-38
0.029102692 -0.090283155 -0.025522724 2.3509886e-38
0.031141425 -0.090954214 -0.028501168 2.3509527e-38
0.032994762 -0.090954214 -0.028501168 2.3509886e-38
0.034848101 -0.090954214 -0.028501168 2.3509527e-38
0.036701441 -0.090954214 -0.028501168 2.3509886e-38
0.03855478 -0.090954214 -0.028501168 2.3509527e-38
0.040626071 -0.091629088 -0.03149654 2.341805e-38
0.042484663 -0.091629088 -0.03149654 2.3509527e-38
0.044343255 -0.091629088 -0.03149654 2.341805e-38
0.046201847 -0.091629088 -0.03149654 2.341805e-38
0.04806044 -0.091629088 -0.03149654 2.341805e-38
0.049674831 -0.090954214 -0.028501168 2.3325856e-38
0.051528163 -0.090954214 -0.028501168 2.3325497e-38
0.05338151 -0.090954214 -0.028501168 2.3509168e-38
0.055234842 -0.090954214 -0.028501168 2.3508809e-38
0.057088189 -0.090954214 -0.028501168 2.3509168e-38
0.058941521 -0.090954214 -0.028501168 2.3509527e-38
0.060794868 -0.090954214 -0.028501168 2.2956715e-38
0.062929191 -0.091629088 -0.03149654 2.2312787e-38
0.064787783 -0.091629088 -0.03149654 2.1298284e-38
0.066646375 -0.091629088 -0.03149654 2.0193026e-38
0.068803377 -0.092307791 -0.034508958 1.4476908e-38
0.070667259 -0.092307791 -0.034508958 9.2416194e-40
0.072531126 -0.092307791 -0.034508958 2.2154529e-42
0.074080743 -0.091629088 -0.03149654 1.7546625e-39
0.075621583 -0.090954214 -0.028501168 1.755387e-39
0.077474929 -0.090954214 -0.028501168 4.6465095e-40
0.0782355 -0.088707477 -0.018529072 4.394472e-42
0.080071352 -0.088707477 -0.018529072 4.0343383e-42
-0.10165948 -0.097363517 -0.048566476 4.2461067e-39
-0.099535696 -0.096454084 -0.044561163 3.4177908e-39
-0.097654201 -0.096454084 -0.044561163 2.1277876e-39
-0.095993914 -0.097363517 -0.048566476 7.3231858e-42
-0.0941054 -0.097363517 -0.048566476 6.2610015e-42
-0.092216872 -0.097363517 -0.048566476 6.6239378e-42
-0.090328358 -0.097363517 -0.048566476 8.0630714e-42
-0.08843983 -0.097363517 -0.048566476 2.850129e-40
-0.086551316 -0.097363517 -0.048566476 4.6940416e-40
-0.084662788 -0.097363517 -0.048566476 3.7721133e-40
-0.083633713 -0.10190627 -0.068573609 1.9281727e-40
-0.081710108 -0.10190627 -0.068573609 2.8465276e-40
-0.079786502 -0.10190627 -0.068573609 2.3118762e-39
-0.078011692 -0.10280241 -0.07252039 3.7866462e-39
-0.076224059 -0.10370506 -0.076495782 6.3663231e-39
-0.074286565 -0.10370506 -0.076495782 7.0113296e-39
-0.072220124 -0.10280241 -0.07252039 2.6774119e-39
-0.070168503 -0.10190627 -0.068573609 2.1224403e-39
-0.06815552 -0.10120471 -0.065483823 4.0596275e-39
-0.06623733 -0.10120471 -0.065483823 2.5863023e-39
-0.064498045 -0.10280241 -0.07252039 6.5199195e-40
-0.062567525 -0.10280241 -0.07252039 4.6759788e-40
-0.060264036 -0.09893848 -0.055502906 2.9561554e-39
-0.058363356 -0.09893848 -0.055502906 2.403332e-39
-0.056390107 -0.098043531 -0.05156137 5.5169121e-42
-0.054496333 -0.098043531 -0.05156137 2.9819631e-42
-0.052602559 -0.098043531 -0.05156137 2.4036557e-39
-0.050839081 -0.10029322 -0.061469451 1.5033723e-38
-0.035555154 -0.09893848 -0.055502906 2.2774832e-38
-0.033654474 -0.09893848 -0.055502906 2.2407488e-38
-0.031784192 -0.097363517 -0.048566476 2.2958867e-38
-0.02992025 -0.096454084 -0.044561163 2.2958867e-38
-0.028086161 -0.095089734 -0.038552299 2.2958867e-38
-0.026215199 -0.095089734 -0.038552299 2.2958864e-38
-0.024390316 -0.094171658 -0.034508958 2.3234376e-38
-0.022526443 -0.094171658 -0.034508958 2.3050703e-38
-0.020662569 -0.094171658 -0.034508958 2.2865232e-38
-0.018898765 -0.092807561 -0.028501168 2.3325492e-38
-0.017340275 -0.089171067 -0.0124854 2.3233296e-38
-0.015515015 -0.089171067 -0.0124854 2.350988e-38
-0.013755413 -0.088490874 -0.0094896704 2.3509161e-38
-0.011935405 -0.088490874 -0.0094896704 2.332405e-38
-0.010115398 -0.088490874 -0.0094896704 2.3509521e-38
-0.0082139783 -0.089171067 -0.0124854 2.3509524e-38
-0.0063887183 -0.089171067 -0.0124854 2.3325497e-38
-0.0045634601 -0.089171067 -0.0124854 2.3049273e-38
-0.0027381983 -0.089171067 -0.0124854 2.3232944e-38
-0.0010153633 -0.088490874 -0.0094896704 2.341805e-38
0.00080464222 -0.088490874 -0.0094896704 2.3509886e-38
0.0026246477 -0.088490874 -0.0094896704 2.341769e-38
0.0044446569 -0.088490874 -0.0094896704 2.3325492e-38
0.0063880961 -0.089171067 -0.0124854 2.3509883e-38
0.0082133543 -0.089171067 -0.0124854 2.3509883e-38
0.010038616 -0.089171067 -0.0124854 2.3509883e-38
0.012003874 -0.089855224 -0.015498534 2.3509527e-38
0.01398054 -0.09054333 -0.018529072 2.3509527e-38
0.015963262 -0.091210663 -0.021468177 2.3509527e-38
0.017804271 -0.091210663 -0.021468177 2.3509527e-38
0.019862102 -0.092131287 -0.025522724 2.3509168e-38
0.021710223 -0.092131287 -0.025522724 2.3509527e-38
0.023898749 -0.09348768 -0.03149654 2.3509886e-38
0.025757341 -0.09348768 -0.03149654 2.3509886e-38
0.027615929 -0.09348768 -0.03149654 2.3509886e-38
0.029474521 -0.09348768 -0.03149654 2.3509886e-38
0.031333111 -0.09348768 -0.03149654 2.3509886e-38
0.033191703 -0.09348768 -0.03149654 2.3417691e-38
0.035050295 -0.09348768 -0.03149654 2.3417691e-38
0.036908887 -0.09348768 -0.03149654 2.3417691e-38
0.038767479 -0.09348768 -0.03149654 2.3233302e-38
0.040626071 -0.09348768 -0.03149654 2.3325497e-38
0.042484663 -0.09348768 -0.03149654 2.3509886e-38
0.044343255 -0.09348768 -0.03149654 2.3509886e-38
0.045968145 -0.092807561 -0.028501168 2.3509886e-38
0.047821485 -0.092807561 -0.028501168 2.3509886e-38
0.049674831 -0.092807561 -0.028501168 2.3509886e-38
0.051528163 -0.092807561 -0.028501168 2.3509527e-38
0.05338151 -0.092807561 -0.028501168 2.3509524e-38
0.055234842 -0.092807561 -0.028501168 2.3509524e-38
0.057088189 -0.092807561 -0.028501168 2.3509167e-38
0.058941521 -0.092807561 -0.028501168 2.3509527e-38
0.060794868 -0.092807561 -0.028501168 2.3141467e-38
0.062929191 -0.09348768 -0.03149654 1.38308e-38
0.064787783 -0.09348768 -0.03149654 5.902349e-39
0.066646375 -0.09348768 -0.03149654 2.7684291e-39
0.068504967 -0.09348768 -0.03149654 3.9680639e-39
0.070363559 -0.09348768 -0.03149654 6.1657132e-44
0.072222151 -0.09348768 -0.03149654 1.8749373e-42
0.073768251 -0.092807561 -0.028501168 2.6036125e-42
0.075621583 -0.092807561 -0.028501168 4.0483513e-42
0.077474929 -0.092807561 -0.028501168 9.2852839e-40
0.079001881 -0.092131287 -0.025522724 9.8770522e-41
0.080849998 -0.092131287 -0.025522724 1.1728868e-42
-0.10310764 -0.097633243 -0.041491643 8.1161876e-39
-0.10123152 -0.097633243 -0.041491643 3.4156608e-39
-0.099535696 -0.098335579 -0.044561163 1.7575842e-39
-0.097654201 -0.098335579 -0.044561163 1.5739258e-39
-0.095993914 -0.099252045 -0.048566476 1.910166e-40
-0.0941054 -0.099252045 -0.048566476 2.8322344e-40
-0.092216872 -0.099252045 -0.048566476 6.5200876e-40
-0.090328358 -0.099252045 -0.048566476 9.2931592e-40
-0.08843983 -0.099252045 -0.048566476 1.0215129e-39
-0.086365215 -0.098335579 -0.044561163 5.605348e-40
-0.084483713 -0.098335579 -0.044561163 5.9246899e-42
-0.08260221 -0.098335579 -0.044561163 3.0436203e-42
-0.081872724 -0.10473295 -0.07252039 4.4855564e-42
-0.079942204 -0.10473295 -0.07252039 1.296302e-39
-0.078011692 -0.10473295 -0.07252039 1.479973e-39
-0.076081172 -0.10473295 -0.07252039 4.3373172e-39
-0.074150644 -0.10473295 -0.07252039 5.5354975e-39
-0.072092108 -0.10382988 -0.068573609 3.8752531e-39
-0.070168503 -0.10382988 -0.068573609 2.2157317e-39
-0.06803938 -0.10220437 -0.061469451 2.5845086e-39
-0.066128239 -0.10220437 -0.061469451 1.7565444e-39
-0.06337893 -0.094660893 -0.028501168 1.2044427e-39
-0.061525591 -0.094660893 -0.028501168 6.516206e-40
-0.060264036 -0.10083917 -0.055502906 6.5125066e-40
-0.058363356 -0.10083917 -0.055502906 5.507103e-42
-0.056462668 -0.10083917 -0.055502906 2.1263485e-39
-0.054561988 -0.10083917 -0.055502906 1.3887681e-39
-0.052750222 -0.10220437 -0.061469451 4.6152381e-39
-0.050839081 -0.10220437 -0.061469451 1.8812988e-38
-0.037461068 -0.10220437 -0.061469451 2.3417676e-38
-0.035549924 -0.10220437 -0.061469451 2.350988e-38
-0.033646494 -0.10153329 -0.058536544 2.3509883e-38
-0.031771064 -0.099937305 -0.05156137 2.3509883e-38
-0.02992025 -0.098335579 -0.044561163 2.3509883e-38
-0.028086161 -0.096960694 -0.038552299 2.3417687e-38
-0.026215199 -0.096960694 -0.038552299 2.3417687e-38
-0.024390316 -0.09603554 -0.034508958 2.341769e-38
-0.022526443 -0.09603554 -0.034508958 2.3233299e-38
-0.020662569 -0.09603554 -0.034508958 2.3509886e-38
-0.018798694 -0.09603554 -0.034508958 2.3509883e-38
-0.017284803 -0.091685757 -0.015498534 2.3509883e-38
-0.015515015 -0.090996325 -0.0124854 2.3509883e-38
-0.013689756 -0.090996325 -0.0124854 2.3509883e-38
-0.011864496 -0.090996325 -0.0124854 2.3509523e-38
-0.0098855868 -0.092379183 -0.018529072 2.3509883e-38
-0.0080497302 -0.092379183 -0.018529072 2.3417687e-38
-0.0062138755 -0.092379183 -0.018529072 2.3509886e-38
-0.0043780189 -0.092379183 -0.018529072 2.3509886e-38
-0.0025421623 -0.092379183 -0.018529072 2.3509527e-38
-0.00070630945 -0.092379183 -0.018529072 2.3509883e-38
0.0010206196 -0.091685757 -0.015498534 2.350988e-38
0.0027375761 -0.090996325 -0.0124854 2.3417324e-38
0.004562838 -0.090996325 -0.0124854 2.3232932e-38
0.0063880961 -0.090996325 -0.0124854 2.3232932e-38
0.0082133543 -0.090996325 -0.0124854 2.3417323e-38
0.010173334 -0.091685757 -0.015498534 2.3417323e-38
0.012003874 -0.091685757 -0.015498534 2.3325847e-38
0.014122253 -0.093051672 -0.021468177 2.3325847e-38
0.015963262 -0.093051672 -0.021468177 2.3325492e-38
0.018013986 -0.093979403 -0.025522724 2.3325492e-38
0.020021381 -0.094660893 -0.028501168 2.3325494e-38
0.022206532 -0.09603554 -0.034508958 2.3325494e-38
0.024300808 -0.096960694 -0.038552299 2.3417687e-38
0.025934281 -0.09603554 -0.034508958 2.3418043e-38
0.027798155 -0.09603554 -0.034508958 2.3418043e-38
0.02966203 -0.09603554 -0.034508958 2.3418043e-38
0.031525902 -0.09603554 -0.034508958 2.3418043e-38
0.033389769 -0.09603554 -0.034508958 2.3418043e-38
0.035050295 -0.095346272 -0.03149654 2.3417687e-38
0.036908887 -0.095346272 -0.03149654 2.3417687e-38
0.038767479 -0.095346272 -0.03149654 2.3417687e-38
0.040626071 -0.095346272 -0.03149654 2.3417687e-38
0.042484663 -0.095346272 -0.03149654 2.3417687e-38
0.044343255 -0.095346272 -0.03149654 2.3325492e-38
0.045968145 -0.094660893 -0.028501168 2.3325492e-38
0.047821485 -0.094660893 -0.028501168 2.3325492e-38
0.049674831 -0.094660893 -0.028501168 2.3233296e-38
0.051528163 -0.094660893 -0.028501168 2.3325129e-38
0.05338151 -0.094660893 -0.028501168 2.3509879e-38
0.055234842 -0.094660893 -0.028501168 2.3509879e-38
0.056824468 -0.093979403 -0.025522724 2.2679762e-38
0.058672585 -0.093979403 -0.025522724 2.3509527e-38
0.060794868 -0.094660893 -0.028501168 2.2772332e-38
0.062648214 -0.094660893 -0.028501168 1.0142269e-38
0.064216934 -0.093979403 -0.025522724 3.7811447e-39
0.066065051 -0.093979403 -0.025522724 3.7818775e-39
0.068208225 -0.094660893 -0.028501168 3.4134692e-39
0.070061572 -0.094660893 -0.028501168 3.967736e-39
0.071914904 -0.094660893 -0.028501168 3.8755515e-39
0.073457532 -0.093979403 -0.025522724 9.6623733e-41
0.074875556 -0.093051672 -0.021468177 1.1350518e-43
0.076716565 -0.093051672 -0.021468177 1.4792177e-39
0.079001881 -0.093979403 -0.025522724 1.110082e-39
0.080849998 -0.093979403 -0.025522724 1.5717846e-39
0.082698114 -0.093979403 -0.025522724 8.342224e-40
-0.10292468 -0.098831654 -0.038552299 3.9666906e-39
-0.10105372 -0.098831654 -0.038552299 6.494598e-40
-0.099355407 -0.099509358 -0.041491643 4.4533265e-42
-0.097654201 -0.10021709 -0.044561163 1.0200514e-39
-0.095993914 -0.10114056 -0.048566476 4.6689583e-40
-0.0941054 -0.10114056 -0.048566476 4.6726297e-40
-0.092216872 -0.10114056 -0.048566476 7.431338e-40
-0.090328358 -0.10114056 -0.048566476 1.0197207e-39
-0.088246711 -0.10021709 -0.044561163 1.2959516e-39
-0.086365215 -0.10021709 -0.044561163 1.387427e-39
-0.084215052 -0.098831654 -0.038552299 9.2644886e-40
-0.082344092 -0.098831654 -0.038552299 6.4914311e-40
-0.080473132 -0.098831654 -0.038552299 9.5969327e-41
-0.078718118 -0.099509358 -0.041491643 3.0458665e-39
-0.076957718 -0.10021709 -0.044561163 2.0317146e-39
-0.074606635 -0.097204864 -0.03149654 2.3082987e-39
-0.0725438 -0.09582752 -0.025522724 1.9395134e-39
-0.070695676 -0.09582752 -0.025522724 2.9540226e-39
-0.069646515 -0.10183108 -0.05156137 2.2164576e-39
-0.067666098 -0.10114056 -0.048566476 1.4796086e-39
-0.065777577 -0.10114056 -0.048566476 1.1115394e-39
-0.06330321 -0.09582752 -0.025522724 1.7572605e-39
-0.061455086 -0.09582752 -0.025522724 8.35293e-40
-0.060264036 -0.10273984 -0.055502906 1.38845e-39
-0.058363356 -0.10273984 -0.055502906 8.1179925e-39
-0.056518517 -0.10343929 -0.058536544 2.1762859e-38
-0.054612517 -0.10343929 -0.058536544 2.2315665e-38
-0.052750222 -0.1041155 -0.061469451 2.2499336e-38
-0.050839081 -0.1041155 -0.061469451 2.2314231e-38
-0.035549924 -0.1041155 -0.061469451 2.3509165e-38
-0.033646494 -0.10343929 -0.058536544 2.3509168e-38
-0.031771064 -0.10183108 -0.05156137 2.3508451e-38
-0.029895671 -0.10114056 -0.048566476 2.3231141e-38
-0.028062969 -0.099509358 -0.041491643 2.3508807e-38
-0.026215199 -0.098831654 -0.038552299 2.3509527e-38
-0.024390316 -0.097899407 -0.034508958 2.3509168e-38
-0.022526443 -0.097899407 -0.034508958 2.3509527e-38
-0.020662569 -0.097899407 -0.034508958 2.3417691e-38
-0.018798694 -0.097899407 -0.034508958 2.3509886e-38
-0.017284803 -0.093516305 -0.015498534 2.2680125e-38
-0.015515015 -0.092821583 -0.0124854 2.2865235e-38
-0.013689756 -0.092821583 -0.0124854 2.341805e-38
-0.011864496 -0.092821583 -0.0124854 2.3234018e-38
-0.0098855868 -0.094215035 -0.018529072 2.3234379e-38
-0.0080497302 -0.094215035 -0.018529072 2.2865235e-38
-0.0061288476 -0.094892681 -0.021468177 2.3416974e-38
-0.0043780189 -0.094215035 -0.018529072 2.3324775e-38
-0.0025421623 -0.094215035 -0.018529072 2.3508446e-38
-0.00060581975 -0.094892681 -0.021468177 2.3509523e-38
0.0011295471 -0.094215035 -0.018529072 2.350988e-38
0.0029654037 -0.094215035 -0.018529072 2.3509879e-38
0.0048012603 -0.094215035 -0.018529072 2.3509879e-38
0.0067582149 -0.094892681 -0.021468177 2.3509876e-38
0.0087733958 -0.09582752 -0.025522724 2.3509876e-38
0.010621512 -0.09582752 -0.025522724 2.3509876e-38
0.01260802 -0.09651424 -0.028501168 2.3509879e-38
0.014605789 -0.097204864 -0.03149654 2.3509879e-38
0.016614908 -0.097899407 -0.034508958 2.350988e-38
0.018687917 -0.098831654 -0.038552299 2.350988e-38
0.020558881 -0.098831654 -0.038552299 2.3509883e-38
0.022429844 -0.098831654 -0.038552299 2.350988e-38
0.024468301 -0.099509358 -0.041491643 2.3509879e-38
0.02634442 -0.099509358 -0.041491643 2.3509879e-38
0.028042736 -0.098831654 -0.038552299 2.3509879e-38
0.029913696 -0.098831654 -0.038552299 2.3509879e-38
0.031525902 -0.097899407 -0.034508958 2.3509879e-38
0.033389769 -0.097899407 -0.034508958 2.3509879e-38
0.035253644 -0.097899407 -0.034508958 2.350988e-38
0.036908887 -0.097204864 -0.03149654 2.350988e-38
0.038767479 -0.097204864 -0.03149654 2.350988e-38
0.040626071 -0.097204864 -0.03149654 2.350988e-38
0.042484663 -0.097204864 -0.03149654 2.350988e-38
0.044343255 -0.097204864 -0.03149654 2.350988e-38
0.045968145 -0.09651424 -0.028501168 2.3509883e-38
0.047821485 -0.09651424 -0.028501168 2.3509883e-38
0.049674831 -0.09651424 -0.028501168 2.3417687e-38
0.051528163 -0.09651424 -0.028501168 2.3418043e-38
0.05338151 -0.09651424 -0.028501168 2.2864505e-38
0.055234842 -0.09651424 -0.028501168 2.3509879e-38
0.056824468 -0.09582752 -0.025522724 2.3509886e-38
0.058672585 -0.09582752 -0.025522724 2.3417691e-38
0.060794868 -0.09651424 -0.028501168 2.1850748e-38
0.062368818 -0.09582752 -0.025522724 1.06029e-38
0.064216934 -0.09582752 -0.025522724 9.2203379e-39
0.066065051 -0.09582752 -0.025522724 1.1618156e-38
0.067913167 -0.09582752 -0.025522724 1.1987311e-38
0.070061572 -0.09651424 -0.028501168 1.4384409e-38
0.071914904 -0.09651424 -0.028501168 1.1343044e-38
0.073457532 -0.09582752 -0.025522724 5.2581455e-39
0.074875556 -0.094892681 -0.021468177 6.4801786e-40
0.076716565 -0.094892681 -0.021468177 3.0226008e-42
0.079001881 -0.09582752 -0.025522724 1.5414283e-43
0.080849998 -0.09582752 -0.025522724 4.0592884e-39
0.082698114 -0.09582752 -0.025522724 7.5627265e-39
-0.10922536 -0.096733689 -0.021468177 7.282038e-39
-0.10738435 -0.096733689 -0.021468177 5.8991288e-39
-0.10554334 -0.096733689 -0.021468177 4.3325626e-39
-0.10370233 -0.096733689 -0.021468177 1.7521934e-39
-0.10186132 -0.096733689 -0.021468177 1.8462107e-39
-0.10026557 -0.097675636 -0.025522724 4.1100084e-42
-0.099355407 -0.10138547 -0.041491643 2.8141576e-40
-0.097654201 -0.10209858 -0.044561163 1.2048168e-39
-0.095772706 -0.10209858 -0.044561163 6.512899e-40
-0.093891211 -0.10209858 -0.044561163 6.5093256e-40
-0.092009708 -0.10209858 -0.044561163 8.3424763e-40
-0.090128206 -0.10209858 -0.044561163 1.2948656e-39
-0.088246711 -0.10209858 -0.044561163 1.8473234e-39
-0.08608602 -0.10070263 -0.038552299 2.3994181e-39
-0.084034279 -0.099763289 -0.034508958 2.5830905e-39
-0.082170404 -0.099763289 -0.034508958 2.4908949e-39
-0.08030653 -0.099763289 -0.034508958 1.2001561e-39
-0.078442656 -0.099763289 -0.034508958 3.6894381e-39
-0.076465227 -0.099063456 -0.03149654 2.3068596e-39
-0.074498974 -0.098367572 -0.028501168 1.7544019e-39
-0.0725438 -0.097675636 -0.025522724 3.7218767e-40
-0.070695676 -0.097675636 -0.025522724 1.8480352e-39
-0.069554619 -0.10302909 -0.048566476 2.125341e-39
-0.067666098 -0.10302909 -0.048566476 1.8487513e-39
-0.065777577 -0.10302909 -0.048566476 1.5732434e-39
-0.06330321 -0.097675636 -0.025522724 1.0193437e-39
-0.061455086 -0.097675636 -0.025522724 6.5090454e-40
-0.060112014 -0.10302909 -0.048566476 3.876653e-39
-0.058223493 -0.10302909 -0.048566476 1.1251199e-38
-0.056390107 -0.10372485 -0.05156137 2.2498619e-38
-0.054612517 -0.10534529 -0.058536544 2.268229e-38
-0.052706517 -0.10534529 -0.058536544 2.2958873e-38
-0.050155543 -0.093950883 -0.0094896704 2.3234379e-38
-0.048335537 -0.093950883 -0.0094896704 2.3509883e-38
-0.046515532 -0.093950883 -0.0094896704 2.3509879e-38
-0.04471916 -0.094646841 -0.0124854 2.3509873e-38
-0.042875521 -0.093950883 -0.0094896704 2.3509873e-38
-0.041038275 -0.093037367 -0.0055574328 2.3048896e-38
-0.039225165 -0.093037367 -0.0055574328 2.3417323e-38
-0.037412055 -0.093037367 -0.0055574328 2.3509165e-38
-0.035546407 -0.10695927 -0.065483823 2.3507733e-38
-0.033646494 -0.10534529 -0.058536544 2.3508092e-38
-0.031771064 -0.10372485 -0.05156137 2.3507374e-38
-0.029895671 -0.10302909 -0.048566476 2.3507016e-38
-0.028062969 -0.10138547 -0.041491643 2.3508451e-38
-0.02625419 -0.099763289 -0.034508958 2.3508451e-38
-0.024424646 -0.099063456 -0.03149654 2.3322985e-38
-0.022566054 -0.099063456 -0.03149654 2.3047117e-38
-0.020662569 -0.099763289 -0.034508958 2.3047837e-38
-0.018848872 -0.099063456 -0.03149654 2.3509527e-38
-0.017229009 -0.096050888 -0.018529072 2.341805e-38
-0.015454261 -0.095346853 -0.015498534 2.3049991e-38
-0.013623718 -0.095346853 -0.015498534 2.3142544e-38
-0.011651874 -0.096733689 -0.021468177 2.2958514e-38
-0.0098108649 -0.096733689 -0.021468177 2.2958873e-38
-0.0079698563 -0.096733689 -0.021468177 2.3234379e-38
-0.0061288476 -0.096733689 -0.021468177 2.3509527e-38
-0.0042878371 -0.096733689 -0.021468177 2.3509168e-38
-0.0024468284 -0.096733689 -0.021468177 2.3509168e-38
-0.00060581975 -0.096733689 -0.021468177 2.3509527e-38
0.0012351889 -0.096733689 -0.021468177 2.3509524e-38
0.0030761976 -0.096733689 -0.021468177 2.3509161e-38
0.0049172062 -0.096733689 -0.021468177 2.3417323e-38
0.0067582149 -0.096733689 -0.021468177 2.3232932e-38
0.0089013409 -0.098367572 -0.028501168 2.3418042e-38
0.010888604 -0.099063456 -0.03149654 2.3418042e-38
0.012887163 -0.099763289 -0.034508958 2.3418042e-38
0.014945993 -0.10070263 -0.038552299 2.3418042e-38
0.016963834 -0.10138547 -0.041491643 2.3326208e-38
0.01883995 -0.10138547 -0.041491643 2.3326208e-38
