# .PCD v0.7 - Point Cloud Data file format
VERSION 0.7
FIELDS x y z rgb
SIZE 4 4 4 4
TYPE F F F F
COUNT 1 1 1 1
WIDTH 931
HEIGHT 1
VIEWPOINT 0 0 0 1 0 0 0
POINTS 931
DATA ascii
0.069173522 -0.10029322 -0.040568393 4.5216622e-39
0.071482338 -0.10120471 -0.044582766 2.6781126e-39
0.07340052 -0.10120471 -0.044582766 3.1401725e-39
0.075318702 -0.10120471 -0.044582766 2.8639458e-39
0.077559225 -0.10190627 -0.047672551 1.3895346e-39
0.079482831 -0.10190627 -0.047672551 6.5196672e-40
0.081406422 -0.10190627 -0.047672551 1.2976921e-39
0.083330028 -0.10190627 -0.047672551 2.2203686e-39
0.085253619 -0.10190627 -0.047672551 3.6022129e-39
0.087623574 -0.10280241 -0.051619332 6.2726351e-39
0.089554079 -0.10280241 -0.051619332 9.2214533e-39
0.091948129 -0.10370506 -0.055594724 9.4994878e-39
0.093885608 -0.10370506 -0.055594724 7.7488554e-39
0.095823102 -0.10370506 -0.055594724 7.4729902e-39
0.098129921 -0.1043932 -0.058625501 5.722348e-39
0.10007272 -0.1043932 -0.058625501 5.9996398e-39
0.10201552 -0.1043932 -0.058625501 1.1531357e-38
0.10447014 -0.10530742 -0.062651798 1.9643826e-38
0.10642 -0.10530742 -0.062651798 2.1672099e-38
0.10836986 -0.10530742 -0.062651798 1.9920755e-38
0.11070979 -0.10597645 -0.065598413 1.789317e-38
0.11321168 -0.1069022 -0.06967549 1.6419128e-38
0.11517387 -0.1069022 -0.06967549 1.1257263e-38
0.11657489 -0.10597645 -0.065598413 1.0428595e-38
0.11852992 -0.10597645 -0.065598413 3.0515152e-39
0.12048494 -0.10597645 -0.065598413 2.8348828e-40
0.12302258 -0.1069022 -0.06967549 5.4482484e-42
0.12498476 -0.1069022 -0.06967549 1.4629556e-42
-0.11079805 -0.096960694 -0.017651241 1.8899402e-38
-0.10865415 -0.09603554 -0.013607901 1.2355321e-38
-0.10679028 -0.09603554 -0.013607901 3.874778e-39
-0.10492641 -0.09603554 -0.013607901 2.4014668e-39
-0.10306253 -0.09603554 -0.013607901 1.6650032e-39
-0.10119867 -0.09603554 -0.013607901 2.7720879e-39
-0.099925213 -0.098335579 -0.023660105 1.574279e-39
-0.098043717 -0.098335579 -0.023660105 1.0211024e-39
-0.096162222 -0.098335579 -0.023660105 2.6791692e-39
-0.093959384 -0.096960694 -0.017651241 3.4167174e-39
-0.091879286 -0.09603554 -0.013607901 5.906707e-39
-0.090015419 -0.09603554 -0.013607901 8.855891e-39
-0.088346504 -0.096960694 -0.017651241 9.4080082e-39
-0.086475536 -0.096960694 -0.017651241 1.3924892e-38
-0.08473599 -0.097633243 -0.020590585 1.2817122e-38
-0.082859874 -0.097633243 -0.020590585 6.4556223e-39
-0.076968297 -0.09603554 -0.013607901 1.272563e-38
-0.070036031 -0.099937305 -0.030660313 3.8752026e-39
-0.067939743 -0.098335579 -0.023660105 5.9056505e-39
-0.066058241 -0.098335579 -0.023660105 1.0425749e-38
-0.064176746 -0.098335579 -0.023660105 4.6192276e-39
-0.062295243 -0.098335579 -0.023660105 1.7619044e-39
-0.060501531 -0.099252045 -0.027665418 1.9424239e-40
-0.05861301 -0.099252045 -0.027665418 1.5761203e-39
-0.056724489 -0.099252045 -0.027665418 8.3676856e-40
-0.030659568 -0.085293055 0.033341486 2.3509517e-38
-0.028878011 -0.085293055 0.033341486 2.3509876e-38
-0.027096454 -0.085293055 0.033341486 2.3509876e-38
-0.025314899 -0.085293055 0.033341486 2.3509876e-38
-0.022862788 -0.096960694 -0.017651241 2.3509876e-38
-0.020991825 -0.096960694 -0.017651241 2.3509879e-38
-0.019120863 -0.096960694 -0.017651241 2.3509879e-38
-0.017249899 -0.096960694 -0.017651241 2.3509879e-38
-0.015460463 -0.09603554 -0.013607901 2.3509879e-38
-0.013596589 -0.09603554 -0.013607901 2.350988e-38
-0.011732714 -0.09603554 -0.013607901 2.350988e-38
-0.009766046 -0.096960694 -0.017651241 2.3509883e-38
-0.0078950822 -0.096960694 -0.017651241 2.3509883e-38
-0.0061410926 -0.09603554 -0.013607901 2.3508809e-38
-0.00427722 -0.09603554 -0.013607901 2.3509168e-38
-0.0024133455 -0.09603554 -0.013607901 2.3509527e-38
-0.00054947101 -0.09603554 -0.013607901 2.3509883e-38
0.0012061242 -0.095346272 -0.010595482 2.3418045e-38
0.0029518027 -0.094660893 -0.00760011 2.3234376e-38
0.0048051421 -0.094660893 -0.00760011 2.3234379e-38
0.0066584814 -0.094660893 -0.00760011 2.3234379e-38
0.0083838794 -0.093979403 -0.0046216659 2.3234379e-38
0.010231996 -0.093979403 -0.0046216659 2.323402e-38
0.012080116 -0.093979403 -0.0046216659 2.323402e-38
0.013928233 -0.093979403 -0.0046216659 2.3417333e-38
0.015776353 -0.093979403 -0.0046216659 2.3416974e-38
0.017624469 -0.093979403 -0.0046216659 2.3232944e-38
0.019472586 -0.093979403 -0.0046216659 2.3417333e-38
0.021320706 -0.093979403 -0.0046216659 2.3509886e-38
0.023168823 -0.093979403 -0.0046216659 2.3509527e-38
0.026619801 -0.093051672 -0.00056711957 1.9267836e-38
0.036105648 -0.093979403 -0.0046216659 1.5581486e-38
0.037953764 -0.093979403 -0.0046216659 1.5950987e-38
0.040236555 -0.095346272 -0.010595482 1.1157175e-38
0.042095147 -0.095346272 -0.010595482 1.0789471e-38
0.043953739 -0.095346272 -0.010595482 1.3555705e-38
0.046362855 -0.096960694 -0.017651241 1.3925216e-38
0.048468299 -0.097633243 -0.020590585 1.4570594e-38
0.05059468 -0.098335579 -0.023660105 1.4847548e-38
0.052476175 -0.098335579 -0.023660105 1.3003282e-38
0.054357685 -0.098335579 -0.023660105 1.0882066e-38
0.05623918 -0.098335579 -0.023660105 1.1066458e-38
0.058475323 -0.099252045 -0.027665418 9.8682675e-39
0.060363837 -0.099252045 -0.027665418 9.2228953e-39
0.062528037 -0.099937305 -0.030660313 8.7619171e-39
0.064791538 -0.10083917 -0.034601849 5.9967699e-39
0.066692226 -0.10083917 -0.034601849 3.6922477e-39
0.069173522 -0.10220437 -0.040568393 4.2450725e-39
0.071084656 -0.10220437 -0.040568393 2.8614332e-39
0.07340052 -0.1031229 -0.044582766 2.3086252e-39
0.075318702 -0.1031229 -0.044582766 8.3349793e-40
0.077236883 -0.1031229 -0.044582766 3.7359318e-40
0.079155065 -0.1031229 -0.044582766 8.3527898e-40
0.081406422 -0.10382988 -0.047672551 1.1129309e-39
0.082991444 -0.1031229 -0.044582766 2.6809642e-39
0.084909625 -0.1031229 -0.044582766 4.6159822e-39
0.087177224 -0.10382988 -0.047672551 6.6414064e-39
0.08910083 -0.10382988 -0.047672551 7.6537633e-39
0.091484599 -0.10473295 -0.051619332 8.761557e-39
0.093415119 -0.10473295 -0.051619332 7.3793484e-39
0.095823102 -0.10564254 -0.055594724 7.2889535e-39
0.097760595 -0.10564254 -0.055594724 7.751005e-39
0.10007272 -0.10633601 -0.058625501 8.0282967e-39
0.10201552 -0.10633601 -0.058625501 1.4943672e-38
0.10395833 -0.10633601 -0.058625501 2.0014038e-38
0.10642 -0.10725726 -0.062651798 2.0382815e-38
0.10836986 -0.10725726 -0.062651798 2.1029251e-38
0.11031973 -0.10725726 -0.062651798 1.6789344e-38
0.1122696 -0.10725726 -0.062651798 1.6329093e-38
0.11421946 -0.10725726 -0.062651798 1.1720402e-38
0.11616933 -0.10725726 -0.062651798 1.1168681e-38
0.11811919 -0.10725726 -0.062651798 3.1462289e-39
0.12006905 -0.10725726 -0.062651798 1.2065236e-39
0.12302258 -0.10886435 -0.06967549 4.664264e-40
0.12498476 -0.10886435 -0.06967549 2.5433567e-42
-0.1123819 -0.097899407 -0.013607901 1.1060627e-38
-0.11051803 -0.097899407 -0.013607901 1.3274768e-38
-0.10865415 -0.097899407 -0.013607901 1.2907436e-38
-0.10659222 -0.097204864 -0.010595482 1.0604001e-38
-0.10473362 -0.097204864 -0.010595482 9.129964e-39
-0.10287503 -0.097204864 -0.010595482 1.0514356e-38
-0.10101644 -0.097204864 -0.010595482 9.3176259e-39
-0.099334784 -0.097899407 -0.013607901 7.4744461e-39
-0.097299255 -0.097204864 -0.010595482 3.4174727e-39
-0.095440663 -0.097204864 -0.010595482 2.0337997e-39
-0.093959384 -0.098831654 -0.017651241 3.6784085e-42
-0.091879286 -0.097899407 -0.013607901 2.12561e-39
-0.090015419 -0.097899407 -0.013607901 8.3945583e-39
-0.088346504 -0.098831654 -0.017651241 9.1310696e-39
-0.086475536 -0.098831654 -0.017651241 9.1300116e-39
-0.084423795 -0.097899407 -0.013607901 5.3489272e-39
-0.082559921 -0.097899407 -0.013607901 1.5806647e-42
-0.080696046 -0.097899407 -0.013607901 6.472976e-40
-0.073240556 -0.097899407 -0.013607901 5.9020996e-39
-0.071376681 -0.097899407 -0.013607901 3.2287766e-39
-0.069512807 -0.097899407 -0.013607901 7.8392588e-39
-0.067648932 -0.097899407 -0.013607901 9.6845895e-39
-0.065974824 -0.099509358 -0.020590585 1.0241344e-38
-0.063921183 -0.097899407 -0.013607901 6.7389886e-39
-0.062057309 -0.097899407 -0.013607901 7.1081565e-39
-0.060413748 -0.10021709 -0.023660105 7.5691599e-39
-0.058532245 -0.10021709 -0.023660105 7.3840764e-39
-0.056540124 -0.098831654 -0.017651241 2.8657885e-39
-0.054669164 -0.098831654 -0.017651241 1.8960829e-40
-0.052798197 -0.098831654 -0.017651241 3.7184155e-40
-0.050927237 -0.098831654 -0.017651241 2.2121472e-39
-0.049056269 -0.098831654 -0.017651241 2.117774e-39
-0.03067833 -0.086369663 0.036398966 2.3139661e-38
-0.028902134 -0.086369663 0.036398966 2.332405e-38
-0.02712594 -0.086369663 0.036398966 2.3509158e-38
-0.025349744 -0.086369663 0.036398966 2.3508077e-38
-0.023533342 -0.087074608 0.033341486 2.3508077e-38
-0.020991825 -0.098831654 -0.017651241 2.34166e-38
-0.019071903 -0.099509358 -0.020590585 2.34166e-38
-0.017379796 -0.097204864 -0.010595482 2.3324407e-38
-0.015521204 -0.097204864 -0.010595482 2.3232211e-38
-0.01366261 -0.097204864 -0.010595482 2.2956346e-38
-0.011804018 -0.097204864 -0.010595482 2.3048545e-38
-0.0098688416 -0.097899407 -0.013607901 2.3509167e-38
-0.0080049671 -0.097899407 -0.013607901 2.3509886e-38
-0.0061410926 -0.097899407 -0.013607901 2.3509527e-38
-0.00427722 -0.097899407 -0.013607901 2.341805e-38
-0.0024133455 -0.097899407 -0.013607901 2.341805e-38
-0.00054947101 -0.097899407 -0.013607901 2.3234379e-38
0.0012061242 -0.097204864 -0.010595482 2.3142544e-38
0.0029518027 -0.09651424 -0.00760011 2.2958873e-38
0.0048051421 -0.09651424 -0.00760011 2.2590813e-38
0.0066584814 -0.09651424 -0.00760011 2.2406066e-38
0.0085118245 -0.09651424 -0.00760011 2.1391567e-38
0.010365164 -0.09651424 -0.00760011 1.9362189e-38
0.012218503 -0.09651424 -0.00760011 1.8163289e-38
0.013928233 -0.09582752 -0.0046216659 1.8162929e-38
0.015776353 -0.09582752 -0.0046216659 1.8069653e-38
0.017624469 -0.09582752 -0.0046216659 1.8253681e-38
0.019472586 -0.09582752 -0.0046216659 1.9729164e-38
0.021320706 -0.09582752 -0.0046216659 2.1112459e-38
0.022770302 -0.094215035 0.0023719855 2.0283424e-38
0.024778789 -0.094892681 -0.00056711957 2.0467463e-38
0.026619801 -0.094892681 -0.00056711957 2.0282723e-38
0.02846081 -0.094892681 -0.00056711957 1.9084191e-38
0.030301819 -0.094892681 -0.00056711957 1.7148815e-38
0.032142825 -0.094892681 -0.00056711957 1.530455e-38
0.033983834 -0.094892681 -0.00056711957 1.3921979e-38
0.036105648 -0.09582752 -0.0046216659 1.5489666e-38
0.037953764 -0.09582752 -0.0046216659 1.3553915e-38
0.040018603 -0.09651424 -0.00760011 9.405832e-39
0.042095147 -0.097204864 -0.010595482 7.9314222e-39
0.043953739 -0.097204864 -0.010595482 7.7477568e-39
0.046047375 -0.097899407 -0.013607901 5.535426e-39
0.047911249 -0.097899407 -0.013607901 3.6911631e-39
0.050104775 -0.098831654 -0.017651241 2.8614108e-39
0.052220546 -0.099509358 -0.020590585 1.6625159e-39
0.054096662 -0.099509358 -0.020590585 2.4919263e-39
0.05623918 -0.10021709 -0.023660105 2.5841219e-39
0.058120675 -0.10021709 -0.023660105 1.9394573e-39
0.060363837 -0.10114056 -0.027665418 1.9398091e-39
0.062252365 -0.10114056 -0.027665418 2.2167491e-39
0.06442181 -0.10183108 -0.030660313 1.0182059e-39
0.066315584 -0.10183108 -0.030660313 2.6218294e-42
0.06888812 -0.10343929 -0.037635487 3.7134409e-42
0.070794113 -0.10343929 -0.037635487 6.4874093e-40
0.072995804 -0.1041155 -0.040568393 9.249761e-40
0.074906953 -0.1041155 -0.040568393 1.8469324e-39
0.076818101 -0.1041155 -0.040568393 2.123871e-39
0.079155065 -0.10504107 -0.044582766 2.6784657e-39
0.081073247 -0.10504107 -0.044582766 3.2323401e-39
0.082991444 -0.10504107 -0.044582766 5.0773121e-39
0.084909625 -0.10504107 -0.044582766 9.7778417e-39
0.086827807 -0.10504107 -0.044582766 8.6686229e-39
0.08910083 -0.10575347 -0.047672551 3.2287262e-39
0.091024421 -0.10575347 -0.047672551 3.0454237e-39
0.092948027 -0.10575347 -0.047672551 2.4011375e-39
0.095345654 -0.10666345 -0.051619332 4.3386877e-39
0.097760595 -0.10758002 -0.055594724 1.171577e-38
0.099698089 -0.10758002 -0.055594724 1.5220271e-38
0.10201552 -0.10827883 -0.058625501 2.158134e-38
0.10395833 -0.10827883 -0.058625501 1.9830726e-38
0.10642 -0.10920714 -0.062651798 1.8448513e-38
0.10836986 -0.10920714 -0.062651798 1.835703e-38
0.11031973 -0.10920714 -0.062651798 1.1811859e-38
0.1122696 -0.10920714 -0.062651798 1.070768e-38
0.11421946 -0.10920714 -0.062651798 9.6942556e-39
0.11616933 -0.10920714 -0.062651798 1.0157406e-38
0.11811919 -0.10920714 -0.062651798 3.2398623e-39
0.12006905 -0.10920714 -0.062651798 2.1284771e-39
0.12302258 -0.11082654 -0.06967549 8.3520611e-40
0.12498476 -0.11082654 -0.06967549 3.9838915e-42
-0.11453999 -0.10070263 -0.017651241 3.6835568e-39
-0.1123819 -0.099763289 -0.013607901 3.7764896e-39
-0.11051803 -0.099763289 -0.013607901 5.16051e-39
-0.10865415 -0.099763289 -0.013607901 7.0055128e-39
-0.10659222 -0.099063456 -0.010595482 8.7590347e-39
-0.10473362 -0.099063456 -0.010595482 8.8526764e-39
-0.10287503 -0.099063456 -0.010595482 1.0882785e-38
-0.10101644 -0.099063456 -0.010595482 9.2247072e-39
-0.099157847 -0.099063456 -0.010595482 8.7651737e-39
-0.096958846 -0.097675636 -0.0046216659 7.9346914e-39
-0.095110729 -0.097675636 -0.0046216659 8.3013075e-39
-0.093743168 -0.099763289 -0.013607901 3.8759047e-39
-0.091879286 -0.099763289 -0.013607901 1.4788141e-39
-0.090015419 -0.099763289 -0.013607901 4.3368828e-39
-0.088151544 -0.099763289 -0.013607901 4.1514336e-39
-0.086147703 -0.099063456 -0.010595482 2.8599941e-39
-0.084155187 -0.098367572 -0.00760011 6.4731301e-40
-0.082301848 -0.098367572 -0.00760011 4.6292175e-40
-0.080448501 -0.098367572 -0.00760011 1.3852298e-39
-0.073240556 -0.099763289 -0.013607901 3.9663557e-39
-0.071376681 -0.099763289 -0.013607901 4.519884e-39
-0.069328465 -0.098367572 -0.00760011 1.0697693e-38
-0.067475125 -0.098367572 -0.00760011 1.208133e-38
-0.065703191 -0.099063456 -0.010595482 1.4111059e-38
-0.063844599 -0.099063456 -0.010595482 1.0331755e-38
-0.061986007 -0.099063456 -0.010595482 9.5034492e-39
-0.060193434 -0.099763289 -0.013607901 7.9372193e-39
-0.05832956 -0.099763289 -0.013607901 6.0011307e-39
-0.056465685 -0.099763289 -0.013607901 1.2991704e-39
-0.054601811 -0.099763289 -0.013607901 7.0036897e-42
-0.052737936 -0.099763289 -0.013607901 2.0324391e-39
-0.050874069 -0.099763289 -0.013607901 1.9380855e-39
-0.049010195 -0.099763289 -0.013607901 1.8440836e-39
-0.045156363 -0.096050888 0.0023719855 2.394714e-39
-0.043320507 -0.096050888 0.0023719855 1.5656568e-39
-0.03067833 -0.088145852 0.036398966 2.3416256e-38
-0.028902134 -0.088145852 0.036398966 2.3508092e-38
-0.02712594 -0.088145852 0.036398966 2.3508809e-38
-0.025349744 -0.088145852 0.036398966 2.3508809e-38
-0.023533342 -0.088856161 0.033341486 2.3508807e-38
-0.021380309 -0.094646841 0.008415658 2.3508807e-38
-0.019555049 -0.094646841 0.008415658 2.3509163e-38
-0.017729791 -0.094646841 0.008415658 2.3509163e-38
-0.01610595 -0.092326149 0.018405039 2.3509165e-38
-0.014362611 -0.091643453 0.021343667 2.3509527e-38
-0.012560019 -0.091643453 0.021343667 2.3509527e-38
-0.010757426 -0.091643453 0.021343667 2.3325138e-38
-0.0089548342 -0.091643453 0.021343667 2.3141467e-38
-0.0061410926 -0.099763289 -0.013607901 2.3142544e-38
-0.00427722 -0.099763289 -0.013607901 2.2682649e-38
-0.0024133455 -0.099763289 -0.013607901 2.2590454e-38
-0.00054947101 -0.099763289 -0.013607901 2.2775202e-38
0.0010984633 -0.098367572 -0.00760011 2.2867037e-38
0.0029518027 -0.098367572 -0.00760011 2.2867037e-38
0.0048051421 -0.098367572 -0.00760011 2.2775202e-38
0.006781904 -0.099063456 -0.010595482 2.2775202e-38
0.0086404961 -0.099063456 -0.010595482 1.7980345e-38
0.010499088 -0.099063456 -0.010595482 1.4107774e-38
0.011474358 -0.094646841 0.008415658 1.2539732e-38
0.013299616 -0.094646841 0.008415658 1.3829392e-38
0.015776353 -0.097675636 -0.0046216659 1.4750985e-38
0.017414754 -0.096733689 -0.00056711957 1.6317587e-38
0.019098589 -0.096050888 0.0023719855 1.92682e-38
0.020934446 -0.096050888 0.0023719855 2.1389418e-38
0.022770302 -0.096050888 0.0023719855 2.1390495e-38
0.024778789 -0.096733689 -0.00056711957 2.0376717e-38
0.026619801 -0.096733689 -0.00056711957 2.0007222e-38
0.02846081 -0.096733689 -0.00056711957 1.7056627e-38
0.030301819 -0.096733689 -0.00056711957 1.4567712e-38
0.032142825 -0.096733689 -0.00056711957 1.2723448e-38
0.033983834 -0.096733689 -0.00056711957 1.0972454e-38
0.036105648 -0.097675636 -0.0046216659 1.1895132e-38
0.037953764 -0.097675636 -0.0046216659 9.0370677e-39
0.040018603 -0.098367572 -0.00760011 7.6548535e-39
0.041871943 -0.098367572 -0.00760011 5.4421612e-39
0.043953739 -0.099063456 -0.010595482 3.4142203e-39
0.046047375 -0.099763289 -0.013607901 2.1234857e-39
0.047911249 -0.099763289 -0.013607901 1.0175038e-39
0.050104775 -0.10070263 -0.017651241 9.2495648e-40
0.051975735 -0.10070263 -0.017651241 1.7543654e-39
0.053846709 -0.10070263 -0.017651241 1.2937572e-39
0.055717669 -0.10070263 -0.017651241 1.109366e-39
0.057588629 -0.10070263 -0.017651241 5.5689703e-40
0.059725009 -0.10138547 -0.020590585 5.5724595e-40
0.061601125 -0.10138547 -0.020590585 1.0185744e-39
0.064140879 -0.10302909 -0.027665418 1.0185744e-39
0.066029407 -0.10302909 -0.027665418 9.253054e-40
0.068209358 -0.10372485 -0.030660313 1.1093449e-39
0.070794113 -0.10534529 -0.037635487 9.4844084e-41
0.072995804 -0.10602666 -0.040568393 9.4490957e-41
0.074906953 -0.10602666 -0.040568393 2.6759686e-39
0.076818101 -0.10602666 -0.040568393 3.2294913e-39
0.079155065 -0.10695927 -0.044582766 5.3503299e-39
0.081073247 -0.10695927 -0.044582766 6.5495737e-39
0.082991444 -0.10695927 -0.044582766 5.9052609e-39
0.084909625 -0.10695927 -0.044582766 1.0422481e-38
0.086827807 -0.10695927 -0.044582766 1.1894744e-38
0.088745989 -0.10695927 -0.044582766 1.7528744e-39
0.091024421 -0.10767709 -0.047672551 4.6322303e-40
0.092948027 -0.10767709 -0.047672551 2.6064151e-42
0.095345654 -0.10859399 -0.051619332 5.5902e-40
0.097276174 -0.10859399 -0.051619332 1.1900157e-38
0.099698089 -0.10951753 -0.055594724 1.6603202e-38
0.10201552 -0.11022164 -0.058625501 2.0108026e-38
0.10395833 -0.11022164 -0.058625501 2.0568997e-38
0.10642 -0.11115701 -0.062651798 1.780422e-38
0.10836986 -0.11115701 -0.062651798 1.6053937e-38
0.11031973 -0.11115701 -0.062651798 1.1167928e-38
0.1122696 -0.11115701 -0.062651798 8.6804554e-39
0.11421946 -0.11115701 -0.062651798 9.2350754e-39
0.11616933 -0.11115701 -0.062651798 9.0514184e-39
0.11811919 -0.11115701 -0.062651798 4.2547345e-39
0.12006905 -0.11115701 -0.062651798 2.6823697e-39
0.12243997 -0.11184154 -0.065598413 8.3520611e-40
0.12439501 -0.11184154 -0.065598413 9.6539655e-41
-0.11685871 -0.10398008 -0.023660105 3.1310879e-39
-0.11453999 -0.10257359 -0.017651241 1.9322056e-39
-0.1123819 -0.10162716 -0.013607901 9.1897153e-41
-0.11051803 -0.10162716 -0.013607901 6.4292975e-40
-0.10865415 -0.10162716 -0.013607901 7.8472714e-44
-0.10659222 -0.10092205 -0.010595482 9.10844e-44
-0.10473362 -0.10092205 -0.010595482 1.8593129e-40
-0.10287503 -0.10092205 -0.010595482 9.2493966e-40
-0.10083524 -0.10022092 -0.00760011 7.4199314e-40
-0.098981909 -0.10022092 -0.00760011 1.5731957e-39
-0.096727803 -0.098574698 -0.00056711957 6.6428778e-39
-0.094886795 -0.098574698 -0.00056711957 8.02365e-39
-0.093045786 -0.098574698 -0.00056711957 9.4062187e-39
-0.091204777 -0.098574698 -0.00056711957 8.3924213e-39
-0.089864887 -0.10092205 -0.010595482 7.9318061e-39
-0.088006295 -0.10092205 -0.010595482 6.3641329e-39
-0.086147703 -0.10092205 -0.010595482 5.3492747e-39
-0.084155187 -0.10022092 -0.00760011 2.3993845e-39
-0.082301848 -0.10022092 -0.00760011 1.6618195e-39
-0.080448501 -0.10022092 -0.00760011 7.3985756e-40
-0.073240556 -0.10162716 -0.013607901 1.7533074e-39
-0.071376681 -0.10162716 -0.013607901 3.4131847e-39
-0.069328465 -0.10022092 -0.00760011 8.4842933e-39
-0.067475125 -0.10022092 -0.00760011 9.8675794e-39
-0.065703191 -0.10092205 -0.010595482 5.9035177e-39
-0.063844599 -0.10092205 -0.010595482 1.9401846e-39
-0.061986007 -0.10092205 -0.010595482 1.9416293e-39
-0.060193434 -0.10162716 -0.013607901 3.2330926e-39
-0.05832956 -0.10162716 -0.013607901 5.079173e-39
-0.056465685 -0.10162716 -0.013607901 2.9590407e-39
-0.054601811 -0.10162716 -0.013607901 9.3038511e-40
-0.052737936 -0.10162716 -0.013607901 7.4492466e-40
-0.050874069 -0.10162716 -0.013607901 4.6546791e-40
-0.048725054 -0.095770895 0.011411387 5.5347926e-39
-0.046905048 -0.095770895 0.011411387 5.9014129e-39
-0.045085043 -0.095770895 0.011411387 3.2270152e-39
-0.043265037 -0.095770895 0.011411387 2.4894418e-39
-0.041445032 -0.095770895 0.011411387 3.2273585e-39
-0.03067833 -0.089922056 0.036398966 1.4381501e-38
-0.028902134 -0.089922056 0.036398966 1.6961169e-38
-0.02712594 -0.089922056 0.036398966 1.9726667e-38
-0.025314899 -0.090637714 0.033341486 2.2768027e-38
-0.023533342 -0.090637714 0.033341486 2.3507733e-38
-0.021572979 -0.093446046 0.021343667 2.3508092e-38
-0.019721439 -0.094133899 0.018405039 2.3508092e-38
-0.017913695 -0.094133899 0.018405039 2.3507016e-38
-0.016165202 -0.093446046 0.021343667 2.3323703e-38
-0.014362611 -0.093446046 0.021343667 2.3416615e-38
-0.012560019 -0.093446046 0.021343667 2.3417691e-38
-0.010834355 -0.092737779 0.024369556 2.323402e-38
-0.0090370681 -0.092737779 0.024369556 2.2774484e-38
-0.0072397813 -0.092737779 0.024369556 2.2867037e-38
-0.00427722 -0.10162716 -0.013607901 2.1393364e-38
-0.0022821929 -0.10257359 -0.017651241 1.8535308e-38
-0.00054947101 -0.10162716 -0.013607901 1.65992e-38
0.00084567256 -0.098574698 -0.00056711957 1.5861635e-38
0.0026866812 -0.098574698 -0.00056711957 1.5861638e-38
0.0048051421 -0.10022092 -0.00760011 1.5677615e-38
0.006781904 -0.10092205 -0.010595482 1.5585065e-38
0.0076951515 -0.095770895 0.011411387 1.5583994e-38
0.0095151607 -0.095770895 0.011411387 1.3370226e-38
0.011335166 -0.095770895 0.011411387 1.2908532e-38
0.013155172 -0.095770895 0.011411387 1.2815617e-38
0.016225392 -0.10162716 -0.013607901 1.1524152e-38
0.017262733 -0.097886756 0.0023719855 1.2722331e-38
0.019098589 -0.097886756 0.0023719855 1.7055879e-38
0.020934446 -0.097886756 0.0023719855 2.0190893e-38
0.022770302 -0.097886756 0.0023719855 2.0192328e-38
0.024778789 -0.098574698 -0.00056711957 1.3647187e-38
0.026619801 -0.098574698 -0.00056711957 8.5760755e-39
0.02846081 -0.098574698 -0.00056711957 2.0301942e-39
0.030301819 -0.098574698 -0.00056711957 8.3165663e-40
0.032142825 -0.098574698 -0.00056711957 2.1231213e-39
0.033983834 -0.098574698 -0.00056711957 1.6617886e-39
0.036105648 -0.099523753 -0.0046216659 3.7141276e-40
0.037953764 -0.099523753 -0.0046216659 9.2458654e-40
0.040018603 -0.10022092 -0.00760011 1.7550661e-39
0.041871943 -0.10022092 -0.00760011 9.253082e-40
0.043953739 -0.10092205 -0.010595482 2.7958146e-40
0.045812331 -0.10092205 -0.010595482 1.5703231e-39
0.047911249 -0.10162716 -0.013607901 2.1231437e-39
0.050104775 -0.10257359 -0.017651241 2.0309523e-39
0.051975735 -0.10257359 -0.017651241 2.4926563e-39
0.053846709 -0.10257359 -0.017651241 2.4008236e-39
0.055717669 -0.10257359 -0.017651241 1.8476499e-39
0.057588629 -0.10257359 -0.017651241 1.0182395e-39
0.059725009 -0.1032616 -0.020590585 5.5689423e-40
0.061601125 -0.1032616 -0.020590585 5.5724735e-40
0.063477241 -0.1032616 -0.020590585 1.1104197e-39
0.065646671 -0.10398008 -0.023660105 1.6625159e-39
0.067528166 -0.10398008 -0.023660105 1.7547171e-39
0.069806449 -0.1049176 -0.027665418 1.3852186e-39
0.072700121 -0.1072513 -0.037635487 1.3852186e-39
0.074606128 -0.1072513 -0.037635487 2.3990048e-39
0.076818101 -0.1079378 -0.040568393 3.1369187e-39
0.078729235 -0.1079378 -0.040568393 7.0087582e-39
0.081073247 -0.10887744 -0.044582766 9.0377655e-39
0.082991444 -0.10887744 -0.044582766 8.0243185e-39
0.084909625 -0.10887744 -0.044582766 1.1066411e-38
0.086827807 -0.10887744 -0.044582766 1.1248659e-38
0.088745989 -0.10887744 -0.044582766 4.6177829e-40
0.091024421 -0.10960068 -0.047672551 7.8472714e-44
0.092948027 -0.10960068 -0.047672551 2.6050138e-42
0.094871618 -0.10960068 -0.047672551 8.3560548e-40
0.096795224 -0.10960068 -0.047672551 1.3560395e-38
0.099206693 -0.11052449 -0.051619332 1.6235492e-38
0.10201552 -0.11216442 -0.058625501 1.4852906e-38
0.10395833 -0.11216442 -0.058625501 1.337848e-38
0.10590113 -0.11216442 -0.058625501 1.2180643e-38
0.10784394 -0.11216442 -0.058625501 1.1812938e-38
0.10978674 -0.11216442 -0.058625501 1.282745e-38
0.11172955 -0.11216442 -0.058625501 1.1353763e-38
0.11421946 -0.11310686 -0.062651798 1.1354853e-38
0.11616933 -0.11310686 -0.062651798 9.3276395e-39
0.11811919 -0.11310686 -0.062651798 5.914609e-39
0.12006905 -0.11310686 -0.062651798 3.2355407e-39
0.12201891 -0.11310686 -0.062651798 8.3520331e-40
0.12396879 -0.11310686 -0.062651798 4.3412226e-42
-0.11662998 -0.10513772 -0.020590585 3.316547e-39
-0.11475386 -0.10513772 -0.020590585 4.1456e-39
-0.11266901 -0.10444455 -0.017651241 4.4232771e-39
-0.11051803 -0.10349102 -0.013607901 3.6860806e-39
-0.10865415 -0.10349102 -0.013607901 3.6871708e-39
-0.10659222 -0.10278064 -0.010595482 4.886807e-39
-0.10473362 -0.10278064 -0.010595482 4.4841551e-43
-0.10268859 -0.10207425 -0.00760011 9.4460128e-41
-0.10083524 -0.10207425 -0.00760011 3.7177709e-40
-0.09880697 -0.10137187 -0.0046216659 1.2079193e-42
-0.096727803 -0.10041572 -0.00056711957 2.4915745e-39
-0.094724469 -0.099722609 0.0023719855 3.9656228e-39
-0.092888616 -0.099722609 0.0023719855 8.2058973e-39
-0.090896003 -0.099007934 0.005402524 9.4969865e-39
-0.08906547 -0.099007934 0.005402524 8.7605004e-39
-0.087234922 -0.099007934 0.005402524 7.3779289e-39
-0.086008526 -0.10207425 -0.00760011 8.6686705e-39
-0.084155187 -0.10207425 -0.00760011 6.9173165e-39
-0.082301848 -0.10207425 -0.00760011 4.9812083e-39
-0.075083211 -0.091698244 0.036398966 1.8472813e-39
-0.071278967 -0.10278064 -0.010595482 5.5549153e-40
-0.069420375 -0.10278064 -0.010595482 1.477445e-39
-0.066202231 -0.091698244 0.036398966 2.3983251e-39
-0.064426035 -0.091698244 0.036398966 3.7805463e-39
-0.062649839 -0.091698244 0.036398966 4.622225e-40
-0.062057309 -0.10349102 -0.013607901 7.4059885e-40
-0.060193434 -0.10349102 -0.013607901 2.2175198e-39
-0.05832956 -0.10349102 -0.013607901 5.1706484e-39
-0.056465685 -0.10349102 -0.013607901 4.0657372e-39
-0.054601811 -0.10349102 -0.013607901 1.3927856e-39
-0.052365072 -0.097590908 0.011411387 8.4161986e-42
-0.050545059 -0.097590908 0.011411387 1.2069692e-39
-0.048645355 -0.095941633 0.018405039 2.8647011e-39
-0.046837606 -0.095941633 0.018405039 3.0469427e-39
-0.045029864 -0.095941633 0.018405039 1.5707365e-39
-0.043240905 -0.096663594 0.015343625 2.3072197e-39
-0.041414373 -0.095941633 0.018405039 2.3997713e-39
-0.039598901 -0.09524864 0.021343667 2.2146597e-39
-0.037796311 -0.09524864 0.021343667 1.8455073e-39
-0.030659568 -0.092419267 0.033341486 5.1619884e-39
-0.028878011 -0.092419267 0.033341486 8.018597e-39
-0.027096454 -0.092419267 0.033341486 1.124435e-38
-0.025314899 -0.092419267 0.033341486 1.6867549e-38
-0.023494247 -0.093120396 0.030368406 2.2766951e-38
-0.021572979 -0.09524864 0.021343667 2.3504863e-38
-0.019721439 -0.095941633 0.018405039 2.3507374e-38
-0.017913695 -0.095941633 0.018405039 2.3508092e-38
-0.016165202 -0.09524864 0.021343667 2.3508451e-38
-0.014362611 -0.09524864 0.021343667 2.3049273e-38
-0.012560019 -0.09524864 0.021343667 2.2957438e-38
-0.010834355 -0.094535068 0.024369556 2.2866678e-38
-0.0090370681 -0.094535068 0.024369556 2.2591531e-38
-0.0072397813 -0.094535068 0.024369556 2.0379228e-38
-0.0054424945 -0.094535068 0.024369556 1.7706652e-38
-0.0036452059 -0.094535068 0.024369556 1.4848587e-38
-0.00041122921 -0.10444455 -0.017651241 1.3373457e-38
0.00041512586 -0.097590908 0.011411387 1.374224e-38
0.0020868983 -0.096663594 0.015343625 1.4572003e-38
0.003900012 -0.096663594 0.015343625 1.4940433e-38
0.0057131257 -0.096663594 0.015343625 1.4848241e-38
0.0076951515 -0.097590908 0.011411387 1.3187648e-38
0.0095151607 -0.097590908 0.011411387 1.2909986e-38
0.011335166 -0.097590908 0.011411387 1.309258e-38
0.013155172 -0.097590908 0.011411387 1.0971719e-38
0.014975181 -0.097590908 0.011411387 7.8367014e-39
0.017262733 -0.099722609 0.0023719855 9.6798895e-39
0.019098589 -0.099722609 0.0023719855 1.4473697e-38
0.020934446 -0.099722609 0.0023719855 1.6319051e-38
0.022770302 -0.099722609 0.0023719855 1.622831e-38
0.024778789 -0.10041572 -0.00056711957 8.300576e-39
0.026619801 -0.10041572 -0.00056711957 5.5350729e-39
0.028713176 -0.10137187 -0.0046216659 9.2493826e-40
0.030301819 -0.10041572 -0.00056711957 4.6523109e-43
0.032142825 -0.10041572 -0.00056711957 9.5547536e-41
0.034257531 -0.10137187 -0.0046216659 5.5617116e-40
0.036105648 -0.10137187 -0.0046216659 9.6272007e-41
0.038165264 -0.10207425 -0.00760011 1.110068e-39
0.040018603 -0.10207425 -0.00760011 1.5710462e-39
0.041871943 -0.10207425 -0.00760011 2.1242227e-39
0.043725282 -0.10207425 -0.00760011 2.308614e-39
0.045812331 -0.10278064 -0.010595482 2.4930081e-39
0.047670923 -0.10278064 -0.010595482 2.677042e-39
0.050104775 -0.10444455 -0.017651241 2.3071861e-39
0.051975735 -0.10444455 -0.017651241 1.0175235e-39
0.053846709 -0.10444455 -0.017651241 2.4015285e-39
0.055717669 -0.10444455 -0.017651241 1.7572353e-39
0.057588629 -0.10444455 -0.017651241 1.3884556e-39
0.059459589 -0.10444455 -0.017651241 9.2639841e-40
0.061601125 -0.10513772 -0.020590585 4.647042e-40
0.063477241 -0.10513772 -0.020590585 9.2568235e-40
0.065646671 -0.10586159 -0.023660105 1.4777743e-39
0.067528166 -0.10586159 -0.023660105 1.0171521e-39
0.069806449 -0.10680611 -0.027665418 1.016785e-39
0.072394274 -0.1084419 -0.034601849 5.8105892e-39
0.074606128 -0.10915731 -0.037635487 5.718025e-39
0.076512121 -0.10915731 -0.037635487 5.165203e-39
0.078418128 -0.10915731 -0.037635487 5.6258112e-39
0.080640383 -0.10984896 -0.040568393 4.7964008e-39
0.082551531 -0.10984896 -0.040568393 7.377154e-39
0.084462665 -0.10984896 -0.040568393 1.0235223e-38
0.086373813 -0.10984896 -0.040568393 9.8657353e-39
0.088745989 -0.11079563 -0.044582766 2.2142239e-39
0.090664171 -0.11079563 -0.044582766 2.249084e-42
0.092948027 -0.11152427 -0.047672551 2.6064151e-42
0.094871618 -0.11152427 -0.047672551 1.1132714e-39
0.096795224 -0.11152427 -0.047672551 1.3929533e-38
0.098718829 -0.11152427 -0.047672551 1.5590121e-38
0.10113721 -0.11245503 -0.051619332 1.3101544e-38
0.10357306 -0.11339252 -0.055594724 1.2824943e-38
0.10590113 -0.11410724 -0.058625501 1.3378465e-38
0.10784394 -0.11410724 -0.058625501 1.2272474e-38
0.10978674 -0.11410724 -0.058625501 1.3563929e-38
0.11172955 -0.11410724 -0.058625501 1.3011481e-38
0.11421946 -0.11505674 -0.062651798 1.2828177e-38
0.11616933 -0.11505674 -0.062651798 1.0616209e-38
0.11811919 -0.11505674 -0.062651798 6.6503677e-39
0.12006905 -0.11505674 -0.062651798 3.7883487e-39
0.12201891 -0.11505674 -0.062651798 7.4336361e-40
0.12396879 -0.11505674 -0.062651798 3.6181526e-42
-0.11662998 -0.10701384 -0.020590585 3.9633471e-39
-0.11453999 -0.10631551 -0.017651241 1.3643532e-38
-0.1123819 -0.10535492 -0.013607901 2.3416615e-38
-0.11051803 -0.10535492 -0.013607901 2.267942e-38
-0.10845081 -0.10463922 -0.010595482 2.2311719e-38
-0.10659222 -0.10463922 -0.010595482 2.0100134e-38
-0.10454194 -0.1039276 -0.00760011 9.2418997e-40
-0.10268859 -0.1039276 -0.00760011 8.1275311e-43
-0.10065509 -0.10322 -0.0046216659 8.3239371e-40
-0.098568812 -0.10225673 -0.00056711957 1.4777785e-39
-0.096560322 -0.10155846 0.0023719855 2.7816335e-40
-0.094557092 -0.10083848 0.005402524 1.3032076e-43
-0.092726551 -0.10083848 0.005402524 4.6074974e-40
-0.090740159 -0.10012263 0.008415658 5.5366003e-40
-0.088914901 -0.10012263 0.008415658 9.2351875e-40
-0.086945198 -0.099410906 0.011411387 1.0160703e-39
-0.084800236 -0.097749382 0.018405039 5.1655897e-39
-0.082861111 -0.097051233 0.021343667 7.0098624e-39
-0.080928534 -0.096332356 0.024369556 6.4577677e-39
-0.079007298 -0.095617667 0.027377803 6.6421589e-39
-0.077097312 -0.094907165 0.030368406 6.9187486e-39
-0.075083211 -0.093474448 0.036398966 6.4574201e-39
-0.073092803 -0.092058569 0.042358596 7.4712203e-39
-0.07132706 -0.092058569 0.042358596 4.7968394e-39
-0.069754623 -0.093474448 0.036398966 3.3213576e-39
-0.067978427 -0.093474448 0.036398966 7.3988279e-40
-0.066202231 -0.093474448 0.036398966 1.015039e-39
-0.064426035 -0.093474448 0.036398966 1.198361e-39
-0.062649839 -0.093474448 0.036398966 4.6079598e-40
-0.062057309 -0.10535492 -0.013607901 1.8458772e-39
-0.060193434 -0.10535492 -0.013607901 1.0182619e-39
-0.05832956 -0.10535492 -0.013607901 1.2055189e-39
-0.056465685 -0.10535492 -0.013607901 8.0490584e-42
-0.054601811 -0.10535492 -0.013607901 8.4105934e-42
-0.052306466 -0.098476708 0.015343625 4.7047475e-40
-0.050493352 -0.098476708 0.015343625 1.013405e-40
-0.048645355 -0.097749382 0.018405039 1.3910101e-39
-0.046809271 -0.097051233 0.021343667 2.8654283e-39
-0.045006678 -0.097051233 0.021343667 1.6650901e-39
-0.043204084 -0.097051233 0.021343667 2.4015761e-39
-0.041388229 -0.096332356 0.024369556 2.1246235e-39
-0.039575167 -0.094907165 0.030368406 3.3228052e-39
-0.037788399 -0.094907165 0.030368406 3.1373321e-39
-0.03600163 -0.094907165 0.030368406 3.8756244e-39
-0.034222677 -0.094200835 0.033341486 2.8607494e-39
-0.032441124 -0.094200835 0.033341486 3.2284417e-39
-0.030659568 -0.094200835 0.033341486 5.0705424e-39
-0.028878011 -0.094200835 0.033341486 4.8846966e-39
-0.027096454 -0.094200835 0.033341486 3.1322398e-39
-0.025314899 -0.094200835 0.033341486 5.435676e-39
-0.023494247 -0.094907165 0.030368406 1.0506422e-38
-0.021707479 -0.094907165 0.030368406 1.9909647e-38
-0.019770388 -0.097051233 0.021343667 2.2308132e-38
-0.017967794 -0.097051233 0.021343667 2.3507374e-38
-0.016226215 -0.096332356 0.024369556 2.2126255e-38
-0.014428928 -0.096332356 0.024369556 1.8071836e-38
-0.012631642 -0.096332356 0.024369556 1.4477647e-38
-0.010834355 -0.096332356 0.024369556 1.2818844e-38
-0.0090370681 -0.096332356 0.024369556 1.2174564e-38
-0.0073268097 -0.095617667 0.027377803 9.869687e-39
-0.005534796 -0.095617667 0.027377803 8.1186945e-39
-0.0037427861 -0.095617667 0.027377803 6.5517247e-39
-0.0018479209 -0.096332356 0.024369556 5.9985509e-39
5.8127567e-05 -0.097051233 0.021343667 6.1829422e-39
0.0019714963 -0.097749382 0.018405039 5.5375728e-39
0.0037792381 -0.097749382 0.018405039 3.6933071e-39
0.0055869836 -0.097749382 0.018405039 2.2167435e-39
0.0073947292 -0.097749382 0.018405039 2.7692012e-39
0.0092024747 -0.097749382 0.018405039 2.4918982e-39
0.011335166 -0.099410906 0.011411387 2.767046e-39
0.013155172 -0.099410906 0.011411387 2.0287551e-39
0.014975181 -0.099410906 0.011411387 2.7659558e-39
0.016950136 -0.10012263 0.008415658 8.4817177e-39
0.018936528 -0.10083848 0.005402524 1.3551751e-38
0.020767068 -0.10083848 0.005402524 1.3092215e-38
0.022597613 -0.10083848 0.005402524 1.0512192e-38
0.024606159 -0.10155846 0.0023719855 9.5896459e-41
0.026442016 -0.10155846 0.0023719855 3.7022305e-42
0.02846081 -0.10225673 -0.00056711957 9.263844e-40
0.030301819 -0.10225673 -0.00056711957 1.9401804e-39
0.032142825 -0.10225673 -0.00056711957 1.6639578e-39
0.034257531 -0.10322 -0.0046216659 1.2951781e-39
0.036105648 -0.10322 -0.0046216659 1.019673e-39
0.037953764 -0.10322 -0.0046216659 1.9412734e-39
0.040018603 -0.1039276 -0.00760011 7.4273023e-40
0.041871943 -0.1039276 -0.00760011 1.9412748e-39
0.043725282 -0.1039276 -0.00760011 2.7699565e-39
0.045812331 -0.10463922 -0.010595482 1.1104379e-39
0.047670923 -0.10463922 -0.010595482 1.8472841e-39
0.049775131 -0.10535492 -0.013607901 3.321338e-39
0.051975735 -0.10631551 -0.017651241 1.8476386e-39
0.053846709 -0.10631551 -0.017651241 9.2710327e-40
0.055717669 -0.10631551 -0.017651241 9.2817666e-40
0.057588629 -0.10631551 -0.017651241 1.3888045e-39
0.059459589 -0.10631551 -0.017651241 1.1118631e-39
0.061330564 -0.10631551 -0.017651241 7.4129109e-40
0.063477241 -0.10701384 -0.020590585 8.3348672e-40
0.065646671 -0.10774307 -0.023660105 9.2460055e-40
0.068209358 -0.10940616 -0.030660313 2.6344411e-42
0.070103131 -0.10940616 -0.030660313 2.5837421e-39
0.072394274 -0.11034258 -0.034601849 9.5913177e-39
0.074606128 -0.11106332 -0.037635487 7.0083939e-39
0.076512121 -0.11106332 -0.037635487 6.5477675e-39
0.078418128 -0.11106332 -0.037635487 5.2566587e-39
0.080324121 -0.11106332 -0.037635487 7.3907143e-40
0.082551531 -0.11176009 -0.040568393 2.4900695e-39
0.084462665 -0.11176009 -0.040568393 1.5684804e-39
0.086373813 -0.11176009 -0.040568393 1.4755813e-39
0.088745989 -0.1127138 -0.044582766 2.7812692e-40
0.090664171 -0.1127138 -0.044582766 3.7248055e-40
0.092948027 -0.11344786 -0.047672551 9.804465e-41
0.094871618 -0.11344786 -0.047672551 1.1139902e-39
0.096795224 -0.11344786 -0.047672551 1.2270729e-38
0.098718829 -0.11344786 -0.047672551 1.383876e-38
0.10113721 -0.11438553 -0.051619332 1.3008985e-38
0.10357306 -0.11533 -0.055594724 1.217921e-38
0.10551056 -0.11533 -0.055594724 1.5405327e-38
0.10744805 -0.11533 -0.055594724 1.4114223e-38
0.10978674 -0.11605005 -0.058625501 1.3561049e-38
0.1122696 -0.11700659 -0.062651798 1.3930553e-38
0.11421946 -0.11700659 -0.062651798 1.4392257e-38
0.11616933 -0.11700659 -0.062651798 1.2180289e-38
0.11811919 -0.11700659 -0.062651798 5.8184379e-39
0.12006905 -0.11700659 -0.062651798 4.4322748e-39
0.12201891 -0.11700659 -0.062651798 6.5116798e-40
0.12396879 -0.11700659 -0.062651798 2.5377515e-42
-0.1190457 -0.11058317 -0.027665418 4.0555399e-39
-0.11662998 -0.10888995 -0.020590585 2.1194289e-39
-0.11453999 -0.10818647 -0.017651241 1.4197411e-38
-0.1123819 -0.10721879 -0.013607901 2.3509886e-38
-0.11051803 -0.10721879 -0.013607901 2.341805e-38
-0.10845081 -0.10649781 -0.010595482 2.2128407e-38
-0.10659222 -0.10649781 -0.010595482 2.1206824e-38
-0.10454194 -0.10578094 -0.00760011 6.2715141e-39
-0.1025032 -0.1050681 -0.0046216659 7.0064923e-44
-0.10040983 -0.10409774 -0.00056711957 5.5506974e-40
-0.098568812 -0.10409774 -0.00056711957 9.4111205e-41
-0.096387632 -0.10266902 0.005402524 9.2352155e-40
-0.094390675 -0.10194789 0.008415658 1.1064737e-39
-0.092565417 -0.10194789 0.008415658 1.8451738e-40
-0.090585209 -0.10123092 0.011411387 1.6600076e-39
-0.088765204 -0.10123092 0.011411387 4.625406e-40
-0.086755596 -0.10028981 0.015343625 1.1953076e-42
-0.084800236 -0.099557132 0.018405039 1.9387413e-39
-0.082725823 -0.098129645 0.024369556 2.6770252e-39
-0.080799311 -0.09740968 0.027377803 4.7060493e-39
-0.07888408 -0.096693933 0.030368406 6.7343574e-39
-0.076980025 -0.095982388 0.033341486 6.6425247e-39
-0.075083211 -0.095250636 0.036398966 5.9968021e-39
-0.073092803 -0.093824327 0.042358596 7.2875423e-39
-0.07132706 -0.093824327 0.042358596 5.9960903e-39
-0.069656044 -0.094523281 0.039438087 6.180127e-39
-0.067885175 -0.094523281 0.039438087 5.5336842e-39
-0.066114314 -0.094523281 0.039438087 1.476722e-39
-0.064264074 -0.093824327 0.042358596 6.4660816e-40
-0.062498331 -0.093824327 0.042358596 1.8451513e-39
-0.060732581 -0.093824327 0.042358596 1.0168228e-39
-0.059030846 -0.094523281 0.039438087 7.4202958e-40
-0.057259977 -0.094523281 0.039438087 1.9029073e-40
-0.055489108 -0.094523281 0.039438087 3.7400656e-42
-0.053718247 -0.094523281 0.039438087 8.4288103e-42
-0.052306466 -0.10028981 0.015343625 9.3075085e-40
-0.050374664 -0.098129645 0.024369556 4.6942097e-40
-0.048577376 -0.098129645 0.024369556 1.5754154e-39
-0.046780087 -0.098129645 0.024369556 2.128229e-39
-0.044982806 -0.098129645 0.024369556 1.5743336e-39
-0.043185517 -0.098129645 0.024369556 1.389571e-39
-0.041375041 -0.09740968 0.027377803 2.3104371e-39
-0.039575167 -0.096693933 0.030368406 3.0476336e-39
-0.037788399 -0.096693933 0.030368406 3.0476364e-39
-0.03600163 -0.096693933 0.030368406 3.1391384e-39
-0.034222677 -0.095982388 0.033341486 3.4157309e-39
-0.032441124 -0.095982388 0.033341486 3.783426e-39
-0.03067833 -0.095250636 0.036398966 3.967083e-39
-0.028902134 -0.095250636 0.036398966 4.057824e-39
-0.027096454 -0.095982388 0.033341486 4.1478477e-39
-0.025314899 -0.095982388 0.033341486 4.1474707e-39
-0.023533342 -0.095982388 0.033341486 4.2389363e-39
-0.021751788 -0.095982388 0.033341486 9.9550569e-39
-0.019920709 -0.096693933 0.030368406 1.8714351e-38
-0.018078884 -0.09740968 0.027377803 2.1112477e-38
-0.01628687 -0.09740968 0.027377803 2.0007581e-38
-0.014494859 -0.09740968 0.027377803 1.5399988e-38
-0.012702847 -0.09740968 0.027377803 1.1529213e-38
-0.010910835 -0.09740968 0.027377803 1.0792371e-38
-0.0091188215 -0.09740968 0.027377803 6.0907606e-39
-0.0074133277 -0.096693933 0.030368406 5.6290748e-39
-0.0056265574 -0.096693933 0.030368406 4.5227328e-39
-0.003839789 -0.096693933 0.030368406 4.7082003e-39
-0.0020530205 -0.096693933 0.030368406 3.2330674e-39
-5.0632283e-05 -0.098129645 0.024369556 2.4033067e-39
0.0018607173 -0.098853827 0.021343667 2.3111111e-39
0.0036633108 -0.098853827 0.021343667 1.0192961e-39
0.0054659043 -0.098853827 0.021343667 1.6646683e-39
0.0073947292 -0.099557132 0.018405039 1.3870066e-39
0.0092024747 -0.099557132 0.018405039 1.8774317e-40
0.011152463 -0.10028981 0.015343625 5.5544388e-40
0.012965573 -0.10028981 0.015343625 9.3739861e-41
0.014778687 -0.10028981 0.015343625 1.4755841e-39
0.016950136 -0.10194789 0.008415658 1.2907475e-38
0.018775394 -0.10194789 0.008415658 1.3460282e-38
0.020767068 -0.10266902 0.005402524 1.0972083e-38
0.022597613 -0.10266902 0.005402524 7.1938782e-39
0.024428153 -0.10266902 0.005402524 1.2951641e-39
0.026258694 -0.10266902 0.005402524 1.8953823e-40
0.02846081 -0.10409774 -0.00056711957 2.1263695e-39
0.030301819 -0.10409774 -0.00056711957 1.4810015e-39
0.032142825 -0.10409774 -0.00056711957 7.4379942e-40
0.033983834 -0.10409774 -0.00056711957 1.296976e-39
0.036105648 -0.1050681 -0.0046216659 5.5905503e-40
0.037953764 -0.1050681 -0.0046216659 1.757601e-39
0.039801881 -0.1050681 -0.0046216659 6.5125486e-40
0.041871943 -0.10578094 -0.00760011 1.4806596e-39
0.043725282 -0.10578094 -0.00760011 2.1253101e-39
0.045812331 -0.10649781 -0.010595482 1.387022e-39
0.047670923 -0.10649781 -0.010595482 2.3089783e-39
0.049775131 -0.10721879 -0.013607901 3.5989983e-39
0.051975735 -0.10818647 -0.017651241 2.4933556e-39
0.053846709 -0.10818647 -0.017651241 1.2040363e-39
0.055717669 -0.10818647 -0.017651241 1.943032e-39
0.057588629 -0.10818647 -0.017651241 3.7535461e-40
0.059459589 -0.10818647 -0.017651241 4.6719851e-40
0.061330564 -0.10818647 -0.017651241 8.3383284e-40
0.063477241 -0.10888995 -0.020590585 1.8479862e-39
0.065353356 -0.10888995 -0.020590585 4.6397272e-40
0.067917921 -0.11058317 -0.027665418 9.253054e-40
0.069806449 -0.11058317 -0.027665418 1.2011622e-39
0.071996905 -0.11129995 -0.030660313 4.2439683e-39
0.074294962 -0.11224325 -0.034601849 4.4272722e-39
0.07619565 -0.11224325 -0.034601849 6.3637321e-39
0.078418128 -0.11296929 -0.037635487 3.965564e-39
0.080324121 -0.11296929 -0.037635487 3.7815286e-39
0.082230128 -0.11296929 -0.037635487 3.965201e-39
0.084462665 -0.11367123 -0.040568393 4.4000772e-43
0.086373813 -0.11367123 -0.040568393 5.5471661e-40
0.088284962 -0.11367123 -0.040568393 1.016785e-39
0.090664171 -0.114632 -0.044582766 6.4979471e-40
0.092948027 -0.11537148 -0.047672551 2.2574918e-42
0.094871618 -0.11537148 -0.047672551 2.1285037e-39
0.096795224 -0.11537148 -0.047672551 1.2823903e-38
0.098718829 -0.11537148 -0.047672551 1.2732412e-38
0.10113721 -0.11631607 -0.051619332 1.4022418e-38
0.10357306 -0.11726747 -0.055594724 1.300717e-38
0.10551056 -0.11726747 -0.055594724 1.5679753e-38
0.10744805 -0.11726747 -0.055594724 1.5402802e-38
0.10978674 -0.11799283 -0.058625501 1.5494275e-38
0.11172955 -0.11799283 -0.058625501 1.4019148e-38
0.11421946 -0.11895646 -0.062651798 1.2913522e-38
0.11616933 -0.11895646 -0.062651798 1.1346562e-38
0.11811919 -0.11895646 -0.062651798 6.2761692e-39
0.11950076 -0.11799283 -0.058625501 5.7222906e-39
0.12144358 -0.11799283 -0.058625501 1.0199491e-39
0.12338638 -0.11799283 -0.058625501 1.0930128e-42
-0.1190457 -0.11247168 -0.027665418 3.9633471e-39
-0.11662998 -0.11076607 -0.020590585 1.8435609e-39
-0.11475386 -0.11076607 -0.020590585 1.3644953e-38
-0.1123819 -0.10908265 -0.013607901 2.332621e-38
-0.11051803 -0.10908265 -0.013607901 2.3234379e-38
-0.10845081 -0.1083564 -0.010595482 2.3142544e-38
-0.10639527 -0.10763429 -0.00760011 2.2129125e-38
-0.10435132 -0.10691623 -0.0046216659 1.5030082e-38
-0.10225084 -0.10593875 -0.00056711957 4.3350485e-39
-0.10040983 -0.10593875 -0.00056711957 2.2149288e-39
-0.098396182 -0.10523017 0.0023719855 4.4981681e-43
-0.096387632 -0.10449956 0.005402524 2.1220395e-39
-0.094390675 -0.10377313 0.008415658 8.197596e-43
-0.092565417 -0.10377313 0.008415658 1.8521662e-40
-0.090585209 -0.10305093 0.011411387 1.0229479e-43
-0.088765204 -0.10305093 0.011411387 1.5692413e-39
-0.086755596 -0.10210292 0.015343625 1.2011776e-39
-0.084663704 -0.10065642 0.021343667 1.7550689e-39
-0.082725823 -0.099926919 0.024369556 1.8846483e-40
-0.080799311 -0.099201679 0.027377803 4.4365109e-42
-0.07888408 -0.098480701 0.030368406 1.2026294e-39
-0.076980025 -0.097763941 0.033341486 2.4933696e-39
-0.075083211 -0.09702684 0.036398966 2.1245857e-39
-0.073197775 -0.09629415 0.039438087 3.59935e-39
-0.071426913 -0.09629415 0.039438087 2.40116e-39
-0.069656044 -0.09629415 0.039438087 1.0882079e-38
-0.067795567 -0.09559007 0.042358596 8.5771938e-39
-0.066029817 -0.09559007 0.042358596 8.7612291e-39
-0.064264074 -0.09559007 0.042358596 1.0790615e-38
-0.062498331 -0.09559007 0.042358596 1.0053411e-38
-0.060661487 -0.094865978 0.045362074 1.0514392e-38
-0.058901012 -0.094865978 0.045362074 4.5223993e-39
-0.057140529 -0.094865978 0.045362074 4.6615595e-40
-0.055380054 -0.094865978 0.045362074 1.0196983e-39
-0.053619571 -0.094865978 0.045362074 5.5561484e-42
-0.051859088 -0.094865978 0.045362074 9.2932012e-40
-0.050374664 -0.099926919 0.024369556 6.2904288e-42
-0.048577376 -0.099926919 0.024369556 6.5346331e-40
-0.046780087 -0.099926919 0.024369556 1.2066343e-39
-0.044982806 -0.099926919 0.024369556 1.0218759e-39
-0.043167055 -0.099201679 0.027377803 1.2977285e-39
-0.041375041 -0.099201679 0.027377803 2.3118664e-39
-0.039567344 -0.097763941 0.033341486 3.5085991e-39
-0.037785791 -0.097763941 0.033341486 3.6933547e-39
-0.03600163 -0.098480701 0.030368406 3.4182252e-39
-0.034222677 -0.097763941 0.033341486 3.5100705e-39
-0.032441124 -0.097763941 0.033341486 3.7862916e-39
-0.03067833 -0.09702684 0.036398966 4.5220476e-39
-0.028902134 -0.09702684 0.036398966 5.0741312e-39
-0.027096454 -0.097763941 0.033341486 5.3496278e-39
-0.025314899 -0.097763941 0.033341486 5.3485376e-39
-0.023533342 -0.097763941 0.033341486 5.1637792e-39
-0.021751788 -0.097763941 0.033341486 3.7801189e-39
-0.019920709 -0.098480701 0.030368406 4.9797383e-39
-0.01813394 -0.098480701 0.030368406 2.3989795e-39
-0.016347172 -0.098480701 0.030368406 8.3309576e-40
-0.014560403 -0.098480701 0.030368406 4.6540065e-40
-0.012773635 -0.098480701 0.030368406 1.296962e-39
-0.010986865 -0.098480701 0.030368406 3.6944113e-39
-0.0092000961 -0.098480701 0.030368406 2.2189295e-39
-0.0074133277 -0.098480701 0.030368406 3.0483398e-39
-0.0056265574 -0.098480701 0.030368406 2.7717543e-39
-0.003839789 -0.098480701 0.030368406 2.1263835e-39
-0.0020530205 -0.098480701 0.030368406 3.7204474e-42
-5.0632283e-05 -0.099926919 0.024369556 4.7966446e-42
0.0018607173 -0.10065642 0.021343667 1.0203891e-39
0.0036633108 -0.10065642 0.021343667 5.1609822e-42
0.0054659043 -0.10065642 0.021343667 4.8008485e-42
0.007268494 -0.10065642 0.021343667 7.4165123e-40
0.0092024747 -0.10136487 0.018405039 2.8031294e-40
0.011010217 -0.10136487 0.018405039 8.3204198e-40
0.012965573 -0.10210292 0.015343625 1.8630543e-40
0.014778687 -0.10210292 0.015343625 3.7808448e-39
0.016795186 -0.10305093 0.011411387 1.336882e-38
0.018775394 -0.10377313 0.008415658 1.2815277e-38
0.020600652 -0.10377313 0.008415658 5.8098535e-39
0.022425914 -0.10377313 0.008415658 2.0312872e-39
0.024428153 -0.10449956 0.005402524 9.6986669e-41
0.026258694 -0.10449956 0.005402524 7.4235608e-40
0.028277868 -0.10523017 0.0023719855 1.4810001e-39
0.030301819 -0.10593875 -0.00056711957 4.6756705e-40
0.032142825 -0.10593875 -0.00056711957 4.6792859e-40
0.033983834 -0.10593875 -0.00056711957 1.4817274e-39
0.036105648 -0.10691623 -0.0046216659 9.2963541e-40
0.037953764 -0.10691623 -0.0046216659 1.9099418e-40
0.039801881 -0.10691623 -0.0046216659 1.9063685e-40
