# .PCD v0.7 - Point Cloud Data file format
VERSION 0.7
FIELDS x y z rgb
SIZE 4 4 4 4
TYPE F F F F
COUNT 1 1 1 1
WIDTH 945
HEIGHT 1
VIEWPOINT 0 0 0 1 0 0 0
POINTS 945
DATA ascii
-0.023176435 -0.11868234 0.019756053 2.341805e-38
-0.021339361 -0.11789979 0.022781942 2.3234379e-38
-0.019513063 -0.1171218 0.025790188 2.3234379e-38
-0.017721049 -0.1171218 0.025790188 2.3050708e-38
-0.015910685 -0.1163484 0.028780792 2.3050708e-38
-0.014110886 -0.1155795 0.031753872 2.2867037e-38
-0.012313295 -0.11400281 0.037850473 2.2775202e-38
-0.010539869 -0.11324753 0.040770981 2.2683366e-38
-0.008776756 -0.11247079 0.04377446 2.2775202e-38
-0.007024128 -0.11169861 0.046760175 2.2591531e-38
-0.005268883 -0.11169861 0.046760175 2.2316024e-38
-0.0035324572 -0.11090554 0.049826775 2.2132353e-38
-0.0018058624 -0.11014269 0.052776549 2.2040518e-38
-9.0384856e-05 -0.1093591 0.055806432 2.1856847e-38
0.0016489988 -0.1093591 0.055806432 2.158134e-38
0.0033487817 -0.10858028 0.058817957 2.1397669e-38
0.0050828848 -0.10858028 0.058817957 2.1856847e-38
0.0068169888 -0.10858028 0.058817957 2.1856847e-38
0.0085510928 -0.10858028 0.058817957 2.1948682e-38
0.010285197 -0.10858028 0.058817957 2.2132353e-38
0.012019299 -0.10858028 0.058817957 2.2316024e-38
0.013753403 -0.10858028 0.058817957 2.2499695e-38
0.015564069 -0.1093591 0.055806432 2.2591531e-38
0.017303454 -0.1093591 0.055806432 2.2775202e-38
0.019130493 -0.11014269 0.052776549 2.2958514e-38
0.020965697 -0.11090554 0.049826775 2.3050349e-38
0.022715565 -0.11090554 0.049826775 2.2958155e-38
0.024465434 -0.11090554 0.049826775 2.2865961e-38
0.026325524 -0.11169861 0.046760175 2.2958155e-38
0.028080769 -0.11169861 0.046760175 2.3142544e-38
0.029836014 -0.11169861 0.046760175 2.3234379e-38
0.031591259 -0.11169861 0.046760175 2.3234379e-38
0.033346504 -0.11169861 0.046760175 2.2958154e-38
0.035101749 -0.11169861 0.046760175 2.3234379e-38
0.03699572 -0.11247079 0.04377446 2.3234379e-38
0.03890102 -0.11324753 0.040770981 2.3234379e-38
0.040666763 -0.11324753 0.040770981 2.2774116e-38
0.042432509 -0.11324753 0.040770981 2.2958504e-38
0.044354435 -0.11400281 0.037850473 2.3234374e-38
0.046293154 -0.11478879 0.034811351 2.3142544e-38
0.048069347 -0.11478879 0.034811351 2.249826e-38
0.049845543 -0.11478879 0.034811351 2.2867037e-38
0.051621739 -0.11478879 0.034811351 2.2958873e-38
0.053588241 -0.1155795 0.031753872 2.3142544e-38
0.055369794 -0.1155795 0.031753872 2.3142539e-38
0.057346836 -0.1163484 0.028780792 2.3418045e-38
0.059335478 -0.1171218 0.025790188 2.350988e-38
0.061335832 -0.11789979 0.022781942 2.2034753e-38
0.063133121 -0.11789979 0.022781942 2.2126235e-38
0.065150581 -0.11868234 0.019756053 2.2218431e-38
0.066953167 -0.11868234 0.019756053 2.2310626e-38
0.068755761 -0.11868234 0.019756053 2.2126588e-38
0.070787638 -0.11944233 0.016817424 2.3509876e-38
0.07259538 -0.11944233 0.016817424 2.3509869e-38
0.074403122 -0.11944233 0.016817424 2.2957763e-38
0.076465845 -0.12023406 0.013756011 2.3509866e-38
0.078613341 -0.121251 0.0098237731 2.341805e-38
0.080693334 -0.12202574 0.0068280436 2.3325856e-38
0.082518607 -0.12202574 0.0068280436 2.3233662e-38
0.084343866 -0.12202574 0.0068280436 2.341805e-38
0.086169124 -0.12202574 0.0068280436 2.3141819e-38
0.087994382 -0.12202574 0.0068280436 2.3418047e-38
0.08981964 -0.12202574 0.0068280436 2.2957431e-38
0.091644898 -0.12202574 0.0068280436 1.1801404e-38
0.093173385 -0.121251 0.0098237731 3.8725836e-39
0.094596967 -0.12023406 0.013756011 3.1346626e-39
0.096410066 -0.12023406 0.013756011 4.3332058e-39
0.09822318 -0.12023406 0.013756011 4.4257574e-39
-0.098449737 -0.14910837 -0.090177685 2.3509883e-38
-0.096152276 -0.148077 -0.08621648 2.3509883e-38
-0.09416388 -0.148077 -0.08621648 2.3509883e-38
-0.091880038 -0.14701982 -0.082156211 2.3509886e-38
-0.089408025 -0.14522041 -0.075245291 2.3509886e-38
-0.087163061 -0.14418359 -0.071263105 2.2680125e-38
-0.084925666 -0.14312203 -0.067186028 2.3509886e-38
-0.082970634 -0.14312203 -0.067186028 2.3509886e-38
-0.080569372 -0.1413065 -0.060213115 2.3141106e-38
-0.078626558 -0.1413065 -0.060213115 1.8346577e-38
-0.076500431 -0.14051737 -0.057182338 5.6051939e-45
-0.074562937 -0.14051737 -0.057182338 1.1059944e-39
-0.072398916 -0.1394823 -0.053206947 1.0785084e-38
-0.070250407 -0.13845469 -0.049260166 1.1241365e-38
-0.068161577 -0.13765021 -0.04617038 1.1425748e-38
-0.066243395 -0.13765021 -0.04617038 9.8602282e-39
-0.064124614 -0.13660498 -0.042156007 7.1887242e-39
-0.062072057 -0.13584132 -0.039223101 6.7302782e-39
-0.0600251 -0.13505147 -0.036189463 3.1364563e-39
-0.057948191 -0.1340252 -0.032247927 2.6751264e-39
-0.055925775 -0.13324542 -0.029253032 1.5687817e-39
-0.053872216 -0.13220255 -0.025247719 1.3822324e-39
-0.051594157 -0.12958528 -0.015195515 1.7495702e-39
-0.049730282 -0.12958528 -0.015195515 2.6697202e-39
-0.047758132 -0.12880091 -0.012183096 2.3913242e-39
-0.045797128 -0.12802102 -0.0091877244 1.1938615e-39
-0.043943789 -0.12802102 -0.0091877244 1.3775324e-39
-0.041999061 -0.12724553 -0.0062092803 1.6530389e-39
-0.040150944 -0.12724553 -0.0062092803 7.4624118e-39
-0.038192634 -0.12618984 -0.002154734 1.9543293e-38
-0.036276903 -0.12542458 0.00078437105 2.3509873e-38
-0.03444105 -0.12542458 0.00078437105 2.3509876e-38
-0.032472733 -0.12385099 0.0068280436 2.3325127e-38
-0.030587073 -0.123071 0.0098237731 2.3417324e-38
-0.028694674 -0.12204717 0.013756011 2.3233296e-38
-0.026830569 -0.12125005 0.016817424 2.3509886e-38
-0.024979029 -0.12048493 0.019756053 2.3509886e-38
-0.023176435 -0.12048493 0.019756053 2.3509527e-38
-0.021339361 -0.11969708 0.022781942 2.341805e-38
-0.019513063 -0.11891381 0.025790188 2.341805e-38
-0.017721049 -0.11891381 0.025790188 2.3234379e-38
-0.015910685 -0.11813517 0.028780792 2.3234379e-38
-0.014110886 -0.11736105 0.031753872 2.3142544e-38
-0.012313295 -0.11577369 0.037850473 2.3142544e-38
-0.010539869 -0.11501329 0.040770981 2.3142544e-38
-0.008776756 -0.11423124 0.04377446 2.3234372e-38
-0.007024128 -0.11345388 0.046760175 2.3142531e-38
-0.0052823257 -0.11265542 0.049826775 2.3142537e-38
-0.0035324572 -0.11265542 0.049826775 2.2958867e-38
-0.0018058624 -0.11188738 0.052776549 2.2775199e-38
-9.0384856e-05 -0.11109848 0.055806432 2.2591531e-38
0.0016489988 -0.11109848 0.055806432 2.2591531e-38
0.0033487817 -0.11031438 0.058817957 2.2499695e-38
0.0050828848 -0.11031438 0.058817957 2.2316024e-38
0.0068169888 -0.11031438 0.058817957 2.2499695e-38
0.0085510928 -0.11031438 0.058817957 2.2499694e-38
0.010285197 -0.11031438 0.058817957 2.2683362e-38
0.012019299 -0.11031438 0.058817957 2.286703e-38
0.013753403 -0.11031438 0.058817957 2.295886e-38
0.015564069 -0.11109848 0.055806432 2.2775186e-38
0.017303454 -0.11109848 0.055806432 2.286666e-38
0.019130493 -0.11188738 0.052776549 2.3326203e-38
0.020965697 -0.11265542 0.049826775 2.3509876e-38
0.022715565 -0.11265542 0.049826775 2.3509879e-38
0.024570279 -0.11345388 0.046760175 2.350988e-38
0.026325524 -0.11345388 0.046760175 2.350988e-38
0.028080769 -0.11345388 0.046760175 2.3509883e-38
0.029836014 -0.11345388 0.046760175 2.3325494e-38
0.031714283 -0.11423124 0.04377446 2.3141103e-38
0.033474762 -0.11423124 0.04377446 2.3509886e-38
0.035235241 -0.11423124 0.04377446 2.2864513e-38
0.03699572 -0.11423124 0.04377446 2.3049621e-38
0.03890102 -0.11501329 0.040770981 2.3326206e-38
0.040666763 -0.11501329 0.040770981 2.3049975e-38
0.042432509 -0.11501329 0.040770981 2.3418038e-38
0.044354435 -0.11577369 0.037850473 2.3418038e-38
0.046125304 -0.11577369 0.037850473 2.240533e-38
0.048069347 -0.11656497 0.034811351 2.2958873e-38
0.049845543 -0.11656497 0.034811351 2.2867037e-38
0.051621739 -0.11656497 0.034811351 2.0930937e-38
0.053588241 -0.11736105 0.031753872 1.9916061e-38
0.055369794 -0.11736105 0.031753872 1.9362521e-38
0.057346836 -0.11813517 0.028780792 1.9085211e-38
0.059335478 -0.11891381 0.025790188 1.9268884e-38
0.061335832 -0.11969708 0.022781942 1.8069625e-38
0.063133121 -0.11969708 0.022781942 1.8529882e-38
0.064930402 -0.11969708 0.022781942 1.8529882e-38
0.06672769 -0.11969708 0.022781942 1.8161094e-38
0.068755761 -0.12048493 0.019756053 1.7516077e-38
0.070558354 -0.12048493 0.019756053 1.8623855e-38
0.07259538 -0.12125005 0.016817424 1.9730551e-38
0.074403122 -0.12125005 0.016817424 2.0653934e-38
0.076465845 -0.12204717 0.013756011 2.3509856e-38
0.078613341 -0.123071 0.0098237731 2.3418047e-38
0.080693334 -0.12385099 0.0068280436 2.3325856e-38
0.082518607 -0.12385099 0.0068280436 2.3233662e-38
0.084343866 -0.12385099 0.0068280436 2.341805e-38
0.086169124 -0.12385099 0.0068280436 2.332621e-38
0.087994382 -0.12385099 0.0068280436 2.3418047e-38
0.08981964 -0.12385099 0.0068280436 2.2957431e-38
0.091644898 -0.12385099 0.0068280436 1.1893602e-38
0.093173385 -0.123071 0.0098237731 4.1488146e-39
0.094993398 -0.123071 0.0098237731 3.1346654e-39
0.096813396 -0.123071 0.0098237731 4.1488174e-39
0.098633409 -0.123071 0.0098237731 3.9647792e-39
-0.093861327 -0.14900111 -0.082156211 2.3509883e-38
-0.091377184 -0.1471896 -0.075245291 2.3509886e-38
-0.089408025 -0.1471896 -0.075245291 2.3509886e-38
-0.087163061 -0.14614578 -0.071263105 2.2956715e-38
-0.084925666 -0.14507706 -0.067186028 2.3509527e-38
-0.082970634 -0.14507706 -0.067186028 2.2679772e-38
-0.080569372 -0.14324932 -0.060213115 2.3509527e-38
-0.078626558 -0.14324932 -0.060213115 1.8438774e-38
-0.076500431 -0.14245488 -0.057182338 7.0064923e-45
-0.074562937 -0.14245488 -0.057182338 9.8090893e-45
-0.072398916 -0.14141284 -0.053206947 1.0139361e-38
-0.070250407 -0.14037828 -0.049260166 1.2163327e-38
-0.068161577 -0.13956837 -0.04617038 1.114773e-38
-0.066243395 -0.13956837 -0.04617038 8.383666e-39
-0.064124614 -0.13851611 -0.042156007 9.4914569e-39
-0.062072057 -0.13774733 -0.039223101 9.5847428e-39
-0.0600251 -0.13695215 -0.036189463 5.8983623e-39
-0.057948191 -0.13591899 -0.032247927 4.054098e-39
-0.055925775 -0.13513394 -0.029253032 4.791663e-39
-0.053872216 -0.13408406 -0.025247719 5.8047388e-39
-0.05186962 -0.13327946 -0.022178199 4.7902225e-39
-0.049882706 -0.13250901 -0.019238856 2.9459442e-39
-0.047758132 -0.13065951 -0.012183096 1.4715273e-39
-0.04589954 -0.13065951 -0.012183096 2.210163e-39
-0.044040948 -0.13065951 -0.012183096 1.1052545e-39
-0.041999061 -0.12909363 -0.0062092803 9.2911693e-41
-0.040150944 -0.12909363 -0.0062092803 2.4899728e-39
-0.038192634 -0.12803085 -0.002154734 1.5580323e-38
-0.036276903 -0.12726043 0.00078437105 2.2679388e-38
-0.03444105 -0.12726043 0.00078437105 2.3509513e-38
-0.032472733 -0.12567626 0.0068280436 2.3509876e-38
-0.030587073 -0.124891 0.0098237731 2.3509879e-38
-0.028694674 -0.12386028 0.013756011 2.3417324e-38
-0.026830569 -0.1230578 0.016817424 2.3509883e-38
-0.024979029 -0.12228753 0.019756053 2.341769e-38
-0.023176435 -0.12228753 0.019756053 2.3233302e-38
-0.021339361 -0.12149437 0.022781942 2.3232944e-38
-0.019542072 -0.12149437 0.022781942 2.3232944e-38
-0.017721049 -0.12070583 0.025790188 2.3141467e-38
-0.015910685 -0.11992194 0.028780792 2.3233662e-38
-0.014110886 -0.11914261 0.031753872 2.3142544e-38
-0.012313295 -0.11754455 0.037850473 2.341805e-38
-0.010539869 -0.11677901 0.040770981 2.3418047e-38
-0.008779373 -0.11520912 0.046760175 2.3325483e-38
-0.0070321932 -0.11440529 0.049826775 2.3417673e-38
-0.0052823257 -0.11440529 0.049826775 2.3326199e-38
-0.0035505593 -0.11363207 0.052776549 2.3326203e-38
-0.0018058624 -0.11363207 0.052776549 2.3050698e-38
-9.0384856e-05 -0.11283787 0.055806432 2.2958864e-38
0.0016489988 -0.11283787 0.055806432 2.2866671e-38
0.0033487817 -0.11204849 0.058817957 2.2683359e-38
0.0050828848 -0.11204849 0.058817957 2.295887e-38
0.0068169888 -0.11204849 0.058817957 2.3142541e-38
0.0085510928 -0.11204849 0.058817957 2.3142538e-38
0.010285197 -0.11204849 0.058817957 2.3234372e-38
0.012019299 -0.11204849 0.058817957 2.341804e-38
0.013824686 -0.11283787 0.055806432 2.3509873e-38
0.015564069 -0.11283787 0.055806432 2.350987e-38
0.017385796 -0.11363207 0.052776549 2.350987e-38
0.019130493 -0.11363207 0.052776549 2.350987e-38
0.020965697 -0.11440529 0.049826775 2.3234364e-38
0.022715565 -0.11440529 0.049826775 2.2957061e-38
0.024570279 -0.11520912 0.046760175 2.2864868e-38
0.026325524 -0.11520912 0.046760175 2.3141456e-38
0.028080769 -0.11520912 0.046760175 2.3509886e-38
0.029836014 -0.11520912 0.046760175 2.3509886e-38
0.031714283 -0.11599173 0.04377446 2.3509527e-38
0.033474762 -0.11599173 0.04377446 2.3509527e-38
0.035235241 -0.11599173 0.04377446 2.3141466e-38
0.03699572 -0.11599173 0.04377446 2.341805e-38
0.038756199 -0.11599173 0.04377446 2.2589724e-38
0.040516682 -0.11599173 0.04377446 1.8901895e-38
0.042432509 -0.11677901 0.040770981 1.4661252e-38
0.044354435 -0.11754455 0.037850473 1.0696837e-38
0.046125304 -0.11754455 0.037850473 6.8249863e-39
0.048069347 -0.11834116 0.034811351 3.4141222e-39
0.049845543 -0.11834116 0.034811351 1.9386376e-39
0.051621739 -0.11834116 0.034811351 1.0159582e-39
0.053588241 -0.11914261 0.031753872 2.5829224e-39
0.055369794 -0.11914261 0.031753872 2.3974493e-39
0.057346836 -0.11992194 0.028780792 2.8025969e-45
0.059335478 -0.12070583 0.025790188 9.1838299e-41
0.061335832 -0.12149437 0.022781942 3.6734619e-40
0.063133121 -0.12149437 0.022781942 2.7550929e-40
0.064930402 -0.12149437 0.022781942 6.4392747e-40
0.06672769 -0.12149437 0.022781942 1.1974558e-39
0.068755761 -0.12228753 0.019756053 1.1978075e-39
0.070558354 -0.12228753 0.019756053 2.5821685e-39
0.07259538 -0.1230578 0.016817424 5.2561907e-39
0.074403122 -0.1230578 0.016817424 1.1803148e-38
0.076465845 -0.12386028 0.013756011 2.1943963e-38
0.078613341 -0.124891 0.0098237731 2.3418045e-38
0.080693334 -0.12567626 0.0068280436 2.3325856e-38
0.082518607 -0.12567626 0.0068280436 2.3325856e-38
0.084343866 -0.12567626 0.0068280436 2.341805e-38
0.086169124 -0.12567626 0.0068280436 2.3326213e-38
0.087994382 -0.12567626 0.0068280436 2.341805e-38
0.08981964 -0.12567626 0.0068280436 2.3141466e-38
0.091644898 -0.12567626 0.0068280436 1.235458e-38
0.093470156 -0.12567626 0.0068280436 4.2410102e-39
0.095295414 -0.12567626 0.0068280436 3.0424698e-39
0.097120672 -0.12567626 0.0068280436 3.7800348e-39
-0.091377184 -0.14915876 -0.075245291 2.3509886e-38
-0.089408025 -0.14915876 -0.075245291 2.3509886e-38
-0.087163061 -0.14810793 -0.071263105 2.3509527e-38
-0.084925666 -0.1470321 -0.067186028 2.3509527e-38
-0.082970634 -0.1470321 -0.067186028 2.3509527e-38
-0.080569372 -0.1451921 -0.060213115 2.3509527e-38
-0.078626558 -0.1451921 -0.060213115 1.7977799e-38
-0.076500431 -0.14439236 -0.057182338 6.4502049e-40
-0.074562937 -0.14439236 -0.057182338 1.2611686e-44
-0.072398916 -0.14334334 -0.053206947 1.0139728e-38
-0.070250407 -0.14230187 -0.049260166 1.0967324e-38
-0.068161577 -0.14148657 -0.04617038 9.491108e-39
-0.066243395 -0.14148657 -0.04617038 6.264261e-39
-0.063978061 -0.13965334 -0.039223101 9.0301299e-39
-0.061925787 -0.13885282 -0.036189463 1.0043563e-38
-0.059841964 -0.13781275 -0.032247927 7.277694e-39
-0.057814289 -0.13702248 -0.029253032 5.4319864e-39
-0.055925775 -0.13702248 -0.029253032 7.3677317e-39
-0.053872216 -0.13596557 -0.025247719 9.9481331e-39
-0.05186962 -0.13515557 -0.022178199 5.8926016e-39
-0.049882706 -0.13437997 -0.019238856 5.3405068e-39
-0.047758132 -0.1325181 -0.012183096 4.79057e-39
-0.045797128 -0.13172771 -0.0091877244 2.4896337e-39
-0.043943789 -0.13172771 -0.0091877244 9.2554502e-40
-0.042090449 -0.13172771 -0.0091877244 4.6744374e-40
-0.040150944 -0.13094176 -0.0062092803 1.5730696e-39
-0.038192634 -0.12987186 -0.002154734 1.3830409e-38
-0.036276903 -0.12909628 0.00078437105 2.286306e-38
-0.03444105 -0.12909628 0.00078437105 2.3509513e-38
-0.032472733 -0.1275015 0.0068280436 2.3509876e-38
-0.030587073 -0.126711 0.0098237731 2.3509879e-38
-0.028638314 -0.12486555 0.016817424 2.3509521e-38
-0.026781622 -0.12409012 0.019756053 2.3509524e-38
-0.024979029 -0.12409012 0.019756053 2.3416971e-38
-0.023136646 -0.12329166 0.022781942 2.3509527e-38
-0.021339361 -0.12329166 0.022781942 2.3509886e-38
-0.019513063 -0.12249784 0.025790188 2.3509886e-38
-0.017697455 -0.12170871 0.028780792 2.3509886e-38
-0.015910685 -0.12170871 0.028780792 2.3509886e-38
-0.014110886 -0.12092416 0.031753872 2.341805e-38
-0.012313295 -0.11931543 0.037850473 2.3509886e-38
-0.010539869 -0.11854477 0.040770981 2.3509883e-38
-0.008779373 -0.11696436 0.046760175 2.3509521e-38
-0.0070321932 -0.11615516 0.049826775 2.3509521e-38
-0.0052952543 -0.11537679 0.052776549 2.3509521e-38
-0.0035505593 -0.11537679 0.052776549 2.3509524e-38
-0.0018297685 -0.11457725 0.055806432 2.3509527e-38
-9.0384856e-05 -0.11457725 0.055806432 2.3509886e-38
0.0016146777 -0.1137826 0.058817957 2.341805e-38
0.0033487817 -0.1137826 0.058817957 2.341805e-38
0.0050828848 -0.1137826 0.058817957 2.3141467e-38
0.0068169888 -0.1137826 0.058817957 2.3233662e-38
0.0085510928 -0.1137826 0.058817957 2.3417691e-38
0.010285197 -0.1137826 0.058817957 2.3509167e-38
0.012019299 -0.1137826 0.058817957 2.3509524e-38
0.013824686 -0.11457725 0.055806432 2.3509521e-38
0.015641099 -0.11537679 0.052776549 2.3509521e-38
0.017385796 -0.11537679 0.052776549 2.3509879e-38
0.019130493 -0.11537679 0.052776549 2.3234369e-38
0.020965697 -0.11615516 0.049826775 2.2958866e-38
0.022815034 -0.11696436 0.046760175 2.2774832e-38
0.024570279 -0.11696436 0.046760175 2.3142544e-38
0.026325524 -0.11696436 0.046760175 2.3142544e-38
0.028080769 -0.11696436 0.046760175 2.3142544e-38
0.029836014 -0.11696436 0.046760175 2.3142544e-38
0.031591259 -0.11696436 0.046760175 2.2220601e-38
0.033346504 -0.11696436 0.046760175 2.3050349e-38
0.035235241 -0.11775221 0.04377446 2.1944736e-38
0.03699572 -0.11775221 0.04377446 2.2221678e-38
0.038756199 -0.11775221 0.04377446 1.9640917e-38
0.040516682 -0.11775221 0.04377446 1.2542208e-38
0.042432509 -0.11854477 0.040770981 6.4580129e-39
0.044354435 -0.11931543 0.037850473 3.7843368e-39
0.046125304 -0.11931543 0.037850473 2.1248155e-39
0.048069347 -0.12011738 0.034811351 5.5677371e-40
0.049845543 -0.12011738 0.034811351 9.5079502e-41
0.051806685 -0.12092416 0.031753872 1.2003481e-39
0.053588241 -0.12092416 0.031753872 4.6112262e-39
0.055369794 -0.12092416 0.031753872 4.5172327e-39
0.057346836 -0.12170871 0.028780792 8.2904741e-40
0.059335478 -0.12249784 0.025790188 2.7551349e-40
0.061335832 -0.12329166 0.022781942 1.1038378e-39
0.063133121 -0.12329166 0.022781942 6.4285828e-40
0.064930402 -0.12329166 0.022781942 9.197983e-40
0.06672769 -0.12329166 0.022781942 9.2086889e-40
0.068755761 -0.12409012 0.019756053 2.7586522e-40
0.070558354 -0.12409012 0.019756053 9.2911693e-41
0.07259538 -0.12486555 0.016817424 3.6985311e-40
0.074403122 -0.12486555 0.016817424 8.8528936e-39
0.076465845 -0.1256734 0.013756011 2.2497858e-38
0.078613341 -0.126711 0.0098237731 2.3417687e-38
0.080693334 -0.1275015 0.0068280436 2.3325138e-38
0.082518607 -0.1275015 0.0068280436 2.3325138e-38
0.08407335 -0.126711 0.0098237731 2.3509886e-38
0.085893363 -0.126711 0.0098237731 2.3325494e-38
0.087994382 -0.1275015 0.0068280436 2.341769e-38
0.08981964 -0.1275015 0.0068280436 2.3325497e-38
0.091644898 -0.1275015 0.0068280436 1.2907036e-38
0.093470156 -0.1275015 0.0068280436 4.7016282e-39
0.095295414 -0.1275015 0.0068280436 3.2261422e-39
0.097120672 -0.1275015 0.0068280436 3.779316e-39
-0.084925666 -0.14898713 -0.067186028 2.3048554e-38
-0.082970634 -0.14898713 -0.067186028 2.3509527e-38
-0.080569372 -0.14713491 -0.060213115 2.3417333e-38
-0.078626558 -0.14713491 -0.060213115 2.3509168e-38
-0.076500431 -0.14632986 -0.057182338 1.235351e-38
-0.074329436 -0.14527388 -0.053206947 2.6729684e-39
-0.072174013 -0.14422549 -0.049260166 7.3757905e-40
-0.070250407 -0.14422549 -0.049260166 2.3971032e-39
-0.068161577 -0.14340474 -0.04617038 4.1488174e-39
-0.066035762 -0.14233841 -0.042156007 4.7016282e-39
-0.063978061 -0.14155935 -0.039223101 6.6362945e-39
-0.061925787 -0.14075352 -0.036189463 8.0170667e-39
-0.059841964 -0.13970654 -0.032247927 5.1571973e-39
-0.057814289 -0.13891099 -0.029253032 5.7071313e-39
-0.055753712 -0.13784705 -0.025247719 8.5630364e-39
-0.053745743 -0.13703169 -0.022178199 1.0130002e-38
-0.05186962 -0.13703169 -0.022178199 8.1938938e-39
-0.049730282 -0.13517688 -0.015195515 6.2599436e-39
-0.047758132 -0.13437669 -0.012183096 7.4610063e-39
-0.045797128 -0.13358103 -0.0091877244 8.7571429e-39
-0.043943789 -0.13358103 -0.0091877244 3.4133963e-39
-0.042090449 -0.13358103 -0.0091877244 1.7964646e-42
-0.040150944 -0.13278987 -0.0062092803 2.8641756e-39
-0.038192634 -0.13171287 -0.002154734 1.4567258e-38
-0.036276903 -0.13093217 0.00078437105 2.350915e-38
-0.03444105 -0.13093217 0.00078437105 2.3509873e-38
-0.032472733 -0.12932678 0.0068280436 2.3509517e-38
-0.030587073 -0.12853102 0.0098237731 2.3509518e-38
-0.028638314 -0.1266733 0.016817424 2.3509521e-38
-0.026781622 -0.12589271 0.019756053 2.3509524e-38
-0.024979029 -0.12589271 0.019756053 2.3509167e-38
-0.023136646 -0.12508895 0.022781942 2.3416971e-38
-0.021305077 -0.12428986 0.025790188 2.3509168e-38
-0.019513063 -0.12428986 0.025790188 2.3509168e-38
-0.017697455 -0.12349547 0.028780792 2.3509886e-38
-0.015892442 -0.12270571 0.031753872 2.3509886e-38
-0.014110886 -0.12270571 0.031753872 2.3509886e-38
-0.012313295 -0.12108628 0.037850473 2.3509886e-38
-0.010539869 -0.1203105 0.040770981 2.3509167e-38
-0.008779373 -0.11871959 0.046760175 2.3508808e-38
-0.0070321932 -0.11790501 0.049826775 2.3508809e-38
-0.0052952543 -0.11712147 0.052776549 2.3509168e-38
-0.0035505593 -0.11712147 0.052776549 2.3508809e-38
-0.0018297685 -0.11631663 0.055806432 2.3508451e-38
-9.0384856e-05 -0.11631663 0.055806432 2.3416615e-38
0.0016146777 -0.11551671 0.058817957 2.3508809e-38
0.0033487817 -0.11551671 0.058817957 2.3509527e-38
0.0050828848 -0.11551671 0.058817957 2.3417333e-38
0.0068169888 -0.11551671 0.058817957 2.3508809e-38
0.0085510928 -0.11551671 0.058817957 2.3508809e-38
0.010285197 -0.11551671 0.058817957 2.3508809e-38
0.012019299 -0.11551671 0.058817957 2.3508451e-38
0.013753403 -0.11551671 0.058817957 2.3508451e-38
0.015564069 -0.11631663 0.055806432 2.3508089e-38
0.017385796 -0.11712147 0.052776549 2.3508807e-38
0.019130493 -0.11712147 0.052776549 2.3234374e-38
0.020965697 -0.11790501 0.049826775 2.2683358e-38
0.022715565 -0.11790501 0.049826775 2.2867037e-38
0.024570279 -0.11871959 0.046760175 2.2958873e-38
0.026325524 -0.11871959 0.046760175 2.2958873e-38
0.028080769 -0.11871959 0.046760175 2.0100103e-38
0.029836014 -0.11871959 0.046760175 1.5397772e-38
0.031591259 -0.11871959 0.046760175 1.1709949e-38
0.033346504 -0.11871959 0.046760175 6.3633258e-39
0.035235241 -0.11951269 0.04377446 8.3158796e-40
0.03699572 -0.11951269 0.04377446 3.7835059e-43
0.038756199 -0.11951269 0.04377446 1.8728774e-40
0.040666763 -0.1203105 0.040770981 2.3085047e-39
0.04258357 -0.12108628 0.037850473 5.8133708e-39
0.044354435 -0.12108628 0.037850473 9.4089975e-39
0.046293154 -0.12189357 0.034811351 1.0146917e-38
0.048069347 -0.12189357 0.034811351 1.0790489e-38
0.049845543 -0.12189357 0.034811351 1.1065634e-38
0.051806685 -0.12270571 0.031753872 1.1064918e-38
0.053588241 -0.12270571 0.031753872 1.1709211e-38
0.055369794 -0.12270571 0.031753872 8.9419055e-39
0.057346836 -0.12349547 0.028780792 4.0544609e-39
0.059335478 -0.12428986 0.025790188 2.1176338e-39
0.061127491 -0.12428986 0.025790188 1.8403267e-39
0.062919505 -0.12428986 0.025790188 1.7481282e-39
0.064930402 -0.12508895 0.022781942 1.7484828e-39
0.06672769 -0.12508895 0.022781942 2.026499e-39
0.068755761 -0.12589271 0.019756053 1.8428196e-39
0.070558354 -0.12589271 0.019756053 8.3010679e-40
0.07259538 -0.1266733 0.016817424 5.5424157e-40
0.074403122 -0.1266733 0.016817424 8.852902e-39
0.076465845 -0.12748651 0.013756011 2.3418028e-38
0.078613341 -0.12853102 0.0098237731 2.3509886e-38
0.080693334 -0.12932678 0.0068280436 2.3417333e-38
0.082518607 -0.12932678 0.0068280436 2.3509527e-38
0.08407335 -0.12853102 0.0098237731 2.3509886e-38
0.085893363 -0.12853102 0.0098237731 2.341769e-38
0.087994382 -0.12932678 0.0068280436 2.3509886e-38
0.08981964 -0.12932678 0.0068280436 2.3509886e-38
0.091644898 -0.12932678 0.0068280436 1.3368015e-38
0.093470156 -0.12932678 0.0068280436 4.9782151e-39
0.095295414 -0.12932678 0.0068280436 3.4105335e-39
-0.078626558 -0.14907773 -0.060213115 2.3509168e-38
-0.076500431 -0.14826734 -0.057182338 2.1296486e-38
-0.074329436 -0.14720438 -0.053206947 1.3091075e-38
-0.072174013 -0.14614908 -0.049260166 3.7821984e-39
-0.070250407 -0.14614908 -0.049260166 5.0614901e-42
-0.068161577 -0.14532293 -0.04617038 2.1804204e-42
-0.066035762 -0.14424954 -0.042156007 5.4188212e-42
-0.063978061 -0.14346536 -0.039223101 4.6144758e-39
-0.061925787 -0.1426542 -0.036189463 5.1640483e-39
-0.059841964 -0.1416003 -0.032247927 4.6072718e-39
-0.057814289 -0.14079951 -0.029253032 4.4182002e-39
-0.055753712 -0.13972856 -0.025247719 6.9971569e-39
-0.053745743 -0.13890781 -0.022178199 1.0773938e-38
-0.05186962 -0.13890781 -0.022178199 7.8222358e-39
-0.049730282 -0.13704078 -0.015195515 6.6247716e-39
-0.047758132 -0.13623528 -0.012183096 1.0960127e-38
-0.045797128 -0.13543437 -0.0091877244 1.1516898e-38
-0.043943789 -0.13543437 -0.0091877244 5.8040087e-39
-0.041999061 -0.134638 -0.0062092803 9.1838299e-41
-0.040150944 -0.134638 -0.0062092803 3.9644121e-39
-0.038192634 -0.13355388 -0.002154734 1.4104844e-38
-0.036276903 -0.13276802 0.00078437105 2.3509873e-38
-0.034369316 -0.13195769 0.0038149096 2.3509517e-38
-0.032472733 -0.13115202 0.0068280436 2.3509517e-38
-0.030587073 -0.13035102 0.0098237731 2.3509158e-38
-0.028638314 -0.12848105 0.016817424 2.3508441e-38
-0.026781622 -0.12769531 0.019756053 2.3509524e-38
-0.024979029 -0.12769531 0.019756053 2.3324055e-38
-0.023136646 -0.12688623 0.022781942 2.3509527e-38
-0.021305077 -0.12608187 0.025790188 2.3509527e-38
-0.019513063 -0.12608187 0.025790188 2.3509527e-38
-0.017697455 -0.12528224 0.028780792 2.3509527e-38
-0.015892442 -0.1244873 0.031753872 2.3509527e-38
-0.014097484 -0.12366976 0.034811351 2.3509883e-38
-0.012313295 -0.12285714 0.037850473 2.3509883e-38
-0.010539869 -0.12207626 0.040770981 2.3509527e-38
-0.008779373 -0.12047486 0.046760175 2.3508809e-38
-0.0070321932 -0.11965488 0.049826775 2.3508809e-38
-0.0052952543 -0.11886616 0.052776549 2.3508809e-38
-0.0035505593 -0.11886616 0.052776549 2.3509168e-38
-0.0018297685 -0.11805601 0.055806432 2.3508809e-38
-9.0384856e-05 -0.11805601 0.055806432 2.3509168e-38
0.0016146777 -0.11725079 0.058817957 2.3509168e-38
0.0033487817 -0.11725079 0.058817957 2.3509168e-38
0.0050828848 -0.11725079 0.058817957 2.3509168e-38
0.0068169888 -0.11725079 0.058817957 2.3509168e-38
0.0085510928 -0.11725079 0.058817957 2.3509168e-38
0.010285197 -0.11725079 0.058817957 2.3509168e-38
0.012019299 -0.11725079 0.058817957 2.3509168e-38
0.013753403 -0.11725079 0.058817957 2.3508809e-38
0.015564069 -0.11805601 0.055806432 2.3508809e-38
0.017385796 -0.11886616 0.052776549 2.3509168e-38
0.019130493 -0.11886616 0.052776549 2.3234379e-38
0.020965697 -0.11965488 0.049826775 2.2775196e-38
0.022715565 -0.11965488 0.049826775 2.2406778e-38
0.024570279 -0.12047486 0.046760175 2.3142544e-38
0.026325524 -0.12047486 0.046760175 2.2497184e-38
0.028080769 -0.12047486 0.046760175 1.7610104e-38
0.029836014 -0.12047486 0.046760175 1.0141905e-38
0.031591259 -0.12047486 0.046760175 7.379532e-40
0.033346504 -0.12047486 0.046760175 2.6624671e-44
0.035369527 -0.12207626 0.040770981 1.8477942e-40
0.03699572 -0.12127317 0.04377446 2.5223372e-44
0.038756199 -0.12127317 0.04377446 2.7768831e-40
0.040666763 -0.12207626 0.040770981 1.8656888e-40
0.04258357 -0.12285714 0.037850473 4.5208397e-39
0.044354435 -0.12285714 0.037850473 1.1159641e-38
0.046293154 -0.12366976 0.034811351 9.869254e-39
0.048069347 -0.12366976 0.034811351 9.5915825e-39
0.049845543 -0.12366976 0.034811351 8.2997619e-39
0.051806685 -0.1244873 0.031753872 7.2848939e-39
0.053588241 -0.1244873 0.031753872 9.1277331e-39
0.055369794 -0.1244873 0.031753872 9.6794733e-39
0.057543464 -0.12608187 0.025790188 4.6998331e-39
0.059335478 -0.12608187 0.025790188 6.4286249e-40
0.061127491 -0.12608187 0.025790188 1.6552194e-39
0.062919505 -0.12608187 0.025790188 1.8396078e-39
0.064930402 -0.12688623 0.022781942 1.5637356e-39
0.06672769 -0.12688623 0.022781942 2.3949284e-39
0.068755761 -0.12769531 0.019756053 2.1190547e-39
0.070558354 -0.12769531 0.019756053 9.2194229e-41
0.07259538 -0.12848105 0.016817424 1.5680278e-39
0.074403122 -0.12848105 0.016817424 8.6678087e-39
0.076465845 -0.1292996 0.013756011 2.3326203e-38
0.078613341 -0.13035102 0.0098237731 2.3233302e-38
0.080433339 -0.13035102 0.0098237731 2.3509527e-38
0.082518607 -0.13115202 0.0068280436 2.3509527e-38
0.08407335 -0.13035102 0.0098237731 2.304891e-38
0.085893363 -0.13035102 0.0098237731 2.3325494e-38
0.087994382 -0.13115202 0.0068280436 2.3509886e-38
0.08981964 -0.13115202 0.0068280436 2.2772323e-38
0.091644898 -0.13115202 0.0068280436 1.3736796e-38
0.093470156 -0.13115202 0.0068280436 4.9782151e-39
-0.072398916 -0.14913492 -0.053206947 2.1576312e-38
-0.070079759 -0.1472411 -0.04617038 1.4943633e-38
-0.068161577 -0.1472411 -0.04617038 4.9886646e-39
-0.066035762 -0.14616071 -0.042156007 1.8202867e-42
-0.063978061 -0.14537133 -0.039223101 3.9810889e-42
-0.061925787 -0.14455487 -0.036189463 1.4783923e-39
-0.059841964 -0.14349405 -0.032247927 1.7524555e-39
-0.057814289 -0.14268802 -0.029253032 2.8552045e-39
-0.055753712 -0.14161004 -0.025247719 6.4472341e-39
-0.053745743 -0.14078392 -0.022178199 6.8124139e-39
-0.051594157 -0.13890465 -0.015195515 6.5336676e-39
-0.049730282 -0.13890465 -0.015195515 6.6251402e-39
-0.047758132 -0.13809387 -0.012183096 1.0682824e-38
-0.045797128 -0.13728772 -0.0091877244 1.0777175e-38
-0.043943789 -0.13728772 -0.0091877244 6.8149208e-39
-0.041999061 -0.13648613 -0.0062092803 1.1938629e-39
-0.040150944 -0.13648613 -0.0062092803 4.1452006e-39
-0.038192634 -0.13539489 -0.002154734 1.520975e-38
-0.036199857 -0.13378824 0.0038149096 2.3509873e-38
-0.034369316 -0.13378824 0.0038149096 2.3508437e-38
-0.032472733 -0.13297729 0.0068280436 2.3509879e-38
-0.030507784 -0.13111271 0.013756011 2.3509521e-38
-0.028638314 -0.13028879 0.016817424 2.3416248e-38
-0.026781622 -0.1294979 0.019756053 2.3509527e-38
-0.024979029 -0.1294979 0.019756053 2.3509527e-38
-0.023136646 -0.12868352 0.022781942 2.3509527e-38
-0.021305077 -0.12787388 0.025790188 2.3509527e-38
-0.019484224 -0.12706901 0.028780792 2.3509527e-38
-0.017673997 -0.12626885 0.031753872 2.3509527e-38
-0.015892442 -0.12626885 0.031753872 2.3509527e-38
-0.014097484 -0.12544595 0.034811351 2.3509883e-38
-0.012313295 -0.12462802 0.037850473 2.3509883e-38
-0.010539869 -0.12384202 0.040770981 2.3509527e-38
-0.008779373 -0.1222301 0.046760175 2.3509168e-38
-0.007024128 -0.1222301 0.046760175 2.3509168e-38
-0.0052823257 -0.12140475 0.049826775 2.3509168e-38
-0.0035505593 -0.12061088 0.052776549 2.3509168e-38
-0.0018297685 -0.1197954 0.055806432 2.3509168e-38
-9.0384856e-05 -0.1197954 0.055806432 2.3509527e-38
0.0016146777 -0.11898489 0.058817957 2.3509168e-38
0.0033487817 -0.11898489 0.058817957 2.3509527e-38
0.0050828848 -0.11898489 0.058817957 2.3509168e-38
0.0068169888 -0.11898489 0.058817957 2.3509527e-38
0.0085510928 -0.11898489 0.058817957 2.3509168e-38
0.010285197 -0.11898489 0.058817957 2.3509168e-38
0.012019299 -0.11898489 0.058817957 2.3509168e-38
0.013824686 -0.1197954 0.055806432 2.3509527e-38
0.015564069 -0.1197954 0.055806432 2.3509168e-38
0.017385796 -0.12061088 0.052776549 2.3509527e-38
0.01921583 -0.12140475 0.049826775 2.2773037e-38
0.020965697 -0.12140475 0.049826775 2.3234015e-38
0.022715565 -0.12140475 0.049826775 2.2957431e-38
0.024465434 -0.12140475 0.049826775 1.6410825e-38
0.0262153 -0.12140475 0.049826775 5.6235845e-39
0.028080769 -0.1222301 0.046760175 7.3650005e-40
0.029836014 -0.1222301 0.046760175 1.0116534e-39
0.031591259 -0.1222301 0.046760175 2.755233e-40
0.033346504 -0.1222301 0.046760175 2.7552611e-40
0.035369527 -0.12384202 0.040770981 1.4726344e-39
0.037135273 -0.12384202 0.040770981 1.6570256e-39
0.03890102 -0.12384202 0.040770981 1.0127324e-39
0.040666763 -0.12384202 0.040770981 1.8368921e-40
0.04258357 -0.12462802 0.037850473 2.6736873e-39
0.044354435 -0.12462802 0.037850473 5.532828e-39
0.046293154 -0.12544595 0.034811351 3.5974344e-39
0.048069347 -0.12544595 0.034811351 3.3211979e-39
0.049845543 -0.12544595 0.034811351 1.3847267e-39
0.051806685 -0.12626885 0.031753872 1.5680446e-39
0.053588241 -0.12626885 0.031753872 4.9782109e-39
0.055369794 -0.12626885 0.031753872 6.5437429e-39
0.057543464 -0.12787388 0.025790188 3.3161798e-39
0.059335478 -0.12787388 0.025790188 1.8396106e-39
0.061127491 -0.12787388 0.025790188 3.8679145e-39
0.062919505 -0.12787388 0.025790188 5.7111054e-39
0.064930402 -0.12868352 0.022781942 1.0229765e-38
0.06672769 -0.12868352 0.022781942 5.6206992e-39
0.068755761 -0.1294979 0.019756053 2.3027299e-39
0.070558354 -0.1294979 0.019756053 7.371993e-40
0.07259538 -0.13028879 0.016817424 3.5873241e-43
0.074403122 -0.13028879 0.016817424 9.035885e-39
0.076465845 -0.13111271 0.013756011 2.2219863e-38
0.078613341 -0.13217102 0.0098237731 2.3509527e-38
0.080433339 -0.13217102 0.0098237731 2.3509527e-38
0.082253352 -0.13217102 0.0098237731 2.3509886e-38
0.08407335 -0.13217102 0.0098237731 2.3325494e-38
0.085893363 -0.13217102 0.0098237731 2.3509883e-38
0.087713376 -0.13217102 0.0098237731 2.3509883e-38
0.08981964 -0.13297729 0.0068280436 2.2956712e-38
0.091644898 -0.13297729 0.0068280436 1.3828991e-38
-0.070079759 -0.1491593 -0.04617038 2.2867037e-38
-0.067946911 -0.14807184 -0.042156007 1.6507356e-38
-0.065884054 -0.14727734 -0.039223101 7.9338843e-39
-0.063978061 -0.14727734 -0.039223101 9.2666046e-40
-0.061925787 -0.14645557 -0.036189463 7.4408948e-43
-0.059841964 -0.14538784 -0.032247927 2.9427268e-44
-0.057814289 -0.14457656 -0.029253032 3.2229865e-44
-0.055753712 -0.14349155 -0.025247719 1.1971377e-39
-0.053745743 -0.14266007 -0.022178199 4.5132979e-39
-0.051594157 -0.14076851 -0.015195515 3.7732091e-39
-0.049730282 -0.14076851 -0.015195515 4.7859149e-39
-0.047758132 -0.13995247 -0.012183096 1.1607304e-38
-0.045797128 -0.13914107 -0.0091877244 1.0778614e-38
-0.043943789 -0.13914107 -0.0091877244 5.9851517e-39
-0.041999061 -0.13833423 -0.0062092803 1.2856969e-39
-0.040150944 -0.13833423 -0.0062092803 5.7114361e-39
-0.038192634 -0.13723589 -0.002154734 1.5578529e-38
-0.036199857 -0.13561879 0.0038149096 2.3509876e-38
-0.034369316 -0.13561879 0.0038149096 2.3324407e-38
-0.032472733 -0.13480256 0.0068280436 2.3417323e-38
-0.030507784 -0.13292582 0.013756011 2.350988e-38
-0.028638314 -0.13209651 0.016817424 2.3325131e-38
-0.026781622 -0.13130049 0.019756053 2.3324775e-38
-0.024933934 -0.13048081 0.022781942 2.3509527e-38
-0.023136646 -0.13048081 0.022781942 2.3509527e-38
-0.021305077 -0.1296659 0.025790188 2.3509527e-38
-0.019484224 -0.12885578 0.028780792 2.3509527e-38
-0.017673997 -0.1280504 0.031753872 2.3509527e-38
-0.015873678 -0.12722217 0.034811351 2.3509527e-38
-0.014084162 -0.12639888 0.037850473 2.3509527e-38
-0.012313295 -0.12639888 0.037850473 2.3509883e-38
-0.010539869 -0.12560774 0.040770981 2.3509883e-38
-0.008779373 -0.12398534 0.046760175 2.3509883e-38
-0.007024128 -0.12398534 0.046760175 2.3509883e-38
-0.0052823257 -0.12315463 0.049826775 2.3509886e-38
-0.0035505593 -0.12235557 0.052776549 2.3509886e-38
-0.0018297685 -0.12153481 0.055806432 2.3509886e-38
-9.0384856e-05 -0.12153481 0.055806432 2.341805e-38
0.0016146777 -0.120719 0.058817957 2.3509886e-38
0.0033487817 -0.120719 0.058817957 2.341805e-38
0.0050828848 -0.120719 0.058817957 2.3509886e-38
0.0068169888 -0.120719 0.058817957 2.341805e-38
0.0085510928 -0.120719 0.058817957 2.3509886e-38
0.010285197 -0.120719 0.058817957 2.3509886e-38
0.012085302 -0.12153481 0.055806432 2.3509886e-38
0.013824686 -0.12153481 0.055806432 2.3509883e-38
0.015564069 -0.12153481 0.055806432 2.3509527e-38
0.017385796 -0.12235557 0.052776549 2.3509883e-38
0.019130493 -0.12235557 0.052776549 2.3509879e-38
0.020965697 -0.12315463 0.049826775 2.350952e-38
0.022715565 -0.12315463 0.049826775 2.3509161e-38
0.024465434 -0.12315463 0.049826775 1.6130632e-38
0.0262153 -0.12315463 0.049826775 4.2366802e-39
0.027965169 -0.12315463 0.049826775 9.1835496e-40
0.029715039 -0.12315463 0.049826775 1.0101933e-39
0.031591259 -0.12398534 0.046760175 1.5612146e-39
0.033346504 -0.12398534 0.046760175 2.3898991e-39
0.035235241 -0.12479414 0.04377446 2.9441519e-39
0.037135273 -0.12560774 0.040770981 3.3129344e-39
0.03890102 -0.12560774 0.040770981 1.5615776e-39
0.040812701 -0.12639888 0.037850473 1.6548522e-39
0.04258357 -0.12639888 0.037850473 4.6058312e-39
0.044354435 -0.12639888 0.037850473 6.173873e-39
0.046293154 -0.12722217 0.034811351 6.3600593e-39
0.048069347 -0.12722217 0.034811351 3.6885413e-39
0.049845543 -0.12722217 0.034811351 1.8618632e-40
0.051806685 -0.1280504 0.031753872 1.3832974e-39
0.053588241 -0.1280504 0.031753872 6.3604279e-39
0.055560067 -0.12885578 0.028780792 7.557176e-39
0.057543464 -0.1296659 0.025790188 4.513644e-39
0.059335478 -0.1296659 0.025790188 3.5906087e-39
0.061127491 -0.1296659 0.025790188 5.2501272e-39
0.062919505 -0.1296659 0.025790188 7.4620979e-39
0.064930402 -0.13048081 0.022781942 8.6617173e-39
0.06672769 -0.13048081 0.022781942 6.4504571e-39
0.068755761 -0.13130049 0.019756053 8.2759987e-40
0.070558354 -0.13130049 0.019756053 2.4885631e-39
0.072360948 -0.13130049 0.019756053 0
0.074403122 -0.13209651 0.016817424 5.8086904e-39
0.076210871 -0.13209651 0.016817424 2.341805e-38
0.078278944 -0.13292582 0.013756011 2.3232944e-38
0.080433339 -0.13399105 0.0098237731 2.3416974e-38
0.082253352 -0.13399105 0.0098237731 2.3416974e-38
0.08407335 -0.13399105 0.0098237731 2.3048189e-38
0.085893363 -0.13399105 0.0098237731 2.3417327e-38
0.087713376 -0.13399105 0.0098237731 2.3509883e-38
0.08981964 -0.13480256 0.0068280436 2.2495015e-38
0.091644898 -0.13480256 0.0068280436 1.3459846e-38
-0.067946911 -0.14998297 -0.042156007 2.3232227e-38
-0.065884054 -0.14918335 -0.039223101 2.2864526e-38
-0.063978061 -0.14918335 -0.039223101 1.8349111e-38
-0.061925787 -0.14835624 -0.036189463 1.2172731e-38
-0.059841964 -0.1472816 -0.032247927 3.4152306e-39
-0.057814289 -0.14646508 -0.029253032 1.8802763e-40
-0.055753712 -0.14537306 -0.025247719 2.197236e-42
-0.053745743 -0.14453618 -0.022178199 3.2229865e-44
-0.051594157 -0.14263238 -0.015195515 1.0123835e-39
-0.049730282 -0.14263238 -0.015195515 2.2087575e-39
-0.047758132 -0.14181106 -0.012183096 5.803657e-39
-0.045797128 -0.14099441 -0.0091877244 5.2497531e-39
-0.043943789 -0.14099441 -0.0091877244 5.1582651e-39
-0.041999061 -0.14018236 -0.0062092803 1.5629971e-39
-0.040150944 -0.14018236 -0.0062092803 4.1451852e-39
-0.038192634 -0.1390769 -0.002154734 1.4934239e-38
-0.036199857 -0.13744931 0.0038149096 2.3509879e-38
-0.034297995 -0.13662781 0.0068280436 2.3509518e-38
-0.032472733 -0.13662781 0.0068280436 2.3325129e-38
-0.030507784 -0.13473894 0.013756011 2.3509883e-38
-0.028638314 -0.13390426 0.016817424 2.3509527e-38
-0.026781622 -0.13310309 0.019756053 2.3048191e-38
-0.024933934 -0.1322781 0.022781942 2.3509527e-38
-0.023136646 -0.1322781 0.022781942 2.3509527e-38
-0.021270994 -0.13064255 0.028780792 2.3509527e-38
-0.019484224 -0.13064255 0.028780792 2.3509527e-38
-0.017673997 -0.12983195 0.031753872 2.3509527e-38
-0.015873678 -0.12899835 0.034811351 2.3509527e-38
-0.014084162 -0.12816976 0.037850473 2.3509527e-38
-0.012313295 -0.12816976 0.037850473 2.3509527e-38
-0.010537235 -0.12655462 0.04377446 2.3509883e-38
-0.008779373 -0.12574057 0.046760175 2.350988e-38
-0.007024128 -0.12574057 0.046760175 2.3418043e-38
-0.0052823257 -0.1249045 0.049826775 2.3418045e-38
-0.0035505593 -0.12410025 0.052776549 2.3418045e-38
-0.0018297685 -0.12327419 0.055806432 2.3418045e-38
-9.0384856e-05 -0.12327419 0.055806432 2.3418045e-38
0.0016146777 -0.12245311 0.058817957 2.3418045e-38
0.0033487817 -0.12245311 0.058817957 2.3418045e-38
0.0050828848 -0.12245311 0.058817957 2.3418045e-38
0.0068169888 -0.12245311 0.058817957 2.3418045e-38
0.0085510928 -0.12245311 0.058817957 2.3418045e-38
0.010285197 -0.12245311 0.058817957 2.3418045e-38
0.012085302 -0.12327419 0.055806432 2.3418045e-38
0.013824686 -0.12327419 0.055806432 2.3418043e-38
0.015564069 -0.12327419 0.055806432 2.3418045e-38
0.017385796 -0.12410025 0.052776549 2.3509879e-38
0.019130493 -0.12410025 0.052776549 2.3508079e-38
0.020875188 -0.12410025 0.052776549 2.332189e-38
0.022619884 -0.12410025 0.052776549 2.3508802e-38
0.024364579 -0.12410025 0.052776549 1.5852602e-38
0.026109278 -0.12410025 0.052776549 5.7103669e-39
0.027965169 -0.1249045 0.049826775 2.2054938e-39
0.029715039 -0.1249045 0.049826775 1.9285468e-39
0.031464905 -0.1249045 0.049826775 6.7212832e-39
0.033346504 -0.12574057 0.046760175 1.05935e-38
0.035101749 -0.12574057 0.046760175 1.4281325e-38
0.03699572 -0.12655462 0.04377446 1.2621806e-38
0.03890102 -0.1273735 0.040770981 2.6653986e-39
0.040812701 -0.12816976 0.037850473 1.9285552e-39
0.04258357 -0.12816976 0.037850473 9.2127289e-39
0.044354435 -0.12816976 0.037850473 9.2134491e-39
0.046293154 -0.12899835 0.034811351 6.5419339e-39
0.048069347 -0.12899835 0.034811351 5.5317378e-39
0.049845543 -0.12899835 0.034811351 6.4608828e-40
0.051806685 -0.12983195 0.031753872 1.7513638e-39
0.053588241 -0.12983195 0.031753872 7.2823842e-39
0.055560067 -0.13064255 0.028780792 8.0181569e-39
0.057543464 -0.13145791 0.025790188 5.0664549e-39
0.059335478 -0.13145791 0.025790188 4.050861e-39
0.061127491 -0.13145791 0.025790188 4.5121937e-39
0.063133121 -0.1322781 0.022781942 5.8029269e-39
0.064930402 -0.1322781 0.022781942 1.0690729e-38
0.06672769 -0.1322781 0.022781942 6.8188725e-39
0.068755761 -0.13310309 0.019756053 3.6734198e-40
0.070558354 -0.13310309 0.019756053 4.6061521e-40
0.072360948 -0.13310309 0.019756053 5.5389265e-40
0.074163541 -0.13310309 0.019756053 7.5611291e-39
0.076210871 -0.13390426 0.016817424 2.1942927e-38
0.078278944 -0.13473894 0.013756011 2.3509527e-38
0.080433339 -0.13581105 0.0098237731 2.3509527e-38
0.082253352 -0.13581105 0.0098237731 2.3509527e-38
0.08407335 -0.13581105 0.0098237731 2.3325131e-38
0.085893363 -0.13581105 0.0098237731 2.350988e-38
0.087713376 -0.13581105 0.0098237731 2.350988e-38
0.089533374 -0.13581105 0.0098237731 2.2771958e-38
0.091353387 -0.13581105 0.0098237731 1.373643e-38
-0.059841964 -0.14917539 -0.032247927 1.1895782e-38
-0.057814289 -0.14835359 -0.029253032 5.8123114e-39
-0.055753712 -0.14725454 -0.025247719 2.0322934e-39
-0.053872216 -0.14725454 -0.025247719 5.5536541e-40
-0.05186962 -0.1464123 -0.022178199 1.8621855e-40
-0.049730282 -0.14449625 -0.015195515 1.6815582e-44
-0.047758132 -0.14366965 -0.012183096 1.5676928e-39
-0.045695297 -0.14203046 -0.0062092803 1.014868e-39
-0.043847177 -0.14203046 -0.0062092803 1.8449804e-39
-0.041999061 -0.14203046 -0.0062092803 3.7021184e-40
-0.040150944 -0.14203046 -0.0062092803 3.6892461e-39
-0.038192634 -0.14091791 -0.002154734 1.4382867e-38
-0.036199857 -0.13927986 0.0038149096 2.3325847e-38
-0.034297995 -0.13845308 0.0068280436 2.350988e-38
-0.032472733 -0.13845308 0.0068280436 2.3233296e-38
-0.030507784 -0.13655205 0.013756011 2.3509886e-38
-0.028638314 -0.13571201 0.016817424 2.3509886e-38
-0.026781622 -0.13490568 0.019756053 2.304891e-38
-0.024933934 -0.13407536 0.022781942 2.3509527e-38
-0.023097087 -0.13324992 0.025790188 2.3509527e-38
-0.021270994 -0.13242932 0.028780792 2.3509527e-38
-0.019455552 -0.13161351 0.031753872 2.3509527e-38
-0.017673997 -0.13161351 0.031753872 2.3509527e-38
-0.015873678 -0.13077454 0.034811351 2.3509527e-38
-0.014084162 -0.12994061 0.037850473 2.3509527e-38
-0.012305614 -0.12913923 0.040770981 2.3509527e-38
-0.010537235 -0.12831511 0.04377446 2.3509883e-38
-0.008779373 -0.12749584 0.046760175 2.3418043e-38
-0.007024128 -0.12749584 0.046760175 2.3234369e-38
-0.0052823257 -0.12665437 0.049826775 2.3234372e-38
-0.0035505593 -0.12584494 0.052776549 2.3234372e-38
-0.0018297685 -0.12501357 0.055806432 2.3418043e-38
-9.0384856e-05 -0.12501357 0.055806432 2.3418043e-38
0.0016146777 -0.12418722 0.058817957 2.3418043e-38
0.0033487817 -0.12418722 0.058817957 2.3418043e-38
0.0050828848 -0.12418722 0.058817957 2.3418043e-38
0.0068169888 -0.12418722 0.058817957 2.3418043e-38
0.0085510928 -0.12418722 0.058817957 2.3418043e-38
0.010345919 -0.12501357 0.055806432 2.3418043e-38
0.012085302 -0.12501357 0.055806432 2.3234372e-38
0.013824686 -0.12501357 0.055806432 2.3234369e-38
0.015641099 -0.12584494 0.052776549 2.3234372e-38
0.017385796 -0.12584494 0.052776549 2.3509879e-38
0.019130493 -0.12584494 0.052776549 2.3509524e-38
0.020875188 -0.12584494 0.052776549 2.3509165e-38
0.022619884 -0.12584494 0.052776549 2.3508804e-38
0.024364579 -0.12584494 0.052776549 1.5669293e-38
0.026109278 -0.12584494 0.052776549 6.8170704e-39
0.027853973 -0.12584494 0.052776549 1.9292629e-39
0.029598668 -0.12584494 0.052776549 1.3775324e-39
0.031464905 -0.12665437 0.049826775 9.0265257e-39
0.033214774 -0.12665437 0.049826775 1.1422893e-38
0.035101749 -0.12749584 0.046760175 1.5110721e-38
0.03699572 -0.12831511 0.04377446 1.3266811e-38
0.03890102 -0.12913923 0.040770981 2.4802843e-39
0.040812701 -0.12994061 0.037850473 2.0203879e-39
0.04258357 -0.12994061 0.037850473 9.949575e-39
0.044354435 -0.12994061 0.037850473 9.7651866e-39
0.046293154 -0.13077454 0.034811351 7.5553725e-39
0.048069347 -0.13077454 0.034811351 6.8217633e-39
0.049845543 -0.13077454 0.034811351 1.1989103e-39
0.051806685 -0.13161351 0.031753872 1.9357593e-39
0.053588241 -0.13161351 0.031753872 7.3735064e-39
0.055560067 -0.13242932 0.028780792 8.2936648e-39
0.057543464 -0.13324992 0.025790188 6.3571937e-39
0.059335478 -0.13324992 0.025790188 5.8029325e-39
0.061335832 -0.13407536 0.022781942 5.6181727e-39
0.063133121 -0.13407536 0.022781942 7.462437e-39
0.064930402 -0.13407536 0.022781942 7.1865648e-39
0.06672769 -0.13407536 0.022781942 5.1593371e-39
0.068755761 -0.13490568 0.019756053 1.4729553e-39
0.070558354 -0.13490568 0.019756053 9.2194229e-41
0.072360948 -0.13490568 0.019756053 8.3047393e-40
0.074163541 -0.13490568 0.019756053 6.8239185e-39
0.076210871 -0.13571201 0.016817424 2.2773765e-38
0.078278944 -0.13655205 0.013756011 2.3509527e-38
0.080092058 -0.13655205 0.013756011 2.3509168e-38
0.082253352 -0.13763104 0.0098237731 2.3509523e-38
0.08407335 -0.13763104 0.0098237731 2.3140737e-38
0.085893363 -0.13763104 0.0098237731 2.3417323e-38
0.087713376 -0.13763104 0.0098237731 2.3417323e-38
0.089533374 -0.13763104 0.0098237731 2.2403172e-38
0.091353387 -0.13763104 0.0098237731 1.3736786e-38
0.093173385 -0.13763104 0.0098237731 7.7437168e-39
0.094993398 -0.13763104 0.0098237731 5.3466333e-39
-0.055753712 -0.14913605 -0.025247719 2.0563241e-38
-0.053872216 -0.14913605 -0.025247719 1.7243479e-38
-0.051594157 -0.14636014 -0.015195515 1.1526989e-38
-0.049730282 -0.14636014 -0.015195515 8.3923345e-39
-0.047758132 -0.14552824 -0.012183096 9.6834264e-39
-0.045695297 -0.14387859 -0.0062092803 8.1164552e-39
-0.043847177 -0.14387859 -0.0062092803 4.7981258e-39
-0.041999061 -0.14387859 -0.0062092803 3.969084e-39
-0.040033642 -0.14275892 -0.002154734 9.4079045e-39
-0.038192634 -0.14275892 -0.002154734 1.6136027e-38
-0.036199857 -0.14111041 0.0038149096 2.3233296e-38
-0.034297995 -0.14027832 0.0068280436 2.3509883e-38
-0.032472733 -0.14027832 0.0068280436 2.3509886e-38
-0.030507784 -0.13836516 0.013756011 2.3325497e-38
-0.028638314 -0.13751976 0.016817424 2.3509886e-38
-0.026781622 -0.13670824 0.019756053 2.3232944e-38
-0.024933934 -0.13587265 0.022781942 2.3509527e-38
-0.023097087 -0.13504194 0.025790188 2.3509527e-38
-0.021270994 -0.13421609 0.028780792 2.3509527e-38
-0.019455552 -0.13339506 0.031753872 2.3509527e-38
-0.017673997 -0.13339506 0.031753872 2.3509527e-38
-0.015873678 -0.13255073 0.034811351 2.3509527e-38
-0.014084162 -0.1317115 0.037850473 2.3509527e-38
-0.012305614 -0.13090499 0.040770981 2.3509527e-38
-0.010537235 -0.13007559 0.04377446 2.3509886e-38
-0.008779373 -0.12925108 0.046760175 2.3418045e-38
-0.007024128 -0.12925108 0.046760175 2.3234372e-38
-0.0052823257 -0.12840421 0.049826775 2.3234374e-38
-0.0035505593 -0.12758966 0.052776549 2.3234372e-38
-0.0018297685 -0.12675296 0.055806432 2.3418045e-38
