# .PCD v0.7 - Point Cloud Data file format
VERSION 0.7
FIELDS x y z rgb
SIZE 4 4 4 4
TYPE F F F F
COUNT 1 1 1 1
WIDTH 936
HEIGHT 1
VIEWPOINT 0 0 0 1 0 0 0
POINTS 936
DATA ascii
0.0020713117 -0.10695927 -0.056693874 1.91785e-38
0.0040141307 -0.10602666 -0.052679501 1.9916788e-38
0.0059252754 -0.10602666 -0.052679501 2.0930943e-38
0.0078073572 -0.10859399 -0.063730441 2.2037289e-38
0.0097413361 -0.10767709 -0.05978366 2.2774843e-38
0.011664938 -0.10767709 -0.05978366 2.3234379e-38
0.013588538 -0.10767709 -0.05978366 2.341805e-38
0.015512139 -0.10767709 -0.05978366 2.3234379e-38
0.017049029 -0.093037367 0.0032325163 2.3234379e-38
0.018814802 -0.091643453 0.0092325583 2.3142544e-38
0.020617394 -0.091643453 0.0092325583 2.2867037e-38
0.022419985 -0.091643453 0.0092325583 2.2222754e-38
0.024222579 -0.091643453 0.0092325583 2.1855053e-38
0.02611459 -0.093037367 0.0032325163 2.1856488e-38
0.027927702 -0.093037367 0.0032325163 2.1764652e-38
0.029740816 -0.093037367 0.0032325163 2.1580623e-38
0.031874739 -0.096733689 -0.012678228 2.1305116e-38
0.033715751 -0.096733689 -0.012678228 2.1213281e-38
0.03555676 -0.096733689 -0.012678228 2.1122163e-38
0.037397768 -0.096733689 -0.012678228 2.1122163e-38
0.039238777 -0.096733689 -0.012678228 2.1213998e-38
0.041079786 -0.096733689 -0.012678228 2.1030327e-38
0.042920798 -0.096733689 -0.012678228 2.0479314e-38
0.044893317 -0.097675636 -0.016732775 2.0020137e-38
0.046741441 -0.097675636 -0.016732775 2.0203808e-38
0.048589557 -0.097675636 -0.016732775 2.057115e-38
0.050437674 -0.097675636 -0.016732775 2.0295643e-38
0.05228579 -0.097675636 -0.016732775 1.9559166e-38
0.054256633 -0.098367572 -0.019711219 1.8729776e-38
0.056109972 -0.098367572 -0.019711219 1.8085852e-38
0.057963312 -0.098367572 -0.019711219 1.679584e-38
0.060095794 -0.099763289 -0.025719009 1.6982032e-38
0.061959669 -0.099763289 -0.025719009 1.5692744e-38
0.063823543 -0.099763289 -0.025719009 1.5416883e-38
0.065687418 -0.099763289 -0.025719009 1.3390025e-38
0.067551292 -0.099763289 -0.025719009 1.3668055e-38
0.069415167 -0.099763289 -0.025719009 1.3207088e-38
0.071509443 -0.10070263 -0.02976235 1.2837597e-38
0.073380403 -0.10070263 -0.02976235 1.1638354e-38
0.075251371 -0.10070263 -0.02976235 1.117738e-38
0.077122331 -0.10070263 -0.02976235 1.1545442e-38
0.079634167 -0.10302909 -0.039776526 1.1360695e-38
0.081522688 -0.10302909 -0.039776526 1.0530221e-38
0.083411209 -0.10302909 -0.039776526 1.0253634e-38
0.085299738 -0.10302909 -0.039776526 1.0898284e-38
0.087188259 -0.10302909 -0.039776526 1.0252914e-38
0.08907678 -0.10302909 -0.039776526 1.0159997e-38
0.091188468 -0.10372485 -0.042771421 1.0251469e-38
0.093082242 -0.10372485 -0.042771421 1.0159272e-38
0.094976008 -0.10372485 -0.042771421 1.0435493e-38
0.097184226 -0.10464053 -0.046712957 1.0712436e-38
0.099084914 -0.10464053 -0.046712957 1.0896106e-38
0.10123824 -0.10534529 -0.049746595 1.089646e-38
0.10314424 -0.10534529 -0.049746595 1.0065612e-38
0.10530479 -0.10602666 -0.052679501 1.0342199e-38
0.10721594 -0.10602666 -0.052679501 1.0618434e-38
0.10912709 -0.10602666 -0.052679501 1.0525884e-38
0.11103822 -0.10602666 -0.052679501 1.0432612e-38
0.11294937 -0.10602666 -0.052679501 1.0247138e-38
0.11486052 -0.10602666 -0.052679501 1.0521193e-38
0.11677167 -0.10602666 -0.052679501 1.0887437e-38
0.1186828 -0.10602666 -0.052679501 9.9629406e-39
0.12059395 -0.10602666 -0.052679501 7.4155734e-40
0.1225051 -0.10602666 -0.052679501 1.1078035e-39
-0.088444233 -0.1049176 -0.039776526 1.3302872e-38
-0.086555719 -0.1049176 -0.039776526 1.284226e-38
-0.084667191 -0.1049176 -0.039776526 1.348762e-38
-0.082431048 -0.10398008 -0.035771213 1.3304307e-38
-0.080549553 -0.10398008 -0.035771213 1.2012153e-38
-0.078412414 -0.1032616 -0.032701693 1.2378778e-38
-0.076536298 -0.1032616 -0.032701693 1.2929432e-38
-0.074425697 -0.10257359 -0.02976235 1.3296415e-38
-0.072554722 -0.10257359 -0.02976235 1.3847423e-38
-0.070375383 -0.10162716 -0.025719009 1.4213311e-38
-0.06828703 -0.10092205 -0.022706591 1.4394452e-38
-0.066428438 -0.10092205 -0.022706591 1.7155988e-38
-0.064569846 -0.10092205 -0.022706591 2.1026381e-38
-0.062711254 -0.10092205 -0.022706591 2.2590454e-38
-0.060852662 -0.10092205 -0.022706591 2.3142185e-38
-0.058797121 -0.10022092 -0.019711219 2.3509527e-38
-0.056943789 -0.10022092 -0.019711219 2.3509521e-38
-0.055090442 -0.10022092 -0.019711219 2.3509517e-38
-0.05360052 -0.10162716 -0.025719009 2.3509513e-38
-0.051974133 -0.10257359 -0.02976235 2.3509157e-38
-0.050270662 -0.1032616 -0.032701693 2.3509879e-38
-0.048950702 -0.10561861 -0.042771421 2.1297909e-38
-0.047056928 -0.10561861 -0.042771421 1.963983e-38
-0.045367017 -0.1065412 -0.046712957 1.8902262e-38
-0.043466337 -0.1065412 -0.046712957 1.8994455e-38
-0.041565657 -0.1065412 -0.046712957 1.8717505e-38
-0.039664969 -0.1065412 -0.046712957 1.7887744e-38
-0.034589842 -0.089922056 0.024287857 1.8347644e-38
-0.032683097 -0.089210689 0.027326979 1.9453994e-38
-0.030912226 -0.089210689 0.027326979 1.917741e-38
-0.03206224 -0.1065412 -0.046712957 2.0559628e-38
-0.030161554 -0.1065412 -0.046712957 2.0375234e-38
-0.028369909 -0.1072513 -0.049746595 1.9822414e-38
-0.026463905 -0.1072513 -0.049746595 2.0283741e-38
-0.024557905 -0.1072513 -0.049746595 2.0191897e-38
-0.022651901 -0.1072513 -0.049746595 2.0100056e-38
-0.020658137 -0.1065412 -0.046712957 2.111349e-38
-0.018650336 -0.10561861 -0.042771421 1.9544736e-38
-0.016756563 -0.10561861 -0.042771421 1.8714623e-38
-0.014862789 -0.10561861 -0.042771421 1.8530234e-38
-0.013055405 -0.1065412 -0.046712957 1.9452912e-38
-0.011275025 -0.1079378 -0.052679501 2.0375231e-38
-0.0093638804 -0.1079378 -0.052679501 2.0836931e-38
-0.0074527394 -0.1079378 -0.052679501 2.1667418e-38
-0.0056014191 -0.10887744 -0.056693874 2.2681931e-38
-0.0036832374 -0.10887744 -0.056693874 2.2958873e-38
-0.001800267 -0.10960068 -0.05978366 2.2591531e-38
8.5273758e-05 -0.11052449 -0.063730441 2.2499695e-38
0.0020157937 -0.11052449 -0.063730441 2.2499695e-38
0.0039463155 -0.11052449 -0.063730441 2.2499695e-38
0.0058594104 -0.11145501 -0.067705832 2.2316024e-38
0.0077969003 -0.11145501 -0.067705832 2.1856129e-38
0.0097317342 -0.11216442 -0.070736609 2.1580264e-38
0.011671882 -0.11145501 -0.067705832 2.2316024e-38
0.013609374 -0.11145501 -0.067705832 2.2224189e-38
0.015546864 -0.11145501 -0.067705832 2.2132353e-38
0.017030243 -0.094133899 0.0062939301 2.2132353e-38
0.018814802 -0.093446046 0.0092325583 2.1672817e-38
0.020617394 -0.093446046 0.0092325583 2.0751592e-38
0.022419985 -0.093446046 0.0092325583 2.0108026e-38
0.024222579 -0.093446046 0.0092325583 1.9923996e-38
0.02611459 -0.094850481 0.0032325163 1.937119e-38
0.027927702 -0.094850481 0.0032325163 1.8911295e-38
0.029979624 -0.097886756 -0.0097391233 1.8358487e-38
0.031815477 -0.097886756 -0.0097391233 1.7621645e-38
0.033715751 -0.098574698 -0.012678228 1.7069193e-38
0.03555676 -0.098574698 -0.012678228 1.6792249e-38
0.037397768 -0.098574698 -0.012678228 1.6516383e-38
0.039238777 -0.098574698 -0.012678228 1.6240873e-38
0.041079786 -0.098574698 -0.012678228 1.651925e-38
0.042920798 -0.098574698 -0.012678228 1.6427771e-38
0.044893317 -0.099523753 -0.016732775 1.6703998e-38
0.046741441 -0.099523753 -0.016732775 1.6888389e-38
0.048589557 -0.099523753 -0.016732775 1.7256092e-38
0.050437674 -0.099523753 -0.016732775 1.7071701e-38
0.052403294 -0.10022092 -0.019711219 1.6795117e-38
0.054256633 -0.10022092 -0.019711219 1.6242666e-38
0.056109972 -0.10022092 -0.019711219 1.6519618e-38
0.058097236 -0.10092205 -0.022706591 1.5505831e-38
0.060095794 -0.10162716 -0.025719009 1.4954102e-38
0.061959669 -0.10162716 -0.025719009 1.4493849e-38
0.063823543 -0.10162716 -0.025719009 1.4771163e-38
0.065687418 -0.10162716 -0.025719009 1.3481869e-38
0.067551292 -0.10162716 -0.025719009 1.2837224e-38
0.069415167 -0.10162716 -0.025719009 1.2376614e-38
0.071509443 -0.10257359 -0.02976235 1.2191519e-38
0.073380403 -0.10257359 -0.02976235 1.1638354e-38
0.075251371 -0.10257359 -0.02976235 1.1637995e-38
0.077122331 -0.10257359 -0.02976235 1.1913502e-38
0.079181403 -0.1032616 -0.032701693 1.1452529e-38
0.08125934 -0.10398008 -0.035771213 1.0529853e-38
0.083140843 -0.10398008 -0.035771213 1.0068156e-38
0.085299738 -0.1049176 -0.039776526 1.0343664e-38
0.087188259 -0.1049176 -0.039776526 1.1265257e-38
0.08907678 -0.1049176 -0.039776526 1.1264894e-38
0.091188468 -0.10561861 -0.042771421 1.1263812e-38
0.093082242 -0.10561861 -0.042771421 1.1263448e-38
0.094976008 -0.10561861 -0.042771421 1.1632584e-38
0.097184226 -0.1065412 -0.046712957 1.2369067e-38
0.099084914 -0.1065412 -0.046712957 1.2738207e-38
0.10123824 -0.1072513 -0.049746595 1.2830037e-38
0.10314424 -0.1072513 -0.049746595 1.2736032e-38
0.10530479 -0.1079378 -0.052679501 1.3289206e-38
0.10721594 -0.1079378 -0.052679501 1.3749832e-38
0.10912709 -0.1079378 -0.052679501 1.3658002e-38
0.11103822 -0.1079378 -0.052679501 1.356509e-38
0.11294937 -0.1079378 -0.052679501 1.3840233e-38
0.11486052 -0.1079378 -0.052679501 1.411501e-38
0.11677167 -0.1079378 -0.052679501 1.4390141e-38
0.1186828 -0.1079378 -0.052679501 1.1252593e-38
0.12059395 -0.1079378 -0.052679501 9.5103324e-41
0.1225051 -0.1079378 -0.052679501 3.6987553e-40
-0.11475183 -0.10278064 -0.022706591 2.0662985e-38
-0.086555719 -0.10680611 -0.039776526 1.2289095e-38
-0.084667191 -0.10680611 -0.039776526 1.1735929e-38
-0.082431048 -0.10586159 -0.035771213 1.2288736e-38
-0.080549553 -0.10586159 -0.035771213 1.2564242e-38
-0.078412414 -0.10513772 -0.032701693 1.1733059e-38
-0.076536298 -0.10513772 -0.032701693 1.1086261e-38
-0.074425697 -0.10444455 -0.02976235 1.0898981e-38
-0.072554722 -0.10444455 -0.02976235 1.1910961e-38
-0.070375383 -0.10349102 -0.025719009 1.3658704e-38
-0.06828703 -0.10278064 -0.022706591 1.4485571e-38
-0.066428438 -0.10278064 -0.022706591 1.6878685e-38
-0.064569846 -0.10278064 -0.022706591 2.0287747e-38
-0.0625038 -0.10207425 -0.019711219 2.2128407e-38
-0.060650468 -0.10207425 -0.019711219 2.2864883e-38
-0.05860129 -0.10137187 -0.016732775 2.3509527e-38
-0.056753173 -0.10137187 -0.016732775 2.3509521e-38
-0.054905057 -0.10137187 -0.016732775 2.350952e-38
-0.052811682 -0.10041572 -0.012678228 2.3509157e-38
-0.050970666 -0.10041572 -0.012678228 2.3509518e-38
-0.050270662 -0.10513772 -0.032701693 2.3509521e-38
-0.048950702 -0.1075124 -0.042771421 2.2863077e-38
-0.047056928 -0.1075124 -0.042771421 2.1295395e-38
-0.045367017 -0.1084419 -0.046712957 1.9728426e-38
-0.043466337 -0.1084419 -0.046712957 1.9083053e-38
-0.041565657 -0.1084419 -0.046712957 1.8806104e-38
-0.039664969 -0.1084419 -0.046712957 1.8898299e-38
-0.034453958 -0.090981558 0.027326979 2.0004294e-38
-0.032557636 -0.090292826 0.030247487 2.1295035e-38
-0.030791892 -0.090292826 0.030247487 2.212444e-38
-0.029026149 -0.090292826 0.030247487 2.2032965e-38
-0.027147179 -0.089584544 0.033250965 2.1756376e-38
-0.0253867 -0.089584544 0.033250965 2.1387947e-38
-0.023524137 -0.088880435 0.036236681 2.0835847e-38
-0.021768892 -0.088880435 0.036236681 2.0651807e-38
-0.02243788 -0.1075124 -0.042771421 2.0652522e-38
-0.02054411 -0.1075124 -0.042771421 2.1022023e-38
-0.018650336 -0.1075124 -0.042771421 1.945507e-38
-0.016756563 -0.1075124 -0.042771421 1.9364319e-38
-0.014862789 -0.1075124 -0.042771421 2.0655061e-38
-0.012969019 -0.1075124 -0.042771421 2.2499336e-38
-0.0098447036 -0.093120396 0.018257298 2.2775202e-38
-0.0094377864 -0.11079563 -0.056693874 2.20398e-38
-0.0075196009 -0.11079563 -0.056693874 2.1394798e-38
-0.0056014191 -0.11079563 -0.056693874 2.1396234e-38
-0.0036832374 -0.11079563 -0.056693874 2.2132353e-38
-0.0018452462 -0.11245503 -0.063730441 2.1673176e-38
8.5273758e-05 -0.11245503 -0.063730441 2.1489505e-38
0.0020157937 -0.11245503 -0.063730441 2.1489505e-38
0.0039463155 -0.11245503 -0.063730441 2.1397669e-38
0.0058768354 -0.11245503 -0.063730441 2.1213998e-38
0.0078073572 -0.11245503 -0.063730441 2.1122163e-38
0.0097931344 -0.097590908 -0.00069972128 2.1213998e-38
0.01161314 -0.097590908 -0.00069972128 1.983539e-38
0.013422806 -0.096663594 0.0032325163 1.9375495e-38
0.015222499 -0.095941633 0.0062939301 1.9006718e-38
0.017012209 -0.09524864 0.0092325583 1.8453194e-38
0.018814802 -0.09524864 0.0092325583 1.734758e-38
0.020617394 -0.09524864 0.0092325583 1.6057926e-38
0.022419985 -0.09524864 0.0092325583 1.5504752e-38
0.024222579 -0.09524864 0.0092325583 1.5505115e-38
0.026068967 -0.095941633 0.0062939301 1.4029988e-38
0.0279932 -0.097590908 -0.00069972128 1.4122544e-38
0.029979624 -0.099722609 -0.0097391233 1.4491328e-38
0.031815477 -0.099722609 -0.0097391233 1.4768994e-38
0.033715751 -0.10041572 -0.012678228 1.5230335e-38
0.03555676 -0.10041572 -0.012678228 1.5783507e-38
0.037397768 -0.10041572 -0.012678228 1.606009e-38
0.039238777 -0.10041572 -0.012678228 1.6152284e-38
0.041079786 -0.10041572 -0.012678228 1.5599469e-38
0.042920798 -0.10041572 -0.012678228 1.5783857e-38
0.044893317 -0.10137187 -0.016732775 1.615228e-38
0.046741441 -0.10137187 -0.016732775 1.6704373e-38
0.048589557 -0.10137187 -0.016732775 1.7164627e-38
0.050437674 -0.10137187 -0.016732775 1.7256821e-38
0.05228579 -0.10137187 -0.016732775 1.7164627e-38
0.054256633 -0.10207425 -0.019711219 1.7072433e-38
0.056109972 -0.10207425 -0.019711219 1.7164268e-38
0.058097236 -0.10278064 -0.022706591 1.6611461e-38
0.060095794 -0.10349102 -0.025719009 1.5044873e-38
0.061959669 -0.10349102 -0.025719009 1.4768652e-38
0.063823543 -0.10349102 -0.025719009 1.4400951e-38
0.065687418 -0.10349102 -0.025719009 1.4309117e-38
0.067551292 -0.10349102 -0.025719009 1.3479725e-38
0.069415167 -0.10349102 -0.025719009 1.3480445e-38
0.071509443 -0.10444455 -0.02976235 1.1821294e-38
0.073380403 -0.10444455 -0.02976235 1.2097526e-38
0.075251371 -0.10444455 -0.02976235 1.2373394e-38
0.077122331 -0.10444455 -0.02976235 1.2281198e-38
0.079181403 -0.10513772 -0.032701693 1.2003891e-38
0.08125934 -0.10586159 -0.035771213 1.1634388e-38
0.083140843 -0.10586159 -0.035771213 1.1817341e-38
0.085299738 -0.10680611 -0.039776526 1.1909173e-38
0.087188259 -0.10680611 -0.039776526 1.1447113e-38
0.08907678 -0.10680611 -0.039776526 1.1723336e-38
0.091188468 -0.1075124 -0.042771421 1.1815169e-38
0.093082242 -0.1075124 -0.042771421 1.1998834e-38
0.094976008 -0.1075124 -0.042771421 1.2551643e-38
0.097184226 -0.1084419 -0.046712957 1.3565069e-38
0.099084914 -0.1084419 -0.046712957 1.4026045e-38
0.10123824 -0.10915731 -0.049746595 1.402568e-38
0.10314424 -0.10915731 -0.049746595 1.3562897e-38
0.10530479 -0.10984896 -0.052679501 1.4208265e-38
0.10721594 -0.10984896 -0.052679501 1.4577415e-38
0.10912709 -0.10984896 -0.052679501 1.4484863e-38
0.11103822 -0.10984896 -0.052679501 1.4300474e-38
0.11294937 -0.10984896 -0.052679501 1.4484501e-38
0.11486052 -0.10984896 -0.052679501 1.4943672e-38
0.11677167 -0.10984896 -0.052679501 1.5218087e-38
0.1186828 -0.10984896 -0.052679501 1.4110287e-38
0.12059395 -0.10984896 -0.052679501 9.437605e-41
0.1225051 -0.10984896 -0.052679501 7.0064923e-45
-0.11404483 -0.10322 -0.016732775 9.9755719e-39
-0.11172396 -0.10225673 -0.012678228 9.6085817e-39
-0.10988295 -0.10225673 -0.012678228 9.8855371e-39
-0.10804194 -0.10225673 -0.012678228 1.3298568e-38
-0.10620093 -0.10225673 -0.012678228 1.3577661e-38
-0.084312558 -0.10774307 -0.035771213 2.7890043e-39
-0.082431048 -0.10774307 -0.035771213 5.0006205e-39
-0.080549553 -0.10774307 -0.035771213 5.9225824e-39
-0.078412414 -0.10701384 -0.032701693 7.6732273e-39
-0.076536298 -0.10701384 -0.032701693 9.7011682e-39
-0.074425697 -0.10631551 -0.02976235 1.1357802e-38
-0.072554722 -0.10631551 -0.02976235 1.2646008e-38
-0.070375383 -0.10535492 -0.025719009 1.4855089e-38
-0.06828703 -0.10463922 -0.022706591 1.6880141e-38
-0.066428438 -0.10463922 -0.022706591 1.8352376e-38
-0.064357147 -0.1039276 -0.019711219 1.9548387e-38
-0.0625038 -0.1039276 -0.019711219 2.1574879e-38
-0.060650468 -0.1039276 -0.019711219 2.258758e-38
-0.05860129 -0.10322 -0.016732775 2.332478e-38
-0.0564937 -0.10225673 -0.012678228 2.3509527e-38
-0.054652691 -0.10225673 -0.012678228 2.3509527e-38
-0.052811682 -0.10225673 -0.012678228 2.3509167e-38
-0.050798036 -0.10155846 -0.0097391233 2.3509167e-38
-0.048617795 -0.10012263 -0.0036954507 2.3509527e-38
-0.04679253 -0.10012263 -0.0036954507 2.3509168e-38
-0.047056928 -0.10940616 -0.042771421 2.3508092e-38
-0.045367017 -0.11034258 -0.046712957 2.3509168e-38
-0.043466337 -0.11034258 -0.046712957 2.3509168e-38
-0.041375607 -0.10940616 -0.042771421 2.3509168e-38
-0.039481834 -0.10940616 -0.042771421 2.3509168e-38
-0.034323387 -0.092058569 0.030247487 2.3508809e-38
-0.032428622 -0.091345012 0.033250965 2.3508809e-38
-0.030668141 -0.091345012 0.033250965 2.3508092e-38
-0.028907659 -0.091345012 0.033250965 2.3509168e-38
-0.027147179 -0.091345012 0.033250965 2.3509168e-38
-0.017154807 -0.096332356 0.012258448 2.2499695e-38
-0.015357522 -0.096332356 0.012258448 2.1948682e-38
-0.013560234 -0.096332356 0.012258448 2.2040518e-38
-0.011697015 -0.095617667 0.015266694 2.2132353e-38
-0.0098447036 -0.094907165 0.018257298 2.1948682e-38
-0.0080579352 -0.094907165 0.018257298 2.1213639e-38
-0.0062216427 -0.094200835 0.021230377 2.0938492e-38
-0.0044400897 -0.094200835 0.021230377 2.1489505e-38
-0.0026585329 -0.094200835 0.021230377 1.9465178e-38
-0.00087697618 -0.094200835 0.021230377 1.891273e-38
8.5273758e-05 -0.11438553 -0.063730441 1.8359923e-38
0.0020157937 -0.11438553 -0.063730441 1.7530887e-38
0.0043760315 -0.097749382 0.0062939301 1.6148676e-38
0.0061837751 -0.097749382 0.0062939301 1.458207e-38
0.0079834685 -0.098476708 0.0032325163 1.3568641e-38
0.0097965803 -0.098476708 0.0032325163 1.3108748e-38
0.01161314 -0.099410906 -0.00069972128 1.3018719e-38
0.013422806 -0.098476708 0.0032325163 1.3111999e-38
0.015222499 -0.097749382 0.0062939301 1.3572977e-38
0.017012209 -0.097051233 0.0092325583 1.3941759e-38
0.018814802 -0.097051233 0.0092325583 1.3849564e-38
0.020617394 -0.097051233 0.0092325583 1.3757368e-38
0.022453476 -0.097749382 0.0062939301 1.4126151e-38
0.024261221 -0.097749382 0.0062939301 1.4771517e-38
0.026068967 -0.097749382 0.0062939301 1.4033955e-38
0.0279932 -0.099410906 -0.00069972128 1.4218346e-38
0.02992383 -0.10083848 -0.0067085847 1.4587129e-38
0.031815477 -0.10155846 -0.0097391233 1.51403e-38
0.033651337 -0.10155846 -0.0097391233 1.5509077e-38
0.03555676 -0.10225673 -0.012678228 1.5785659e-38
0.037397768 -0.10225673 -0.012678228 1.5693465e-38
0.039238777 -0.10225673 -0.012678228 1.5692748e-38
0.041079786 -0.10225673 -0.012678228 1.6521061e-38
0.042920798 -0.10225673 -0.012678228 1.5968251e-38
0.044893317 -0.10322 -0.016732775 1.5598753e-38
0.046741441 -0.10322 -0.016732775 1.6059008e-38
0.048589557 -0.10322 -0.016732775 1.6611461e-38
0.050437674 -0.10322 -0.016732775 1.6795132e-38
0.05228579 -0.10322 -0.016732775 1.6149769e-38
0.054256633 -0.1039276 -0.019711219 1.5412205e-38
0.056109972 -0.1039276 -0.019711219 1.4674284e-38
0.057963312 -0.1039276 -0.019711219 1.5780634e-38
0.059955828 -0.10463922 -0.022706591 1.4951238e-38
0.061959669 -0.10535492 -0.025719009 1.5320023e-38
0.063823543 -0.10535492 -0.025719009 1.4214042e-38
0.065687418 -0.10535492 -0.025719009 1.449135e-38
0.067551292 -0.10535492 -0.025719009 1.3569397e-38
0.069415167 -0.10535492 -0.025719009 1.4307323e-38
0.071509443 -0.10631551 -0.02976235 1.2832918e-38
0.073380403 -0.10631551 -0.02976235 1.3386091e-38
0.075251371 -0.10631551 -0.02976235 1.3661958e-38
0.077305287 -0.10701384 -0.032701693 1.3108781e-38
0.079377845 -0.10774307 -0.035771213 1.2922951e-38
0.08125934 -0.10774307 -0.035771213 1.3291012e-38
0.083411209 -0.10869466 -0.039776526 1.3843467e-38
0.085299738 -0.10869466 -0.039776526 1.430372e-38
0.087188259 -0.10869466 -0.039776526 1.4947648e-38
0.089294694 -0.10940616 -0.042771421 1.540826e-38
0.091188468 -0.10940616 -0.042771421 1.5592287e-38
0.093082242 -0.10940616 -0.042771421 1.5868148e-38
0.094976008 -0.10940616 -0.042771421 1.678902e-38
0.097184226 -0.11034258 -0.046712957 1.7710973e-38
0.099084914 -0.11034258 -0.046712957 1.817123e-38
0.10123824 -0.11106332 -0.049746595 1.8078671e-38
0.10314424 -0.11106332 -0.049746595 1.8170143e-38
0.10505025 -0.11106332 -0.049746595 1.8999184e-38
0.10721594 -0.11176009 -0.052679501 1.918429e-38
0.10912709 -0.11176009 -0.052679501 1.8631842e-38
0.11103822 -0.11176009 -0.052679501 1.835526e-38
0.11294937 -0.11176009 -0.052679501 1.8355258e-38
0.11486052 -0.11176009 -0.052679501 1.8630758e-38
0.11677167 -0.11176009 -0.052679501 1.8905538e-38
0.1186828 -0.11176009 -0.052679501 1.7336041e-38
0.12059395 -0.11176009 -0.052679501 8.3121382e-40
0.1225051 -0.11176009 -0.052679501 2.8025969e-45
0.12441625 -0.11176009 -0.052679501 1.9361054e-39
-0.11356498 -0.10409774 -0.012678228 8.9657584e-39
-0.11138128 -0.10339431 -0.0097391233 7.9541204e-39
-0.10954542 -0.10339431 -0.0097391233 7.9552092e-39
-0.10736685 -0.10266902 -0.0067085847 8.7846154e-39
-0.10486729 -0.10123092 -0.00069972128 1.1734853e-38
-0.10195887 -0.098853827 0.0092325583 1.1456835e-38
-0.099830002 -0.098129645 0.012258448 1.1087341e-38
-0.097713605 -0.09740968 0.015266694 9.7037102e-39
-0.095921591 -0.09740968 0.015266694 7.3052001e-39
-0.094438136 -0.098129645 0.012258448 7.12009e-39
-0.086194053 -0.10962458 -0.035771213 4.1658277e-39
-0.084312558 -0.10962458 -0.035771213 5.4554875e-39
-0.082431048 -0.10962458 -0.035771213 6.1001381e-39
-0.080549553 -0.10962458 -0.035771213 9.1425939e-39
-0.078412414 -0.10888995 -0.032701693 9.7879633e-39
-0.076536298 -0.10888995 -0.032701693 1.1262369e-38
-0.074660182 -0.10888995 -0.032701693 1.2736769e-38
-0.072784066 -0.10888995 -0.032701693 1.4946933e-38
-0.070375383 -0.10721879 -0.025719009 1.5957836e-38
-0.068511501 -0.10721879 -0.025719009 1.9089944e-38
-0.066428438 -0.10649781 -0.022706591 1.9548761e-38
-0.064357147 -0.10578094 -0.019711219 2.1022076e-38
-0.058002532 -0.09022589 0.045282938 2.1758554e-38
-0.056263149 -0.09022589 0.045282938 2.249539e-38
-0.05860129 -0.1050681 -0.016732775 2.3140391e-38
-0.0564937 -0.10409774 -0.012678228 2.3509527e-38
-0.054652691 -0.10409774 -0.012678228 2.3325497e-38
-0.052633896 -0.10339431 -0.0097391233 2.3049991e-38
-0.050798036 -0.10339431 -0.0097391233 2.3142544e-38
-0.048617795 -0.10194789 -0.0036954507 2.3234379e-38
-0.04679253 -0.10194789 -0.0036954507 2.3417691e-38
-0.047056928 -0.11129995 -0.042771421 2.3509168e-38
-0.045367017 -0.11224325 -0.046712957 2.3509527e-38
-0.043466337 -0.11224325 -0.046712957 2.3232944e-38
-0.037710056 -0.093105495 0.033250965 2.3509527e-38
-0.03594958 -0.093105495 0.033250965 2.3509527e-38
-0.034323387 -0.093824327 0.030247487 2.3048556e-38
-0.032428622 -0.093105495 0.033250965 2.3417691e-38
-0.030545117 -0.092390925 0.036236681 2.3141826e-38
-0.028789872 -0.092390925 0.036236681 2.2958873e-38
-0.027034627 -0.092390925 0.036236681 2.2867037e-38
-0.025494656 -0.093824327 0.030247487 2.2591531e-38
-0.023524137 -0.092390925 0.036236681 2.2499695e-38
-0.021768892 -0.092390925 0.036236681 2.2316024e-38
-0.020197419 -0.093824327 0.030247487 2.2040518e-38
-0.018604083 -0.095250636 0.024287857 2.1489505e-38
-0.016827887 -0.095250636 0.024287857 2.1030327e-38
-0.015281042 -0.09740968 0.015266694 2.0662985e-38
-0.013489028 -0.09740968 0.015266694 2.0662985e-38
-0.011631472 -0.096693933 0.018257298 2.0662985e-38
-0.0098447036 -0.096693933 0.018257298 2.0479314e-38
-0.0080579352 -0.096693933 0.018257298 1.9467689e-38
-0.0062216427 -0.095982388 0.021230377 1.7808905e-38
-0.0044400897 -0.095982388 0.021230377 1.6518527e-38
-0.0026585329 -0.095982388 0.021230377 1.6058994e-38
-0.00087697618 -0.095982388 0.021230377 1.5874966e-38
0.00087590888 -0.096693933 0.018257298 1.5322516e-38
0.0026153456 -0.098129645 0.012258448 1.4493119e-38
0.0043940637 -0.098853827 0.0092325583 1.366444e-38
0.0061966572 -0.098853827 0.0092325583 1.3203824e-38
0.0079915207 -0.099557132 0.0062939301 1.3203826e-38
0.0097965803 -0.10028981 0.0032325163 1.3205271e-38
0.011609694 -0.10028981 0.0032325163 1.293049e-38
0.013422806 -0.10028981 0.0032325163 1.2747185e-38
0.015235918 -0.10028981 0.0032325163 1.3023049e-38
0.017012209 -0.098853827 0.0092325583 1.3115244e-38
0.018814802 -0.098853827 0.0092325583 1.3299633e-38
0.020617394 -0.098853827 0.0092325583 1.3575859e-38
0.022453476 -0.099557132 0.0062939301 1.3851725e-38
0.024301479 -0.10028981 0.0032325163 1.4035394e-38
0.02611459 -0.10028981 0.0032325163 1.449637e-38
0.028043101 -0.10194789 -0.0036954507 1.4680398e-38
0.029868359 -0.10194789 -0.0036954507 1.5048101e-38
0.031754375 -0.10266902 -0.0067085847 1.5324325e-38
0.033584915 -0.10266902 -0.0067085847 1.5600192e-38
0.03548719 -0.10339431 -0.0097391233 1.5784583e-38
0.037323046 -0.10339431 -0.0097391233 1.6152643e-38
0.039238777 -0.10409774 -0.012678228 1.6244837e-38
0.041079786 -0.10409774 -0.012678228 1.6059002e-38
0.042920798 -0.10409774 -0.012678228 1.6704009e-38
0.044761807 -0.10409774 -0.012678228 1.7348657e-38
0.046741441 -0.1050681 -0.016732775 1.7533045e-38
0.048589557 -0.1050681 -0.016732775 1.7439775e-38
0.050437674 -0.1050681 -0.016732775 1.7162473e-38
0.05228579 -0.1050681 -0.016732775 1.7161753e-38
0.054133914 -0.1050681 -0.016732775 1.7253232e-38
0.056109972 -0.10578094 -0.019711219 1.6700059e-38
0.057963312 -0.10578094 -0.019711219 1.6515311e-38
0.059955828 -0.10649781 -0.022706591 1.6146533e-38
0.061959669 -0.10721879 -0.025719009 1.5777395e-38
0.063823543 -0.10721879 -0.025719009 1.5409334e-38
0.065687418 -0.10721879 -0.025719009 1.5040195e-38
0.067551292 -0.10721879 -0.025719009 1.4855805e-38
0.069415167 -0.10721879 -0.025719009 1.4580298e-38
0.071509443 -0.10818647 -0.02976235 1.531858e-38
0.073380403 -0.10818647 -0.02976235 1.4673208e-38
0.075251371 -0.10818647 -0.02976235 1.4580293e-38
0.077305287 -0.10888995 -0.032701693 1.4949076e-38
0.079181403 -0.10888995 -0.032701693 1.4947634e-38
0.08125934 -0.10962458 -0.035771213 1.4301902e-38
0.083411209 -0.11058317 -0.039776526 1.430118e-38
0.085299738 -0.11058317 -0.039776526 1.4853632e-38
0.087400921 -0.11129995 -0.042771421 1.7341472e-38
0.089294694 -0.11129995 -0.042771421 1.7525498e-38
0.091188468 -0.11129995 -0.042771421 1.7985751e-38
0.093082242 -0.11129995 -0.042771421 1.8354168e-38
0.094976008 -0.11129995 -0.042771421 1.8998094e-38
0.097184226 -0.11224325 -0.046712957 1.9275037e-38
0.099084914 -0.11224325 -0.046712957 1.9643098e-38
0.10123824 -0.11296929 -0.049746595 1.9735649e-38
0.10314424 -0.11296929 -0.049746595 2.1209693e-38
0.10505025 -0.11296929 -0.049746595 2.0656527e-38
0.10695624 -0.11296929 -0.049746595 2.0288467e-38
0.10912709 -0.11367123 -0.052679501 2.0750157e-38
0.11103822 -0.11367123 -0.052679501 2.0934904e-38
0.11294937 -0.11367123 -0.052679501 2.0473933e-38
0.11486052 -0.11367123 -0.052679501 2.0012235e-38
0.11677167 -0.11367123 -0.052679501 1.9918594e-38
0.1186828 -0.11367123 -0.052679501 1.8257267e-38
0.12059395 -0.11367123 -0.052679501 1.1999851e-39
0.1225051 -0.11367123 -0.052679501 0
-0.11321713 -0.10523017 -0.0097391233 8.5995038e-39
-0.11102793 -0.10449956 -0.0067085847 7.4956744e-39
-0.10919738 -0.10449956 -0.0067085847 7.127622e-39
-0.10702609 -0.10377313 -0.0036954507 7.4964073e-39
-0.10376146 -0.10065642 0.0092325583 6.1109561e-39
-0.10162729 -0.099926919 0.012258448 5.9247712e-39
-0.099505618 -0.099201679 0.015266694 5.5552782e-39
-0.097396374 -0.098480701 0.018257298 3.9858001e-39
-0.095609605 -0.098480701 0.018257298 3.155329e-39
-0.094129577 -0.099201679 0.015266694 3.1535311e-39
-0.092640847 -0.099926919 0.012258448 3.6134233e-39
-0.07565932 -0.092695728 0.042253055 8.7687723e-39
-0.073400885 -0.091239244 0.048294462 1.1073662e-38
-0.071666792 -0.091239244 0.048294462 1.2180362e-38
-0.069767207 -0.090749919 0.05032412 1.3194866e-38
-0.068036661 -0.090749919 0.05032412 1.4483441e-38
-0.066306114 -0.090749919 0.05032412 1.5957484e-38
-0.064575568 -0.090749919 0.05032412 1.7983972e-38
-0.062845021 -0.090749919 0.05032412 2.111714e-38
-0.061262161 -0.091239244 0.048294462 2.268229e-38
-0.059383929 -0.090749919 0.05032412 2.286632e-38
-0.057653382 -0.090749919 0.05032412 2.2681572e-38
-0.055922851 -0.090749919 0.05032412 2.3049632e-38
-0.054192305 -0.090749919 0.05032412 2.3141826e-38
-0.0564937 -0.10593875 -0.012678228 2.2958514e-38
-0.054652691 -0.10593875 -0.012678228 2.2867037e-38
-0.052633896 -0.10523017 -0.0097391233 2.2591531e-38
-0.050798036 -0.10523017 -0.0097391233 2.2591531e-38
-0.048962176 -0.10523017 -0.0097391233 2.2499695e-38
-0.047126323 -0.10523017 -0.0097391233 2.2315307e-38
-0.042831838 -0.094146177 0.036236681 2.2499695e-38
-0.041076586 -0.094146177 0.036236681 2.2591172e-38
-0.039470538 -0.094865978 0.033250965 2.2314948e-38
-0.037710056 -0.094865978 0.033250965 2.2775202e-38
-0.03594958 -0.094865978 0.033250965 2.2775202e-38
-0.034189105 -0.094865978 0.033250965 2.240786e-38
-0.032428622 -0.094865978 0.033250965 2.2591531e-38
-0.030545117 -0.094146177 0.036236681 2.2316024e-38
-0.028789872 -0.094146177 0.036236681 2.2224189e-38
-0.027370496 -0.09629415 0.027326979 2.1765011e-38
-0.025494656 -0.09559007 0.030247487 2.1122163e-38
-0.023524137 -0.094146177 0.036236681 2.0569356e-38
-0.021768892 -0.094146177 0.036236681 1.9833596e-38
-0.020197419 -0.09559007 0.030247487 1.9373341e-38
-0.018604083 -0.09702684 0.024287857 1.8821606e-38
-0.016827887 -0.09702684 0.024287857 1.8084763e-38
-0.015051691 -0.09702684 0.024287857 1.7440116e-38
-0.013275499 -0.09702684 0.024287857 1.6795469e-38
-0.011499302 -0.09702684 0.024287857 1.6518882e-38
-0.0097847562 -0.097763941 0.021230377 1.6243018e-38
-0.0080032032 -0.097763941 0.021230377 1.5966793e-38
-0.0062216427 -0.097763941 0.021230377 1.550618e-38
-0.0044400897 -0.097763941 0.021230377 1.5046284e-38
-0.0026585329 -0.097763941 0.021230377 1.5415428e-38
-0.00091086142 -0.098480701 0.018257298 1.5323958e-38
0.00087590888 -0.098480701 0.018257298 1.5232484e-38
0.0026153456 -0.099926919 0.012258448 1.5140652e-38
0.0043940637 -0.10065642 0.0092325583 1.4772591e-38
0.0061966572 -0.10065642 0.0092325583 1.4588921e-38
0.0079992488 -0.10065642 0.0092325583 1.4680761e-38
0.0097992644 -0.10136487 0.0062939301 1.4589646e-38
0.011609694 -0.10210292 0.0032325163 1.3853162e-38
0.013422806 -0.10210292 0.0032325163 1.4037198e-38
0.015235918 -0.10210292 0.0032325163 1.4405975e-38
0.017030243 -0.10136487 0.0062939301 1.4774393e-38
0.018837988 -0.10136487 0.0062939301 1.5142811e-38
0.020645732 -0.10136487 0.0062939301 1.5418676e-38
0.022453476 -0.10136487 0.0062939301 1.5510153e-38
0.024301479 -0.10210292 0.0032325163 1.5693106e-38
0.02611459 -0.10210292 0.0032325163 1.6061523e-38
0.028043101 -0.10377313 -0.0036954507 1.6429583e-38
0.029868359 -0.10377313 -0.0036954507 1.6889119e-38
0.031693619 -0.10377313 -0.0036954507 1.7349374e-38
0.033518877 -0.10377313 -0.0036954507 1.7717792e-38
0.035415456 -0.10449956 -0.0067085847 1.827024e-38
0.037246 -0.10449956 -0.0067085847 1.8546105e-38
0.039158903 -0.10523017 -0.0097391233 1.8730494e-38
0.040994756 -0.10523017 -0.0097391233 1.8914165e-38
0.042920798 -0.10593875 -0.012678228 1.9282942e-38
0.044761807 -0.10593875 -0.012678228 1.9651001e-38
0.046741441 -0.10691623 -0.016732775 1.9651001e-38
0.048589557 -0.10691623 -0.016732775 1.9465895e-38
0.050437674 -0.10691623 -0.016732775 1.9465178e-38
0.05228579 -0.10691623 -0.016732775 1.9648849e-38
0.054133914 -0.10691623 -0.016732775 1.9924355e-38
0.056109972 -0.10763429 -0.019711219 2.0016549e-38
0.057963312 -0.10763429 -0.019711219 2.0016549e-38
0.059955828 -0.1083564 -0.022706591 2.020022e-38
0.061959669 -0.10908265 -0.025719009 2.0292415e-38
0.063823543 -0.10908265 -0.025719009 2.038425e-38
0.065687418 -0.10908265 -0.025719009 2.0568639e-38
0.067551292 -0.10908265 -0.025719009 2.066155e-38
0.069415167 -0.10908265 -0.025719009 2.0753745e-38
0.071279041 -0.10908265 -0.025719009 2.0478238e-38
0.073380403 -0.11005743 -0.02976235 1.9925073e-38
0.075251371 -0.11005743 -0.02976235 2.0016191e-38
0.077305287 -0.11076607 -0.032701693 2.0292773e-38
0.079181403 -0.11076607 -0.032701693 2.020022e-38
0.08125934 -0.11150609 -0.035771213 1.9646338e-38
0.083411209 -0.11247168 -0.039776526 1.9737814e-38
0.085299738 -0.11247168 -0.039776526 2.0198068e-38
0.087188259 -0.11247168 -0.039776526 2.1856488e-38
0.089294694 -0.11319371 -0.042771421 2.1947965e-38
0.091188468 -0.11319371 -0.042771421 2.222383e-38
0.093082242 -0.11319371 -0.042771421 2.240786e-38
0.094976008 -0.11319371 -0.042771421 2.2683366e-38
0.097184226 -0.11414395 -0.046712957 2.2867037e-38
0.099332243 -0.1148753 -0.049746595 2.2867037e-38
0.10123824 -0.1148753 -0.049746595 2.2958873e-38
0.10314424 -0.1148753 -0.049746595 2.2958873e-38
0.10505025 -0.1148753 -0.049746595 2.2498978e-38
0.10695624 -0.1148753 -0.049746595 2.2314948e-38
0.10912709 -0.11558239 -0.052679501 2.240786e-38
0.11103822 -0.11558239 -0.052679501 2.2316024e-38
0.11294937 -0.11558239 -0.052679501 2.1947606e-38
0.11486052 -0.11558239 -0.052679501 2.1762859e-38
0.11677167 -0.11558239 -0.052679501 2.2130555e-38
0.1186828 -0.11558239 -0.052679501 1.9455439e-38
0.12059395 -0.11558239 -0.052679501 2.2134112e-39
0.1225051 -0.11558239 -0.052679501 9.1835496e-41
0.12441625 -0.11558239 -0.052679501 3.687814e-39
-0.11321713 -0.10706602 -0.0097391233 8.6913463e-39
-0.1106766 -0.10559841 -0.0036954507 7.2187358e-39
-0.10850731 -0.10487093 -0.00069972128 6.0220003e-39
-0.1062426 -0.10391603 0.0032325163 6.0209213e-39
-0.10376146 -0.10245901 0.0092325583 7.4935276e-39
-0.10162729 -0.10172421 0.012258448 7.0303915e-39
-0.099505618 -0.10099369 0.015266694 6.1992029e-39
-0.097396374 -0.10026747 0.018257298 3.2478735e-39
-0.095609605 -0.10026747 0.018257298 3.8914521e-39
-0.093822837 -0.10026747 0.018257298 2.8755023e-39
-0.091736332 -0.099545494 0.021230377 3.6116226e-39
-0.089651898 -0.098803028 0.024287857 3.425781e-39
-0.087875694 -0.098803028 0.024287857 4.2540871e-39
-0.071666792 -0.092973351 0.048294462 1.3835917e-38
-0.069767207 -0.092480466 0.05032412 1.4941537e-38
-0.068036661 -0.092480466 0.05032412 1.5494348e-38
-0.066306114 -0.092480466 0.05032412 1.5770209e-38
-0.064575568 -0.092480466 0.05032412 1.8351314e-38
-0.062845021 -0.092480466 0.05032412 2.0379228e-38
-0.061262161 -0.092973351 0.048294462 2.2222395e-38
-0.059528068 -0.092973351 0.048294462 2.2590813e-38
-0.057653382 -0.092480466 0.05032412 2.2498978e-38
-0.055922851 -0.092480466 0.05032412 2.2499336e-38
-0.054192305 -0.092480466 0.05032412 2.222383e-38
-0.052461758 -0.092480466 0.05032412 2.20398e-38
-0.050731212 -0.092480466 0.05032412 2.2040518e-38
-0.049000666 -0.092480466 0.05032412 2.1673176e-38
-0.047270119 -0.092480466 0.05032412 2.1580981e-38
-0.046167582 -0.095156729 0.03930328 2.1121445e-38
-0.044417709 -0.095156729 0.03930328 2.0754462e-38
-0.042667843 -0.095156729 0.03930328 2.1213998e-38
-0.040917978 -0.095156729 0.03930328 2.1305834e-38
-0.039321348 -0.095901415 0.036236681 2.1305834e-38
-0.037566096 -0.095901415 0.036236681 2.1489505e-38
-0.035810858 -0.095901415 0.036236681 2.1489505e-38
-0.034055606 -0.095901415 0.036236681 2.1122163e-38
-0.032428622 -0.096626461 0.033250965 2.1122163e-38
-0.030668141 -0.096626461 0.033250965 1.974176e-38
-0.028907659 -0.096626461 0.033250965 1.9281865e-38
-0.027260402 -0.097355813 0.030247487 1.9005642e-38
-0.0253867 -0.096626461 0.033250965 1.845427e-38
-0.023524137 -0.095901415 0.036236681 1.8085852e-38
-0.021768892 -0.095901415 0.036236681 1.7534476e-38
-0.020197419 -0.097355813 0.030247487 1.7258605e-38
-0.018604083 -0.098803028 0.024287857 1.7258605e-38
-0.016827887 -0.098803028 0.024287857 1.7534473e-38
-0.015051691 -0.098803028 0.024287857 1.7257167e-38
-0.013275499 -0.098803028 0.024287857 1.6612519e-38
-0.011499302 -0.098803028 0.024287857 1.6151184e-38
-0.0097847562 -0.099545494 0.021230377 1.5967512e-38
-0.0080032032 -0.099545494 0.021230377 1.606043e-38
-0.0062216427 -0.099545494 0.021230377 1.6521411e-38
-0.0044400897 -0.099545494 0.021230377 1.6798361e-38
-0.0026585329 -0.099545494 0.021230377 1.5416507e-38
-0.00091086142 -0.10026747 0.018257298 1.5416151e-38
0.00087590888 -0.10026747 0.018257298 1.5509068e-38
0.0026153456 -0.10172421 0.012258448 1.5509431e-38
0.0044126343 -0.10172421 0.012258448 1.5601627e-38
0.0061966572 -0.10245901 0.0092325583 1.5326122e-38
0.0079992488 -0.10245901 0.0092325583 1.5049178e-38
0.0098018404 -0.10245901 0.0092325583 1.4772948e-38
0.01160701 -0.10317262 0.0062939301 1.532468e-38
0.013414754 -0.10317262 0.0062939301 1.5692741e-38
0.015235918 -0.10391603 0.0032325163 1.6245913e-38
0.017049029 -0.10391603 0.0032325163 1.6982749e-38
0.018862143 -0.10391603 0.0032325163 1.7350809e-38
0.020675253 -0.10391603 0.0032325163 1.7626315e-38
0.022488367 -0.10391603 0.0032325163 1.7717073e-38
0.024301479 -0.10391603 0.0032325163 1.7716709e-38
0.026173195 -0.10487093 -0.00069972128 1.8360634e-38
0.0279932 -0.10487093 -0.00069972128 1.8544303e-38
0.029868359 -0.10559841 -0.0036954507 1.9004197e-38
0.031693619 -0.10559841 -0.0036954507 1.9555929e-38
0.033518877 -0.10559841 -0.0036954507 2.0016185e-38
0.035415456 -0.10633011 -0.0067085847 2.047644e-38
0.037246 -0.10633011 -0.0067085847 2.0752666e-38
0.039158903 -0.10706602 -0.0097391233 2.0753026e-38
0.040994756 -0.10706602 -0.0097391233 2.1213998e-38
0.042830616 -0.10706602 -0.0097391233 2.1305834e-38
0.044761807 -0.10777976 -0.012678228 2.1397669e-38
0.046602815 -0.10777976 -0.012678228 2.1305834e-38
0.048443824 -0.10777976 -0.012678228 2.1122163e-38
0.050437674 -0.10876434 -0.016732775 2.1213998e-38
0.05228579 -0.10876434 -0.016732775 2.158134e-38
0.054133914 -0.10876434 -0.016732775 2.2040518e-38
0.056109972 -0.10948761 -0.019711219 2.1580981e-38
0.057963312 -0.10948761 -0.019711219 2.1580981e-38
0.060095794 -0.11094652 -0.025719009 2.1765011e-38
0.06181442 -0.11021499 -0.022706591 2.1856847e-38
0.063673012 -0.11021499 -0.022706591 2.2040518e-38
0.065687418 -0.11094652 -0.025719009 2.2224189e-38
0.067551292 -0.11094652 -0.025719009 2.2224189e-38
0.069415167 -0.11094652 -0.025719009 2.2224189e-38
0.071279041 -0.11094652 -0.025719009 2.2132353e-38
0.073380403 -0.11192839 -0.02976235 2.2040518e-38
0.075251371 -0.11192839 -0.02976235 2.1948682e-38
0.077122331 -0.11192839 -0.02976235 2.2224189e-38
0.078993298 -0.11192839 -0.02976235 2.2316024e-38
0.081057519 -0.11264218 -0.032701693 2.2131994e-38
0.083140843 -0.11338757 -0.035771213 2.20398e-38
0.085299738 -0.1143602 -0.039776526 2.2499695e-38
0.087188259 -0.1143602 -0.039776526 2.2775202e-38
0.089294694 -0.11508749 -0.042771421 2.2867037e-38
0.091188468 -0.11508749 -0.042771421 2.2958873e-38
0.093082242 -0.11508749 -0.042771421 2.3142544e-38
0.095283538 -0.11604463 -0.046712957 2.3234379e-38
0.097184226 -0.11604463 -0.046712957 2.3234379e-38
0.099332243 -0.11678131 -0.049746595 2.3142542e-38
0.10123824 -0.11678131 -0.049746595 2.3326213e-38
0.10314424 -0.11678131 -0.049746595 2.341805e-38
0.10505025 -0.11678131 -0.049746595 2.3234379e-38
0.10695624 -0.11678131 -0.049746595 2.3142544e-38
0.10912709 -0.11749353 -0.052679501 2.2867037e-38
0.11103822 -0.11749353 -0.052679501 2.2775202e-38
0.11294937 -0.11749353 -0.052679501 2.2591531e-38
0.11486052 -0.11749353 -0.052679501 2.2775202e-38
0.11677167 -0.11749353 -0.052679501 2.2958873e-38
0.1186828 -0.11749353 -0.052679501 2.0284834e-38
0.12059395 -0.11749353 -0.052679501 3.0428075e-39
0.1225051 -0.11749353 -0.052679501 9.1835496e-41
0.12441625 -0.11749353 -0.052679501 3.687814e-39
-0.11321713 -0.10890187 -0.0097391233 1.016395e-38
-0.1106766 -0.10742365 -0.0036954507 8.5984318e-39
-0.10850731 -0.10669093 -0.00069972128 7.4016949e-39
-0.1062426 -0.10572915 0.0032325163 7.125108e-39
-0.10376146 -0.10426159 0.0092325583 8.2296493e-39
-0.10162729 -0.10352151 0.012258448 7.3062553e-39
-0.099505618 -0.10278571 0.015266694 5.8296987e-39
-0.097396374 -0.10205424 0.018257298 1.8638601e-39
-0.095609605 -0.10205424 0.018257298 2.9687797e-39
-0.093822837 -0.10205424 0.018257298 5.6989547e-40
-0.091428086 -0.10057923 0.024287857 8.4503762e-40
-0.089350834 -0.099835888 0.027326979 1.0279785e-39
-0.087579966 -0.099835888 0.027326979 8.4213133e-40
-0.085530013 -0.099121556 0.030247487 2.0395829e-39
-0.083202466 -0.097656667 0.036236681 3.1448375e-39
-0.081447229 -0.097656667 0.036236681 4.3422918e-39
-0.079148725 -0.096185118 0.042253055 7.3829498e-39
-0.077404022 -0.096185118 0.042253055 1.0516525e-38
-0.07565932 -0.096185118 0.042253055 1.2543753e-38
-0.073400885 -0.094707444 0.048294462 1.4202552e-38
-0.071666792 -0.094707444 0.048294462 1.4017787e-38
-0.069767207 -0.094211012 0.05032412 1.549255e-38
-0.068036661 -0.094211012 0.05032412 1.5123767e-38
-0.066306114 -0.094211012 0.05032412 1.3279855e-38
-0.064575568 -0.094211012 0.05032412 1.475606e-38
-0.062845021 -0.094211012 0.05032412 1.4295081e-38
-0.061262161 -0.094707444 0.048294462 1.5218114e-38
-0.059528068 -0.094707444 0.048294462 1.4757136e-38
-0.057653382 -0.094211012 0.05032412 1.5311749e-38
-0.055922851 -0.094211012 0.05032412 1.5035525e-38
-0.054192305 -0.094211012 0.05032412 1.448307e-38
-0.052461758 -0.094211012 0.05032412 1.3469997e-38
-0.050545663 -0.093481898 0.053305127 1.2364368e-38
-0.048820347 -0.093481898 0.053305127 1.1443132e-38
-0.047270119 -0.094211012 0.05032412 1.1075071e-38
-0.045655236 -0.094707444 0.048294462 1.0707728e-38
-0.043921128 -0.094707444 0.048294462 1.0618406e-38
-0.042667843 -0.096906602 0.03930328 1.209497e-38
-0.040917978 -0.096906602 0.03930328 1.3200587e-38
-0.039168105 -0.096906602 0.03930328 1.5044486e-38
-0.037566096 -0.097656667 0.036236681 1.6703996e-38
-0.035810858 -0.097656667 0.036236681 1.698021e-38
-0.034055606 -0.097656667 0.036236681 1.7256793e-38
-0.032300368 -0.097656667 0.036236681 1.7440824e-38
-0.030668141 -0.098386943 0.033250965 1.7809251e-38
-0.028907659 -0.098386943 0.033250965 1.7441188e-38
-0.027147179 -0.098386943 0.033250965 1.7257523e-38
-0.0253867 -0.098386943 0.033250965 1.7257889e-38
-0.023626221 -0.098386943 0.033250965 1.7258249e-38
-0.021865742 -0.098386943 0.033250965 1.6982741e-38
-0.020197419 -0.099121556 0.030247487 1.7075656e-38
-0.018604083 -0.10057923 0.024287857 1.7443719e-38
-0.016827887 -0.10057923 0.024287857 1.7533754e-38
-0.015051691 -0.10057923 0.024287857 1.7809621e-38
-0.013275499 -0.10057923 0.024287857 1.7809621e-38
-0.011499302 -0.10057923 0.024287857 1.7533754e-38
-0.0097231101 -0.10057923 0.024287857 1.7441561e-38
-0.0080032032 -0.10132705 0.021230377 1.7533757e-38
-0.0062216427 -0.10132705 0.021230377 1.7810704e-38
-0.0044400897 -0.10132705 0.021230377 1.8179481e-38
-0.0026585329 -0.10132705 0.021230377 1.8456063e-38
-0.00091086142 -0.10205424 0.018257298 1.8271675e-38
0.00087590888 -0.10205424 0.018257298 1.8087645e-38
0.0026390832 -0.10278571 0.015266694 1.817984e-38
0.0044126343 -0.10352151 0.012258448 1.8088721e-38
0.0061966572 -0.10426159 0.0092325583 1.7903974e-38
0.0079992488 -0.10426159 0.0092325583 1.7443003e-38
0.0098018404 -0.10426159 0.0092325583 1.7257897e-38
0.01160701 -0.10498036 0.0062939301 1.86383e-38
0.013414754 -0.10498036 0.0062939301 1.9098553e-38
0.015222499 -0.10498036 0.0062939301 1.9651001e-38
0.017049029 -0.10572915 0.0032325163 2.0203808e-38
0.018862143 -0.10572915 0.0032325163 2.057115e-38
0.020675253 -0.10572915 0.0032325163 2.0662985e-38
0.022533182 -0.10669093 -0.00069972128 2.0846297e-38
0.024353188 -0.10669093 -0.00069972128 2.0753745e-38
0.026173195 -0.10669093 -0.00069972128 2.1673176e-38
0.0279932 -0.10669093 -0.00069972128 2.1856847e-38
0.029868359 -0.10742365 -0.0036954507 2.2040518e-38
0.031693619 -0.10742365 -0.0036954507 2.2316024e-38
0.033518877 -0.10742365 -0.0036954507 2.2499695e-38
0.035344139 -0.10742365 -0.0036954507 2.2775202e-38
0.037246 -0.10816063 -0.0067085847 2.2867037e-38
0.039158903 -0.10890187 -0.0097391233 2.2775202e-38
0.040994756 -0.10890187 -0.0097391233 2.2316021e-38
0.042830616 -0.10890187 -0.0097391233 2.2040515e-38
0.044761807 -0.10962076 -0.012678228 2.2132353e-38
0.046602815 -0.10962076 -0.012678228 2.2040513e-38
0.048443824 -0.10962076 -0.012678228 2.185684e-38
0.050437674 -0.11061247 -0.016732775 2.2040511e-38
0.05228579 -0.11061247 -0.016732775 2.2316021e-38
0.054133914 -0.11061247 -0.016732775 2.2591531e-38
0.056109972 -0.11134095 -0.019711219 2.2683365e-38
0.057963312 -0.11134095 -0.019711219 2.2591528e-38
0.059955828 -0.11207359 -0.022706591 2.2591528e-38
0.06181442 -0.11207359 -0.022706591 2.2499691e-38
0.063673012 -0.11207359 -0.022706591 2.2591526e-38
0.065687418 -0.11281042 -0.025719009 2.2591526e-38
0.067551292 -0.11281042 -0.025719009 2.2683363e-38
0.069415167 -0.11281042 -0.025719009 2.2683366e-38
0.071279041 -0.11281042 -0.025719009 2.2775202e-38
0.073380403 -0.11379938 -0.02976235 2.2591531e-38
0.075251371 -0.11379938 -0.02976235 2.2591531e-38
0.077122331 -0.11379938 -0.02976235 2.2775202e-38
0.078993298 -0.11379938 -0.02976235 2.2867037e-38
0.080864258 -0.11379938 -0.02976235 2.2682649e-38
0.082933635 -0.1145183 -0.032701693 2.2683007e-38
0.085022338 -0.11526908 -0.035771213 2.3142544e-38
0.087188259 -0.11624874 -0.039776526 2.2958514e-38
0.08907678 -0.11624874 -0.039776526 2.3050349e-38
0.091188468 -0.11698125 -0.042771421 2.3234018e-38
0.093082242 -0.11698125 -0.042771421 2.3325492e-38
0.094976008 -0.11698125 -0.042771421 2.3325492e-38
0.097184226 -0.11794533 -0.046712957 2.3325847e-38
0.099332243 -0.11868732 -0.049746595 2.3325847e-38
0.10123824 -0.11868732 -0.049746595 2.3325847e-38
0.10314424 -0.11868732 -0.049746595 2.3509167e-38
0.10505025 -0.11868732 -0.049746595 2.3417691e-38
0.10695624 -0.11868732 -0.049746595 2.3234379e-38
0.10912709 -0.11940466 -0.052679501 2.3142544e-38
0.11103822 -0.11940466 -0.052679501 2.2683363e-38
0.11294937 -0.11940466 -0.052679501 2.2591524e-38
0.11486052 -0.11940466 -0.052679501 2.2775196e-38
0.11677167 -0.11940466 -0.052679501 2.3142538e-38
0.1186828 -0.11940466 -0.052679501 2.1205708e-38
0.12059395 -0.11940466 -0.052679501 3.9640449e-39
0.1225051 -0.11940466 -0.052679501 2.7550649e-40
0.12441625 -0.11940466 -0.052679501 3.5023437e-39
-0.11032732 -0.10851096 -0.00069972128 9.7922849e-39
-0.10805571 -0.10754226 0.0032325163 9.0561632e-39
-0.10556406 -0.10606419 0.0092325583 9.0565261e-39
-0.10376146 -0.10606419 0.0092325583 9.2419964e-39
-0.10162729 -0.1053188 0.012258448 8.0431001e-39
-0.099505618 -0.10457774 0.015266694 6.6594594e-39
-0.097396374 -0.10384102 0.018257298 3.1538814e-39
-0.095609605 -0.10384102 0.018257298 3.8903815e-39
-0.093517885 -0.1031086 0.021230377 9.3832627e-40
-0.091428086 -0.10235542 0.024287857 1.02908e-39
-0.089350834 -0.10160676 0.027326979 1.1201854e-39
-0.087003499 -0.10014741 0.033250965 1.0268967e-39
-0.084957719 -0.099411905 0.036236681 1.579695e-39
-0.083202466 -0.099411905 0.036236681 1.762996e-39
-0.081164941 -0.098656476 0.03930328 3.3295959e-39
-0.079148725 -0.09792982 0.042253055 5.5408532e-39
-0.077135742 -0.097183421 0.045282938 7.0149099e-39
-0.075396359 -0.097183421 0.045282938 8.8581079e-39
-0.073400885 -0.096441552 0.048294462 1.079277e-38
-0.071497753 -0.095941558 0.05032412 1.2635581e-38
-0.069767207 -0.095941558 0.05032412 1.4847545e-38
-0.067798838 -0.095207214 0.053305127 1.3188026e-38
-0.066073522 -0.095207214 0.053305127 9.501643e-39
-0.064348206 -0.095207214 0.053305127 9.4105291e-39
-0.062845021 -0.095941558 0.05032412 7.3833071e-39
-0.061114475 -0.095941558 0.05032412 7.8457258e-39
-0.059383929 -0.095941558 0.05032412 7.1096027e-39
-0.057653382 -0.095941558 0.05032412 7.9408053e-39
-0.055922851 -0.095941558 0.05032412 8.4021464e-39
-0.054325745 -0.096441552 0.048294462 8.5876166e-39
-0.052461758 -0.095941558 0.05032412 8.219553e-39
-0.050545663 -0.095207214 0.053305127 7.2979568e-39
-0.048820347 -0.095207214 0.053305127 6.8380576e-39
-0.047270119 -0.095941558 0.05032412 7.2990358e-39
-0.045655236 -0.096441552 0.048294462 7.4855851e-39
-0.043921128 -0.096441552 0.048294462 7.5810177e-39
-0.042348072 -0.097183421 0.045282938 9.7025864e-39
-0.040765405 -0.09792982 0.042253055 1.0624529e-38
-0.039168105 -0.098656476 0.03930328 1.3297463e-38
-0.037418239 -0.098656476 0.03930328 1.5601617e-38
-0.035668373 -0.098656476 0.03930328 1.6245892e-38
-0.0339185 -0.098656476 0.03930328 1.7627736e-38
-0.032168634 -0.098656476 0.03930328 1.7995434e-38
-0.030418763 -0.098656476 0.03930328 1.8271301e-38
-0.028789872 -0.099411905 0.036236681 1.7902518e-38
-0.027034627 -0.099411905 0.036236681 1.7901446e-38
