# .PCD v0.7 - Point Cloud Data file format
VERSION 0.7
FIELDS x y z rgb
SIZE 4 4 4 4
TYPE F F F F
COUNT 1 1 1 1
WIDTH 924
HEIGHT 1
VIEWPOINT 0 0 0 1 0 0 0
POINTS 924
DATA ascii
0.0091933003 -0.089100882 -0.037514515 2.3509527e-38
0.011046641 -0.089100882 -0.037514515 2.3509527e-38
0.012928866 -0.089770496 -0.040509887 2.3509527e-38
0.014787459 -0.089770496 -0.040509887 2.3509527e-38
0.01664605 -0.089770496 -0.040509887 2.3509527e-38
0.018504642 -0.089770496 -0.040509887 2.3509527e-38
0.020363234 -0.089770496 -0.040509887 2.3509527e-38
0.022221826 -0.089770496 -0.040509887 2.3141106e-38
0.024141159 -0.090443924 -0.043522306 2.3141106e-38
0.025939012 -0.089770496 -0.040509887 2.3509886e-38
0.027797604 -0.089770496 -0.040509887 2.3509886e-38
0.029732781 -0.090443924 -0.043522306 2.3509886e-38
0.03186984 -0.092691094 -0.05357451 2.3141822e-38
0.03386721 -0.093586475 -0.057579823 2.2958151e-38
0.035755735 -0.093586475 -0.057579823 2.3142544e-38
-0.092034757 -0.080356359 0.0095236823 1.163044e-38
-0.090263888 -0.080356359 0.0095236823 1.1722632e-38
-0.088493019 -0.080356359 0.0095236823 1.1631156e-38
-0.08672215 -0.080356359 0.0095236823 1.1815547e-38
-0.084951296 -0.080356359 0.0095236823 1.2276169e-38
-0.083180428 -0.080356359 0.0095236823 1.2461992e-38
-0.081409559 -0.080356359 0.0095236823 1.2462699e-38
-0.087386712 -0.10176755 -0.085509129 1.1817327e-38
-0.085449219 -0.10176755 -0.085509129 1.1631507e-38
-0.083201557 -0.10087189 -0.081533737 1.1906659e-38
-0.080970019 -0.099982664 -0.077586956 1.190522e-38
-0.079046413 -0.099982664 -0.077586956 1.1811215e-38
-0.076605901 -0.098382086 -0.070482798 1.2547685e-38
-0.074694753 -0.098382086 -0.070482798 1.3929521e-38
-0.072580487 -0.097721294 -0.067549892 2.2132353e-38
-0.070674479 -0.097721294 -0.067549892 2.2039441e-38
-0.068768471 -0.097721294 -0.067549892 2.2867037e-38
-0.066862479 -0.097721294 -0.067549892 2.3509527e-38
-0.064956471 -0.097721294 -0.067549892 2.3508807e-38
-0.063227877 -0.098382086 -0.070482798 2.3508441e-38
-0.06131674 -0.098382086 -0.070482798 2.3506999e-38
-0.059634339 -0.099286526 -0.074497171 2.3508438e-38
-0.057886805 -0.099982664 -0.077586956 2.3509161e-38
-0.055797976 -0.099286526 -0.074497171 2.3509164e-38
-0.053672161 -0.098382086 -0.070482798 2.3508085e-38
-0.051761013 -0.098382086 -0.070482798 2.3509524e-38
-0.049849864 -0.098382086 -0.070482798 2.3509524e-38
-0.047938723 -0.098382086 -0.070482798 2.3509524e-38
-0.045896452 -0.097721294 -0.067549892 2.3509524e-38
-0.043990444 -0.097721294 -0.067549892 2.3508804e-38
-0.042084444 -0.097721294 -0.067549892 2.3509883e-38
-0.040178444 -0.097721294 -0.067549892 2.3509883e-38
-0.038158081 -0.097037792 -0.064516254 2.3509883e-38
-0.036115725 -0.096149758 -0.060574718 2.3509523e-38
-0.034119558 -0.095475003 -0.057579823 2.3325131e-38
-0.032231037 -0.095475003 -0.057579823 2.3417327e-38
-0.030342516 -0.095475003 -0.057579823 2.3509527e-38
-0.02824932 -0.093881011 -0.05050499 2.3509883e-38
-0.026293319 -0.093218774 -0.047565646 2.3418043e-38
-0.024422359 -0.093218774 -0.047565646 2.3509879e-38
-0.022551391 -0.093218774 -0.047565646 2.323365e-38
-0.020680431 -0.093218774 -0.047565646 2.323365e-38
-0.018809468 -0.093218774 -0.047565646 2.3509879e-38
-0.016864065 -0.092307791 -0.043522306 2.3325846e-38
-0.015000191 -0.092307791 -0.043522306 2.304854e-38
-0.013136316 -0.092307791 -0.043522306 2.3509879e-38
-0.011272445 -0.092307791 -0.043522306 2.3509879e-38
-0.0094085708 -0.092307791 -0.043522306 2.3509879e-38
-0.0075156465 -0.091629088 -0.040509887 2.3509518e-38
-0.0056334212 -0.090954214 -0.037514515 2.3509518e-38
-0.0037800819 -0.090954214 -0.037514515 2.3509879e-38
-0.0019398704 -0.091629088 -0.040509887 2.350952e-38
-7.3401257e-05 -0.090954214 -0.037514515 2.3509521e-38
0.00177994 -0.090954214 -0.037514515 2.350952e-38
0.0036332794 -0.090954214 -0.037514515 2.350952e-38
0.0054866206 -0.090954214 -0.037514515 2.2955624e-38
0.0073530897 -0.091629088 -0.040509887 2.3508439e-38
0.0092116818 -0.091629088 -0.040509887 2.3509879e-38
0.011070274 -0.091629088 -0.040509887 2.3509521e-38
0.012928866 -0.091629088 -0.040509887 2.3509161e-38
0.014787459 -0.091629088 -0.040509887 2.3509524e-38
0.016685665 -0.092307791 -0.043522306 2.3324052e-38
0.018549537 -0.092307791 -0.043522306 2.3508446e-38
0.020413412 -0.092307791 -0.043522306 2.3509167e-38
0.022277286 -0.092307791 -0.043522306 2.3509527e-38
0.024222687 -0.093218774 -0.047565646 2.3509527e-38
0.026093651 -0.093218774 -0.047565646 2.3509527e-38
0.028201649 -0.095475003 -0.057579823 2.3509527e-38
0.03009017 -0.095475003 -0.057579823 2.3509527e-38
0.032060083 -0.096149758 -0.060574718 2.3509886e-38
0.033953853 -0.096149758 -0.060574718 2.295887e-38
0.035847627 -0.096149758 -0.060574718 2.2867034e-38
-0.10982403 -0.10190627 -0.077586956 1.2184699e-38
-0.10790043 -0.10190627 -0.077586956 1.1172002e-38
-0.10597682 -0.10190627 -0.077586956 1.145002e-38
-0.10405323 -0.10190627 -0.077586956 1.1173437e-38
-0.10250677 -0.10280241 -0.081533737 1.1450378e-38
-0.092034757 -0.082127213 0.0095236823 1.1819514e-38
-0.090263888 -0.082127213 0.0095236823 1.2004261e-38
-0.088493019 -0.082127213 0.0095236823 1.1820231e-38
-0.08672215 -0.082127213 0.0095236823 1.1635843e-38
-0.084951296 -0.082127213 0.0095236823 1.1359978e-38
-0.083180428 -0.082127213 0.0095236823 1.1360336e-38
-0.081409559 -0.082127213 0.0095236823 1.1360684e-38
-0.087062597 -0.10280241 -0.081533737 1.0715315e-38
-0.085132077 -0.10280241 -0.081533737 1.0714244e-38
-0.083201557 -0.10280241 -0.081533737 1.1081953e-38
-0.080970019 -0.10190627 -0.077586956 1.1357104e-38
-0.078816175 -0.10120471 -0.074497171 1.1355303e-38
-0.076605901 -0.10029322 -0.070482798 1.2091418e-38
-0.074486479 -0.099627286 -0.067549892 1.337962e-38
-0.072580487 -0.099627286 -0.067549892 2.0384968e-38
-0.070674479 -0.099627286 -0.067549892 2.1948682e-38
-0.068768471 -0.099627286 -0.067549892 2.2591531e-38
-0.066668332 -0.09893848 -0.064516254 2.2957796e-38
-0.064767644 -0.09893848 -0.064516254 2.3231494e-38
-0.063050479 -0.099627286 -0.067549892 2.3508797e-38
-0.061144467 -0.099627286 -0.067549892 2.3508435e-38
-0.05923846 -0.099627286 -0.067549892 2.3506637e-38
-0.057494443 -0.10029322 -0.070482798 2.3508802e-38
-0.05542646 -0.099627286 -0.067549892 2.3509524e-38
-0.053520452 -0.099627286 -0.067549892 2.3509524e-38
-0.05161446 -0.099627286 -0.067549892 2.3509524e-38
-0.049708452 -0.099627286 -0.067549892 2.3232936e-38
-0.047802445 -0.099627286 -0.067549892 2.3048545e-38
-0.045896452 -0.099627286 -0.067549892 2.3324775e-38
-0.043990444 -0.099627286 -0.067549892 2.3509527e-38
-0.042084444 -0.099627286 -0.067549892 2.3509886e-38
-0.040058766 -0.09893848 -0.064516254 2.3509886e-38
-0.038158081 -0.09893848 -0.064516254 2.3509886e-38
-0.036115725 -0.098043531 -0.060574718 2.3509886e-38
-0.034119558 -0.097363517 -0.057579823 2.3509886e-38
-0.032231037 -0.097363517 -0.057579823 2.3325494e-38
-0.030342516 -0.097363517 -0.057579823 2.2773039e-38
-0.02824932 -0.095757127 -0.05050499 2.2404257e-38
-0.026293319 -0.095089734 -0.047565646 2.3142537e-38
-0.024422359 -0.095089734 -0.047565646 2.3234374e-38
-0.022551391 -0.095089734 -0.047565646 2.3234374e-38
-0.020680431 -0.095089734 -0.047565646 2.3234374e-38
-0.018809468 -0.095089734 -0.047565646 2.3418045e-38
-0.016938504 -0.095089734 -0.047565646 2.3326208e-38
-0.01506754 -0.095089734 -0.047565646 2.3141456e-38
-0.013196576 -0.095089734 -0.047565646 2.3509879e-38
-0.011325616 -0.095089734 -0.047565646 2.3233652e-38
-0.0094546489 -0.095089734 -0.047565646 2.3325846e-38
-0.0075446963 -0.094171658 -0.043522306 2.3509518e-38
-0.0056808218 -0.094171658 -0.043522306 2.3509879e-38
-0.0038169492 -0.094171658 -0.043522306 2.3509879e-38
-0.0019398704 -0.09348768 -0.040509887 2.3509518e-38
-8.1278384e-05 -0.09348768 -0.040509887 2.3508798e-38
0.00177994 -0.092807561 -0.037514515 2.3324407e-38
0.0036332794 -0.092807561 -0.037514515 2.3509879e-38
0.0054866206 -0.092807561 -0.037514515 2.3509879e-38
0.0073530897 -0.09348768 -0.040509887 2.3509879e-38
0.0092116818 -0.09348768 -0.040509887 2.3509879e-38
0.011070274 -0.09348768 -0.040509887 2.3140737e-38
0.012957916 -0.094171658 -0.043522306 2.3140737e-38
0.01482179 -0.094171658 -0.043522306 2.3509883e-38
0.016685665 -0.094171658 -0.043522306 2.3509883e-38
0.018549537 -0.094171658 -0.043522306 2.3509527e-38
0.020413412 -0.094171658 -0.043522306 2.3509527e-38
0.022351723 -0.095089734 -0.047565646 2.3509167e-38
0.024222687 -0.095089734 -0.047565646 2.3416971e-38
0.026093651 -0.095089734 -0.047565646 2.3509168e-38
0.027964612 -0.095089734 -0.047565646 2.3509527e-38
0.030166309 -0.098043531 -0.060574718 2.3509527e-38
0.032060083 -0.098043531 -0.060574718 2.341805e-38
0.033953853 -0.098043531 -0.060574718 2.2958873e-38
0.035847627 -0.098043531 -0.060574718 2.2775202e-38
0.037869249 -0.09893848 -0.064516254 2.2867037e-38
-0.10790043 -0.10382988 -0.077586956 1.0252571e-38
-0.10597682 -0.10382988 -0.077586956 1.025293e-38
-0.10405323 -0.10382988 -0.077586956 1.0253647e-38
-0.10250677 -0.10473295 -0.081533737 1.0438394e-38
-0.092034757 -0.083898082 0.0095236823 1.0899365e-38
-0.090263888 -0.083898082 0.0095236823 1.1176665e-38
-0.088493019 -0.083898082 0.0095236823 1.1269936e-38
-0.08672215 -0.083898082 0.0095236823 1.136213e-38
-0.084951296 -0.083898082 0.0095236823 1.1362489e-38
-0.083180428 -0.083898082 0.0095236823 1.1362489e-38
-0.081409559 -0.083898082 0.0095236823 1.163943e-38
-0.086740822 -0.10382988 -0.077586956 1.1085547e-38
-0.084817216 -0.10382988 -0.077586956 1.0899724e-38
-0.082893625 -0.10382988 -0.077586956 1.1267783e-38
-0.080734357 -0.1031229 -0.074497171 1.135926e-38
-0.078517035 -0.10220437 -0.070482798 1.0989048e-38
-0.076392487 -0.10153329 -0.067549892 1.0987602e-38
-0.074486479 -0.10153329 -0.067549892 1.153896e-38
-0.07237038 -0.10083917 -0.064516254 1.5961797e-38
-0.070469707 -0.10083917 -0.064516254 2.0846297e-38
-0.068569019 -0.10083917 -0.064516254 2.1948682e-38
-0.066668332 -0.10083917 -0.064516254 2.2591531e-38
-0.064767644 -0.10083917 -0.064516254 2.249754e-38
-0.062866971 -0.10083917 -0.064516254 2.3417327e-38
-0.06073476 -0.099937305 -0.060574718 2.3509163e-38
-0.058840994 -0.099937305 -0.060574718 2.3507722e-38
-0.057164919 -0.10083917 -0.064516254 2.3509527e-38
-0.055264231 -0.10083917 -0.064516254 2.3509886e-38
-0.053363543 -0.10083917 -0.064516254 2.3509886e-38
-0.051462863 -0.10083917 -0.064516254 2.3509886e-38
-0.049562182 -0.10083917 -0.064516254 2.3325497e-38
-0.047802445 -0.10153329 -0.067549892 2.3325497e-38
-0.045760814 -0.10083917 -0.064516254 2.341805e-38
-0.043860134 -0.10083917 -0.064516254 2.341805e-38
-0.041959446 -0.10083917 -0.064516254 2.3141467e-38
-0.040058766 -0.10083917 -0.064516254 2.3049273e-38
-0.038158081 -0.10083917 -0.064516254 2.2865602e-38
-0.036115725 -0.099937305 -0.060574718 2.3234379e-38
-0.034119558 -0.099252045 -0.057579823 2.3234379e-38
-0.032231037 -0.099252045 -0.057579823 2.3234379e-38
-0.030434407 -0.099937305 -0.060574718 2.3234379e-38
-0.028338119 -0.098335579 -0.05357451 2.3142544e-38
-0.026456621 -0.098335579 -0.05357451 2.2958873e-38
-0.024575122 -0.098335579 -0.05357451 2.2958873e-38
-0.022620969 -0.097633243 -0.05050499 2.2867037e-38
-0.020744849 -0.097633243 -0.05050499 2.1577017e-38
-0.018868733 -0.097633243 -0.05050499 2.1852525e-38
-0.016938504 -0.096960694 -0.047565646 2.2405699e-38
-0.01506754 -0.096960694 -0.047565646 2.2958154e-38
-0.013240386 -0.097633243 -0.05050499 2.3234379e-38
-0.011364266 -0.097633243 -0.05050499 2.341805e-38
-0.0094546489 -0.096960694 -0.047565646 2.341805e-38
-0.0075836889 -0.096960694 -0.047565646 2.3509886e-38
-0.0057127252 -0.096960694 -0.047565646 2.3509886e-38
-0.0038169492 -0.09603554 -0.043522306 2.3509886e-38
-0.0019530747 -0.09603554 -0.043522306 2.3509886e-38
-8.1278384e-05 -0.095346272 -0.040509887 2.3509883e-38
0.0017773136 -0.095346272 -0.040509887 2.3509883e-38
0.0036332794 -0.094660893 -0.037514515 2.2588648e-38
0.0054866206 -0.094660893 -0.037514515 2.3234379e-38
0.0073530897 -0.095346272 -0.040509887 2.3234379e-38
0.0092116818 -0.095346272 -0.040509887 2.2865955e-38
0.011094042 -0.09603554 -0.043522306 2.3234379e-38
0.012957916 -0.09603554 -0.043522306 2.3234379e-38
0.01486787 -0.096960694 -0.047565646 2.2773763e-38
0.016738834 -0.096960694 -0.047565646 2.2958154e-38
0.018609798 -0.096960694 -0.047565646 2.3234379e-38
0.020480759 -0.096960694 -0.047565646 2.3234379e-38
0.022462346 -0.098335579 -0.05357451 2.2958154e-38
0.024343845 -0.098335579 -0.05357451 2.2865958e-38
0.026225343 -0.098335579 -0.05357451 2.3050349e-38
0.028437641 -0.10153329 -0.067549892 2.3050349e-38
0.030343642 -0.10153329 -0.067549892 2.2865961e-38
0.032249644 -0.10153329 -0.067549892 2.2589734e-38
0.033953853 -0.099937305 -0.060574718 2.2683007e-38
0.035847627 -0.099937305 -0.060574718 2.2775202e-38
0.037869249 -0.10083917 -0.064516254 2.286632e-38
0.039769933 -0.10083917 -0.064516254 2.2589017e-38
0.083767407 -0.085293055 0.0034270808 4.1683879e-39
-0.10790043 -0.10575347 -0.077586956 6.9335519e-39
-0.10597682 -0.10575347 -0.077586956 6.3810984e-39
-0.10405323 -0.10575347 -0.077586956 6.4743688e-39
-0.090543643 -0.086369663 0.0064845607 6.5676211e-39
-0.088493019 -0.085668951 0.0095236823 6.9371196e-39
-0.08672215 -0.085668951 0.0095236823 7.3988209e-39
-0.084951296 -0.085668951 0.0095236823 7.7683236e-39
-0.083180428 -0.085668951 0.0095236823 8.1371062e-39
-0.088993117 -0.10666345 -0.081533737 8.5973654e-39
-0.086740822 -0.10575347 -0.077586956 8.1353083e-39
-0.084817216 -0.10575347 -0.077586956 7.858727e-39
-0.082893625 -0.10575347 -0.077586956 8.1342419e-39
-0.080734357 -0.10504107 -0.074497171 8.2249984e-39
-0.078517035 -0.1041155 -0.070482798 7.3948692e-39
-0.076392487 -0.10343929 -0.067549892 6.6551349e-39
-0.074486479 -0.10343929 -0.067549892 6.4696451e-39
-0.07237038 -0.10273984 -0.064516254 6.466743e-39
-0.070469707 -0.10273984 -0.064516254 1.1720071e-38
-0.068309858 -0.10183108 -0.060574718 1.4484115e-38
-0.066416085 -0.10183108 -0.060574718 2.2224189e-38
-0.064522311 -0.10183108 -0.060574718 2.2775202e-38
-0.062628537 -0.10183108 -0.060574718 2.268193e-38
-0.060558852 -0.10114056 -0.057579823 2.3509886e-38
-0.058670338 -0.10114056 -0.057579823 2.3509527e-38
-0.056947228 -0.10183108 -0.060574718 2.3509886e-38
-0.055053454 -0.10183108 -0.060574718 2.3233662e-38
-0.05315968 -0.10183108 -0.060574718 2.304891e-38
-0.051265907 -0.10183108 -0.060574718 2.3325856e-38
-0.049562182 -0.10273984 -0.064516254 2.3509527e-38
-0.047661494 -0.10273984 -0.064516254 2.341805e-38
-0.045760814 -0.10273984 -0.064516254 2.3325856e-38
-0.043860134 -0.10273984 -0.064516254 2.231243e-38
-0.041959446 -0.10273984 -0.064516254 2.341805e-38
-0.040058766 -0.10273984 -0.064516254 2.2865602e-38
-0.038009498 -0.10183108 -0.060574718 2.194365e-38
-0.036008079 -0.10114056 -0.057579823 2.0469239e-38
-0.034119558 -0.10114056 -0.057579823 1.8808999e-38
-0.032328181 -0.10183108 -0.060574718 1.6689218e-38
-0.030555349 -0.10273984 -0.064516254 1.4936782e-38
-0.028453995 -0.10114056 -0.057579823 1.3738958e-38
-0.026456621 -0.10021709 -0.05357451 1.3739678e-38
-0.024575122 -0.10021709 -0.05357451 1.5492114e-38
-0.022788431 -0.10114056 -0.057579823 1.4570158e-38
-0.020812124 -0.10021709 -0.05357451 1.1895766e-38
-0.018930625 -0.10021709 -0.05357451 1.1895766e-38
-0.017049126 -0.10021709 -0.05357451 1.4016621e-38
-0.015167627 -0.10021709 -0.05357451 1.512189e-38
-0.013240386 -0.099509358 -0.05050499 1.4937497e-38
-0.011364266 -0.099509358 -0.05050499 1.4383963e-38
-0.0094881505 -0.099509358 -0.05050499 1.4476159e-38
-0.0076120328 -0.099509358 -0.05050499 1.4936058e-38
-0.0057359152 -0.099509358 -0.05050499 1.567362e-38
-0.0038417615 -0.098831654 -0.047565646 1.6779968e-38
-0.0019530747 -0.097899407 -0.043522306 1.8254738e-38
-8.1278384e-05 -0.097204864 -0.040509887 1.9729865e-38
0.0017773136 -0.097204864 -0.040509887 2.0560344e-38
0.0036359057 -0.097204864 -0.040509887 2.1668134e-38
0.0054944977 -0.097204864 -0.040509887 2.1761408e-38
0.007366294 -0.097899407 -0.043522306 1.7889192e-38
0.0092301685 -0.097899407 -0.043522306 1.4293562e-38
0.011094042 -0.097899407 -0.043522306 1.5215519e-38
0.013025252 -0.099509358 -0.05050499 1.6137475e-38
0.014901369 -0.099509358 -0.05050499 1.6137475e-38
0.016817849 -0.10021709 -0.05357451 1.7336018e-38
0.018653603 -0.099509358 -0.05050499 1.5583945e-38
0.020529719 -0.099509358 -0.05050499 1.5307714e-38
0.022462346 -0.10021709 -0.05357451 1.5030772e-38
0.024343845 -0.10021709 -0.05357451 1.4938576e-38
0.026225343 -0.10021709 -0.05357451 1.5030772e-38
0.028272538 -0.10183108 -0.060574718 1.4754185e-38
0.030166309 -0.10183108 -0.060574718 1.4108815e-38
0.032249644 -0.10343929 -0.067549892 1.3555643e-38
0.034067884 -0.10273984 -0.064516254 1.4476523e-38
0.035968568 -0.10273984 -0.064516254 1.4660558e-38
0.037869249 -0.10273984 -0.064516254 1.4752394e-38
0.039769933 -0.10273984 -0.064516254 1.4474728e-38
0.041779656 -0.10343929 -0.067549892 1.3920835e-38
-0.10829833 -0.10859399 -0.081533737 4.6279437e-39
-0.10636781 -0.10859399 -0.081533737 4.0754888e-39
-0.10443729 -0.10859399 -0.081533737 4.9977996e-39
-0.090543643 -0.088145852 0.0064845607 4.4456796e-39
-0.088493019 -0.08743982 0.0095236823 4.4460398e-39
-0.08672215 -0.08743982 0.0095236823 4.5393172e-39
-0.084951296 -0.08743982 0.0095236823 4.72407e-39
-0.083438858 -0.088145852 0.0064845607 5.0006597e-39
-0.08166267 -0.088145852 0.0064845607 5.4616378e-39
-0.086740822 -0.10767709 -0.077586956 5.3687261e-39
-0.084817216 -0.10767709 -0.077586956 5.7371555e-39
-0.082893625 -0.10767709 -0.077586956 6.7502285e-39
-0.080734357 -0.10695927 -0.074497171 7.3952377e-39
-0.078517035 -0.10602666 -0.070482798 7.3015946e-39
-0.076171756 -0.10464053 -0.064516254 6.7469704e-39
-0.074271068 -0.10464053 -0.064516254 6.3767306e-39
-0.072097406 -0.10372485 -0.060574718 3.3331706e-39
-0.070203632 -0.10372485 -0.060574718 7.2953994e-39
-0.06811294 -0.10302909 -0.057579823 1.0335675e-38
-0.066224426 -0.10302909 -0.057579823 2.0751592e-38
-0.064335898 -0.10302909 -0.057579823 2.2499695e-38
-0.06244738 -0.10302909 -0.057579823 2.2867037e-38
-0.060323592 -0.10209858 -0.05357451 2.2958154e-38
-0.058442097 -0.10209858 -0.05357451 2.3049626e-38
-0.056947228 -0.10372485 -0.060574718 2.3509886e-38
-0.055053454 -0.10372485 -0.060574718 2.3325494e-38
-0.05315968 -0.10372485 -0.060574718 2.323258e-38
-0.051265907 -0.10372485 -0.060574718 2.3325497e-38
-0.049372133 -0.10372485 -0.060574718 2.3324778e-38
-0.047478359 -0.10372485 -0.060574718 2.2495736e-38
-0.045584586 -0.10372485 -0.060574718 2.0928055e-38
-0.043690812 -0.10372485 -0.060574718 1.9638035e-38
-0.041797038 -0.10372485 -0.060574718 1.8162187e-38
-0.039903272 -0.10372485 -0.060574718 1.8623884e-38
-0.038009498 -0.10372485 -0.060574718 1.8992311e-38
-0.036008079 -0.10302909 -0.057579823 1.8163629e-38
-0.034119558 -0.10302909 -0.057579823 1.6779619e-38
-0.032328181 -0.10372485 -0.060574718 1.4568003e-38
-0.030555349 -0.10464053 -0.064516254 1.2999598e-38
-0.028453995 -0.10302909 -0.057579823 1.1893973e-38
-0.026456621 -0.10209858 -0.05357451 9.959663e-39
-0.024575122 -0.10209858 -0.05357451 1.1250402e-38
-0.022788431 -0.10302909 -0.057579823 1.0512837e-38
-0.02089991 -0.10302909 -0.057579823 8.944432e-39
-0.019011386 -0.10302909 -0.057579823 8.9444292e-39
-0.017049126 -0.10209858 -0.05357451 1.0235168e-38
-0.015167627 -0.10209858 -0.05357451 1.1156761e-38
-0.013345823 -0.10302909 -0.057579823 1.1525541e-38
-0.011457302 -0.10302909 -0.057579823 1.1524821e-38
-0.009523131 -0.10209858 -0.05357451 1.1617015e-38
-0.0076416321 -0.10209858 -0.05357451 1.1985079e-38
-0.0057601351 -0.10209858 -0.05357451 1.2446057e-38
-0.0038786363 -0.10209858 -0.05357451 1.3276174e-38
-0.0019836836 -0.10138547 -0.05050499 1.4750585e-38
-8.9202076e-05 -0.099763289 -0.043522306 1.6133516e-38
0.0017746724 -0.099763289 -0.043522306 1.6964715e-38
0.0036385469 -0.099763289 -0.043522306 1.8994461e-38
0.0055024214 -0.099763289 -0.043522306 2.0655421e-38
0.0073840171 -0.10070263 -0.047565646 1.7981748e-38
0.0092549808 -0.10070263 -0.047565646 1.4847096e-38
0.011149135 -0.10138547 -0.05050499 1.5676857e-38
0.013054852 -0.10209858 -0.05357451 1.5769053e-38
0.014936351 -0.10209858 -0.05357451 1.4847096e-38
0.016817849 -0.10209858 -0.05357451 1.6045995e-38
0.01869935 -0.10209858 -0.05357451 1.604564e-38
0.020580849 -0.10209858 -0.05357451 1.5492822e-38
0.022462346 -0.10209858 -0.05357451 1.4754901e-38
0.024343845 -0.10209858 -0.05357451 1.4386474e-38
0.026225343 -0.10209858 -0.05357451 1.4202083e-38
0.028272538 -0.10372485 -0.060574718 1.3925496e-38
0.030166309 -0.10372485 -0.060574718 1.3464518e-38
0.032249644 -0.10534529 -0.067549892 1.3095019e-38
0.034067884 -0.10464053 -0.064516254 1.2817002e-38
0.035968568 -0.10464053 -0.064516254 1.3369459e-38
0.037967652 -0.10534529 -0.067549892 1.401375e-38
0.039873652 -0.10534529 -0.067549892 1.3829358e-38
0.041779656 -0.10534529 -0.067549892 1.3644251e-38
0.083767407 -0.088856161 0.0034270808 1.1635484e-38
0.088852078 -0.088145852 0.0064845607 1.209502e-38
0.089850366 -0.086063579 0.015447669 1.209502e-38
0.093101725 -0.085369945 0.018433385 1.1358184e-38
-0.088767439 -0.089922056 0.0064845607 1.7765662e-41
-0.08672215 -0.089210689 0.0095236823 1.740693e-41
-0.084951296 -0.089210689 0.0095236823 1.7768465e-41
-0.083438858 -0.089922056 0.0064845607 1.8132802e-41
-0.08166267 -0.089922056 0.0064845607 4.8126755e-40
-0.079886466 -0.089922056 0.0064845607 7.5749851e-40
-0.084817216 -0.10960068 -0.077586956 1.8631286e-39
-0.082652539 -0.10887744 -0.074497171 3.6141253e-39
-0.080428183 -0.1079378 -0.070482798 5.2729264e-39
-0.078298494 -0.1072513 -0.067549892 6.2867084e-39
-0.076171756 -0.1065412 -0.064516254 6.6536818e-39
-0.074271068 -0.1065412 -0.064516254 6.6525874e-39
-0.071889997 -0.1049176 -0.057579823 8.2180942e-39
-0.070001468 -0.1049176 -0.057579823 1.2457992e-38
-0.06811294 -0.1049176 -0.057579823 1.5682658e-38
-0.065968096 -0.10398008 -0.05357451 2.2132353e-38
-0.064086601 -0.10398008 -0.05357451 2.2499695e-38
-0.062205102 -0.10398008 -0.05357451 2.2867037e-38
-0.060323592 -0.10398008 -0.05357451 2.2866677e-38
-0.058442097 -0.10398008 -0.05357451 2.3234018e-38
-0.056947228 -0.10561861 -0.060574718 2.31411e-38
-0.055053454 -0.10561861 -0.060574718 2.3509883e-38
-0.05315968 -0.10561861 -0.060574718 2.3509527e-38
-0.051265907 -0.10561861 -0.060574718 2.323258e-38
-0.049372133 -0.10561861 -0.060574718 2.1665257e-38
-0.047478359 -0.10561861 -0.060574718 1.9822063e-38
-0.045584586 -0.10561861 -0.060574718 1.8623164e-38
-0.043690812 -0.10561861 -0.060574718 1.7977796e-38
-0.041797038 -0.10561861 -0.060574718 1.8254383e-38
-0.039903272 -0.10561861 -0.060574718 1.8623168e-38
-0.0378966 -0.1049176 -0.057579823 1.8715724e-38
-0.036008079 -0.1049176 -0.057579823 1.8162553e-38
-0.034119558 -0.1049176 -0.057579823 1.7148404e-38
-0.032231037 -0.1049176 -0.057579823 1.6318643e-38
-0.030555349 -0.1065412 -0.064516254 1.622609e-38
-0.028453995 -0.1049176 -0.057579823 1.6227169e-38
-0.026565474 -0.1049176 -0.057579823 1.6780706e-38
-0.02475309 -0.10561861 -0.060574718 1.5214459e-38
-0.022859316 -0.10561861 -0.060574718 1.3553859e-38
-0.02089991 -0.1049176 -0.057579823 1.2724098e-38
-0.019011386 -0.1049176 -0.057579823 1.2447867e-38
-0.017122865 -0.1049176 -0.057579823 1.1986889e-38
-0.015234344 -0.1049176 -0.057579823 1.3184712e-38
-0.013390455 -0.10561861 -0.060574718 1.5582154e-38
-0.011496682 -0.10561861 -0.060574718 1.6410833e-38
-0.0096029118 -0.10561861 -0.060574718 1.6410833e-38
-0.0077091381 -0.10561861 -0.060574718 1.6318275e-38
-0.0058153663 -0.10561861 -0.060574718 1.5857295e-38
-0.0038597994 -0.1032616 -0.05050499 1.5488153e-38
-0.0019836836 -0.1032616 -0.05050499 1.5303758e-38
-9.9835917e-05 -0.10257359 -0.047565646 1.5395954e-38
0.0017746724 -0.10162716 -0.043522306 1.5489229e-38
0.0036385469 -0.10162716 -0.043522306 1.7518975e-38
0.0055024214 -0.10162716 -0.043522306 1.9733468e-38
0.0073840171 -0.10257359 -0.047565646 1.7797359e-38
0.0092549808 -0.10257359 -0.047565646 1.4570509e-38
0.011149135 -0.1032616 -0.05050499 1.4754904e-38
0.013025252 -0.1032616 -0.05050499 1.5308074e-38
0.014936351 -0.10398008 -0.05357451 1.6322226e-38
0.016817849 -0.10398008 -0.05357451 1.9180647e-38
0.018759042 -0.1049176 -0.057579823 1.8535277e-38
0.020647563 -0.1049176 -0.057579823 1.7797712e-38
0.022536084 -0.1049176 -0.057579823 1.6691365e-38
0.024424605 -0.1049176 -0.057579823 1.5861604e-38
0.026313128 -0.1049176 -0.057579823 1.5585015e-38
0.028365834 -0.1065412 -0.064516254 1.5585015e-38
0.030266518 -0.1065412 -0.064516254 1.5769406e-38
0.032249644 -0.1072513 -0.067549892 1.5769409e-38
0.034240495 -0.1079378 -0.070482798 1.5122613e-38
0.03615164 -0.1079378 -0.070482798 1.586018e-38
0.038062785 -0.1079378 -0.070482798 1.6781058e-38
0.03997393 -0.1079378 -0.070482798 1.714984e-38
0.073078074 -0.090637714 0.0034270808 1.228083e-38
0.074859627 -0.090637714 0.0034270808 1.3019115e-38
0.07664118 -0.090637714 0.0034270808 1.292728e-38
0.07842274 -0.090637714 0.0034270808 1.2189008e-38
0.080204293 -0.090637714 0.0034270808 1.218865e-38
0.081985854 -0.090637714 0.0034270808 1.1635481e-38
0.083767407 -0.090637714 0.0034270808 1.218865e-38
0.086579546 -0.088527083 0.012444191 1.1450736e-38
-0.088493019 -0.090981558 0.0095236823 3.4250369e-39
-0.08672215 -0.090981558 0.0095236823 3.1498919e-39
-0.084951296 -0.090981558 0.0095236823 3.335365e-39
-0.083438858 -0.091698244 0.0064845607 3.6126708e-39
-0.08166267 -0.091698244 0.0064845607 4.6268171e-39
-0.079886466 -0.091698244 0.0064845607 4.9037613e-39
-0.078110278 -0.091698244 0.0064845607 5.5484118e-39
-0.082652539 -0.11079563 -0.074497171 6.6547594e-39
-0.080428183 -0.10984896 -0.070482798 8.3135577e-39
-0.078298494 -0.10915731 -0.067549892 9.787243e-39
-0.076171756 -0.1084419 -0.064516254 1.0524438e-38
-0.074271068 -0.1084419 -0.064516254 1.1076162e-38
-0.071889997 -0.10680611 -0.057579823 1.2642031e-38
-0.070001468 -0.10680611 -0.057579823 1.6604629e-38
-0.067849591 -0.10586159 -0.05357451 2.0106591e-38
-0.065968096 -0.10586159 -0.05357451 2.2224189e-38
-0.064086601 -0.10586159 -0.05357451 2.2131636e-38
-0.062205102 -0.10586159 -0.05357451 2.2499336e-38
-0.060558852 -0.10680611 -0.057579823 2.3142544e-38
-0.058670338 -0.10680611 -0.057579823 2.3418047e-38
-0.057164919 -0.1084419 -0.064516254 2.3048905e-38
-0.055264231 -0.1084419 -0.064516254 2.3509883e-38
-0.053363543 -0.1084419 -0.064516254 2.3509886e-38
-0.051265907 -0.1075124 -0.060574718 2.3233299e-38
-0.049372133 -0.1075124 -0.060574718 2.1758171e-38
-0.044221353 -0.090981558 0.0095236823 2.0559628e-38
-0.042319912 -0.090292826 0.012444191 2.0006099e-38
-0.040554162 -0.090292826 0.012444191 1.9914623e-38
-0.038664669 -0.089584544 0.015447669 1.963768e-38
-0.0367864 -0.088880435 0.018433385 1.9545488e-38
-0.035031155 -0.088880435 0.018433385 1.9176708e-38
-0.036008079 -0.10680611 -0.057579823 1.8807925e-38
-0.034119558 -0.10680611 -0.057579823 1.8439864e-38
-0.032231037 -0.10680611 -0.057579823 1.8900843e-38
-0.030555349 -0.1084419 -0.064516254 1.9914997e-38
-0.028654665 -0.1084419 -0.064516254 2.0652925e-38
-0.026753981 -0.1084419 -0.064516254 1.9731692e-38
-0.02475309 -0.1075124 -0.060574718 1.7980695e-38
-0.022859316 -0.1075124 -0.060574718 1.5675086e-38
-0.020965546 -0.1075124 -0.060574718 1.4384346e-38
-0.019071773 -0.1075124 -0.060574718 1.4015919e-38
-0.017178003 -0.1075124 -0.060574718 1.3739332e-38
-0.015284229 -0.1075124 -0.060574718 1.5028989e-38
-0.013449196 -0.1084419 -0.064516254 1.724204e-38
-0.011548515 -0.1084419 -0.064516254 1.6872537e-38
-0.0096824057 -0.10915731 -0.067549892 1.7056929e-38
-0.0078046843 -0.10984896 -0.070482798 1.7332792e-38
-0.0058935415 -0.10984896 -0.070482798 1.7148398e-38
-0.0039823968 -0.10984896 -0.070482798 1.6963647e-38
-0.0019530747 -0.10349102 -0.043522306 1.6779253e-38
-8.9202076e-05 -0.10349102 -0.043522306 1.6963644e-38
0.0017746724 -0.10349102 -0.043522306 1.7056557e-38
0.0036385469 -0.10349102 -0.043522306 1.8440932e-38
0.0055024214 -0.10349102 -0.043522306 2.0931293e-38
0.0073840171 -0.10444455 -0.047565646 2.0562511e-38
0.0092549808 -0.10444455 -0.047565646 1.8718597e-38
0.011149135 -0.10513772 -0.05050499 1.8442011e-38
0.013025252 -0.10513772 -0.05050499 1.7520054e-38
0.014901369 -0.10513772 -0.05050499 1.7059075e-38
0.01606828 -0.092419267 0.0034270808 1.8442366e-38
0.017849836 -0.092419267 0.0034270808 1.8903344e-38
0.019631391 -0.092419267 0.0034270808 1.8442366e-38
0.021412948 -0.092419267 0.0034270808 1.7704798e-38
0.023132855 -0.091698244 0.0064845607 1.7059429e-38
0.02497606 -0.092419267 0.0034270808 1.6875034e-38
0.026757615 -0.092419267 0.0034270808 1.696723e-38
0.028539171 -0.092419267 0.0034270808 1.7336013e-38
0.030320726 -0.092419267 0.0034270808 1.7521126e-38
0.032102283 -0.092419267 0.0034270808 1.7798803e-38
0.071497209 -0.093120396 0.00045400113 1.2097866e-38
0.073078074 -0.092419267 0.0034270808 1.2374816e-38
0.074859627 -0.092419267 0.0034270808 1.2282623e-38
0.07664118 -0.092419267 0.0034270808 1.2559935e-38
0.078194901 -0.091698244 0.0064845607 1.1913489e-38
0.079971097 -0.091698244 0.0064845607 1.2097525e-38
0.081747293 -0.091698244 0.0064845607 1.0991177e-38
0.08352349 -0.091698244 0.0064845607 1.1728743e-38
0.084813796 -0.090292826 0.012444191 1.0991178e-38
0.086579546 -0.090292826 0.012444191 1.0990825e-38
0.088852078 -0.091698244 0.0064845607 1.034474e-38
0.089850366 -0.089584544 0.015447669 1.043694e-38
0.091346473 -0.088880435 0.018433385 1.0253634e-38
0.093101725 -0.088880435 0.018433385 1.0161803e-38
0.094856963 -0.088880435 0.018433385 9.7944653e-39
0.096892282 -0.089584544 0.015447669 9.7944681e-39
0.098652765 -0.089584544 0.015447669 9.886305e-39
0.10041323 -0.089584544 0.015447669 1.0254004e-38
0.10217372 -0.089584544 0.015447669 1.0989037e-38
0.10423701 -0.090292826 0.012444191 1.0986862e-38
0.10692763 -0.092419267 0.0034270808 9.8768925e-39
-0.088767439 -0.093474448 0.0064845607 1.2919383e-38
-0.085215062 -0.093474448 0.0064845607 1.3566541e-38
-0.083438858 -0.093474448 0.0064845607 1.4212977e-38
-0.08166267 -0.093474448 0.0064845607 1.4490994e-38
-0.079886466 -0.093474448 0.0064845607 1.421477e-38
-0.078110278 -0.093474448 0.0064845607 1.4029664e-38
-0.076334074 -0.093474448 0.0064845607 1.4029664e-38
-0.074557886 -0.093474448 0.0064845607 1.4858695e-38
-0.072781682 -0.093474448 0.0064845607 1.577992e-38
-0.07078436 -0.092752427 0.0095236823 1.6700786e-38
-0.069013491 -0.092752427 0.0095236823 1.7252875e-38
-0.067242622 -0.092752427 0.0095236823 1.81741e-38
-0.070001468 -0.10869466 -0.057579823 1.8817307e-38
-0.067849591 -0.10774307 -0.05357451 2.1028175e-38
-0.065968096 -0.10774307 -0.05357451 2.1948682e-38
-0.064086601 -0.10774307 -0.05357451 2.2499695e-38
-0.058211621 -0.092058569 0.012444191 2.2591531e-38
-0.056445878 -0.092058569 0.012444191 2.2407142e-38
-0.054680135 -0.092058569 0.012444191 2.2590813e-38
-0.052914392 -0.092058569 0.012444191 2.2958873e-38
-0.051148642 -0.092058569 0.012444191 2.2958873e-38
-0.049382892 -0.092058569 0.012444191 2.2958873e-38
-0.047617149 -0.092058569 0.012444191 2.2958873e-38
-0.045706581 -0.091345012 0.015447669 2.2867037e-38
-0.043946106 -0.091345012 0.015447669 2.2867037e-38
-0.042319912 -0.092058569 0.012444191 2.2775202e-38
-0.040296894 -0.090635687 0.018433385 2.2775202e-38
-0.038541645 -0.090635687 0.018433385 2.2682649e-38
-0.0367864 -0.090635687 0.018433385 2.2774843e-38
-0.035031155 -0.090635687 0.018433385 2.2867037e-38
-0.03327591 -0.090635687 0.018433385 2.2867037e-38
-0.031622749 -0.091345012 0.015447669 2.2775202e-38
-0.02986227 -0.091345012 0.015447669 2.2683007e-38
-0.028193947 -0.092058569 0.012444191 2.2683007e-38
-0.026428197 -0.092058569 0.012444191 2.2499336e-38
-0.024907507 -0.094200835 0.0034270808 2.1485559e-38
-0.0248533 -0.11034258 -0.064516254 2.2131994e-38
-0.022952612 -0.11034258 -0.064516254 2.130117e-38
-0.01956284 -0.094200835 0.0034270808 1.964167e-38
-0.017781284 -0.094200835 0.0034270808 1.9918614e-38
-0.015999731 -0.094200835 0.0034270808 2.0840558e-38
-0.01421817 -0.094200835 0.0034270808 2.1024229e-38
-0.01349441 -0.11106332 -0.067549892 2.0748005e-38
-0.011588406 -0.11106332 -0.067549892 2.1576677e-38
-0.0096824057 -0.11106332 -0.067549892 2.1761065e-38
-0.0078046843 -0.11176009 -0.070482798 2.1945095e-38
-0.0058935415 -0.11176009 -0.070482798 2.1760706e-38
-0.0035100728 -0.093474448 0.0064845607 2.1760348e-38
-0.0017338786 -0.093474448 0.0064845607 2.203693e-38
5.7991594e-05 -0.092058569 0.012444191 2.268229e-38
0.0017746724 -0.10535492 -0.043522306 2.2867037e-38
0.0036385469 -0.10535492 -0.043522306 2.2407142e-38
0.0055024214 -0.10535492 -0.043522306 2.2591531e-38
0.0073840171 -0.10631551 -0.047565646 2.2499695e-38
0.0092549808 -0.10631551 -0.047565646 2.1670665e-38
0.010699488 -0.093474448 0.0064845607 2.2591531e-38
0.012505167 -0.094200835 0.0034270808 2.2591531e-38
0.014286723 -0.094200835 0.0034270808 2.2499695e-38
0.01606828 -0.094200835 0.0034270808 2.2591531e-38
0.017804269 -0.093474448 0.0064845607 2.2591531e-38
0.019580465 -0.093474448 0.0064845607 2.2591531e-38
0.021356659 -0.093474448 0.0064845607 2.2591531e-38
0.023132855 -0.093474448 0.0064845607 2.2591531e-38
0.02497606 -0.094200835 0.0034270808 2.2591531e-38
0.026757615 -0.094200835 0.0034270808 2.2591531e-38
0.028539171 -0.094200835 0.0034270808 2.2591531e-38
0.030320726 -0.094200835 0.0034270808 2.2316024e-38
0.032102283 -0.094200835 0.0034270808 2.158134e-38
0.033790026 -0.093474448 0.0064845607 2.1856847e-38
0.035566222 -0.093474448 0.0064845607 2.1856847e-38
0.037138656 -0.092058569 0.012444191 2.1856847e-38
0.059922207 -0.091345012 0.015447669 1.5784225e-38
0.061682686 -0.091345012 0.015447669 1.4864435e-38
0.063443169 -0.091345012 0.015447669 1.5694183e-38
0.065572374 -0.092752427 0.0095236823 1.4864435e-38
0.067537732 -0.093474448 0.0064845607 1.3851374e-38
0.069313928 -0.093474448 0.0064845607 1.4404181e-38
0.071090125 -0.093474448 0.0064845607 1.3851016e-38
0.073078074 -0.094200835 0.0034270808 1.3574433e-38
0.074859627 -0.094200835 0.0034270808 1.3482239e-38
0.07664118 -0.094200835 0.0034270808 1.440454e-38
0.078194901 -0.093474448 0.0064845607 1.412724e-38
0.079971097 -0.093474448 0.0064845607 1.4496016e-38
0.081747293 -0.093474448 0.0064845607 1.2928715e-38
0.08328104 -0.092752427 0.0095236823 1.3573715e-38
0.084813796 -0.092058569 0.012444191 1.2559579e-38
0.086579546 -0.092058569 0.012444191 1.2742891e-38
0.088593632 -0.092752427 0.0095236823 1.3479369e-38
0.089850366 -0.091345012 0.015447669 1.3203145e-38
0.091346473 -0.090635687 0.018433385 1.2835085e-38
0.093101725 -0.090635687 0.018433385 1.2375549e-38
0.094856963 -0.090635687 0.018433385 1.182346e-38
0.096892282 -0.091345012 0.015447669 1.1363206e-38
0.098652765 -0.091345012 0.015447669 1.1269936e-38
0.10041323 -0.091345012 0.015447669 1.1360695e-38
0.10217372 -0.091345012 0.015447669 1.1451096e-38
0.10423701 -0.092058569 0.012444191 1.1263818e-38
0.10692763 -0.094200835 0.0034270808 9.8772652e-39
-0.10265996 -0.094523281 0.0095236823 1.0611969e-38
-0.10088909 -0.094523281 0.0095236823 1.0152072e-38
-0.090263888 -0.094523281 0.0095236823 1.3286724e-38
-0.088493019 -0.094523281 0.0095236823 1.467036e-38
-0.085480422 -0.095982388 0.0034270808 1.4949454e-38
-0.083698854 -0.095982388 0.0034270808 1.4950889e-38
-0.08166267 -0.095250636 0.0064845607 1.5597684e-38
-0.079886466 -0.095250636 0.0064845607 1.5783507e-38
-0.078110278 -0.095250636 0.0064845607 1.6335955e-38
-0.076334074 -0.095250636 0.0064845607 1.6427432e-38
-0.074557886 -0.095250636 0.0064845607 1.642779e-38
-0.072781682 -0.095250636 0.0064845607 1.6795491e-38
-0.07078436 -0.094523281 0.0095236823 1.6979521e-38
-0.069013491 -0.094523281 0.0095236823 1.7346863e-38
-0.067242622 -0.094523281 0.0095236823 1.7898593e-38
-0.065274611 -0.093824327 0.012444191 1.8543235e-38
-0.063508868 -0.093824327 0.012444191 2.0108385e-38
-0.061743122 -0.093824327 0.012444191 2.1489505e-38
-0.059977379 -0.093824327 0.012444191 2.1856847e-38
-0.058211621 -0.093824327 0.012444191 2.2132353e-38
-0.056445878 -0.093824327 0.012444191 2.2040518e-38
-0.054680135 -0.093824327 0.012444191 2.2132353e-38
-0.052914392 -0.093824327 0.012444191 2.2132353e-38
-0.051148642 -0.093824327 0.012444191 2.1948682e-38
-0.049533959 -0.094523281 0.0095236823 2.1856847e-38
-0.047617149 -0.093824327 0.012444191 2.1856847e-38
-0.045706581 -0.093105495 0.015447669 2.1765011e-38
-0.043946106 -0.093105495 0.015447669 2.1765011e-38
-0.042319912 -0.093824327 0.012444191 2.1765011e-38
-0.040296894 -0.092390925 0.018433385 2.1765011e-38
-0.038541645 -0.092390925 0.018433385 2.1765011e-38
-0.0367864 -0.092390925 0.018433385 2.1765011e-38
-0.035031155 -0.092390925 0.018433385 2.1673176e-38
-0.033383228 -0.093105495 0.015447669 2.158134e-38
-0.031622749 -0.093105495 0.015447669 2.1213281e-38
-0.02986227 -0.093105495 0.015447669 2.1028892e-38
-0.028193947 -0.093824327 0.012444191 2.0936698e-38
-0.026428197 -0.093824327 0.012444191 2.0752668e-38
-0.024907507 -0.095982388 0.0034270808 1.9738891e-38
-0.02312595 -0.095982388 0.0034270808 1.9924355e-38
-0.021344397 -0.095982388 0.0034270808 1.9924355e-38
-0.01956284 -0.095982388 0.0034270808 1.9555578e-38
-0.017781284 -0.095982388 0.0034270808 1.9554502e-38
-0.015999731 -0.095982388 0.0034270808 1.9647055e-38
-0.01421817 -0.095982388 0.0034270808 1.9646338e-38
-0.012391049 -0.095250636 0.0064845607 1.9369755e-38
-0.010614853 -0.095250636 0.0064845607 2.0199144e-38
-0.0088386573 -0.095250636 0.0064845607 2.0567921e-38
-0.007062465 -0.095250636 0.0064845607 2.0843786e-38
-0.005310392 -0.095982388 0.0034270808 2.0567204e-38
-0.0035100728 -0.095250636 0.0064845607 2.0659398e-38
-0.0017338786 -0.095250636 0.0064845607 2.1212922e-38
5.7991594e-05 -0.093824327 0.012444191 2.1580981e-38
0.0018237364 -0.093824327 0.012444191 2.1488787e-38
0.003589483 -0.093824327 0.012444191 2.1489505e-38
0.0053709019 -0.095250636 0.0064845607 2.1213639e-38
0.007147098 -0.095250636 0.0064845607 2.1029251e-38
0.0089232922 -0.095250636 0.0064845607 2.0937057e-38
0.010699488 -0.095250636 0.0064845607 2.0937416e-38
0.012505167 -0.095982388 0.0034270808 2.1121804e-38
0.014286723 -0.095982388 0.0034270808 2.1397669e-38
0.016028073 -0.095250636 0.0064845607 2.1489505e-38
0.017804269 -0.095250636 0.0064845607 2.1489505e-38
0.019580465 -0.095250636 0.0064845607 2.1489505e-38
0.021300709 -0.094523281 0.0095236823 2.1489505e-38
0.023071576 -0.094523281 0.0095236823 2.158134e-38
0.024842443 -0.094523281 0.0095236823 2.1673176e-38
0.026685245 -0.095250636 0.0064845607 2.1673176e-38
0.02846144 -0.095250636 0.0064845607 2.1673176e-38
0.030237636 -0.095250636 0.0064845607 2.158134e-38
0.03201383 -0.095250636 0.0064845607 2.057115e-38
0.033790026 -0.095250636 0.0064845607 2.057115e-38
0.035566222 -0.095250636 0.0064845607 2.0662985e-38
0.037138656 -0.093824327 0.012444191 2.057115e-38
0.038904402 -0.093824327 0.012444191 2.0387479e-38
0.054796115 -0.093824327 0.012444191 1.7531251e-38
0.056401245 -0.093105495 0.015447669 1.6885892e-38
0.058161724 -0.093105495 0.015447669 1.6057937e-38
0.059922207 -0.093105495 0.015447669 1.5509794e-38
0.061682686 -0.093105495 0.015447669 1.4774034e-38
0.063443169 -0.093105495 0.015447669 1.4220869e-38
0.065572374 -0.094523281 0.0095236823 1.3759898e-38
0.067343242 -0.094523281 0.0095236823 1.3482956e-38
0.069114104 -0.094523281 0.0095236823 1.3206373e-38
0.071090125 -0.095250636 0.0064845607 1.3205656e-38
0.072866321 -0.095250636 0.0064845607 1.3021268e-38
0.074642517 -0.095250636 0.0064845607 1.2560296e-38
0.07664118 -0.095982388 0.0034270808 1.2560655e-38
0.078194901 -0.095250636 0.0064845607 1.2560296e-38
0.079971097 -0.095250636 0.0064845607 1.2283355e-38
0.081747293 -0.095250636 0.0064845607 1.2191161e-38
0.08328104 -0.094523281 0.0095236823 1.2375549e-38
0.084813796 -0.093824327 0.012444191 1.2098966e-38
0.086579546 -0.093824327 0.012444191 1.1729472e-38
0.088593632 -0.094523281 0.0095236823 1.1543647e-38
0.090111032 -0.093824327 0.012444191 1.1267063e-38
0.091610834 -0.093105495 0.015447669 1.0714613e-38
0.093371317 -0.093105495 0.015447669 1.0162522e-38
0.0951318 -0.093105495 0.015447669 9.6107901e-39
0.096892282 -0.093105495 0.015447669 9.3349291e-39
0.098939762 -0.093824327 0.012444191 9.5182456e-39
0.1007055 -0.093824327 0.012444191 9.8855861e-39
0.10247125 -0.093824327 0.012444191 1.0436598e-38
0.10423701 -0.093824327 0.012444191 9.3280781e-39
0.10661402 -0.095250636 0.0064845607 9.6010455e-39
0.10839021 -0.095250636 0.0064845607 2.5909126e-39
0.11016642 -0.095250636 0.0064845607 7.6370766e-43
-0.10265996 -0.09629415 0.0095236823 8.9553243e-39
-0.10088909 -0.09629415 0.0095236823 7.2965261e-39
-0.099118218 -0.09629415 0.0095236823 6.9281065e-39
-0.088493019 -0.09629415 0.0095236823 9.5092352e-39
-0.08672215 -0.09629415 0.0095236823 1.0617025e-38
-0.084951296 -0.09629415 0.0095236823 1.1909197e-38
-0.083180428 -0.09629415 0.0095236823 1.2648186e-38
-0.081409559 -0.09629415 0.0095236823 1.440167e-38
-0.07963869 -0.09629415 0.0095236823 1.4955553e-38
-0.077867821 -0.09629415 0.0095236823 1.5415806e-38
-0.076334074 -0.09702684 0.0064845607 1.5323971e-38
-0.074557886 -0.09702684 0.0064845607 1.5231058e-38
-0.072781682 -0.09702684 0.0064845607 1.5231058e-38
-0.071005493 -0.09702684 0.0064845607 1.5690595e-38
-0.069013491 -0.09629415 0.0095236823 1.5874265e-38
-0.067242622 -0.09629415 0.0095236823 1.6150132e-38
-0.065274611 -0.09559007 0.012444191 1.6425278e-38
-0.063508868 -0.09559007 0.012444191 1.6884816e-38
-0.061743122 -0.09559007 0.012444191 1.7161037e-38
-0.059977379 -0.09559007 0.012444191 1.7251786e-38
-0.058211621 -0.09559007 0.012444191 1.6790442e-38
-0.056445878 -0.09559007 0.012444191 1.6789718e-38
-0.054680135 -0.09559007 0.012444191 1.6790797e-38
-0.052914392 -0.09559007 0.012444191 1.6054319e-38
-0.051148642 -0.09559007 0.012444191 1.5870292e-38
-0.049533959 -0.09629415 0.0095236823 1.5685901e-38
-0.047617149 -0.09559007 0.012444191 1.5409317e-38
-0.045851406 -0.09559007 0.012444191 1.5224928e-38
-0.044085663 -0.09559007 0.012444191 1.5040537e-38
-0.042319912 -0.09559007 0.012444191 1.4948704e-38
-0.040425148 -0.094865978 0.015447669 1.4856509e-38
-0.038664669 -0.094865978 0.015447669 1.494835e-38
-0.036904186 -0.094865978 0.015447669 1.4856154e-38
-0.035143707 -0.094865978 0.015447669 1.457957e-38
-0.033383228 -0.094865978 0.015447669 1.4211511e-38
-0.031622749 -0.094865978 0.015447669 1.3934927e-38
-0.02995969 -0.09559007 0.012444191 1.3842731e-38
-0.028193947 -0.09559007 0.012444191 1.365834e-38
-0.026428197 -0.09559007 0.012444191 1.3566509e-38
-0.024741825 -0.09629415 0.0095236823 1.3014061e-38
-0.023048218 -0.09702684 0.0064845607 1.3198813e-38
-0.021272026 -0.09702684 0.0064845607 1.3291009e-38
-0.01949583 -0.09702684 0.0064845607 1.3014779e-38
-0.017719638 -0.09702684 0.0064845607 1.3014061e-38
-0.015943442 -0.09702684 0.0064845607 1.3198449e-38
-0.014167245 -0.09702684 0.0064845607 1.3198805e-38
-0.012391049 -0.09702684 0.0064845607 1.310553e-38
-0.010614853 -0.09702684 0.0064845607 1.3289919e-38
-0.0088386573 -0.09702684 0.0064845607 1.3750535e-38
-0.007062465 -0.09702684 0.0064845607 1.3934924e-38
-0.005310392 -0.097763941 0.0034270808 1.3934204e-38
-0.0035100728 -0.09702684 0.0064845607 1.4118592e-38
-0.0017338786 -0.09702684 0.0064845607 1.4579567e-38
5.7991594e-05 -0.09559007 0.012444191 1.494835e-38
0.0018237364 -0.09559007 0.012444191 1.4948707e-38
0.003589483 -0.09559007 0.012444191 1.5133099e-38
0.0053709019 -0.09702684 0.0064845607 1.5040903e-38
0.007147098 -0.09702684 0.0064845607 1.4856512e-38
0.0089232922 -0.09702684 0.0064845607 1.4856512e-38
0.010699488 -0.09702684 0.0064845607 1.4948704e-38
0.012475683 -0.09702684 0.0064845607 1.5133096e-38
0.014286723 -0.097763941 0.0034270808 1.5409683e-38
0.016028073 -0.09702684 0.0064845607 1.5594071e-38
0.017804269 -0.09702684 0.0064845607 1.5962854e-38
0.019580465 -0.09702684 0.0064845607 1.6239796e-38
0.021300709 -0.09629415 0.0095236823 1.6516027e-38
0.023071576 -0.09629415 0.0095236823 1.6516383e-38
0.024842443 -0.09629415 0.0095236823 1.6239796e-38
0.026685245 -0.09702684 0.0064845607 1.6055402e-38
0.02846144 -0.09702684 0.0064845607 1.6147601e-38
0.030237636 -0.09702684 0.0064845607 1.6239796e-38
0.03201383 -0.09702684 0.0064845607 1.5595869e-38
0.033790026 -0.09702684 0.0064845607 1.5412201e-38
0.035566222 -0.09702684 0.0064845607 1.5504396e-38
0.037138656 -0.09559007 0.012444191 1.5228531e-38
0.038904402 -0.09559007 0.012444191 1.4951944e-38
0.040670149 -0.09559007 0.012444191 1.4399132e-38
0.042435896 -0.09559007 0.012444191 1.4122548e-38
0.044201639 -0.09559007 0.012444191 1.3754489e-38
0.051551979 -0.09702684 0.0064845607 1.2463398e-38
0.053176306 -0.09629415 0.0095236823 1.2463401e-38
0.054796115 -0.09559007 0.012444191 1.227901e-38
0.056401245 -0.094865978 0.015447669 1.2002067e-38
0.058161724 -0.094865978 0.015447669 1.1358504e-38
0.059922207 -0.094865978 0.015447669 1.0808581e-38
0.061682686 -0.094865978 0.015447669 1.0257213e-38
0.063443169 -0.094865978 0.015447669 1.0164658e-38
0.065390594 -0.09559007 0.012444191 1.0072106e-38
0.067343242 -0.09629415 0.0095236823 1.0164302e-38
0.069114104 -0.09629415 0.0095236823 1.0164302e-38
0.070884973 -0.09629415 0.0095236823 1.0255421e-38
0.072866321 -0.09702684 0.0064845607 1.0163225e-38
0.074642517 -0.09702684 0.0064845607 9.4256632e-39
0.076418713 -0.09702684 0.0064845607 9.7022501e-39
0.078194901 -0.09702684 0.0064845607 9.6100558e-39
0.079971097 -0.09702684 0.0064845607 9.1490777e-39
0.081747293 -0.09702684 0.0064845607 8.9643305e-39
0.08328104 -0.09629415 0.0095236823 8.9643305e-39
0.085051909 -0.09629415 0.0095236823 8.7799392e-39
0.086822763 -0.09629415 0.0095236823 8.5948291e-39
0.088593632 -0.09629415 0.0095236823 9.0543681e-39
0.090111032 -0.09559007 0.012444191 8.9614564e-39
0.091876775 -0.09559007 0.012444191 8.4097218e-39
0.093642518 -0.09559007 0.012444191 8.1338566e-39
0.095408276 -0.09559007 0.012444191 7.7665146e-39
0.097174019 -0.09559007 0.012444191 7.6746819e-39
0.098939762 -0.09559007 0.012444191 7.8583599e-39
0.1007055 -0.09559007 0.012444191 8.2253445e-39
0.10247125 -0.09559007 0.012444191 7.1171949e-39
0.10423701 -0.09559007 0.012444191 7.0221084e-39
0.10630231 -0.09629415 0.0095236823 8.7705687e-39
0.10839021 -0.09702684 0.0064845607 3.2352058e-39
0.11016642 -0.09702684 0.0064845607 4.3706499e-42
0.1119426 -0.09702684 0.0064845607 1.1088937e-39
-0.10265996 -0.098065019 0.0095236823 4.1661963e-39
-0.10088909 -0.098065019 0.0095236823 3.9821665e-39
-0.099118218 -0.098065019 0.0095236823 4.6268199e-39
-0.097648427 -0.098803028 0.0064845607 5.5484231e-39
-0.095872223 -0.098803028 0.0064845607 5.7320968e-39
-0.088493019 -0.098065019 0.0095236823 6.7473362e-39
-0.08672215 -0.098065019 0.0095236823 8.4082967e-39
-0.084951296 -0.098065019 0.0095236823 9.8855861e-39
-0.083180428 -0.098065019 0.0095236823 1.1269218e-38
-0.081409559 -0.098065019 0.0095236823 1.2191867e-38
-0.07963869 -0.098065019 0.0095236823 1.3206358e-38
-0.077867821 -0.098065019 0.0095236823 1.394392e-38
-0.076096952 -0.098065019 0.0095236823 1.3944278e-38
-0.074326098 -0.098065019 0.0095236823 1.3943196e-38
-0.072781682 -0.098803028 0.0064845607 1.4127587e-38
-0.071005493 -0.098803028 0.0064845607 1.4587126e-38
-0.069013491 -0.098065019 0.0095236823 1.4679324e-38
-0.067242622 -0.098065019 0.0095236823 1.4586053e-38
-0.065471753 -0.098065019 0.0095236823 1.4585337e-38
-0.063508868 -0.097355813 0.012444191 1.495268e-38
-0.061743122 -0.097355813 0.012444191 1.5136348e-38
-0.059977379 -0.097355813 0.012444191 1.4951593e-38
-0.058211621 -0.097355813 0.012444191 1.467464e-38
-0.056445878 -0.097355813 0.012444191 1.4490244e-38
-0.054680135 -0.097355813 0.012444191 1.4674639e-38
-0.05307569 -0.098065019 0.0095236823 1.4584249e-38
-0.051304821 -0.098065019 0.0095236823 1.4400222e-38
-0.049533959 -0.098065019 0.0095236823 1.4032519e-38
-0.047617149 -0.097355813 0.012444191 1.3755932e-38
-0.045851406 -0.097355813 0.012444191 1.3571185e-38
-0.044085663 -0.097355813 0.012444191 1.3386793e-38
-0.042319912 -0.097355813 0.012444191 1.3294601e-38
-0.040554162 -0.097355813 0.012444191 1.3202405e-38
