# .PCD v0.7 - Point Cloud Data file format
VERSION 0.7
FIELDS x y z rgb
SIZE 4 4 4 4
TYPE F F F F
COUNT 1 1 1 1
WIDTH 944
HEIGHT 1
VIEWPOINT 0 0 0 1 0 0 0
POINTS 944
DATA ascii
0.0228495 -0.11247079 0.03080485 2.2591525e-38
0.024609981 -0.11247079 0.03080485 2.2224183e-38
0.02637046 -0.11247079 0.03080485 2.2316024e-38
0.028130941 -0.11247079 0.03080485 2.2224189e-38
0.029891422 -0.11247079 0.03080485 2.2224189e-38
0.031549819 -0.11169861 0.033790566 2.2224189e-38
0.033305064 -0.11169861 0.033790566 2.1948682e-38
0.035060309 -0.11169861 0.033790566 2.1488429e-38
0.036815554 -0.11169861 0.033790566 2.1765011e-38
0.038444445 -0.11090554 0.036857165 2.2224189e-38
0.040067598 -0.11014269 0.03980694 2.2224189e-38
0.041812293 -0.11014269 0.03980694 2.2224189e-38
0.043556996 -0.11014269 0.03980694 2.2132353e-38
0.045301691 -0.11014269 0.03980694 2.2132353e-38
0.047046386 -0.11014269 0.03980694 2.2040518e-38
0.048634365 -0.1093591 0.042836823 2.1856847e-38
0.050373748 -0.1093591 0.042836823 2.1580264e-38
0.052113131 -0.1093591 0.042836823 2.1211846e-38
0.053852513 -0.1093591 0.042836823 2.0475368e-38
0.055591904 -0.1093591 0.042836823 2.0383891e-38
0.057331286 -0.1093591 0.042836823 2.0015115e-38
0.059070669 -0.1093591 0.042836823 1.9369755e-38
0.060617328 -0.10858028 0.045848347 1.9000978e-38
0.062351428 -0.10858028 0.045848347 1.8908784e-38
0.063948527 -0.10805537 0.047878005 1.8631842e-38
0.065679066 -0.10805537 0.047878005 1.8263061e-38
0.067409612 -0.10805537 0.047878005 1.7248911e-38
0.06892325 -0.10728444 0.050859012 1.7709889e-38
0.070427775 -0.10651813 0.053822078 1.75255e-38
0.072147898 -0.10651813 0.053822078 1.75255e-38
0.073868021 -0.10651813 0.053822078 1.7248914e-38
0.075588144 -0.10651813 0.053822078 1.7893927e-38
0.077549845 -0.10728444 0.050859012 1.7248558e-38
0.079275161 -0.10728444 0.050859012 1.2915716e-38
0.081426568 -0.10858028 0.045848347 1.291642e-38
0.083422042 -0.1093591 0.042836823 1.60507e-38
0.085429706 -0.11014269 0.03980694 1.6049258e-38
0.08771766 -0.11169861 0.033790566 1.6785741e-38
0.089747734 -0.11247079 0.03080485 1.7889568e-38
0.091789953 -0.11324753 0.027801372 2.0007908e-38
0.093834765 -0.11400281 0.024880864 1.880792e-38
0.095901377 -0.11478879 0.021841742 1.4566196e-38
0.097980447 -0.1155795 0.018784262 9.6783859e-39
0.099762015 -0.1155795 0.018784262 4.792012e-39
0.10215526 -0.1171218 0.012820579 4.9767591e-39
0.10520271 -0.12023406 0.00078640133 3.3179525e-39
0.10775072 -0.12202574 -0.0061415657 1.8438846e-40
0.10957598 -0.12202574 -0.0061415657 1.8510592e-40
0.11206353 -0.12358873 -0.012185238 8.1146363e-39
0.11422662 -0.12434883 -0.015124343 1.6043107e-38
0.11652615 -0.1253974 -0.01917889 1.5765456e-38
0.11837427 -0.1253974 -0.01917889 9.7716662e-39
0.12022238 -0.1253974 -0.01917889 5.7150585e-39
0.12207051 -0.1253974 -0.01917889 2.6726027e-39
0.12463609 -0.12694232 -0.025152706 3.410525e-39
-0.12967862 -0.13220255 -0.038217328 1.0140432e-38
-0.12826413 -0.13324542 -0.042222641 1.2445323e-38
-0.1263756 -0.13324542 -0.042222641 1.843732e-38
-0.12403413 -0.13220255 -0.038217328 2.3509521e-38
-0.12215263 -0.13220255 -0.038217328 2.3509883e-38
-0.11993476 -0.13140334 -0.035147808 2.3509886e-38
-0.11805864 -0.13140334 -0.035147808 2.3509886e-38
-0.11587074 -0.13063805 -0.032208465 2.3509886e-38
-0.11357795 -0.12958528 -0.028165124 2.3509886e-38
-0.11171409 -0.12958528 -0.028165124 2.3509886e-38
-0.1095465 -0.12880091 -0.025152706 2.3509886e-38
-0.10768791 -0.12880091 -0.025152706 2.3509886e-38
-0.10582932 -0.12880091 -0.025152706 2.3509886e-38
-0.10397073 -0.12880091 -0.025152706 2.3509886e-38
-0.10211214 -0.12880091 -0.025152706 2.3509886e-38
-0.10025354 -0.12880091 -0.025152706 2.3509886e-38
-0.098394953 -0.12880091 -0.025152706 2.3509886e-38
-0.096536361 -0.12880091 -0.025152706 2.3509886e-38
-0.094677769 -0.12880091 -0.025152706 2.3509886e-38
-0.092564456 -0.12802102 -0.022157334 2.3509886e-38
-0.090711124 -0.12802102 -0.022157334 2.3509886e-38
-0.088614948 -0.12724553 -0.01917889 2.3509886e-38
-0.086443372 -0.12618984 -0.015124343 2.3509886e-38
-0.084602363 -0.12618984 -0.015124343 2.3509886e-38
-0.082761355 -0.12618984 -0.015124343 2.3509886e-38
-0.080920346 -0.12618984 -0.015124343 2.3509886e-38
-0.079079337 -0.12618984 -0.015124343 2.3509886e-38
-0.077238329 -0.12618984 -0.015124343 2.3509886e-38
-0.07539732 -0.12618984 -0.015124343 2.3509886e-38
-0.073556311 -0.12618984 -0.015124343 2.3509886e-38
-0.07152205 -0.12542458 -0.012185238 2.3509886e-38
-0.069686197 -0.12542458 -0.012185238 2.3509886e-38
-0.067850344 -0.12542458 -0.012185238 2.3509886e-38
-0.066014491 -0.12542458 -0.012185238 2.3509886e-38
-0.064000629 -0.12463553 -0.0091546997 2.3509886e-38
-0.062170081 -0.12463553 -0.0091546997 2.341805e-38
-0.06033954 -0.12463553 -0.0091546997 2.3142544e-38
-0.058347866 -0.12385099 -0.0061415657 2.3234379e-38
-0.056367658 -0.123071 -0.0031458363 2.2955273e-38
-0.054547653 -0.123071 -0.0031458363 2.3507006e-38
-0.052727647 -0.123071 -0.0031458363 2.3508807e-38
-0.050907634 -0.123071 -0.0031458363 2.3509524e-38
-0.049087636 -0.123071 -0.0031458363 2.2865958e-38
-0.047267623 -0.123071 -0.0031458363 2.2958873e-38
-0.045447618 -0.123071 -0.0031458363 2.2958873e-38
-0.043472484 -0.12204717 0.00078640133 2.3049632e-38
-0.04165937 -0.12204717 0.00078640133 2.3414463e-38
-0.039846256 -0.12204717 0.00078640133 2.350594e-38
-0.038033143 -0.12204717 0.00078640133 2.3507016e-38
-0.036120728 -0.12125005 0.0038478151 2.3508451e-38
-0.034312986 -0.12125005 0.0038478151 2.2958507e-38
-0.032505244 -0.12125005 0.0038478151 2.2591519e-38
-0.030617638 -0.12048493 0.0067864433 2.3142544e-38
-0.028815044 -0.12048493 0.0067864433 2.3234379e-38
-0.027012451 -0.12048493 0.0067864433 2.341805e-38
-0.025209857 -0.12048493 0.0067864433 2.350988e-38
-0.023346255 -0.11969708 0.0098123327 2.3509876e-38
-0.02154897 -0.11969708 0.0098123327 2.3508068e-38
-0.019751681 -0.11969708 0.0098123327 2.3507702e-38
-0.017954396 -0.11969708 0.0098123327 2.350878e-38
-0.016157107 -0.11969708 0.0098123327 2.3506621e-38
-0.014325539 -0.11891381 0.012820579 2.3506263e-38
-0.012533525 -0.11891381 0.012820579 2.3508431e-38
-0.010741511 -0.11891381 0.012820579 2.3505919e-38
-0.0089679603 -0.11969708 0.0098123327 2.3506646e-38
-0.0071706753 -0.11969708 0.0098123327 2.3507728e-38
-0.005365476 -0.11891381 0.012820579 2.3506653e-38
-0.0035734642 -0.11891381 0.012820579 2.3507733e-38
-0.0017814506 -0.11891381 0.012820579 2.3506656e-38
2.6952475e-06 -0.11813517 0.015811183 2.3322985e-38
0.0017764326 -0.11736105 0.018784262 2.3507733e-38
0.0035579884 -0.11736105 0.018784262 2.3509168e-38
0.0053395443 -0.11736105 0.018784262 2.3509168e-38
0.0070916163 -0.11656497 0.021841742 2.3509527e-38
0.0088678114 -0.11656497 0.021841742 2.3509527e-38
0.010644007 -0.11656497 0.021841742 2.3509886e-38
0.012420202 -0.11656497 0.021841742 2.341805e-38
0.014145775 -0.11577369 0.024880864 2.3234379e-38
0.015916642 -0.11577369 0.024880864 2.3142541e-38
0.017628621 -0.11501329 0.027801372 2.3142541e-38
0.019394368 -0.11501329 0.027801372 2.2958867e-38
0.021089021 -0.11423124 0.03080485 2.2958867e-38
0.0228495 -0.11423124 0.03080485 2.2867032e-38
0.024609981 -0.11423124 0.03080485 2.2867032e-38
0.02637046 -0.11423124 0.03080485 2.286703e-38
0.028130941 -0.11423124 0.03080485 2.2683356e-38
0.029891422 -0.11423124 0.03080485 2.2499684e-38
0.031549819 -0.11345388 0.033790566 2.2683358e-38
0.033305064 -0.11345388 0.033790566 2.2775195e-38
0.035060309 -0.11345388 0.033790566 2.2683361e-38
0.036815554 -0.11345388 0.033790566 2.2683361e-38
0.038444445 -0.11265542 0.036857165 2.27752e-38
0.040067598 -0.11188738 0.03980694 2.2867037e-38
0.041812293 -0.11188738 0.03980694 2.2867037e-38
0.043556996 -0.11188738 0.03980694 2.2867037e-38
0.045301691 -0.11188738 0.03980694 2.2867037e-38
0.047046386 -0.11188738 0.03980694 2.2867037e-38
0.048634365 -0.11109848 0.042836823 2.2867037e-38
0.050373748 -0.11109848 0.042836823 2.2683366e-38
0.052113131 -0.11109848 0.042836823 2.2407501e-38
0.053852513 -0.11109848 0.042836823 2.1855412e-38
0.055591904 -0.11109848 0.042836823 2.1764294e-38
0.057331286 -0.11109848 0.042836823 2.1395517e-38
0.059070669 -0.11109848 0.042836823 2.0750153e-38
0.060617328 -0.11031438 0.045848347 2.0381015e-38
0.062351428 -0.11031438 0.045848347 2.0381015e-38
0.063948527 -0.10978593 0.047878005 2.0196626e-38
0.065679066 -0.10978593 0.047878005 1.9827844e-38
0.067409612 -0.10978593 0.047878005 1.9366867e-38
0.06892325 -0.10900976 0.050859012 1.9735649e-38
0.070648573 -0.10900976 0.050859012 1.9366511e-38
0.072147898 -0.10823826 0.053822078 1.918212e-38
0.073868021 -0.10823826 0.053822078 1.8813337e-38
0.075824521 -0.10900976 0.050859012 1.9366514e-38
0.077549845 -0.10900976 0.050859012 1.8260166e-38
0.079275161 -0.10900976 0.050859012 1.3558542e-38
0.081253968 -0.10978593 0.047878005 1.2914241e-38
0.083160676 -0.11031438 0.045848347 1.5311679e-38
0.085161425 -0.11109848 0.042836823 1.6693171e-38
0.087440751 -0.11265542 0.036857165 1.8627482e-38
0.089472897 -0.11345388 0.033790566 1.9456162e-38
0.091508217 -0.11423124 0.03080485 2.0652184e-38
0.093555696 -0.11501329 0.027801372 1.9544755e-38
0.095605634 -0.11577369 0.024880864 1.0693251e-38
0.097980447 -0.11736105 0.018784262 9.3099537e-39
0.10006175 -0.11813517 0.015811183 6.3596936e-39
0.10277418 -0.12048493 0.0067864433 7.2816485e-39
0.10520271 -0.12204717 0.00078640133 4.7930825e-39
0.10775072 -0.12385099 -0.0061415657 7.3791396e-40
0.10957598 -0.12385099 -0.0061415657 7.1746481e-43
0.11173143 -0.12463553 -0.0091546997 6.4558381e-39
0.11356198 -0.12463553 -0.0091546997 1.4107722e-38
0.11686299 -0.12802102 -0.022157334 1.6041688e-38
0.11871632 -0.12802102 -0.022157334 1.0417404e-38
0.12056967 -0.12802102 -0.022157334 5.8998155e-39
0.1227775 -0.12880091 -0.025152706 2.1197946e-39
0.12463609 -0.12880091 -0.025152706 2.9495553e-39
0.12649469 -0.12880091 -0.025152706 2.9499112e-39
-0.12967862 -0.13408406 -0.038217328 1.0969835e-38
-0.12779713 -0.13408406 -0.038217328 1.2998139e-38
-0.12591562 -0.13408406 -0.038217328 1.8160734e-38
-0.12403413 -0.13408406 -0.038217328 2.3509161e-38
-0.12181088 -0.13327946 -0.035147808 2.3509883e-38
-0.11993476 -0.13327946 -0.035147808 2.3509886e-38
-0.11805864 -0.13327946 -0.035147808 2.3509886e-38
-0.11587074 -0.13250901 -0.032208465 2.3509886e-38
-0.11357795 -0.13144915 -0.028165124 2.3509886e-38
-0.11171409 -0.13144915 -0.028165124 2.3509886e-38
-0.1095465 -0.13065951 -0.025152706 2.3509886e-38
-0.10768791 -0.13065951 -0.025152706 2.3509886e-38
-0.10582932 -0.13065951 -0.025152706 2.3509886e-38
-0.10397073 -0.13065951 -0.025152706 2.3509886e-38
-0.10211214 -0.13065951 -0.025152706 2.3509886e-38
-0.10025354 -0.13065951 -0.025152706 2.3509886e-38
-0.098394953 -0.13065951 -0.025152706 2.3509886e-38
-0.096536361 -0.13065951 -0.025152706 2.3509886e-38
-0.094677769 -0.13065951 -0.025152706 2.3509886e-38
-0.092564456 -0.12987436 -0.022157334 2.3509886e-38
-0.090463065 -0.12909363 -0.01917889 2.3509886e-38
-0.088614948 -0.12909363 -0.01917889 2.3509886e-38
-0.086443372 -0.12803085 -0.015124343 2.3509886e-38
-0.084602363 -0.12803085 -0.015124343 2.3509886e-38
-0.082761355 -0.12803085 -0.015124343 2.3509886e-38
-0.080920346 -0.12803085 -0.015124343 2.3509886e-38
-0.079079337 -0.12803085 -0.015124343 2.3509886e-38
-0.077238329 -0.12803085 -0.015124343 2.3509886e-38
-0.07539732 -0.12803085 -0.015124343 2.3509886e-38
-0.073556311 -0.12803085 -0.015124343 2.3509886e-38
-0.07152205 -0.12726043 -0.012185238 2.3509886e-38
-0.069686197 -0.12726043 -0.012185238 2.3509886e-38
-0.067850344 -0.12726043 -0.012185238 2.3509886e-38
-0.066014491 -0.12726043 -0.012185238 2.3509886e-38
-0.064000629 -0.12646608 -0.0091546997 2.3509886e-38
-0.062170081 -0.12646608 -0.0091546997 2.3418047e-38
-0.06033954 -0.12646608 -0.0091546997 2.2682636e-38
-0.058347866 -0.12567626 -0.0061415657 2.2589722e-38
-0.056367658 -0.124891 -0.0031458363 2.1572338e-38
-0.054547653 -0.124891 -0.0031458363 1.7791601e-38
-0.052727647 -0.124891 -0.0031458363 1.7052601e-38
-0.050907634 -0.124891 -0.0031458363 1.5855856e-38
-0.049087636 -0.124891 -0.0031458363 1.2723363e-38
-0.047267623 -0.124891 -0.0031458363 1.1709935e-38
-0.045447618 -0.124891 -0.0031458363 1.0972017e-38
-0.043472484 -0.12386028 0.00078640133 9.4954492e-39
-0.04165937 -0.12386028 0.00078640133 8.017808e-39
-0.039846256 -0.12386028 0.00078640133 7.5557481e-39
-0.038033143 -0.12386028 0.00078640133 7.7404939e-39
-0.036120728 -0.1230578 0.0038478151 7.3738595e-39
-0.034312986 -0.1230578 0.0038478151 6.3622145e-39
-0.032505244 -0.1230578 0.0038478151 5.4420533e-39
-0.030617638 -0.12228753 0.0067864433 4.8885264e-39
-0.028815044 -0.12228753 0.0067864433 5.1643972e-39
-0.027012451 -0.12228753 0.0067864433 6.3622173e-39
-0.025209857 -0.12228753 0.0067864433 8.1132126e-39
-0.023346255 -0.12149437 0.0098123327 1.0048233e-38
-0.02154897 -0.12149437 0.0098123327 1.2167643e-38
-0.019751681 -0.12149437 0.0098123327 1.474839e-38
-0.017909562 -0.12070583 0.012820579 1.7051836e-38
-0.016117549 -0.12070583 0.012820579 1.82493e-38
-0.014325539 -0.12070583 0.012820579 2.0369087e-38
-0.012533525 -0.12070583 0.012820579 2.3506992e-38
-0.010741511 -0.12070583 0.012820579 2.3504841e-38
-0.0089495014 -0.12070583 0.012820579 2.3502328e-38
-0.0071706753 -0.12149437 0.0098123327 2.3507013e-38
-0.005365476 -0.12070583 0.012820579 2.3506654e-38
-0.0035734642 -0.12070583 0.012820579 2.3504852e-38
-0.0017814506 -0.12070583 0.012820579 2.3508086e-38
2.6952475e-06 -0.11992194 0.015811183 2.3508802e-38
0.0017764326 -0.11914261 0.018784262 2.3508802e-38
0.0035579884 -0.11914261 0.018784262 2.3507722e-38
0.0053395443 -0.11914261 0.018784262 2.3507722e-38
0.0070916163 -0.11834116 0.021841742 2.3509163e-38
0.0088678114 -0.11834116 0.021841742 2.3509521e-38
0.010644007 -0.11834116 0.021841742 2.3509521e-38
0.012420202 -0.11834116 0.021841742 2.3509883e-38
0.014196398 -0.11834116 0.021841742 2.3417687e-38
0.015916642 -0.11754455 0.024880864 2.3234015e-38
0.017628621 -0.11677901 0.027801372 2.3234015e-38
0.019394368 -0.11677901 0.027801372 2.3142539e-38
0.021089021 -0.11599173 0.03080485 2.3142541e-38
0.0228495 -0.11599173 0.03080485 2.3050707e-38
0.024609981 -0.11599173 0.03080485 2.2958867e-38
0.02637046 -0.11599173 0.03080485 2.3418043e-38
0.028130941 -0.11599173 0.03080485 2.341804e-38
0.029891422 -0.11599173 0.03080485 2.3234367e-38
0.031549819 -0.11520912 0.033790566 2.341804e-38
0.033305064 -0.11520912 0.033790566 2.3418043e-38
0.035060309 -0.11520912 0.033790566 2.3418043e-38
0.036815554 -0.11520912 0.033790566 2.3418043e-38
0.038444445 -0.11440529 0.036857165 2.3418043e-38
0.040067598 -0.11363207 0.03980694 2.3418043e-38
0.041812293 -0.11363207 0.03980694 2.3418043e-38
0.043556996 -0.11363207 0.03980694 2.3418045e-38
0.045301691 -0.11363207 0.03980694 2.3418045e-38
0.047046386 -0.11363207 0.03980694 2.3418045e-38
0.048791081 -0.11363207 0.03980694 2.3418045e-38
0.050373748 -0.11283787 0.042836823 2.3418045e-38
0.052113131 -0.11283787 0.042836823 2.3234376e-38
0.053852513 -0.11283787 0.042836823 2.2958873e-38
0.055591904 -0.11283787 0.042836823 2.2867037e-38
0.057331286 -0.11283787 0.042836823 2.2958873e-38
0.059070669 -0.11283787 0.042836823 2.2683366e-38
0.060617328 -0.11204849 0.045848347 2.2683007e-38
0.062351428 -0.11204849 0.045848347 2.2867037e-38
0.063948527 -0.11151646 0.047878005 2.2958873e-38
0.065679066 -0.11151646 0.047878005 2.2683366e-38
0.067409612 -0.11151646 0.047878005 2.2958873e-38
0.069140159 -0.11151646 0.047878005 2.2867037e-38
0.070648573 -0.11073507 0.050859012 2.2774843e-38
0.072373889 -0.11073507 0.050859012 2.2591172e-38
0.074099205 -0.11073507 0.050859012 2.2406066e-38
0.075824521 -0.11073507 0.050859012 2.2683366e-38
0.077549845 -0.11073507 0.050859012 2.1760346e-38
0.079275161 -0.11073507 0.050859012 1.7151638e-38
0.081253968 -0.11151646 0.047878005 1.7245981e-38
0.083160676 -0.11204849 0.045848347 1.8352323e-38
0.085161425 -0.11283787 0.042836823 1.9365033e-38
0.087174393 -0.11363207 0.03980694 2.0469941e-38
0.089472897 -0.11520912 0.033790566 2.0375947e-38
0.091508217 -0.11599173 0.03080485 1.5580696e-38
0.093555696 -0.11677901 0.027801372 1.3274726e-38
0.095605634 -0.11754455 0.024880864 2.3952801e-39
0.097980447 -0.11914261 0.018784262 4.2381137e-39
0.10036325 -0.12070583 0.012820579 5.8065184e-39
0.1033896 -0.12386028 0.00078640133 6.5448023e-39
0.10520271 -0.12386028 0.00078640133 3.8718493e-39
0.10775072 -0.12567626 -0.0061415657 3.5959813e-39
0.10957598 -0.12567626 -0.0061415657 1.1081384e-39
0.11173143 -0.12646608 -0.0091546997 5.2576606e-39
0.11356198 -0.12646608 -0.0091546997 1.5214434e-38
0.1186792 -0.13408406 -0.038217328 1.5673268e-38
0.11987063 -0.13250901 -0.032208465 1.0601797e-38
0.1217416 -0.13250901 -0.032208465 5.715427e-39
0.1227775 -0.13065951 -0.025152706 1.3822324e-39
0.12463609 -0.13065951 -0.025152706 2.5807756e-39
0.12649469 -0.13065951 -0.025152706 3.0417537e-39
-0.13015264 -0.13702248 -0.042222641 1.1338975e-38
-0.12779713 -0.13596557 -0.038217328 1.3459475e-38
-0.12591562 -0.13596557 -0.038217328 1.8160733e-38
-0.12368699 -0.13515557 -0.035147808 2.3509161e-38
-0.12181088 -0.13515557 -0.035147808 2.3509883e-38
-0.11993476 -0.13515557 -0.035147808 2.3509886e-38
-0.11805864 -0.13515557 -0.035147808 2.3509886e-38
-0.11587074 -0.13437997 -0.032208465 2.3509886e-38
-0.11399978 -0.13437997 -0.032208465 2.3509886e-38
-0.11171409 -0.13331302 -0.028165124 2.3509886e-38
-0.10985021 -0.13331302 -0.028165124 2.3509886e-38
-0.10768791 -0.1325181 -0.025152706 2.3509886e-38
-0.10582932 -0.1325181 -0.025152706 2.3509886e-38
-0.10397073 -0.1325181 -0.025152706 2.3509886e-38
-0.10211214 -0.1325181 -0.025152706 2.3509886e-38
-0.10025354 -0.1325181 -0.025152706 2.3509886e-38
-0.098394953 -0.1325181 -0.025152706 2.3509886e-38
-0.096536361 -0.1325181 -0.025152706 2.3509886e-38
-0.094677769 -0.1325181 -0.025152706 2.3509886e-38
-0.092564456 -0.13172771 -0.022157334 2.3509886e-38
-0.090463065 -0.13094176 -0.01917889 2.3509886e-38
-0.088614948 -0.13094176 -0.01917889 2.3509886e-38
-0.086443372 -0.12987186 -0.015124343 2.3509886e-38
-0.084602363 -0.12987186 -0.015124343 2.3509886e-38
-0.082761355 -0.12987186 -0.015124343 2.3509886e-38
-0.080920346 -0.12987186 -0.015124343 2.3509886e-38
-0.079079337 -0.12987186 -0.015124343 2.3509886e-38
-0.077238329 -0.12987186 -0.015124343 2.3509886e-38
-0.07539732 -0.12987186 -0.015124343 2.3509886e-38
-0.073357902 -0.12909628 -0.012185238 2.3509886e-38
-0.07152205 -0.12909628 -0.012185238 2.3509886e-38
-0.069686197 -0.12909628 -0.012185238 2.3509886e-38
-0.067850344 -0.12909628 -0.012185238 2.3509886e-38
-0.066014491 -0.12909628 -0.012185238 2.3509886e-38
-0.064000629 -0.1282966 -0.0091546997 2.3509886e-38
-0.062170081 -0.1282966 -0.0091546997 2.3418047e-38
-0.06033954 -0.1282966 -0.0091546997 2.3234369e-38
-0.058347866 -0.1275015 -0.0061415657 1.5121154e-38
-0.056367658 -0.126711 -0.0031458363 1.3644237e-38
-0.054547653 -0.126711 -0.0031458363 9.4021634e-39
-0.052727647 -0.126711 -0.0031458363 7.7415701e-39
-0.050907634 -0.126711 -0.0031458363 5.6217894e-39
-0.049087636 -0.126711 -0.0031458363 3.041388e-39
-0.047267623 -0.126711 -0.0031458363 2.1201506e-39
-0.045285597 -0.1256734 0.00078640133 1.0134499e-39
-0.043472484 -0.1256734 0.00078640133 7.3614552e-40
-0.04165937 -0.1256734 0.00078640133 9.1874452e-40
-0.039846256 -0.1256734 0.00078640133 1.1942524e-39
-0.038033143 -0.1256734 0.00078640133 1.0102143e-39
-0.036120728 -0.12486555 0.0038478151 2.755163e-40
-0.034312986 -0.12486555 0.0038478151 3.5873241e-43
-0.032505244 -0.12486555 0.0038478151 7.1746481e-43
-0.030617638 -0.12409012 0.0067864433 6.4608828e-40
-0.028815044 -0.12409012 0.0067864433 3.6914546e-40
-0.027012451 -0.12409012 0.0067864433 3.6842939e-40
-0.025209857 -0.12409012 0.0067864433 7.3684617e-40
-0.023346255 -0.12329166 0.0098123327 1.1045413e-39
-0.02154897 -0.12329166 0.0098123327 2.0254074e-39
-0.019751681 -0.12329166 0.0098123327 4.14589e-39
-0.017909562 -0.12249784 0.012820579 6.5415317e-39
-0.016117549 -0.12249784 0.012820579 8.0159415e-39
-0.014325539 -0.12249784 0.012820579 9.0290214e-39
-0.012533525 -0.12249784 0.012820579 1.6311414e-38
-0.010741511 -0.12249784 0.012820579 1.981414e-38
-0.0089495014 -0.12249784 0.012820579 2.1196723e-38
-0.0071574878 -0.12249784 0.012820579 2.3505938e-38
-0.005365476 -0.12249784 0.012820579 2.3506657e-38
-0.0035734642 -0.12249784 0.012820579 2.3506647e-38
-0.0017814506 -0.12249784 0.012820579 2.3504105e-38
-5.1241368e-06 -0.12092416 0.018784262 2.3509142e-38
0.0017764326 -0.12092416 0.018784262 2.3509142e-38
0.0035579884 -0.12092416 0.018784262 2.3509143e-38
0.0053395443 -0.12092416 0.018784262 2.3506984e-38
0.0070916163 -0.12011738 0.021841742 2.3507711e-38
0.0088678114 -0.12011738 0.021841742 2.3508432e-38
0.010644007 -0.12011738 0.021841742 2.3507716e-38
0.012420202 -0.12011738 0.021841742 2.350952e-38
0.014196398 -0.12011738 0.021841742 2.3509524e-38
0.015916642 -0.11931543 0.024880864 2.3509527e-38
0.017628621 -0.11854477 0.027801372 2.3509527e-38
0.019394368 -0.11854477 0.027801372 2.3509527e-38
0.021089021 -0.11775221 0.03080485 2.3417691e-38
0.0228495 -0.11775221 0.03080485 2.3417691e-38
0.024609981 -0.11775221 0.03080485 2.3417691e-38
0.02637046 -0.11775221 0.03080485 2.3324778e-38
0.028130941 -0.11775221 0.03080485 2.3508444e-38
0.029891422 -0.11775221 0.03080485 2.3416248e-38
0.031549819 -0.11696436 0.033790566 2.3508444e-38
0.033305064 -0.11696436 0.033790566 2.3509167e-38
0.035060309 -0.11696436 0.033790566 2.3509524e-38
0.036815554 -0.11696436 0.033790566 2.3509524e-38
0.038444445 -0.11615516 0.036857165 2.3509524e-38
0.040067598 -0.11537679 0.03980694 2.3509524e-38
0.041812293 -0.11537679 0.03980694 2.3509164e-38
0.043556996 -0.11537679 0.03980694 2.3508804e-38
0.045301691 -0.11537679 0.03980694 2.3508804e-38
0.047046386 -0.11537679 0.03980694 2.3509164e-38
0.048791081 -0.11537679 0.03980694 2.3509524e-38
0.050535776 -0.11537679 0.03980694 2.3509524e-38
0.052280471 -0.11537679 0.03980694 2.3509883e-38
0.053852513 -0.11457725 0.042836823 2.3234015e-38
0.055591904 -0.11457725 0.042836823 2.3234376e-38
0.057331286 -0.11457725 0.042836823 2.3418047e-38
0.059070669 -0.11457725 0.042836823 2.3234376e-38
0.060617328 -0.1137826 0.045848347 2.3418047e-38
0.062351428 -0.1137826 0.045848347 2.3234376e-38
0.064085536 -0.1137826 0.045848347 2.341805e-38
0.065679066 -0.11324702 0.047878005 2.3234379e-38
0.067409612 -0.11324702 0.047878005 2.3326213e-38
0.069140159 -0.11324702 0.047878005 2.3142542e-38
0.070648573 -0.11246039 0.050859012 2.304927e-38
0.072373889 -0.11246039 0.050859012 2.3234379e-38
0.074099205 -0.11246039 0.050859012 2.3325856e-38
0.075824521 -0.11246039 0.050859012 2.3234379e-38
0.077549845 -0.11246039 0.050859012 2.3141467e-38
0.079523429 -0.11324702 0.047878005 1.8993739e-38
0.081253968 -0.11324702 0.047878005 1.7335288e-38
0.083160676 -0.1137826 0.045848347 1.9271749e-38
0.085161425 -0.11457725 0.042836823 2.0285183e-38
0.087174393 -0.11537679 0.03980694 2.0837277e-38
0.089472897 -0.11696436 0.033790566 2.102059e-38
0.09122815 -0.11696436 0.033790566 1.032482e-38
0.0932687 -0.11775221 0.03080485 9.4943408e-39
0.095321439 -0.11854477 0.027801372 3.5927443e-39
0.097980447 -0.12092416 0.018784262 4.1459181e-39
0.10066653 -0.12329166 0.0098123327 5.9909097e-39
0.1030756 -0.12486555 0.0038478151 5.5302931e-39
0.10520271 -0.1256734 0.00078640133 2.6740264e-39
0.10775072 -0.1275015 -0.0061415657 3.4119544e-39
0.10990088 -0.1282966 -0.0091546997 6.4716447e-40
0.11238561 -0.12987186 -0.015124343 4.1520375e-39
0.11422662 -0.12987186 -0.015124343 1.539991e-38
0.1186792 -0.13596557 -0.038217328 1.5305568e-38
0.1202082 -0.13515557 -0.035147808 1.1063492e-38
0.12208431 -0.13515557 -0.035147808 6.452992e-39
0.12313402 -0.13331302 -0.028165124 2.0276018e-39
0.12499789 -0.13331302 -0.028165124 3.226145e-39
0.12686178 -0.13331302 -0.028165124 3.4105363e-39
-0.13015264 -0.13891099 -0.042222641 1.1062385e-38
-0.12779713 -0.13784705 -0.038217328 1.3459472e-38
-0.1255631 -0.13703169 -0.035147808 1.8252926e-38
-0.12368699 -0.13703169 -0.035147808 2.3509879e-38
-0.12181088 -0.13703169 -0.035147808 2.3509883e-38
-0.11993476 -0.13703169 -0.035147808 2.3509886e-38
-0.11805864 -0.13703169 -0.035147808 2.3509886e-38
-0.11587074 -0.13625093 -0.032208465 2.3509886e-38
-0.11399978 -0.13625093 -0.032208465 2.3509886e-38
-0.11171409 -0.13517688 -0.028165124 2.3509886e-38
-0.10985021 -0.13517688 -0.028165124 2.3509886e-38
-0.10768791 -0.13437669 -0.025152706 2.3509886e-38
-0.10582932 -0.13437669 -0.025152706 2.3509886e-38
-0.10397073 -0.13437669 -0.025152706 2.3509886e-38
-0.10211214 -0.13437669 -0.025152706 2.3509886e-38
-0.10025354 -0.13437669 -0.025152706 2.3509886e-38
-0.098394953 -0.13437669 -0.025152706 2.3509886e-38
-0.096536361 -0.13437669 -0.025152706 2.3509886e-38
-0.094677769 -0.13437669 -0.025152706 2.3509886e-38
-0.092564456 -0.13358103 -0.022157334 2.3509886e-38
-0.090711124 -0.13358103 -0.022157334 2.3509886e-38
-0.088857777 -0.13358103 -0.022157334 2.3509886e-38
-0.086766832 -0.13278987 -0.01917889 2.3509886e-38
-0.084918715 -0.13278987 -0.01917889 2.3509886e-38
-0.083070599 -0.13278987 -0.01917889 2.3509886e-38
-0.080920346 -0.13171287 -0.015124343 2.3509886e-38
-0.079079337 -0.13171287 -0.015124343 2.3509886e-38
-0.077238329 -0.13171287 -0.015124343 2.3509886e-38
-0.07539732 -0.13171287 -0.015124343 2.3509886e-38
-0.073357902 -0.13093217 -0.012185238 2.3509886e-38
-0.07152205 -0.13093217 -0.012185238 2.3509886e-38
-0.069686197 -0.13093217 -0.012185238 2.3509886e-38
-0.067850344 -0.13093217 -0.012185238 2.3509886e-38
-0.066014491 -0.13093217 -0.012185238 2.3509886e-38
-0.064000629 -0.13012715 -0.0091546997 2.3509886e-38
-0.062170081 -0.13012715 -0.0091546997 2.350988e-38
-0.06033954 -0.13012715 -0.0091546997 2.3418038e-38
-0.058347866 -0.12932678 -0.0061415657 4.2420668e-39
-0.056367658 -0.12853102 -0.0031458363 3.6842939e-40
-0.054547653 -0.12853102 -0.0031458363 9.1848108e-41
-0.052727647 -0.12853102 -0.0031458363 9.1945778e-40
-0.050907634 -0.12853102 -0.0031458363 6.4287089e-40
-0.049087636 -0.12853102 -0.0031458363 3.67356e-40
-0.047267623 -0.12853102 -0.0031458363 4.5919009e-40
-0.045285597 -0.12748651 0.00078640133 3.673532e-40
-0.043472484 -0.12748651 0.00078640133 6.4286809e-40
-0.04165937 -0.12748651 0.00078640133 7.34712e-40
-0.039846256 -0.12748651 0.00078640133 3.6736721e-40
-0.037928477 -0.1266733 0.0038478151 3.673616e-40
-0.036120728 -0.1266733 0.0038478151 2.5793308e-39
-0.034312986 -0.1266733 0.0038478151 7.0986978e-39
-0.032505244 -0.1266733 0.0038478151 1.1247856e-38
-0.030617638 -0.12589271 0.0067864433 1.134006e-38
-0.028815044 -0.12589271 0.0067864433 1.0786175e-38
-0.027012451 -0.12589271 0.0067864433 1.0048253e-38
-0.025209857 -0.12589271 0.0067864433 9.0333809e-39
-0.023346255 -0.12508895 0.0098123327 7.6489975e-39
-0.02154897 -0.12508895 0.0098123327 6.7270272e-39
-0.019701576 -0.12428986 0.012820579 7.6493268e-39
-0.017909562 -0.12428986 0.012820579 9.492868e-39
-0.016078224 -0.12349547 0.015811183 9.5843448e-39
-0.014291456 -0.12349547 0.015811183 2.2072805e-39
-0.012533525 -0.12428986 0.012820579 2.3909543e-39
-0.010741511 -0.12428986 0.012820579 2.9434232e-39
-0.0089495014 -0.12428986 0.012820579 2.2055093e-39
-0.0071574878 -0.12428986 0.012820579 4.8799028e-39
-0.005365476 -0.12428986 0.012820579 7.461735e-39
-0.0035734642 -0.12428986 0.012820579 1.0136113e-38
-0.0017840732 -0.12349547 0.015811183 1.1887808e-38
-5.1241368e-06 -0.12270571 0.018784262 1.6497938e-38
0.0017764326 -0.12270571 0.018784262 2.1292112e-38
0.0035579884 -0.12270571 0.018784262 2.3504812e-38
0.0053395443 -0.12270571 0.018784262 2.3508779e-38
0.0070916163 -0.12189357 0.021841742 2.3509143e-38
0.0088678114 -0.12189357 0.021841742 2.3509149e-38
0.010644007 -0.12189357 0.021841742 2.3507712e-38
0.012420202 -0.12189357 0.021841742 2.3509161e-38
0.014196398 -0.12189357 0.021841742 2.3509165e-38
0.015916642 -0.12108628 0.024880864 2.3508809e-38
0.017628621 -0.1203105 0.027801372 2.3508809e-38
0.019394368 -0.1203105 0.027801372 2.3509168e-38
0.021160113 -0.1203105 0.027801372 2.3509168e-38
0.0228495 -0.11951269 0.03080485 2.3509168e-38
0.024609981 -0.11951269 0.03080485 2.3509168e-38
0.02637046 -0.11951269 0.03080485 2.3509168e-38
0.028130941 -0.11951269 0.03080485 2.3508809e-38
0.029891422 -0.11951269 0.03080485 2.3508809e-38
0.031549819 -0.11871959 0.033790566 2.3508809e-38
0.033305064 -0.11871959 0.033790566 2.3508809e-38
0.035060309 -0.11871959 0.033790566 2.3508809e-38
0.036815554 -0.11871959 0.033790566 2.3509168e-38
0.038444445 -0.11790501 0.036857165 2.3509168e-38
0.04019431 -0.11790501 0.036857165 2.3509168e-38
0.041944183 -0.11790501 0.036857165 2.3509168e-38
0.043556996 -0.11712147 0.03980694 2.3508809e-38
0.045301691 -0.11712147 0.03980694 2.3508809e-38
0.047046386 -0.11712147 0.03980694 2.3509168e-38
0.048791081 -0.11712147 0.03980694 2.3509168e-38
0.050535776 -0.11712147 0.03980694 2.3509168e-38
0.052280471 -0.11712147 0.03980694 2.3509527e-38
0.054025166 -0.11712147 0.03980694 2.350952e-38
0.055591904 -0.11631663 0.042836823 2.3509879e-38
0.057331286 -0.11631663 0.042836823 2.350988e-38
0.059070669 -0.11631663 0.042836823 2.3418042e-38
0.060810052 -0.11631663 0.042836823 2.3418043e-38
0.062351428 -0.11551671 0.045848347 2.350988e-38
0.064085536 -0.11551671 0.045848347 2.3418043e-38
0.065819636 -0.11551671 0.045848347 2.3141456e-38
0.067409612 -0.11497755 0.047878005 2.3509883e-38
0.069140159 -0.11497755 0.047878005 2.3325492e-38
0.070648573 -0.11418571 0.050859012 2.31411e-38
0.072373889 -0.11418571 0.050859012 2.3509883e-38
0.074099205 -0.11418571 0.050859012 2.3509883e-38
0.075824521 -0.11418571 0.050859012 2.3509883e-38
0.077549845 -0.11418571 0.050859012 2.3325494e-38
0.079275161 -0.11418571 0.050859012 1.9822414e-38
0.081426568 -0.11551671 0.045848347 1.7702982e-38
0.083160676 -0.11551671 0.045848347 2.0929827e-38
0.085161425 -0.11631663 0.042836823 2.1390087e-38
0.087174393 -0.11712147 0.03980694 1.9730205e-38
0.089472897 -0.11871959 0.033790566 1.8806453e-38
0.09122815 -0.11871959 0.033790566 2.948807e-39
0.092408486 -0.11712147 0.03980694 3.5931002e-39
0.094153173 -0.11712147 0.03980694 3.3161574e-39
0.098869242 -0.12508895 0.0098123327 4.2381137e-39
0.10126785 -0.1266733 0.0038478151 3.8704116e-39
0.1030756 -0.1266733 0.0038478151 4.7005352e-39
0.10561294 -0.12853102 -0.0031458363 3.3190427e-39
0.10743295 -0.12853102 -0.0031458363 2.8584275e-39
0.10925295 -0.12853102 -0.0031458363 5.5533458e-40
0.11173143 -0.13012715 -0.0091546997 5.3502304e-39
0.11422662 -0.13171287 -0.015124343 1.5215164e-38
0.1186792 -0.13784705 -0.038217328 1.5674347e-38
0.12056071 -0.13784705 -0.038217328 1.2169834e-38
0.12244221 -0.13784705 -0.038217328 8.1125106e-39
0.12361256 -0.13625093 -0.032208465 3.779316e-39
0.12548353 -0.13625093 -0.032208465 4.7012723e-39
-0.12967862 -0.13972856 -0.038217328 9.9563909e-39
-0.12779713 -0.13972856 -0.038217328 1.2998847e-38
-0.1255631 -0.13890781 -0.035147808 1.8714257e-38
-0.12368699 -0.13890781 -0.035147808 2.3509153e-38
-0.12181088 -0.13890781 -0.035147808 2.3509883e-38
-0.11993476 -0.13890781 -0.035147808 2.3509886e-38
-0.1177417 -0.13812189 -0.032208465 2.3509886e-38
-0.11587074 -0.13812189 -0.032208465 2.3509886e-38
-0.11399978 -0.13812189 -0.032208465 2.3509886e-38
-0.11171409 -0.13704078 -0.028165124 2.3509886e-38
-0.10985021 -0.13704078 -0.028165124 2.3509886e-38
-0.10768791 -0.13623528 -0.025152706 2.3509886e-38
-0.10582932 -0.13623528 -0.025152706 2.3509886e-38
-0.10397073 -0.13623528 -0.025152706 2.3509886e-38
-0.10211214 -0.13623528 -0.025152706 2.3509886e-38
-0.10025354 -0.13623528 -0.025152706 2.3509886e-38
-0.098394953 -0.13623528 -0.025152706 2.3509886e-38
-0.096536361 -0.13623528 -0.025152706 2.3509886e-38
-0.094677769 -0.13623528 -0.025152706 2.3509886e-38
-0.092564456 -0.13543437 -0.022157334 2.3509886e-38
-0.090711124 -0.13543437 -0.022157334 2.3509886e-38
-0.088857777 -0.13543437 -0.022157334 2.3509886e-38
-0.087004445 -0.13543437 -0.022157334 2.3509886e-38
-0.084918715 -0.134638 -0.01917889 2.3509886e-38
-0.083070599 -0.134638 -0.01917889 2.3509886e-38
-0.080920346 -0.13355388 -0.015124343 2.3509886e-38
-0.079079337 -0.13355388 -0.015124343 2.3509886e-38
-0.077238329 -0.13355388 -0.015124343 2.3509886e-38
-0.07539732 -0.13355388 -0.015124343 2.3509886e-38
-0.073357902 -0.13276802 -0.012185238 2.3509886e-38
-0.07152205 -0.13276802 -0.012185238 2.3509886e-38
-0.069686197 -0.13276802 -0.012185238 2.3509886e-38
-0.067850344 -0.13276802 -0.012185238 2.3509886e-38
-0.066014491 -0.13276802 -0.012185238 2.3509886e-38
-0.064000629 -0.13195769 -0.0091546997 2.3509886e-38
-0.062170081 -0.13195769 -0.0091546997 2.350988e-38
-0.06033954 -0.13195769 -0.0091546997 2.350987e-38
-0.058347866 -0.13115202 -0.0061415657 2.3059557e-39
-0.056522608 -0.13115202 -0.0061415657 9.1843904e-41
-0.054547653 -0.13035102 -0.0031458363 2.7553031e-40
-0.052727647 -0.13035102 -0.0031458363 1.0123821e-39
-0.050907634 -0.13035102 -0.0031458363 1.1034959e-39
-0.049087636 -0.13035102 -0.0031458363 1.5644629e-39
-0.047267623 -0.13035102 -0.0031458363 5.5101858e-40
-0.045285597 -0.1292996 0.00078640133 1.3789842e-39
-0.043472484 -0.1292996 0.00078640133 2.0247179e-39
-0.04165937 -0.1292996 0.00078640133 1.7474234e-39
-0.039846256 -0.1292996 0.00078640133 5.51041e-40
-0.037928477 -0.12848105 0.0038478151 2.2101994e-39
-0.036025412 -0.12769531 0.0067864433 3.1325046e-39
-0.034222819 -0.12769531 0.0067864433 1.0601053e-38
-0.032420225 -0.12769531 0.0067864433 1.1892146e-38
-0.030617638 -0.12769531 0.0067864433 1.327401e-38
-0.028815044 -0.12769531 0.0067864433 1.3365855e-38
-0.027012451 -0.12769531 0.0067864433 1.2996721e-38
-0.025209857 -0.12769531 0.0067864433 1.2350273e-38
-0.023407267 -0.12769531 0.0067864433 1.3641363e-38
-0.02154897 -0.12688623 0.0098123327 1.0967676e-38
-0.019701576 -0.12608187 0.012820579 1.0323363e-38
-0.017909562 -0.12608187 0.012820579 1.0138959e-38
-0.016078224 -0.12528224 0.015811183 9.2170028e-39
-0.014291456 -0.12528224 0.015811183 3.5927219e-39
-0.012504686 -0.12528224 0.015811183 6.4284847e-40
-0.010717917 -0.12528224 0.015811183 1.1945929e-39
-0.0089311469 -0.12528224 0.015811183 5.5102839e-40
-0.0071443785 -0.12528224 0.015811183 9.1909625e-40
-0.0053576101 -0.12528224 0.015811183 3.6734759e-40
-0.0035708416 -0.12528224 0.015811183 5.5101298e-40
-0.0017840732 -0.12528224 0.015811183 3.0377474e-39
-5.1241368e-06 -0.1244873 0.018784262 5.8947217e-39
0.0017764326 -0.1244873 0.018784262 1.3455484e-38
0.0035579884 -0.1244873 0.018784262 1.6313192e-38
0.0053395443 -0.1244873 0.018784262 2.1016251e-38
0.0070916163 -0.12366976 0.021841742 2.3505899e-38
0.0088678114 -0.12366976 0.021841742 2.3507704e-38
0.010644007 -0.12366976 0.021841742 2.350951e-38
0.012420202 -0.12366976 0.021841742 2.3509158e-38
0.014196398 -0.12366976 0.021841742 2.3509163e-38
0.015916642 -0.12285714 0.024880864 2.3509168e-38
0.017628621 -0.12207626 0.027801372 2.3509168e-38
0.019394368 -0.12207626 0.027801372 2.3508809e-38
0.021160113 -0.12207626 0.027801372 2.3509168e-38
0.0228495 -0.12127317 0.03080485 2.3508809e-38
0.024609981 -0.12127317 0.03080485 2.3508809e-38
0.02637046 -0.12127317 0.03080485 2.3508809e-38
0.028130941 -0.12127317 0.03080485 2.3508809e-38
0.029891422 -0.12127317 0.03080485 2.3508809e-38
0.031651899 -0.12127317 0.03080485 2.3508809e-38
0.033305064 -0.12047486 0.033790566 2.3508809e-38
0.035060309 -0.12047486 0.033790566 2.3508809e-38
0.036815554 -0.12047486 0.033790566 2.3509168e-38
0.038570799 -0.12047486 0.033790566 2.3509168e-38
0.04019431 -0.11965488 0.036857165 2.3509168e-38
0.041944183 -0.11965488 0.036857165 2.3509168e-38
0.043694049 -0.11965488 0.036857165 2.3509168e-38
0.045443915 -0.11965488 0.036857165 2.3509168e-38
0.047046386 -0.11886616 0.03980694 2.3509168e-38
0.048791081 -0.11886616 0.03980694 2.3509168e-38
0.050535776 -0.11886616 0.03980694 2.3509168e-38
0.052280471 -0.11886616 0.03980694 2.3509168e-38
0.053852513 -0.11805601 0.042836823 2.3509883e-38
0.055591904 -0.11805601 0.042836823 2.350988e-38
0.057331286 -0.11805601 0.042836823 2.3509883e-38
0.059070669 -0.11805601 0.042836823 2.350988e-38
0.060617328 -0.11725079 0.045848347 2.3509883e-38
0.062351428 -0.11725079 0.045848347 2.3509883e-38
0.064085536 -0.11725079 0.045848347 2.3509883e-38
0.065679066 -0.11670811 0.047878005 2.3509883e-38
0.067409612 -0.11670811 0.047878005 2.3509527e-38
0.06892325 -0.11591102 0.050859012 2.3509527e-38
0.070648573 -0.11591102 0.050859012 2.3509527e-38
0.072373889 -0.11591102 0.050859012 2.3509527e-38
0.074099205 -0.11591102 0.050859012 2.323258e-38
0.075824521 -0.11591102 0.050859012 2.3416971e-38
0.077549845 -0.11591102 0.050859012 2.3509527e-38
0.079275161 -0.11591102 0.050859012 2.1020238e-38
0.081253968 -0.11670811 0.047878005 1.7517872e-38
0.083160676 -0.11725079 0.045848347 2.0559963e-38
0.085161425 -0.11805601 0.042836823 2.1665232e-38
0.087174393 -0.11886616 0.03980694 2.0373777e-38
0.089472897 -0.12047486 0.033790566 1.5671801e-38
0.09122815 -0.12047486 0.033790566 1.2882081e-39
0.092408486 -0.11886616 0.03980694 2.1172513e-39
0.094153173 -0.11886616 0.03980694 4.3303093e-39
0.098571233 -0.12608187 0.012820579 3.9611723e-39
0.10126785 -0.12848105 0.0038478151 4.4232322e-39
0.1030756 -0.12848105 0.0038478151 3.8704214e-39
0.10520271 -0.1292996 0.00078640133 4.5172327e-39
0.10743295 -0.13035102 -0.0031458363 9.2232344e-40
0.10925295 -0.13035102 -0.0031458363 4.6278442e-40
0.11107296 -0.13035102 -0.0031458363 6.6406147e-39
0.11679771 -0.13972856 -0.038217328 1.4476523e-38
0.1186792 -0.13972856 -0.038217328 1.4843862e-38
0.12056071 -0.13972856 -0.038217328 1.1801043e-38
0.12244221 -0.13972856 -0.038217328 8.0206667e-39
0.12479772 -0.14079951 -0.042222641 5.5313847e-39
-0.12967862 -0.14161004 -0.038217328 1.0970541e-38
-0.12779713 -0.14161004 -0.038217328 1.3459821e-38
-0.12591562 -0.14161004 -0.038217328 1.8714256e-38
-0.12368699 -0.14078392 -0.035147808 2.3509509e-38
-0.12181088 -0.14078392 -0.035147808 2.350988e-38
-0.11993476 -0.14078392 -0.035147808 2.3509886e-38
-0.1177417 -0.13999285 -0.032208465 2.3509886e-38
-0.11587074 -0.13999285 -0.032208465 2.3509886e-38
-0.11399978 -0.13999285 -0.032208465 2.3509886e-38
-0.11171409 -0.13890465 -0.028165124 2.3509886e-38
-0.10985021 -0.13890465 -0.028165124 2.3509886e-38
-0.10768791 -0.13809387 -0.025152706 2.3509886e-38
-0.10582932 -0.13809387 -0.025152706 2.3509886e-38
-0.10397073 -0.13809387 -0.025152706 2.3509886e-38
-0.10211214 -0.13809387 -0.025152706 2.3509886e-38
-0.10025354 -0.13809387 -0.025152706 2.3509886e-38
-0.098394953 -0.13809387 -0.025152706 2.3509886e-38
-0.096536361 -0.13809387 -0.025152706 2.3509886e-38
-0.094677769 -0.13809387 -0.025152706 2.3509886e-38
-0.092564456 -0.13728772 -0.022157334 2.3509886e-38
-0.090711124 -0.13728772 -0.022157334 2.3509886e-38
-0.088857777 -0.13728772 -0.022157334 2.3509886e-38
-0.087004445 -0.13728772 -0.022157334 2.3509886e-38
-0.084918715 -0.13648613 -0.01917889 2.3509886e-38
-0.083070599 -0.13648613 -0.01917889 2.3509886e-38
-0.080920346 -0.13539489 -0.015124343 2.3509886e-38
-0.079079337 -0.13539489 -0.015124343 2.3509886e-38
-0.077238329 -0.13539489 -0.015124343 2.3509886e-38
-0.07519377 -0.13460387 -0.012185238 2.3509886e-38
-0.073357902 -0.13460387 -0.012185238 2.3509886e-38
-0.07152205 -0.13460387 -0.012185238 2.3509886e-38
-0.069686197 -0.13460387 -0.012185238 2.3509886e-38
-0.067850344 -0.13460387 -0.012185238 2.3509886e-38
-0.065831162 -0.13378824 -0.0091546997 2.3509886e-38
-0.064000629 -0.13378824 -0.0091546997 2.3509886e-38
-0.06199839 -0.13297729 -0.0061415657 2.350988e-38
-0.060173124 -0.13297729 -0.0061415657 2.3233999e-38
-0.058347866 -0.13297729 -0.0061415657 3.5959785e-39
-0.056522608 -0.13297729 -0.0061415657 1.2611686e-44
-0.054547653 -0.13217102 -0.0031458363 7.368756e-40
-0.052727647 -0.13217102 -0.0031458363 1.6581186e-39
-0.050907634 -0.13217102 -0.0031458363 2.8552171e-39
-0.049087636 -0.13217102 -0.0031458363 2.6693685e-39
-0.047098704 -0.13111271 0.00078640133 3.7757048e-39
-0.045285597 -0.13111271 0.00078640133 4.6965793e-39
-0.043472484 -0.13111271 0.00078640133 4.6051096e-39
-0.04165937 -0.13111271 0.00078640133 3.7760832e-39
-0.039846256 -0.13111271 0.00078640133 6.428765e-40
-0.037928477 -0.13028879 0.0038478151 1.3815177e-39
-0.036025412 -0.1294979 0.0067864433 1.3818667e-39
-0.034222819 -0.1294979 0.0067864433 6.912866e-39
-0.032420225 -0.1294979 0.0067864433 8.7560527e-39
-0.030617638 -0.1294979 0.0067864433 9.3088733e-39
-0.028815044 -0.1294979 0.0067864433 9.8616982e-39
-0.027012451 -0.1294979 0.0067864433 1.0874426e-38
-0.025209857 -0.1294979 0.0067864433 1.2257362e-38
-0.023407267 -0.1294979 0.0067864433 1.198113e-38
-0.02154897 -0.12868352 0.0098123327 7.4642461e-39
-0.019701576 -0.12787388 0.012820579 8.7560387e-39
-0.017909562 -0.12787388 0.012820579 1.050846e-38
-0.016078224 -0.12706901 0.015811183 1.078541e-38
-0.014291456 -0.12706901 0.015811183 4.7923455e-39
-0.012504686 -0.12706901 0.015811183 2.2105343e-39
-0.010717917 -0.12706901 0.015811183 1.5662607e-39
-0.0089311469 -0.12706901 0.015811183 1.1974866e-39
-0.0071443785 -0.12706901 0.015811183 6.4502889e-40
-0.0053576101 -0.12706901 0.015811183 8.3012641e-40
-0.0035708416 -0.12706901 0.015811183 2.212328e-39
-0.0017840732 -0.12706901 0.015811183 2.3016285e-39
-5.1241368e-06 -0.12626885 0.018784262 1.1938615e-39
0.0017764326 -0.12626885 0.018784262 2.3001922e-39
0.0035579884 -0.12626885 0.018784262 2.3001922e-39
0.0053395443 -0.12626885 0.018784262 4.3288506e-39
0.0070916163 -0.12544595 0.021841742 7.0025266e-39
0.0088678114 -0.12544595 0.021841742 1.3088164e-38
0.010644007 -0.12544595 0.021841742 2.3507712e-38
0.012420202 -0.12544595 0.021841742 2.3509158e-38
0.014196398 -0.12544595 0.021841742 2.3509161e-38
0.015972592 -0.12544595 0.021841742 2.3509165e-38
0.017687509 -0.12462802 0.024880864 2.3509527e-38
0.019394368 -0.12384202 0.027801372 2.3509168e-38
0.021160113 -0.12384202 0.027801372 2.3509168e-38
0.0228495 -0.12303366 0.03080485 2.3509527e-38
0.024609981 -0.12303366 0.03080485 2.3509168e-38
0.02637046 -0.12303366 0.03080485 2.3509168e-38
0.028130941 -0.12303366 0.03080485 2.3509168e-38
0.029891422 -0.12303366 0.03080485 2.3509168e-38
0.031651899 -0.12303366 0.03080485 2.3509168e-38
0.033305064 -0.1222301 0.033790566 2.3509168e-38
0.035060309 -0.1222301 0.033790566 2.3509168e-38
0.036815554 -0.1222301 0.033790566 2.3509168e-38
0.038570799 -0.1222301 0.033790566 2.3509527e-38
0.040326044 -0.1222301 0.033790566 2.3509168e-38
0.041944183 -0.12140475 0.036857165 2.3509527e-38
0.043694049 -0.12140475 0.036857165 2.3509527e-38
0.045301691 -0.12061088 0.03980694 2.3509527e-38
0.046894982 -0.1197954 0.042836823 2.3509527e-38
0.048634365 -0.1197954 0.042836823 2.3509527e-38
0.050373748 -0.1197954 0.042836823 2.3509527e-38
0.052113131 -0.1197954 0.042836823 2.3509527e-38
0.053852513 -0.1197954 0.042836823 2.3509527e-38
0.055591904 -0.1197954 0.042836823 2.3509886e-38
0.057331286 -0.1197954 0.042836823 2.3509527e-38
0.05888322 -0.11898489 0.045848347 2.3509886e-38
0.060617328 -0.11898489 0.045848347 2.3509527e-38
0.062351428 -0.11898489 0.045848347 2.3509886e-38
0.064085536 -0.11898489 0.045848347 2.3509527e-38
0.065679066 -0.11843865 0.047878005 2.3509886e-38
0.067197934 -0.11763634 0.050859012 2.3509527e-38
0.06892325 -0.11763634 0.050859012 2.3509886e-38
0.070648573 -0.11763634 0.050859012 2.3509527e-38
0.072147898 -0.11683889 0.053822078 2.3509886e-38
0.073868021 -0.11683889 0.053822078 2.3232583e-38
0.075824521 -0.11763634 0.050859012 2.3417691e-38
0.077549845 -0.11763634 0.050859012 2.3509527e-38
0.079275161 -0.11763634 0.050859012 2.1020241e-38
0.081253968 -0.11843865 0.047878005 1.9453261e-38
0.083160676 -0.11898489 0.045848347 2.1205333e-38
0.085161425 -0.1197954 0.042836823 2.1019862e-38
0.087174393 -0.12061088 0.03980694 1.9267429e-38
0.089472897 -0.1222301 0.033790566 1.530194e-38
0.09122815 -0.1222301 0.033790566 1.4725979e-39
0.0932687 -0.12303366 0.03080485 2.8544604e-39
0.095029168 -0.12303366 0.03080485 5.252267e-39
0.098571233 -0.12787388 0.012820579 5.0685988e-39
0.10126785 -0.13028879 0.0038478151 3.6863861e-39
0.1030756 -0.13028879 0.0038478151 1.0123597e-39
0.10520271 -0.13111271 0.00078640133 3.6842939e-40
0.10743295 -0.13217102 -0.0031458363 1.9361194e-39
0.10925295 -0.13217102 -0.0031458363 5.6250236e-39
0.11107296 -0.13217102 -0.0031458363 7.4692992e-39
0.11679771 -0.14161004 -0.038217328 1.5675066e-38
0.1186792 -0.14161004 -0.038217328 1.456691e-38
0.12056071 -0.14161004 -0.038217328 1.1063473e-38
0.12244221 -0.14161004 -0.038217328 7.5596787e-39
-0.12967862 -0.14349155 -0.038217328 1.115493e-38
-0.12779713 -0.14349155 -0.038217328 1.2999198e-38
-0.12591562 -0.14349155 -0.038217328 1.7977046e-38
-0.12368699 -0.14266007 -0.035147808 2.3140366e-38
-0.12181088 -0.14266007 -0.035147808 2.350988e-38
-0.11993476 -0.14266007 -0.035147808 2.3509886e-38
-0.11805864 -0.14266007 -0.035147808 2.3509886e-38
-0.11587074 -0.14186381 -0.032208465 2.3509886e-38
-0.11399978 -0.14186381 -0.032208465 2.3509886e-38
-0.11171409 -0.14076851 -0.028165124 2.3509886e-38
-0.10985021 -0.14076851 -0.028165124 2.3509886e-38
-0.10768791 -0.13995247 -0.025152706 2.3509886e-38
-0.10582932 -0.13995247 -0.025152706 2.3509886e-38
-0.10397073 -0.13995247 -0.025152706 2.3509886e-38
-0.10211214 -0.13995247 -0.025152706 2.3509886e-38
-0.10025354 -0.13995247 -0.025152706 2.3509886e-38
-0.098394953 -0.13995247 -0.025152706 2.3509886e-38
-0.096536361 -0.13995247 -0.025152706 2.3509886e-38
-0.094677769 -0.13995247 -0.025152706 2.3509886e-38
-0.092819177 -0.13995247 -0.025152706 2.3509886e-38
-0.090960585 -0.13995247 -0.025152706 2.3509886e-38
-0.088857777 -0.13914107 -0.022157334 2.3509886e-38
-0.087004445 -0.13914107 -0.022157334 2.3509886e-38
-0.084918715 -0.13833423 -0.01917889 2.3509886e-38
-0.083070599 -0.13833423 -0.01917889 2.3509886e-38
-0.080920346 -0.13723589 -0.015124343 2.3509886e-38
-0.079079337 -0.13723589 -0.015124343 2.3509886e-38
-0.077238329 -0.13723589 -0.015124343 2.3509886e-38
-0.07519377 -0.13643973 -0.012185238 2.3509886e-38
-0.073357902 -0.13643973 -0.012185238 2.3509886e-38
-0.07152205 -0.13643973 -0.012185238 2.3509886e-38
-0.069686197 -0.13643973 -0.012185238 2.3509886e-38
-0.067850344 -0.13643973 -0.012185238 2.3509886e-38
-0.065831162 -0.13561879 -0.0091546997 2.3509886e-38
-0.064000629 -0.13561879 -0.0091546997 2.3509886e-38
-0.06199839 -0.13480256 -0.0061415657 2.350988e-38
-0.060173124 -0.13480256 -0.0061415657 2.2587913e-38
-0.058347866 -0.13480256 -0.0061415657 4.7023288e-39
-0.056522608 -0.13480256 -0.0061415657 1.6815582e-44
-0.054547653 -0.13399105 -0.0031458363 1.4758854e-39
-0.052727647 -0.13399105 -0.0031458363 1.1053106e-39
-0.050907634 -0.13399105 -0.0031458363 2.2094917e-39
-0.049087636 -0.13399105 -0.0031458363 2.5768099e-39
-0.047098704 -0.13292582 0.00078640133 7.4613636e-39
-0.045285597 -0.13292582 0.00078640133 8.1067274e-39
-0.043472484 -0.13292582 0.00078640133 7.739391e-39
-0.04165937 -0.13292582 0.00078640133 6.5423038e-39
-0.039736219 -0.13209651 0.0038478151 5.510368e-40
-0.037928477 -0.13209651 0.0038478151 5.5175707e-40
-0.036025412 -0.13130049 0.0067864433 9.1845305e-41
-0.034222819 -0.13130049 0.0067864433 2.7629836e-39
-0.032420225 -0.13130049 0.0067864433 4.6065277e-39
-0.030617638 -0.13130049 0.0067864433 6.0816606e-39
-0.028815044 -0.13130049 0.0067864433 4.7905728e-39
-0.027012451 -0.13130049 0.0067864433 4.6047634e-39
-0.025209857 -0.13130049 0.0067864433 6.0795418e-39
-0.023407267 -0.13130049 0.0067864433 6.1717318e-39
-0.02154897 -0.13048081 0.0098123327 4.5136328e-39
-0.019701576 -0.1296659 0.012820579 7.9262808e-39
-0.017909562 -0.1296659 0.012820579 9.863454e-39
-0.016078224 -0.12885578 0.015811183 1.0878329e-38
-0.014291456 -0.12885578 0.015811183 5.2547655e-39
-0.012504686 -0.12885578 0.015811183 3.5027207e-39
-0.010717917 -0.12885578 0.015811183 1.5669852e-39
-0.0089311469 -0.12885578 0.015811183 1.2918458e-39
-0.0071443785 -0.12885578 0.015811183 1.6815582e-44
-0.0053576101 -0.12885578 0.015811183 1.0789998e-42
