# .PCD v0.7 - Point Cloud Data file format
VERSION 0.7
FIELDS x y z rgb
SIZE 4 4 4 4
TYPE F F F F
COUNT 1 1 1 1
WIDTH 934
HEIGHT 1
VIEWPOINT 0 0 0 1 0 0 0
POINTS 934
DATA ascii
0.046205509 -0.097960562 -0.10692048 9.9701657e-39
0.048174668 -0.097960562 -0.10692048 9.0500241e-39
0.050143834 -0.097960562 -0.10692048 7.9447723e-39
0.052112993 -0.097960562 -0.10692048 8.6830647e-39
0.054082148 -0.097960562 -0.10692048 8.9582194e-39
0.056051321 -0.097960562 -0.10692048 8.1270196e-39
0.06810274 -0.10362239 -0.13285768 1.089612e-38
0.070117377 -0.10362239 -0.13285768 1.0437303e-38
0.072132014 -0.10362239 -0.13285768 9.2383964e-39
0.074146651 -0.10362239 -0.13285768 9.0540038e-39
0.076161288 -0.10362239 -0.13285768 8.8685335e-39
0.078175925 -0.10362239 -0.13285768 7.8547375e-39
0.080190562 -0.10362239 -0.13285768 7.8540158e-39
0.082205199 -0.10362239 -0.13285768 6.9324155e-39
0.083129667 -0.10122015 -0.12185287 7.392672e-39
0.085125007 -0.10122015 -0.12185287 6.8387765e-39
0.086714052 -0.10035546 -0.11789167 6.5618239e-39
0.088702448 -0.10035546 -0.11789167 6.4696255e-39
0.090690844 -0.10035546 -0.11789167 5.91573e-39
0.093106382 -0.10122015 -0.12185287 4.716468e-39
0.095879368 -0.10276926 -0.1289494 4.0710957e-39
0.097887166 -0.10276926 -0.1289494 4.8057769e-39
0.099894948 -0.10276926 -0.1289494 6.3669775e-39
0.1028186 -0.10451011 -0.13692439 3.6900533e-39
0.10484038 -0.10451011 -0.13692439 1.846121e-39
0.10686214 -0.10451011 -0.13692439 2.6624671e-44
-0.017560486 -0.085394189 -0.040862918 2.3233662e-38
-0.015628142 -0.086716175 -0.046870708 2.341805e-38
-0.013764269 -0.086716175 -0.046870708 2.341805e-38
-0.011950572 -0.086053312 -0.04385829 2.2957079e-38
-0.01009198 -0.086053312 -0.04385829 2.2956359e-38
-0.008233388 -0.086053312 -0.04385829 2.3509886e-38
-0.0063747941 -0.086053312 -0.04385829 2.3509527e-38
-0.004516202 -0.086053312 -0.04385829 2.3509527e-38
-0.00265761 -0.086053312 -0.04385829 2.3509883e-38
-0.00071715098 -0.086716175 -0.046870708 2.2402819e-38
0.0012636958 -0.087605879 -0.050914049 2.3509527e-38
0.0031346595 -0.087605879 -0.050914049 2.3509527e-38
0.0051009646 -0.088252664 -0.053853393 2.3509527e-38
0.0072189709 -0.089809433 -0.060928226 2.3509527e-38
0.0093568107 -0.091335744 -0.067864656 2.3509883e-38
0.011371854 -0.092003286 -0.070898294 2.3509883e-38
0.013277854 -0.092003286 -0.070898294 2.3509883e-38
0.015183858 -0.092003286 -0.070898294 2.3509883e-38
0.01752102 -0.094211861 -0.080935359 2.3417687e-38
0.019444618 -0.094211861 -0.080935359 2.2956712e-38
0.02136822 -0.094211861 -0.080935359 2.3325856e-38
0.023673803 -0.095955089 -0.088857532 2.341805e-38
0.025963932 -0.097507954 -0.095914602 2.3417691e-38
0.027913798 -0.097507954 -0.095914602 2.2864526e-38
0.030021235 -0.098156333 -0.098861217 2.295672e-38
0.032201443 -0.099053472 -0.10293829 2.3417691e-38
0.03416362 -0.099053472 -0.10293829 2.323402e-38
0.036125805 -0.099053472 -0.10293829 2.2313872e-38
0.038087983 -0.099053472 -0.10293829 1.2912445e-38
0.04005016 -0.099053472 -0.10293829 9.0427584e-39
0.042012338 -0.099053472 -0.10293829 6.2801405e-39
0.043974523 -0.099053472 -0.10293829 3.4249738e-39
0.0459367 -0.099053472 -0.10293829 1.9520228e-39
0.047898877 -0.099053472 -0.10293829 5.734224e-39
0.049861055 -0.099053472 -0.10293829 6.2870573e-39
0.051823232 -0.099053472 -0.10293829 5.3654751e-39
0.053785421 -0.099053472 -0.10293829 5.9172182e-39
0.055747591 -0.099053472 -0.10293829 6.4693116e-39
0.057709776 -0.099053472 -0.10293829 7.0213965e-39
0.06810274 -0.10563703 -0.13285768 1.0065998e-38
0.070117377 -0.10563703 -0.13285768 9.8837644e-39
0.072132014 -0.10563703 -0.13285768 9.237672e-39
0.074146651 -0.10563703 -0.13285768 9.7908457e-39
0.075801529 -0.10477705 -0.1289494 9.9745153e-39
0.077809311 -0.10477705 -0.1289494 9.1451106e-39
0.079817094 -0.10477705 -0.1289494 9.0525506e-39
0.081824876 -0.10477705 -0.1289494 8.0373169e-39
0.08273726 -0.10234386 -0.11789167 6.7462151e-39
0.083922558 -0.100591 -0.10992575 4.4416789e-39
0.085896976 -0.100591 -0.10992575 2.6888802e-39
0.088702448 -0.10234386 -0.11789167 2.8729085e-39
0.090690844 -0.10234386 -0.11789167 3.6097519e-39
0.09267924 -0.10234386 -0.11789167 3.9788903e-39
0.095101722 -0.1032155 -0.12185287 4.2554758e-39
0.097440623 -0.10389452 -0.12493873 5.2663907e-39
0.099894948 -0.10477705 -0.1289494 7.4733279e-39
0.10190273 -0.10477705 -0.1289494 4.8889622e-39
0.10436621 -0.10563703 -0.13285768 2.7688004e-39
0.10638084 -0.10563703 -0.13285768 3.0828566e-44
-0.032395083 -0.087911904 -0.04385829 2.2958873e-38
-0.030533865 -0.087247536 -0.040862918 2.2407494e-38
-0.028683137 -0.086586922 -0.037884474 2.2406772e-38
-0.026845682 -0.085687637 -0.033829927 2.2958867e-38
-0.025004674 -0.085687637 -0.033829927 2.3234379e-38
-0.023138784 -0.086586922 -0.037884474 2.3234379e-38
-0.021290665 -0.086586922 -0.037884474 2.3234379e-38
-0.019413825 -0.087247536 -0.040862918 2.3234379e-38
-0.017560486 -0.087247536 -0.040862918 2.341805e-38
-0.015628142 -0.088580042 -0.046870708 2.341805e-38
-0.013809164 -0.087911904 -0.04385829 2.3509527e-38
-0.011950572 -0.087911904 -0.04385829 2.2679773e-38
-0.01009198 -0.087911904 -0.04385829 2.3509527e-38
-0.008233388 -0.087911904 -0.04385829 2.3509886e-38
-0.0063747941 -0.087911904 -0.04385829 2.2034039e-38
-0.004516202 -0.087911904 -0.04385829 2.3324775e-38
-0.00265761 -0.087911904 -0.04385829 2.3509883e-38
-0.00071715098 -0.088580042 -0.046870708 2.3509527e-38
0.0012636958 -0.089476839 -0.050914049 2.3509168e-38
0.0031346595 -0.089476839 -0.050914049 2.3509168e-38
0.0050056232 -0.089476839 -0.050914049 2.3509527e-38
0.0070820292 -0.090809584 -0.056922913 2.3509527e-38
0.0092151379 -0.09236221 -0.06392312 2.3509527e-38
0.011257495 -0.093236431 -0.067864656 2.3509883e-38
0.013158179 -0.093236431 -0.067864656 2.350988e-38
0.015183858 -0.093909279 -0.070898294 2.350988e-38
0.017388292 -0.095450163 -0.077845573 2.350988e-38
0.019306473 -0.095450163 -0.077845573 2.3509883e-38
0.021224659 -0.095450163 -0.077845573 2.3417691e-38
0.023482122 -0.097010851 -0.08488214 2.3232944e-38
0.025611293 -0.097892582 -0.088857532 2.3325497e-38
0.027705543 -0.098564804 -0.091888309 2.3417333e-38
0.029648349 -0.098564804 -0.091888309 2.3325138e-38
0.031976268 -0.10011137 -0.098861217 2.2314231e-38
0.033931296 -0.10011137 -0.098861217 2.1948682e-38
0.035886329 -0.10011137 -0.098861217 1.8266981e-38
0.037841361 -0.10011137 -0.098861217 4.8071348e-39
0.039796393 -0.10011137 -0.098861217 3.3338026e-39
0.041751418 -0.10011137 -0.098861217 2.6887961e-39
0.043706451 -0.10011137 -0.098861217 3.4274513e-39
0.0459367 -0.10101564 -0.10293829 6.8394281e-39
0.047898877 -0.10101564 -0.10293829 7.5777344e-39
0.049861055 -0.10101564 -0.10293829 9.0521709e-39
0.051823232 -0.10101564 -0.10293829 6.3788774e-39
0.053785421 -0.10101564 -0.10293829 6.378534e-39
0.055747591 -0.10101564 -0.10293829 7.6692785e-39
0.057709776 -0.10101564 -0.10293829 7.8536669e-39
0.059671946 -0.10101564 -0.10293829 8.3149996e-39
0.064073451 -0.10765167 -0.13285768 8.5915809e-39
0.066088103 -0.10765167 -0.13285768 8.5919368e-39
0.06810274 -0.10765167 -0.13285768 9.9745153e-39
0.070117377 -0.10765167 -0.13285768 1.071208e-38
0.072132014 -0.10765167 -0.13285768 1.0619522e-38
0.074146651 -0.10765167 -0.13285768 1.1264888e-38
0.075801529 -0.10678484 -0.1289494 1.1079775e-38
0.077809311 -0.10678484 -0.1289494 9.6046426e-39
0.079817094 -0.10678484 -0.1289494 8.9589075e-39
0.081824876 -0.10678484 -0.1289494 7.7596426e-39
0.08273726 -0.10433225 -0.11789167 7.2982987e-39
0.083619572 -0.10189888 -0.10692048 4.9934052e-39
0.085588731 -0.10189888 -0.10692048 3.3335209e-39
0.088278867 -0.10343169 -0.1138314 3.5171877e-39
0.090260141 -0.10343169 -0.1138314 4.0696398e-39
0.092241414 -0.10343169 -0.1138314 4.3465826e-39
0.094667636 -0.10433225 -0.11789167 5.1752629e-39
0.097097062 -0.10521083 -0.12185287 6.3716495e-39
0.099441372 -0.10589527 -0.12493873 7.5655235e-39
0.10144214 -0.10589527 -0.12493873 5.9953125e-39
0.10436621 -0.10765167 -0.13285768 4.2439319e-39
0.10638084 -0.10765167 -0.13285768 2.7877852e-40
-0.036112268 -0.089770496 -0.04385829 2.3047837e-38
-0.034253675 -0.089770496 -0.04385829 2.3234379e-38
-0.032395083 -0.089770496 -0.04385829 2.2867037e-38
-0.030533865 -0.089100882 -0.040862918 2.2775202e-38
-0.028683137 -0.088435039 -0.037884474 2.3142544e-38
-0.026845682 -0.087528646 -0.033829927 2.3234379e-38
-0.025004674 -0.087528646 -0.033829927 2.341805e-38
-0.023138784 -0.088435039 -0.037884474 2.304927e-38
-0.021290665 -0.088435039 -0.037884474 2.3141467e-38
-0.019413825 -0.089100882 -0.040862918 2.341805e-38
-0.017560486 -0.089100882 -0.040862918 2.341805e-38
-0.01574631 -0.088435039 -0.037884474 2.3509527e-38
-0.013898193 -0.088435039 -0.037884474 2.3232944e-38
-0.012000465 -0.089100882 -0.040862918 2.3509527e-38
-0.010147124 -0.089100882 -0.040862918 2.3232944e-38
-0.0082937842 -0.089100882 -0.040862918 2.3509527e-38
-0.006440443 -0.089100882 -0.040862918 2.3509527e-38
-0.0045871036 -0.089100882 -0.040862918 2.3140384e-38
-0.0027337624 -0.089100882 -0.040862918 2.3509527e-38
-0.00079901796 -0.089770496 -0.04385829 2.3232583e-38
0.0011467235 -0.090443924 -0.046870708 2.3509168e-38
0.0030105961 -0.090443924 -0.046870708 2.3509168e-38
0.0050056232 -0.091347814 -0.050914049 2.3509168e-38
0.0069770841 -0.092004895 -0.053853393 2.3509527e-38
0.0091074919 -0.093586475 -0.060928226 2.3509527e-38
0.011108912 -0.094255984 -0.06392312 2.3509527e-38
0.013158179 -0.095137119 -0.067864656 2.3509883e-38
0.015183858 -0.095815286 -0.070898294 2.3509883e-38
0.017215848 -0.096470937 -0.073831201 2.3048905e-38
0.019126993 -0.096470937 -0.073831201 2.341805e-38
0.021038137 -0.096470937 -0.073831201 2.341805e-38
0.023142841 -0.097368345 -0.077845573 2.2589017e-38
0.025412641 -0.098941371 -0.08488214 2.3142544e-38
0.027548783 -0.099830076 -0.088857532 2.2958873e-38
0.029486272 -0.099830076 -0.088857532 1.622933e-38
0.031423762 -0.099830076 -0.088857532 7.2885092e-39
0.03376339 -0.10140768 -0.095914602 4.0674145e-39
0.035713252 -0.10140768 -0.095914602 1.4041011e-41
0.037663121 -0.10140768 -0.095914602 7.915935e-42
0.039362375 -0.1005076 -0.091888309 6.4739989e-42
0.041305181 -0.1005076 -0.091888309 1.4761278e-41
0.043706451 -0.1020664 -0.098861217 9.4201673e-39
0.0459367 -0.10297783 -0.10293829 9.0521232e-39
0.048174668 -0.10386805 -0.10692048 1.0250327e-38
0.050143834 -0.10386805 -0.10692048 8.9596123e-39
0.051823232 -0.10297783 -0.10293829 7.4841431e-39
0.053785421 -0.10297783 -0.10293829 8.6830605e-39
0.055747591 -0.10297783 -0.10293829 1.0158558e-38
0.057709776 -0.10297783 -0.10293829 9.9748853e-39
0.060346998 -0.094255984 -0.06392312 1.1911696e-38
0.062240772 -0.094255984 -0.06392312 1.2186845e-38
0.06387461 -0.093586475 -0.060928226 1.3200275e-38
0.065763138 -0.093586475 -0.060928226 1.2831492e-38
0.067651652 -0.093586475 -0.060928226 1.2646738e-38
0.06954018 -0.093586475 -0.060928226 1.0986135e-38
0.073675655 -0.098941371 -0.08488214 7.9436765e-39
0.075606175 -0.098941371 -0.08488214 6.2834307e-39
0.079681255 -0.10386805 -0.10692048 4.3473197e-39
0.081650414 -0.10386805 -0.10692048 3.4246403e-39
0.083218105 -0.10297783 -0.10293829 2.963658e-39
0.085180275 -0.10297783 -0.10293829 3.3320776e-39
0.08755789 -0.10386805 -0.10692048 4.4376992e-39
0.089845844 -0.10453986 -0.10992575 4.5298935e-39
0.091820277 -0.10453986 -0.10992575 4.3458553e-39
0.094222702 -0.10541297 -0.1138314 5.451484e-39
0.097097062 -0.10720618 -0.12185287 7.3861531e-39
0.099441372 -0.10789602 -0.12493873 8.119049e-39
0.10144214 -0.10789602 -0.12493873 7.1030894e-39
0.10391051 -0.10879262 -0.1289494 5.5350252e-39
0.1059183 -0.10879262 -0.1289494 3.7133008e-40
-0.036075611 -0.090283155 -0.037884474 2.3142544e-38
-0.03422749 -0.090283155 -0.037884474 2.2867037e-38
-0.032387208 -0.090954214 -0.040862918 2.2499695e-38
-0.030536491 -0.091629088 -0.04385829 2.2591531e-38
-0.028680526 -0.090954214 -0.040862918 2.341805e-38
-0.026827186 -0.090954214 -0.040862918 2.3509527e-38
-0.024973847 -0.090954214 -0.040862918 2.3509527e-38
-0.023138784 -0.090283155 -0.037884474 2.3509527e-38
-0.021290665 -0.090283155 -0.037884474 2.3416615e-38
-0.019384939 -0.091629088 -0.04385829 2.3324421e-38
-0.017560486 -0.090954214 -0.040862918 2.3416615e-38
-0.01574631 -0.090283155 -0.037884474 2.3509168e-38
-0.013898193 -0.090283155 -0.037884474 2.3509527e-38
-0.012000465 -0.090954214 -0.040862918 2.3509527e-38
-0.010147124 -0.090954214 -0.040862918 2.3509168e-38
-0.0082937842 -0.090954214 -0.040862918 2.3509527e-38
-0.006440443 -0.090954214 -0.040862918 2.3509527e-38
-0.0045871036 -0.090954214 -0.040862918 2.3509168e-38
-0.0027337624 -0.090954214 -0.040862918 2.3509168e-38
-0.00079901796 -0.091629088 -0.04385829 2.3509527e-38
0.0011467235 -0.092307791 -0.046870708 2.2864883e-38
0.0030105961 -0.092307791 -0.046870708 2.3141467e-38
0.0048744706 -0.092307791 -0.046870708 2.3417691e-38
0.0069770841 -0.093881011 -0.053853393 2.3509527e-38
0.0089635281 -0.094572589 -0.056922913 2.3509168e-38
0.010996013 -0.095475003 -0.060928226 2.3509168e-38
0.013002685 -0.096149758 -0.06392312 2.3509527e-38
0.015183858 -0.097721294 -0.070898294 2.3417333e-38
0.017215848 -0.098382086 -0.073831201 2.2588295e-38
0.019126993 -0.098382086 -0.073831201 2.3234379e-38
0.021038137 -0.098382086 -0.073831201 2.2867037e-38
0.023142841 -0.099286526 -0.077845573 2.2775202e-38
0.025412641 -0.10087189 -0.08488214 2.2316024e-38
0.027343161 -0.10087189 -0.08488214 1.8907668e-38
0.029273681 -0.10087189 -0.08488214 9.6891871e-39
0.031204205 -0.10087189 -0.08488214 3.6968243e-39
0.033134725 -0.10087189 -0.08488214 4.0641635e-39
0.035298746 -0.10176755 -0.088857532 1.9433081e-39
0.037419569 -0.1024504 -0.091888309 1.0227979e-39
0.039362375 -0.1024504 -0.091888309 1.2086423e-39
0.041305181 -0.1024504 -0.091888309 4.1603599e-39
0.051823232 -0.10494001 -0.10293829 9.0514941e-39
0.053785421 -0.10494001 -0.10293829 9.5128365e-39
0.055747591 -0.10494001 -0.10293829 9.7894234e-39
0.059508361 -0.093881011 -0.053853393 1.2739298e-38
0.062240772 -0.096149758 -0.06392312 1.2924041e-38
0.064134546 -0.096149758 -0.06392312 1.2738928e-38
0.065763138 -0.095475003 -0.060928226 1.2462341e-38
0.067651652 -0.095475003 -0.060928226 1.2000642e-38
0.06954018 -0.095475003 -0.060928226 1.0432597e-38
0.073675655 -0.10087189 -0.08488214 8.0351477e-39
0.075606175 -0.10087189 -0.08488214 6.1894372e-39
0.077923544 -0.10176755 -0.088857532 5.1756412e-39
0.079861037 -0.10176755 -0.088857532 4.1604075e-39
0.082104079 -0.1024504 -0.091888309 4.160762e-39
0.084762089 -0.10402142 -0.098861217 4.3455064e-39
0.08714246 -0.10494001 -0.10293829 4.4373377e-39
0.089527048 -0.10583721 -0.10692048 4.160748e-39
0.091496222 -0.10583721 -0.10692048 4.2529408e-39
0.093794711 -0.10651429 -0.10992575 5.2678088e-39
0.097097062 -0.10920154 -0.12185287 7.0177251e-39
0.099092402 -0.10920154 -0.12185287 8.3970568e-39
0.10108774 -0.10920154 -0.12185287 8.0257464e-39
0.10344288 -0.10989676 -0.12493873 5.6279257e-39
0.10544363 -0.10989676 -0.12493873 7.3988559e-43
-0.045077253 -0.088490874 -0.02185142 2.3509524e-38
-0.043257244 -0.088490874 -0.02185142 2.3509161e-38
-0.041471381 -0.089171067 -0.02484715 2.3509523e-38
-0.039704401 -0.09054333 -0.030890822 2.3325494e-38
-0.037923727 -0.092131287 -0.037884474 2.3233662e-38
-0.036075611 -0.092131287 -0.037884474 2.3050349e-38
-0.03422749 -0.092131287 -0.037884474 2.3142544e-38
-0.032387208 -0.092807561 -0.040862918 2.2958873e-38
-0.030536491 -0.09348768 -0.04385829 2.3142544e-38
-0.028680526 -0.092807561 -0.040862918 2.314075e-38
-0.026827186 -0.092807561 -0.040862918 2.3232583e-38
-0.024973847 -0.092807561 -0.040862918 2.332478e-38
-0.023138784 -0.092131287 -0.037884474 2.3416974e-38
-0.021290665 -0.092131287 -0.037884474 2.3509527e-38
-0.019384939 -0.09348768 -0.04385829 2.3509527e-38
-0.017526347 -0.09348768 -0.04385829 2.3509527e-38
-0.01574631 -0.092131287 -0.037884474 2.3141106e-38
-0.013898193 -0.092131287 -0.037884474 2.2955996e-38
-0.012000465 -0.092807561 -0.040862918 2.2864516e-38
-0.010147124 -0.092807561 -0.040862918 2.323258e-38
-0.0082937842 -0.092807561 -0.040862918 2.3509886e-38
-0.006440443 -0.092807561 -0.040862918 2.3509886e-38
-0.0045871036 -0.092807561 -0.040862918 2.341769e-38
-0.0027337624 -0.092807561 -0.040862918 2.341769e-38
-0.00079901796 -0.09348768 -0.04385829 2.341805e-38
0.0011467235 -0.094171658 -0.046870708 2.3234379e-38
0.0030105961 -0.094171658 -0.046870708 2.3142544e-38
0.0048744706 -0.094171658 -0.046870708 2.341805e-38
0.0068765869 -0.095089734 -0.050914049 2.3232944e-38
0.0088531999 -0.095757127 -0.053853393 2.2863803e-38
0.010996013 -0.097363517 -0.060928226 2.2863803e-38
0.012884534 -0.097363517 -0.060928226 2.332478e-38
0.014773055 -0.097363517 -0.060928226 2.3509527e-38
0.01679023 -0.098043531 -0.06392312 2.3509527e-38
0.018860228 -0.09893848 -0.067864656 2.3234379e-38
0.020760912 -0.09893848 -0.067864656 2.0285924e-38
0.022661593 -0.09893848 -0.067864656 1.5678303e-38
0.02471387 -0.099627286 -0.070898294 1.3559243e-38
0.026771571 -0.10029322 -0.073831201 1.0886649e-38
0.02889739 -0.10120471 -0.077845573 7.7537978e-39
0.030986223 -0.10190627 -0.080935359 7.0155111e-39
0.032909822 -0.10190627 -0.080935359 7.7509153e-39
0.035298746 -0.10370506 -0.088857532 1.1437667e-38
0.037419569 -0.1043932 -0.091888309 1.4297186e-38
0.054719783 -0.092807561 -0.040862918 1.3199199e-38
0.05657313 -0.092807561 -0.040862918 1.2829695e-38
0.059508361 -0.095757127 -0.053853393 1.1908091e-38
0.061384477 -0.095757127 -0.053853393 1.0064531e-38
0.063260593 -0.095757127 -0.053853393 9.5117127e-39
0.065763138 -0.097363517 -0.060928226 9.1429302e-39
0.067651652 -0.097363517 -0.060928226 9.2344069e-39
0.07138183 -0.10190627 -0.080935359 8.9560222e-39
0.073305435 -0.10190627 -0.080935359 7.6649232e-39
0.075606175 -0.10280241 -0.08488214 6.280907e-39
0.077923544 -0.10370506 -0.088857532 5.4507834e-39
0.079861037 -0.10370506 -0.088857532 4.6210213e-39
0.082104079 -0.1043932 -0.091888309 4.6206584e-39
0.084459864 -0.10530742 -0.095914602 4.6210115e-39
0.08714246 -0.1069022 -0.10293829 4.5288117e-39
0.08910463 -0.1069022 -0.10293829 4.5291648e-39
0.091496222 -0.10780637 -0.10692048 4.9901415e-39
0.093794711 -0.10848872 -0.10992575 6.4659877e-39
0.096656032 -0.11029746 -0.11789167 8.2166186e-39
0.099092402 -0.11119686 -0.12185287 9.3193621e-39
0.10108774 -0.11119686 -0.12185287 9.040606e-39
0.10308308 -0.11119686 -0.12185287 6.6413504e-39
0.10507842 -0.11119686 -0.12185287 1.4545478e-42
-0.045077253 -0.090310872 -0.02185142 2.3509521e-38
-0.043257244 -0.090310872 -0.02185142 2.3508807e-38
-0.041471381 -0.090996325 -0.02484715 2.3508807e-38
-0.03967518 -0.091685757 -0.027860284 2.3508809e-38
-0.037868548 -0.092379183 -0.030890822 2.3508809e-38
-0.036050729 -0.093051672 -0.033829927 2.3508451e-38
-0.034209717 -0.093051672 -0.033829927 2.3508451e-38
-0.032379374 -0.093979403 -0.037884474 2.3508092e-38
-0.030533865 -0.094660893 -0.040862918 2.3509168e-38
-0.028683137 -0.093979403 -0.037884474 2.3509886e-38
-0.026835021 -0.093979403 -0.037884474 2.350988e-38
-0.0249869 -0.093979403 -0.037884474 2.3509883e-38
-0.023138784 -0.093979403 -0.037884474 2.3233652e-38
-0.021290665 -0.093979403 -0.037884474 2.3417687e-38
-0.019413825 -0.094660893 -0.040862918 2.350988e-38
-0.017560486 -0.094660893 -0.040862918 2.350988e-38
-0.01574631 -0.093979403 -0.037884474 2.3326208e-38
-0.013898193 -0.093979403 -0.037884474 2.350988e-38
-0.012000465 -0.094660893 -0.040862918 2.3418043e-38
-0.010147124 -0.094660893 -0.040862918 2.3509879e-38
-0.0082937842 -0.094660893 -0.040862918 2.3418043e-38
-0.006440443 -0.094660893 -0.040862918 2.3418043e-38
-0.0045871036 -0.094660893 -0.040862918 2.2957782e-38
-0.0027337624 -0.094660893 -0.040862918 2.2773388e-38
-0.00079901796 -0.095346272 -0.04385829 2.2866663e-38
0.0011467235 -0.09603554 -0.046870708 2.30507e-38
0.0030105961 -0.09603554 -0.046870708 2.3142537e-38
0.0048744706 -0.09603554 -0.046870708 2.3142174e-38
0.0068765869 -0.096960694 -0.050914049 2.2496085e-38
0.0087475507 -0.096960694 -0.050914049 2.1849997e-38
0.010996013 -0.099252045 -0.060928226 2.1941115e-38
0.012884534 -0.099252045 -0.060928226 2.267868e-38
0.014773055 -0.099252045 -0.060928226 2.3416248e-38
0.016661581 -0.099252045 -0.060928226 2.3139664e-38
0.018684004 -0.099937305 -0.06392312 2.2771607e-38
0.020577773 -0.099937305 -0.06392312 1.9268898e-38
0.022471547 -0.099937305 -0.06392312 1.5582515e-38
0.024365321 -0.099937305 -0.06392312 1.4477968e-38
0.026462961 -0.10083917 -0.067864656 1.3648569e-38
0.028525874 -0.10153329 -0.070898294 1.217488e-38
0.030593861 -0.10220437 -0.073831201 1.1991215e-38
0.032505006 -0.10220437 -0.073831201 1.1346213e-38
0.03441615 -0.10220437 -0.073831201 1.4574147e-38
0.036327291 -0.10220437 -0.073831201 1.6419153e-38
0.052866448 -0.094660893 -0.040862918 1.1448558e-38
0.054719783 -0.094660893 -0.040862918 1.1909525e-38
0.05657313 -0.094660893 -0.040862918 1.1540014e-38
0.058675937 -0.095346272 -0.04385829 1.0710608e-38
0.060790695 -0.09603554 -0.046870708 9.0507289e-39
0.063260593 -0.097633243 -0.053853393 8.3131667e-39
0.065763138 -0.099252045 -0.060928226 7.9436653e-39
0.067651652 -0.099252045 -0.060928226 8.311729e-39
0.070727892 -0.10220437 -0.073831201 8.5868767e-39
0.073305435 -0.10382988 -0.080935359 7.756393e-39
0.075229041 -0.10382988 -0.080935359 6.188347e-39
0.077536695 -0.10473295 -0.08488214 5.1738322e-39
0.079861037 -0.10564254 -0.088857532 4.3433484e-39
0.082104079 -0.10633601 -0.091888309 4.2511486e-39
0.084459864 -0.10725726 -0.095914602 4.3429785e-39
0.086409725 -0.10725726 -0.095914602 4.5277243e-39
0.088672154 -0.10793148 -0.098861217 4.8050244e-39
0.091496222 -0.10977553 -0.10692048 5.8195323e-39
0.093794711 -0.11046316 -0.10992575 7.6634407e-39
0.096656032 -0.11228584 -0.11789167 9.5059113e-39
0.098644428 -0.11228584 -0.11789167 1.0886321e-38
0.10108774 -0.11319222 -0.12185287 1.0791597e-38
0.10308308 -0.11319222 -0.12185287 7.8402467e-39
0.10507842 -0.11319222 -0.12185287 1.0930128e-42
-0.046897259 -0.092130885 -0.02185142 2.341805e-38
-0.045077253 -0.092130885 -0.02185142 2.2955999e-38
-0.043257244 -0.092130885 -0.02185142 2.3508451e-38
-0.041437238 -0.092130885 -0.02185142 2.3508809e-38
-0.039646123 -0.092821583 -0.02484715 2.3508451e-38
-0.037820861 -0.092821583 -0.02484715 2.3508451e-38
-0.036014095 -0.093516305 -0.027860284 2.3508451e-38
-0.034183551 -0.093516305 -0.027860284 2.3508092e-38
-0.032360978 -0.094215035 -0.030890822 2.3507374e-38
-0.0305277 -0.094892681 -0.033829927 2.350701e-38
-0.028683137 -0.09582752 -0.037884474 2.3232936e-38
-0.026835021 -0.09582752 -0.037884474 2.3234374e-38
-0.0249869 -0.09582752 -0.037884474 2.3418045e-38
-0.023163665 -0.094892681 -0.033829927 2.3234374e-38
-0.021322656 -0.094892681 -0.033829927 2.3418045e-38
-0.019442547 -0.09582752 -0.037884474 2.258972e-38
-0.017594429 -0.09582752 -0.037884474 2.1667044e-38
-0.01574631 -0.09582752 -0.037884474 2.0561772e-38
-0.013898193 -0.09582752 -0.037884474 2.0376302e-38
-0.012000465 -0.09651424 -0.040862918 1.9824207e-38
-0.010147124 -0.09651424 -0.040862918 1.9454343e-38
-0.008233388 -0.097204864 -0.04385829 1.844127e-38
-0.006440443 -0.09651424 -0.040862918 1.7427118e-38
-0.0045871036 -0.09651424 -0.040862918 1.6505162e-38
-0.0027337624 -0.09651424 -0.040862918 1.6412963e-38
-0.00071715098 -0.097899407 -0.046870708 1.6781746e-38
0.00097291823 -0.09651424 -0.040862918 1.6505881e-38
0.0028262576 -0.09651424 -0.040862918 1.7150534e-38
0.004679597 -0.09651424 -0.040862918 1.7979213e-38
0.0067383451 -0.097899407 -0.046870708 1.8163244e-38
0.0086022196 -0.097899407 -0.046870708 1.7978134e-38
0.014773055 -0.10114056 -0.060928226 1.8528436e-38
0.016661581 -0.10114056 -0.060928226 1.9358198e-38
0.018684004 -0.10183108 -0.06392312 1.8529164e-38
0.020577773 -0.10183108 -0.06392312 1.6593421e-38
0.022471547 -0.10183108 -0.06392312 1.6409754e-38
0.024365321 -0.10183108 -0.06392312 1.9176708e-38
0.026462961 -0.10273984 -0.067864656 2.1297932e-38
0.028525874 -0.10343929 -0.070898294 2.1206099e-38
0.030593861 -0.1041155 -0.073831201 2.0287031e-38
0.032505006 -0.1041155 -0.073831201 1.8261984e-38
0.03441615 -0.1041155 -0.073831201 1.6144375e-38
0.036570121 -0.10504107 -0.077845573 1.4208278e-38
0.03848831 -0.10504107 -0.077845573 1.3288131e-38
0.048937824 -0.09582752 -0.037884474 1.0988667e-38
0.05078594 -0.09582752 -0.037884474 9.6057216e-39
0.052634057 -0.09582752 -0.037884474 8.4990027e-39
0.054482169 -0.09582752 -0.037884474 7.945459e-39
0.05657313 -0.09651424 -0.040862918 8.0365644e-39
0.058675937 -0.097204864 -0.04385829 8.12876e-39
0.060790695 -0.097899407 -0.046870708 8.7741336e-39
0.063005485 -0.098831654 -0.050914049 8.2206067e-39
0.066028319 -0.10183108 -0.06392312 8.1276922e-39
0.067922093 -0.10183108 -0.06392312 8.4957517e-39
0.070457928 -0.10343929 -0.070898294 8.4939538e-39
0.073015608 -0.10504107 -0.077845573 7.2950505e-39
0.07493379 -0.10504107 -0.077845573 5.6348075e-39
0.077536695 -0.10666345 -0.08488214 4.7117666e-39
0.079467215 -0.10666345 -0.08488214 6.0014236e-39
0.082104079 -0.10827883 -0.091888309 6.186168e-39
0.084046878 -0.10827883 -0.091888309 6.6467818e-39
0.086409725 -0.10920714 -0.095914602 7.2003059e-39
0.088672154 -0.10988651 -0.098861217 8.0300652e-39
0.091496222 -0.11174469 -0.10692048 9.2296804e-39
0.093794711 -0.11243759 -0.10992575 1.0981033e-38
0.096656032 -0.11427425 -0.11789167 1.227105e-38
0.098644428 -0.11427425 -0.11789167 1.2729144e-38
0.10108774 -0.11518754 -0.12185287 1.2358558e-38
0.10308308 -0.11518754 -0.12185287 9.0380682e-39
0.10507842 -0.11518754 -0.12185287 3.671402e-43
-0.048772417 -0.094646841 -0.02484715 2.2132353e-38
-0.046897259 -0.093950883 -0.02185142 2.222383e-38
-0.045077253 -0.093950883 -0.02185142 2.2867037e-38
-0.043257244 -0.093950883 -0.02185142 2.2865602e-38
-0.041437238 -0.093950883 -0.02185142 2.332478e-38
-0.039617233 -0.093950883 -0.02185142 2.3508808e-38
-0.037820861 -0.094646841 -0.02484715 2.3508804e-38
-0.035995603 -0.094646841 -0.02484715 2.3508441e-38
-0.034170344 -0.094646841 -0.02484715 2.3508435e-38
-0.032345086 -0.094646841 -0.02484715 2.3508435e-38
-0.030522466 -0.095346853 -0.027860284 2.3508437e-38
-0.028683137 -0.097675636 -0.037884474 2.350988e-38
-0.026835021 -0.097675636 -0.037884474 2.295887e-38
-0.025004674 -0.096733689 -0.033829927 2.2774116e-38
-0.023163665 -0.096733689 -0.033829927 2.2958867e-38
-0.021322656 -0.096733689 -0.033829927 2.2958507e-38
-0.019442547 -0.097675636 -0.037884474 2.1484093e-38
-0.017594429 -0.097675636 -0.037884474 1.9547266e-38
-0.01574631 -0.097675636 -0.037884474 1.7980658e-38
-0.013898193 -0.097675636 -0.037884474 1.8349077e-38
-0.012000465 -0.098367572 -0.040862918 1.7888818e-38
-0.01009198 -0.099063456 -0.04385829 1.7703705e-38
-0.0081726471 -0.099763289 -0.046870708 1.7335641e-38
-0.0063747941 -0.099063456 -0.04385829 1.6690269e-38
-0.0045871036 -0.098367572 -0.040862918 1.6229291e-38
-0.0027337624 -0.098367572 -0.040862918 1.6229291e-38
-0.00071715098 -0.099763289 -0.046870708 1.6598076e-38
0.00088675041 -0.097675636 -0.037884474 1.7150534e-38
0.0027348688 -0.097675636 -0.037884474 1.7518961e-38
0.004679597 -0.098367572 -0.040862918 1.8163607e-38
0.0067383451 -0.099763289 -0.046870708 1.8716418e-38
0.0086022196 -0.099763289 -0.046870708 1.8992286e-38
0.017215848 -0.10602666 -0.073831201 1.8620269e-38
0.018684004 -0.10372485 -0.06392312 1.88965e-38
0.020577773 -0.10372485 -0.06392312 1.8896864e-38
0.022471547 -0.10372485 -0.06392312 1.9635158e-38
0.024365321 -0.10372485 -0.06392312 2.1848217e-38
0.02661987 -0.10534529 -0.070898294 2.3416256e-38
0.028682716 -0.10602666 -0.073831201 2.3416974e-38
0.030593861 -0.10602666 -0.073831201 2.2313513e-38
0.032505006 -0.10602666 -0.073831201 1.8448171e-38
0.03441615 -0.10602666 -0.073831201 1.3842382e-38
0.036327291 -0.10602666 -0.073831201 1.236726e-38
0.046794679 -0.096733689 -0.033829927 1.0804642e-38
0.048635688 -0.096733689 -0.033829927 9.7904772e-39
0.05078594 -0.097675636 -0.037884474 8.5919228e-39
0.052634057 -0.097675636 -0.037884474 7.6688735e-39
0.054482169 -0.097675636 -0.037884474 7.2997196e-39
0.05657313 -0.098367572 -0.040862918 7.7603278e-39
0.058675937 -0.099063456 -0.04385829 8.4053371e-39
0.061134525 -0.10070263 -0.050914049 8.8648859e-39
0.063005485 -0.10070263 -0.050914049 8.6801373e-39
0.065408491 -0.10209858 -0.056922913 8.7719728e-39
0.067651652 -0.10302909 -0.060928226 9.0474793e-39
0.069815852 -0.10372485 -0.06392312 8.7698134e-39
0.072363921 -0.10534529 -0.070898294 7.8471341e-39
0.07493379 -0.10695927 -0.077845573 6.9244561e-39
0.077152632 -0.10767709 -0.080935359 6.8308171e-39
0.079467215 -0.10859399 -0.08488214 6.2772776e-39
0.081798531 -0.10951753 -0.088857532 7.0141168e-39
0.084046878 -0.11022164 -0.091888309 7.9357087e-39
0.086409725 -0.11115701 -0.095914602 8.9502124e-39
0.088672154 -0.11184154 -0.098861217 1.0056916e-38
0.091496222 -0.11371385 -0.10692048 1.1163977e-38
0.093794711 -0.11441202 -0.10992575 1.2269961e-38
0.096656032 -0.11626263 -0.11789167 1.3098642e-38
0.098644428 -0.11626263 -0.11789167 1.4019516e-38
0.10063282 -0.11626263 -0.11789167 1.3371982e-38
0.10308308 -0.1171829 -0.12185287 9.8674617e-39
0.10507842 -0.1171829 -0.12185287 5.6051939e-45
-0.050537273 -0.095770895 -0.02185142 1.0339299e-38
-0.048717268 -0.095770895 -0.02185142 1.0797389e-38
-0.046897259 -0.095770895 -0.02185142 1.5405717e-38
-0.045077253 -0.095770895 -0.02185142 2.2132353e-38
-0.043257244 -0.095770895 -0.02185142 2.2499695e-38
-0.041437238 -0.095770895 -0.02185142 2.2958873e-38
-0.039617233 -0.095770895 -0.02185142 2.341805e-38
-0.037820861 -0.096472099 -0.02484715 2.3509524e-38
-0.035995603 -0.096472099 -0.02484715 2.3509154e-38
-0.034170344 -0.096472099 -0.02484715 2.350915e-38
-0.032345086 -0.096472099 -0.02484715 2.3509504e-38
-0.030522466 -0.097177386 -0.027860284 2.3509511e-38
-0.028683137 -0.099523753 -0.037884474 2.2772321e-38
-0.026835021 -0.099523753 -0.037884474 1.807215e-38
-0.025004674 -0.098574698 -0.033829927 1.3923345e-38
-0.023163665 -0.098574698 -0.033829927 1.2724802e-38
-0.021322656 -0.098574698 -0.033829927 1.3370527e-38
-0.019413825 -0.10022092 -0.040862918 1.3923701e-38
-0.017594429 -0.099523753 -0.037884474 1.4292481e-38
-0.01574631 -0.099523753 -0.037884474 1.4845652e-38
-0.013898193 -0.099523753 -0.037884474 1.6136746e-38
-0.012000465 -0.10022092 -0.040862918 1.6136745e-38
-0.01009198 -0.10092205 -0.04385829 1.6505527e-38
-0.0080911191 -0.10257359 -0.050914049 1.7335644e-38
-0.0062201554 -0.10257359 -0.050914049 1.7980295e-38
-0.0045871036 -0.10022092 -0.040862918 1.8165402e-38
-0.0027337624 -0.10022092 -0.040862918 1.8625661e-38
-0.000880423 -0.10022092 -0.040862918 1.8994091e-38
0.00088675041 -0.099523753 -0.037884474 1.8717508e-38
0.0027348688 -0.099523753 -0.037884474 1.8624236e-38
0.020577773 -0.10561861 -0.06392312 2.3230413e-38
0.022471547 -0.10561861 -0.06392312 2.3509165e-38
0.024365321 -0.10561861 -0.06392312 2.3509168e-38
0.026259091 -0.10561861 -0.06392312 2.3509168e-38
0.028682716 -0.1079378 -0.073831201 2.2033691e-38
0.030593861 -0.1079378 -0.073831201 1.9548384e-38
0.032505006 -0.1079378 -0.073831201 1.6975934e-38
0.03441615 -0.1079378 -0.073831201 1.2739636e-38
0.036327291 -0.1079378 -0.073831201 1.2923677e-38
0.046580818 -0.097886756 -0.030890822 6.6561915e-39
0.048416678 -0.097886756 -0.030890822 6.2870419e-39
0.050252531 -0.097886756 -0.030890822 6.9313211e-39
0.052634057 -0.099523753 -0.037884474 7.9447387e-39
0.054482169 -0.099523753 -0.037884474 8.5897396e-39
0.056817345 -0.10092205 -0.04385829 8.958155e-39
0.058675937 -0.10092205 -0.04385829 9.41841e-39
0.061134525 -0.10257359 -0.050914049 9.2322237e-39
0.063005485 -0.10257359 -0.050914049 9.2322237e-39
0.065136708 -0.1032616 -0.053853393 9.4158961e-39
0.067289986 -0.10398008 -0.056922913 9.3233375e-39
0.06954018 -0.1049176 -0.060928226 9.0453101e-39
0.072363921 -0.1072513 -0.070898294 8.5836089e-39
0.074269928 -0.1072513 -0.070898294 8.6747199e-39
0.076461338 -0.1079378 -0.073831201 9.3193649e-39
0.078770153 -0.10887744 -0.077845573 9.4101186e-39
0.081798531 -0.11145501 -0.088857532 1.0148035e-38
0.084046878 -0.11216442 -0.091888309 1.1161822e-38
0.085989691 -0.11216442 -0.091888309 1.2083772e-38
0.088359587 -0.11310686 -0.095914602 1.3190474e-38
0.091066815 -0.11475091 -0.10293829 1.4204979e-38
0.093794711 -0.11638646 -0.10992575 1.4758153e-38
0.096656032 -0.11825104 -0.11789167 1.4849628e-38
0.098644428 -0.11825104 -0.11789167 1.5124773e-38
0.10063282 -0.11825104 -0.11789167 1.3832593e-38
0.10308308 -0.11917825 -0.12185287 1.0327715e-38
0.10507842 -0.11917825 -0.12185287 3.5873241e-43
-0.050457984 -0.096663594 -0.017919183 9.514242e-39
-0.048644874 -0.096663594 -0.017919183 8.2220501e-39
-0.046897259 -0.097590908 -0.02185142 1.052405e-38
-0.045077253 -0.097590908 -0.02185142 1.6238008e-38
-0.043257244 -0.097590908 -0.02185142 2.0937774e-38
-0.041437238 -0.097590908 -0.02185142 2.1489146e-38
-0.039617233 -0.097590908 -0.02185142 2.2316024e-38
-0.037797228 -0.097590908 -0.02185142 2.2867037e-38
-0.035995603 -0.098297372 -0.02484715 2.3142541e-38
-0.034170344 -0.098297372 -0.02484715 2.3418038e-38
-0.032345086 -0.098297372 -0.02484715 2.3418032e-38
-0.030519824 -0.098297372 -0.02484715 2.3325843e-38
-0.028683137 -0.10137187 -0.037884474 2.3234379e-38
-0.026835021 -0.10137187 -0.037884474 1.8532779e-38
-0.0249869 -0.10137187 -0.037884474 1.429106e-38
-0.023138784 -0.10137187 -0.037884474 1.3000321e-38
-0.021243531 -0.10278064 -0.04385829 1.2908481e-38
-0.019413825 -0.10207425 -0.040862918 1.3000677e-38
-0.017594429 -0.10137187 -0.037884474 1.4752391e-38
-0.01574631 -0.10137187 -0.037884474 1.7333866e-38
-0.013898193 -0.10137187 -0.037884474 1.6688854e-38
-0.011950572 -0.10278064 -0.04385829 1.6227873e-38
-0.01009198 -0.10278064 -0.04385829 1.6135674e-38
-0.0080318516 -0.10513772 -0.053853393 1.6873595e-38
-0.0061557358 -0.10513772 -0.053853393 1.807106e-38
-0.0042796182 -0.10513772 -0.053853393 1.8625309e-38
-0.0024035024 -0.10513772 -0.053853393 1.9361796e-38
-0.00071715098 -0.10349102 -0.046870708 1.9822779e-38
0.00097291823 -0.10207425 -0.040862918 1.9268538e-38
0.0192644 -0.083439633 0.038156509 2.332621e-38
0.029545296 -0.090292826 0.009095788 1.4309834e-38
0.031311039 -0.090292826 0.009095788 1.3203135e-38
0.037791055 -0.094535068 -0.0088932514 1.2097526e-38
0.039588343 -0.094535068 -0.0088932514 1.1083021e-38
0.042283069 -0.097590908 -0.02185142 8.9618053e-39
0.044103075 -0.097590908 -0.02185142 6.9327812e-39
0.045923088 -0.097590908 -0.02185142 6.4714373e-39
0.048190851 -0.099007934 -0.027860284 6.5621868e-39
0.050021391 -0.099007934 -0.027860284 7.3908601e-39
0.052317705 -0.10041572 -0.033829927 8.1280566e-39
0.054482169 -0.10137187 -0.037884474 8.5875914e-39
0.05657313 -0.10207425 -0.040862918 8.7719728e-39
0.058675937 -0.10278064 -0.04385829 9.1400309e-39
0.061134525 -0.10444455 -0.050914049 9.7843143e-39
0.063005485 -0.10444455 -0.050914049 9.9690587e-39
0.065136708 -0.10513772 -0.053853393 1.0521153e-38
0.067289986 -0.10586159 -0.056922913 1.0705182e-38
0.06954018 -0.10680611 -0.060928226 1.0427153e-38
0.072079353 -0.1084419 -0.067864656 9.8736148e-39
0.074269928 -0.10915731 -0.070898294 1.0148757e-38
0.076461338 -0.10984896 -0.073831201 1.0701206e-38
0.078770153 -0.11079563 -0.077845573 1.1622081e-38
0.082104079 -0.11410724 -0.091888309 1.2266723e-38
0.084046878 -0.11410724 -0.091888309 1.2819531e-38
0.085989691 -0.11410724 -0.091888309 1.3280864e-38
0.088359587 -0.11505674 -0.095914602 1.4018426e-38
0.091066815 -0.11671309 -0.10293829 1.4940735e-38
0.093794711 -0.11836089 -0.10992575 1.5309518e-38
0.096203975 -0.11928193 -0.1138314 1.5125125e-38
0.098185249 -0.11928193 -0.1138314 1.586197e-38
0.10063282 -0.12023942 -0.11789167 1.392478e-38
0.10262122 -0.12023942 -0.11789167 1.0511741e-38
0.10460962 -0.12023942 -0.11789167 0
-0.050457984 -0.098476708 -0.017919183 1.2836162e-38
-0.048644874 -0.098476708 -0.017919183 1.3018391e-38
-0.046897259 -0.099410906 -0.02185142 1.2924024e-38
-0.045077253 -0.099410906 -0.02185142 1.5134189e-38
-0.043257244 -0.099410906 -0.02185142 1.6423116e-38
-0.041437238 -0.099410906 -0.02185142 1.7987909e-38
-0.039617233 -0.099410906 -0.02185142 1.9830367e-38
-0.037797228 -0.099410906 -0.02185142 2.1580264e-38
-0.035977218 -0.099410906 -0.02185142 2.2591531e-38
-0.034157213 -0.099410906 -0.02185142 2.2775202e-38
-0.032337207 -0.099410906 -0.02185142 2.2958873e-38
-0.030519824 -0.10012263 -0.02484715 2.3050708e-38
-0.021219764 -0.10535492 -0.046870708 2.2312078e-38
-0.019384939 -0.10463922 -0.04385829 1.8900841e-38
-0.017560486 -0.1039276 -0.040862918 1.8348023e-38
-0.01574631 -0.10322 -0.037884474 2.0284129e-38
-0.013898193 -0.10322 -0.037884474 1.9915343e-38
-0.011900394 -0.10535492 -0.046870708 1.8808274e-38
-0.0099620828 -0.10631551 -0.050914049 1.7517533e-38
-0.0080318516 -0.10701384 -0.053853393 1.7241302e-38
-0.0061557358 -0.10701384 -0.053853393 1.770228e-38
-0.0044448981 -0.10535492 -0.046870708 1.8439842e-38
-0.0025810255 -0.10535492 -0.046870708 1.9268884e-38
0.026013803 -0.092058569 0.009095788 2.1305834e-38
0.027779549 -0.092058569 0.009095788 1.7627033e-38
0.029545296 -0.092058569 0.009095788 1.6708319e-38
0.031311039 -0.092058569 0.009095788 1.3850298e-38
0.033258568 -0.092752427 0.0061752796 1.0530904e-38
0.03580125 -0.095617667 -0.005885005 9.1476147e-39
0.037593264 -0.095617667 -0.005885005 8.5022509e-39
0.039588343 -0.096332356 -0.0088932514 7.9483611e-39
0.041798715 -0.097749382 -0.014857769 8.4082616e-39
0.043823849 -0.098476708 -0.017919183 8.1309559e-39
0.045923088 -0.099410906 -0.02185142 8.498295e-39
0.04796632 -0.10012263 -0.02484715 9.0500241e-39
0.050021391 -0.10083848 -0.027860284 9.4180793e-39
0.052317705 -0.10225673 -0.033829927 9.5088302e-39
0.05415871 -0.10225673 -0.033829927 9.692497e-39
0.05657313 -0.1039276 -0.040862918 1.0705923e-38
0.058675937 -0.10463922 -0.04385829 1.1995935e-38
0.061134525 -0.10631551 -0.050914049 1.1719334e-38
0.063005485 -0.10631551 -0.050914049 1.2456171e-38
0.065136708 -0.10701384 -0.053853393 1.3654355e-38
0.067012824 -0.10701384 -0.053853393 1.4483394e-38
0.069171496 -0.10774307 -0.056922913 1.4574147e-38
0.071709625 -0.10940616 -0.06392312 1.3928053e-38
0.074269928 -0.11106332 -0.070898294 1.3650382e-38
0.076175936 -0.11106332 -0.070898294 1.3834049e-38
0.078770153 -0.1127138 -0.077845573 1.4294661e-38
0.082104079 -0.11605005 -0.091888309 1.4662719e-38
0.084046878 -0.11605005 -0.091888309 1.4662353e-38
0.085989691 -0.11605005 -0.091888309 1.4662709e-38
0.088672154 -0.11770664 -0.098861217 1.5215879e-38
0.091066815 -0.11867525 -0.10293829 1.6138191e-38
0.093794711 -0.12033533 -0.10992575 1.6414775e-38
0.09576913 -0.12033533 -0.10992575 1.6230384e-38
0.098185249 -0.12126322 -0.1138314 1.6230384e-38
0.10016652 -0.12126322 -0.1138314 1.3924774e-38
0.10262122 -0.12222783 -0.11789167 1.0695409e-38
0.10460962 -0.12222783 -0.11789167 9.1835496e-41
-0.048717268 -0.10123092 -0.02185142 1.5507642e-38
-0.046897259 -0.10123092 -0.02185142 1.6059014e-38
-0.045077253 -0.10123092 -0.02185142 1.6333803e-38
-0.043257244 -0.10123092 -0.02185142 1.5962505e-38
-0.041437238 -0.10123092 -0.02185142 1.5868503e-38
-0.039617233 -0.10123092 -0.02185142 1.660426e-38
-0.0377662 -0.10028981 -0.017919183 2.0659398e-38
-0.03595309 -0.10028981 -0.017919183 2.2132353e-38
-0.034139976 -0.10028981 -0.017919183 2.2499695e-38
-0.032326866 -0.10028981 -0.017919183 2.2406783e-38
-0.021219764 -0.10721879 -0.046870708 2.3233303e-38
-0.019355889 -0.10721879 -0.046870708 2.1850378e-38
-0.017492015 -0.10721879 -0.046870708 2.0836224e-38
-0.015628142 -0.10721879 -0.046870708 2.0744384e-38
-0.013704008 -0.10818647 -0.050914049 2.1297556e-38
-0.011833047 -0.10818647 -0.050914049 2.1020606e-38
-0.0099620828 -0.10818647 -0.050914049 2.009865e-38
-0.0080911191 -0.10818647 -0.050914049 1.8715713e-38
-0.0063087726 -0.10721879 -0.046870708 1.7609363e-38
-0.0044448981 -0.10721879 -0.046870708 1.7701914e-38
-0.0025810255 -0.10721879 -0.046870708 1.8807543e-38
-0.000880423 -0.10578094 -0.040862918 1.9821342e-38
0.00097291823 -0.10578094 -0.040862918 2.3046045e-38
0.0087786382 -0.085674062 0.043150246 2.2867037e-38
0.010484676 -0.085674062 0.043150246 2.2407857e-38
0.012190714 -0.085674062 0.043150246 2.2499695e-38
0.022326961 -0.093105495 0.012099266 2.158134e-38
0.02408744 -0.093105495 0.012099266 2.1122163e-38
0.026013803 -0.093824327 0.009095788 2.057115e-38
0.027779549 -0.093824327 0.009095788 1.7812856e-38
0.029545296 -0.093824327 0.009095788 1.4865511e-38
0.031311039 -0.093824327 0.009095788 1.1638327e-38
0.033258568 -0.094523281 0.0061752796 9.5167518e-39
0.035223927 -0.095250636 0.003136158 8.9635808e-39
0.037593264 -0.09740968 -0.005885005 9.2394502e-39
0.039588343 -0.098129645 -0.0088932514 9.1461756e-39
0.041798715 -0.099557132 -0.014857769 8.7763141e-39
0.043823849 -0.10028981 -0.017919183 8.5904823e-39
0.045636963 -0.10028981 -0.017919183 8.6812332e-39
0.04796632 -0.10194789 -0.02484715 8.9563753e-39
0.050252531 -0.10339431 -0.030890822 9.4159101e-39
0.052317705 -0.10409774 -0.033829927 9.6917711e-39
0.05415871 -0.10409774 -0.033829927 1.024422e-38
0.05657313 -0.10578094 -0.040862918 1.1258007e-38
0.058675937 -0.10649781 -0.04385829 1.2363627e-38
0.061134525 -0.10818647 -0.050914049 1.2363613e-38
0.063005485 -0.10818647 -0.050914049 1.3653985e-38
0.065136708 -0.10888995 -0.053853393 1.4943644e-38
0.067012824 -0.10888995 -0.053853393 1.4758887e-38
0.069171496 -0.10962458 -0.056922913 1.5587206e-38
0.071709625 -0.11129995 -0.06392312 1.5033668e-38
0.074269928 -0.11296929 -0.070898294 1.3649292e-38
0.076175936 -0.11296929 -0.070898294 1.4939306e-38
0.078770153 -0.114632 -0.077845573 1.5399921e-38
0.081798531 -0.11726747 -0.088857532 1.5491751e-38
0.084046878 -0.11799283 -0.091888309 1.5306635e-38
0.085989691 -0.11799283 -0.091888309 1.5030046e-38
0.088359587 -0.11895646 -0.095914602 1.530663e-38
0.090627186 -0.11966167 -0.098861217 1.5767964e-38
0.093794711 -0.12230973 -0.10992575 1.5767962e-38
0.09576913 -0.12230973 -0.10992575 1.5306984e-38
0.097743563 -0.12230973 -0.10992575 1.4570498e-38
0.099717997 -0.12230973 -0.10992575 1.4292832e-38
0.10308308 -0.12516426 -0.12185287 1.1617363e-38
0.10507842 -0.12516426 -0.12185287 3.6841958e-40
-0.086652659 -0.094146177 0.015084982 1.0336025e-38
-0.084897406 -0.094146177 0.015084982 1.1813348e-38
-0.082978174 -0.093406871 0.018151581 1.2552005e-38
-0.081228308 -0.093406871 0.018151581 1.3658352e-38
-0.079478435 -0.093406871 0.018151581 1.430372e-38
-0.077876426 -0.094146177 0.015084982 1.4673582e-38
-0.076121189 -0.094146177 0.015084982 1.5043081e-38
-0.074365936 -0.094146177 0.015084982 1.5043799e-38
-0.072610699 -0.094146177 0.015084982 1.4491702e-38
-0.052357279 -0.10305093 -0.02185142 1.5970048e-38
-0.050537273 -0.10305093 -0.02185142 1.6521778e-38
-0.048717268 -0.10305093 -0.02185142 1.7534121e-38
-0.046897259 -0.10305093 -0.02185142 1.8085852e-38
-0.045077253 -0.10305093 -0.02185142 1.8360282e-38
-0.043257244 -0.10305093 -0.02185142 1.8266653e-38
-0.041437238 -0.10305093 -0.02185142 1.7803888e-38
-0.039579313 -0.10210292 -0.017919183 1.8263424e-38
-0.0377662 -0.10210292 -0.017919183 1.955235e-38
-0.035934303 -0.10136487 -0.014857769 2.0472857e-38
-0.034113675 -0.10065642 -0.011919141 1.9826061e-38
-0.032311086 -0.10065642 -0.011919141 1.9641308e-38
-0.019316899 -0.11005743 -0.050914049 2.3142185e-38
-0.017526347 -0.1083564 -0.04385829 2.3142185e-38
-0.015667755 -0.1083564 -0.04385829 2.3234379e-38
-0.013764269 -0.10908265 -0.046870708 2.2680488e-38
-0.011900394 -0.10908265 -0.046870708 2.2957431e-38
-0.0099620828 -0.11005743 -0.050914049 2.3326213e-38
-0.0081726471 -0.10908265 -0.046870708 2.3417687e-38
-0.0063087726 -0.10908265 -0.046870708 2.3418043e-38
-0.004516202 -0.1083564 -0.04385829 2.3418043e-38
-0.0027337624 -0.10763429 -0.040862918 2.350988e-38
-0.000880423 -0.10763429 -0.040862918 2.3509883e-38
0.00097291823 -0.10763429 -0.040862918 2.3508451e-38
0.0072608506 -0.088584006 0.038156509 2.2315307e-38
0.0086606657 -0.086659163 0.046140671 2.2224189e-38
0.010361462 -0.086659163 0.046140671 2.1948682e-38
0.012190714 -0.087380111 0.043150246 2.158134e-38
0.013989153 -0.087878346 0.041083574 2.1305834e-38
0.015834816 -0.088584006 0.038156509 1.9833955e-38
0.022326961 -0.094865978 0.012099266 1.6978438e-38
0.02408744 -0.094865978 0.012099266 1.4489521e-38
0.025847919 -0.094865978 0.012099266 1.30162e-38
0.027779549 -0.09559007 0.009095788 1.0806046e-38
0.029545296 -0.09559007 0.009095788 9.5178336e-39
0.031311039 -0.09559007 0.009095788 9.0557764e-39
0.033447731 -0.09702684 0.003136158 9.2394488e-39
0.035223927 -0.09702684 0.003136158 9.7915436e-39
0.037396636 -0.098480701 -0.0028944016 9.7904618e-39
0.039385278 -0.099201679 -0.005885005 9.1443665e-39
0.041798715 -0.10136487 -0.014857769 8.5897508e-39
0.043606456 -0.10136487 -0.014857769 9.4184283e-39
0.045414206 -0.10136487 -0.014857769 9.970516e-39
0.047743093 -0.10305093 -0.02185142 1.0891029e-38
0.050252531 -0.10523017 -0.030890822 1.1904094e-38
0.052634057 -0.10691623 -0.037884474 1.2640211e-38
0.054482169 -0.10691623 -0.037884474 1.3285216e-38
0.05657313 -0.10763429 -0.040862918 1.4391201e-38
0.058926813 -0.10908265 -0.046870708 1.5589018e-38
0.061134525 -0.11005743 -0.050914049 1.5865235e-38
0.063005485 -0.11005743 -0.050914049 1.6694271e-38
0.065136708 -0.11076607 -0.053853393 1.7247082e-38
0.067289986 -0.11150609 -0.056922913 1.660135e-38
0.06954018 -0.11247168 -0.060928226 1.7153442e-38
0.071709625 -0.11319371 -0.06392312 1.7152357e-38
0.075229041 -0.11729507 -0.080935359 1.5953092e-38
0.076851971 -0.11655019 -0.077845573 1.7243468e-38
0.078770153 -0.11655019 -0.077845573 1.6505179e-38
0.081798531 -0.11920498 -0.088857532 1.6596653e-38
0.084046878 -0.11993565 -0.091888309 1.613603e-38
0.085989691 -0.11993565 -0.091888309 1.5490658e-38
0.088359587 -0.12090631 -0.095914602 1.5489936e-38
0.090627186 -0.12161671 -0.098861217 1.5398461e-38
0.093794711 -0.12428416 -0.10992575 1.5214426e-38
0.09576913 -0.12428416 -0.10992575 1.4845643e-38
0.097743563 -0.12428416 -0.10992575 1.4754166e-38
0.099717997 -0.12428416 -0.10992575 1.4385384e-38
0.10308308 -0.12715961 -0.12185287 1.189395e-38
0.10507842 -0.12715961 -0.12185287 5.5281084e-40
-0.088227779 -0.095156729 0.018151581 1.3470312e-38
-0.086652659 -0.095901415 0.015084982 1.4026015e-38
-0.084897406 -0.095901415 0.015084982 1.3105871e-38
-0.082978174 -0.095156729 0.018151581 1.3475018e-38
-0.081228308 -0.095156729 0.018151581 1.3659409e-38
-0.079478435 -0.095156729 0.018151581 1.3659408e-38
-0.077876426 -0.095901415 0.015084982 1.3843799e-38
-0.076121189 -0.095901415 0.015084982 1.4029266e-38
-0.074365936 -0.095901415 0.015084982 1.4305853e-38
-0.072352253 -0.094440416 0.021101356 1.4214374e-38
-0.052357279 -0.10487093 -0.02185142 1.633452e-38
-0.050457984 -0.10391603 -0.017919183 1.707028e-38
-0.048644874 -0.10391603 -0.017919183 1.7530893e-38
-0.046897259 -0.10487093 -0.02185142 1.8451041e-38
-0.045077253 -0.10487093 -0.02185142 1.8726189e-38
-0.043257244 -0.10487093 -0.02185142 1.9462308e-38
-0.041437238 -0.10487093 -0.02185142 1.9184649e-38
-0.039579313 -0.10391603 -0.017919183 2.0473933e-38
-0.037742045 -0.10317262 -0.014857769 1.9918974e-38
-0.035916269 -0.10245901 -0.011919141 2.0839482e-38
-0.034113675 -0.10245901 -0.011919141 1.9271444e-38
-0.032311086 -0.10245901 -0.011919141 1.9824255e-38
-0.017526347 -0.11021499 -0.04385829 2.1759974e-38
-0.015667755 -0.11021499 -0.04385829 2.2036916e-38
-0.013764269 -0.11094652 -0.046870708 2.2958154e-38
-0.011900394 -0.11094652 -0.046870708 2.3142542e-38
-0.0099620828 -0.11192839 -0.050914049 2.3234379e-38
-0.0081726471 -0.11094652 -0.046870708 2.3418047e-38
-0.0063747941 -0.11021499 -0.04385829 2.3418045e-38
-0.004516202 -0.11021499 -0.04385829 2.3418045e-38
-0.0027337624 -0.10948761 -0.040862918 2.3141455e-38
-0.00096136611 -0.10876434 -0.037884474 2.2864869e-38
0.00088675041 -0.10876434 -0.037884474 2.3508801e-38
0.0026104627 -0.10777976 -0.033829927 2.3509164e-38
0.0044514714 -0.10777976 -0.033829927 2.341769e-38
0.0072608506 -0.090298802 0.038156509 2.2316024e-38
0.0086606657 -0.088359952 0.046140671 2.1856847e-38
