# .PCD v0.7 - Point Cloud Data file format
VERSION 0.7
FIELDS x y z rgb
SIZE 4 4 4 4
TYPE F F F F
COUNT 1 1 1 1
WIDTH 937
HEIGHT 1
VIEWPOINT 0 0 0 1 0 0 0
POINTS 937
DATA ascii
-0.0043329624 -0.094171658 -0.039751835 2.3509156e-38
-0.002469088 -0.094171658 -0.039751835 2.3325843e-38
-0.00061841961 -0.09348768 -0.036739416 2.295887e-38
0.0012401724 -0.09348768 -0.036739416 2.2683366e-38
0.0030987645 -0.09348768 -0.036739416 2.2591531e-38
0.0049573565 -0.09348768 -0.036739416 2.2499695e-38
0.0067818118 -0.092807561 -0.033744045 2.2866677e-38
0.0086351521 -0.092807561 -0.033744045 2.3233652e-38
0.010444104 -0.092131287 -0.030765601 2.3508074e-38
0.012292222 -0.092131287 -0.030765601 2.3509153e-38
0.014140339 -0.092131287 -0.030765601 2.3509517e-38
0.015988458 -0.092131287 -0.030765601 2.3233662e-38
0.01926234 -0.1069022 -0.095819421 2.2316024e-38
0.021224517 -0.1069022 -0.095819421 1.9925073e-38
0.02300813 -0.10530742 -0.088795729 1.8823405e-38
0.024848573 -0.1043932 -0.084769435 1.6152284e-38
0.026791379 -0.1043932 -0.084769435 1.4585341e-38
-0.021733571 -0.10564254 -0.081738658 2.3234374e-38
-0.019796081 -0.10564254 -0.081738658 2.3234374e-38
-0.013628564 -0.095346272 -0.036739416 2.3234376e-38
-0.011769972 -0.095346272 -0.036739416 2.3234376e-38
-0.0099245841 -0.09603554 -0.039751835 2.3142544e-38
-0.0080607114 -0.09603554 -0.039751835 2.295887e-38
-0.0061968369 -0.09603554 -0.039751835 2.2774116e-38
-0.0043329624 -0.09603554 -0.039751835 2.3509879e-38
-0.002469088 -0.09603554 -0.039751835 2.3509521e-38
-0.00061841961 -0.095346272 -0.036739416 2.341805e-38
0.0012401724 -0.095346272 -0.036739416 2.2958873e-38
0.0030987645 -0.095346272 -0.036739416 2.2867037e-38
0.0049573565 -0.095346272 -0.036739416 2.2958873e-38
0.0067818118 -0.094660893 -0.033744045 2.3234379e-38
0.0086351521 -0.094660893 -0.033744045 2.3509527e-38
0.010444104 -0.093979403 -0.030765601 2.3508802e-38
0.012292222 -0.093979403 -0.030765601 2.3508082e-38
0.014140339 -0.093979403 -0.030765601 2.3508446e-38
0.016108908 -0.095346272 -0.036739416 2.3509527e-38
0.017967504 -0.095346272 -0.036739416 2.2499695e-38
0.021224517 -0.10886435 -0.095819421 1.9923996e-38
0.02300813 -0.10725726 -0.088795729 1.8360999e-38
0.024766207 -0.10564254 -0.081738658 1.578279e-38
0.026703697 -0.10564254 -0.081738658 1.4586058e-38
-0.011769972 -0.097204864 -0.036739416 2.2038355e-38
-0.0099245841 -0.097899407 -0.039751835 2.2683366e-38
-0.0080607114 -0.097899407 -0.039751835 2.2775202e-38
-0.0061968369 -0.097899407 -0.039751835 2.2958873e-38
-0.0043329624 -0.097899407 -0.039751835 2.3417324e-38
-0.002469088 -0.097899407 -0.039751835 2.3508801e-38
-0.00061841961 -0.097204864 -0.036739416 2.3325497e-38
0.0012401724 -0.097204864 -0.036739416 2.3049991e-38
0.0030987645 -0.097204864 -0.036739416 2.2774843e-38
0.0049573565 -0.097204864 -0.036739416 2.3050349e-38
0.0067818118 -0.09651424 -0.033744045 2.3325856e-38
0.0086351521 -0.09651424 -0.033744045 2.3508809e-38
0.010488492 -0.09651424 -0.033744045 2.3508804e-38
0.012292222 -0.09582752 -0.030765601 2.3508085e-38
0.014140339 -0.09582752 -0.030765601 2.3508089e-38
0.015988458 -0.09582752 -0.030765601 2.332478e-38
0.017836574 -0.09582752 -0.030765601 2.1854336e-38
0.021224517 -0.11082654 -0.095819421 1.678865e-38
0.02300813 -0.10920714 -0.088795729 1.4396258e-38
0.024766207 -0.10758002 -0.081738658 1.1818031e-38
0.026703697 -0.10758002 -0.081738658 1.1543967e-38
-0.015487156 -0.099063456 -0.036739416 1.8166506e-38
-0.013628564 -0.099063456 -0.036739416 1.890515e-38
-0.011769972 -0.099063456 -0.036739416 2.0011142e-38
-0.0099113798 -0.099063456 -0.036739416 2.1026013e-38
-0.0080607114 -0.099763289 -0.039751835 2.185577e-38
-0.0061968369 -0.099763289 -0.039751835 2.2683366e-38
-0.0043329624 -0.099763289 -0.039751835 2.350988e-38
-0.002469088 -0.099763289 -0.039751835 2.3509517e-38
-0.00061841961 -0.099063456 -0.036739416 2.3509883e-38
0.0012401724 -0.099063456 -0.036739416 2.3234379e-38
0.0030987645 -0.099063456 -0.036739416 2.3142544e-38
0.0049573565 -0.099063456 -0.036739416 2.3142544e-38
0.0067818118 -0.098367572 -0.033744045 2.341805e-38
0.0086351521 -0.098367572 -0.033744045 2.3509527e-38
0.010488492 -0.098367572 -0.033744045 2.3509163e-38
0.012292222 -0.097675636 -0.030765601 2.3508444e-38
0.014140339 -0.097675636 -0.030765601 2.3509168e-38
0.015988458 -0.097675636 -0.030765601 2.3325497e-38
0.017836574 -0.097675636 -0.030765601 2.157847e-38
0.021128014 -0.11184154 -0.091742344 1.6603896e-38
0.02300813 -0.11115701 -0.088795729 1.4856154e-38
0.024766207 -0.10951753 -0.081738658 1.3015493e-38
0.026703697 -0.10951753 -0.081738658 1.1820201e-38
-0.015487156 -0.10092205 -0.036739416 2.2314589e-38
-0.013628564 -0.10092205 -0.036739416 2.2038365e-38
-0.011751591 -0.10022092 -0.033744045 2.2038365e-38
-0.00989825 -0.10022092 -0.033744045 2.2039441e-38
-0.0080527877 -0.10092205 -0.036739416 2.222383e-38
-0.0061968369 -0.10162716 -0.039751835 2.2498978e-38
-0.0043329624 -0.10162716 -0.039751835 2.3509879e-38
-0.002469088 -0.10162716 -0.039751835 2.3509873e-38
-0.00061841961 -0.10092205 -0.036739416 2.3418045e-38
0.0012401724 -0.10092205 -0.036739416 2.3142544e-38
0.0031225327 -0.10162716 -0.039751835 2.2958873e-38
0.0049573565 -0.10092205 -0.036739416 2.2958873e-38
0.0067818118 -0.10022092 -0.033744045 2.3234379e-38
0.0085959854 -0.099523753 -0.030765601 2.341805e-38
0.010444104 -0.099523753 -0.030765601 2.3509524e-38
0.012292222 -0.099523753 -0.030765601 2.3509524e-38
0.014065695 -0.098574698 -0.026711054 2.3509886e-38
0.015786335 -0.097177386 -0.020741411 2.2958873e-38
0.017616879 -0.097177386 -0.020741411 2.2132353e-38
0.021128014 -0.11379658 -0.091742344 1.8356329e-38
0.02300813 -0.11310686 -0.088795729 1.7714564e-38
0.024848573 -0.11216442 -0.084769435 1.6518908e-38
0.026791379 -0.11216442 -0.084769435 1.4953759e-38
-0.013604931 -0.10207425 -0.033744045 2.1575231e-38
-0.011751591 -0.10207425 -0.033744045 2.1299723e-38
-0.00989825 -0.10207425 -0.033744045 2.1300444e-38
-0.0080527877 -0.10278064 -0.036739416 2.1300087e-38
-0.0061941957 -0.10278064 -0.036739416 2.129972e-38
-0.0043329624 -0.10349102 -0.039751835 2.2313133e-38
-0.002469088 -0.10349102 -0.039751835 2.2313486e-38
-0.00061841961 -0.10278064 -0.036739416 2.2038344e-38
0.0012401724 -0.10278064 -0.036739416 2.2038709e-38
0.0031225327 -0.10349102 -0.039751835 2.2039074e-38
0.0049573565 -0.10278064 -0.036739416 2.2039074e-38
0.0067818118 -0.10207425 -0.033744045 2.213127e-38
0.0085959854 -0.10137187 -0.030765601 2.2314582e-38
0.010444104 -0.10137187 -0.030765601 2.3142544e-38
0.012292222 -0.10137187 -0.030765601 2.3142544e-38
0.014065695 -0.10041572 -0.026711054 2.2958873e-38
0.015786335 -0.099007934 -0.020741411 2.240786e-38
0.017616879 -0.099007934 -0.020741411 2.1489505e-38
0.021224517 -0.11671309 -0.095819421 1.7989341e-38
0.023186695 -0.11671309 -0.095819421 1.7254669e-38
0.025148876 -0.11671309 -0.095819421 1.5596966e-38
0.027111053 -0.11671309 -0.095819421 1.4953042e-38
0.029073231 -0.11671309 -0.095819421 1.4216923e-38
0.031035412 -0.11671309 -0.095819421 1.2557785e-38
-0.043453097 -0.093474448 0.010255031 1.3114179e-38
-0.041676901 -0.093474448 0.010255031 1.3850657e-38
-0.011751591 -0.1039276 -0.033744045 2.2958873e-38
-0.00989825 -0.1039276 -0.033744045 2.2867037e-38
-0.0080527877 -0.10463922 -0.036739416 2.2683366e-38
-0.0061941957 -0.10463922 -0.036739416 2.2591531e-38
-0.0043329624 -0.10535492 -0.039751835 2.2591531e-38
-0.002469088 -0.10535492 -0.039751835 2.2407857e-38
-0.00060521532 -0.10535492 -0.039751835 2.2316024e-38
0.0012586592 -0.10535492 -0.039751835 2.2224189e-38
0.0031225327 -0.10535492 -0.039751835 2.2224189e-38
0.0049864063 -0.10535492 -0.039751835 2.2132353e-38
0.0068159495 -0.10463922 -0.036739416 2.2224189e-38
0.0086351521 -0.1039276 -0.033744045 2.2316024e-38
0.010444104 -0.10322 -0.030765601 2.2316024e-38
0.012292222 -0.10322 -0.030765601 2.2499695e-38
0.014140339 -0.10322 -0.030765601 2.2132353e-38
0.015847441 -0.10155846 -0.023771949 2.1212922e-38
0.017683297 -0.10155846 -0.023771949 2.0200938e-38
0.021224517 -0.11867525 -0.095819421 1.6239075e-38
0.023186695 -0.11867525 -0.095819421 1.4490247e-38
0.025148876 -0.11867525 -0.095819421 1.2002067e-38
0.027111053 -0.11867525 -0.095819421 8.9589215e-39
0.029073231 -0.11867525 -0.095819421 8.4068435e-39
0.028083052 -0.097051233 -0.0048002675 7.4852501e-39
0.029885646 -0.097051233 -0.0048002675 7.7625615e-39
0.031688239 -0.097051233 -0.0048002675 6.2888762e-39
0.042640328 -0.097749382 -0.0077388957 4.7183275e-39
0.044448074 -0.097749382 -0.0077388957 4.4395826e-39
-0.045349911 -0.095982388 0.0071975514 1.2653551e-38
-0.043453097 -0.095250636 0.010255031 1.339076e-38
-0.041567665 -0.094523281 0.013294153 1.3851374e-38
-0.039796799 -0.094523281 0.013294153 1.4680045e-38
-0.025752794 -0.095982388 0.0071975514 2.2958873e-38
-0.023914952 -0.095250636 0.010255031 2.2867036e-38
-0.022138756 -0.095250636 0.010255031 2.2867036e-38
-0.020317268 -0.094523281 0.013294153 2.2958873e-38
-0.018468499 -0.093105495 0.019218139 2.2867037e-38
-0.01670802 -0.093105495 0.019218139 2.2867037e-38
-0.014918747 -0.092390925 0.022203855 2.2775202e-38
-0.013163502 -0.092390925 0.022203855 2.2591531e-38
-0.011408257 -0.092390925 0.022203855 2.2499695e-38
-0.0096530123 -0.092390925 0.022203855 2.2132353e-38
-0.007889702 -0.091656998 0.025270455 2.2132353e-38
-0.0061398344 -0.091656998 0.025270455 2.2132353e-38
-0.004389965 -0.091656998 0.025270455 2.1948682e-38
-0.0026162816 -0.093824327 0.016214661 2.1856847e-38
-0.000850535 -0.093824327 0.016214661 2.158134e-38
0.0012586592 -0.10721879 -0.039751835 2.158134e-38
0.0031225327 -0.10721879 -0.039751835 2.0754462e-38
0.0049864063 -0.10721879 -0.039751835 2.1489505e-38
0.0068159495 -0.10649781 -0.036739416 2.1213998e-38
0.0086351521 -0.10578094 -0.033744045 2.1213998e-38
0.010444104 -0.1050681 -0.030765601 2.1489505e-38
0.012292222 -0.1050681 -0.030765601 2.1122163e-38
0.013165171 -0.092390925 0.022203855 2.0938133e-38
0.014920416 -0.092390925 0.022203855 2.0017626e-38
0.017836574 -0.1050681 -0.030765601 1.7990788e-38
0.021318775 -0.12159048 -0.099801607 1.5596246e-38
0.023287937 -0.12159048 -0.099801607 1.2647792e-38
0.022511292 -0.09740968 0.0012338683 9.6975459e-39
0.024303302 -0.09740968 0.0012338683 6.9299016e-39
0.026095316 -0.09740968 0.0012338683 6.376739e-39
0.028083052 -0.098853827 -0.0048002675 5.9168398e-39
0.029885646 -0.098853827 -0.0048002675 5.7331702e-39
0.031471353 -0.09740968 0.0012338683 4.9037725e-39
0.033263363 -0.09740968 0.0012338683 3.798504e-39
0.035174049 -0.098129645 -0.0017743781 3.7988655e-39
0.036971338 -0.098129645 -0.0017743781 4.6286262e-39
0.0386394 -0.09740968 0.0012338683 4.2591276e-39
0.040431414 -0.09740968 0.0012338683 5.3643961e-39
0.042363197 -0.098129645 -0.0017743781 5.4555128e-39
0.044160485 -0.098129645 -0.0017743781 4.5317586e-39
-0.048781682 -0.09702684 0.010255031 1.4402746e-38
-0.047005486 -0.09702684 0.010255031 1.4588928e-38
-0.045229293 -0.09702684 0.010255031 1.4958423e-38
-0.043338533 -0.09629415 0.013294153 1.5418676e-38
-0.041462693 -0.09559007 0.016214661 1.5602347e-38
-0.039492175 -0.094146177 0.022203855 1.5694541e-38
-0.037637461 -0.093406871 0.025270455 1.634026e-38
-0.035887595 -0.093406871 0.025270455 1.7815009e-38
-0.032552339 -0.094865978 0.019218139 2.0754821e-38
-0.03079186 -0.094865978 0.019218139 2.158134e-38
-0.027400736 -0.09629415 0.013294153 2.2040518e-38
-0.025629867 -0.09629415 0.013294153 2.2040518e-38
-0.023858998 -0.09629415 0.013294153 2.2040518e-38
-0.022088133 -0.09629415 0.013294153 2.2040518e-38
-0.020317268 -0.09629415 0.013294153 2.2132353e-38
-0.018468499 -0.094865978 0.019218139 2.2040518e-38
-0.01670802 -0.094865978 0.019218139 2.1765011e-38
-0.014918747 -0.094146177 0.022203855 2.158134e-38
-0.013163502 -0.094146177 0.022203855 2.1213998e-38
-0.011408257 -0.094146177 0.022203855 2.0845939e-38
-0.0096530123 -0.094146177 0.022203855 2.0477521e-38
-0.007889702 -0.093406871 0.025270455 2.0201655e-38
-0.0061398344 -0.093406871 0.025270455 1.9925431e-38
-0.0043820264 -0.09559007 0.016214661 1.9281148e-38
-0.0026162816 -0.09559007 0.016214661 1.8543594e-38
-0.000850535 -0.09559007 0.016214661 1.7898952e-38
0.002633702 -0.094146177 0.022203855 1.6607874e-38
0.004388947 -0.094146177 0.022203855 1.6607874e-38
0.0061441921 -0.094146177 0.022203855 1.6146899e-38
0.0078994371 -0.094146177 0.022203855 1.5501173e-38
0.0096546821 -0.094146177 0.022203855 1.4671414e-38
0.011409926 -0.094146177 0.022203855 1.3565069e-38
0.013165171 -0.094146177 0.022203855 1.2367252e-38
0.014920416 -0.094146177 0.022203855 1.0893563e-38
0.016675662 -0.094146177 0.022203855 9.4191611e-39
0.018927265 -0.099201679 0.0012338683 8.7752351e-39
0.020719279 -0.099201679 0.0012338683 8.0383959e-39
0.022511292 -0.099201679 0.0012338683 6.6551097e-39
0.024303302 -0.099201679 0.0012338683 7.1139411e-39
0.026095316 -0.099201679 0.0012338683 7.2050633e-39
0.027984906 -0.099926919 -0.0017743781 7.0213923e-39
0.029782191 -0.099926919 -0.0017743781 7.0221112e-39
0.031256996 -0.097763941 0.0071975514 6.6544077e-39
0.033038553 -0.097763941 0.0071975514 6.286344e-39
0.03482011 -0.097763941 0.0071975514 6.3788998e-39
0.036601666 -0.097763941 0.0071975514 6.7476823e-39
0.038383219 -0.097763941 0.0071975514 7.1161047e-39
0.040297702 -0.098480701 0.0042244717 7.4841683e-39
0.042223424 -0.099201679 0.0012338683 8.0355443e-39
0.044015437 -0.099201679 0.0012338683 8.2192152e-39
-0.050694581 -0.099545494 0.0071975514 1.6982391e-38
-0.048781682 -0.098803028 0.010255031 1.4680046e-38
-0.047005486 -0.098803028 0.010255031 1.4773317e-38
-0.045229293 -0.098803028 0.010255031 1.5049899e-38
-0.043338533 -0.098065019 0.013294153 1.54176e-38
-0.041462693 -0.097355813 0.016214661 1.5141017e-38
-0.039492175 -0.095901415 0.022203855 1.4864076e-38
-0.037637461 -0.095156729 0.025270455 1.4956629e-38
-0.035887595 -0.095156729 0.025270455 1.5602706e-38
-0.034226444 -0.095901415 0.022203855 1.6523213e-38
-0.032471199 -0.095901415 0.022203855 1.725718e-38
-0.030715954 -0.095901415 0.022203855 1.7716357e-38
-0.029031377 -0.096626461 0.019218139 1.8084417e-38
-0.027270898 -0.096626461 0.019218139 1.817697e-38
-0.025570977 -0.097355813 0.016214661 1.8452476e-38
-0.023805235 -0.097355813 0.016214661 1.8452476e-38
-0.022039488 -0.097355813 0.016214661 1.8636506e-38
-0.020228978 -0.096626461 0.019218139 1.8636865e-38
-0.018468499 -0.096626461 0.019218139 1.9097836e-38
-0.01670802 -0.096626461 0.019218139 1.9006359e-38
-0.01494754 -0.096626461 0.019218139 1.8637582e-38
-0.013187059 -0.096626461 0.019218139 1.7808551e-38
-0.011408257 -0.095901415 0.022203855 1.7348298e-38
-0.0096530123 -0.095901415 0.022203855 1.7256821e-38
-0.0078977672 -0.095901415 0.022203855 1.6703297e-38
-0.0061425222 -0.095901415 0.022203855 1.5689519e-38
-0.0043820264 -0.097355813 0.016214661 1.5780996e-38
-0.0026162816 -0.097355813 0.016214661 1.4214053e-38
-0.000850535 -0.097355813 0.016214661 1.3753082e-38
0.00087845791 -0.095901415 0.022203855 1.2738931e-38
0.002633702 -0.095901415 0.022203855 1.2093564e-38
0.004388947 -0.095901415 0.022203855 1.1263804e-38
0.0061441921 -0.095901415 0.022203855 1.0986861e-38
0.0078994371 -0.095901415 0.022203855 9.7883192e-39
0.0096546821 -0.095901415 0.022203855 1.0156746e-38
0.011409926 -0.095901415 0.022203855 9.4191836e-39
0.013165171 -0.095901415 0.022203855 8.8663755e-39
0.014920416 -0.095901415 0.022203855 8.0376952e-39
0.016741097 -0.096626461 0.019218139 7.1161047e-39
0.01850158 -0.096626461 0.019218139 7.1164676e-39
0.020338416 -0.097355813 0.016214661 7.2086647e-39
0.022183534 -0.098065019 0.013294153 6.5625792e-39
0.02404232 -0.098803028 0.010255031 7.3898259e-39
0.026003554 -0.10026747 0.0042244717 7.573141e-39
0.027790323 -0.10026747 0.0042244717 7.3887469e-39
0.029577091 -0.10026747 0.0042244717 6.8366521e-39
0.031256996 -0.099545494 0.0071975514 6.5607841e-39
0.032923296 -0.098803028 0.010255031 6.4696647e-39
0.034699492 -0.098803028 0.010255031 6.2852734e-39
0.036475684 -0.098803028 0.010255031 5.9164909e-39
0.038251881 -0.098803028 0.010255031 5.8242925e-39
0.040028077 -0.098803028 0.010255031 5.5466266e-39
0.041804273 -0.098803028 0.010255031 5.4540708e-39
0.043293115 -0.097355813 0.016214661 6.0058041e-39
0.044759579 -0.095901415 0.022203855 6.1894765e-39
0.046514824 -0.095901415 0.022203855 6.1880373e-39
0.048270069 -0.095901415 0.022203855 6.6479365e-39
0.051950697 -0.096626461 0.019218139 6.3648195e-39
-0.050421994 -0.099835888 0.013294153 1.1912768e-38
-0.048525672 -0.099121556 0.016214661 1.0531628e-38
-0.04675993 -0.099121556 0.016214661 1.1361746e-38
-0.044994187 -0.099121556 0.016214661 1.1638333e-38
-0.043115217 -0.098386943 0.019218139 1.2005682e-38
-0.041354738 -0.098386943 0.019218139 1.1913486e-38
-0.039492175 -0.097656667 0.022203855 1.1728376e-38
-0.03773693 -0.097656667 0.022203855 1.1637251e-38
-0.035981689 -0.097656667 0.022203855 1.1914546e-38
-0.034226444 -0.097656667 0.022203855 1.219113e-38
-0.032471199 -0.097656667 0.022203855 1.2373726e-38
-0.030715954 -0.097656667 0.022203855 1.2558119e-38
-0.029031377 -0.098386943 0.019218139 1.2833985e-38
-0.027270898 -0.098386943 0.019218139 1.3110212e-38
-0.025510419 -0.098386943 0.019218139 1.3110212e-38
-0.023805235 -0.099121556 0.016214661 1.3477913e-38
-0.021989461 -0.098386943 0.019218139 1.3570108e-38
-0.020228978 -0.098386943 0.019218139 1.3754503e-38
-0.018468499 -0.098386943 0.019218139 1.3201329e-38
-0.01670802 -0.098386943 0.019218139 1.3477917e-38
-0.01494754 -0.098386943 0.019218139 1.2833271e-38
-0.013187059 -0.098386943 0.019218139 1.1819122e-38
-0.011426578 -0.098386943 0.019218139 1.1542898e-38
-0.0096660992 -0.098386943 0.019218139 1.1727652e-38
-0.0079056202 -0.098386943 0.019218139 1.0990087e-38
-0.0061451392 -0.098386943 0.019218139 9.4234883e-39
-0.0043872772 -0.097656667 0.022203855 9.5149819e-39
-0.0026320321 -0.097656667 0.022203855 8.1316958e-39
-0.00087678712 -0.097656667 0.022203855 8.316087e-39
0.00087845791 -0.097656667 0.022203855 7.1164648e-39
0.002633702 -0.097656667 0.022203855 7.0242692e-39
0.004388947 -0.097656667 0.022203855 5.6413375e-39
0.0061441921 -0.097656667 0.022203855 5.8257302e-39
0.0078994371 -0.097656667 0.022203855 4.3513232e-39
0.0096546821 -0.097656667 0.022203855 4.0747391e-39
0.011409926 -0.097656667 0.022203855 3.7977963e-39
0.013165171 -0.097656667 0.022203855 4.166583e-39
0.014980619 -0.098386943 0.019218139 4.0747503e-39
0.016741097 -0.098386943 0.019218139 3.3364664e-39
0.01850158 -0.098386943 0.019218139 3.0598823e-39
0.020262059 -0.098386943 0.019218139 2.9676867e-39
0.022104163 -0.099121556 0.016214661 2.5971063e-39
0.023869909 -0.099121556 0.016214661 2.7796955e-39
0.025818516 -0.10057923 0.010255031 2.7786165e-39
0.027594712 -0.10057923 0.010255031 1.8577364e-39
0.029370904 -0.10057923 0.010255031 9.3578011e-40
0.0311471 -0.10057923 0.010255031 5.6771645e-40
0.032808732 -0.099835888 0.013294153 5.6843672e-40
0.034579597 -0.099835888 0.013294153 3.8332239e-40
0.036350463 -0.099835888 0.013294153 1.2379071e-41
0.038121331 -0.099835888 0.013294153 5.6771225e-40
0.039892197 -0.099835888 0.013294153 1.9892973e-40
0.041663066 -0.099835888 0.013294153 1.0637117e-40
0.043293115 -0.099121556 0.016214661 3.8187905e-40
0.044759579 -0.097656667 0.022203855 8.417754e-40
0.046514824 -0.097656667 0.022203855 1.117642e-39
0.048270069 -0.097656667 0.022203855 1.39351e-39
0.050190214 -0.098386943 0.019218139 2.1285387e-39
-0.051636409 -0.098656476 0.025270455 1.0619885e-38
-0.049886536 -0.098656476 0.025270455 1.1544355e-38
-0.048268404 -0.099411905 0.022203855 1.1085172e-38
-0.046513155 -0.099411905 0.022203855 1.0163214e-38
-0.044875696 -0.10014741 0.019218139 1.0531278e-38
-0.043002665 -0.099411905 0.022203855 1.0990825e-38
-0.04124742 -0.099411905 0.022203855 1.1174503e-38
-0.039492175 -0.099411905 0.022203855 1.1175222e-38
-0.037637461 -0.098656476 0.025270455 1.1267415e-38
-0.035887595 -0.098656476 0.025270455 1.1268844e-38
-0.034137726 -0.098656476 0.025270455 1.1269562e-38
-0.032387856 -0.098656476 0.025270455 1.1085532e-38
-0.030637991 -0.098656476 0.025270455 1.1269926e-38
-0.028960709 -0.099411905 0.022203855 1.1453598e-38
-0.027205463 -0.099411905 0.022203855 1.154615e-38
-0.025510419 -0.10014741 0.019218139 1.1729822e-38
-0.02374994 -0.10014741 0.019218139 1.200533e-38
-0.021989461 -0.10014741 0.019218139 1.2189722e-38
-0.020228978 -0.10014741 0.019218139 1.2374113e-38
-0.018468499 -0.10014741 0.019218139 1.2742891e-38
-0.01670802 -0.10014741 0.019218139 1.3019115e-38
-0.01494754 -0.10014741 0.019218139 1.2650338e-38
-0.013187059 -0.10014741 0.019218139 1.1728396e-38
-0.011426578 -0.10014741 0.019218139 1.1452531e-38
-0.0096660992 -0.10014741 0.019218139 1.1729472e-38
-0.0079056202 -0.10014741 0.019218139 1.1084111e-38
-0.0061451392 -0.10014741 0.019218139 9.7019011e-39
-0.0043872772 -0.099411905 0.022203855 9.4246038e-39
-0.0026320321 -0.099411905 0.022203855 8.5026503e-39
-0.00087678712 -0.099411905 0.022203855 9.0558241e-39
0.00087845791 -0.099411905 0.022203855 7.856562e-39
0.002633702 -0.099411905 0.022203855 7.6718106e-39
0.004388947 -0.099411905 0.022203855 6.1044849e-39
0.0061441921 -0.099411905 0.022203855 6.4729101e-39
0.0078994371 -0.099411905 0.022203855 5.3672842e-39
0.0096546821 -0.099411905 0.022203855 4.7215617e-39
0.011409926 -0.099411905 0.022203855 4.0761951e-39
0.013165171 -0.099411905 0.022203855 3.8914465e-39
0.014980619 -0.10014741 0.019218139 3.5226668e-39
0.016741097 -0.10014741 0.019218139 2.507796e-39
0.01850158 -0.10014741 0.019218139 2.5070729e-39
0.020262059 -0.10014741 0.019218139 2.9673322e-39
0.022022538 -0.10014741 0.019218139 3.0580873e-39
0.023869909 -0.1008873 0.016214661 2.5963903e-39
0.025635656 -0.1008873 0.016214661 2.59567e-39
0.027496133 -0.10160676 0.013294153 1.5822383e-39
0.029266998 -0.10160676 0.013294153 6.6028203e-40
0.031037863 -0.10160676 0.013294153 7.5247766e-40
0.032698639 -0.1008873 0.016214661 1.2141747e-39
0.034464385 -0.1008873 0.016214661 1.1212602e-39
0.036230128 -0.1008873 0.016214661 3.8369514e-40
0.037995875 -0.1008873 0.016214661 1.0746418e-40
0.039761622 -0.1008873 0.016214661 5.6736333e-40
0.041527368 -0.1008873 0.016214661 3.8260913e-40
0.043148294 -0.10014741 0.019218139 1.2027345e-41
0.044908777 -0.10014741 0.019218139 1.274481e-41
0.046514824 -0.099411905 0.022203855 8.4214534e-40
0.048270069 -0.099411905 0.022203855 1.0258177e-39
0.050190214 -0.10014741 0.019218139 1.1151141e-39
0.051950697 -0.10014741 0.019218139 2.4929688e-39
-0.051499348 -0.099674508 0.028220229 1.0712796e-38
-0.049754653 -0.099674508 0.028220229 1.1545794e-38
-0.04813667 -0.10040633 0.025270455 1.1085889e-38
-0.046386801 -0.10040633 0.025270455 1.1177363e-38
-0.044636935 -0.10040633 0.025270455 1.1361039e-38
-0.042887066 -0.10040633 0.025270455 1.1636195e-38
-0.041137196 -0.10040633 0.025270455 1.1912067e-38
-0.03938733 -0.10040633 0.025270455 1.200462e-38
-0.037541781 -0.099674508 0.028220229 1.2005696e-38
-0.035797086 -0.099674508 0.028220229 1.2006414e-38
-0.034052391 -0.099674508 0.028220229 1.2007131e-38
-0.032387856 -0.10040633 0.025270455 1.2008207e-38
-0.030637991 -0.10040633 0.025270455 1.2008925e-38
-0.028960709 -0.10116716 0.022203855 1.2192596e-38
-0.027205463 -0.10116716 0.022203855 1.2192596e-38
-0.025450218 -0.10116716 0.022203855 1.2284072e-38
-0.02374994 -0.10190789 0.019218139 1.2467743e-38
-0.021989461 -0.10190789 0.019218139 1.2743609e-38
-0.020228978 -0.10190789 0.019218139 1.2927997e-38
-0.018468499 -0.10190789 0.019218139 1.2467026e-38
-0.01670802 -0.10190789 0.019218139 1.2651056e-38
-0.01494754 -0.10190789 0.019218139 1.2374473e-38
-0.013187059 -0.10190789 0.019218139 1.1821308e-38
-0.011426578 -0.10190789 0.019218139 1.163656e-38
-0.0096660992 -0.10190789 0.019218139 1.1729472e-38
-0.0079056202 -0.10190789 0.019218139 1.1268142e-38
-0.0061451392 -0.10190789 0.019218139 1.0163604e-38
-0.0043872772 -0.10116716 0.022203855 9.7037102e-39
-0.0026320321 -0.10116716 0.022203855 9.0583436e-39
-0.00087678712 -0.10116716 0.022203855 9.5186001e-39
0.00087845791 -0.10116716 0.022203855 8.6881205e-39
0.002633702 -0.10116716 0.022203855 7.7650852e-39
0.004388947 -0.10116716 0.022203855 6.7509333e-39
0.0061441921 -0.10116716 0.022203855 6.7509347e-39
0.0078994371 -0.10116716 0.022203855 5.8297043e-39
0.0096546821 -0.10116716 0.022203855 5.6449571e-39
0.011409926 -0.10116716 0.022203855 4.723005e-39
0.013165171 -0.10116716 0.022203855 4.4460622e-39
0.014920416 -0.10116716 0.022203855 4.168755e-39
0.016675662 -0.10116716 0.022203855 3.0616858e-39
0.018430907 -0.10116716 0.022203855 2.9680496e-39
0.020262059 -0.10190789 0.019218139 3.4275859e-39
0.022022538 -0.10190789 0.019218139 3.3350273e-39
0.023783017 -0.10190789 0.019218139 3.1506332e-39
0.025635656 -0.10265306 0.016214661 2.7818507e-39
0.027401399 -0.10265306 0.016214661 1.9528089e-39
0.029167145 -0.10265306 0.016214661 1.4918308e-39
0.030932892 -0.10265306 0.016214661 1.6762248e-39
0.032698639 -0.10265306 0.016214661 2.136847e-39
0.034345895 -0.10190789 0.019218139 2.136847e-39
0.036106378 -0.10190789 0.019218139 1.7680645e-39
0.037995875 -0.10265306 0.016214661 1.5829544e-39
0.039627336 -0.10190789 0.019218139 2.3201565e-39
0.041387815 -0.10190789 0.019218139 2.2268819e-39
0.043148294 -0.10190789 0.019218139 1.0286946e-39
0.044908777 -0.10190789 0.019218139 9.3578011e-40
0.046514824 -0.10116716 0.022203855 1.7655408e-39
0.048270069 -0.10116716 0.022203855 2.0410487e-39
0.050190214 -0.10190789 0.019218139 1.9463097e-39
0.051780559 -0.10116716 0.022203855 3.4156412e-39
0.053535804 -0.10116716 0.022203855 3.2283366e-39
-0.05513614 -0.10215621 0.025270455 1.1444189e-38
-0.05309796 -0.10066219 0.031250112 9.6049817e-39
-0.051358577 -0.10066219 0.031250112 1.1452144e-38
-0.049619187 -0.10066219 0.031250112 1.2099671e-38
-0.048009958 -0.10141921 0.028220229 1.1731605e-38
-0.046386801 -0.10215621 0.025270455 1.1639046e-38
-0.044636935 -0.10215621 0.025270455 1.1546135e-38
-0.042775869 -0.10141921 0.028220229 1.1728376e-38
-0.041031174 -0.10141921 0.028220229 1.1728027e-38
-0.03938733 -0.10215621 0.025270455 1.1912784e-38
-0.037541781 -0.10141921 0.028220229 1.1913502e-38
-0.035797086 -0.10141921 0.028220229 1.1914578e-38
-0.034052391 -0.10141921 0.028220229 1.1823097e-38
-0.032307692 -0.10141921 0.028220229 1.2007843e-38
-0.030562993 -0.10141921 0.028220229 1.1916721e-38
-0.028960709 -0.10292239 0.022203855 1.2100392e-38
-0.027205463 -0.10292239 0.022203855 1.2007477e-38
-0.025450218 -0.10292239 0.022203855 1.2006758e-38
-0.023638517 -0.10215621 0.025270455 1.2282623e-38
-0.021888647 -0.10215621 0.025270455 1.2466297e-38
-0.020184483 -0.10292239 0.022203855 1.2650689e-38
-0.018468499 -0.10366838 0.019218139 1.3202786e-38
-0.01670802 -0.10366838 0.019218139 1.3110233e-38
-0.01494754 -0.10366838 0.019218139 1.283365e-38
-0.013187059 -0.10366838 0.019218139 1.2281198e-38
-0.011426578 -0.10366838 0.019218139 1.2004614e-38
-0.0096660992 -0.10366838 0.019218139 1.1635835e-38
-0.0079056202 -0.10366838 0.019218139 1.1358892e-38
-0.0061451392 -0.10366838 0.019218139 1.080788e-38
-0.0043872772 -0.10292239 0.022203855 1.0257952e-38
-0.0026320321 -0.10292239 0.022203855 9.4285568e-39
-0.00087678712 -0.10292239 0.022203855 8.8750201e-39
0.00087845791 -0.10292239 0.022203855 8.6902673e-39
0.002633702 -0.10292239 0.022203855 7.4902822e-39
0.004388947 -0.10292239 0.022203855 7.4899263e-39
0.0061441921 -0.10292239 0.022203855 7.1211452e-39
0.0078994371 -0.10292239 0.022203855 6.5683371e-39
0.0096546821 -0.10292239 0.022203855 5.5538307e-39
0.011409926 -0.10292239 0.022203855 4.6318772e-39
0.013165171 -0.10292239 0.022203855 4.5396843e-39
0.014920416 -0.10292239 0.022203855 4.6311583e-39
0.016675662 -0.10292239 0.022203855 4.0758237e-39
0.018430907 -0.10292239 0.022203855 3.7981522e-39
0.020262059 -0.10366838 0.019218139 4.0732972e-39
0.022022538 -0.10366838 0.019218139 3.7045105e-39
0.023783017 -0.10366838 0.019218139 3.7984983e-39
0.025635656 -0.1044188 0.016214661 3.153845e-39
0.027401399 -0.1044188 0.016214661 2.6928697e-39
0.029167145 -0.1044188 0.016214661 2.6006768e-39
0.030932892 -0.1044188 0.016214661 2.5999608e-39
0.032698639 -0.1044188 0.016214661 2.3230165e-39
0.034345895 -0.10366838 0.019218139 2.1386281e-39
0.036106378 -0.10366838 0.019218139 2.1386281e-39
0.037995875 -0.1044188 0.016214661 1.4921797e-39
0.039627336 -0.10366838 0.019218139 1.9531578e-39
0.041387815 -0.10366838 0.019218139 2.137189e-39
0.043148294 -0.10366838 0.019218139 1.9520788e-39
0.044908777 -0.10366838 0.019218139 2.1353911e-39
0.046669256 -0.10366838 0.019218139 2.7807577e-39
0.048429735 -0.10366838 0.019218139 3.3339315e-39
0.050190214 -0.10366838 0.019218139 4.068956e-39
0.051780559 -0.10292239 0.022203855 4.4301462e-39
0.053535804 -0.10292239 0.022203855 2.4911275e-39
0.057046294 -0.10292239 0.022203855 2.49144e-39
0.058801539 -0.10292239 0.022203855 2.5828986e-39
-0.05513614 -0.10390608 0.025270455 1.2641995e-38
-0.05309796 -0.10240157 0.031250112 1.1907691e-38
-0.051358577 -0.10240157 0.031250112 1.3109483e-38
-0.049619187 -0.10240157 0.031250112 1.3479705e-38
-0.048009958 -0.10316391 0.028220229 1.3849206e-38
-0.046265263 -0.10316391 0.028220229 1.3941759e-38
-0.044520564 -0.10316391 0.028220229 1.3756292e-38
-0.042775869 -0.10316391 0.028220229 1.3662307e-38
-0.041031174 -0.10316391 0.028220229 1.3661955e-38
-0.03938733 -0.10390608 0.025270455 1.3938188e-38
-0.037637461 -0.10390608 0.025270455 1.4031458e-38
-0.035797086 -0.10316391 0.028220229 1.4032175e-38
-0.034052391 -0.10316391 0.028220229 1.3848504e-38
-0.032225352 -0.10240157 0.031250112 1.3848858e-38
-0.030485965 -0.10240157 0.031250112 1.3665541e-38
-0.028888121 -0.10390608 0.025270455 1.3756658e-38
-0.027138252 -0.10390608 0.025270455 1.3664102e-38
-0.025388386 -0.10390608 0.025270455 1.3663383e-38
-0.023638517 -0.10390608 0.025270455 1.3847051e-38
-0.021888647 -0.10390608 0.025270455 1.3938891e-38
-0.020184483 -0.10467763 0.022203855 1.4215118e-38
-0.018429238 -0.10467763 0.022203855 1.4306957e-38
-0.016673993 -0.10467763 0.022203855 1.3938176e-38
-0.014918747 -0.10467763 0.022203855 1.3753788e-38
-0.013187059 -0.10542886 0.019218139 1.3385368e-38
-0.011426578 -0.10542886 0.019218139 1.2832197e-38
-0.0096660992 -0.10542886 0.019218139 1.200316e-38
-0.0079056202 -0.10542886 0.019218139 1.181877e-38
-0.0061451392 -0.10542886 0.019218139 1.1728379e-38
-0.0043872772 -0.10467763 0.022203855 1.0718194e-38
-0.0026320321 -0.10467763 0.022203855 9.521093e-39
-0.00087678712 -0.10467763 0.022203855 8.3221869e-39
0.00087845791 -0.10467763 0.022203855 8.9664745e-39
0.002633702 -0.10467763 0.022203855 7.582824e-39
0.004388947 -0.10467763 0.022203855 8.6884513e-39
0.0061092433 -0.10390608 0.025270455 8.1349243e-39
0.0078591118 -0.10390608 0.025270455 7.8583389e-39
0.0096546821 -0.10467763 0.022203855 8.4111595e-39
0.011409926 -0.10467763 0.022203855 7.1204235e-39
0.013165171 -0.10467763 0.022203855 6.6587265e-39
0.014920416 -0.10467763 0.022203855 6.8416758e-39
0.016675662 -0.10467763 0.022203855 6.563647e-39
0.018430907 -0.10467763 0.022203855 6.6547594e-39
0.020262059 -0.10542886 0.019218139 7.4830781e-39
0.022022538 -0.10542886 0.019218139 7.4830753e-39
0.023783017 -0.10542886 0.019218139 6.6558244e-39
0.025635656 -0.10618456 0.016214661 5.9189754e-39
0.027401399 -0.10618456 0.016214661 5.8267826e-39
0.029167145 -0.10618456 0.016214661 6.1033709e-39
0.030932892 -0.10618456 0.016214661 6.0104592e-39
0.032698639 -0.10618456 0.016214661 5.1803426e-39
0.034464385 -0.10618456 0.016214661 4.9037613e-39
0.036230128 -0.10618456 0.016214661 5.0881526e-39
0.037995875 -0.10618456 0.016214661 5.0874351e-39
0.039627336 -0.10542886 0.019218139 4.8108482e-39
0.041387815 -0.10542886 0.019218139 4.9019648e-39
0.043148294 -0.10542886 0.019218139 4.8090489e-39
0.044908777 -0.10542886 0.019218139 4.3473505e-39
0.046669256 -0.10542886 0.019218139 3.8863696e-39
0.048429735 -0.10542886 0.019218139 4.0707608e-39
0.050025314 -0.10467763 0.022203855 5.4507974e-39
0.051780559 -0.10467763 0.022203855 5.4450044e-39
0.053535804 -0.10467763 0.022203855 2.584035e-39
-0.05513614 -0.10565595 0.025270455 1.4021674e-38
-0.05309796 -0.10414095 0.031250112 1.3839092e-38
-0.051358577 -0.10414095 0.031250112 1.4855053e-38
-0.049619187 -0.10414095 0.031250112 1.5501867e-38
-0.048009958 -0.1049086 0.028220229 1.568662e-38
-0.046265263 -0.1049086 0.028220229 1.5410036e-38
-0.044520564 -0.1049086 0.028220229 1.5594071e-38
-0.042775869 -0.1049086 0.028220229 1.5778465e-38
-0.041031174 -0.1049086 0.028220229 1.6054336e-38
-0.03938733 -0.10565595 0.025270455 1.6054337e-38
-0.037637461 -0.10565595 0.025270455 1.596214e-38
-0.035797086 -0.1049086 0.028220229 1.5869945e-38
-0.034052391 -0.1049086 0.028220229 1.5686272e-38
-0.032225352 -0.10414095 0.031250112 1.5594797e-38
-0.030485965 -0.10414095 0.031250112 1.550332e-38
-0.028888121 -0.10565595 0.025270455 1.5594797e-38
-0.027138252 -0.10565595 0.025270455 1.5595153e-38
-0.025388386 -0.10565595 0.025270455 1.5778465e-38
-0.023638517 -0.10565595 0.025270455 1.5869942e-38
-0.021888647 -0.10565595 0.025270455 1.5870298e-38
-0.020184483 -0.1064329 0.022203855 1.5869942e-38
-0.018429238 -0.1064329 0.022203855 1.5869945e-38
-0.016673993 -0.1064329 0.022203855 1.5962142e-38
-0.014918747 -0.1064329 0.022203855 1.5501527e-38
-0.013163502 -0.1064329 0.022203855 1.4672492e-38
-0.011408257 -0.1064329 0.022203855 1.3935288e-38
-0.0096660992 -0.10718934 0.019218139 1.3290645e-38
-0.0079056202 -0.10718934 0.019218139 1.2645997e-38
-0.0061451392 -0.10718934 0.019218139 1.1818396e-38
-0.0043872772 -0.1064329 0.022203855 1.0900039e-38
-0.0026320321 -0.1064329 0.022203855 1.0717806e-38
-0.00087678712 -0.1064329 0.022203855 1.09022e-38
0.00087845791 -0.1064329 0.022203855 1.0809286e-38
0.002633702 -0.1064329 0.022203855 1.0439787e-38
0.004388947 -0.1064329 0.022203855 9.9788117e-39
0.0061092433 -0.10565595 0.025270455 9.9773754e-39
0.0078591118 -0.10565595 0.025270455 9.9766593e-39
0.0096546821 -0.1064329 0.022203855 9.4224093e-39
0.011409926 -0.1064329 0.022203855 8.9607151e-39
0.013165171 -0.1064329 0.022203855 8.959276e-39
0.014920416 -0.1064329 0.022203855 9.4188122e-39
0.016675662 -0.1064329 0.022203855 9.6021217e-39
0.018430907 -0.1064329 0.022203855 9.4159325e-39
0.020262059 -0.10718934 0.019218139 9.3230138e-39
0.022022538 -0.10718934 0.019218139 9.3230124e-39
0.023783017 -0.10718934 0.019218139 8.8649056e-39
0.025635656 -0.10795029 0.016214661 8.5890347e-39
0.027401399 -0.10795029 0.016214661 8.220255e-39
0.029167145 -0.10795029 0.016214661 7.9433122e-39
0.030932892 -0.10795029 0.016214661 7.7582049e-39
0.032698639 -0.10795029 0.016214661 7.6660106e-39
0.034464385 -0.10795029 0.016214661 7.5734619e-39
0.036230128 -0.10795029 0.016214661 7.5734619e-39
0.037866857 -0.10718934 0.019218139 7.8489726e-39
0.039627336 -0.10718934 0.019218139 7.9411682e-39
0.041387815 -0.10718934 0.019218139 7.5720228e-39
0.043148294 -0.10718934 0.019218139 6.8344577e-39
0.044908777 -0.10718934 0.019218139 7.2021612e-39
0.046669256 -0.10718934 0.019218139 7.9400822e-39
0.048429735 -0.10718934 0.019218139 7.7556909e-39
0.050025314 -0.1064329 0.022203855 7.476925e-39
0.051780559 -0.1064329 0.022203855 6.5520512e-39
0.053535804 -0.1064329 0.022203855 1.2950772e-39
-0.05513614 -0.10740583 0.025270455 1.6878285e-38
-0.05309796 -0.10588033 0.031250112 1.7524022e-38
-0.051358577 -0.10588033 0.031250112 1.8907322e-38
-0.049619187 -0.10588033 0.031250112 1.9645975e-38
-0.047879804 -0.10588033 0.031250112 1.9738891e-38
-0.046140421 -0.10588033 0.031250112 1.89095e-38
-0.044401035 -0.10588033 0.031250112 1.9001695e-38
-0.042661652 -0.10588033 0.031250112 1.9186084e-38
-0.041031174 -0.10665329 0.028220229 1.9278278e-38
-0.039286476 -0.10665329 0.028220229 1.9369755e-38
-0.037541781 -0.10665329 0.028220229 1.9185366e-38
-0.035797086 -0.10665329 0.028220229 1.9276843e-38
-0.034052391 -0.10665329 0.028220229 1.9000977e-38
-0.032307692 -0.10665329 0.028220229 1.872583e-38
-0.030562993 -0.10665329 0.028220229 1.8725472e-38
-0.028888121 -0.10740583 0.025270455 1.872583e-38
-0.027138252 -0.10740583 0.025270455 1.872583e-38
-0.025388386 -0.10740583 0.025270455 1.8817307e-38
-0.023638517 -0.10740583 0.025270455 1.8817307e-38
-0.021888647 -0.10740583 0.025270455 1.8817304e-38
-0.020184483 -0.10818814 0.022203855 1.8817304e-38
-0.018429238 -0.10818814 0.022203855 1.8264133e-38
-0.016673993 -0.10818814 0.022203855 1.8540723e-38
-0.014918747 -0.10818814 0.022203855 1.8265218e-38
-0.013163502 -0.10818814 0.022203855 1.7804964e-38
-0.011408257 -0.10818814 0.022203855 1.7528023e-38
-0.0096660992 -0.10894983 0.019218139 1.7252158e-38
-0.0079056202 -0.10894983 0.019218139 1.6791902e-38
-0.0061451392 -0.10894983 0.019218139 1.6055777e-38
-0.0043846602 -0.10894983 0.019218139 1.5688792e-38
-0.0026320321 -0.10818814 0.022203855 1.5781348e-38
-0.00087678712 -0.10818814 0.022203855 1.5873546e-38
0.00087845791 -0.10818814 0.022203855 1.5689518e-38
0.002633702 -0.10818814 0.022203855 1.5596606e-38
0.004388947 -0.10818814 0.022203855 1.5412216e-38
0.0061441921 -0.10818814 0.022203855 1.5412219e-38
0.0078994371 -0.10818814 0.022203855 1.5595531e-38
0.0096546821 -0.10818814 0.022203855 1.6424562e-38
0.011409926 -0.10818814 0.022203855 1.6055067e-38
0.013165171 -0.10818814 0.022203855 1.6053991e-38
0.014920416 -0.10818814 0.022203855 1.660608e-38
0.016675662 -0.10818814 0.022203855 1.6881946e-38
0.018430907 -0.10818814 0.022203855 1.6880152e-38
0.020262059 -0.10894983 0.019218139 1.6879435e-38
0.022022538 -0.10894983 0.019218139 1.6880511e-38
0.023783017 -0.10894983 0.019218139 1.6605716e-38
0.025635656 -0.10971604 0.016214661 1.6146177e-38
0.027401399 -0.10971604 0.016214661 1.5869593e-38
0.029167145 -0.10971604 0.016214661 1.5593006e-38
0.030932892 -0.10971604 0.016214661 1.54079e-38
0.032698639 -0.10971604 0.016214661 1.5315705e-38
0.034464385 -0.10971604 0.016214661 1.5315351e-38
0.036106378 -0.10894983 0.019218139 1.5315351e-38
0.037866857 -0.10894983 0.019218139 1.4853297e-38
0.039627336 -0.10894983 0.019218139 1.4945493e-38
0.041387815 -0.10894983 0.019218139 1.4668184e-38
0.043148294 -0.10894983 0.019218139 1.411501e-38
0.044908777 -0.10894983 0.019218139 1.4298679e-38
0.046669256 -0.10894983 0.019218139 1.4575265e-38
0.048429735 -0.10894983 0.019218139 1.4114285e-38
0.050190214 -0.10894983 0.019218139 1.346854e-38
0.051780559 -0.10818814 0.022203855 1.0516449e-38
0.053535804 -0.10818814 0.022203855 2.2173881e-39
-0.05513614 -0.10915567 0.025270455 1.7982467e-38
-0.053244051 -0.10839801 0.028220229 1.8812955e-38
-0.051499348 -0.10839801 0.028220229 1.9735998e-38
-0.049619187 -0.10761972 0.031250112 2.0289538e-38
-0.047879804 -0.10761972 0.031250112 2.0289902e-38
-0.046140421 -0.10761972 0.031250112 2.0843069e-38
-0.044401035 -0.10761972 0.031250112 2.0659398e-38
-0.042661652 -0.10761972 0.031250112 2.0751592e-38
-0.040922269 -0.10761972 0.031250112 2.0751592e-38
-0.039182886 -0.10761972 0.031250112 2.0934904e-38
-0.037541781 -0.10839801 0.028220229 2.0750875e-38
-0.035704117 -0.10761972 0.031250112 2.0750157e-38
-0.033964735 -0.10761972 0.031250112 2.0657963e-38
-0.032225352 -0.10761972 0.031250112 2.0474292e-38
-0.030485965 -0.10761972 0.031250112 2.0290621e-38
-0.028888121 -0.10915567 0.025270455 2.0290621e-38
-0.027138252 -0.10915567 0.025270455 2.0290621e-38
-0.025388386 -0.10915567 0.025270455 2.0290621e-38
-0.023638517 -0.10915567 0.025270455 2.0290621e-38
-0.021888647 -0.10915567 0.025270455 2.0290621e-38
-0.020184483 -0.10994337 0.022203855 2.0290621e-38
-0.018429238 -0.10994337 0.022203855 2.0382815e-38
-0.016673993 -0.10994337 0.022203855 2.0475368e-38
-0.014918747 -0.10994337 0.022203855 2.0475368e-38
-0.013187059 -0.11071031 0.019218139 1.9830726e-38
-0.011426578 -0.11071031 0.019218139 1.9554143e-38
-0.0096660992 -0.11071031 0.019218139 1.9278278e-38
-0.0079056202 -0.11071031 0.019218139 1.8909501e-38
-0.0061451392 -0.11071031 0.019218139 1.8723316e-38
-0.0043846602 -0.11071031 0.019218139 1.9918974e-38
-0.0026241792 -0.11071031 0.019218139 2.0286316e-38
-0.00087678712 -0.10994337 0.022203855 2.0286675e-38
0.00087845791 -0.10994337 0.022203855 2.0011168e-38
0.002633702 -0.10994337 0.022203855 1.9827139e-38
0.004388947 -0.10994337 0.022203855 1.9735662e-38
0.0061441921 -0.10994337 0.022203855 1.9736379e-38
0.0078994371 -0.10994337 0.022203855 1.9920768e-38
0.0096546821 -0.10994337 0.022203855 1.9183214e-38
0.011409926 -0.10994337 0.022203855 1.8906631e-38
0.013165171 -0.10994337 0.022203855 1.8998826e-38
0.014920416 -0.10994337 0.022203855 1.9367603e-38
0.016675662 -0.10994337 0.022203855 1.9827856e-38
0.018430907 -0.10994337 0.022203855 1.9919692e-38
0.020262059 -0.11071031 0.019218139 1.9919692e-38
0.022022538 -0.11071031 0.019218139 2.0012603e-38
0.023783017 -0.11071031 0.019218139 1.8909138e-38
0.0255435 -0.11071031 0.019218139 1.8725463e-38
0.027401399 -0.11148177 0.016214661 1.8448879e-38
0.029167145 -0.11148177 0.016214661 1.8264488e-38
0.030824937 -0.11071031 0.019218139 1.8263414e-38
0.032585416 -0.11071031 0.019218139 1.8171219e-38
0.034464385 -0.11148177 0.016214661 1.8263061e-38
0.036106378 -0.11071031 0.019218139 1.8263061e-38
0.037866857 -0.11071031 0.019218139 1.7525496e-38
0.039627336 -0.11071031 0.019218139 1.7802083e-38
0.041387815 -0.11071031 0.019218139 1.7801363e-38
0.043148294 -0.11071031 0.019218139 1.743258e-38
0.044908777 -0.11071031 0.019218139 1.7340382e-38
0.046669256 -0.11071031 0.019218139 1.7340382e-38
0.048429735 -0.11071031 0.019218139 1.6787205e-38
0.050190214 -0.11071031 0.019218139 1.6140751e-38
0.051950697 -0.11071031 0.019218139 1.2820976e-38
0.053711176 -0.11071031 0.019218139 7.4225939e-40
-0.05513614 -0.11090554 0.025270455 2.1023838e-38
-0.053244051 -0.11014269 0.028220229 2.2038358e-38
-0.051499348 -0.11014269 0.028220229 2.2591531e-38
-0.049754653 -0.11014269 0.028220229 2.2591531e-38
-0.048009958 -0.11014269 0.028220229 2.2591531e-38
-0.046265263 -0.11014269 0.028220229 2.2316024e-38
-0.044401035 -0.1093591 0.031250112 2.2316024e-38
-0.042661652 -0.1093591 0.031250112 2.240786e-38
-0.040922269 -0.1093591 0.031250112 2.240786e-38
-0.039182886 -0.1093591 0.031250112 2.2499695e-38
-0.0374435 -0.1093591 0.031250112 2.240786e-38
-0.035704117 -0.1093591 0.031250112 2.2499336e-38
-0.033964735 -0.1093591 0.031250112 2.2407142e-38
-0.032225352 -0.1093591 0.031250112 2.2499336e-38
-0.030485965 -0.1093591 0.031250112 2.2316024e-38
-0.028888121 -0.11090554 0.025270455 2.2316024e-38
-0.027138252 -0.11090554 0.025270455 2.2224189e-38
-0.025388386 -0.11090554 0.025270455 2.2224189e-38
-0.023638517 -0.11090554 0.025270455 2.2040518e-38
-0.021888647 -0.11090554 0.025270455 2.2040518e-38
-0.020184483 -0.11169861 0.022203855 2.1948682e-38
-0.018429238 -0.11169861 0.022203855 2.1948682e-38
-0.016673993 -0.11169861 0.022203855 2.2224189e-38
-0.014918747 -0.11169861 0.022203855 2.2224189e-38
-0.013163502 -0.11169861 0.022203855 2.2040518e-38
-0.011408257 -0.11169861 0.022203855 2.2040518e-38
-0.0096530123 -0.11169861 0.022203855 2.2224189e-38
-0.0079056202 -0.11247079 0.019218139 2.2224189e-38
-0.0061451392 -0.11247079 0.019218139 2.240786e-38
-0.0043872772 -0.11169861 0.022203855 2.3232585e-38
-0.0026320321 -0.11169861 0.022203855 2.3507733e-38
-0.00087678712 -0.11169861 0.022203855 2.3508092e-38
0.00087845791 -0.11169861 0.022203855 2.3416256e-38
0.002633702 -0.11169861 0.022203855 2.3232585e-38
0.004388947 -0.11169861 0.022203855 2.2957438e-38
0.0061441921 -0.11169861 0.022203855 2.2774125e-38
0.0078591118 -0.11090554 0.025270455 2.2774484e-38
0.0096089793 -0.11090554 0.025270455 2.2866678e-38
0.011409926 -0.11169861 0.022203855 2.2775202e-38
0.013165171 -0.11169861 0.022203855 2.2775202e-38
0.014920416 -0.11169861 0.022203855 2.2775202e-38
0.016675662 -0.11169861 0.022203855 2.2683366e-38
0.018430907 -0.11169861 0.022203855 2.2590813e-38
0.020262059 -0.11247079 0.019218139 2.2498619e-38
0.022022538 -0.11247079 0.019218139 2.2314948e-38
0.023783017 -0.11247079 0.019218139 2.2316024e-38
0.0255435 -0.11247079 0.019218139 2.2132353e-38
0.027401399 -0.11324753 0.016214661 2.2040518e-38
0.029167145 -0.11324753 0.016214661 2.1948682e-38
0.030824937 -0.11247079 0.019218139 2.1948682e-38
0.032585416 -0.11247079 0.019218139 2.1948682e-38
0.034345895 -0.11247079 0.019218139 2.1948682e-38
0.036106378 -0.11247079 0.019218139 2.2040518e-38
0.037866857 -0.11247079 0.019218139 2.1763935e-38
0.039627336 -0.11247079 0.019218139 2.2040518e-38
0.041387815 -0.11247079 0.019218139 2.2132353e-38
0.043148294 -0.11247079 0.019218139 2.1948682e-38
0.044908777 -0.11247079 0.019218139 2.1948682e-38
0.046669256 -0.11247079 0.019218139 2.2040518e-38
0.048429735 -0.11247079 0.019218139 2.1672099e-38
0.050190214 -0.11247079 0.019218139 2.1210049e-38
0.051950697 -0.11247079 0.019218139 1.5861987e-38
0.053711176 -0.11247079 0.019218139 4.645935e-40
-0.055289384 -0.11345388 0.022203855 2.1851078e-38
-0.053386275 -0.11265542 0.025270455 2.2866311e-38
-0.051636409 -0.11265542 0.025270455 2.2958873e-38
-0.049754653 -0.11188738 0.028220229 2.3142544e-38
-0.048009958 -0.11188738 0.028220229 2.2958873e-38
-0.046265263 -0.11188738 0.028220229 2.2958873e-38
-0.044401035 -0.11109848 0.031250112 2.2958873e-38
-0.042661652 -0.11109848 0.031250112 2.3142544e-38
-0.040814023 -0.11031438 0.034261636 2.3142544e-38
-0.039079919 -0.11031438 0.034261636 2.3234379e-38
-0.0374435 -0.11109848 0.031250112 2.3234379e-38
-0.035704117 -0.11109848 0.031250112 2.3234379e-38
-0.033964735 -0.11109848 0.031250112 2.3234379e-38
-0.032225352 -0.11109848 0.031250112 2.341805e-38
-0.030485965 -0.11109848 0.031250112 2.341805e-38
-0.028888121 -0.11265542 0.025270455 2.3234379e-38
-0.027138252 -0.11265542 0.025270455 2.3142544e-38
-0.025388386 -0.11265542 0.025270455 2.2958873e-38
-0.023638517 -0.11265542 0.025270455 2.2867037e-38
-0.021888647 -0.11265542 0.025270455 2.2775202e-38
-0.020138782 -0.11265542 0.025270455 2.2591531e-38
-0.018429238 -0.11345388 0.022203855 2.2591531e-38
-0.016673993 -0.11345388 0.022203855 2.2591531e-38
-0.014918747 -0.11345388 0.022203855 2.2775202e-38
-0.013163502 -0.11345388 0.022203855 2.2499695e-38
-0.011408257 -0.11345388 0.022203855 2.2591531e-38
-0.0096530123 -0.11345388 0.022203855 2.2958873e-38
-0.0079056202 -0.11423124 0.019218139 2.2958873e-38
-0.0061451392 -0.11423124 0.019218139 2.3142544e-38
-0.0043872772 -0.11345388 0.022203855 2.3508809e-38
-0.0026320321 -0.11345388 0.022203855 2.3508451e-38
-0.00087678712 -0.11345388 0.022203855 2.3508809e-38
0.00087845791 -0.11345388 0.022203855 2.3509168e-38
0.002633702 -0.11345388 0.022203855 2.3509168e-38
0.004388947 -0.11345388 0.022203855 2.3509527e-38
0.0061441921 -0.11345388 0.022203855 2.3325856e-38
0.0078591118 -0.11265542 0.025270455 2.3050349e-38
0.0096089793 -0.11265542 0.025270455 2.3050349e-38
0.011409926 -0.11345388 0.022203855 2.3142544e-38
0.013165171 -0.11345388 0.022203855 2.3142544e-38
0.014920416 -0.11345388 0.022203855 2.3142541e-38
0.016675662 -0.11345388 0.022203855 2.3142537e-38
0.018430907 -0.11345388 0.022203855 2.3234369e-38
0.020262059 -0.11423124 0.019218139 2.3234367e-38
0.022022538 -0.11423124 0.019218139 2.3234367e-38
0.023783017 -0.11423124 0.019218139 2.3142534e-38
0.0255435 -0.11423124 0.019218139 2.2958866e-38
0.027401399 -0.11501329 0.016214661 2.2958867e-38
0.029167145 -0.11501329 0.016214661 2.2958867e-38
0.030824937 -0.11423124 0.019218139 2.295887e-38
0.032585416 -0.11423124 0.019218139 2.295887e-38
0.034345895 -0.11423124 0.019218139 2.2958873e-38
0.036106378 -0.11423124 0.019218139 2.2958873e-38
0.037866857 -0.11423124 0.019218139 2.2958873e-38
0.039627336 -0.11423124 0.019218139 2.2958873e-38
0.041387815 -0.11423124 0.019218139 2.2958873e-38
0.043148294 -0.11423124 0.019218139 2.2958873e-38
0.044908777 -0.11423124 0.019218139 2.2958873e-38
0.046669256 -0.11423124 0.019218139 2.295887e-38
0.048429735 -0.11423124 0.019218139 2.2867034e-38
0.050356098 -0.11501329 0.016214661 2.2867037e-38
0.052121844 -0.11501329 0.016214661 1.7889922e-38
0.053887591 -0.11501329 0.016214661 9.581098e-41
-0.055289384 -0.11520912 0.022203855 2.3049259e-38
-0.053386275 -0.11440529 0.025270455 2.3418045e-38
