# .PCD v0.7 - Point Cloud Data file format
VERSION 0.7
FIELDS x y z rgb
SIZE 4 4 4 4
TYPE F F F F
COUNT 1 1 1 1
WIDTH 943
HEIGHT 1
VIEWPOINT 0 0 0 1 0 0 0
POINTS 943
DATA ascii
0.065235883 -0.11537148 -0.053375289 1.6782856e-38
0.067159489 -0.11537148 -0.053375289 1.7888484e-38
0.069576189 -0.11726747 -0.061297461 1.8441655e-38
0.071965307 -0.11895646 -0.068354532 1.834946e-38
0.074376985 -0.12063743 -0.075378224 1.8810438e-38
0.076607972 -0.12159048 -0.079360411 1.9270696e-38
0.07878527 -0.12230973 -0.082365677 1.890191e-38
0.08103703 -0.12324448 -0.086271331 1.807215e-38
0.083313748 -0.12421621 -0.090331599 1.7057996e-38
0.085597321 -0.12516426 -0.094292805 1.585909e-38
0.087828025 -0.12590279 -0.097378656 1.5121525e-38
0.090141699 -0.12686269 -0.10138933 1.4937131e-38
0.092785701 -0.12877132 -0.10936432 1.5120802e-38
0.094807476 -0.12877132 -0.10936432 1.475202e-38
0.097159296 -0.12971978 -0.11332731 1.4382515e-38
0.099527329 -0.13067479 -0.1173176 1.3367276e-38
0.10156305 -0.13067479 -0.1173176 1.1246414e-38
0.10359876 -0.13067479 -0.1173176 9.5865364e-39
0.10563447 -0.13067479 -0.1173176 3.6734198e-40
0.10767019 -0.13067479 -0.1173176 8.279558e-40
0.1097059 -0.13067479 -0.1173176 9.2015143e-40
-0.097156867 -0.099926919 0.018666819 1.0889553e-38
-0.095359579 -0.099926919 0.018666819 1.1630033e-38
-0.09356229 -0.099926919 0.018666819 1.0618783e-38
-0.091765001 -0.099926919 0.018666819 8.86996e-39
-0.089967713 -0.099926919 0.018666819 9.8862756e-39
-0.088170424 -0.099926919 0.018666819 9.6114809e-39
-0.08637315 -0.099926919 0.018666819 1.1270275e-38
-0.084575862 -0.099926919 0.018666819 1.0992238e-38
-0.082778573 -0.099926919 0.018666819 1.1820554e-38
-0.080981284 -0.099926919 0.018666819 1.2280813e-38
-0.079183996 -0.099926919 0.018666819 1.2465204e-38
-0.077157274 -0.099201679 0.021675065 1.3110212e-38
-0.075142413 -0.098480701 0.024665669 1.4584263e-38
-0.073355645 -0.098480701 0.024665669 1.5874984e-38
-0.071357757 -0.097763941 0.027638748 1.6612179e-38
-0.069576204 -0.097763941 0.027638748 1.9099988e-38
-0.067794636 -0.097763941 0.027638748 1.8914882e-38
-0.066013083 -0.097763941 0.027638748 1.9743195e-38
-0.06423153 -0.097763941 0.027638748 2.0387479e-38
-0.062070504 -0.09629415 0.03373535 2.0386761e-38
-0.060299635 -0.09629415 0.03373535 2.0754821e-38
-0.058180809 -0.094865978 0.039659336 2.0570432e-38
-0.056420334 -0.094865978 0.039659336 1.9465178e-38
-0.054659851 -0.094865978 0.039659336 1.9559883e-38
-0.052899376 -0.094865978 0.039659336 2.0387479e-38
-0.020706274 -0.089316905 0.062676564 2.3509883e-38
-0.018986151 -0.089316905 0.062676564 2.2495371e-38
-0.018425427 -0.10449956 -0.00030021369 2.2126588e-38
-0.016594887 -0.10449956 -0.00030021369 2.3325131e-38
-0.014764346 -0.10449956 -0.00030021369 2.3509527e-38
-0.012973655 -0.10523017 -0.0033307523 2.3509886e-38
-0.011137798 -0.10523017 -0.0033307523 2.341805e-38
-0.0093019418 -0.10523017 -0.0033307523 2.2773767e-38
-0.007489277 -0.10593875 -0.0062698573 2.2775202e-38
-0.0056482684 -0.10593875 -0.0062698573 2.1762859e-38
-0.0038072579 -0.10593875 -0.0062698573 2.2224189e-38
-0.0019662492 -0.10593875 -0.0062698573 2.1856847e-38
0.0016649552 -0.091965273 0.051691309 2.1305834e-38
0.0052357521 -0.09702684 0.030696228 1.7527305e-38
0.014314705 -0.10065642 0.015640929 1.006487e-38
0.016117297 -0.10065642 0.015640929 8.5908284e-39
0.017919889 -0.10065642 0.015640929 6.3795766e-39
0.019722482 -0.10065642 0.015640929 5.458349e-39
0.021584326 -0.10136487 0.012702301 2.5088161e-39
0.02339207 -0.10136487 0.012702301 2.2325936e-39
0.025272278 -0.10210292 0.0096408874 3.4307836e-39
0.027185362 -0.10305093 0.0057086498 1.7719896e-39
0.029086782 -0.10377313 0.0027129203 3.4289928e-39
0.030912042 -0.10377313 0.0027129203 5.8213988e-39
0.032922741 -0.10523017 -0.0033307523 8.9531635e-39
0.034853932 -0.10593875 -0.0062698573 1.0889621e-38
0.036935396 -0.10763429 -0.013302848 1.2733877e-38
0.03878874 -0.10763429 -0.013302848 1.4300106e-38
0.040868551 -0.10908265 -0.019310638 1.6604979e-38
0.042891935 -0.11005743 -0.023353979 1.9277919e-38
0.044762898 -0.11005743 -0.023353979 1.9184994e-38
0.046760127 -0.11076607 -0.026293322 1.8722931e-38
0.048952561 -0.11247168 -0.033368155 1.9091348e-38
0.050841082 -0.11247168 -0.033368155 1.8998432e-38
0.052874006 -0.11319371 -0.03636305 1.9550885e-38
0.055116329 -0.1148753 -0.043338224 2.0472123e-38
0.057174031 -0.11558239 -0.04627113 1.9733479e-38
0.059085175 -0.11558239 -0.04627113 1.9364696e-38
0.061218034 -0.11655019 -0.050285503 2.0931659e-38
0.06313622 -0.11655019 -0.050285503 2.037704e-38
0.065235883 -0.11729507 -0.053375289 1.9178136e-38
0.067159489 -0.11729507 -0.053375289 1.9823505e-38
0.06908308 -0.11729507 -0.053375289 2.0376679e-38
0.071513683 -0.11920498 -0.061297461 1.9823505e-38
0.074376985 -0.12259962 -0.075378224 1.9454723e-38
0.076607972 -0.12355967 -0.079360411 1.9639114e-38
0.07878527 -0.12428416 -0.082365677 2.0100092e-38
0.08103703 -0.12522577 -0.086271331 1.9177057e-38
0.083313748 -0.12620462 -0.090331599 1.8623883e-38
0.085597321 -0.12715961 -0.094292805 1.7886315e-38
0.088133916 -0.12887047 -0.10138933 1.714875e-38
0.090446636 -0.12981267 -0.10529761 1.6503381e-38
0.092785701 -0.13079311 -0.10936432 1.5673976e-38
0.095130578 -0.13174851 -0.11332731 1.4659824e-38
0.097159296 -0.13174851 -0.11332731 1.4105929e-38
0.099869013 -0.13367917 -0.12133555 1.4012648e-38
0.10191177 -0.13367917 -0.12133555 1.1430449e-38
0.10395452 -0.13367917 -0.12133555 9.3099495e-39
0.10599728 -0.13367917 -0.12133555 3.6734198e-40
0.10804003 -0.13367917 -0.12133555 9.2015143e-40
0.11008279 -0.13367917 -0.12133555 1.1041868e-39
-0.09744601 -0.10245901 0.015640929 1.264127e-38
-0.095359579 -0.10172421 0.018666819 1.2459794e-38
-0.09356229 -0.10172421 0.018666819 1.1355269e-38
-0.091765001 -0.10172421 0.018666819 9.8826714e-39
-0.089967713 -0.10172421 0.018666819 1.0806787e-38
-0.088170424 -0.10172421 0.018666819 1.0439438e-38
-0.08637315 -0.10172421 0.018666819 1.1362111e-38
-0.084575862 -0.10172421 0.018666819 1.0716389e-38
-0.082778573 -0.10172421 0.018666819 1.099262e-38
-0.080981284 -0.10172421 0.018666819 1.1176649e-38
-0.078949288 -0.10099369 0.021675065 1.0992257e-38
-0.077157274 -0.10099369 0.021675065 1.1175568e-38
-0.075142413 -0.10026747 0.024665669 1.1912768e-38
-0.073355645 -0.10026747 0.024665669 1.2741086e-38
-0.071357757 -0.099545494 0.027638748 1.3201703e-38
-0.069576204 -0.099545494 0.027638748 1.4859771e-38
-0.067794636 -0.099545494 0.027638748 1.430588e-38
-0.065812051 -0.098803028 0.030696228 1.6148697e-38
-0.064035863 -0.098803028 0.030696228 1.9282583e-38
-0.062070504 -0.098065019 0.03373535 2.0662985e-38
-0.059941292 -0.096626461 0.039659336 2.0846656e-38
-0.058180809 -0.096626461 0.039659336 2.0938492e-38
-0.056420334 -0.096626461 0.039659336 2.0662985e-38
-0.054659851 -0.096626461 0.039659336 2.0387479e-38
-0.052899376 -0.096626461 0.039659336 1.8270599e-38
-0.050984457 -0.095901415 0.042645052 1.5782431e-38
-0.04922922 -0.095901415 0.042645052 1.7903257e-38
-0.047617927 -0.096626461 0.039659336 2.0203808e-38
-0.022426397 -0.091037035 0.062676564 2.1206804e-38
-0.020706274 -0.091037035 0.062676564 2.2681212e-38
-0.018986151 -0.091037035 0.062676564 2.341805e-38
-0.017266028 -0.091037035 0.062676564 2.3509527e-38
-0.016594887 -0.10633011 -0.00030021369 2.3509527e-38
-0.014764346 -0.10633011 -0.00030021369 2.295672e-38
-0.012933806 -0.10633011 -0.00030021369 2.2865602e-38
-0.011171296 -0.10777976 -0.0062698573 2.2774484e-38
-0.0093302857 -0.10777976 -0.0062698573 2.2498978e-38
-0.0069921874 -0.092480466 0.056732491 2.2316024e-38
-0.0052616429 -0.092480466 0.056732491 2.1948682e-38
-0.0038072579 -0.10777976 -0.0062698573 2.1673176e-38
-0.0018138122 -0.093704656 0.051691309 2.1489505e-38
-7.4427575e-05 -0.093704656 0.051691309 2.0938492e-38
0.0016649552 -0.093704656 0.051691309 1.8086569e-38
0.0034200661 -0.095156729 0.045711651 1.5783866e-38
0.0052357521 -0.098803028 0.030696228 1.3018016e-38
0.0070119463 -0.098803028 0.030696228 1.12663e-38
0.0087881424 -0.098803028 0.030696228 8.0390951e-39
0.010564337 -0.098803028 0.030696228 7.5788387e-39
0.012375377 -0.099545494 0.027638748 7.3018958e-39
0.01419603 -0.10026747 0.024665669 7.5784855e-39
0.016117297 -0.10245901 0.015640929 9.4216835e-39
0.017919889 -0.10245901 0.015640929 6.8398499e-39
0.019722482 -0.10245901 0.015640929 6.4710702e-39
0.021525074 -0.10245901 0.015640929 4.6260814e-39
0.023327665 -0.10245901 0.015640929 3.611212e-39
0.025199816 -0.10317262 0.012702301 4.3484211e-39
0.027185362 -0.10487093 0.0057086498 3.9785624e-39
0.029086782 -0.10559841 0.0027129203 5.1760266e-39
0.030912042 -0.10559841 0.0027129203 7.0163364e-39
0.032922741 -0.10706602 -0.0033307523 1.1716144e-38
0.034853932 -0.10777976 -0.0062698573 1.3744434e-38
0.036833566 -0.10876434 -0.010324404 1.4574535e-38
0.038681682 -0.10876434 -0.010324404 1.5772337e-38
0.040754993 -0.11021499 -0.01629822 1.7339645e-38
0.042732425 -0.11094652 -0.019310638 1.8906955e-38
0.044762898 -0.11192839 -0.023353979 1.863e-38
0.046760127 -0.11264218 -0.026293322 1.936648e-38
0.048952561 -0.1143602 -0.033368155 1.9641985e-38
0.050841082 -0.1143602 -0.033368155 1.9826016e-38
0.052729603 -0.1143602 -0.033368155 2.0839449e-38
0.054964736 -0.11604463 -0.040304586 2.1484822e-38
0.057174031 -0.11749353 -0.04627113 2.0469591e-38
0.059085175 -0.11749353 -0.04627113 1.936324e-38
0.061218034 -0.11846836 -0.050285503 1.9915695e-38
0.06313622 -0.11846836 -0.050285503 1.9730581e-38
0.065235883 -0.11921866 -0.053375289 2.0467427e-38
0.067159489 -0.11921866 -0.053375289 2.0744014e-38
0.06908308 -0.11921866 -0.053375289 2.0744017e-38
0.071513683 -0.12114246 -0.061297461 1.9730584e-38
0.074376985 -0.1245618 -0.075378224 1.9545836e-38
0.076607972 -0.12552883 -0.079360411 1.9453641e-38
0.07878527 -0.1262586 -0.082365677 1.9453644e-38
0.08103703 -0.12720706 -0.086271331 1.9084142e-38
0.083601981 -0.12915494 -0.094292805 1.890047e-38
0.085827276 -0.12990431 -0.097378656 1.8531687e-38
0.088133916 -0.13087825 -0.10138933 1.7701924e-38
0.090446636 -0.13182731 -0.10529761 1.6687772e-38
0.092785701 -0.13281487 -0.10936432 1.5489229e-38
0.095130578 -0.13377722 -0.11332731 1.4659468e-38
0.097159296 -0.13377722 -0.11332731 1.4198124e-38
0.099869013 -0.13572191 -0.12133555 1.4566542e-38
0.10191177 -0.13572191 -0.12133555 1.1707755e-38
0.10395452 -0.13572191 -0.12133555 9.1262799e-39
0.10599728 -0.13572191 -0.12133555 2.7550649e-40
0.10804003 -0.13572191 -0.12133555 9.2051436e-40
0.11008279 -0.13572191 -0.12133555 1.3814953e-39
-0.09744601 -0.10426159 0.015640929 1.3010053e-38
-0.095359579 -0.10352151 0.018666819 1.3012245e-38
-0.09356229 -0.10352151 0.018666819 1.227686e-38
-0.091765001 -0.10352151 0.018666819 1.1633302e-38
-0.089967713 -0.10352151 0.018666819 1.2371588e-38
-0.088170424 -0.10352151 0.018666819 1.1727289e-38
-0.08637315 -0.10352151 0.018666819 1.1728732e-38
-0.084575862 -0.10352151 0.018666819 1.1084819e-38
-0.082778573 -0.10352151 0.018666819 1.1177382e-38
-0.080741301 -0.10278571 0.021675065 1.1361054e-38
-0.078949288 -0.10278571 0.021675065 1.1268857e-38
-0.077157274 -0.10278571 0.021675065 1.136069e-38
-0.075142413 -0.10205424 0.024665669 1.172839e-38
-0.07313931 -0.10132705 0.027638748 1.2096807e-38
-0.071357757 -0.10132705 0.027638748 1.2464865e-38
-0.069364443 -0.10057923 0.030696228 1.3202067e-38
-0.067588255 -0.10057923 0.030696228 1.1541103e-38
-0.065612227 -0.099835888 0.03373535 1.1356346e-38
-0.063841373 -0.099835888 0.03373535 1.2277579e-38
-0.061888725 -0.099121556 0.036655858 1.1816598e-38
-0.059941292 -0.098386943 0.039659336 1.0709889e-38
-0.058180809 -0.098386943 0.039659336 1.0155993e-38
-0.056420334 -0.098386943 0.039659336 9.6031839e-39
-0.054494947 -0.097656667 0.042645052 9.0511059e-39
-0.05273971 -0.097656667 0.042645052 9.4213303e-39
-0.050984457 -0.097656667 0.042645052 9.3305696e-39
-0.04922922 -0.097656667 0.042645052 9.7926198e-39
-0.047473967 -0.097656667 0.042645052 9.2397991e-39
-0.045718729 -0.097656667 0.042645052 9.4231002e-39
-0.043963477 -0.097656667 0.042645052 1.3660854e-38
-0.042208239 -0.097656667 0.042645052 1.7436546e-38
-0.040452991 -0.097656667 0.042645052 2.0197351e-38
-0.036826901 -0.096906602 0.045711651 2.2587585e-38
-0.034862105 -0.095444039 0.051691309 2.3416256e-38
-0.033019755 -0.094707444 0.054702833 2.314075e-38
-0.031285655 -0.094707444 0.054702833 2.1851824e-38
-0.029551551 -0.094707444 0.054702833 2.1577394e-38
-0.027817443 -0.094707444 0.054702833 2.240786e-38
-0.026028182 -0.094211012 0.056732491 2.1855053e-38
-0.02414652 -0.092757151 0.062676564 2.2591531e-38
-0.022426397 -0.092757151 0.062676564 2.1854336e-38
-0.020706274 -0.092757151 0.062676564 2.2775202e-38
-0.018986151 -0.092757151 0.062676564 2.2682649e-38
-0.017320577 -0.093481898 0.059713498 2.0285222e-38
-0.016594887 -0.10816063 -0.00030021369 2.0008635e-38
-0.014764346 -0.10816063 -0.00030021369 1.7058019e-38
-0.012144625 -0.093481898 0.059713498 1.7427166e-38
-0.010419305 -0.093481898 0.059713498 1.7059828e-38
-0.0086939856 -0.093481898 0.059713498 1.7430417e-38
-0.0069921874 -0.094211012 0.056732491 1.8814796e-38
-0.0052616429 -0.094211012 0.056732491 1.7617706e-38
-0.0035399944 -0.094707444 0.054702833 1.3655456e-38
-0.0018138122 -0.095444039 0.051691309 9.6917697e-39
-7.4427575e-05 -0.095444039 0.051691309 7.8511026e-39
0.0016676113 -0.096185118 0.048661426 4.3534336e-39
0.0034200661 -0.096906602 0.045711651 3.0652185e-39
0.0051699337 -0.096906602 0.045711651 2.1432636e-39
0.0069932975 -0.099835888 0.03373535 3.3418068e-39
0.0087641636 -0.099835888 0.03373535 3.8017129e-39
0.010564337 -0.10057923 0.030696228 6.7516129e-39
0.012375377 -0.10132705 0.027638748 8.5944465e-39
0.01419603 -0.10205424 0.024665669 9.700078e-39
0.016027369 -0.10278571 0.021675065 9.7904758e-39
0.017869487 -0.10352151 0.018666819 6.9309721e-39
0.019722482 -0.10426159 0.015640929 6.6525874e-39
0.021525074 -0.10426159 0.015640929 5.6373537e-39
0.023327665 -0.10426159 0.015640929 5.0827379e-39
0.025199816 -0.10498036 0.012702301 7.2017955e-39
0.027185362 -0.10669093 0.0057086498 9.1371849e-39
0.029086782 -0.10742365 0.0027129203 1.1256244e-38
0.030912042 -0.10742365 0.0027129203 1.0793461e-38
0.032922741 -0.10890187 -0.0033307523 1.6231913e-38
0.034853932 -0.10962076 -0.0062698573 1.8813002e-38
0.036833566 -0.11061247 -0.010324404 2.0011886e-38
0.038681682 -0.11061247 -0.010324404 2.1394082e-38
0.040754993 -0.11207359 -0.01629822 2.1670663e-38
0.042732425 -0.11281042 -0.019310638 2.2223466e-38
0.044762898 -0.11379938 -0.023353979 2.2223097e-38
0.046760127 -0.1145183 -0.026293322 2.2499322e-38
0.048952561 -0.11624874 -0.033368155 2.2590439e-38
0.050841082 -0.11624874 -0.033368155 2.2681917e-38
0.052729603 -0.11624874 -0.033368155 2.3142537e-38
0.054964736 -0.11794533 -0.040304586 2.3234374e-38
0.057022329 -0.11868732 -0.043338224 2.3234372e-38
0.059085175 -0.11940466 -0.04627113 2.2313133e-38
0.06099632 -0.11940466 -0.04627113 2.148265e-38
0.06313622 -0.12038656 -0.050285503 2.1297539e-38
0.065235883 -0.12114228 -0.053375289 2.2864505e-38
0.067159489 -0.12114228 -0.053375289 2.1665962e-38
0.06932874 -0.12210761 -0.05732207 2.074365e-38
0.071513683 -0.12307997 -0.061297461 1.9545108e-38
0.074376985 -0.12652399 -0.075378224 2.019084e-38
0.076607972 -0.12749799 -0.079360411 2.0098647e-38
0.07878527 -0.12823303 -0.082365677 1.9453281e-38
0.081325352 -0.13018142 -0.090331599 1.8162542e-38
0.083601981 -0.13115029 -0.094292805 1.8070709e-38
0.085827276 -0.13190506 -0.097378656 1.7701927e-38
0.088133916 -0.13288604 -0.10138933 1.6687772e-38
0.090446636 -0.13384195 -0.10529761 1.5489229e-38
0.092785701 -0.13483663 -0.10936432 1.4843859e-38
0.094807476 -0.13483663 -0.10936432 1.4843859e-38
0.097491622 -0.13678192 -0.1173176 1.5120802e-38
0.099869013 -0.13776468 -0.12133555 1.4843131e-38
0.10191177 -0.13776468 -0.12133555 1.1892869e-38
0.10395452 -0.13776468 -0.12133555 9.2181182e-39
0.10599728 -0.13776468 -0.12133555 7.372021e-40
0.10804003 -0.13776468 -0.12133555 1.1049084e-39
0.11008279 -0.13776468 -0.12133555 1.5666096e-39
-0.09744601 -0.10606419 0.015640929 1.41164e-38
-0.095359579 -0.1053188 0.018666819 1.4026034e-38
-0.09356229 -0.1053188 0.018666819 1.3566155e-38
-0.091765001 -0.1053188 0.018666819 1.31981e-38
-0.089967713 -0.1053188 0.018666819 1.338321e-38
-0.088170424 -0.1053188 0.018666819 1.2645994e-38
-0.08637315 -0.1053188 0.018666819 1.2278658e-38
-0.084325314 -0.10457774 0.021675065 1.1912416e-38
-0.082533315 -0.10457774 0.021675065 1.1729113e-38
-0.080741301 -0.10457774 0.021675065 1.2004979e-38
-0.078949288 -0.10457774 0.021675065 1.2189367e-38
-0.076929182 -0.10384102 0.024665669 1.2189367e-38
-0.075142413 -0.10384102 0.024665669 1.2281203e-38
-0.07313931 -0.1031086 0.027638748 1.2465591e-38
-0.071357757 -0.1031086 0.027638748 1.2557785e-38
-0.069364443 -0.10235542 0.030696228 1.2741455e-38
-0.067588255 -0.10235542 0.030696228 1.1819496e-38
-0.065612227 -0.10160676 0.03373535 1.1542546e-38
-0.063841373 -0.10160676 0.03373535 1.1265959e-38
-0.061701775 -0.10014741 0.039659336 1.0436196e-38
-0.059941292 -0.10014741 0.039659336 1.0067413e-38
-0.058005437 -0.099411905 0.042645052 1.0159249e-38
-0.0562502 -0.099411905 0.042645052 9.514242e-39
-0.054494947 -0.099411905 0.042645052 8.5004559e-39
-0.05273971 -0.099411905 0.042645052 7.6714169e-39
-0.050984457 -0.099411905 0.042645052 6.1055331e-39
-0.04922922 -0.099411905 0.042645052 6.5672329e-39
-0.047473967 -0.099411905 0.042645052 6.290646e-39
-0.045718729 -0.099411905 0.042645052 5.550923e-39
-0.043963477 -0.099411905 0.042645052 6.8377031e-39
-0.042076506 -0.098656476 0.045711651 8.0319261e-39
-0.040326636 -0.098656476 0.045711651 1.0239938e-38
-0.038576771 -0.098656476 0.045711651 1.2356833e-38
-0.036826901 -0.098656476 0.045711651 1.6226521e-38
-0.034862105 -0.097183421 0.051691309 2.0282729e-38
-0.033019755 -0.096441552 0.054702833 2.2312078e-38
-0.031285655 -0.096441552 0.054702833 2.2038365e-38
-0.029551551 -0.096441552 0.054702833 2.1672099e-38
-0.027817443 -0.096441552 0.054702833 2.1856847e-38
-0.026028182 -0.095941558 0.056732491 2.0660115e-38
-0.02414652 -0.094477281 0.062676564 1.9461949e-38
-0.022426397 -0.094477281 0.062676564 1.7155642e-38
-0.020706274 -0.094477281 0.062676564 2.0473933e-38
-0.019045897 -0.095207214 0.059713498 2.2132353e-38
-0.017320577 -0.095207214 0.059713498 2.1210411e-38
-0.015595257 -0.095207214 0.059713498 2.0379945e-38
-0.013869941 -0.095207214 0.059713498 1.6968725e-38
-0.012144625 -0.095207214 0.059713498 1.6784698e-38
-0.010419305 -0.095207214 0.059713498 1.6047499e-38
-0.0086939856 -0.095207214 0.059713498 1.4020283e-38
-0.0069921874 -0.095941558 0.056732491 1.2362925e-38
-0.0052616429 -0.095941558 0.056732491 1.2364015e-38
-0.0035399944 -0.096441552 0.054702833 9.9687322e-39
-0.0018138122 -0.097183421 0.051691309 6.46638e-39
-7.4427575e-05 -0.097183421 0.051691309 3.6119183e-39
0.0016676113 -0.09792982 0.048661426 2.7879169e-39
0.0034200661 -0.098656476 0.045711651 1.5922576e-39
0.0051699337 -0.098656476 0.045711651 1.3145931e-39
0.0069932975 -0.10160676 0.03373535 3.4343737e-39
0.0087641636 -0.10160676 0.03373535 4.6318435e-39
0.010564337 -0.10235542 0.030696228 7.7657761e-39
0.012340533 -0.10235542 0.030696228 8.8699656e-39
0.014156934 -0.1031086 0.027638748 9.1451106e-39
0.016027369 -0.10457774 0.021675065 1.0342212e-38
0.017869487 -0.1053188 0.018666819 7.9429633e-39
0.019666774 -0.1053188 0.018666819 7.4801802e-39
0.021525074 -0.10606419 0.015640929 6.9252002e-39
0.023327665 -0.10606419 0.015640929 6.5538925e-39
0.025199816 -0.10678811 0.012702301 8.3048836e-39
0.027185362 -0.10851096 0.0057086498 1.0885637e-38
0.029086782 -0.10924892 0.0027129203 1.2728105e-38
0.030999212 -0.10999118 -0.00030021369 1.5216303e-38
0.032922741 -0.11073773 -0.0033307523 1.9087791e-38
0.034853932 -0.11146177 -0.0062698573 2.0655093e-38
0.036833566 -0.11246057 -0.010324404 2.2037648e-38
0.038681682 -0.11246057 -0.010324404 2.2958873e-38
0.040642079 -0.1131943 -0.013302848 2.2405699e-38
0.042732425 -0.11467429 -0.019310638 2.268228e-38
0.0445963 -0.11467429 -0.019310638 2.3142537e-38
0.046633862 -0.11567034 -0.023353979 2.3418047e-38
0.048773482 -0.11715056 -0.029362842 2.3418047e-38
0.050841082 -0.11813726 -0.033368155 2.341805e-38
0.052729603 -0.11813726 -0.033368155 2.2680844e-38
0.054964736 -0.119846 -0.040304586 2.2219863e-38
0.057022329 -0.12059332 -0.043338224 2.2957782e-38
0.059085175 -0.12131582 -0.04627113 2.2590073e-38
0.06099632 -0.12131582 -0.04627113 2.1483003e-38
0.06313622 -0.12230472 -0.050285503 2.0098988e-38
0.065235883 -0.12306587 -0.053375289 2.0097909e-38
0.067159489 -0.12306587 -0.053375289 1.8438389e-38
0.06932874 -0.12403814 -0.05732207 2.0283025e-38
0.071513683 -0.12501745 -0.061297461 1.9361071e-38
0.074376985 -0.12848614 -0.075378224 1.9452911e-38
0.076607972 -0.12946714 -0.079360411 1.9638022e-38
0.07878527 -0.13020746 -0.082365677 1.9729862e-38
0.08103703 -0.1311696 -0.086271331 1.770228e-38
0.083313748 -0.13216983 -0.090331599 1.7701924e-38
0.085597321 -0.13314565 -0.094292805 1.7240946e-38
0.087828025 -0.13390581 -0.097378656 1.585909e-38
0.090446636 -0.13585658 -0.10529761 1.4568351e-38
0.092785701 -0.13685839 -0.10936432 1.4015175e-38
0.094807476 -0.13685839 -0.10936432 1.4476153e-38
0.097491622 -0.13881765 -0.1173176 1.5121522e-38
0.099869013 -0.13980745 -0.12133555 1.4475067e-38
0.10191177 -0.13980745 -0.12133555 1.1893589e-38
0.10431276 -0.14080413 -0.12538151 9.1270044e-39
0.10636261 -0.14080413 -0.12538151 1.1985432e-39
0.10841246 -0.14080413 -0.12538151 9.2124024e-40
0.11046232 -0.14080413 -0.12538151 1.7513638e-39
-0.09744601 -0.10786678 0.015640929 1.6421291e-38
-0.095359579 -0.10711606 0.018666819 1.6145813e-38
-0.09356229 -0.10711606 0.018666819 1.5685569e-38
-0.091765001 -0.10711606 0.018666819 1.540863e-38
-0.089967713 -0.10711606 0.018666819 1.5316433e-38
-0.088170424 -0.10711606 0.018666819 1.5039832e-38
-0.08637315 -0.10711606 0.018666819 1.4856884e-38
-0.084325314 -0.10636975 0.021675065 1.4214411e-38
-0.082533315 -0.10636975 0.021675065 1.3662322e-38
-0.080741301 -0.10636975 0.021675065 1.3570128e-38
-0.07871595 -0.10562779 0.024665669 1.3570128e-38
-0.076929182 -0.10562779 0.024665669 1.3293545e-38
-0.074920863 -0.10489015 0.027638748 1.2740736e-38
-0.07313931 -0.10489015 0.027638748 1.2556345e-38
-0.071140647 -0.10413162 0.030696228 1.2556345e-38
-0.069153965 -0.10337763 0.03373535 1.2280477e-38
-0.067383096 -0.10337763 0.03373535 1.2557065e-38
-0.065612227 -0.10337763 0.03373535 1.2742174e-38
-0.063654467 -0.10265306 0.036655858 1.209681e-38
-0.061701775 -0.10190789 0.039659336 1.0898267e-38
-0.05976069 -0.10116716 0.042645052 1.0529847e-38
-0.058005437 -0.10116716 0.042645052 1.025326e-38
-0.0562502 -0.10116716 0.042645052 9.1469155e-39
-0.054494947 -0.10116716 0.042645052 8.779212e-39
-0.05273971 -0.10116716 0.042645052 8.6866604e-39
-0.050984457 -0.10116716 0.042645052 7.580317e-39
-0.04922922 -0.10116716 0.042645052 7.8558277e-39
-0.047473967 -0.10116716 0.042645052 7.1171893e-39
-0.045718729 -0.10116716 0.042645052 5.5484273e-39
-0.043826371 -0.10040633 0.045711651 5.4526387e-39
-0.042076506 -0.10040633 0.045711651 4.896944e-39
-0.040326636 -0.10040633 0.045711651 3.9721052e-39
-0.038576771 -0.10040633 0.045711651 4.1543329e-39
-0.036826901 -0.10040633 0.045711651 4.8900888e-39
-0.034862105 -0.098922804 0.051691309 5.7205572e-39
-0.033019755 -0.09817566 0.054702833 5.7216249e-39
-0.031285655 -0.09817566 0.054702833 4.5245111e-39
-0.029551551 -0.09817566 0.054702833 3.4188754e-39
-0.027817443 -0.09817566 0.054702833 2.7760227e-39
-0.026028182 -0.097672105 0.056732491 2.3168508e-39
-0.02429764 -0.097672105 0.056732491 3.8848996e-39
-0.022496533 -0.09693253 0.059713498 5.3585877e-39
-0.020771213 -0.09693253 0.059713498 8.4928748e-39
-0.019045897 -0.09693253 0.059713498 9.2289979e-39
-0.017320577 -0.09693253 0.059713498 8.6743808e-39
-0.015595257 -0.09693253 0.059713498 1.1808313e-38
-0.013869941 -0.09693253 0.059713498 1.4112484e-38
-0.012144625 -0.09693253 0.059713498 1.5679452e-38
-0.010419305 -0.09693253 0.059713498 1.5957121e-38
-0.0086939856 -0.09693253 0.059713498 1.0979284e-38
-0.0069921874 -0.097672105 0.056732491 2.498731e-39
-0.0052616429 -0.097672105 0.056732491 2.8784212e-40
-0.0035399944 -0.09817566 0.054702833 9.3465627e-40
-0.0018138122 -0.098922804 0.051691309 1.7655015e-39
-7.4427575e-05 -0.098922804 0.051691309 1.1226489e-39
0.0016676113 -0.099674508 0.048661426 1.6804988e-39
0.0034200661 -0.10040633 0.045711651 1.5893821e-39
0.0051964633 -0.10190789 0.039659336 2.2347572e-39
0.0069753751 -0.10265306 0.036655858 5.2764969e-39
0.0087641636 -0.10337763 0.03373535 6.9349434e-39
0.010564337 -0.10413162 0.030696228 1.0068156e-38
0.012340533 -0.10413162 0.030696228 1.0435496e-38
0.014156934 -0.10489015 0.027638748 1.0065272e-38
0.015982799 -0.10562779 0.024665669 1.0431891e-38
0.01781938 -0.10636975 0.021675065 9.6003238e-39
0.019611392 -0.10636975 0.021675065 9.5988735e-39
0.021525074 -0.10786678 0.015640929 1.0334266e-38
0.023327665 -0.10786678 0.015640929 1.1715392e-38
0.025199816 -0.10859586 0.012702301 1.4480171e-38
0.027185362 -0.11033095 0.0057086498 1.7614814e-38
0.029086782 -0.11107419 0.0027129203 1.964167e-38
0.030999212 -0.11182173 -0.00030021369 2.1115347e-38
0.032922741 -0.11257361 -0.0033307523 2.2590454e-38
0.034853932 -0.11330278 -0.0062698573 2.2405707e-38
0.036833566 -0.1143087 -0.010324404 2.2958514e-38
0.038681682 -0.1143087 -0.010324404 2.3142544e-38
0.040642079 -0.11504765 -0.013302848 2.2773037e-38
0.042732425 -0.11653815 -0.019310638 2.332621e-38
0.0445963 -0.11653815 -0.019310638 2.3509886e-38
0.046633862 -0.1175413 -0.023353979 2.3048554e-38
0.048636243 -0.11827053 -0.026293322 2.3509527e-38
0.050654981 -0.11903207 -0.029362842 2.2679776e-38
0.052729603 -0.12002577 -0.033368155 1.9177058e-38
0.05476778 -0.1207688 -0.03636305 1.5120446e-38
0.057022329 -0.1224993 -0.043338224 1.3093572e-38
0.059085175 -0.12322696 -0.04627113 1.1803185e-38
0.06099632 -0.12322696 -0.04627113 9.9585447e-39
0.06313622 -0.12422292 -0.050285503 9.680876e-39
0.065235883 -0.12498946 -0.053375289 8.7581967e-39
0.067159489 -0.12498946 -0.053375289 1.0602112e-38
0.069576189 -0.12695493 -0.061297461 2.0190102e-38
0.071707636 -0.12770687 -0.064328238 2.0559609e-38
0.074376985 -0.13044833 -0.075378224 1.8807894e-38
0.076607972 -0.1314363 -0.079360411 1.8716065e-38
0.078577131 -0.1314363 -0.079360411 1.9545827e-38
0.08103703 -0.13315089 -0.086271331 1.7610081e-38
0.083018318 -0.13315089 -0.086271331 1.7794475e-38
0.085597321 -0.13514097 -0.094292805 1.7242022e-38
0.087592661 -0.13514097 -0.094292805 1.5859087e-38
0.090446636 -0.13787122 -0.10529761 1.4291762e-38
0.092785701 -0.13888018 -0.10936432 1.3278326e-38
0.0954559 -0.14085336 -0.1173176 1.3554916e-38
0.097826242 -0.14185019 -0.12133555 1.4108087e-38
0.10021307 -0.14285399 -0.12538151 1.4014452e-38
0.10226291 -0.14285399 -0.12538151 1.1709561e-38
0.10431276 -0.14285399 -0.12538151 8.8507805e-39
0.10636261 -0.14285399 -0.12538151 1.5673285e-39
0.10877493 -0.14383091 -0.12931924 1.0137988e-39
0.11083169 -0.14383091 -0.12931924 2.0279521e-39
-0.09744601 -0.10966937 0.015640929 1.752692e-38
-0.095359579 -0.10891335 0.018666819 1.7620217e-38
-0.09356229 -0.10891335 0.018666819 1.706741e-38
-0.091765001 -0.10891335 0.018666819 1.6698275e-38
-0.089967713 -0.10891335 0.018666819 1.6513169e-38
-0.088170424 -0.10891335 0.018666819 1.6605352e-38
-0.08637315 -0.10891335 0.018666819 1.6790459e-38
-0.084325314 -0.10816176 0.021675065 1.5317135e-38
-0.082533315 -0.10816176 0.021675065 1.4673211e-38
-0.080502719 -0.10741456 0.024665669 1.4672853e-38
-0.07871595 -0.10741456 0.024665669 1.5041639e-38
-0.076702416 -0.10667174 0.027638748 1.4857973e-38
-0.074920863 -0.10667174 0.027638748 1.4397357e-38
-0.072916836 -0.10590781 0.030696228 1.4121494e-38
-0.071140647 -0.10590781 0.030696228 1.4122217e-38
-0.069153965 -0.10514848 0.03373535 1.2463063e-38
-0.067383096 -0.10514848 0.03373535 1.2371955e-38
-0.065612227 -0.10514848 0.03373535 1.2833292e-38
-0.063654467 -0.1044188 0.036655858 1.218865e-38
-0.061701775 -0.10366838 0.039659336 1.0990476e-38
-0.05976069 -0.10292239 0.042645052 1.0530224e-38
-0.058005437 -0.10292239 0.042645052 1.0161803e-38
-0.0562502 -0.10292239 0.042645052 9.2398496e-39
-0.054494947 -0.10292239 0.042645052 8.1335048e-39
-0.05273971 -0.10292239 0.042645052 8.4093729e-39
-0.050984457 -0.10292239 0.042645052 7.6692897e-39
-0.04922922 -0.10292239 0.042645052 7.9433626e-39
-0.047473967 -0.10292239 0.042645052 8.1255959e-39
-0.045718729 -0.10292239 0.042645052 7.8475699e-39
-0.043826371 -0.10215621 0.045711651 7.846851e-39
-0.042076506 -0.10215621 0.045711651 6.5561122e-39
-0.040326636 -0.10215621 0.045711651 6.1880485e-39
-0.038576771 -0.10215621 0.045711651 5.08278e-39
-0.036715705 -0.10141921 0.048661426 3.7002057e-39
-0.034862105 -0.10066219 0.051691309 2.7786053e-39
-0.033019755 -0.099909768 0.054702833 2.2247127e-39
-0.031285655 -0.099909768 0.054702833 2.0392424e-39
-0.029551551 -0.099909768 0.054702833 2.0378005e-39
-0.027817443 -0.099909768 0.054702833 1.5786174e-39
-0.026083343 -0.099909768 0.054702833 1.3056164e-39
-0.02429764 -0.099402651 0.056732491 9.3862755e-40
-0.022567093 -0.099402651 0.056732491 1.4903566e-39
-0.020771213 -0.098657846 0.059713498 2.7800108e-39
-0.019045897 -0.098657846 0.059713498 3.055153e-39
-0.017375458 -0.099402651 0.056732491 3.0529921e-39
-0.015595257 -0.098657846 0.059713498 3.8823885e-39
-0.013869941 -0.098657846 0.059713498 5.1716882e-39
-0.012144625 -0.098657846 0.059713498 6.7390139e-39
-0.010419305 -0.098657846 0.059713498 1.0242092e-38
-0.0087227337 -0.099402651 0.056732491 8.5829349e-39
-0.0069921874 -0.099402651 0.056732491 1.1165336e-39
-0.0052616429 -0.099402651 0.056732491 1.0188841e-41
-0.0035399944 -0.099909768 0.054702833 6.5844352e-40
-0.0018138122 -0.10066219 0.051691309 2.9640587e-39
-7.4427575e-05 -0.10066219 0.051691309 3.794897e-39
0.0016676113 -0.10141921 0.048661426 2.7818143e-39
0.0034281313 -0.10292239 0.042645052 3.4282599e-39
0.0051833764 -0.10292239 0.042645052 4.7190043e-39
0.0069569433 -0.10366838 0.039659336 7.7603839e-39
0.0087411208 -0.1044188 0.036655858 8.6819843e-39
0.01053503 -0.10514848 0.03373535 1.0893961e-38
0.012340533 -0.10590781 0.030696228 1.0524455e-38
0.014156934 -0.10667174 0.027638748 9.6021329e-39
0.015938491 -0.10667174 0.027638748 9.6003294e-39
0.017769568 -0.10741456 0.024665669 1.0336801e-38
0.019611392 -0.10816176 0.021675065 1.0243869e-38
0.021525074 -0.10966937 0.015640929 1.1256209e-38
0.023327665 -0.10966937 0.015640929 1.3652559e-38
0.025199816 -0.11040358 0.012702301 1.6140748e-38
0.027185362 -0.11215095 0.0057086498 1.8537824e-38
0.029086782 -0.11289944 0.0027129203 2.0195897e-38
0.030999212 -0.11365227 -0.00030021369 2.2406783e-38
0.032922741 -0.11440946 -0.0033307523 2.3142544e-38
0.034853932 -0.11514379 -0.0062698573 2.2958151e-38
0.036833566 -0.1161568 -0.010324404 2.3418047e-38
0.038681682 -0.1161568 -0.010324404 2.350988e-38
0.040642079 -0.11690097 -0.013302848 2.3509883e-38
0.042613585 -0.11764936 -0.01629822 2.3509886e-38
0.04447218 -0.11764936 -0.01629822 2.2955644e-38
0.046460174 -0.11840202 -0.019310638 2.3508809e-38
0.048504826 -0.11941226 -0.023353979 2.1849311e-38
0.050512362 -0.12014665 -0.026293322 1.9728814e-38
0.05253648 -0.12091358 -0.029362842 1.6041702e-38
0.05476778 -0.12266256 -0.03636305 1.1064566e-38
0.05686542 -0.12364738 -0.040304586 7.5621996e-39
0.058928333 -0.12440531 -0.043338224 4.9814297e-39
0.06099632 -0.12513812 -0.04627113 2.5839733e-39
0.062907465 -0.12513812 -0.04627113 1.1070482e-39
0.065235883 -0.12691309 -0.053375289 9.2122482e-40
0.067159489 -0.12691309 -0.053375289 6.1767176e-39
0.069576189 -0.12889244 -0.061297461 2.0651433e-38
0.071965307 -0.13065563 -0.068354532 2.1666311e-38
0.074376985 -0.13241051 -0.075378224 1.9822401e-38
0.076339155 -0.13241051 -0.075378224 1.9638374e-38
0.078577131 -0.13340546 -0.079360411 1.9545822e-38
0.080759689 -0.13415633 -0.082365677 1.779447e-38
0.083018318 -0.13513215 -0.086271331 1.7886668e-38
0.085597321 -0.13713633 -0.094292805 1.7242378e-38
0.087592661 -0.13713633 -0.094292805 1.5951639e-38
0.090446636 -0.13988586 -0.10529761 1.4200282e-38
0.092785701 -0.14090194 -0.10936432 1.3278682e-38
0.0954559 -0.14288907 -0.1173176 1.3462717e-38
0.097826242 -0.14389296 -0.12133555 1.4015891e-38
0.10021307 -0.14490382 -0.12538151 1.4199922e-38
0.10226291 -0.14490382 -0.12538151 1.1710284e-38
0.10466142 -0.14588766 -0.12931924 8.7589478e-39
0.10671818 -0.14588766 -0.12931924 2.0286696e-39
0.10913986 -0.1468782 -0.13328366 1.4754972e-39
0.11120357 -0.1468782 -0.13328366 2.7658801e-39
-0.09744601 -0.11147197 0.015640929 2.0751233e-38
-0.095359579 -0.11071064 0.018666819 2.1305116e-38
-0.09356229 -0.11071064 0.018666819 2.0936698e-38
-0.091765001 -0.11071064 0.018666819 2.0382456e-38
-0.089967713 -0.11071064 0.018666819 1.9460514e-38
-0.088170424 -0.11071064 0.018666819 1.9460514e-38
-0.086117327 -0.10995375 0.021675065 1.9644903e-38
-0.084325314 -0.10995375 0.021675065 1.9000978e-38
-0.082533315 -0.10995375 0.021675065 1.8355976e-38
-0.080502719 -0.10920133 0.024665669 1.807939e-38
-0.07871595 -0.10920133 0.024665669 1.7987558e-38
-0.076702416 -0.10845329 0.027638748 1.7527661e-38
-0.074920863 -0.10845329 0.027638748 1.6698266e-38
-0.072916836 -0.107684 0.030696228 1.5961789e-38
-0.071140647 -0.107684 0.030696228 1.5962153e-38
-0.069364443 -0.107684 0.030696228 1.5686649e-38
-0.067383096 -0.10691936 0.03373535 1.4581395e-38
-0.06542021 -0.10618456 0.036655858 1.3845276e-38
-0.063462257 -0.10542886 0.039659336 1.3015528e-38
-0.061701775 -0.10542886 0.039659336 1.1357455e-38
-0.05976069 -0.10467763 0.042645052 1.071245e-38
-0.058005437 -0.10467763 0.042645052 1.0528785e-38
-0.0562502 -0.10467763 0.042645052 9.9759727e-39
-0.054494947 -0.10467763 0.042645052 8.6859569e-39
-0.05273971 -0.10467763 0.042645052 8.9625438e-39
-0.050984457 -0.10467763 0.042645052 8.0377093e-39
-0.04922922 -0.10467763 0.042645052 7.7586056e-39
-0.047473967 -0.10467763 0.042645052 8.0330345e-39
-0.045718729 -0.10467763 0.042645052 7.9397627e-39
-0.043826371 -0.10390608 0.045711651 7.9397627e-39
-0.042076506 -0.10390608 0.045711651 6.0969319e-39
-0.040326636 -0.10390608 0.045711651 4.8079938e-39
-0.038576771 -0.10390608 0.045711651 4.7172401e-39
-0.036715705 -0.10316391 0.048661426 4.5335705e-39
-0.034862105 -0.10240157 0.051691309 4.0722364e-39
-0.033019755 -0.10164386 0.054702833 3.9793247e-39
-0.031285655 -0.10164386 0.054702833 4.1622782e-39
-0.029551551 -0.10164386 0.054702833 4.1604804e-39
-0.027758725 -0.1011332 0.056732491 3.5161843e-39
-0.026028182 -0.1011332 0.056732491 2.6900096e-39
-0.02429764 -0.1011332 0.056732491 1.8620384e-39
-0.022567093 -0.1011332 0.056732491 2.4144877e-39
-0.020836547 -0.1011332 0.056732491 2.136819e-39
-0.019106001 -0.1011332 0.056732491 2.3197683e-39
-0.017375458 -0.1011332 0.056732491 2.5027191e-39
-0.015595257 -0.10038316 0.059713498 1.6715165e-39
-0.013869941 -0.10038316 0.059713498 1.5789579e-39
-0.012144625 -0.10038316 0.059713498 1.3934876e-39
-0.010419305 -0.10038316 0.059713498 3.8827696e-39
-0.0086939856 -0.10038316 0.059713498 3.8827724e-39
-0.0069686677 -0.10038316 0.059713498 5.6445283e-40
-0.0052433498 -0.10038316 0.059713498 2.0410234e-39
-0.0035310984 -0.1011332 0.056732491 2.133582e-39
-0.0018058922 -0.10164386 0.054702833 3.05626e-39
-7.4427575e-05 -0.10240157 0.051691309 3.8856549e-39
0.0016676113 -0.10316391 0.048661426 4.5306544e-39
0.0034281313 -0.10467763 0.042645052 6.0983346e-39
0.0051833764 -0.10467763 0.042645052 8.1266385e-39
0.0069569433 -0.10542886 0.039659336 1.1444602e-38
0.0087411208 -0.10618456 0.036655858 1.2274363e-38
0.01053503 -0.10691936 0.03373535 1.4486689e-38
0.012340533 -0.107684 0.030696228 1.411791e-38
0.014156934 -0.10845329 0.027638748 1.3563648e-38
0.015938491 -0.10845329 0.027638748 1.3470005e-38
0.017769568 -0.10920133 0.024665669 1.5683047e-38
0.019666774 -0.11071064 0.018666819 1.6235125e-38
0.021525074 -0.11147197 0.015640929 1.7616966e-38
0.023327665 -0.11147197 0.015640929 2.0382098e-38
0.025199816 -0.11221133 0.012702301 2.1672817e-38
0.027185362 -0.11397095 0.0057086498 2.2224189e-38
0.029086782 -0.11472471 0.0027129203 2.2591531e-38
0.030999212 -0.11548282 -0.00030021369 2.2682283e-38
0.033012923 -0.1169848 -0.0062698573 2.3418045e-38
0.034853932 -0.1169848 -0.0062698573 2.3418045e-38
0.036833566 -0.11800493 -0.010324404 2.3418045e-38
0.038681682 -0.11800493 -0.010324404 2.3325492e-38
0.040642079 -0.11875431 -0.013302848 2.341769e-38
0.042613585 -0.11950795 -0.01629822 2.2403904e-38
0.04447218 -0.11950795 -0.01629822 1.8162553e-38
0.046460174 -0.12026589 -0.019310638 8.2050705e-39
0.048504826 -0.12128322 -0.023353979 3.8718815e-39
0.050512362 -0.12202276 -0.026293322 1.2904039e-39
0.05253648 -0.12279506 -0.029362842 7.3830633e-40
0.054618124 -0.12380283 -0.033368155 2.776799e-40
0.05686542 -0.12554805 -0.040304586 2.7803163e-40
0.058766104 -0.12554805 -0.040304586 1.8618632e-40
0.060834333 -0.12631132 -0.043338224 7.1746481e-43
0.062907465 -0.12704925 -0.04627113 2.7694142e-40
0.065235883 -0.12883668 -0.053375289 6.4500087e-40
0.067159489 -0.12883668 -0.053375289 5.8086596e-39
0.069764838 -0.13159247 -0.064328238 1.9453616e-38
0.071965307 -0.13260551 -0.068354532 1.9822401e-38
0.074376985 -0.1343727 -0.075378224 1.9269589e-38
0.076339155 -0.1343727 -0.075378224 2.0007157e-38
0.078577131 -0.13537462 -0.079360411 1.8531671e-38
0.080759689 -0.13613077 -0.082365677 1.8347282e-38
0.082734123 -0.13613077 -0.082365677 1.8163252e-38
0.085597321 -0.13913165 -0.094292805 1.7517886e-38
0.087592661 -0.13913165 -0.094292805 1.6134951e-38
0.090141699 -0.14091717 -0.10138933 1.4659821e-38
0.092461273 -0.14190049 -0.10529761 1.4015531e-38
0.094807476 -0.1429237 -0.10936432 1.4568705e-38
0.097159296 -0.14392079 -0.11332731 1.5306267e-38
0.099527329 -0.14492477 -0.1173176 1.5028958e-38
0.10156305 -0.14492477 -0.1173176 1.2170894e-38
0.10395452 -0.1459357 -0.12133555 8.7593009e-39
0.10599728 -0.1459357 -0.12133555 2.4896449e-39
0.10841246 -0.14695369 -0.12538151 2.1208652e-39
0.11046232 -0.14695369 -0.12538151 3.6874735e-39
-0.10021511 -0.11579098 0.0057086498 1.1617363e-38
-0.09744601 -0.11327456 0.015640929 2.2036916e-38
-0.095359579 -0.11250792 0.018666819 2.2958873e-38
-0.09356229 -0.11250792 0.018666819 2.2775202e-38
-0.091765001 -0.11250792 0.018666819 2.2314948e-38
-0.089967713 -0.11250792 0.018666819 2.1762859e-38
-0.088170424 -0.11250792 0.018666819 2.2222754e-38
-0.086117327 -0.11174576 0.021675065 2.2038365e-38
-0.084325314 -0.11174576 0.021675065 2.1576318e-38
-0.082533315 -0.11174576 0.021675065 2.0469621e-38
-0.080502719 -0.1109881 0.024665669 1.964058e-38
-0.078483984 -0.11023484 0.027638748 1.9733854e-38
-0.076702416 -0.11023484 0.027638748 1.9643101e-38
-0.074920863 -0.11023484 0.027638748 1.9182485e-38
-0.072916836 -0.10946019 0.030696228 1.8630754e-38
-0.071140647 -0.10946019 0.030696228 1.8447806e-38
-0.069364443 -0.10946019 0.030696228 1.7803166e-38
-0.067383096 -0.10869022 0.03373535 1.6606071e-38
-0.06542021 -0.10795029 0.036655858 1.5408618e-38
-0.063462257 -0.10718934 0.039659336 1.4763259e-38
-0.061701775 -0.10718934 0.039659336 1.4026422e-38
-0.05976069 -0.1064329 0.042645052 1.3012278e-38
-0.058005437 -0.1064329 0.042645052 1.1998852e-38
-0.0562502 -0.1064329 0.042645052 1.1446762e-38
-0.054494947 -0.1064329 0.042645052 1.0436565e-38
-0.05273971 -0.1064329 0.042645052 9.5160483e-39
-0.050984457 -0.1064329 0.042645052 8.77777e-39
-0.04922922 -0.1064329 0.042645052 8.5001069e-39
-0.047473967 -0.1064329 0.042645052 8.3146423e-39
-0.045718729 -0.1064329 0.042645052 7.8529481e-39
-0.043826371 -0.10565595 0.045711651 6.9309974e-39
-0.042076506 -0.10565595 0.045711651 6.1930778e-39
-0.040326636 -0.10565595 0.045711651 4.7175918e-39
-0.038576771 -0.10565595 0.045711651 4.9019859e-39
-0.036715705 -0.1049086 0.048661426 4.9019859e-39
-0.034862105 -0.10414095 0.051691309 4.5332033e-39
-0.033019755 -0.10337795 0.054702833 4.5321257e-39
-0.031285655 -0.10337795 0.054702833 4.5317642e-39
-0.029551551 -0.10337795 0.054702833 4.4384896e-39
-0.027758725 -0.10286374 0.056732491 3.7941964e-39
-0.026028182 -0.10286374 0.056732491 3.426853e-39
-0.02429764 -0.10286374 0.056732491 2.9673098e-39
-0.022567093 -0.10286374 0.056732491 2.7825584e-39
-0.020836547 -0.10286374 0.056732491 2.5056155e-39
-0.019106001 -0.10286374 0.056732491 2.5048967e-39
-0.017375458 -0.10286374 0.056732491 2.412701e-39
-0.015595257 -0.10210848 0.059713498 2.5038205e-39
-0.013869941 -0.10210848 0.059713498 2.5034575e-39
-0.012105659 -0.10135777 0.062676564 1.5815012e-39
-0.010385536 -0.10135777 0.062676564 3.609082e-39
-0.0086939856 -0.10210848 0.059713498 3.6083604e-39
-0.0069686677 -0.10210848 0.059713498 1.6726095e-39
-0.0052433498 -0.10210848 0.059713498 1.3038241e-39
-0.0035310984 -0.10286374 0.056732491 2.4101689e-39
-0.0018058922 -0.10337795 0.054702833 3.5161535e-39
-7.4427575e-05 -0.10414095 0.051691309 4.4373853e-39
0.0016676113 -0.1049086 0.048661426 4.3451757e-39
0.0034200661 -0.10565595 0.045711651 8.4010561e-39
0.0051833764 -0.1064329 0.042645052 9.6921509e-39
0.0069569433 -0.10718934 0.039659336 1.337961e-38
0.0087174233 -0.10718934 0.039659336 1.5315354e-38
0.010506866 -0.10795029 0.036655858 1.4669256e-38
0.012305897 -0.10869022 0.03373535 1.6050744e-38
0.014116728 -0.10946019 0.030696228 1.5128777e-38
0.015938491 -0.11023484 0.027638748 1.4758904e-38
0.017769568 -0.1109881 0.024665669 1.6879393e-38
0.019666774 -0.11250792 0.018666819 1.7523672e-38
0.021525074 -0.11327456 0.015640929 1.908955e-38
0.023327665 -0.11327456 0.015640929 2.1210041e-38
0.025199816 -0.11401908 0.012702301 2.2591531e-38
0.027185362 -0.11579098 0.0057086498 2.2867037e-38
0.029086782 -0.11654995 0.0027129203 2.2958873e-38
0.030999212 -0.11731337 -0.00030021369 2.3326213e-38
0.033012923 -0.11882581 -0.0062698573 2.3509886e-38
0.034853932 -0.11882581 -0.0062698573 2.2957075e-38
0.036833566 -0.11985306 -0.010324404 2.341805e-38
0.038681682 -0.11985306 -0.010324404 2.3234379e-38
0.040754993 -0.12136655 -0.01629822 2.286632e-38
0.042613585 -0.12136655 -0.01629822 1.9548357e-38
0.04447218 -0.12136655 -0.01629822 1.3187578e-38
0.046330772 -0.12136655 -0.01629822 6.5487736e-39
0.048504826 -0.12315418 -0.023353979 1.8467965e-39
0.050512362 -0.12389888 -0.026293322 1.084605e-42
0.05253648 -0.12467657 -0.029362842 2.7803163e-40
0.054618124 -0.12569134 -0.033368155 2.2130623e-39
0.05686542 -0.12744872 -0.040304586 2.7623516e-40
0.058766104 -0.12744872 -0.040304586 2.755163e-40
0.060834333 -0.12821732 -0.043338224 9.1842503e-41
0.062907465 -0.12896039 -0.04627113 1.8439406e-40
0.065235883 -0.13076027 -0.053375289 3.5873241e-43
0.067159489 -0.13076027 -0.053375289 3.6878224e-39
0.070015445 -0.13455538 -0.068354532 1.8900457e-38
0.072153881 -0.1353019 -0.071301147 2.0467783e-38
0.074376985 -0.13633488 -0.075378224 1.9638021e-38
0.076607972 -0.13734378 -0.079360411 1.9269238e-38
0.078577131 -0.13734378 -0.079360411 1.8716065e-38
0.080759689 -0.1381052 -0.082365677 1.8716065e-38
0.082734123 -0.1381052 -0.082365677 1.8715346e-38
0.085302144 -0.14012341 -0.090331599 1.7055826e-38
0.087828025 -0.14190884 -0.097378656 1.5211916e-38
0.090141699 -0.14292495 -0.10138933 1.5949125e-38
0.092461273 -0.14391513 -0.10529761 1.4934973e-38
0.094807476 -0.14494546 -0.10936432 1.548815e-38
0.09682925 -0.14494546 -0.10936432 1.4289957e-38
0.099188015 -0.14594953 -0.11332731 1.4105546e-38
0.10121673 -0.14594953 -0.11332731 1.3184666e-38
0.10395452 -0.14797847 -0.12133555 9.219549e-39
0.10599728 -0.14797847 -0.12133555 1.4754832e-39
0.10841246 -0.14900355 -0.12538151 1.0141519e-39
0.11046232 -0.14900355 -0.12538151 2.4885631e-39
-0.09983246 -0.11660783 0.0096408874 1.3551667e-38
-0.09744601 -0.11507715 0.015640929 2.3509874e-38
-0.095359579 -0.11430521 0.018666819 2.350988e-38
-0.09356229 -0.11430521 0.018666819 2.3418045e-38
-0.091765001 -0.11430521 0.018666819 2.3234379e-38
-0.089701355 -0.11353777 0.021675065 2.3050707e-38
-0.087909341 -0.11353777 0.021675065 2.3142544e-38
-0.085863024 -0.11277486 0.024665669 2.2958514e-38
-0.084076256 -0.11277486 0.024665669 2.3141109e-38
-0.082289487 -0.11277486 0.024665669 2.3233303e-38
-0.080265537 -0.11201639 0.027638748 2.323402e-38
-0.078483984 -0.11201639 0.027638748 2.3142544e-38
-0.076702416 -0.11201639 0.027638748 2.2958873e-38
-0.074693024 -0.11123641 0.030696228 2.2775202e-38
-0.072916836 -0.11123641 0.030696228 2.2131636e-38
-0.071140647 -0.11123641 0.030696228 2.1487352e-38
-0.069364443 -0.11123641 0.030696228 2.1580623e-38
-0.067383096 -0.11046107 0.03373535 2.0751592e-38
-0.065612227 -0.11046107 0.03373535 1.992292e-38
-0.063462257 -0.10894983 0.039659336 1.9461949e-38
-0.061701775 -0.10894983 0.039659336 1.863256e-38
-0.05976069 -0.10818814 0.042645052 1.7065975e-38
-0.058005437 -0.10818814 0.042645052 1.5774885e-38
-0.0562502 -0.10818814 0.042645052 1.4670701e-38
-0.054494947 -0.10818814 0.042645052 1.5228189e-38
-0.05273971 -0.10818814 0.042645052 1.3939973e-38
-0.050984457 -0.10818814 0.042645052 1.2925466e-38
-0.04922922 -0.10818814 0.042645052 1.2003157e-38
-0.047473967 -0.10818814 0.042645052 1.1357792e-38
-0.045718729 -0.10818814 0.042645052 1.0619876e-38
-0.043963477 -0.10818814 0.042645052 9.6975655e-39
-0.042076506 -0.10740583 0.045711651 9.1433183e-39
-0.040326636 -0.10740583 0.045711651 8.58979e-39
-0.038576771 -0.10740583 0.045711651 8.589074e-39
-0.036601488 -0.10588033 0.051691309 7.9433486e-39
-0.034753859 -0.10511206 0.054702833 7.1128677e-39
-0.033019755 -0.10511206 0.054702833 6.283107e-39
-0.031285655 -0.10511206 0.054702833 5.8221261e-39
-0.029551551 -0.10511206 0.054702833 5.3604291e-39
-0.027817443 -0.10511206 0.054702833 4.7157785e-39
-0.026028182 -0.10459428 0.056732491 4.4406336e-39
-0.02429764 -0.10459428 0.056732491 3.8885416e-39
-0.022567093 -0.10459428 0.056732491 3.4275634e-39
-0.020836547 -0.10459428 0.056732491 3.0584236e-39
-0.019106001 -0.10459428 0.056732491 2.7814836e-39
-0.017375458 -0.10459428 0.056732491 2.5048995e-39
-0.015595257 -0.10383381 0.059713498 2.3205082e-39
-0.013869941 -0.10383381 0.059713498 2.136117e-39
-0.012105659 -0.1030779 0.062676564 2.6882117e-39
-0.010385536 -0.1030779 0.062676564 4.1629761e-39
-0.0086939856 -0.10383381 0.059713498 3.9778617e-39
-0.0069686677 -0.10383381 0.059713498 2.4101717e-39
-0.0052433498 -0.10383381 0.059713498 2.2254147e-39
-0.0035310984 -0.10459428 0.056732491 3.1466465e-39
-0.0018058922 -0.10511206 0.054702833 4.4370224e-39
-7.4427575e-05 -0.10588033 0.051691309 5.6348355e-39
0.0016676113 -0.10665329 0.048661426 8.1237434e-39
0.0034200661 -0.10740583 0.045711651 1.2548404e-38
0.0051833764 -0.10818814 0.042645052 1.4207559e-38
0.0069569433 -0.10894983 0.039659336 1.7433676e-38
0.0087174233 -0.10894983 0.039659336 1.8908425e-38
0.010506866 -0.10971604 0.036655858 1.8170867e-38
0.012305897 -0.11046107 0.03373535 1.9644903e-38
0.014116728 -0.11123641 0.030696228 1.9091006e-38
0.015938491 -0.11201639 0.027638748 2.1026381e-38
0.017769568 -0.11277486 0.024665669 2.2499695e-38
0.019666774 -0.11430521 0.018666819 2.2315307e-38
0.021525074 -0.11507715 0.015640929 2.2591531e-38
0.023327665 -0.11507715 0.015640929 2.2958873e-38
0.025199816 -0.11582683 0.012702301 2.3142544e-38
0.027085392 -0.11660783 0.0096408874 2.3234376e-38
0.028898504 -0.11660783 0.0096408874 2.2957428e-38
0.030912042 -0.11837523 0.0027129203 2.3140384e-38
0.032922741 -0.11991702 -0.0033307523 2.3509527e-38
0.034853932 -0.12066682 -0.0062698573 2.3509527e-38
0.036833566 -0.12170117 -0.010324404 2.2403905e-38
0.038681682 -0.12170117 -0.010324404 1.7426783e-38
0.040754993 -0.12322514 -0.01629822 6.9175575e-39
0.042613585 -0.12322514 -0.01629822 1.6638429e-39
0.04447218 -0.12322514 -0.01629822 3.9586682e-42
0.046330772 -0.12322514 -0.01629822 4.8903214e-39
0.048324049 -0.12399365 -0.019310638 5.1669055e-39
0.050512362 -0.12577499 -0.026293322 7.5625528e-39
0.05253648 -0.12655805 -0.029362842 7.3774455e-39
0.054618124 -0.12757985 -0.033368155 5.8076086e-39
0.05686542 -0.12934943 -0.040304586 1.3807877e-39
