# .PCD v0.7 - Point Cloud Data file format
VERSION 0.7
FIELDS x y z rgb
SIZE 4 4 4 4
TYPE F F F F
COUNT 1 1 1 1
WIDTH 924
HEIGHT 1
VIEWPOINT 0 0 0 1 0 0 0
POINTS 924
DATA ascii
-0.069790952 -0.084500432 -0.025522191 2.3325856e-38
-0.068057455 -0.085165098 -0.028591711 2.3234379e-38
-0.066175953 -0.085165098 -0.028591711 2.1574865e-38
-0.036304757 -0.088191271 -0.042567093 2.2867037e-38
-0.034398753 -0.088191271 -0.042567093 2.2775199e-38
-0.032452859 -0.087534383 -0.039533455 2.166921e-38
-0.030552177 -0.087534383 -0.039533455 2.3142544e-38
-0.028651493 -0.087534383 -0.039533455 2.3234379e-38
-0.02675081 -0.087534383 -0.039533455 2.3050703e-38
-0.024850128 -0.087534383 -0.039533455 2.3418047e-38
-0.022932166 -0.086680889 -0.035591919 2.3509883e-38
-0.021038394 -0.086680889 -0.035591919 2.3509883e-38
-0.019144623 -0.086680889 -0.035591919 2.3509886e-38
-0.017253475 -0.086032391 -0.032597024 2.2681931e-38
-0.015364953 -0.086032391 -0.032597024 2.2590454e-38
-0.013476432 -0.086032391 -0.032597024 2.3142544e-38
-0.011569531 -0.086680889 -0.035591919 2.3234379e-38
-0.0096757589 -0.086680889 -0.035591919 2.341805e-38
-0.0077819861 -0.086680889 -0.035591919 2.3417691e-38
-0.0058882143 -0.086680889 -0.035591919 2.3509886e-38
-0.0039426107 -0.087534383 -0.039533455 2.3509527e-38
-0.0019967158 -0.088191271 -0.042567093 2.3509527e-38
-9.0713846e-05 -0.088191271 -0.042567093 2.3509527e-38
0.0018692843 -0.088826358 -0.045499999 2.3509527e-38
0.0038613703 -0.089695618 -0.049514372 2.3509527e-38
0.0057795541 -0.089695618 -0.049514372 2.3509527e-38
0.0076977378 -0.089695618 -0.049514372 2.3509886e-38
0.0096159214 -0.089695618 -0.049514372 2.3509886e-38
0.011534103 -0.089695618 -0.049514372 2.3509886e-38
0.013452287 -0.089695618 -0.049514372 2.3509883e-38
0.015370469 -0.089695618 -0.049514372 2.3509883e-38
0.017288653 -0.089695618 -0.049514372 2.3509883e-38
0.019312477 -0.090364665 -0.052604157 2.3509883e-38
0.021236075 -0.090364665 -0.052604157 2.350988e-38
0.023458315 -0.092080101 -0.06052633 2.350988e-38
0.025395805 -0.092080101 -0.06052633 2.350988e-38
0.027333299 -0.092080101 -0.06052633 2.350988e-38
0.029270789 -0.092080101 -0.06052633 2.3509883e-38
0.031208279 -0.092080101 -0.06052633 2.3509886e-38
0.03314577 -0.092080101 -0.06052633 2.341805e-38
0.035083264 -0.092080101 -0.06052633 2.3234379e-38
0.037172202 -0.092736378 -0.063557103 2.2774125e-38
0.053868975 -0.096642151 -0.081594542 2.3140384e-38
0.055645812 -0.095991403 -0.078589275 2.350988e-38
0.057614971 -0.095991403 -0.078589275 2.3418043e-38
0.05958413 -0.095991403 -0.078589275 2.2958863e-38
0.061553296 -0.095991403 -0.078589275 2.2867034e-38
0.06293603 -0.094246268 -0.070530012 2.1763212e-38
0.064891063 -0.094246268 -0.070530012 2.2132353e-38
0.10483292 -0.092080101 -0.06052633 7.5702165e-39
0.10677042 -0.092080101 -0.06052633 7.2918135e-39
-0.077464946 -0.087046593 -0.028591711 7.5589486e-39
-0.07558345 -0.087046593 -0.028591711 2.3047817e-38
-0.073701948 -0.087046593 -0.028591711 2.3509879e-38
-0.071820445 -0.087046593 -0.028591711 2.2956346e-38
-0.06993895 -0.087046593 -0.028591711 2.3233296e-38
-0.068057455 -0.087046593 -0.028591711 2.341805e-38
-0.066175953 -0.087046593 -0.028591711 2.341805e-38
-0.064894788 -0.090097278 -0.042567093 2.341805e-38
-0.062988788 -0.090097278 -0.042567093 2.3233662e-38
-0.060963109 -0.089435071 -0.039533455 2.3325856e-38
-0.059062425 -0.089435071 -0.039533455 2.341805e-38
-0.057161741 -0.089435071 -0.039533455 2.341805e-38
-0.055261057 -0.089435071 -0.039533455 2.3417691e-38
-0.053458776 -0.090097278 -0.042567093 2.3417691e-38
-0.043928765 -0.090097278 -0.042567093 2.3050349e-38
-0.041956276 -0.089435071 -0.039533455 2.2774481e-38
-0.039976116 -0.088574663 -0.035591919 2.2866677e-38
-0.038082346 -0.088574663 -0.035591919 2.3142544e-38
-0.036254227 -0.089435071 -0.039533455 2.3142544e-38
-0.034398753 -0.090097278 -0.042567093 2.3142544e-38
-0.032492749 -0.090097278 -0.042567093 2.3142544e-38
-0.030552177 -0.089435071 -0.039533455 2.3142541e-38
-0.028651493 -0.089435071 -0.039533455 2.2958507e-38
-0.02675081 -0.089435071 -0.039533455 2.2588645e-38
-0.024850128 -0.089435071 -0.039533455 2.31411e-38
-0.022932166 -0.088574663 -0.035591919 2.3418043e-38
-0.021038394 -0.088574663 -0.035591919 2.3417324e-38
-0.019144623 -0.088574663 -0.035591919 2.3509523e-38
-0.017253475 -0.087920904 -0.032597024 2.341805e-38
-0.015364953 -0.087920904 -0.032597024 2.3234379e-38
-0.013476432 -0.087920904 -0.032597024 2.3233662e-38
-0.011569531 -0.088574663 -0.035591919 2.3325138e-38
-0.0096757589 -0.088574663 -0.035591919 2.3509527e-38
-0.0077819861 -0.088574663 -0.035591919 2.3509527e-38
-0.0058882143 -0.088574663 -0.035591919 2.332478e-38
-0.0039944416 -0.088574663 -0.035591919 2.3139311e-38
-0.0020419278 -0.089435071 -0.039533455 2.3509168e-38
-9.0713846e-05 -0.090097278 -0.042567093 2.3509168e-38
0.0018152881 -0.090097278 -0.042567093 2.3509168e-38
0.0037804272 -0.090737507 -0.045499999 2.3509527e-38
0.0056915721 -0.090737507 -0.045499999 2.3509527e-38
0.0076977378 -0.091613799 -0.049514372 2.3509883e-38
0.0096159214 -0.091613799 -0.049514372 2.350988e-38
0.011534103 -0.091613799 -0.049514372 2.350988e-38
0.013452287 -0.091613799 -0.049514372 2.3509883e-38
0.015370469 -0.091613799 -0.049514372 2.3509527e-38
0.017288653 -0.091613799 -0.049514372 2.3509883e-38
0.019312477 -0.092288271 -0.052604157 2.3509883e-38
0.021236075 -0.092288271 -0.052604157 2.3509524e-38
0.023308458 -0.093149811 -0.056550939 2.3509524e-38
0.025238978 -0.093149811 -0.056550939 2.3509524e-38
0.027169498 -0.093149811 -0.056550939 2.3509883e-38
0.029100018 -0.093149811 -0.056550939 2.341769e-38
0.031030538 -0.093149811 -0.056550939 2.3509886e-38
0.032777682 -0.092288271 -0.052604157 2.2864882e-38
0.03470128 -0.092288271 -0.052604157 2.3234379e-38
0.036624882 -0.092288271 -0.052604157 2.3142544e-38
0.054118928 -0.09946914 -0.085500196 2.3509527e-38
0.056100201 -0.09946914 -0.085500196 2.2772688e-38
0.057614971 -0.097960562 -0.078589275 2.3142544e-38
0.05958413 -0.097960562 -0.078589275 2.2867037e-38
0.061766695 -0.098616585 -0.081594542 2.2499695e-38
0.063522451 -0.097960562 -0.078589275 2.2040518e-38
0.065194882 -0.097091287 -0.074607089 1.8171935e-38
0.067157052 -0.097091287 -0.074607089 1.4301177e-38
0.10677042 -0.094017595 -0.06052633 9.2308168e-39
0.10870791 -0.094017595 -0.06052633 7.8478698e-39
0.11064541 -0.094017595 -0.06052633 6.0961556e-39
0.1154925 -0.092288271 -0.052604157 2.6845642e-39
0.11741611 -0.092288271 -0.052604157 1.7622449e-39
0.12033286 -0.094017595 -0.06052633 1.4842133e-39
0.12265561 -0.094679192 -0.063557103 1.4831231e-39
0.12511727 -0.095558092 -0.067583397 1.3891184e-39
-0.077464946 -0.088928089 -0.028591711 7.5589402e-39
-0.07558345 -0.088928089 -0.028591711 1.3643852e-38
-0.073701948 -0.088928089 -0.028591711 2.0373777e-38
-0.071820445 -0.088928089 -0.028591711 2.2955975e-38
-0.06993895 -0.088928089 -0.028591711 2.3509876e-38
-0.068057455 -0.088928089 -0.028591711 2.1942912e-38
-0.066175953 -0.088928089 -0.028591711 2.350988e-38
-0.064764477 -0.091335744 -0.039533455 2.2312058e-38
-0.062988788 -0.092003286 -0.042567093 2.3234018e-38
-0.060963109 -0.091335744 -0.039533455 2.3234018e-38
-0.059062425 -0.091335744 -0.039533455 2.3326213e-38
-0.057161741 -0.091335744 -0.039533455 2.3326213e-38
-0.055261057 -0.091335744 -0.039533455 2.3509886e-38
-0.053458776 -0.092003286 -0.042567093 2.3509886e-38
-0.051552773 -0.092003286 -0.042567093 2.3509527e-38
-0.049559008 -0.091335744 -0.039533455 2.3509527e-38
-0.047658324 -0.091335744 -0.039533455 2.3509886e-38
-0.045757644 -0.091335744 -0.039533455 2.341805e-38
-0.043928765 -0.092003286 -0.042567093 2.341805e-38
-0.041956276 -0.091335744 -0.039533455 2.3142544e-38
-0.039976116 -0.090468436 -0.035591919 2.3050349e-38
-0.038082346 -0.090468436 -0.035591919 2.2866674e-38
-0.036254227 -0.091335744 -0.039533455 2.2774479e-38
-0.034353539 -0.091335744 -0.039533455 2.2774479e-38
-0.032452859 -0.091335744 -0.039533455 2.2405693e-38
-0.030552177 -0.091335744 -0.039533455 2.2774116e-38
-0.028613484 -0.090468436 -0.035591919 2.3418047e-38
-0.026719712 -0.090468436 -0.035591919 2.3418045e-38
-0.02482594 -0.090468436 -0.035591919 2.350988e-38
-0.022932166 -0.090468436 -0.035591919 2.350988e-38
-0.021038394 -0.090468436 -0.035591919 2.3509521e-38
-0.019141996 -0.089809433 -0.032597024 2.350952e-38
-0.017253475 -0.089809433 -0.032597024 2.3509883e-38
-0.015364953 -0.089809433 -0.032597024 2.3509883e-38
-0.013476432 -0.089809433 -0.032597024 2.3509886e-38
-0.011587909 -0.089809433 -0.032597024 2.3140387e-38
-0.0096993884 -0.089809433 -0.032597024 2.3416974e-38
-0.0077819861 -0.090468436 -0.035591919 2.3509168e-38
-0.0058882143 -0.090468436 -0.035591919 2.3509168e-38
-0.0039944416 -0.090468436 -0.035591919 2.3508092e-38
-0.00210067 -0.090468436 -0.035591919 2.3508809e-38
-0.00020689634 -0.090468436 -0.035591919 2.3508809e-38
0.0017594385 -0.091335744 -0.039533455 2.3509168e-38
0.00372129 -0.092003286 -0.042567093 2.3509168e-38
0.0056272941 -0.092003286 -0.042567093 2.3509883e-38
0.007533296 -0.092003286 -0.042567093 2.350988e-38
0.0095138615 -0.09264864 -0.045499999 2.3509879e-38
0.011425006 -0.09264864 -0.045499999 2.3509879e-38
0.013452287 -0.093531981 -0.049514372 2.3509886e-38
0.015370469 -0.093531981 -0.049514372 2.3509527e-38
0.017288653 -0.093531981 -0.049514372 2.3509527e-38
0.019206835 -0.093531981 -0.049514372 2.3509527e-38
0.02112502 -0.093531981 -0.049514372 2.3509527e-38
0.023159677 -0.094211861 -0.052604157 2.3509527e-38
0.025083276 -0.094211861 -0.052604157 2.3509527e-38
0.027006878 -0.094211861 -0.052604157 2.3509527e-38
0.02893048 -0.094211861 -0.052604157 2.3325497e-38
0.030854078 -0.094211861 -0.052604157 2.341805e-38
0.032777682 -0.094211861 -0.052604157 2.3234379e-38
0.03470128 -0.094211861 -0.052604157 2.286632e-38
0.037520636 -0.098156333 -0.070530012 2.2867037e-38
0.039475668 -0.098156333 -0.070530012 2.2775202e-38
0.041648727 -0.099053472 -0.074607089 2.1300806e-38
0.043610904 -0.099053472 -0.074607089 1.8257989e-38
0.045340758 -0.098156333 -0.070530012 1.7701572e-38
0.04729579 -0.098156333 -0.070530012 1.8069995e-38
0.049497444 -0.099053472 -0.074607089 1.8530617e-38
0.051459622 -0.099053472 -0.074607089 2.1297207e-38
0.053421799 -0.099053472 -0.074607089 1.8715375e-38
0.055645812 -0.09992972 -0.078589275 1.2170927e-38
0.057614971 -0.09992972 -0.078589275 1.1250413e-38
0.05958413 -0.09992972 -0.078589275 1.1990137e-38
0.061553296 -0.09992972 -0.078589275 1.0424619e-38
0.063522451 -0.09992972 -0.078589275 1.0611896e-38
0.065194882 -0.099053472 -0.074607089 7.110997e-39
0.067157052 -0.099053472 -0.074607089 6.1908553e-39
0.098598756 -0.095080331 -0.056550939 7.2976275e-39
0.10052928 -0.095080331 -0.056550939 7.3898259e-39
0.10289545 -0.095955089 -0.06052633 7.3887469e-39
0.10483292 -0.095955089 -0.06052633 7.0206721e-39
0.10677042 -0.095955089 -0.06052633 8.3113913e-39
0.10870791 -0.095955089 -0.06052633 7.9433164e-39
0.10936145 -0.093531981 -0.049514372 7.8507676e-39
0.11127963 -0.093531981 -0.049514372 8.3117486e-39
0.11319781 -0.093531981 -0.049514372 8.6801738e-39
0.1154925 -0.094211861 -0.052604157 8.587618e-39
0.11741611 -0.094211861 -0.052604157 8.5858202e-39
0.12033286 -0.095955089 -0.06052633 8.769124e-39
0.12265561 -0.09662199 -0.063557103 9.8736625e-39
0.12459841 -0.09662199 -0.063557103 8.8580574e-39
0.12654121 -0.09662199 -0.063557103 7.7491763e-39
0.12848401 -0.09662199 -0.063557103 7.4084968e-40
0.13042682 -0.09662199 -0.063557103 1.8549829e-40
0.13236962 -0.09662199 -0.063557103 1.8404234e-40
0.13431242 -0.09662199 -0.063557103 2.7550649e-40
-0.077464946 -0.090809584 -0.028591711 8.8489518e-39
-0.07558345 -0.090809584 -0.028591711 7.5582102e-39
-0.073701948 -0.090809584 -0.028591711 1.1891408e-38
-0.071820445 -0.090809584 -0.028591711 2.2402431e-38
-0.06993895 -0.090809584 -0.028591711 2.3509866e-38
-0.068057455 -0.090809584 -0.028591711 2.350987e-38
-0.066355027 -0.091697961 -0.032597024 2.3141808e-38
-0.064595155 -0.09236221 -0.035591919 2.3141455e-38
-0.062863789 -0.093236431 -0.039533455 2.3418045e-38
-0.060963109 -0.093236431 -0.039533455 2.3418045e-38
-0.059062425 -0.093236431 -0.039533455 2.3418047e-38
-0.057161741 -0.093236431 -0.039533455 2.332621e-38
-0.055261057 -0.093236431 -0.039533455 2.3509883e-38
-0.053360373 -0.093236431 -0.039533455 2.350988e-38
-0.051459692 -0.093236431 -0.039533455 2.350952e-38
-0.049559008 -0.093236431 -0.039533455 2.3417327e-38
-0.047658324 -0.093236431 -0.039533455 2.3509886e-38
-0.045757644 -0.093236431 -0.039533455 2.341805e-38
-0.043928765 -0.093909279 -0.042567093 2.341805e-38
-0.042022765 -0.093909279 -0.042567093 2.3234379e-38
-0.040055592 -0.093236431 -0.039533455 2.3234379e-38
-0.038154908 -0.093236431 -0.039533455 2.3234379e-38
-0.036254227 -0.093236431 -0.039533455 2.3142542e-38
-0.034353539 -0.093236431 -0.039533455 2.3050703e-38
-0.032452859 -0.093236431 -0.039533455 2.3234376e-38
-0.030552177 -0.093236431 -0.039533455 2.3234376e-38
-0.028613484 -0.09236221 -0.035591919 2.3418045e-38
-0.026719712 -0.09236221 -0.035591919 2.3233652e-38
-0.02482594 -0.09236221 -0.035591919 2.3048542e-38
-0.022932166 -0.09236221 -0.035591919 2.3509879e-38
-0.021038394 -0.09236221 -0.035591919 2.3509879e-38
-0.019141996 -0.091697961 -0.032597024 2.3232211e-38
-0.017253475 -0.091697961 -0.032597024 2.3140736e-38
-0.015364953 -0.091697961 -0.032597024 2.3509879e-38
-0.013476432 -0.091697961 -0.032597024 2.350988e-38
-0.011587909 -0.091697961 -0.032597024 2.3509527e-38
-0.0096993884 -0.091697961 -0.032597024 2.3508451e-38
-0.0077819861 -0.09236221 -0.035591919 2.3507733e-38
-0.0058882143 -0.09236221 -0.035591919 2.3507374e-38
-0.0039944416 -0.09236221 -0.035591919 2.3507374e-38
-0.00210067 -0.09236221 -0.035591919 2.3508451e-38
-0.00020689634 -0.09236221 -0.035591919 2.3508451e-38
0.0016868755 -0.09236221 -0.035591919 2.3509168e-38
0.0036601226 -0.093236431 -0.039533455 2.3509168e-38
0.005560807 -0.093236431 -0.039533455 2.3509883e-38
0.0074614892 -0.093236431 -0.039533455 2.350988e-38
0.0093621733 -0.093236431 -0.039533455 2.3509876e-38
0.0113453 -0.093909279 -0.042567093 2.3509879e-38
0.013336151 -0.094559789 -0.045499999 2.3509886e-38
0.015247296 -0.094559789 -0.045499999 2.3509886e-38
0.017158439 -0.094559789 -0.045499999 2.3509886e-38
0.019206835 -0.095450163 -0.049514372 2.3509886e-38
0.02112502 -0.095450163 -0.049514372 2.3509527e-38
0.023043202 -0.095450163 -0.049514372 2.3509527e-38
0.024961384 -0.095450163 -0.049514372 2.3509527e-38
0.027006878 -0.096135467 -0.052604157 2.3509527e-38
0.02893048 -0.096135467 -0.052604157 2.3417333e-38
0.030854078 -0.096135467 -0.052604157 2.3233662e-38
0.032777682 -0.096135467 -0.052604157 2.2958155e-38
0.035229396 -0.098564804 -0.063557103 2.2867037e-38
0.037172202 -0.098564804 -0.063557103 2.2775202e-38
0.039115004 -0.098564804 -0.063557103 2.1670306e-38
0.04105781 -0.098564804 -0.063557103 1.5770513e-38
0.043222986 -0.099457815 -0.067583397 1.0513917e-38
0.045172852 -0.099457815 -0.067583397 1.1156759e-38
0.047122713 -0.099457815 -0.067583397 1.2446776e-38
0.049072582 -0.099457815 -0.067583397 1.336838e-38
0.051205855 -0.10011137 -0.070530012 1.7056933e-38
0.053421799 -0.10101564 -0.074607089 1.5305224e-38
0.055645812 -0.10189888 -0.078589275 9.5898239e-39
0.057614971 -0.10189888 -0.078589275 9.130652e-39
0.05958413 -0.10189888 -0.078589275 9.4094025e-39
0.061553296 -0.10189888 -0.078589275 9.411929e-39
0.063522451 -0.10189888 -0.078589275 9.2300629e-39
0.065194882 -0.10101564 -0.074607089 8.1266034e-39
0.067157052 -0.10101564 -0.074607089 7.6677973e-39
0.087395512 -0.097892582 -0.06052633 8.8717705e-39
0.089333005 -0.097892582 -0.06052633 8.041291e-39
0.097082965 -0.097892582 -0.06052633 7.1157488e-39
0.098598756 -0.097010851 -0.056550939 7.0228357e-39
0.10052928 -0.097010851 -0.056550939 7.390542e-39
0.10289545 -0.097892582 -0.06052633 7.2976303e-39
0.10483292 -0.097892582 -0.06052633 6.8377227e-39
0.10439634 -0.093236431 -0.039533455 7.1160907e-39
0.10629702 -0.093236431 -0.039533455 7.0238894e-39
0.10936145 -0.095450163 -0.049514372 7.2082863e-39
0.11127963 -0.095450163 -0.049514372 7.6689085e-39
0.11404293 -0.097010851 -0.056550939 8.1288119e-39
0.1154925 -0.096135467 -0.052604157 8.0358974e-39
0.11741611 -0.096135467 -0.052604157 8.1266539e-39
0.12071279 -0.098564804 -0.063557103 8.4936301e-39
0.12265561 -0.098564804 -0.063557103 8.7684079e-39
0.12420783 -0.097892582 -0.06052633 8.2126992e-39
0.12614532 -0.097892582 -0.06052633 7.5651522e-39
0.12848401 -0.098564804 -0.063557103 7.6931286e-43
0.13042682 -0.098564804 -0.063557103 2.6624671e-44
0.13236962 -0.098564804 -0.063557103 9.220684e-41
0.13431242 -0.098564804 -0.063557103 4.5953621e-40
-0.07558345 -0.092691094 -0.028591711 4.1513145e-39
-0.073701948 -0.092691094 -0.028591711 6.9168274e-39
-0.071820445 -0.092691094 -0.028591711 1.2817348e-38
-0.070132069 -0.093586475 -0.032597024 2.0746175e-38
-0.068243556 -0.093586475 -0.032597024 2.3142544e-38
-0.066355027 -0.093586475 -0.032597024 2.3142544e-38
-0.064595155 -0.094255984 -0.035591919 2.3142544e-38
-0.062863789 -0.095137119 -0.039533455 2.3142544e-38
-0.060963109 -0.095137119 -0.039533455 2.3234379e-38
-0.059062425 -0.095137119 -0.039533455 2.3050347e-38
-0.057161741 -0.095137119 -0.039533455 2.332621e-38
-0.055261057 -0.095137119 -0.039533455 2.350988e-38
-0.053360373 -0.095137119 -0.039533455 2.3509879e-38
-0.051338751 -0.094255984 -0.035591919 2.3509876e-38
-0.049444981 -0.094255984 -0.035591919 2.3509879e-38
-0.047658324 -0.095137119 -0.039533455 2.3508804e-38
-0.045757644 -0.095137119 -0.039533455 2.3509167e-38
-0.043928765 -0.095815286 -0.042567093 2.341769e-38
-0.042022765 -0.095815286 -0.042567093 2.341769e-38
-0.040116757 -0.095815286 -0.042567093 2.3325856e-38
-0.038210757 -0.095815286 -0.042567093 2.3326213e-38
-0.036304757 -0.095815286 -0.042567093 2.341805e-38
-0.034398753 -0.095815286 -0.042567093 2.3418047e-38
-0.032492749 -0.095815286 -0.042567093 2.3418047e-38
-0.030552177 -0.095137119 -0.039533455 2.2864513e-38
-0.028613484 -0.094255984 -0.035591919 2.3325129e-38
-0.026719712 -0.094255984 -0.035591919 2.350988e-38
-0.02482594 -0.094255984 -0.035591919 2.350988e-38
-0.022949444 -0.095137119 -0.039533455 2.3048542e-38
-0.021038394 -0.094255984 -0.035591919 2.3417327e-38
-0.019141996 -0.093586475 -0.032597024 2.3509883e-38
-0.017253475 -0.093586475 -0.032597024 2.3509879e-38
-0.015364953 -0.093586475 -0.032597024 2.3418042e-38
-0.013463304 -0.094255984 -0.035591919 2.3417324e-38
-0.011569531 -0.094255984 -0.035591919 2.3509524e-38
-0.0096757589 -0.094255984 -0.035591919 2.3509527e-38
-0.0077819861 -0.094255984 -0.035591919 2.3508809e-38
-0.0058882143 -0.094255984 -0.035591919 2.3508451e-38
-0.0039944416 -0.094255984 -0.035591919 2.3508451e-38
-0.00210067 -0.094255984 -0.035591919 2.3508451e-38
-0.00020689634 -0.094255984 -0.035591919 2.3508451e-38
0.0016868755 -0.094255984 -0.035591919 2.3508809e-38
0.0036601226 -0.095137119 -0.039533455 2.3509168e-38
0.0054744212 -0.094255984 -0.035591919 2.3509527e-38
0.007368193 -0.094255984 -0.035591919 2.3509883e-38
0.0092619648 -0.094255984 -0.035591919 2.350988e-38
0.0113453 -0.095815286 -0.042567093 2.3418045e-38
0.013336151 -0.096470937 -0.045499999 2.341805e-38
0.015247296 -0.096470937 -0.045499999 2.341805e-38
0.017158439 -0.096470937 -0.045499999 2.341805e-38
0.019206835 -0.097368345 -0.049514372 2.341805e-38
0.02112502 -0.097368345 -0.049514372 2.3509886e-38
0.023043202 -0.097368345 -0.049514372 2.3509886e-38
0.024961384 -0.097368345 -0.049514372 2.3509527e-38
0.02687957 -0.097368345 -0.049514372 2.3509527e-38
0.028797751 -0.097368345 -0.049514372 2.1389753e-38
0.030854078 -0.098059073 -0.052604157 1.8255822e-38
0.032777682 -0.098059073 -0.052604157 1.6227884e-38
0.034891583 -0.098941371 -0.056550939 1.4108466e-38
0.036624882 -0.098059073 -0.052604157 1.3279425e-38
0.038548484 -0.098059073 -0.052604157 1.2726612e-38
0.040683143 -0.098941371 -0.056550939 1.1435876e-38
0.043000616 -0.1005076 -0.063557103 1.1804656e-38
0.044943418 -0.1005076 -0.063557103 1.2079434e-38
0.046886224 -0.1005076 -0.063557103 1.3369454e-38
0.049072582 -0.10140768 -0.067583397 1.2171279e-38
0.051205855 -0.1020664 -0.070530012 1.3462745e-38
0.053421799 -0.10297783 -0.074607089 1.2264213e-38
0.055843409 -0.10453986 -0.081594542 8.4852798e-39
0.058355559 -0.10632066 -0.089560464 7.933555e-39
0.060343962 -0.10632066 -0.089560464 5.6304719e-39
0.062332358 -0.10632066 -0.089560464 8.5828984e-39
0.063741125 -0.10453986 -0.081594542 8.6776192e-39
0.065715559 -0.10453986 -0.081594542 9.6017433e-39
0.087015636 -0.098941371 -0.056550939 9.5160511e-39
0.089333005 -0.099830076 -0.06052633 9.1465525e-39
0.091270499 -0.099830076 -0.06052633 7.4859522e-39
0.092807196 -0.098941371 -0.056550939 7.5781506e-39
0.094737716 -0.098941371 -0.056550939 7.6696302e-39
0.097082965 -0.099830076 -0.06052633 7.5767171e-39
0.098598756 -0.098941371 -0.056550939 7.8518691e-39
0.10052928 -0.098941371 -0.056550939 7.9433486e-39
0.10245981 -0.098941371 -0.056550939 7.4823733e-39
0.10249565 -0.095137119 -0.039533455 6.7455215e-39
0.10439634 -0.095137119 -0.039533455 6.1022989e-39
0.10629702 -0.095137119 -0.039533455 5.7345884e-39
0.10936145 -0.097368345 -0.049514372 5.6413207e-39
0.11045741 -0.095815286 -0.042567093 5.7335192e-39
0.11236342 -0.095815286 -0.042567093 5.8250001e-39
0.1154925 -0.098059073 -0.052604157 5.8239211e-39
0.11741611 -0.098059073 -0.052604157 6.1909058e-39
0.12071279 -0.1005076 -0.063557103 6.9266674e-39
0.12227034 -0.099830076 -0.06052633 7.4780321e-39
0.12420783 -0.099830076 -0.06052633 7.752084e-39
0.12614532 -0.099830076 -0.06052633 7.9346578e-39
0.12848401 -0.1005076 -0.063557103 2.211249e-42
0.13042682 -0.1005076 -0.063557103 1.1084271e-42
0.13236962 -0.1005076 -0.063557103 1.3829457e-39
0.13431242 -0.1005076 -0.063557103 1.3825687e-39
-0.07579764 -0.095475003 -0.032597024 6.1883148e-39
-0.073909111 -0.095475003 -0.032597024 4.5280746e-39
-0.072020598 -0.095475003 -0.032597024 9.5051967e-39
-0.070276476 -0.096149758 -0.035591919 1.3929867e-38
-0.068382703 -0.096149758 -0.035591919 2.1673176e-38
-0.066488929 -0.096149758 -0.035591919 2.2224189e-38
-0.064764477 -0.097037792 -0.039533455 2.2499695e-38
-0.062863789 -0.097037792 -0.039533455 2.2775202e-38
-0.060963109 -0.097037792 -0.039533455 2.2683007e-38
-0.059062425 -0.097037792 -0.039533455 2.2958514e-38
-0.057161741 -0.097037792 -0.039533455 2.3234379e-38
-0.055126298 -0.096149758 -0.035591919 2.3418047e-38
-0.053232525 -0.096149758 -0.035591919 2.3141452e-38
-0.051338751 -0.096149758 -0.035591919 2.332548e-38
-0.049444981 -0.096149758 -0.035591919 2.3509873e-38
-0.047551207 -0.096149758 -0.035591919 2.3509517e-38
-0.045657434 -0.096149758 -0.035591919 2.3509161e-38
-0.043856956 -0.097037792 -0.039533455 2.3509165e-38
-0.041956276 -0.097037792 -0.039533455 2.3509527e-38
-0.040055592 -0.097037792 -0.039533455 2.3509886e-38
-0.038154908 -0.097037792 -0.039533455 2.3509886e-38
-0.036304757 -0.097721294 -0.042567093 2.3509886e-38
-0.034398753 -0.097721294 -0.042567093 2.3509527e-38
-0.032492749 -0.097721294 -0.042567093 2.3509524e-38
-0.030552177 -0.097037792 -0.039533455 2.3508441e-38
-0.028613484 -0.096149758 -0.035591919 2.3508081e-38
-0.026719712 -0.096149758 -0.035591919 2.3509164e-38
-0.024850128 -0.097037792 -0.039533455 2.3140384e-38
-0.022949444 -0.097037792 -0.039533455 2.3141106e-38
-0.021038394 -0.096149758 -0.035591919 2.3234379e-38
-0.019144623 -0.096149758 -0.035591919 2.3234379e-38
-0.017253475 -0.095475003 -0.032597024 2.3142542e-38
-0.015364953 -0.095475003 -0.032597024 2.3234374e-38
-0.013463304 -0.096149758 -0.035591919 2.3418045e-38
-0.011569531 -0.096149758 -0.035591919 2.350988e-38
-0.0096757589 -0.096149758 -0.035591919 2.3509524e-38
-0.0077819861 -0.096149758 -0.035591919 2.3509165e-38
-0.0058882143 -0.096149758 -0.035591919 2.3508809e-38
-0.0039944416 -0.096149758 -0.035591919 2.350737e-38
-0.0020419278 -0.097037792 -0.039533455 2.3508091e-38
-0.00020689634 -0.096149758 -0.035591919 2.3507732e-38
0.0016868755 -0.096149758 -0.035591919 2.3509168e-38
0.0036601226 -0.097037792 -0.039533455 2.3508091e-38
0.0054744212 -0.096149758 -0.035591919 2.3232585e-38
0.007368193 -0.096149758 -0.035591919 2.3509527e-38
0.0092619648 -0.096149758 -0.035591919 2.3141467e-38
0.011262855 -0.097037792 -0.039533455 2.3234379e-38
0.013251304 -0.097721294 -0.042567093 2.3234379e-38
0.015157304 -0.097721294 -0.042567093 2.3050347e-38
0.017288653 -0.099286526 -0.049514372 2.2865958e-38
0.019206835 -0.099286526 -0.049514372 2.3050349e-38
0.02112502 -0.099286526 -0.049514372 2.3234379e-38
0.023043202 -0.099286526 -0.049514372 2.3234379e-38
0.024961384 -0.099286526 -0.049514372 2.3233662e-38
0.02687957 -0.099286526 -0.049514372 2.304927e-38
0.028797751 -0.099286526 -0.049514372 1.7701927e-38
0.030715933 -0.099286526 -0.049514372 1.576582e-38
0.032777682 -0.099982664 -0.052604157 1.3738236e-38
0.034891583 -0.10087189 -0.056550939 1.3185065e-38
0.036624882 -0.099982664 -0.052604157 1.3277261e-38
0.038548484 -0.099982664 -0.052604157 1.3277261e-38
0.040472083 -0.099982664 -0.052604157 1.3369459e-38
0.042833224 -0.10176755 -0.06052633 1.3646406e-38
0.044943418 -0.1024504 -0.063557103 1.3739681e-38
0.046886224 -0.1024504 -0.063557103 1.3002119e-38
0.04882903 -0.1024504 -0.063557103 1.2818092e-38
0.052636933 -0.10920154 -0.09352167 1.3740414e-38
0.054632273 -0.10920154 -0.09352167 1.4202479e-38
0.056627613 -0.10920154 -0.09352167 1.3466361e-38
0.05862296 -0.10920154 -0.09352167 1.1623537e-38
0.060832012 -0.10989676 -0.096607521 9.9658217e-39
0.062832765 -0.10989676 -0.096607521 9.9672678e-39
0.064320751 -0.10830905 -0.089560464 1.0060914e-38
0.066309147 -0.10830905 -0.089560464 9.8779701e-39
0.087015636 -0.10087189 -0.056550939 8.9600033e-39
0.088946156 -0.10087189 -0.056550939 8.2213592e-39
0.090876676 -0.10087189 -0.056550939 8.7738141e-39
0.092409305 -0.099982664 -0.052604157 8.9582026e-39
0.094332896 -0.099982664 -0.052604157 9.1415177e-39
0.096668236 -0.10087189 -0.056550939 8.8645706e-39
0.098598756 -0.10087189 -0.056550939 8.2192012e-39
0.10052928 -0.10087189 -0.056550939 7.7575042e-39
0.10168872 -0.099286526 -0.049514372 7.4809173e-39
0.10249565 -0.097037792 -0.039533455 7.2057654e-39
0.10439634 -0.097037792 -0.039533455 6.3777956e-39
0.10698224 -0.098382086 -0.045499999 6.1030037e-39
0.10889337 -0.098382086 -0.045499999 6.3788746e-39
0.11045741 -0.097721294 -0.042567093 6.471073e-39
0.11236342 -0.097721294 -0.042567093 6.1022905e-39
0.1154925 -0.099982664 -0.052604157 5.9161028e-39
0.11790397 -0.10087189 -0.056550939 6.2830874e-39
0.12071279 -0.1024504 -0.063557103 7.1114075e-39
0.12227034 -0.10176755 -0.06052633 7.0174042e-39
0.12420783 -0.10176755 -0.06052633 8.0297471e-39
0.12614532 -0.10176755 -0.06052633 6.7368306e-39
0.12848401 -0.1024504 -0.063557103 1.8912204e-40
0.13042682 -0.1024504 -0.063557103 7.4689208e-43
0.13236962 -0.1024504 -0.063557103 1.5684159e-39
0.13431242 -0.1024504 -0.063557103 1.5676788e-39
-0.087128766 -0.097363517 -0.032597024 1.0980007e-38
-0.085240237 -0.097363517 -0.032597024 1.1257316e-38
-0.083351724 -0.097363517 -0.032597024 1.0613025e-38
-0.077851571 -0.098043531 -0.035591919 1.0986132e-38
-0.075957797 -0.098043531 -0.035591919 1.1633302e-38
-0.074064024 -0.098043531 -0.035591919 1.0986132e-38
-0.07217025 -0.098043531 -0.035591919 1.1815169e-38
-0.070276476 -0.098043531 -0.035591919 1.1352746e-38
-0.068243556 -0.097363517 -0.032597024 1.4393395e-38
-0.066355027 -0.097363517 -0.032597024 1.5405378e-38
-0.064595155 -0.098043531 -0.035591919 1.6694308e-38
-0.062701382 -0.098043531 -0.035591919 2.0657246e-38
-0.060807616 -0.098043531 -0.035591919 2.2499695e-38
-0.058913842 -0.098043531 -0.035591919 2.2867037e-38
-0.057020068 -0.098043531 -0.035591919 2.2958514e-38
-0.055023901 -0.097363517 -0.032597024 2.2957431e-38
-0.05313538 -0.097363517 -0.032597024 2.3509879e-38
-0.051246859 -0.097363517 -0.032597024 2.350987e-38
-0.049358338 -0.097363517 -0.032597024 2.3509509e-38
-0.047551207 -0.098043531 -0.035591919 2.3509157e-38
-0.045657434 -0.098043531 -0.035591919 2.3508801e-38
-0.043856956 -0.09893848 -0.039533455 2.3416971e-38
-0.041956276 -0.09893848 -0.039533455 2.3325497e-38
-0.040055592 -0.09893848 -0.039533455 2.3049991e-38
-0.038154908 -0.09893848 -0.039533455 2.2957796e-38
-0.036304757 -0.099627286 -0.042567093 2.3049273e-38
-0.034398753 -0.099627286 -0.042567093 2.3141106e-38
-0.032492749 -0.099627286 -0.042567093 2.2495015e-38
-0.030552177 -0.09893848 -0.039533455 2.3509524e-38
-0.028651493 -0.09893848 -0.039533455 2.3509165e-38
-0.02675081 -0.09893848 -0.039533455 2.3509524e-38
-0.024868743 -0.099627286 -0.042567093 2.3509886e-38
-0.022962742 -0.099627286 -0.042567093 2.3234379e-38
-0.021038394 -0.098043531 -0.035591919 2.0469962e-38
-0.019144623 -0.098043531 -0.035591919 1.4569439e-38
-0.017253475 -0.097363517 -0.032597024 1.5398828e-38
-0.015364953 -0.097363517 -0.032597024 1.650481e-38
-0.013463304 -0.098043531 -0.035591919 1.8071414e-38
-0.011569531 -0.098043531 -0.035591919 1.9084847e-38
-0.0096207242 -0.099627286 -0.042567093 1.9729498e-38
-0.0077147223 -0.099627286 -0.042567093 2.0004645e-38
-0.0058432939 -0.09893848 -0.039533455 1.9634784e-38
-0.0039426107 -0.09893848 -0.039533455 1.8988697e-38
-0.0020419278 -0.09893848 -0.039533455 1.9173088e-38
-0.00014124368 -0.09893848 -0.039533455 1.7974908e-38
0.0017594385 -0.09893848 -0.039533455 1.7791599e-38
0.0035806473 -0.098043531 -0.035591919 1.7607573e-38
0.0054744212 -0.098043531 -0.035591919 1.853097e-38
0.007368193 -0.098043531 -0.035591919 2.0559637e-38
0.0092619648 -0.098043531 -0.035591919 2.1298281e-38
0.011155738 -0.098043531 -0.035591919 2.249754e-38
0.01316354 -0.09893848 -0.039533455 1.9916417e-38
0.015064224 -0.09893848 -0.039533455 1.8903341e-38
0.016964903 -0.09893848 -0.039533455 1.7889189e-38
0.019069584 -0.10029322 -0.045499999 1.7243823e-38
0.020980729 -0.10029322 -0.045499999 1.6598453e-38
0.022666955 -0.09893848 -0.039533455 1.6229315e-38
0.024567639 -0.09893848 -0.039533455 1.6505902e-38
0.02646832 -0.09893848 -0.039533455 1.7151272e-38
0.028369004 -0.09893848 -0.039533455 1.613712e-38
0.030405322 -0.099627286 -0.042567093 1.5583591e-38
0.032777682 -0.10190627 -0.052604157 1.586018e-38
0.034891583 -0.10280241 -0.056550939 1.7058724e-38
0.036624882 -0.10190627 -0.052604157 1.8072878e-38
0.038548484 -0.10190627 -0.052604157 1.8441661e-38
0.040472083 -0.10190627 -0.052604157 1.890156e-38
0.042833224 -0.10370506 -0.06052633 1.9087392e-38
0.045172852 -0.10530742 -0.067583397 1.8903369e-38
0.047122713 -0.10530742 -0.067583397 1.8351636e-38
0.049072582 -0.10530742 -0.067583397 1.8444555e-38
0.052636933 -0.11119686 -0.09352167 1.909029e-38
0.054632273 -0.11119686 -0.09352167 1.9091733e-38
0.056627613 -0.11119686 -0.09352167 1.8354537e-38
0.05862296 -0.11119686 -0.09352167 1.6789014e-38
0.060832012 -0.11189754 -0.096607521 1.5684114e-38
0.062832765 -0.11189754 -0.096607521 1.5316422e-38
0.064608984 -0.11119686 -0.09352167 1.5500822e-38
0.066604324 -0.11119686 -0.09352167 1.5317872e-38
0.085959651 -0.10029322 -0.045499999 8.4972273e-39
0.087870799 -0.10029322 -0.045499999 8.1273657e-39
0.089781933 -0.10029322 -0.045499999 7.297961e-39
0.092097796 -0.10120471 -0.049514372 7.4816306e-39
0.094015978 -0.10120471 -0.049514372 7.4816306e-39
0.09593416 -0.10120471 -0.049514372 7.3890748e-39
0.097852342 -0.10120471 -0.049514372 7.1124879e-39
0.099770524 -0.10120471 -0.049514372 6.8358996e-39
0.10124881 -0.10029322 -0.045499999 6.9270163e-39
0.10283341 -0.099627286 -0.042567093 6.6522245e-39
0.10473941 -0.099627286 -0.042567093 7.0227992e-39
0.10698224 -0.10029322 -0.045499999 6.8391254e-39
0.10889337 -0.10029322 -0.045499999 7.0235167e-39
0.11080452 -0.10029322 -0.045499999 7.1157123e-39
0.11271567 -0.10029322 -0.045499999 6.654374e-39
0.11511599 -0.10120471 -0.049514372 6.1923169e-39
0.11839537 -0.10370506 -0.06052633 6.2830762e-39
0.12033286 -0.10370506 -0.06052633 6.9270051e-39
0.12265561 -0.1043932 -0.063557103 7.755321e-39
0.12459841 -0.1043932 -0.063557103 8.0300988e-39
0.12654121 -0.1043932 -0.063557103 7.1056104e-39
0.12848401 -0.1043932 -0.063557103 4.3692486e-42
0.13042682 -0.1043932 -0.063557103 2.6624671e-44
0.13236962 -0.1043932 -0.063557103 7.300765e-43
-0.092516936 -0.098335579 -0.028591711 1.0799935e-38
-0.090635441 -0.098335579 -0.028591711 1.089286e-38
-0.088753931 -0.098335579 -0.028591711 1.1353847e-38
-0.086872436 -0.098335579 -0.028591711 1.1724072e-38
-0.084799878 -0.097633243 -0.025522191 1.1909182e-38
-0.082923763 -0.097633243 -0.025522191 1.1449282e-38
-0.081047647 -0.097633243 -0.025522191 1.0804629e-38
-0.079745337 -0.099937305 -0.035591919 1.0436212e-38
-0.077851571 -0.099937305 -0.035591919 9.6068286e-39
-0.075957797 -0.099937305 -0.035591919 1.0436238e-38
-0.073909111 -0.099252045 -0.032597024 1.0712099e-38
-0.072020598 -0.099252045 -0.032597024 1.0434428e-38
-0.070132069 -0.099252045 -0.032597024 1.00642e-38
-0.068243556 -0.099252045 -0.032597024 1.0984348e-38
-0.066355027 -0.099252045 -0.032597024 1.1995968e-38
-0.064466514 -0.099252045 -0.032597024 1.2547689e-38
-0.062577985 -0.099252045 -0.032597024 1.5865274e-38
-0.060689464 -0.099252045 -0.032597024 1.992005e-38
-0.058800943 -0.099252045 -0.032597024 2.2499695e-38
-0.056912422 -0.099252045 -0.032597024 2.2867037e-38
-0.054886959 -0.098335579 -0.028591711 2.2681931e-38
-0.053005461 -0.098335579 -0.028591711 2.3049621e-38
-0.051123962 -0.098335579 -0.028591711 2.3418036e-38
-0.049242463 -0.098335579 -0.028591711 2.3234004e-38
-0.047551207 -0.099937305 -0.035591919 2.3418047e-38
-0.045657434 -0.099937305 -0.035591919 2.3234379e-38
-0.04376366 -0.099937305 -0.035591919 2.2958873e-38
-0.041956276 -0.10083917 -0.039533455 2.2867037e-38
-0.040055592 -0.10083917 -0.039533455 2.2591531e-38
-0.038154908 -0.10083917 -0.039533455 2.2775202e-38
-0.036304757 -0.10153329 -0.042567093 2.2867037e-38
-0.034398753 -0.10153329 -0.042567093 2.2958873e-38
-0.032492749 -0.10153329 -0.042567093 2.3234379e-38
-0.030586751 -0.10153329 -0.042567093 2.1943279e-38
-0.028651493 -0.10083917 -0.039533455 2.1573777e-38
-0.02675081 -0.10083917 -0.039533455 2.2403538e-38
-0.024886742 -0.10220437 -0.045499999 2.2958154e-38
-0.022975598 -0.10220437 -0.045499999 2.2036562e-38
-0.02105674 -0.10153329 -0.042567093 1.7797008e-38
-0.019148078 -0.10083917 -0.039533455 1.3095384e-38
-0.017250849 -0.099937305 -0.035591919 1.2080139e-38
-0.015357076 -0.099937305 -0.035591919 1.3278315e-38
-0.013463304 -0.099937305 -0.035591919 1.466017e-38
-0.011569531 -0.099937305 -0.035591919 1.5305179e-38
-0.0095975837 -0.10220437 -0.045499999 1.558105e-38
-0.0076864399 -0.10220437 -0.045499999 1.5948035e-38
-0.0058432939 -0.10083917 -0.039533455 1.6131706e-38
-0.0039426107 -0.10083917 -0.039533455 1.5946959e-38
-0.0020419278 -0.10083917 -0.039533455 1.742209e-38
-0.00014124368 -0.10083917 -0.039533455 1.6685248e-38
0.0017594385 -0.10083917 -0.039533455 1.6962557e-38
0.0035806473 -0.099937305 -0.035591919 1.5672544e-38
0.0054744212 -0.099937305 -0.035591919 1.4567277e-38
0.0072973045 -0.099252045 -0.032597024 1.475311e-38
0.0091858255 -0.099252045 -0.032597024 1.5952376e-38
0.011155738 -0.099937305 -0.035591919 1.8533851e-38
0.01304951 -0.099937305 -0.035591919 1.8165779e-38
0.014943282 -0.099937305 -0.035591919 1.7060147e-38
0.016964903 -0.10083917 -0.039533455 1.6322226e-38
0.019069584 -0.10220437 -0.045499999 1.604564e-38
0.020980729 -0.10220437 -0.045499999 1.5493187e-38
0.022666955 -0.10083917 -0.039533455 1.5124048e-38
0.024567639 -0.10083917 -0.039533455 1.595489e-38
0.02646832 -0.10083917 -0.039533455 1.7245992e-38
0.028369004 -0.10083917 -0.039533455 1.7430029e-38
0.030405322 -0.10153329 -0.042567093 1.7154523e-38
0.032777682 -0.10382988 -0.052604157 1.7800256e-38
0.034891583 -0.10473295 -0.056550939 1.8998802e-38
0.036624882 -0.10382988 -0.052604157 1.9459423e-38
0.038548484 -0.10382988 -0.052604157 1.8999163e-38
0.040683143 -0.10473295 -0.056550939 1.8906252e-38
0.043000616 -0.10633601 -0.063557103 1.9091009e-38
0.041467581 -0.092379183 -0.0025596209 1.9644903e-38
0.043303438 -0.092379183 -0.0025596209 2.0014038e-38
0.045139294 -0.092379183 -0.0025596209 2.0567921e-38
0.052636933 -0.11319222 -0.09352167 2.0937057e-38
0.054632273 -0.11319222 -0.09352167 2.0108026e-38
0.056627613 -0.11319222 -0.09352167 1.8080829e-38
0.05862296 -0.11319222 -0.09352167 1.6237657e-38
0.0606183 -0.11319222 -0.09352167 1.5224591e-38
0.057289157 -0.09603554 -0.018539507 1.494909e-38
0.059153032 -0.09603554 -0.018539507 1.4857619e-38
0.061016906 -0.09603554 -0.018539507 1.4674306e-38
0.078699447 -0.098335579 -0.028591711 8.5915865e-39
0.080580957 -0.098335579 -0.028591711 8.1298867e-39
0.083119087 -0.099937305 -0.035591919 8.037691e-39
0.085012861 -0.099937305 -0.035591919 8.2213592e-39
0.087585397 -0.10153329 -0.042567093 7.9447723e-39
0.08949139 -0.10153329 -0.042567093 7.0220944e-39
0.091693081 -0.10220437 -0.045499999 7.0213713e-39
0.093604229 -0.10220437 -0.045499999 6.9291757e-39
0.095515378 -0.10220437 -0.045499999 6.9288141e-39
0.097426511 -0.10220437 -0.045499999 7.0210098e-39
0.09933766 -0.10220437 -0.045499999 7.1132026e-39
0.10124881 -0.10220437 -0.045499999 7.1124837e-39
0.10315994 -0.10220437 -0.045499999 7.0210042e-39
0.10507109 -0.10220437 -0.045499999 6.5603805e-39
0.10698224 -0.10220437 -0.045499999 6.6529293e-39
0.10889337 -0.10220437 -0.045499999 6.9302351e-39
0.11080452 -0.10220437 -0.045499999 7.1146235e-39
0.11271567 -0.10220437 -0.045499999 7.021709e-39
0.11511599 -0.1031229 -0.049514372 6.7444033e-39
0.11741611 -0.10382988 -0.052604157 7.0202699e-39
0.12033286 -0.10564254 -0.06052633 7.5720017e-39
0.12227034 -0.10564254 -0.06052633 8.4928776e-39
0.12420783 -0.10564254 -0.06052633 8.3985128e-39
0.12614532 -0.10564254 -0.06052633 8.4885364e-39
0.12808281 -0.10564254 -0.06052633 1.8947377e-40
0.13002031 -0.10564254 -0.06052633 2.6624671e-44
0.13236962 -0.10633601 -0.063557103 3.685415e-43
-0.092516936 -0.10021709 -0.028591711 1.3016963e-38
-0.090635441 -0.10021709 -0.028591711 1.2832933e-38
-0.08855211 -0.099509358 -0.025522191 1.2373038e-38
-0.086675994 -0.099509358 -0.025522191 1.2097532e-38
-0.084799878 -0.099509358 -0.025522191 1.2098249e-38
-0.082923763 -0.099509358 -0.025522191 1.2006772e-38
-0.081047647 -0.099509358 -0.025522191 1.163943e-38
-0.079574682 -0.10114056 -0.032597024 1.1362489e-38
-0.077686153 -0.10114056 -0.032597024 1.1084113e-38
-0.07579764 -0.10114056 -0.032597024 1.0899365e-38
-0.073909111 -0.10114056 -0.032597024 1.1452172e-38
-0.071820445 -0.10021709 -0.028591711 1.1358543e-38
-0.06993895 -0.10021709 -0.028591711 1.3016963e-38
-0.068057455 -0.10021709 -0.028591711 1.3383587e-38
-0.066175953 -0.10021709 -0.028591711 1.3935318e-38
-0.06429445 -0.10021709 -0.028591711 1.347182e-38
-0.062412955 -0.10021709 -0.028591711 1.2363658e-38
-0.06053146 -0.10021709 -0.028591711 1.4666731e-38
-0.058649957 -0.10021709 -0.028591711 1.8997391e-38
-0.056768458 -0.10021709 -0.028591711 2.2591531e-38
-0.054782014 -0.099509358 -0.025522191 2.2958873e-38
-0.052905895 -0.099509358 -0.025522191 2.3234379e-38
-0.051123962 -0.10021709 -0.028591711 2.3141103e-38
-0.049242463 -0.10021709 -0.028591711 2.3509883e-38
-0.047469817 -0.10114056 -0.032597024 2.1852525e-38
-0.045657434 -0.10183108 -0.035591919 2.2499336e-38
-0.04376366 -0.10183108 -0.035591919 2.2775202e-38
-0.041956276 -0.10273984 -0.039533455 2.1763576e-38
-0.039976116 -0.10183108 -0.035591919 1.9551606e-38
-0.038082346 -0.10183108 -0.035591919 1.7431106e-38
-0.036254227 -0.10273984 -0.039533455 1.5770862e-38
-0.034353539 -0.10273984 -0.039533455 1.5031855e-38
-0.032452859 -0.10273984 -0.039533455 1.5030772e-38
-0.030552177 -0.10273984 -0.039533455 1.1525893e-38
-0.028680747 -0.10343929 -0.042567093 1.0971996e-38
-0.026797887 -0.1041155 -0.045499999 1.3553474e-38
-0.024886742 -0.1041155 -0.045499999 1.4476156e-38
-0.022975598 -0.1041155 -0.045499999 1.3554562e-38
-0.02105674 -0.10343929 -0.042567093 1.2910636e-38
-0.019150738 -0.10343929 -0.042567093 1.3371969e-38
-0.017247394 -0.10273984 -0.039533455 1.3925129e-38
-0.015357076 -0.10183108 -0.035591919 1.5306616e-38
-0.013463304 -0.10183108 -0.035591919 1.61353e-38
-0.011330108 -0.11082654 -0.074607089 1.5674322e-38
-0.0093679288 -0.11082654 -0.074607089 1.4844201e-38
-0.0075798715 -0.10666345 -0.056550939 1.475129e-38
-0.0058432939 -0.10273984 -0.039533455 1.5395583e-38
-0.0039426107 -0.10273984 -0.039533455 1.5856204e-38
-0.0020419278 -0.10273984 -0.039533455 1.6593771e-38
-0.00014124368 -0.10273984 -0.039533455 1.7055473e-38
0.0017594385 -0.10273984 -0.039533455 1.8808274e-38
0.0035806473 -0.10183108 -0.035591919 1.8348021e-38
0.0054744212 -0.10183108 -0.035591919 1.6689941e-38
0.0072973045 -0.10114056 -0.032597024 1.5769068e-38
0.0091858255 -0.10114056 -0.032597024 1.6322245e-38
0.011155738 -0.10183108 -0.035591919 1.844382e-38
0.01304951 -0.10183108 -0.035591919 1.9181381e-38
0.014943282 -0.10183108 -0.035591919 1.8628563e-38
0.016837055 -0.10183108 -0.035591919 1.8813318e-38
0.018730829 -0.10183108 -0.035591919 1.9919668e-38
0.02177448 -0.10920714 -0.067583397 2.0289172e-38
0.020668773 -0.0905184 0.013473433 2.0197339e-38
0.022476515 -0.0905184 0.013473433 2.1119652e-38
0.024410402 -0.091224253 0.010412019 2.1948682e-38
0.026223512 -0.091224253 0.010412019 2.1856847e-38
0.028212437 -0.092130885 0.0064797811 2.1397669e-38
0.030171635 -0.092821583 0.0034840517 2.0661909e-38
0.031996895 -0.092821583 0.0034840517 2.029385e-38
0.037172202 -0.10827883 -0.063557103 1.964849e-38
0.039115004 -0.10827883 -0.063557103 1.8450324e-38
0.04105781 -0.10827883 -0.063557103 1.7897157e-38
0.039631724 -0.094215035 -0.0025596209 1.7988994e-38
0.041467581 -0.094215035 -0.0025596209 1.7712052e-38
0.043303438 -0.094215035 -0.0025596209 1.7804247e-38
0.04531708 -0.094892681 -0.0054987259 1.7897158e-38
0.047410455 -0.09582752 -0.0095532723 1.7713487e-38
0.049449187 -0.09651424 -0.012531716 1.6423127e-38
0.051302526 -0.09651424 -0.012531716 1.4579944e-38
0.053358059 -0.097204864 -0.015527088 1.328957e-38
0.055425283 -0.097899407 -0.018539507 1.2644926e-38
0.057289157 -0.097899407 -0.018539507 1.2185033e-38
0.059153032 -0.097899407 -0.018539507 1.2185757e-38
0.061016906 -0.097899407 -0.018539507 1.2093925e-38
0.062880777 -0.097899407 -0.018539507 1.144928e-38
0.065060131 -0.098831654 -0.022582848 1.1081219e-38
0.066931091 -0.098831654 -0.022582848 1.0712799e-38
0.075284071 -0.10114056 -0.032597024 9.054001e-39
0.0771726 -0.10114056 -0.032597024 8.8688894e-39
0.078699447 -0.10021709 -0.028591711 8.4079113e-39
0.080580957 -0.10021709 -0.028591711 8.314994e-39
0.083119087 -0.10183108 -0.035591919 8.4071896e-39
0.085012861 -0.10183108 -0.035591919 8.3146311e-39
0.08729019 -0.10273984 -0.039533455 7.9458457e-39
0.08949139 -0.10343929 -0.042567093 7.2068416e-39
0.091397397 -0.10343929 -0.042567093 6.8380576e-39
0.093303405 -0.10343929 -0.042567093 6.6529433e-39
0.095209397 -0.10343929 -0.042567093 6.5607449e-39
0.097426511 -0.1041155 -0.045499999 6.8366129e-39
0.09933766 -0.1041155 -0.045499999 7.0210042e-39
0.10124881 -0.1041155 -0.045499999 7.0210042e-39
0.10315994 -0.1041155 -0.045499999 7.0206398e-39
0.10507109 -0.1041155 -0.045499999 7.2965008e-39
0.10698224 -0.1041155 -0.045499999 7.4812452e-39
0.10889337 -0.1041155 -0.045499999 7.8500264e-39
0.11080452 -0.1041155 -0.045499999 8.1269692e-39
0.11319781 -0.10504107 -0.049514372 8.3113576e-39
0.11511599 -0.10504107 -0.049514372 8.495386e-39
0.11741611 -0.10575347 -0.052604157 8.9552851e-39
0.12033286 -0.10758002 -0.06052633 9.3237061e-39
0.12227034 -0.10758002 -0.06052633 9.2293497e-39
0.12420783 -0.10758002 -0.06052633 9.4119346e-39
0.12614532 -0.10758002 -0.06052633 1.0516112e-38
0.12808281 -0.10758002 -0.06052633 8.3376138e-40
0.13002031 -0.10758002 -0.06052633 2.1860256e-42
-0.092304356 -0.10138547 -0.025522191 1.1268501e-38
-0.090428226 -0.10138547 -0.025522191 1.0992636e-38
-0.08855211 -0.10138547 -0.025522191 1.0808965e-38
-0.086487897 -0.10070263 -0.022582848 1.0810041e-38
-0.084616922 -0.10070263 -0.022582848 1.0902953e-38
-0.082745962 -0.10070263 -0.022582848 1.10877e-38
-0.080875002 -0.10070263 -0.022582848 1.1272447e-38
-0.079171531 -0.10138547 -0.025522191 1.1364641e-38
-0.077686153 -0.10302909 -0.032597024 1.0902953e-38
-0.07579764 -0.10302909 -0.032597024 1.1086265e-38
-0.073909111 -0.10302909 -0.032597024 1.2099684e-38
-0.071820445 -0.10209858 -0.028591711 1.0900442e-38
-0.06993895 -0.10209858 -0.028591711 1.1820949e-38
-0.068057455 -0.10209858 -0.028591711 1.0897562e-38
-0.066038713 -0.10138547 -0.025522191 1.1909908e-38
-0.064162597 -0.10138547 -0.025522191 1.1814825e-38
-0.062286481 -0.10138547 -0.025522191 1.1443512e-38
-0.060410358 -0.10138547 -0.025522191 1.0795971e-38
-0.058534246 -0.10138547 -0.025522191 1.3282718e-38
-0.05665813 -0.10138547 -0.025522191 1.8904479e-38
-0.054782014 -0.10138547 -0.025522191 2.286632e-38
-0.052905895 -0.10138547 -0.025522191 2.3233662e-38
-0.051123962 -0.10209858 -0.028591711 2.3232227e-38
-0.049242463 -0.10209858 -0.028591711 2.3509168e-38
-0.047469817 -0.10302909 -0.032597024 2.3142544e-38
-0.045657434 -0.10372485 -0.035591919 2.2775202e-38
-0.04376366 -0.10372485 -0.035591919 2.2591531e-38
-0.041956276 -0.10464053 -0.039533455 2.0749426e-38
-0.039976116 -0.10372485 -0.035591919 1.7707693e-38
-0.038082346 -0.10372485 -0.035591919 1.5679389e-38
-0.036188573 -0.10372485 -0.035591919 1.4664514e-38
-0.034353539 -0.10464053 -0.039533455 1.4295366e-38
-0.032452859 -0.10464053 -0.039533455 1.3648193e-38
-0.030552177 -0.10464053 -0.039533455 1.2909183e-38
-0.028651493 -0.10464053 -0.039533455 1.3276884e-38
-0.02675081 -0.10464053 -0.039533455 1.4291393e-38
-0.024911376 -0.10695927 -0.049514372 1.4752017e-38
-0.022993194 -0.10695927 -0.049514372 1.5121522e-38
-0.021064453 -0.10602666 -0.045499999 1.5123323e-38
-0.019153308 -0.10602666 -0.045499999 1.4754901e-38
-0.017238645 -0.10695927 -0.049514372 1.410952e-38
-0.01532046 -0.10695927 -0.049514372 1.5677199e-38
-0.013388733 -0.10767709 -0.052604157 1.6966862e-38
-0.011330108 -0.11278872 -0.074607089 1.6505883e-38
-0.0093679288 -0.11278872 -0.074607089 1.5398461e-38
-0.0074450662 -0.11184154 -0.070530012 1.502968e-38
-0.0054900357 -0.11184154 -0.070530012 1.5766169e-38
-0.0035350055 -0.11184154 -0.070530012 1.622787e-38
-0.0030545092 -0.088856161 0.02840988 1.7334223e-38
-0.0013238799 -0.088145852 0.03146736 1.7242392e-38
0.00045231427 -0.088145852 0.03146736 1.8811162e-38
0.0022901583 -0.088856161 0.02840988 1.9642008e-38
0.0054744212 -0.10372485 -0.035591919 2.0103351e-38
0.007368193 -0.10372485 -0.035591919 1.9736009e-38
0.010355101 -0.11371385 -0.078589275 1.8814056e-38
0.01202516 -0.11115701 -0.067583397 1.9275397e-38
0.013975023 -0.11115701 -0.067583397 2.0474292e-38
0.015924888 -0.11115701 -0.067583397 1.9828927e-38
0.017970329 -0.11184154 -0.070530012 1.982965e-38
0.019824615 -0.11115701 -0.067583397 2.0844145e-38
0.02177448 -0.11115701 -0.067583397 2.1213639e-38
0.020668773 -0.092326149 0.013473433 2.0753386e-38
0.022476515 -0.092326149 0.013473433 2.0570432e-38
0.024410402 -0.093037367 0.010412019 2.1030327e-38
0.026223512 -0.093037367 0.010412019 1.9926149e-38
0.028212437 -0.093950883 0.0064797811 1.8359564e-38
0.030171635 -0.094646841 0.0034840517 1.6977368e-38
0.031996895 -0.094646841 0.0034840517 1.6609309e-38
0.033822156 -0.094646841 0.0034840517 1.6149773e-38
0.035803262 -0.095346853 0.00047091767 1.5688443e-38
0.037795868 -0.096050888 -0.0025596209 1.5504772e-38
0.039631724 -0.096050888 -0.0025596209 1.5780996e-38
0.041467581 -0.096050888 -0.0025596209 1.4581032e-38
0.043303438 -0.096050888 -0.0025596209 1.3935662e-38
0.04531708 -0.096733689 -0.0054987259 1.3382491e-38
0.047410455 -0.097675636 -0.0095532723 1.3014072e-38
0.049449187 -0.098367572 -0.012531716 1.2645289e-38
0.051302526 -0.098367572 -0.012531716 1.2369424e-38
0.053358059 -0.099063456 -0.015527088 1.2462341e-38
0.055425283 -0.099763289 -0.018539507 1.2831846e-38
0.057289157 -0.099763289 -0.018539507 1.1909536e-38
0.059153032 -0.099763289 -0.018539507 1.2094649e-38
0.061016906 -0.099763289 -0.018539507 1.1910979e-38
