# .PCD v0.7 - Point Cloud Data file format
VERSION 0.7
FIELDS x y z rgb
SIZE 4 4 4 4
TYPE F F F F
COUNT 1 1 1 1
WIDTH 946
HEIGHT 1
VIEWPOINT 0 0 0 1 0 0 0
POINTS 946
DATA ascii
-0.070804708 -0.1283439 -0.033623055 1.3371969e-38
-0.068910934 -0.1283439 -0.033623055 4.7967021e-39
-0.066872753 -0.12757985 -0.03062816 3.7814768e-39
-0.064798139 -0.12655805 -0.026622847 4.7027184e-39
-0.062916636 -0.12655805 -0.026622847 5.254816e-39
-0.06103513 -0.12655805 -0.026622847 4.6087277e-39
-0.059027161 -0.12577499 -0.023553327 5.7147123e-39
-0.057035085 -0.12502514 -0.020613983 4.8842272e-39
-0.055164125 -0.12502514 -0.020613983 7.2809436e-39
-0.05314783 -0.12399365 -0.016570643 8.01778e-39
-0.051283956 -0.12399365 -0.016570643 1.0507051e-38
-0.049322367 -0.12322514 -0.013558224 1.3089236e-38
-0.047371868 -0.12246101 -0.010562852 1.5117176e-38
-0.045518529 -0.12246101 -0.010562852 1.8988313e-38
-0.043584246 -0.12170117 -0.0075844079 2.0923351e-38
-0.041736126 -0.12170117 -0.0075844079 2.3506269e-38
-0.039888006 -0.12170117 -0.0075844079 2.3509502e-38
-0.038039889 -0.12170117 -0.0075844079 2.3509863e-38
-0.036110017 -0.12066682 -0.0035298616 2.3509517e-38
-0.034159105 -0.11914389 0.002439782 2.3509876e-38
-0.032328565 -0.11914389 0.002439782 2.3418028e-38
-0.030453119 -0.11837523 0.005452916 2.1945056e-38
-0.028627858 -0.11837523 0.005452916 2.2589371e-38
-0.026768457 -0.11761098 0.0084486455 2.2681931e-38
-0.024948452 -0.11761098 0.0084486455 2.3234374e-38
-0.023097418 -0.11660783 0.012380883 2.3141819e-38
-0.021284306 -0.11660783 0.012380883 2.231064e-38
-0.019457776 -0.11582683 0.015442297 2.2863091e-38
-0.017642302 -0.11507715 0.018380925 2.3508451e-38
-0.015839711 -0.11507715 0.018380925 2.3509527e-38
-0.01403977 -0.11430521 0.021406814 2.2867037e-38
-0.012242485 -0.11430521 0.021406814 2.2591528e-38
-0.010471493 -0.11277486 0.027405664 2.2591531e-38
-0.0086847246 -0.11277486 0.027405664 2.2499695e-38
-0.0069214129 -0.11201639 0.030378744 2.2224189e-38
-0.0051693409 -0.11123641 0.033436224 2.1488787e-38
-0.0033931457 -0.11123641 0.033436224 2.029098e-38
-0.0016169506 -0.11123641 0.033436224 1.9278274e-38
0.00011395151 -0.11046107 0.036475345 1.8632916e-38
0.0018361728 -0.10971604 0.039395854 1.8080829e-38
0.0036019175 -0.10971604 0.039395854 1.7528023e-38
0.005307104 -0.10894983 0.042399332 1.6607155e-38
0.007067583 -0.10894983 0.042399332 1.5869957e-38
0.0088280644 -0.10894983 0.042399332 1.504092e-38
0.010512637 -0.10818814 0.045385048 1.4579944e-38
0.012184542 -0.10740583 0.048451647 1.4028214e-38
0.013849074 -0.10665329 0.051401421 1.4398078e-38
0.015500803 -0.10588033 0.054431304 1.4490994e-38
0.017142504 -0.10511206 0.057442829 1.4214411e-38
0.018807214 -0.10459428 0.059472486 1.3384298e-38
0.020537756 -0.10459428 0.059472486 1.310736e-38
0.022155929 -0.10383381 0.062453493 1.3200275e-38
0.023881245 -0.10383381 0.062453493 1.2647827e-38
0.025484476 -0.1030779 0.06541656 1.1726235e-38
0.027204599 -0.1030779 0.06541656 1.1726238e-38
0.028788805 -0.10230236 0.068456575 1.1450367e-38
0.030503597 -0.10230236 0.068456575 1.0989389e-38
0.032364968 -0.1030779 0.06541656 1.0437291e-38
0.033933181 -0.10230236 0.068456575 1.0898267e-38
0.035647973 -0.10230236 0.068456575 1.1728025e-38
0.037525337 -0.1030779 0.06541656 1.218936e-38
0.03924546 -0.1030779 0.06541656 1.2097159e-38
0.040965583 -0.1030779 0.06541656 1.2833636e-38
0.042685706 -0.1030779 0.06541656 1.3109858e-38
0.044585064 -0.10383381 0.062453493 1.3569757e-38
0.046495933 -0.10459428 0.059472486 1.3661589e-38
0.048356369 -0.10511206 0.057442829 1.3845259e-38
0.050288476 -0.10588033 0.054431304 1.4028929e-38
0.052027866 -0.10588033 0.054431304 1.4488462e-38
0.053977087 -0.10665329 0.051401421 1.4948356e-38
0.055721782 -0.10665329 0.051401421 1.6698988e-38
0.057681113 -0.10740583 0.048451647 1.6605705e-38
0.059430979 -0.10740583 0.048451647 1.7526216e-38
0.061180852 -0.10740583 0.048451647 1.6511697e-38
0.063169986 -0.10818814 0.045385048 1.807758e-38
0.065163419 -0.10894983 0.042399332 1.8262324e-38
0.067168772 -0.10971604 0.039395854 1.8814772e-38
0.068934523 -0.10971604 0.039395854 1.8445271e-38
0.071207054 -0.11123641 0.033436224 2.0103353e-38
0.073248602 -0.11201639 0.030378744 1.9734922e-38
0.075030155 -0.11201639 0.030378744 2.028808e-38
0.076811709 -0.11201639 0.030378744 2.1394781e-38
0.078593276 -0.11201639 0.030378744 2.1946882e-38
0.080653705 -0.11277486 0.027405664 2.1577742e-38
0.082440473 -0.11277486 0.027405664 2.139299e-38
0.084810995 -0.11430521 0.021406814 2.1853964e-38
0.086608283 -0.11430521 0.021406814 2.1854306e-38
0.088710628 -0.11507715 0.018380925 2.2590789e-38
0.090814643 -0.11582683 0.015442297 2.111459e-38
0.092622377 -0.11582683 0.015442297 2.2035474e-38
0.095171995 -0.11761098 0.0084486455 2.0651835e-38
0.096991993 -0.11761098 0.0084486455 1.9637686e-38
0.098812006 -0.11761098 0.0084486455 1.954512e-38
0.100632 -0.11761098 0.0084486455 2.0190843e-38
0.10245202 -0.11761098 0.0084486455 1.9820973e-38
0.10427203 -0.11761098 0.0084486455 1.8898298e-38
0.10609203 -0.11761098 0.0084486455 1.6501213e-38
0.10791204 -0.11761098 0.0084486455 2.3016509e-39
0.10973204 -0.11761098 0.0084486455 3.6845882e-39
0.11155205 -0.11761098 0.0084486455 4.3299548e-39
-0.12637049 -0.14694051 -0.098649338 9.4046591e-39
-0.12368459 -0.14511769 -0.091552809 9.6812432e-39
-0.12168925 -0.14511769 -0.091552809 1.2723699e-38
-0.1196939 -0.14511769 -0.091552809 2.3509873e-38
-0.11734089 -0.1441002 -0.087591603 2.3141456e-38
-0.11535247 -0.1441002 -0.087591603 2.3509886e-38
-0.1130117 -0.14305727 -0.083531335 2.3509527e-38
-0.11103042 -0.14305727 -0.083531335 2.3509527e-38
-0.10872386 -0.14205404 -0.079625681 2.3509886e-38
-0.10650442 -0.1412821 -0.076620415 2.3509886e-38
-0.10453524 -0.1412821 -0.076620415 2.3509886e-38
-0.10225538 -0.14025922 -0.072638229 2.3509886e-38
-0.099982254 -0.13921197 -0.068561152 2.3509886e-38
-0.097807638 -0.13845511 -0.065614536 2.3509886e-38
-0.09556482 -0.13742088 -0.061588243 2.3509886e-38
-0.093622006 -0.13742088 -0.061588243 2.3509886e-38
-0.09146931 -0.13664238 -0.058557466 2.3509886e-38
-0.089263462 -0.13562126 -0.054582074 2.3509886e-38
-0.087332942 -0.13562126 -0.054582074 2.3509886e-38
-0.085149832 -0.13460748 -0.050635293 2.3509886e-38
-0.083226241 -0.13460748 -0.050635293 2.3509886e-38
-0.08111573 -0.13381381 -0.047545508 2.3509886e-38
-0.078961767 -0.13278268 -0.043531135 2.3509886e-38
-0.077050619 -0.13278268 -0.043531135 2.3509883e-38
-0.074809946 -0.1312501 -0.037564591 2.3418043e-38
-0.072909258 -0.1312501 -0.037564591 2.0561416e-38
-0.070804708 -0.13023765 -0.033623055 1.1341858e-38
-0.068910934 -0.13023765 -0.033623055 2.8025969e-45
-0.066872753 -0.1294684 -0.03062816 7.0064923e-45
-0.064798139 -0.12843956 -0.026622847 1.2611686e-44
-0.062916636 -0.12843956 -0.026622847 1.1056469e-39
-0.06103513 -0.12843956 -0.026622847 9.1852312e-41
-0.059027161 -0.12765111 -0.023553327 9.1852312e-41
-0.057035085 -0.1268961 -0.020613983 2.755191e-40
-0.055164125 -0.1268961 -0.020613983 1.3804247e-39
-0.05314783 -0.12585752 -0.016570643 3.6734198e-40
-0.051283956 -0.12585752 -0.016570643 6.4284847e-40
-0.049322367 -0.12508373 -0.013558224 4.9760319e-39
-0.047371868 -0.12431435 -0.010562852 5.2529733e-39
-0.045432363 -0.1235493 -0.0075844079 5.4373645e-39
-0.043584246 -0.1235493 -0.0075844079 1.4563661e-38
-0.041736126 -0.1235493 -0.0075844079 1.8989052e-38
-0.039888006 -0.1235493 -0.0075844079 2.2400642e-38
-0.038039889 -0.1235493 -0.0075844079 2.3508793e-38
-0.036110017 -0.12250783 -0.0035298616 2.2953112e-38
-0.034214903 -0.12175287 -0.00059075654 2.3508804e-38
-0.032328565 -0.12097444 0.002439782 2.3509507e-38
-0.030453119 -0.12020047 0.005452916 2.3509506e-38
-0.028627858 -0.12020047 0.005452916 2.3508809e-38
-0.026802599 -0.12020047 0.005452916 2.3138948e-38
-0.024948452 -0.11943097 0.0084486455 2.3508795e-38
-0.023128444 -0.11943097 0.0084486455 2.3509876e-38
-0.021284306 -0.11842094 0.012380883 2.3509527e-38
-0.019457776 -0.11763458 0.015442297 2.3509168e-38
-0.017642302 -0.11687975 0.018380925 2.2311345e-38
-0.015839711 -0.11687975 0.018380925 2.2404257e-38
-0.01403977 -0.1161025 0.021406814 2.2682283e-38
-0.012242485 -0.1161025 0.021406814 2.2591529e-38
-0.010471493 -0.11456163 0.027405664 2.2867037e-38
-0.0087029692 -0.11379795 0.030378744 2.2775202e-38
-0.0069214129 -0.11379795 0.030378744 2.2775202e-38
-0.0051693409 -0.1130126 0.033436224 2.2499695e-38
-0.0033931457 -0.1130126 0.033436224 2.1856488e-38
-0.0016169506 -0.1130126 0.033436224 2.1119293e-38
0.00015924452 -0.1130126 0.033436224 2.0012962e-38
0.0018848176 -0.11223195 0.036475345 1.9553426e-38
0.0036019175 -0.11148177 0.039395854 1.9000978e-38
0.0053676642 -0.11148177 0.039395854 1.8356695e-38
0.007067583 -0.11071031 0.042399332 1.7619854e-38
0.0088280644 -0.11071031 0.042399332 1.6882652e-38
0.010512637 -0.10994337 0.045385048 1.6329481e-38
0.012267882 -0.10994337 0.045385048 1.5869226e-38
0.013934411 -0.10915567 0.048451647 1.5501527e-38
0.015593769 -0.10839801 0.051401421 1.550225e-38
0.017240185 -0.10761972 0.054431304 1.5041276e-38
0.018876605 -0.10684617 0.057442829 1.4303355e-38
0.020537756 -0.10632484 0.059472486 1.3934578e-38
0.022155929 -0.10555913 0.062453493 1.3750551e-38
0.023881245 -0.10555913 0.062453493 1.328922e-38
0.025359217 -0.10401715 0.068456575 1.2368342e-38
0.027074009 -0.10401715 0.068456575 1.2736769e-38
0.028788805 -0.10401715 0.068456575 1.3014075e-38
0.030503597 -0.10401715 0.068456575 1.246162e-38
0.032218389 -0.10401715 0.068456575 1.1448544e-38
0.033933181 -0.10401715 0.068456575 1.1632932e-38
0.035647973 -0.10401715 0.068456575 1.2924027e-38
0.037525337 -0.104798 0.06541656 1.3753785e-38
0.03924546 -0.104798 0.06541656 1.3569748e-38
0.040965583 -0.104798 0.06541656 1.3845242e-38
0.042685706 -0.104798 0.06541656 1.4305133e-38
0.044585064 -0.10555913 0.062453493 1.458172e-38
0.046495933 -0.10632484 0.059472486 1.4949781e-38
0.048356369 -0.10684617 0.057442829 1.5317484e-38
0.050288476 -0.10761972 0.054431304 1.5685904e-38
0.052027866 -0.10761972 0.054431304 1.6237634e-38
0.053977087 -0.10839801 0.051401421 1.6513858e-38
0.055721782 -0.10839801 0.051401421 1.6604609e-38
0.057681113 -0.10915567 0.048451647 1.7434005e-38
0.059430979 -0.10915567 0.048451647 1.8446713e-38
0.061414741 -0.10994337 0.045385048 1.7892814e-38
0.063169986 -0.10994337 0.045385048 1.8814405e-38
0.065163419 -0.11071031 0.042399332 1.945941e-38
0.066923901 -0.11071031 0.042399332 2.0749426e-38
0.068934523 -0.11148177 0.039395854 2.0472839e-38
0.070948608 -0.11223195 0.036475345 2.2223112e-38
0.073248602 -0.11379795 0.030378744 2.1577028e-38
0.075030155 -0.11379795 0.030378744 2.1668502e-38
0.076811709 -0.11379795 0.030378744 2.2222032e-38
0.078593276 -0.11379795 0.030378744 2.2775202e-38
0.080653705 -0.11456163 0.027405664 2.2037995e-38
0.082440473 -0.11456163 0.027405664 2.148374e-38
0.084518261 -0.11532979 0.024415061 2.0930563e-38
0.086310275 -0.11532979 0.024415061 2.1575572e-38
0.088710628 -0.11687975 0.018380925 2.1297904e-38
0.090513222 -0.11687975 0.018380925 1.954619e-38
0.092622377 -0.11763458 0.015442297 2.1758169e-38
0.095171995 -0.11943097 0.0084486455 2.0836215e-38
0.096991993 -0.11943097 0.0084486455 2.019049e-38
0.098812006 -0.11943097 0.0084486455 1.9729152e-38
0.100632 -0.11943097 0.0084486455 2.0282323e-38
0.10245202 -0.11943097 0.0084486455 2.0006086e-38
0.10427203 -0.11943097 0.0084486455 1.8806821e-38
0.10609203 -0.11943097 0.0084486455 1.6224986e-38
0.10791204 -0.11943097 0.0084486455 2.1183387e-39
0.10973204 -0.11943097 0.0084486455 3.0402978e-39
-0.12368459 -0.14711304 -0.091552809 9.0358738e-39
-0.12131768 -0.14608859 -0.087591603 1.1986134e-38
-0.11932928 -0.14608859 -0.087591603 2.3509873e-38
-0.11734089 -0.14608859 -0.087591603 2.3233652e-38
-0.11499297 -0.14503856 -0.083531335 2.3509886e-38
-0.1130117 -0.14503856 -0.083531335 2.3509527e-38
-0.11103042 -0.14503856 -0.083531335 2.3509527e-38
-0.10872386 -0.14402847 -0.079625681 2.3509886e-38
-0.10650442 -0.14325126 -0.076620415 2.3509886e-38
-0.10453524 -0.14325126 -0.076620415 2.3509886e-38
-0.10225538 -0.14222141 -0.072638229 2.3509886e-38
-0.099982254 -0.141167 -0.068561152 2.3509886e-38
-0.097807638 -0.14040495 -0.065614536 2.3509886e-38
-0.09556482 -0.13936369 -0.061588243 2.3509886e-38
-0.093622006 -0.13936369 -0.061588243 2.3509886e-38
-0.09146931 -0.13857989 -0.058557466 2.3509886e-38
-0.089263462 -0.1375518 -0.054582074 2.3509886e-38
-0.087332942 -0.1375518 -0.054582074 2.3509886e-38
-0.085149832 -0.13653107 -0.050635293 2.3509886e-38
-0.083226241 -0.13653107 -0.050635293 2.3509886e-38
-0.08111573 -0.13573201 -0.047545508 2.3509886e-38
-0.078961767 -0.13469382 -0.043531135 2.3509886e-38
-0.077050619 -0.13469382 -0.043531135 2.3509883e-38
-0.074809946 -0.13315077 -0.037564591 2.3509876e-38
-0.072909258 -0.13315077 -0.037564591 1.9637655e-38
-0.070804708 -0.13213144 -0.033623055 1.1616282e-38
-0.068761282 -0.13135691 -0.03062816 6.4500367e-40
-0.066872753 -0.13135691 -0.03062816 7.3612591e-40
-0.064798139 -0.13032107 -0.026622847 5.5138152e-40
-0.062916636 -0.13032107 -0.026622847 9.1980951e-40
-0.06103513 -0.13032107 -0.026622847 2.755191e-40
-0.059027161 -0.12952723 -0.023553327 9.1981231e-40
-0.057035085 -0.12876706 -0.020613983 3.673532e-40
-0.055011701 -0.12772138 -0.016570643 1.1038378e-39
-0.05314783 -0.12772138 -0.016570643 7.926313e-39
-0.051180959 -0.12694232 -0.013558224 8.9408181e-39
-0.049322367 -0.12694232 -0.013558224 8.4798371e-39
-0.047371868 -0.12616767 -0.010562852 8.2958004e-39
-0.045432363 -0.1253974 -0.0075844079 6.5448023e-39
-0.043584246 -0.1253974 -0.0075844079 2.211256e-39
-0.041736126 -0.1253974 -0.0075844079 1.4736881e-39
-0.039888006 -0.1253974 -0.0075844079 3.408709e-39
-0.038039889 -0.1253974 -0.0075844079 5.8050765e-39
-0.036110017 -0.12434883 -0.0035298616 9.951733e-39
-0.034214903 -0.12358873 -0.00059075654 1.714155e-38
-0.032328565 -0.12280498 0.002439782 2.285802e-38
-0.030498024 -0.12280498 0.002439782 2.3508431e-38
-0.028627858 -0.12202574 0.005452916 2.350269e-38
-0.026802599 -0.12202574 0.005452916 2.350773e-38
-0.024948452 -0.121251 0.0084486455 2.3508793e-38
-0.023128444 -0.121251 0.0084486455 2.350843e-38
-0.021284306 -0.12023406 0.012380883 2.332405e-38
-0.019457776 -0.11944233 0.015442297 2.3509886e-38
-0.017642302 -0.11868234 0.018380925 2.3418043e-38
-0.015839711 -0.11868234 0.018380925 2.3234372e-38
-0.01403977 -0.11789979 0.021406814 2.3234379e-38
-0.012250395 -0.1171218 0.024415061 2.3234379e-38
-0.010471493 -0.1163484 0.027405664 2.3234379e-38
-0.0087029692 -0.1155795 0.030378744 2.3142544e-38
-0.0069214129 -0.1155795 0.030378744 2.3142544e-38
-0.0051693409 -0.11478879 0.033436224 2.2867037e-38
-0.0033931457 -0.11478879 0.033436224 2.2498978e-38
-0.0016169506 -0.11478879 0.033436224 2.2222754e-38
0.00015924452 -0.11478879 0.033436224 2.2591531e-38
0.0018848176 -0.11400281 0.036475345 2.2499695e-38
0.0036019175 -0.11324753 0.039395854 2.2224189e-38
0.0053676642 -0.11324753 0.039395854 2.2132353e-38
0.007067583 -0.11247079 0.042399332 2.1948682e-38
0.0088280644 -0.11247079 0.042399332 2.1856847e-38
0.010512637 -0.11169861 0.045385048 2.1489505e-38
0.012184542 -0.11090554 0.048451647 2.1121804e-38
0.013934411 -0.11090554 0.048451647 1.9923638e-38
0.015593769 -0.11014269 0.051401421 1.9831802e-38
0.017240185 -0.1093591 0.054431304 1.9278637e-38
0.018876605 -0.10858028 0.057442829 1.844853e-38
0.020610709 -0.10858028 0.057442829 1.7619499e-38
0.022268303 -0.10805537 0.059472486 1.7342917e-38
0.023764353 -0.10651813 0.06541656 1.6697193e-38
0.025359217 -0.10573195 0.068456575 1.5868154e-38
0.026948273 -0.10497494 0.07138364 1.5314624e-38
0.028657936 -0.10497494 0.07138364 1.5961073e-38
0.030503597 -0.10573195 0.068456575 1.5593006e-38
0.032218389 -0.10573195 0.068456575 1.4395179e-38
0.033933181 -0.10573195 0.068456575 1.457957e-38
0.035647973 -0.10573195 0.068456575 1.6054698e-38
0.037362769 -0.10573195 0.068456575 1.679262e-38
0.03924546 -0.10651813 0.06541656 1.6424188e-38
0.040965583 -0.10651813 0.06541656 1.7620919e-38
0.042859748 -0.10728444 0.062453493 1.7989337e-38
0.044765387 -0.10805537 0.059472486 1.826628e-38
0.046622265 -0.10858028 0.057442829 1.891057e-38
0.048356369 -0.10858028 0.057442829 1.937083e-38
0.050288476 -0.1093591 0.054431304 1.9923638e-38
0.052027866 -0.1093591 0.054431304 2.0383533e-38
0.053977087 -0.11014269 0.051401421 2.0751951e-38
0.055721782 -0.11014269 0.051401421 2.1396234e-38
0.057681113 -0.11090554 0.048451647 2.2224189e-38
0.059659496 -0.11169861 0.045385048 2.2132353e-38
0.061414741 -0.11169861 0.045385048 2.2316024e-38
0.063169986 -0.11169861 0.045385048 2.2591531e-38
0.065163419 -0.11247079 0.042399332 2.2775202e-38
0.066923901 -0.11247079 0.042399332 2.2499694e-38
0.068934523 -0.11324753 0.039395854 2.0655777e-38
0.070948608 -0.11400281 0.036475345 2.0469588e-38
0.073248602 -0.1155795 0.030378744 1.7979593e-38
0.075030155 -0.1155795 0.030378744 1.5582152e-38
0.076811709 -0.1155795 0.030378744 1.309287e-38
0.078593276 -0.1155795 0.030378744 1.2171268e-38
0.080653705 -0.1163484 0.027405664 1.0142958e-38
0.082440473 -0.1163484 0.027405664 9.4046675e-39
0.084518261 -0.1171218 0.024415061 8.5749096e-39
0.086310275 -0.1171218 0.024415061 5.6235803e-39
0.088405572 -0.11789979 0.021406814 4.793821e-39
0.090513222 -0.11868234 0.018380925 5.0704065e-39
0.092622377 -0.11944233 0.015442297 1.2814474e-38
0.094754867 -0.12023406 0.012380883 1.6779239e-38
0.096991993 -0.121251 0.0084486455 1.9821697e-38
0.098812006 -0.121251 0.0084486455 1.9821347e-38
0.100632 -0.121251 0.0084486455 1.9729152e-38
0.10245202 -0.121251 0.0084486455 1.9452912e-38
0.10461607 -0.12202574 0.005452916 1.8623869e-38
0.10644133 -0.12202574 0.005452916 1.6410456e-38
0.10826658 -0.12202574 0.005452916 2.1201366e-39
0.11009184 -0.12202574 0.005452916 2.211256e-39
-0.12368459 -0.14910837 -0.091552809 8.4826986e-39
-0.12131768 -0.148077 -0.087591603 1.143296e-38
-0.11932928 -0.148077 -0.087591603 2.3509873e-38
-0.11734089 -0.148077 -0.087591603 2.3509879e-38
-0.11499297 -0.14701982 -0.083531335 2.3509883e-38
-0.1130117 -0.14701982 -0.083531335 2.3417333e-38
-0.11069829 -0.1460029 -0.079625681 2.3509527e-38
-0.10847358 -0.14522041 -0.076620415 2.3509886e-38
-0.10650442 -0.14522041 -0.076620415 2.3509886e-38
-0.10453524 -0.14522041 -0.076620415 2.3509886e-38
-0.10225538 -0.14418359 -0.072638229 2.3509886e-38
-0.099982254 -0.14312203 -0.068561152 2.3509886e-38
-0.097807638 -0.14235483 -0.065614536 2.3509886e-38
-0.09556482 -0.1413065 -0.061588243 2.3509886e-38
-0.093622006 -0.1413065 -0.061588243 2.3509886e-38
-0.09146931 -0.14051737 -0.058557466 2.3509886e-38
-0.089263462 -0.1394823 -0.054582074 2.3509886e-38
-0.087332942 -0.1394823 -0.054582074 2.3509886e-38
-0.085149832 -0.13845469 -0.050635293 2.3509886e-38
-0.083226241 -0.13845469 -0.050635293 2.3509886e-38
-0.08111573 -0.13765021 -0.047545508 2.3509886e-38
-0.078961767 -0.13660498 -0.043531135 2.3509886e-38
-0.077050619 -0.13660498 -0.043531135 2.3509883e-38
-0.074809946 -0.13505147 -0.037564591 2.3509517e-38
-0.072909258 -0.13505147 -0.037564591 1.9542941e-38
-0.070804708 -0.1340252 -0.033623055 1.1521922e-38
-0.068761282 -0.13324542 -0.03062816 5.5101298e-40
-0.066872753 -0.13324542 -0.03062816 5.5101298e-40
-0.064798139 -0.13220255 -0.026622847 5.5101298e-40
-0.062916636 -0.13220255 -0.026622847 6.4321421e-40
-0.06103513 -0.13220255 -0.026622847 9.1944517e-40
-0.059027161 -0.13140334 -0.023553327 5.5102279e-40
-0.057035085 -0.13063805 -0.020613983 1.3804247e-39
-0.055011701 -0.12958528 -0.016570643 2.9477504e-39
-0.053039551 -0.12880091 -0.013558224 8.8482707e-39
-0.051180959 -0.12880091 -0.013558224 9.494359e-39
-0.049225207 -0.12802102 -0.010562852 1.0692901e-38
-0.047371868 -0.12802102 -0.010562852 1.0047531e-38
-0.045432363 -0.12724553 -0.0075844079 4.8856551e-39
-0.043584246 -0.12724553 -0.0075844079 2.5818448e-39
-0.041736126 -0.12724553 -0.0075844079 2.3974521e-39
-0.039888006 -0.12724553 -0.0075844079 5.1615105e-39
-0.038039889 -0.12724553 -0.0075844079 1.1027448e-39
-0.036110017 -0.12618984 -0.0035298616 1.2857068e-39
-0.034214903 -0.12542458 -0.00059075654 5.9844441e-39
-0.032328565 -0.12463553 0.002439782 1.6216697e-38
-0.030498024 -0.12463553 0.002439782 2.2208692e-38
-0.028627858 -0.12385099 0.005452916 2.3506293e-38
-0.026802599 -0.12385099 0.005452916 2.3507009e-38
-0.024948452 -0.123071 0.0084486455 2.3503748e-38
-0.023128444 -0.123071 0.0084486455 2.3509143e-38
-0.021284306 -0.12204717 0.012380883 2.3509514e-38
-0.019457776 -0.12125005 0.015442297 2.2680474e-38
-0.017642302 -0.12048493 0.018380925 2.3234362e-38
-0.015839711 -0.12048493 0.018380925 2.2774465e-38
-0.01403977 -0.11969708 0.021406814 2.3509886e-38
-0.012258261 -0.11813517 0.027405664 2.3509168e-38
-0.010471493 -0.11813517 0.027405664 2.3508809e-38
-0.0087029692 -0.11736105 0.030378744 2.3325138e-38
-0.0069214129 -0.11736105 0.030378744 2.3417333e-38
-0.0051693409 -0.11656497 0.033436224 2.341805e-38
-0.0033931457 -0.11656497 0.033436224 2.3234379e-38
-0.0016169506 -0.11656497 0.033436224 2.3234379e-38
0.00015924452 -0.11656497 0.033436224 2.286632e-38
0.0018848176 -0.11577369 0.036475345 2.2774843e-38
0.0036556846 -0.11577369 0.036475345 2.2867037e-38
0.0053676642 -0.11501329 0.039395854 2.2775202e-38
0.007067583 -0.11423124 0.042399332 2.2775202e-38
0.0088280644 -0.11423124 0.042399332 2.2591531e-38
0.010512637 -0.11345388 0.045385048 2.240786e-38
0.012184542 -0.11265542 0.048451647 2.2224189e-38
0.013934411 -0.11265542 0.048451647 2.1672099e-38
0.015593769 -0.11188738 0.051401421 2.1579547e-38
0.017240185 -0.11109848 0.054431304 2.1119293e-38
0.018876605 -0.11031438 0.057442829 2.0565769e-38
0.020537756 -0.10978593 0.059472486 2.0104798e-38
0.022155929 -0.10900976 0.062453493 1.9736379e-38
0.023764353 -0.10823826 0.06541656 1.918285e-38
0.025359217 -0.10744675 0.068456575 1.8538562e-38
0.026948273 -0.10668461 0.07138364 1.7431859e-38
0.028657936 -0.10668461 0.07138364 1.7985751e-38
0.030503597 -0.10744675 0.068456575 1.752477e-38
0.032218389 -0.10744675 0.068456575 1.6050716e-38
0.033933181 -0.10744675 0.068456575 1.6142912e-38
0.035647973 -0.10744675 0.068456575 1.7710595e-38
0.037362769 -0.10744675 0.068456575 1.8724744e-38
0.03924546 -0.10823826 0.06541656 1.844851e-38
0.040965583 -0.10823826 0.06541656 1.9644882e-38
0.042685706 -0.10823826 0.06541656 1.9828909e-38
0.044585064 -0.10900976 0.062453493 2.0013303e-38
0.046495933 -0.10978593 0.059472486 2.0382085e-38
0.048356369 -0.11031438 0.057442829 2.0842344e-38
0.050090469 -0.11031438 0.057442829 2.1211127e-38
0.052027866 -0.11109848 0.054431304 2.1579188e-38
0.053767249 -0.11109848 0.054431304 2.1762859e-38
0.055721782 -0.11188738 0.051401421 2.0656511e-38
0.057681113 -0.11265542 0.048451647 2.2775202e-38
0.059430979 -0.11265542 0.048451647 2.2867037e-38
0.061414741 -0.11345388 0.045385048 2.2958873e-38
0.063169986 -0.11345388 0.045385048 2.2775202e-38
0.065163419 -0.11423124 0.042399332 2.2221305e-38
0.066923901 -0.11423124 0.042399332 2.2774476e-38
0.068934523 -0.11501329 0.039395854 2.2220939e-38
0.070948608 -0.11577369 0.036475345 1.8808257e-38
0.072983243 -0.11656497 0.033436224 1.5304109e-38
0.075030155 -0.11736105 0.030378744 1.1892168e-38
0.076811709 -0.11736105 0.030378744 7.6511723e-39
0.078593276 -0.11736105 0.030378744 5.6232174e-39
0.080653705 -0.11813517 0.027405664 2.2123294e-39
0.082440473 -0.11813517 0.027405664 1.4751189e-39
0.084518261 -0.11891381 0.024415061 9.2159056e-40
0.086310275 -0.11891381 0.024415061 1.5662607e-39
0.088405572 -0.11969708 0.021406814 9.1852312e-41
0.090513222 -0.12048493 0.018380925 6.4430162e-40
0.092315815 -0.12048493 0.018380925 1.0601058e-38
0.094430126 -0.12125005 0.015442297 1.5856558e-38
0.096567981 -0.12204717 0.012380883 2.0097557e-38
0.098812006 -0.123071 0.0084486455 1.9451486e-38
0.100632 -0.123071 0.0084486455 1.8254021e-38
0.10245202 -0.123071 0.0084486455 1.8992653e-38
0.10461607 -0.12385099 0.005452916 1.9085566e-38
0.10644133 -0.12385099 0.005452916 1.7056545e-38
0.10826658 -0.12385099 0.005452916 2.4892792e-39
-0.11697426 -0.14900111 -0.083531335 2.3509879e-38
-0.11499297 -0.14900111 -0.083531335 2.3509883e-38
-0.1130117 -0.14900111 -0.083531335 2.3325138e-38
-0.11069829 -0.14797734 -0.079625681 2.3509527e-38
-0.10847358 -0.1471896 -0.076620415 2.3509886e-38
-0.10650442 -0.1471896 -0.076620415 2.3509886e-38
-0.10421757 -0.14614578 -0.072638229 2.3509886e-38
-0.10225538 -0.14614578 -0.072638229 2.3509886e-38
-0.099982254 -0.14507706 -0.068561152 2.3509886e-38
-0.097807638 -0.14430468 -0.065614536 2.3509886e-38
-0.09556482 -0.14324932 -0.061588243 2.3509886e-38
-0.093622006 -0.14324932 -0.061588243 2.3509886e-38
-0.09146931 -0.14245488 -0.058557466 2.3509886e-38
-0.089531817 -0.14245488 -0.058557466 2.3509886e-38
-0.087332942 -0.14141284 -0.054582074 2.3509886e-38
-0.085149832 -0.14037828 -0.050635293 2.3509886e-38
-0.083226241 -0.14037828 -0.050635293 2.3509886e-38
-0.08111573 -0.13956837 -0.047545508 2.3509886e-38
-0.079197548 -0.13956837 -0.047545508 2.3509886e-38
-0.077050619 -0.13851611 -0.043531135 2.3509883e-38
-0.074809946 -0.13695215 -0.037564591 2.3509517e-38
-0.072909258 -0.13695215 -0.037564591 2.0649289e-38
-0.070804708 -0.13591899 -0.033623055 1.2811944e-38
-0.068761282 -0.13513394 -0.03062816 8.2651947e-40
-0.066872753 -0.13513394 -0.03062816 1.194939e-39
-0.064798139 -0.13408406 -0.026622847 5.0671555e-39
-0.062916636 -0.13408406 -0.026622847 6.7270412e-39
-0.060903277 -0.13327946 -0.023553327 7.5568018e-39
-0.059027161 -0.13327946 -0.023553327 6.7270468e-39
-0.056875575 -0.13144915 -0.016570643 3.6734479e-40
-0.055011701 -0.13144915 -0.016570643 1.47154e-39
-0.053039551 -0.13065951 -0.013558224 7.5575319e-39
-0.051180959 -0.13065951 -0.013558224 8.4794882e-39
-0.049225207 -0.12987436 -0.010562852 9.4010886e-39
-0.047371868 -0.12987436 -0.010562852 1.0323045e-38
-0.045432363 -0.12909363 -0.0075844079 1.2445342e-38
-0.043584246 -0.12909363 -0.0075844079 1.2170916e-38
-0.041736126 -0.12909363 -0.0075844079 1.1064563e-38
-0.039888006 -0.12909363 -0.0075844079 1.1523735e-38
-0.038039889 -0.12909363 -0.0075844079 2.5778777e-39
-0.036110017 -0.12803085 -0.0035298616 1.1938699e-39
-0.034214903 -0.12726043 -0.00059075654 1.5612034e-39
-0.032328565 -0.12646608 0.002439782 4.2305467e-39
-0.030498024 -0.12646608 0.002439782 3.8613984e-39
-0.028627858 -0.12567626 0.005452916 5.151438e-39
-0.026802599 -0.12567626 0.005452916 1.5294033e-38
-0.024977341 -0.12567626 0.005452916 2.1197052e-38
-0.023128444 -0.124891 0.0084486455 2.3505537e-38
-0.021284306 -0.12386028 0.012380883 2.3138925e-38
-0.019457776 -0.1230578 0.015442297 2.2864499e-38
-0.017642302 -0.12228753 0.018380925 2.3234357e-38
-0.015839711 -0.12228753 0.018380925 2.277374e-38
-0.01403977 -0.12149437 0.021406814 2.3324052e-38
-0.012258261 -0.11992194 0.027405664 2.3507374e-38
-0.010484524 -0.11914261 0.030378744 2.3507374e-38
-0.0087029692 -0.11914261 0.030378744 2.3508092e-38
-0.0069214129 -0.11914261 0.030378744 2.3508451e-38
-0.0051398571 -0.11914261 0.030378744 2.3416974e-38
-0.0033931457 -0.11834116 0.033436224 2.3509168e-38
-0.0016169506 -0.11834116 0.033436224 2.3509168e-38
0.00015924452 -0.11834116 0.033436224 2.3509886e-38
0.0018848176 -0.11754455 0.036475345 2.3509886e-38
0.0036556846 -0.11754455 0.036475345 2.341805e-38
0.0053676642 -0.11677901 0.039395854 2.3234379e-38
0.007067583 -0.11599173 0.042399332 2.3234379e-38
0.0088280644 -0.11599173 0.042399332 2.3142541e-38
0.010512637 -0.11520912 0.045385048 2.3234376e-38
0.012267882 -0.11520912 0.045385048 2.3142541e-38
0.013934411 -0.11440529 0.048451647 2.2958873e-38
0.015593769 -0.11363207 0.051401421 2.2958873e-38
0.017240185 -0.11283787 0.054431304 2.2775202e-38
0.018876605 -0.11204849 0.057442829 2.2775202e-38
0.020537756 -0.11151646 0.059472486 2.2775202e-38
0.022155929 -0.11073507 0.062453493 2.2775202e-38
0.023764353 -0.1099584 0.06541656 2.2498978e-38
0.025359217 -0.10916151 0.068456575 2.2314589e-38
0.027074009 -0.10916151 0.068456575 2.2039083e-38
0.028788805 -0.10916151 0.068456575 2.2039083e-38
0.030503597 -0.10916151 0.068456575 2.1025664e-38
0.032218389 -0.10916151 0.068456575 1.9734925e-38
0.033933181 -0.10916151 0.068456575 1.9919313e-38
0.035647973 -0.10916151 0.068456575 2.1211128e-38
0.037362769 -0.10916151 0.068456575 2.2316024e-38
0.03924546 -0.1099584 0.06541656 2.2499695e-38
0.040965583 -0.1099584 0.06541656 2.2499695e-38
0.042685706 -0.1099584 0.06541656 2.2591529e-38
0.044585064 -0.11073507 0.062453493 2.2499336e-38
0.046495933 -0.11151646 0.059472486 2.2683366e-38
0.048356369 -0.11204849 0.057442829 2.2958873e-38
0.050090469 -0.11204849 0.057442829 2.2958873e-38
0.052027866 -0.11283787 0.054431304 2.2958873e-38
0.053767249 -0.11283787 0.054431304 2.3142544e-38
0.055721782 -0.11363207 0.051401421 2.3142544e-38
0.057466477 -0.11363207 0.051401421 2.3142544e-38
0.059430979 -0.11440529 0.048451647 2.1390474e-38
0.061180852 -0.11440529 0.048451647 2.166706e-38
0.062930718 -0.11440529 0.048451647 1.8348375e-38
0.064925231 -0.11520912 0.045385048 1.3001026e-38
0.066923901 -0.11599173 0.042399332 7.9291871e-39
0.068934523 -0.11677901 0.039395854 3.2275603e-39
0.070700265 -0.11677901 0.039395854 2.4892652e-39
0.072983243 -0.11834116 0.033436224 1.3818414e-39
0.074759446 -0.11834116 0.033436224 2.5796868e-39
0.076811709 -0.11914261 0.030378744 2.3949396e-39
0.078593276 -0.11914261 0.030378744 3.3172476e-39
0.080374829 -0.11914261 0.030378744 5.5173044e-40
0.082440473 -0.11992194 0.027405664 1.0130617e-39
0.084518261 -0.12070583 0.024415061 1.3814925e-39
0.086310275 -0.12070583 0.024415061 1.1960447e-39
0.088405572 -0.12149437 0.021406814 9.1857917e-41
0.090513222 -0.12228753 0.018380925 4.591929e-40
0.092315815 -0.12228753 0.018380925 1.0232999e-38
0.094430126 -0.1230578 0.015442297 1.4751287e-38
0.096567981 -0.12386028 0.012380883 2.0006438e-38
0.098812006 -0.124891 0.0084486455 2.0005736e-38
0.100632 -0.124891 0.0084486455 1.9084142e-38
0.10245202 -0.124891 0.0084486455 1.8533114e-38
0.10461607 -0.12567626 0.005452916 1.8901895e-38
0.10644133 -0.12567626 0.005452916 1.7057984e-38
0.10826658 -0.12567626 0.005452916 2.9509762e-39
-0.11069829 -0.14995177 -0.079625681 2.3509527e-38
-0.10847358 -0.14915876 -0.076620415 2.3509886e-38
-0.10650442 -0.14915876 -0.076620415 2.3509886e-38
-0.10421757 -0.14810793 -0.072638229 2.3509886e-38
-0.10225538 -0.14810793 -0.072638229 2.3509886e-38
-0.099982254 -0.1470321 -0.068561152 2.3509886e-38
-0.098027222 -0.1470321 -0.068561152 2.3509886e-38
-0.09556482 -0.1451921 -0.061588243 2.3509886e-38
-0.093622006 -0.1451921 -0.061588243 2.3509886e-38
-0.09146931 -0.14439236 -0.058557466 2.3509886e-38
-0.089531817 -0.14439236 -0.058557466 2.3509886e-38
-0.087332942 -0.14334334 -0.054582074 2.3509886e-38
-0.085402422 -0.14334334 -0.054582074 2.3509886e-38
-0.083226241 -0.14230187 -0.050635293 2.3509886e-38
-0.08111573 -0.14148657 -0.047545508 2.3509886e-38
-0.078961767 -0.14042725 -0.043531135 2.3509886e-38
-0.077050619 -0.14042725 -0.043531135 2.3509883e-38
-0.074809946 -0.13885282 -0.037564591 2.3139298e-38
-0.072909258 -0.13885282 -0.037564591 2.0557821e-38
-0.070804708 -0.13781275 -0.033623055 1.2627916e-38
-0.068761282 -0.13702248 -0.03062816 5.5101298e-40
-0.066872753 -0.13702248 -0.03062816 5.5101298e-40
-0.064798139 -0.13596557 -0.026622847 7.0961782e-39
-0.062916636 -0.13596557 -0.026622847 9.6776559e-39
-0.060903277 -0.13515557 -0.023553327 1.1337177e-38
-0.059027161 -0.13515557 -0.023553327 9.8616926e-39
-0.056875575 -0.13331302 -0.016570643 5.5101298e-40
-0.055011701 -0.13331302 -0.016570643 1.1023917e-39
-0.053039551 -0.1325181 -0.013558224 5.1590022e-39
-0.051180959 -0.1325181 -0.013558224 6.2649952e-39
-0.049225207 -0.13172771 -0.010562852 7.4635412e-39
-0.047371868 -0.13172771 -0.010562852 9.0308669e-39
-0.045518529 -0.13172771 -0.010562852 9.4010914e-39
-0.043584246 -0.13094176 -0.0075844079 9.6805523e-39
-0.041736126 -0.13094176 -0.0075844079 1.0418472e-38
-0.039888006 -0.13094176 -0.0075844079 1.1616286e-38
-0.038039889 -0.13094176 -0.0075844079 3.4079985e-39
-0.036110017 -0.12987186 -0.0035298616 1.9303601e-39
-0.034214903 -0.12909628 -0.00059075654 1.7448786e-39
-0.032328565 -0.1282966 0.002439782 2.1125751e-39
-0.030453119 -0.1275015 0.005452916 1.8367099e-39
-0.028627858 -0.1275015 0.005452916 2.1122164e-39
-0.026802599 -0.1275015 0.005452916 2.8494185e-39
-0.024948452 -0.126711 0.0084486455 9.6743964e-39
-0.023128444 -0.126711 0.0084486455 1.9817352e-38
-0.021284306 -0.1256734 0.012380883 2.3509869e-38
-0.019457776 -0.12486555 0.015442297 2.3324757e-38
-0.017642302 -0.12409012 0.018380925 2.2128008e-38
-0.015839711 -0.12409012 0.018380925 2.3509869e-38
-0.01403977 -0.12329166 0.021406814 2.3509165e-38
-0.012258261 -0.12170871 0.027405664 2.3508809e-38
-0.010484524 -0.12092416 0.030378744 2.3508451e-38
-0.0087029692 -0.12092416 0.030378744 2.3509168e-38
-0.0069214129 -0.12092416 0.030378744 2.3509168e-38
-0.0051398571 -0.12092416 0.030378744 2.3509527e-38
-0.0033931457 -0.12011738 0.033436224 2.3509527e-38
-0.0016169506 -0.12011738 0.033436224 2.3509524e-38
0.00015924452 -0.12011738 0.033436224 2.3416245e-38
0.0019354406 -0.12011738 0.033436224 2.3416245e-38
0.0036556846 -0.11931543 0.036475345 2.3325127e-38
0.0054265517 -0.11931543 0.036475345 2.3417323e-38
0.007067583 -0.11775221 0.042399332 2.3509518e-38
0.0088280644 -0.11775221 0.042399332 2.3509876e-38
0.010512637 -0.11696436 0.045385048 2.3509876e-38
0.012267882 -0.11696436 0.045385048 2.3509876e-38
0.013934411 -0.11615516 0.048451647 2.3325846e-38
0.015593769 -0.11537679 0.051401421 2.3234012e-38
0.017240185 -0.11457725 0.054431304 2.3234015e-38
0.018876605 -0.1137826 0.057442829 2.341805e-38
0.020537756 -0.11324702 0.059472486 2.3234379e-38
0.022155929 -0.11246039 0.062453493 2.3234379e-38
0.023764353 -0.1116785 0.06541656 2.3234379e-38
0.025359217 -0.11087631 0.068456575 2.3234379e-38
0.027074009 -0.11087631 0.068456575 2.3142544e-38
0.028788805 -0.11087631 0.068456575 2.2958514e-38
0.030503597 -0.11087631 0.068456575 2.212876e-38
0.032218389 -0.11087631 0.068456575 2.1392271e-38
0.033933181 -0.11087631 0.068456575 2.1576661e-38
0.035647973 -0.11087631 0.068456575 2.2498973e-38
0.037362769 -0.11087631 0.068456575 2.2958873e-38
0.03924546 -0.1116785 0.06541656 2.3142544e-38
0.040965583 -0.1116785 0.06541656 2.3234379e-38
0.042685706 -0.1116785 0.06541656 2.341805e-38
0.044585064 -0.11246039 0.062453493 2.341805e-38
0.046495933 -0.11324702 0.059472486 2.341805e-38
0.048356369 -0.1137826 0.057442829 2.3417691e-38
0.050090469 -0.1137826 0.057442829 2.3417691e-38
0.052027866 -0.11457725 0.054431304 2.3417691e-38
0.053767249 -0.11457725 0.054431304 2.3325497e-38
0.055721782 -0.11537679 0.051401421 2.249539e-38
0.057466477 -0.11537679 0.051401421 2.3417333e-38
0.059430979 -0.11615516 0.048451647 2.3048556e-38
0.061180852 -0.11615516 0.048451647 2.1757828e-38
0.062930718 -0.11615516 0.048451647 1.3829004e-38
0.064925231 -0.11696436 0.045385048 6.177124e-39
0.066923901 -0.11775221 0.042399332 3.4105363e-39
0.068934523 -0.11854477 0.039395854 2.3045376e-39
0.070700265 -0.11854477 0.039395854 3.8714794e-39
0.072719477 -0.11931543 0.036475345 3.1331941e-39
0.074759446 -0.12011738 0.033436224 5.5302987e-39
0.076811709 -0.12092416 0.030378744 5.5299455e-39
0.078593276 -0.12092416 0.030378744 5.5302987e-39
0.080374829 -0.12092416 0.030378744 4.5953621e-40
0.082156383 -0.12092416 0.030378744 3.6841818e-40
0.084227242 -0.12170871 0.027405664 1.1056315e-39
0.086310275 -0.12249784 0.024415061 1.5659062e-39
0.088405572 -0.12329166 0.021406814 1.9618179e-44
0.090513222 -0.12409012 0.018380925 9.1848108e-41
0.092315815 -0.12409012 0.018380925 9.403957e-39
0.094430126 -0.12486555 0.015442297 1.3000289e-38
0.096567981 -0.1256734 0.012380883 1.8993005e-38
0.098812006 -0.126711 0.0084486455 1.9361079e-38
0.100632 -0.126711 0.0084486455 1.8347649e-38
0.10245202 -0.126711 0.0084486455 1.8441636e-38
0.10461607 -0.1275015 0.005452916 1.8349796e-38
0.10644133 -0.1275015 0.005452916 1.7150898e-38
0.10826658 -0.1275015 0.005452916 4.3349897e-39
-0.099982254 -0.14898713 -0.068561152 2.3509886e-38
-0.098027222 -0.14898713 -0.068561152 2.3509886e-38
-0.095857777 -0.14820443 -0.065614536 2.3509886e-38
-0.093622006 -0.14713491 -0.061588243 2.3509886e-38
-0.09146931 -0.14632986 -0.058557466 2.3509886e-38
-0.089531817 -0.14632986 -0.058557466 2.3509886e-38
-0.087594323 -0.14632986 -0.058557466 2.3509886e-38
-0.085402422 -0.14527388 -0.054582074 2.3509886e-38
-0.083226241 -0.14422549 -0.050635293 2.3509886e-38
-0.08111573 -0.14340474 -0.047545508 2.3509886e-38
-0.078961767 -0.14233841 -0.043531135 2.3509886e-38
-0.077050619 -0.14233841 -0.043531135 2.3509886e-38
-0.074809946 -0.14075352 -0.037564591 2.3509527e-38
-0.072909258 -0.14075352 -0.037564591 2.0743301e-38
-0.070804708 -0.13970654 -0.033623055 1.2076909e-38
-0.068761282 -0.13891099 -0.03062816 5.5173184e-40
-0.066679634 -0.13784705 -0.026622847 2.7550649e-40
-0.064798139 -0.13784705 -0.026622847 7.6504324e-39
-0.062916636 -0.13784705 -0.026622847 1.0785082e-38
-0.060903277 -0.13703169 -0.023553327 1.4379633e-38
-0.059027161 -0.13703169 -0.023553327 1.2535002e-38
-0.056875575 -0.13517688 -0.016570643 1.4715273e-39
-0.055011701 -0.13517688 -0.016570643 7.3468397e-40
-0.053039551 -0.13437669 -0.013558224 8.6620732e-39
-0.051180959 -0.13437669 -0.013558224 9.9517358e-39
-0.049225207 -0.13358103 -0.010562852 4.1430552e-39
-0.047371868 -0.13358103 -0.010562852 3.8664725e-39
-0.045518529 -0.13358103 -0.010562852 6.4285828e-40
-0.043584246 -0.13278987 -0.0075844079 1.0123611e-39
-0.041736126 -0.13278987 -0.0075844079 2.7658717e-39
-0.039888006 -0.13278987 -0.0075844079 5.7157633e-39
-0.038039889 -0.13278987 -0.0075844079 2.1186932e-39
-0.036110017 -0.13171287 -0.0035298616 2.024348e-39
-0.034214903 -0.13093217 -0.00059075654 2.1154576e-39
-0.032328565 -0.13012715 0.002439782 1.0101905e-39
-0.030453119 -0.12932678 0.005452916 1.7470268e-39
-0.028627858 -0.12932678 0.005452916 1.9296216e-39
-0.026802599 -0.12932678 0.005452916 1.0101905e-39
-0.024948452 -0.12853102 0.0084486455 2.1165212e-39
-0.023128444 -0.12853102 0.0084486455 3.0395453e-39
-0.021284306 -0.12748651 0.012380883 1.1890701e-38
-0.019457776 -0.1266733 0.015442297 2.3508437e-38
-0.017642302 -0.12589271 0.018380925 2.350987e-38
-0.015839711 -0.12589271 0.018380925 2.3509153e-38
-0.01403977 -0.12508895 0.021406814 2.3509521e-38
-0.012258261 -0.12349547 0.027405664 2.3509168e-38
-0.010484524 -0.12270571 0.030378744 2.3509168e-38
-0.0087029692 -0.12270571 0.030378744 2.3508808e-38
-0.0069214129 -0.12270571 0.030378744 2.3508448e-38
-0.0051398571 -0.12270571 0.030378744 2.3508445e-38
-0.0033931457 -0.12189357 0.033436224 2.3509165e-38
-0.0016169506 -0.12189357 0.033436224 2.3509165e-38
0.00015924452 -0.12189357 0.033436224 2.3509521e-38
0.0019354406 -0.12189357 0.033436224 2.3509521e-38
0.0036556846 -0.12108628 0.036475345 2.3509879e-38
0.0053676642 -0.1203105 0.039395854 2.3509518e-38
0.007067583 -0.11951269 0.042399332 2.3509518e-38
0.0088280644 -0.11951269 0.042399332 2.3509516e-38
0.010512637 -0.11871959 0.045385048 2.3509879e-38
0.012184542 -0.11790501 0.048451647 2.3509876e-38
0.013934411 -0.11790501 0.048451647 2.3509876e-38
0.015500803 -0.11631663 0.054431304 2.3509876e-38
0.017240185 -0.11631663 0.054431304 2.3509879e-38
0.018876605 -0.11551671 0.057442829 2.350988e-38
0.020537756 -0.11497755 0.059472486 2.3509883e-38
0.022155929 -0.11418571 0.062453493 2.3509883e-38
0.023881245 -0.11418571 0.062453493 2.3325494e-38
0.025359217 -0.1125911 0.068456575 2.3233302e-38
0.027074009 -0.1125911 0.068456575 2.3509886e-38
0.028788805 -0.1125911 0.068456575 2.3325856e-38
0.030503597 -0.1125911 0.068456575 2.3233302e-38
0.032218389 -0.1125911 0.068456575 2.3234018e-38
0.033933181 -0.1125911 0.068456575 2.3418047e-38
0.035647973 -0.1125911 0.068456575 2.3234376e-38
0.037362769 -0.1125911 0.068456575 2.3418045e-38
0.03924546 -0.11339863 0.06541656 2.3049624e-38
0.040965583 -0.11339863 0.06541656 2.3509527e-38
0.042685706 -0.11339863 0.06541656 2.3509168e-38
0.044765387 -0.11497755 0.059472486 2.332478e-38
0.046495933 -0.11497755 0.059472486 2.3508809e-38
0.048356369 -0.11551671 0.057442829 2.3509168e-38
0.050090469 -0.11551671 0.057442829 2.3509168e-38
0.052027866 -0.11631663 0.054431304 2.3508809e-38
0.053767249 -0.11631663 0.054431304 2.3508451e-38
0.055721782 -0.11712147 0.051401421 1.8530268e-38
0.057681113 -0.11790501 0.048451647 1.2537552e-38
0.059659496 -0.11871959 0.045385048 2.2116413e-39
0.061414741 -0.11871959 0.045385048 8.2870689e-40
0.063169986 -0.11871959 0.045385048 3.6772874e-40
0.065163419 -0.11951269 0.042399332 2.4882282e-39
0.066923901 -0.11951269 0.042399332 6.8214228e-39
0.068684377 -0.11951269 0.042399332 8.9426272e-39
0.070700265 -0.1203105 0.039395854 8.4809049e-39
0.072719477 -0.12108628 0.036475345 6.4529528e-39
0.074759446 -0.12189357 0.033436224 7.6511471e-39
0.076811709 -0.12270571 0.030378744 6.0845458e-39
0.078593276 -0.12270571 0.030378744 5.1625923e-39
0.080374829 -0.12270571 0.030378744 9.1835496e-41
0.082156383 -0.12270571 0.030378744 1.4744112e-39
0.084227242 -0.12349547 0.027405664 3.7796677e-39
0.086310275 -0.12428986 0.024415061 1.9354034e-39
0.088102289 -0.12428986 0.024415061 9.2209643e-41
0.090202861 -0.12508895 0.021406814 7.0064923e-45
0.092000149 -0.12508895 0.021406814 9.1277303e-39
0.094118409 -0.12589271 0.018380925 1.2724788e-38
0.096237876 -0.1266733 0.015442297 1.9363229e-38
0.098381095 -0.12748651 0.012380883 1.9455069e-38
0.100632 -0.12853102 0.0084486455 1.7887743e-38
0.10245202 -0.12853102 0.0084486455 1.8718579e-38
0.10427203 -0.12853102 0.0084486455 1.8073929e-38
0.10609203 -0.12853102 0.0084486455 1.7704072e-38
0.10791204 -0.12853102 0.0084486455 6.1792652e-39
-0.093622006 -0.14907773 -0.061588243 2.3509886e-38
-0.091679208 -0.14907773 -0.061588243 2.3509886e-38
-0.089531817 -0.14826734 -0.058557466 2.3509886e-38
-0.087594323 -0.14826734 -0.058557466 2.3509886e-38
-0.085402422 -0.14720438 -0.054582074 2.3509886e-38
-0.083226241 -0.14614908 -0.050635293 2.3509886e-38
-0.08111573 -0.14532293 -0.047545508 2.3509886e-38
-0.078961767 -0.14424954 -0.043531135 2.3509886e-38
-0.077050619 -0.14424954 -0.043531135 2.341805e-38
-0.074809946 -0.1426542 -0.037564591 2.3234379e-38
-0.072909258 -0.1426542 -0.037564591 2.1943653e-38
-0.070804708 -0.1416003 -0.033623055 1.1709935e-38
-0.068761282 -0.14079951 -0.03062816 3.6914826e-40
-0.066679634 -0.13972856 -0.026622847 6.4537221e-40
-0.064798139 -0.13972856 -0.026622847 6.1767443e-39
-0.062779397 -0.13890781 -0.023553327 1.0047879e-38
-0.060903277 -0.13890781 -0.023553327 1.4288516e-38
-0.058906052 -0.13812189 -0.020613983 1.2720112e-38
-0.056875575 -0.13704078 -0.016570643 7.3468397e-40
-0.055011701 -0.13704078 -0.016570643 1.3778912e-39
-0.053039551 -0.13623528 -0.013558224 1.114991e-38
-0.051180959 -0.13623528 -0.013558224 1.1794204e-38
-0.049225207 -0.13543437 -0.010562852 8.3829682e-39
-0.047371868 -0.13543437 -0.010562852 5.9848098e-39
-0.045518529 -0.13543437 -0.010562852 1.2857068e-39
-0.043584246 -0.134638 -0.0075844079 6.4285128e-40
-0.041736126 -0.134638 -0.0075844079 4.5161411e-39
-0.039888006 -0.134638 -0.0075844079 6.2682098e-39
-0.038039889 -0.134638 -0.0075844079 3.0413628e-39
-0.036110017 -0.13355388 -0.0035298616 1.1049028e-39
-0.034214903 -0.13276802 -0.00059075654 1.2896486e-39
-0.032328565 -0.13195769 0.002439782 1.5673019e-39
-0.030453119 -0.13115202 0.005452916 9.2265975e-40
-0.028627858 -0.13115202 0.005452916 1.2896458e-39
-0.026802599 -0.13115202 0.005452916 2.7550649e-40
-0.024948452 -0.13035102 0.0084486455 6.442834e-40
-0.023128444 -0.13035102 0.0084486455 3.6770072e-40
-0.021284306 -0.1292996 0.012380883 7.0965342e-39
-0.019457776 -0.12848105 0.015442297 2.3508807e-38
-0.017642302 -0.12769531 0.018380925 2.2953827e-38
-0.015839711 -0.12769531 0.018380925 2.3508441e-38
-0.01403977 -0.12688623 0.021406814 2.3509521e-38
-0.012258261 -0.12528224 0.027405664 2.3509524e-38
-0.010484524 -0.1244873 0.030378744 2.3509524e-38
-0.0087029692 -0.1244873 0.030378744 2.3509524e-38
-0.0069214129 -0.1244873 0.030378744 2.3509524e-38
-0.0051693409 -0.12366976 0.033436224 2.3509524e-38
-0.0033931457 -0.12366976 0.033436224 2.3509524e-38
-0.0016169506 -0.12366976 0.033436224 2.3509524e-38
0.00015924452 -0.12366976 0.033436224 2.3509524e-38
0.0019354406 -0.12366976 0.033436224 2.3509524e-38
0.0036019175 -0.12207626 0.039395854 2.3509524e-38
0.0053676642 -0.12207626 0.039395854 2.3509524e-38
0.007067583 -0.12127317 0.042399332 2.3509524e-38
0.0088280644 -0.12127317 0.042399332 2.3509524e-38
0.010512637 -0.12047486 0.045385048 2.3509527e-38
0.012184542 -0.11965488 0.048451647 2.3509524e-38
0.013849074 -0.11886616 0.051401421 2.3509879e-38
0.015500803 -0.11805601 0.054431304 2.3509879e-38
0.017142504 -0.11725079 0.057442829 2.3509879e-38
0.018876605 -0.11725079 0.057442829 2.3509521e-38
0.020537756 -0.11670811 0.059472486 2.3509524e-38
0.022268303 -0.11670811 0.059472486 2.3509883e-38
0.023881245 -0.11591102 0.062453493 2.3509527e-38
0.025484476 -0.11511876 0.06541656 2.3509527e-38
0.027204599 -0.11511876 0.06541656 2.3509527e-38
0.028788805 -0.1143059 0.068456575 2.3509886e-38
0.030503597 -0.1143059 0.068456575 2.3509527e-38
0.032218389 -0.1143059 0.068456575 2.3509886e-38
0.033933181 -0.1143059 0.068456575 2.3509883e-38
0.035647973 -0.1143059 0.068456575 2.3418047e-38
0.037362769 -0.1143059 0.068456575 2.3509883e-38
0.03924546 -0.11511876 0.06541656 2.3509883e-38
0.040965583 -0.11511876 0.06541656 2.2864153e-38
0.042685706 -0.11511876 0.06541656 2.3509527e-38
0.044765387 -0.11670811 0.059472486 2.3509168e-38
0.046495933 -0.11670811 0.059472486 2.3508092e-38
0.048356369 -0.11725079 0.057442829 2.3416615e-38
0.050090469 -0.11725079 0.057442829 2.3509168e-38
0.052027866 -0.11805601 0.054431304 2.3508451e-38
0.053767249 -0.11805601 0.054431304 2.1848945e-38
0.055721782 -0.11886616 0.051401421 1.4658051e-38
0.057681113 -0.11965488 0.048451647 6.2682491e-39
0.059659496 -0.12047486 0.045385048 2.7553592e-40
0.061414741 -0.12047486 0.045385048 2.5223372e-44
0.063169986 -0.12047486 0.045385048 8.2870969e-40
0.064925231 -0.12047486 0.045385048 1.6584704e-39
0.066680476 -0.12047486 0.045385048 7.3749595e-39
0.068684377 -0.12127317 0.042399332 7.3749455e-39
0.07044486 -0.12127317 0.042399332 8.0213715e-39
0.072466008 -0.12207626 0.039395854 5.9930537e-39
0.074759446 -0.12366976 0.033436224 4.5179236e-39
0.076811709 -0.1244873 0.030378744 6.5465904e-39
0.078593276 -0.1244873 0.030378744 1.7520687e-39
0.080374829 -0.1244873 0.030378744 1.2914577e-39
0.082440473 -0.12528224 0.027405664 2.1208666e-39
0.084227242 -0.12528224 0.027405664 5.7172165e-39
0.086310275 -0.12608187 0.024415061 5.8097694e-39
0.088102289 -0.12608187 0.024415061 1.2921808e-39
0.090202861 -0.12688623 0.021406814 2.1608022e-42
0.092000149 -0.12688623 0.021406814 5.9026811e-39
0.094118409 -0.12769531 0.018380925 1.3648193e-38
0.096237876 -0.12848105 0.015442297 1.9179925e-38
0.098381095 -0.1292996 0.012380883 1.7797342e-38
0.100632 -0.13035102 0.0084486455 1.918063e-38
0.10245202 -0.13035102 0.0084486455 1.8995163e-38
0.10427203 -0.13035102 0.0084486455 1.890297e-38
0.10609203 -0.13035102 0.0084486455 1.7058703e-38
0.10826658 -0.13115202 0.005452916 7.470004e-39
0.11009184 -0.13115202 0.005452916 2.6769131e-39
0.1119171 -0.13115202 0.005452916 3.2300868e-39
-0.085402422 -0.14913492 -0.054582074 2.3509886e-38
-0.083471902 -0.14913492 -0.054582074 2.3509886e-38
-0.081302635 -0.14807267 -0.050635293 2.3509886e-38
-0.079197548 -0.1472411 -0.047545508 2.3509886e-38
-0.077050619 -0.14616071 -0.043531135 2.341805e-38
-0.074809946 -0.14455487 -0.037564591 2.2958873e-38
-0.072909258 -0.14455487 -0.037564591 2.0931304e-38
-0.070804708 -0.14349405 -0.033623055 1.3647488e-38
-0.068761282 -0.14268802 -0.03062816 6.4682256e-40
-0.066679634 -0.14161004 -0.026622847 7.0064923e-45
-0.064798139 -0.14161004 -0.026622847 6.7306439e-39
-0.062779397 -0.14078392 -0.023553327 1.0601779e-38
-0.060903277 -0.14078392 -0.023553327 1.3090335e-38
-0.058906052 -0.13999285 -0.020613983 1.0691809e-38
