# .PCD v0.7 - Point Cloud Data file format
VERSION 0.7
FIELDS x y z rgb
SIZE 4 4 4 4
TYPE F F F F
COUNT 1 1 1 1
WIDTH 939
HEIGHT 1
VIEWPOINT 0 0 0 1 0 0 0
POINTS 939
DATA ascii
0.0099914055 -0.10132705 0.017796826 1.2280449e-38
0.011772961 -0.10132705 0.017796826 1.2372644e-38
0.013554517 -0.10132705 0.017796826 1.246484e-38
0.015336073 -0.10132705 0.017796826 1.2372644e-38
0.017082784 -0.10057923 0.020854305 1.227937e-38
0.01885898 -0.10057923 0.020854305 1.2002783e-38
0.020589881 -0.099835888 0.023893427 1.2832543e-38
0.022360748 -0.099835888 0.023893427 1.2832543e-38
0.024077848 -0.099121556 0.026813935 1.3016575e-38
0.025843594 -0.099121556 0.026813935 1.3016575e-38
0.027543513 -0.098386943 0.029817414 1.3016575e-38
0.029303994 -0.098386943 0.029817414 1.3292082e-38
0.031064473 -0.098386943 0.029817414 1.3384278e-38
0.032743812 -0.097656667 0.032803129 1.3017659e-38
0.034410343 -0.096906602 0.035869729 1.3021265e-38
0.036069699 -0.096185118 0.038819503 1.3390044e-38
0.037814394 -0.096185118 0.038819503 1.4585337e-38
0.039659947 -0.096906602 0.035869729 1.5596595e-38
0.041194886 -0.095444039 0.041849386 1.65153e-38
0.042934269 -0.095444039 0.041849386 1.7435089e-38
0.044673651 -0.095444039 0.041849386 1.8172654e-38
0.045960404 -0.092757151 0.052834641 1.8449965e-38
0.047680527 -0.092757151 0.052834641 1.8636506e-38
0.04975716 -0.094707444 0.044860911 1.7164268e-38
0.051396959 -0.094211012 0.046890568 1.5875701e-38
0.053127505 -0.094211012 0.046890568 1.5232135e-38
0.054959469 -0.094707444 0.044860911 1.4680046e-38
0.056693569 -0.094707444 0.044860911 1.3942851e-38
0.058427677 -0.094707444 0.044860911 1.3297491e-38
0.060161777 -0.094707444 0.044860911 1.2837955e-38
0.061895885 -0.094707444 0.044860911 1.2102554e-38
0.063629985 -0.094707444 0.044860911 1.1827765e-38
0.065364093 -0.094707444 0.044860911 1.182633e-38
0.067098193 -0.094707444 0.044860911 1.1457553e-38
0.068832301 -0.094707444 0.044860911 1.1364283e-38
0.070566401 -0.094707444 0.044860911 1.1547595e-38
0.072503798 -0.095444039 0.041849386 1.1916013e-38
0.07424318 -0.095444039 0.041849386 1.2375908e-38
0.076624937 -0.097656667 0.032803129 1.1453601e-38
0.078380182 -0.097656667 0.032803129 9.1479889e-39
0.080357909 -0.098386943 0.029817414 8.132395e-39
0.082347468 -0.099121556 0.026813935 8.3160618e-39
0.08411321 -0.099121556 0.026813935 7.6710483e-39
0.086111948 -0.099835888 0.023893427 7.1171529e-39
0.088130593 -0.10057923 0.020854305 6.9331189e-39
0.090409026 -0.10205424 0.014823746 6.9324015e-39
0.092450112 -0.10278571 0.011833142 7.1135655e-39
0.094503209 -0.10352151 0.0088248961 6.9280925e-39
0.096568421 -0.10426159 0.0057990067 6.9255603e-39
0.098371014 -0.10426159 0.0057990067 6.9241072e-39
0.1007259 -0.10572915 -0.00020103529 8.1201182e-39
0.10290788 -0.10669093 -0.0041332729 9.6863537e-39
0.10501415 -0.10742365 -0.0071290024 1.1068558e-38
0.10713261 -0.10816063 -0.010142136 1.1805396e-38
0.11025123 -0.11134095 -0.02314477 1.3004292e-38
0.11210458 -0.11134095 -0.02314477 1.3281954e-38
0.11395791 -0.11134095 -0.02314477 1.2913524e-38
0.11643802 -0.11281042 -0.029152561 7.3810594e-39
0.11830188 -0.11281042 -0.029152561 1.1113894e-39
-0.12146366 -0.11715056 -0.039204765 1.7340371e-38
-0.11958216 -0.11715056 -0.039204765 1.6787561e-38
-0.11734813 -0.11639442 -0.036135245 1.688048e-38
-0.11547202 -0.11639442 -0.036135245 1.7064871e-38
-0.11326864 -0.11567034 -0.033195902 1.7987182e-38
-0.11139768 -0.11567034 -0.033195902 1.87251e-38
-0.10952672 -0.11567034 -0.033195902 1.9553782e-38
-0.10722686 -0.11467429 -0.029152561 1.9645977e-38
-0.10536298 -0.11467429 -0.029152561 1.9645259e-38
-0.10349911 -0.11467429 -0.029152561 1.9737454e-38
-0.10163523 -0.11467429 -0.029152561 2.0197351e-38
-0.09947294 -0.11393218 -0.026140142 2.0105874e-38
-0.097614348 -0.11393218 -0.026140142 1.89999e-38
-0.095755756 -0.11393218 -0.026140142 1.8170866e-38
-0.093616188 -0.1131943 -0.02314477 1.7065604e-38
-0.091762856 -0.1131943 -0.02314477 1.5591919e-38
-0.089640558 -0.11246057 -0.020166326 1.4118592e-38
-0.087792441 -0.11246057 -0.020166326 1.3105166e-38
-0.085944325 -0.11246057 -0.020166326 1.2461237e-38
-0.083751425 -0.11146177 -0.01611178 1.2644552e-38
-0.081910416 -0.11146177 -0.01611178 1.1720801e-38
-0.080069408 -0.11146177 -0.01611178 1.0706652e-38
-0.078228399 -0.11146177 -0.01611178 1.0339313e-38
-0.076158077 -0.11073773 -0.013172675 1.0340038e-38
-0.074322209 -0.11073773 -0.013172675 1.0063814e-38
-0.072486356 -0.11073773 -0.013172675 1.0340403e-38
-0.070429996 -0.10999118 -0.010142136 1.0709184e-38
-0.068385482 -0.10924892 -0.0071290024 1.0524427e-38
-0.066560224 -0.10924892 -0.0071290024 1.0430066e-38
-0.064532742 -0.10851096 -0.0041332729 1.0890677e-38
-0.062712744 -0.10851096 -0.0041332729 1.1535684e-38
-0.060892731 -0.10851096 -0.0041332729 1.2181052e-38
-0.059072733 -0.10851096 -0.0041332729 1.2642749e-38
-0.05725272 -0.10851096 -0.0041332729 1.2920776e-38
-0.055432707 -0.10851096 -0.0041332729 1.3382117e-38
-0.053612709 -0.10851096 -0.0041332729 1.3750897e-38
-0.051792696 -0.10851096 -0.0041332729 1.4580649e-38
-0.049972691 -0.10851096 -0.0041332729 1.4857232e-38
-0.048152685 -0.10851096 -0.0041332729 1.5409685e-38
-0.04633268 -0.10851096 -0.0041332729 1.5410406e-38
-0.044512674 -0.10851096 -0.0041332729 1.5502957e-38
-0.042509958 -0.10754226 -0.00020103529 1.5502601e-38
-0.040696844 -0.10754226 -0.00020103529 1.5594797e-38
-0.038883731 -0.10754226 -0.00020103529 1.5686994e-38
-0.037070625 -0.10754226 -0.00020103529 1.5871388e-38
-0.035257511 -0.10754226 -0.00020103529 1.5595164e-38
-0.033328995 -0.10678811 0.0028603785 1.5318223e-38
-0.031415626 -0.10606419 0.0057990067 1.5133834e-38
-0.029613031 -0.10606419 0.0057990067 1.5041285e-38
-0.027712291 -0.1053188 0.0088248961 1.4765779e-38
-0.025915002 -0.1053188 0.0088248961 1.4949094e-38
-0.024117714 -0.1053188 0.0088248961 1.4673948e-38
-0.022238677 -0.10457774 0.011833142 1.421441e-38
-0.020446664 -0.10457774 0.011833142 1.3939264e-38
-0.018725855 -0.1053188 0.0088248961 1.3754874e-38
-0.016928567 -0.1053188 0.0088248961 1.3570483e-38
-0.015131282 -0.1053188 0.0088248961 1.3294617e-38
-0.013278613 -0.10457774 0.011833142 1.3018031e-38
-0.011486603 -0.10457774 0.011833142 1.2834001e-38
-0.0096945893 -0.10457774 0.011833142 1.2741805e-38
-0.0078632515 -0.10384102 0.014823746 1.2465941e-38
-0.0060425978 -0.1031086 0.017796826 1.1821291e-38
-0.0042610411 -0.1031086 0.017796826 1.1544707e-38
-0.0024794862 -0.1031086 0.017796826 1.1637981e-38
-0.00069793127 -0.1031086 0.017796826 1.2006764e-38
0.0010836255 -0.1031086 0.017796826 1.1822733e-38
0.0028651822 -0.1031086 0.017796826 1.1822736e-38
0.0046467371 -0.1031086 0.017796826 1.2098604e-38
0.0064282939 -0.1031086 0.017796826 1.2004969e-38
0.0082018077 -0.10235542 0.020854305 1.2372672e-38
0.0099780038 -0.10235542 0.020854305 1.264854e-38
0.011754198 -0.10235542 0.020854305 1.2464149e-38
0.013530394 -0.10235542 0.020854305 1.2187562e-38
0.015306589 -0.10235542 0.020854305 1.1910975e-38
0.017048148 -0.10160676 0.023893427 1.1910975e-38
0.018819015 -0.10160676 0.023893427 1.1910975e-38
0.020589881 -0.10160676 0.023893427 1.2740736e-38
0.022360748 -0.10160676 0.023893427 1.264854e-38
0.024077848 -0.1008873 0.026813935 1.2464149e-38
0.025783034 -0.10014741 0.029817414 1.2371953e-38
0.027478077 -0.099411905 0.032803129 1.2279758e-38
0.029233322 -0.099411905 0.032803129 1.2371593e-38
0.031064473 -0.10014741 0.029817414 1.2279398e-38
0.032743812 -0.099411905 0.032803129 1.2096087e-38
0.034410343 -0.098656476 0.035869729 1.0255774e-38
0.036069699 -0.09792982 0.038819503 1.0626352e-38
0.037716113 -0.097183421 0.041849386 1.1546146e-38
0.039455503 -0.097183421 0.041849386 1.2006037e-38
0.041194886 -0.097183421 0.041849386 1.2188264e-38
0.042934269 -0.097183421 0.041849386 1.2463765e-38
0.044673651 -0.097183421 0.041849386 1.2831827e-38
0.046288952 -0.096441552 0.044860911 1.3108416e-38
0.048023053 -0.096441552 0.044860911 1.3754151e-38
0.04975716 -0.096441552 0.044860911 1.3294617e-38
0.051396959 -0.095941558 0.046890568 1.3019833e-38
0.053127505 -0.095941558 0.046890568 1.3205297e-38
0.054959469 -0.096441552 0.044860911 1.3206732e-38
0.056849338 -0.097183421 0.041849386 1.2746837e-38
0.058750749 -0.09792982 0.038819503 1.2194031e-38
0.060161777 -0.096441552 0.044860911 1.1918165e-38
0.061895885 -0.096441552 0.044860911 1.3024496e-38
0.063510768 -0.095941558 0.046890568 1.2932302e-38
0.065241314 -0.095941558 0.046890568 1.2562807e-38
0.066971861 -0.095941558 0.046890568 1.1917448e-38
0.068702407 -0.095941558 0.046890568 1.163943e-38
0.070432954 -0.095941558 0.046890568 1.1638354e-38
0.0721635 -0.095941558 0.046890568 1.2098966e-38
0.073894039 -0.095941558 0.046890568 1.2467026e-38
0.075768717 -0.096441552 0.044860911 1.0345456e-38
0.077942409 -0.09792982 0.038819503 8.0401994e-39
0.079906911 -0.098656476 0.035869729 7.2089982e-39
0.081890672 -0.099411905 0.032803129 7.761809e-39
0.083878875 -0.10014741 0.029817414 7.8532816e-39
0.085878961 -0.1008873 0.026813935 7.4837774e-39
0.087882817 -0.10160676 0.023893427 7.2075478e-39
0.090409026 -0.10384102 0.014823746 6.9302351e-39
0.092450112 -0.10457774 0.011833142 6.4670961e-39
0.094503209 -0.1053188 0.0088248961 7.0188237e-39
0.096568421 -0.10606419 0.0057990067 7.4783516e-39
0.098371014 -0.10606419 0.0057990067 8.121193e-39
0.10044411 -0.10678811 0.0028603785 9.5015953e-39
0.10290788 -0.10851096 -0.0041332729 1.1160026e-38
0.10501415 -0.10924892 -0.0071290024 1.2264926e-38
0.10713261 -0.10999118 -0.010142136 1.2541505e-38
0.11084639 -0.11467429 -0.029152561 1.3740048e-38
0.11271027 -0.11467429 -0.029152561 1.4109545e-38
0.11498886 -0.11567034 -0.033195902 1.4109901e-38
0.11685982 -0.11567034 -0.033195902 8.2093753e-39
0.11873078 -0.11567034 -0.033195902 2.4928819e-39
-0.12146366 -0.11903207 -0.039204765 2.240786e-38
-0.11958216 -0.11903207 -0.039204765 2.2131994e-38
-0.11734813 -0.11827053 -0.036135245 2.1948682e-38
-0.11547202 -0.11827053 -0.036135245 2.2316024e-38
-0.11326864 -0.1175413 -0.033195902 2.2316024e-38
-0.11139768 -0.1175413 -0.033195902 2.2499695e-38
-0.10952672 -0.1175413 -0.033195902 2.2591531e-38
-0.10722686 -0.11653815 -0.029152561 2.2591531e-38
-0.10536298 -0.11653815 -0.029152561 2.2867037e-38
-0.10349911 -0.11653815 -0.029152561 2.2867037e-38
-0.10163523 -0.11653815 -0.029152561 2.2867037e-38
-0.09947294 -0.11579077 -0.026140142 2.2775202e-38
-0.097614348 -0.11579077 -0.026140142 2.2775202e-38
-0.095469534 -0.11504765 -0.02314477 2.2499695e-38
-0.093616188 -0.11504765 -0.02314477 2.1856488e-38
-0.091762856 -0.11504765 -0.02314477 2.0659757e-38
-0.089640558 -0.1143087 -0.020166326 1.9370472e-38
-0.087792441 -0.1143087 -0.020166326 1.8265572e-38
-0.085944325 -0.1143087 -0.020166326 1.7898232e-38
-0.083751425 -0.11330278 -0.01611178 1.8450324e-38
-0.081910416 -0.11330278 -0.01611178 1.8355976e-38
-0.080069408 -0.11330278 -0.01611178 1.7618412e-38
-0.078228399 -0.11330278 -0.01611178 1.7526582e-38
-0.07638739 -0.11330278 -0.01611178 1.7528023e-38
-0.074322209 -0.11257361 -0.013172675 1.7343276e-38
-0.072486356 -0.11257361 -0.013172675 1.752874e-38
-0.070429996 -0.11182173 -0.010142136 1.8080829e-38
-0.068385482 -0.11107419 -0.0071290024 1.7803888e-38
-0.066560224 -0.11107419 -0.0071290024 1.8816231e-38
-0.064532742 -0.11033095 -0.0041332729 1.918429e-38
-0.062712744 -0.11033095 -0.0041332729 1.9644903e-38
-0.060892731 -0.11033095 -0.0041332729 1.9921485e-38
-0.059072733 -0.11033095 -0.0041332729 2.0198785e-38
-0.057014853 -0.10935538 -0.00020103529 2.0383891e-38
-0.055201747 -0.10935538 -0.00020103529 2.0661909e-38
-0.053388633 -0.10935538 -0.00020103529 2.0938492e-38
-0.051575527 -0.10935538 -0.00020103529 2.0568997e-38
-0.049762413 -0.10935538 -0.00020103529 2.0753027e-38
-0.048152685 -0.11033095 -0.0041332729 2.0753027e-38
-0.04633268 -0.11033095 -0.0041332729 2.0477162e-38
-0.044512674 -0.11033095 -0.0041332729 2.0292773e-38
-0.042509958 -0.10935538 -0.00020103529 2.0108385e-38
-0.040696844 -0.10935538 -0.00020103529 1.9924355e-38
-0.038883731 -0.10935538 -0.00020103529 1.9924355e-38
-0.036944479 -0.10859586 0.0028603785 1.964849e-38
-0.035136737 -0.10859586 0.0028603785 1.9279713e-38
-0.033328995 -0.10859586 0.0028603785 1.8634712e-38
-0.031415626 -0.10786678 0.0057990067 1.8082264e-38
-0.029509576 -0.10711606 0.0088248961 1.7713487e-38
-0.027712291 -0.10711606 0.0088248961 1.7345069e-38
-0.025915002 -0.10711606 0.0088248961 1.6976292e-38
-0.024030687 -0.10636975 0.011833142 1.6700068e-38
-0.022238677 -0.10636975 0.011833142 1.6793697e-38
-0.020446664 -0.10636975 0.011833142 1.6057937e-38
-0.018725855 -0.10711606 0.0088248961 1.5412571e-38
-0.016928567 -0.10711606 0.0088248961 1.4675369e-38
-0.015131282 -0.10711606 0.0088248961 1.4214392e-38
-0.013278613 -0.10636975 0.011833142 1.3938528e-38
-0.011486603 -0.10636975 0.011833142 1.4030371e-38
-0.0096500199 -0.10562779 0.014823746 1.4031091e-38
-0.0078632515 -0.10562779 0.014823746 1.2741078e-38
-0.0060425978 -0.10489015 0.017796826 1.1819485e-38
-0.0042610411 -0.10489015 0.017796826 1.1542543e-38
-0.0024794862 -0.10489015 0.017796826 1.1912047e-38
-0.00069793127 -0.10489015 0.017796826 1.2189357e-38
0.0010836255 -0.10489015 0.017796826 1.2097162e-38
0.0028732233 -0.10413162 0.020854305 1.1913133e-38
0.0046494175 -0.10413162 0.020854305 1.2281198e-38
0.0064256135 -0.10413162 0.020854305 1.2095734e-38
0.0082018077 -0.10413162 0.020854305 1.2372321e-38
0.0099780038 -0.10413162 0.020854305 1.2556709e-38
0.011754198 -0.10413162 0.020854305 1.2372321e-38
0.013530394 -0.10413162 0.020854305 1.2003541e-38
0.015306589 -0.10413162 0.020854305 1.181915e-38
0.017048148 -0.10337763 0.023893427 1.2003541e-38
0.018819015 -0.10337763 0.023893427 1.2187932e-38
0.020546356 -0.10265306 0.026813935 1.2280126e-38
0.022312103 -0.10265306 0.026813935 1.2095736e-38
0.024022555 -0.10190789 0.029817414 1.1911345e-38
0.025783034 -0.10190789 0.029817414 1.1911345e-38
0.027478077 -0.10116716 0.032803129 1.1911345e-38
0.029233322 -0.10116716 0.032803129 1.1911345e-38
0.030988567 -0.10116716 0.032803129 1.181915e-38
0.032743812 -0.10116716 0.032803129 1.1543639e-38
0.034325004 -0.099674508 0.038819503 1.2005333e-38
0.03597673 -0.098922804 0.041849386 1.2099324e-38
0.037716113 -0.098922804 0.041849386 1.2283355e-38
0.039455503 -0.098922804 0.041849386 1.2006772e-38
0.041194886 -0.098922804 0.041849386 1.1452882e-38
0.042934269 -0.098922804 0.041849386 1.10841e-38
0.044673651 -0.098922804 0.041849386 1.1451803e-38
0.046413034 -0.098922804 0.041849386 1.1820223e-38
0.048152417 -0.098922804 0.041849386 1.0804992e-38
0.0498918 -0.098922804 0.041849386 1.0344014e-38
0.05163119 -0.098922804 0.041849386 9.7919191e-39
0.053225368 -0.09817566 0.044860911 9.516777e-39
0.054959469 -0.09817566 0.044860911 9.5178602e-39
0.05658859 -0.097672105 0.046890568 9.1501637e-39
0.058319137 -0.097672105 0.046890568 8.5062362e-39
0.060049683 -0.097672105 0.046890568 8.1381726e-39
0.061780229 -0.097672105 0.046890568 7.860857e-39
0.063335679 -0.09693253 0.049871575 8.0441678e-39
0.065060996 -0.09693253 0.049871575 7.8594165e-39
0.066786312 -0.09693253 0.049871575 7.3062427e-39
0.068511635 -0.09693253 0.049871575 6.9356623e-39
0.070432954 -0.097672105 0.046890568 6.8427478e-39
0.0721635 -0.097672105 0.046890568 7.3952013e-39
0.073894039 -0.097672105 0.046890568 8.0391288e-39
0.075768717 -0.09817566 0.044860911 8.5915809e-39
0.077721946 -0.098922804 0.041849386 7.9458485e-39
0.079687104 -0.099674508 0.038819503 8.4975804e-39
0.081656784 -0.10040633 0.035869729 9.234421e-39
0.083645917 -0.10116716 0.032803129 8.7727211e-39
0.08563935 -0.10190789 0.029817414 8.2199033e-39
0.087644704 -0.10265306 0.026813935 8.3113786e-39
0.090161428 -0.10489015 0.017796826 8.4032043e-39
0.092450112 -0.10636975 0.011833142 1.0338218e-38
0.094503209 -0.10711606 0.0088248961 1.1535308e-38
0.096300498 -0.10711606 0.0088248961 1.2639847e-38
0.098371014 -0.10786678 0.0057990067 1.3559994e-38
0.10044411 -0.10859586 0.0028603785 1.5032593e-38
0.10253902 -0.10935538 -0.00020103529 1.6505914e-38
0.10501415 -0.11107419 -0.0071290024 1.6965449e-38
0.10713261 -0.11182173 -0.010142136 1.659702e-38
0.11084639 -0.11653815 -0.029152561 1.6689215e-38
0.11271027 -0.11653815 -0.029152561 1.6504824e-38
0.11498886 -0.1175413 -0.033195902 1.5859455e-38
0.11685982 -0.1175413 -0.033195902 8.7603897e-39
0.11873078 -0.1175413 -0.033195902 2.7673108e-39
0.12247272 -0.1175413 -0.033195902 2.9506133e-39
-0.12146366 -0.12091358 -0.039204765 2.2958873e-38
-0.11958216 -0.12091358 -0.039204765 2.2958873e-38
-0.11734813 -0.12014665 -0.036135245 2.2958873e-38
-0.11547202 -0.12014665 -0.036135245 2.2958873e-38
-0.11326864 -0.11941226 -0.033195902 2.3142541e-38
-0.11139768 -0.11941226 -0.033195902 2.3234376e-38
-0.10952672 -0.11941226 -0.033195902 2.332621e-38
-0.10722686 -0.11840202 -0.029152561 2.332621e-38
-0.10536298 -0.11840202 -0.029152561 2.3416971e-38
-0.10349911 -0.11840202 -0.029152561 2.3324775e-38
-0.10163523 -0.11840202 -0.029152561 2.3232583e-38
-0.09947294 -0.11764936 -0.026140142 2.3232944e-38
-0.097614348 -0.11764936 -0.026140142 2.3509527e-38
-0.095469534 -0.11690097 -0.02314477 2.2865602e-38
-0.093616188 -0.11690097 -0.02314477 2.2314589e-38
-0.091762856 -0.11690097 -0.02314477 2.1947247e-38
-0.089640558 -0.1161568 -0.020166326 2.1119652e-38
-0.087792441 -0.1161568 -0.020166326 2.029133e-38
-0.085944325 -0.1161568 -0.020166326 1.9923989e-38
-0.083751425 -0.11514379 -0.01611178 2.0384247e-38
-0.081910416 -0.11514379 -0.01611178 2.1119293e-38
-0.080069408 -0.11514379 -0.01611178 2.0657601e-38
-0.078228399 -0.11514379 -0.01611178 2.0750157e-38
-0.07638739 -0.11514379 -0.01611178 2.0567204e-38
-0.074546382 -0.11514379 -0.01611178 2.0382815e-38
-0.072486356 -0.11440946 -0.013172675 2.0751592e-38
-0.070650503 -0.11440946 -0.013172675 2.1303681e-38
-0.068599448 -0.11365227 -0.010142136 2.0934546e-38
-0.0667689 -0.11365227 -0.010142136 2.17625e-38
-0.064734966 -0.11289944 -0.0071290024 2.2038365e-38
-0.062712744 -0.11215095 -0.0041332729 2.2314589e-38
-0.060892731 -0.11215095 -0.0041332729 2.2314947e-38
-0.059072733 -0.11215095 -0.0041332729 2.2130915e-38
-0.057014853 -0.11116849 -0.00020103529 2.185541e-38
-0.055201747 -0.11116849 -0.00020103529 2.1672458e-38
-0.053388633 -0.11116849 -0.00020103529 2.1764294e-38
-0.051575527 -0.11116849 -0.00020103529 2.2223471e-38
-0.049762413 -0.11116849 -0.00020103529 2.2406783e-38
-0.048152685 -0.11215095 -0.0041332729 2.2223471e-38
-0.04633268 -0.11215095 -0.0041332729 2.2039083e-38
-0.044512674 -0.11215095 -0.0041332729 2.17625e-38
-0.042509958 -0.11116849 -0.00020103529 2.1671023e-38
-0.040696844 -0.11116849 -0.00020103529 2.1579905e-38
-0.038883731 -0.11116849 -0.00020103529 2.1580623e-38
-0.036944479 -0.11040358 0.0028603785 2.1488787e-38
-0.035136737 -0.11040358 0.0028603785 2.112001e-38
-0.033328995 -0.11040358 0.0028603785 2.056792e-38
-0.031415626 -0.10966937 0.0057990067 2.01995e-38
-0.029509576 -0.10891335 0.0088248961 1.9831799e-38
-0.027712291 -0.10891335 0.0088248961 1.9555574e-38
-0.025915002 -0.10891335 0.0088248961 1.9186792e-38
-0.024030687 -0.10816176 0.011833142 1.8910568e-38
-0.022238677 -0.10816176 0.011833142 1.9463743e-38
-0.020523144 -0.10891335 0.0088248961 1.8911293e-38
-0.018725855 -0.10891335 0.0088248961 1.8358123e-38
-0.016928567 -0.10891335 0.0088248961 1.7620919e-38
-0.015070627 -0.10816176 0.011833142 1.7067751e-38
-0.013278613 -0.10816176 0.011833142 1.6515302e-38
-0.011486603 -0.10816176 0.011833142 1.623908e-38
-0.0096500199 -0.10741456 0.014823746 1.6054698e-38
-0.0078632515 -0.10741456 0.014823746 1.5594445e-38
-0.0060425978 -0.10667174 0.017796826 1.458066e-38
-0.0042610411 -0.10667174 0.017796826 1.3936017e-38
-0.0024794862 -0.10667174 0.017796826 1.4212968e-38
-0.00069793127 -0.10667174 0.017796826 1.421369e-38
0.0010970272 -0.10590781 0.020854305 1.3475772e-38
0.0028732233 -0.10590781 0.020854305 1.2738928e-38
0.0046494175 -0.10590781 0.020854305 1.2647098e-38
0.0064256135 -0.10590781 0.020854305 1.292441e-38
0.0081938151 -0.10514848 0.023893427 1.2832933e-38
0.0099646822 -0.10514848 0.023893427 1.2740739e-38
0.011735549 -0.10514848 0.023893427 1.2556349e-38
0.013506415 -0.10514848 0.023893427 1.2371958e-38
0.015277281 -0.10514848 0.023893427 1.2279762e-38
0.017014865 -0.1044188 0.026813935 1.2187927e-38
0.018780611 -0.1044188 0.026813935 1.2187927e-38
0.020546356 -0.1044188 0.026813935 1.2464513e-38
0.022262074 -0.10366838 0.029817414 1.2187927e-38
0.024022555 -0.10366838 0.029817414 1.1820223e-38
0.025783034 -0.10366838 0.029817414 1.1820223e-38
0.027478077 -0.10292239 0.032803129 1.2004614e-38
0.029233322 -0.10292239 0.032803129 1.209681e-38
0.030988567 -0.10292239 0.032803129 1.2004614e-38
0.032660469 -0.10215621 0.035869729 1.2187562e-38
0.034325004 -0.10141921 0.038819503 1.2829683e-38
0.03597673 -0.10066219 0.041849386 1.3106267e-38
0.037716113 -0.10066219 0.041849386 1.283149e-38
0.039455503 -0.10066219 0.041849386 1.2279762e-38
0.041194886 -0.10066219 0.041849386 1.1451452e-38
0.042934269 -0.10066219 0.041849386 1.0991199e-38
0.044673651 -0.10066219 0.041849386 1.1267783e-38
0.046413034 -0.10066219 0.041849386 1.1819514e-38
0.048152417 -0.10066219 0.041849386 1.2463439e-38
0.0498918 -0.10066219 0.041849386 1.1909908e-38
0.051491261 -0.099909768 0.044860911 1.1263812e-38
0.053225368 -0.099909768 0.044860911 1.0619522e-38
0.054858044 -0.099402651 0.046890568 1.0436212e-38
0.05658859 -0.099402651 0.046890568 1.0068872e-38
0.058319137 -0.099402651 0.046890568 9.3327487e-39
0.060049683 -0.099402651 0.046890568 8.6880995e-39
0.061610356 -0.098657846 0.049871575 8.0427301e-39
0.063335679 -0.098657846 0.049871575 8.319317e-39
0.065060996 -0.098657846 0.049871575 8.595185e-39
0.066786312 -0.098657846 0.049871575 8.2264025e-39
0.068511635 -0.098657846 0.049871575 7.9480178e-39
0.070432954 -0.099402651 0.046890568 7.6710707e-39
0.0721635 -0.099402651 0.046890568 7.9465786e-39
0.073894039 -0.099402651 0.046890568 8.3142821e-39
0.075768717 -0.099909768 0.044860911 8.7741799e-39
0.077502817 -0.099909768 0.044860911 8.773817e-39
0.079461329 -0.10066219 0.041849386 9.5099401e-39
0.081656784 -0.10215621 0.035869729 9.4173787e-39
0.08340665 -0.10215621 0.035869729 8.4021464e-39
0.08563935 -0.10366838 0.029817414 8.2173922e-39
0.087644704 -0.1044188 0.026813935 8.8620385e-39
0.089906782 -0.10590781 0.020854305 8.9542173e-39
0.092195794 -0.10741456 0.014823746 9.4148087e-39
0.094242126 -0.10816176 0.011833142 1.1073589e-38
0.096300498 -0.10891335 0.0088248961 1.300717e-38
0.098371014 -0.10966937 0.0057990067 1.4573046e-38
0.10044411 -0.11040358 0.0028603785 1.6321875e-38
0.10253902 -0.11116849 -0.00020103529 1.7795198e-38
0.10501415 -0.11289944 -0.0071290024 1.7978145e-38
0.10742751 -0.11440946 -0.013172675 1.724058e-38
0.11084639 -0.11840202 -0.029152561 1.7424971e-38
0.11271027 -0.11840202 -0.029152561 1.6872519e-38
0.11498886 -0.11941226 -0.033195902 1.6411185e-38
0.11685982 -0.11941226 -0.033195902 9.0355347e-39
0.11873078 -0.11941226 -0.033195902 3.2268498e-39
-0.12146366 -0.12279506 -0.039204765 2.3234374e-38
-0.11958216 -0.12279506 -0.039204765 2.3234372e-38
-0.11734813 -0.12202276 -0.036135245 2.3142174e-38
-0.11547202 -0.12202276 -0.036135245 2.3326206e-38
-0.1135959 -0.12202276 -0.036135245 2.3509879e-38
-0.11139768 -0.12128322 -0.033195902 2.3509518e-38
-0.10952672 -0.12128322 -0.033195902 2.3509518e-38
-0.10722686 -0.12026589 -0.029152561 2.3509879e-38
-0.10536298 -0.12026589 -0.029152561 2.3509521e-38
-0.10349911 -0.12026589 -0.029152561 2.3509521e-38
-0.10133153 -0.11950795 -0.026140142 2.3509521e-38
-0.09947294 -0.11950795 -0.026140142 2.3509165e-38
-0.097322866 -0.11875431 -0.02314477 2.3509524e-38
-0.095469534 -0.11875431 -0.02314477 2.3509167e-38
-0.093616188 -0.11875431 -0.02314477 2.3234018e-38
-0.091762856 -0.11875431 -0.02314477 2.3142544e-38
-0.089640558 -0.11800493 -0.020166326 2.2775202e-38
-0.087792441 -0.11800493 -0.020166326 2.2591531e-38
-0.085944325 -0.11800493 -0.020166326 2.2316024e-38
-0.084096208 -0.11800493 -0.020166326 2.240786e-38
-0.081910416 -0.1169848 -0.01611178 2.2867037e-38
-0.080069408 -0.1169848 -0.01611178 2.2499336e-38
-0.078228399 -0.1169848 -0.01611178 2.2683366e-38
-0.07638739 -0.1169848 -0.01611178 2.2683366e-38
-0.074546382 -0.1169848 -0.01611178 2.222383e-38
-0.072486356 -0.11624531 -0.013172675 2.2591531e-38
-0.070650503 -0.11624531 -0.013172675 2.2775202e-38
-0.068599448 -0.11548282 -0.010142136 2.2774843e-38
-0.0667689 -0.11548282 -0.010142136 2.286632e-38
-0.064734966 -0.11472471 -0.0071290024 2.341805e-38
-0.062712744 -0.11397095 -0.0041332729 2.3418047e-38
-0.060892731 -0.11397095 -0.0041332729 2.3418045e-38
-0.059072733 -0.11397095 -0.0041332729 2.3418045e-38
-0.05725272 -0.11397095 -0.0041332729 2.3234374e-38
-0.055201747 -0.1129816 -0.00020103529 2.3142541e-38
-0.053388633 -0.1129816 -0.00020103529 2.3142544e-38
-0.051575527 -0.1129816 -0.00020103529 2.341805e-38
-0.049762413 -0.1129816 -0.00020103529 2.3509527e-38
-0.048152685 -0.11397095 -0.0041332729 2.3417691e-38
-0.04633268 -0.11397095 -0.0041332729 2.3234379e-38
-0.044323072 -0.1129816 -0.00020103529 2.2958514e-38
-0.042509958 -0.1129816 -0.00020103529 2.2867037e-38
-0.040696844 -0.1129816 -0.00020103529 2.2867037e-38
-0.038883731 -0.1129816 -0.00020103529 2.2775202e-38
-0.036944479 -0.11221133 0.0028603785 2.2591531e-38
-0.035136737 -0.11221133 0.0028603785 2.2499694e-38
-0.033328995 -0.11221133 0.0028603785 2.2316024e-38
-0.031521246 -0.11221133 0.0028603785 2.240786e-38
-0.029613031 -0.11147197 0.0057990067 2.2316024e-38
-0.027712291 -0.11071064 0.0088248961 2.2316024e-38
-0.025915002 -0.11071064 0.0088248961 2.2316024e-38
-0.024117714 -0.11071064 0.0088248961 2.2316024e-38
-0.022320429 -0.11071064 0.0088248961 2.1948682e-38
-0.020523144 -0.11071064 0.0088248961 2.2040518e-38
-0.018725855 -0.11071064 0.0088248961 2.2224189e-38
-0.016928567 -0.11071064 0.0088248961 2.2132353e-38
-0.015070627 -0.10995375 0.011833142 2.1673176e-38
-0.013278613 -0.10995375 0.011833142 2.0936698e-38
-0.011486603 -0.10995375 0.011833142 2.029098e-38
-0.0096500199 -0.10920133 0.014823746 1.9738532e-38
-0.0078632515 -0.10920133 0.014823746 2.0199144e-38
-0.0060425978 -0.10845329 0.017796826 1.9277202e-38
-0.0042610411 -0.10845329 0.017796826 1.8724395e-38
-0.0024794862 -0.10845329 0.017796826 1.8909501e-38
-0.00069793127 -0.10845329 0.017796826 1.8541442e-38
0.0010970272 -0.107684 0.020854305 1.7251081e-38
0.0028732233 -0.107684 0.020854305 1.6052914e-38
0.0046494175 -0.107684 0.020854305 1.559302e-38
0.0064229481 -0.10691936 0.023893427 1.5133484e-38
0.0081938151 -0.10691936 0.023893427 1.4581753e-38
0.0099646822 -0.10691936 0.023893427 1.4212971e-38
0.011735549 -0.10691936 0.023893427 1.4120419e-38
0.013506415 -0.10691936 0.023893427 1.4212615e-38
0.015277281 -0.10691936 0.023893427 1.4213334e-38
0.017014865 -0.10618456 0.026813935 1.3845633e-38
0.018780611 -0.10618456 0.026813935 1.3661242e-38
0.020546356 -0.10618456 0.026813935 1.2739647e-38
0.022262074 -0.10542886 0.029817414 1.2555256e-38
0.024022555 -0.10542886 0.029817414 1.2095001e-38
0.025783034 -0.10542886 0.029817414 1.2003524e-38
0.027478077 -0.10467763 0.032803129 1.2187918e-38
0.029233322 -0.10467763 0.032803129 1.2280114e-38
0.030988567 -0.10467763 0.032803129 1.2187918e-38
0.032580309 -0.10316391 0.038819503 1.2278669e-38
0.034237348 -0.10240157 0.041849386 1.3104463e-38
0.03597673 -0.10240157 0.041849386 1.3656557e-38
0.037716113 -0.10240157 0.041849386 1.3566531e-38
0.039455503 -0.10240157 0.041849386 1.3199556e-38
0.041194886 -0.10240157 0.041849386 1.2555992e-38
0.042934269 -0.10240157 0.041849386 1.2003902e-38
0.044673651 -0.10240157 0.041849386 1.2096097e-38
0.046413034 -0.10240157 0.041849386 1.2371962e-38
0.048152417 -0.10240157 0.041849386 1.246308e-38
0.04975716 -0.10164386 0.044860911 1.2185771e-38
0.051491261 -0.10164386 0.044860911 1.1724427e-38
0.053225368 -0.10164386 0.044860911 1.163223e-38
0.054858044 -0.1011332 0.046890568 1.1818062e-38
0.0564344 -0.10038316 0.049871575 1.1910977e-38
0.058159724 -0.10038316 0.049871575 1.1082658e-38
0.05988504 -0.10038316 0.049871575 1.0345456e-38
0.061610356 -0.10038316 0.049871575 9.2391111e-39
0.063335679 -0.10038316 0.049871575 9.7000921e-39
0.065060996 -0.10038316 0.049871575 9.9766789e-39
0.066786312 -0.10038316 0.049871575 9.6993732e-39
0.068511635 -0.10038316 0.049871575 8.7774169e-39
0.070432954 -0.1011332 0.046890568 8.1309685e-39
0.0721635 -0.1011332 0.046890568 7.8540215e-39
0.073894039 -0.1011332 0.046890568 8.1288105e-39
0.075624585 -0.1011332 0.046890568 9.3269879e-39
0.077502817 -0.10164386 0.044860911 9.4177416e-39
0.079461329 -0.10240157 0.041849386 9.6017685e-39
0.081200711 -0.10240157 0.041849386 9.6003238e-39
0.08340665 -0.10390608 0.035869729 9.5074037e-39
0.08563935 -0.10542886 0.029817414 1.0705584e-38
0.087399833 -0.10542886 0.029817414 1.2088155e-38
0.089653671 -0.10691936 0.023893427 1.2364004e-38
0.091942981 -0.10845329 0.017796826 1.4298999e-38
0.094242126 -0.10995375 0.011833142 1.5957059e-38
0.096300498 -0.11071064 0.0088248961 1.7430386e-38
0.098371014 -0.11147197 0.0057990067 1.8166506e-38
0.10044411 -0.11221133 0.0028603785 1.8810069e-38
0.10290788 -0.11397095 -0.0041332729 1.9177407e-38
0.10501415 -0.11472471 -0.0071290024 1.8346565e-38
0.10810806 -0.11800493 -0.020166326 1.7055826e-38
0.11054797 -0.11950795 -0.026140142 1.6871437e-38
0.11240657 -0.11950795 -0.026140142 1.6595211e-38
0.11457413 -0.12026589 -0.029152561 1.6595216e-38
0.11643802 -0.12026589 -0.029152561 9.4961527e-39
0.11830188 -0.12026589 -0.029152561 3.9644149e-39
0.12016575 -0.12026589 -0.029152561 2.1197806e-39
-0.12146366 -0.12467657 -0.039204765 2.3418047e-38
-0.11958216 -0.12467657 -0.039204765 2.3418047e-38
-0.11734813 -0.12389888 -0.036135245 2.3325492e-38
-0.11547202 -0.12389888 -0.036135245 2.3509883e-38
-0.1135959 -0.12389888 -0.036135245 2.3509883e-38
-0.11139768 -0.12315418 -0.033195902 2.3509883e-38
-0.10952672 -0.12315418 -0.033195902 2.3509883e-38
-0.10722686 -0.12212978 -0.029152561 2.3509883e-38
-0.10536298 -0.12212978 -0.029152561 2.3509883e-38
-0.10349911 -0.12212978 -0.029152561 2.3509883e-38
-0.10133153 -0.12136655 -0.026140142 2.3509883e-38
-0.09947294 -0.12136655 -0.026140142 2.3509527e-38
-0.097322866 -0.12060766 -0.02314477 2.3509527e-38
-0.095469534 -0.12060766 -0.02314477 2.3509886e-38
-0.093616188 -0.12060766 -0.02314477 2.3509886e-38
-0.091762856 -0.12060766 -0.02314477 2.341805e-38
-0.089640558 -0.11985306 -0.020166326 2.3234379e-38
-0.087792441 -0.11985306 -0.020166326 2.3234379e-38
-0.085944325 -0.11985306 -0.020166326 2.3142544e-38
-0.083751425 -0.11882581 -0.01611178 2.3142544e-38
-0.081910416 -0.11882581 -0.01611178 2.3234379e-38
-0.080069408 -0.11882581 -0.01611178 2.3234379e-38
-0.078228399 -0.11882581 -0.01611178 2.3234379e-38
-0.07638739 -0.11882581 -0.01611178 2.3234379e-38
-0.074322209 -0.11808117 -0.013172675 2.3234379e-38
-0.072486356 -0.11808117 -0.013172675 2.3234379e-38
-0.070650503 -0.11808117 -0.013172675 2.341805e-38
-0.06881465 -0.11808117 -0.013172675 2.341805e-38
-0.0667689 -0.11731337 -0.010142136 2.3509886e-38
-0.064734966 -0.11654995 -0.0071290024 2.3509527e-38
-0.062712744 -0.11579098 -0.0041332729 2.3509167e-38
-0.060892731 -0.11579098 -0.0041332729 2.3509527e-38
-0.059072733 -0.11579098 -0.0041332729 2.3324775e-38
-0.05725272 -0.11579098 -0.0041332729 2.3509527e-38
-0.055432707 -0.11579098 -0.0041332729 2.2495015e-38
-0.053612709 -0.11579098 -0.0041332729 2.3509527e-38
-0.051575527 -0.11479472 -0.00020103529 2.3231494e-38
-0.049762413 -0.11479472 -0.00020103529 2.350916e-38
-0.047949299 -0.11479472 -0.00020103529 2.3509524e-38
-0.046136186 -0.11479472 -0.00020103529 2.3509527e-38
-0.044323072 -0.11479472 -0.00020103529 2.341805e-38
-0.042509958 -0.11479472 -0.00020103529 2.2958154e-38
-0.040696844 -0.11479472 -0.00020103529 2.2683362e-38
-0.038883731 -0.11479472 -0.00020103529 2.2867034e-38
-0.036944479 -0.11401908 0.0028603785 2.2683358e-38
-0.035136737 -0.11401908 0.0028603785 2.286703e-38
-0.033328995 -0.11401908 0.0028603785 2.2958863e-38
-0.031521246 -0.11401908 0.0028603785 2.2958866e-38
-0.029613031 -0.11327456 0.0057990067 2.2958864e-38
-0.027712291 -0.11250792 0.0088248961 2.2958507e-38
-0.025822701 -0.11174576 0.011833142 2.3141466e-38
-0.024030687 -0.11174576 0.011833142 2.3141467e-38
-0.022238677 -0.11174576 0.011833142 2.3234379e-38
-0.020523144 -0.11250792 0.0088248961 2.2957796e-38
-0.018725855 -0.11250792 0.0088248961 2.2683362e-38
-0.016928567 -0.11250792 0.0088248961 2.2867034e-38
-0.015131282 -0.11250792 0.0088248961 2.2775202e-38
-0.013278613 -0.11174576 0.011833142 2.2316024e-38
-0.011486603 -0.11174576 0.011833142 2.2039083e-38
-0.0096945893 -0.11174576 0.011833142 2.2498619e-38
-0.0078632515 -0.1109881 0.014823746 2.268229e-38
-0.0060425978 -0.11023484 0.017796826 2.2128766e-38
-0.0042610411 -0.11023484 0.017796826 2.1668508e-38
-0.0024794862 -0.11023484 0.017796826 2.1669224e-38
-0.00069793127 -0.11023484 0.017796826 2.1301883e-38
0.0010970272 -0.10946019 0.020854305 2.0564331e-38
0.0028732233 -0.10946019 0.020854305 1.9643109e-38
0.0046494175 -0.10946019 0.020854305 1.9366885e-38
0.0064229481 -0.10869022 0.023893427 1.8538572e-38
0.0081938151 -0.10869022 0.023893427 1.7617696e-38
0.0099646822 -0.10869022 0.023893427 1.6788298e-38
0.011735549 -0.10869022 0.023893427 1.660391e-38
0.013506415 -0.10869022 0.023893427 1.6604273e-38
0.015249118 -0.10795029 0.026813935 1.6328766e-38
0.017014865 -0.10795029 0.026813935 1.5407896e-38
0.018780611 -0.10795029 0.026813935 1.4763248e-38
0.020501595 -0.10718934 0.029817414 1.4118243e-38
0.022262074 -0.10718934 0.029817414 1.4119685e-38
0.024022555 -0.10718934 0.029817414 1.4028214e-38
0.025783034 -0.10718934 0.029817414 1.3567599e-38
0.027478077 -0.1064329 0.032803129 1.3015147e-38
0.029233322 -0.1064329 0.032803129 1.2922595e-38
0.030988567 -0.1064329 0.032803129 1.3108068e-38
0.032580309 -0.1049086 0.038819503 1.3752359e-38
0.034237348 -0.10414095 0.041849386 1.4120056e-38
0.03597673 -0.10414095 0.041849386 1.3659078e-38
0.037716113 -0.10414095 0.041849386 1.3014072e-38
0.039455503 -0.10414095 0.041849386 1.2738207e-38
0.041194886 -0.10414095 0.041849386 1.2831127e-38
0.042934269 -0.10414095 0.041849386 1.3015881e-38
0.044673651 -0.10414095 0.041849386 1.2832571e-38
0.046413034 -0.10414095 0.041849386 1.2740376e-38
0.048152417 -0.10414095 0.041849386 1.2740373e-38
0.04975716 -0.10337795 0.044860911 1.2279395e-38
0.051491261 -0.10337795 0.044860911 1.1910612e-38
0.053127505 -0.10286374 0.046890568 1.1818417e-38
0.054858044 -0.10286374 0.046890568 1.181878e-38
0.0564344 -0.10210848 0.049871575 1.1635107e-38
0.058159724 -0.10210848 0.049871575 1.1266326e-38
0.05988504 -0.10210848 0.049871575 1.0897544e-38
0.061780229 -0.10286374 0.046890568 1.1449997e-38
0.063335679 -0.10210848 0.049871575 1.0527681e-38
0.065060996 -0.10210848 0.049871575 1.0342932e-38
0.066786312 -0.10210848 0.049871575 1.0343651e-38
0.068511635 -0.10210848 0.049871575 9.5138931e-39
0.070236951 -0.10210848 0.049871575 8.8685237e-39
0.071962267 -0.10210848 0.049871575 8.8678048e-39
0.073687591 -0.10210848 0.049871575 8.6826905e-39
0.075412907 -0.10210848 0.049871575 9.3276956e-39
0.077502817 -0.10337795 0.044860911 1.0156372e-38
0.079461329 -0.10414095 0.041849386 1.0892486e-38
0.081200711 -0.10414095 0.041849386 1.0614453e-38
0.08340665 -0.10565595 0.035869729 1.0613726e-38
0.08563935 -0.10718934 0.029817414 1.2179607e-38
0.087399833 -0.10718934 0.029817414 1.2455469e-38
0.089653671 -0.10869022 0.023893427 1.3468165e-38
0.091682985 -0.10946019 0.020854305 1.4479052e-38
0.093982562 -0.1109881 0.014823746 1.7335662e-38
0.096034139 -0.11174576 0.011833142 1.7426779e-38
0.098371014 -0.11327456 0.0057990067 1.8349091e-38
0.1007259 -0.11479472 -0.00020103529 1.9639111e-38
0.10318889 -0.11654995 -0.0071290024 1.8163258e-38
0.10559165 -0.11808117 -0.013172675 1.6410825e-38
0.10771352 -0.11882581 -0.01611178 1.6226794e-38
0.10995618 -0.11985306 -0.020166326 1.4106294e-38
0.11240657 -0.12136655 -0.026140142 1.7886315e-38
0.11457413 -0.12212978 -0.029152561 1.6226794e-38
0.11643802 -0.12212978 -0.029152561 9.8663743e-39
0.11830188 -0.12212978 -0.029152561 4.3346337e-39
-0.12146366 -0.12655805 -0.039204765 2.3509883e-38
-0.11958216 -0.12655805 -0.039204765 2.3509883e-38
-0.11734813 -0.12577499 -0.036135245 2.3325494e-38
-0.11547202 -0.12577499 -0.036135245 2.3509886e-38
-0.11326864 -0.12502514 -0.033195902 2.3509886e-38
-0.11139768 -0.12502514 -0.033195902 2.3509886e-38
-0.10952672 -0.12502514 -0.033195902 2.3509886e-38
-0.10722686 -0.12399365 -0.029152561 2.3509886e-38
-0.10536298 -0.12399365 -0.029152561 2.3509886e-38
-0.10349911 -0.12399365 -0.029152561 2.3509886e-38
-0.10163523 -0.12399365 -0.029152561 2.3509886e-38
-0.09947294 -0.12322514 -0.026140142 2.3509886e-38
-0.097614348 -0.12322514 -0.026140142 2.3509886e-38
-0.095469534 -0.12246101 -0.02314477 2.3509886e-38
-0.093616188 -0.12246101 -0.02314477 2.3509886e-38
-0.091762856 -0.12246101 -0.02314477 2.3509886e-38
-0.089640558 -0.12170117 -0.020166326 2.3509886e-38
-0.087792441 -0.12170117 -0.020166326 2.3509886e-38
-0.085592434 -0.12066682 -0.01611178 2.3509886e-38
-0.083751425 -0.12066682 -0.01611178 2.3509886e-38
-0.081910416 -0.12066682 -0.01611178 2.341805e-38
-0.080069408 -0.12066682 -0.01611178 2.341805e-38
-0.078228399 -0.12066682 -0.01611178 2.3509886e-38
-0.076158077 -0.11991702 -0.013172675 2.3509886e-38
-0.074322209 -0.11991702 -0.013172675 2.3509886e-38
-0.072486356 -0.11991702 -0.013172675 2.3509886e-38
-0.070650503 -0.11991702 -0.013172675 2.3509527e-38
-0.06881465 -0.11991702 -0.013172675 2.3509527e-38
-0.0667689 -0.11914389 -0.010142136 2.3509167e-38
-0.064734966 -0.11837523 -0.0071290024 2.3508807e-38
-0.062712744 -0.11761098 -0.0041332729 2.3416251e-38
-0.060892731 -0.11761098 -0.0041332729 2.3324055e-38
-0.059072733 -0.11761098 -0.0041332729 2.3323339e-38
-0.05725272 -0.11761098 -0.0041332729 2.3509168e-38
-0.055432707 -0.11761098 -0.0041332729 2.3508809e-38
-0.053612709 -0.11761098 -0.0041332729 2.3508807e-38
-0.051575527 -0.11660783 -0.00020103529 2.3509158e-38
-0.049762413 -0.11660783 -0.00020103529 2.3509156e-38
-0.047949299 -0.11660783 -0.00020103529 2.3508079e-38
-0.046136186 -0.11660783 -0.00020103529 2.3139661e-38
-0.044323072 -0.11660783 -0.00020103529 2.304891e-38
-0.042509958 -0.11660783 -0.00020103529 2.341805e-38
-0.040696844 -0.11660783 -0.00020103529 2.3142544e-38
-0.038883731 -0.11660783 -0.00020103529 2.3142541e-38
-0.037070625 -0.11660783 -0.00020103529 2.3142537e-38
-0.035136737 -0.11582683 0.0028603785 2.3142534e-38
-0.033328995 -0.11582683 0.0028603785 2.3234367e-38
-0.031521246 -0.11582683 0.0028603785 2.3418038e-38
-0.029613031 -0.11507715 0.0057990067 2.3509879e-38
-0.027712291 -0.11430521 0.0088248961 2.350988e-38
-0.025822701 -0.11353777 0.011833142 2.3509527e-38
-0.024030687 -0.11353777 0.011833142 2.3509168e-38
-0.022238677 -0.11353777 0.011833142 2.3509168e-38
-0.020523144 -0.11430521 0.0088248961 2.3509527e-38
-0.018725855 -0.11430521 0.0088248961 2.3418045e-38
-0.016928567 -0.11430521 0.0088248961 2.2682991e-38
-0.015131282 -0.11430521 0.0088248961 2.2038344e-38
-0.013278613 -0.11353777 0.011833142 2.2314942e-38
-0.011486603 -0.11353777 0.011833142 2.2958873e-38
-0.0096945893 -0.11353777 0.011833142 2.3142185e-38
-0.0078632515 -0.11277486 0.014823746 2.3417333e-38
-0.0060425978 -0.11201639 0.017796826 2.3417333e-38
-0.0042610411 -0.11201639 0.017796826 2.3418039e-38
-0.0024794862 -0.11201639 0.017796826 2.3509869e-38
-0.00069793127 -0.11201639 0.017796826 2.3234367e-38
0.0010970272 -0.11123641 0.020854305 2.2591164e-38
0.0028732233 -0.11123641 0.020854305 2.2222036e-38
0.0046494175 -0.11123641 0.020854305 2.194653e-38
0.0064229481 -0.11046107 0.023893427 2.2591531e-38
0.0081938151 -0.11046107 0.023893427 2.2131636e-38
0.0099646822 -0.11046107 0.023893427 2.1762859e-38
0.011735549 -0.11046107 0.023893427 2.1486994e-38
0.013506415 -0.11046107 0.023893427 2.1487352e-38
0.015249118 -0.10971604 0.026813935 2.1211128e-38
0.017014865 -0.10971604 0.026813935 2.0475009e-38
0.018780611 -0.10971604 0.026813935 1.9646696e-38
0.020501595 -0.10894983 0.029817414 1.9278278e-38
0.022262074 -0.10894983 0.029817414 1.8634353e-38
0.024022555 -0.10894983 0.029817414 1.7620934e-38
0.025783034 -0.10894983 0.029817414 1.6146899e-38
0.027478077 -0.10818814 0.032803129 1.5040195e-38
0.029160736 -0.10740583 0.035869729 1.4395906e-38
0.030910604 -0.10740583 0.035869729 1.458066e-38
0.032580309 -0.10665329 0.038819503 1.5133837e-38
0.034325004 -0.10665329 0.038819503 1.5041641e-38
0.03597673 -0.10588033 0.041849386 1.4672859e-38
0.037716113 -0.10588033 0.041849386 1.4396272e-38
0.039455503 -0.10588033 0.041849386 1.4488112e-38
0.041194886 -0.10588033 0.041849386 1.4856894e-38
0.042934269 -0.10588033 0.041849386 1.4950169e-38
0.044673651 -0.10588033 0.041849386 1.5042366e-38
0.046413034 -0.10588033 0.041849386 1.4766142e-38
0.048023053 -0.10511206 0.044860911 1.4305883e-38
0.04975716 -0.10511206 0.044860911 1.3845628e-38
0.051491261 -0.10511206 0.044860911 1.3476848e-38
0.053127505 -0.10459428 0.046890568 1.3293175e-38
0.054858044 -0.10459428 0.046890568 1.3385371e-38
0.05658859 -0.10459428 0.046890568 1.3109504e-38
0.058319137 -0.10459428 0.046890568 1.2924037e-38
0.05988504 -0.10383381 0.049871575 1.2555254e-38
0.061610356 -0.10383381 0.049871575 1.2830399e-38
0.063335679 -0.10383381 0.049871575 1.2368702e-38
0.065060996 -0.10383381 0.049871575 1.2553096e-38
0.066786312 -0.10383381 0.049871575 1.2646011e-38
0.068511635 -0.10383381 0.049871575 1.2000284e-38
0.070236951 -0.10383381 0.049871575 1.1263801e-38
0.071762256 -0.1030779 0.052834641 1.0526233e-38
0.073482379 -0.1030779 0.052834641 9.6035552e-39
0.075202502 -0.1030779 0.052834641 9.5109938e-39
0.077138223 -0.10383381 0.049871575 1.00638e-38
0.079085678 -0.10459428 0.046890568 1.3288478e-38
0.081200711 -0.10588033 0.041849386 1.476288e-38
0.082940094 -0.10588033 0.041849386 1.3838754e-38
0.08563935 -0.10894983 0.029817414 1.4299005e-38
0.087399833 -0.10894983 0.029817414 1.5957801e-38
0.089653671 -0.11046107 0.023893427 1.7338563e-38
0.091682985 -0.11123641 0.020854305 1.7979953e-38
0.093982562 -0.11277486 0.014823746 2.1297544e-38
0.096034139 -0.11353777 0.011833142 2.0098645e-38
0.098371014 -0.11507715 0.0057990067 1.3092498e-38
0.10044411 -0.11582683 0.0028603785 8.3905212e-39
0.10290788 -0.11761098 -0.0041332729 5.9008832e-39
0.10530207 -0.11914389 -0.010142136 4.7945357e-39
0.10742751 -0.11991702 -0.013172675 4.2413619e-39
0.10955453 -0.12066682 -0.01611178 1.0049689e-38
0.11240657 -0.12322514 -0.026140142 1.5674699e-38
0.11457413 -0.12399365 -0.029152561 1.5951286e-38
0.11643802 -0.12399365 -0.029152561 1.0880523e-38
0.11830188 -0.12399365 -0.029152561 5.9941551e-39
-0.12146366 -0.12843956 -0.039204765 2.3509883e-38
-0.11958216 -0.12843956 -0.039204765 2.3509883e-38
-0.11734813 -0.12765111 -0.036135245 2.3233299e-38
-0.11547202 -0.12765111 -0.036135245 2.3509886e-38
-0.11326864 -0.1268961 -0.033195902 2.3509886e-38
-0.11139768 -0.1268961 -0.033195902 2.3509886e-38
-0.10952672 -0.1268961 -0.033195902 2.3509886e-38
-0.10722686 -0.12585752 -0.029152561 2.3509886e-38
-0.10536298 -0.12585752 -0.029152561 2.3509886e-38
-0.10349911 -0.12585752 -0.029152561 2.3509886e-38
-0.10163523 -0.12585752 -0.029152561 2.3509886e-38
-0.09947294 -0.12508373 -0.026140142 2.3509886e-38
-0.097614348 -0.12508373 -0.026140142 2.3509886e-38
-0.095755756 -0.12508373 -0.026140142 2.3509886e-38
-0.093616188 -0.12431435 -0.02314477 2.3509886e-38
-0.091762856 -0.12431435 -0.02314477 2.3509886e-38
-0.089640558 -0.1235493 -0.020166326 2.3509886e-38
-0.087792441 -0.1235493 -0.020166326 2.3509886e-38
-0.085592434 -0.12250783 -0.01611178 2.3509886e-38
-0.083751425 -0.12250783 -0.01611178 2.3509886e-38
-0.081910416 -0.12250783 -0.01611178 2.341805e-38
-0.080069408 -0.12250783 -0.01611178 2.341805e-38
-0.077993929 -0.12175287 -0.013172675 2.3509886e-38
-0.076158077 -0.12175287 -0.013172675 2.3509886e-38
-0.074322209 -0.12175287 -0.013172675 2.3509886e-38
-0.072486356 -0.12175287 -0.013172675 2.3509886e-38
-0.070650503 -0.12175287 -0.013172675 2.3509527e-38
-0.068599448 -0.12097444 -0.010142136 2.3509527e-38
-0.0667689 -0.12097444 -0.010142136 2.3509527e-38
-0.064734966 -0.12020047 -0.0071290024 2.3509527e-38
-0.062909707 -0.12020047 -0.0071290024 2.3509527e-38
-0.060892731 -0.11943097 -0.0041332729 2.3509524e-38
-0.059072733 -0.11943097 -0.0041332729 2.3509527e-38
-0.05725272 -0.11943097 -0.0041332729 2.3509524e-38
-0.055432707 -0.11943097 -0.0041332729 2.3509168e-38
-0.053612709 -0.11943097 -0.0041332729 2.3138942e-38
-0.051792696 -0.11943097 -0.0041332729 2.3508802e-38
-0.049762413 -0.11842094 -0.00020103529 2.3509521e-38
-0.047949299 -0.11842094 -0.00020103529 2.3508088e-38
-0.046136186 -0.11842094 -0.00020103529 2.3323702e-38
-0.044323072 -0.11842094 -0.00020103529 2.3325138e-38
-0.042509958 -0.11842094 -0.00020103529 2.3417691e-38
-0.040696844 -0.11842094 -0.00020103529 2.341805e-38
-0.038883731 -0.11842094 -0.00020103529 2.2773765e-38
-0.036944479 -0.11763458 0.0028603785 2.3234379e-38
-0.035136737 -0.11763458 0.0028603785 2.3234012e-38
-0.033218212 -0.11687975 0.0057990067 2.3142174e-38
-0.031415626 -0.11687975 0.0057990067 2.323365e-38
-0.029509576 -0.1161025 0.0088248961 2.3417324e-38
-0.027712291 -0.1161025 0.0088248961 2.3509523e-38
-0.025822701 -0.11532979 0.011833142 2.3508807e-38
-0.024030687 -0.11532979 0.011833142 2.3416974e-38
-0.022238677 -0.11532979 0.011833142 2.2772332e-38
-0.020523144 -0.1161025 0.0088248961 2.2958155e-38
-0.018725855 -0.1161025 0.0088248961 2.2958873e-38
-0.016928567 -0.1161025 0.0088248961 2.2867032e-38
-0.015131282 -0.1161025 0.0088248961 2.2775196e-38
-0.013333997 -0.1161025 0.0088248961 2.2591531e-38
-0.011486603 -0.11532979 0.011833142 2.2775202e-38
-0.0096945893 -0.11532979 0.011833142 2.2867037e-38
-0.0078632515 -0.11456163 0.014823746 2.3142544e-38
-0.0060425978 -0.11379795 0.017796826 2.3050703e-38
-0.0042610411 -0.11379795 0.017796826 2.314252e-38
-0.0024794862 -0.11379795 0.017796826 2.3326187e-38
-0.00069793127 -0.11379795 0.017796826 2.305068e-38
0.0010970272 -0.1130126 0.020854305 2.286702e-38
0.0028732233 -0.1130126 0.020854305 2.2775202e-38
0.0046520829 -0.11223195 0.023893427 2.2591531e-38
0.0064229481 -0.11223195 0.023893427 2.2867037e-38
0.0081938151 -0.11223195 0.023893427 2.2867037e-38
0.0099646822 -0.11223195 0.023893427 2.2867037e-38
0.011735549 -0.11223195 0.023893427 2.2775202e-38
0.013506415 -0.11223195 0.023893427 2.2591531e-38
0.015249118 -0.11148177 0.026813935 2.2499695e-38
0.017014865 -0.11148177 0.026813935 2.1948682e-38
0.018780611 -0.11148177 0.026813935 2.1580623e-38
0.020501595 -0.11071031 0.029817414 2.0751592e-38
0.022262074 -0.11071031 0.029817414 2.0107667e-38
0.024022555 -0.11071031 0.029817414 1.9186443e-38
0.025783034 -0.11071031 0.029817414 1.7712399e-38
0.027478077 -0.10994337 0.032803129 1.6698249e-38
0.029160736 -0.10915567 0.035869729 1.632983e-38
0.030910604 -0.10915567 0.035869729 1.6423104e-38
0.032580309 -0.10839801 0.038819503 1.6883728e-38
0.034325004 -0.10839801 0.038819503 1.7067046e-38
0.036069699 -0.10839801 0.038819503 1.6790462e-38
0.037814394 -0.10839801 0.038819503 1.6513875e-38
0.039455503 -0.10761972 0.041849386 1.623801e-38
0.041194886 -0.10761972 0.041849386 1.623801e-38
0.042934269 -0.10761972 0.041849386 1.5962142e-38
0.044673651 -0.10761972 0.041849386 1.5685199e-38
0.046413034 -0.10761972 0.041849386 1.522494e-38
0.048023053 -0.10684617 0.044860911 1.5962508e-38
0.04975716 -0.10684617 0.044860911 1.5502252e-38
0.051491261 -0.10684617 0.044860911 1.513347e-38
0.053127505 -0.10632484 0.046890568 1.4857245e-38
0.054858044 -0.10632484 0.046890568 1.4765049e-38
0.05658859 -0.10632484 0.046890568 1.4397345e-38
0.058319137 -0.10632484 0.046890568 1.4211878e-38
0.05988504 -0.10555913 0.049871575 1.3935291e-38
0.061610356 -0.10555913 0.049871575 1.411824e-38
0.063335679 -0.10555913 0.049871575 1.3841653e-38
0.065060996 -0.10555913 0.049871575 1.4026048e-38
0.066786312 -0.10555913 0.049871575 1.3657988e-38
