# .PCD v0.7 - Point Cloud Data file format
VERSION 0.7
FIELDS x y z rgb
SIZE 4 4 4 4
TYPE F F F F
COUNT 1 1 1 1
WIDTH 945
HEIGHT 1
VIEWPOINT 0 0 0 1 0 0 0
POINTS 945
DATA ascii
0.020483401 -0.12170117 0.010468485 2.2312437e-38
0.022331521 -0.12170117 0.010468485 1.6504475e-38
0.024218805 -0.12246101 0.0074900407 1.4660911e-38
0.026116785 -0.12322514 0.0044946689 5.9948739e-39
0.028025554 -0.12399365 0.0014822502 4.059493e-39
0.029963866 -0.12502514 -0.0025610905 1.2914885e-39
0.03183483 -0.12502514 -0.0025610905 1.8586683e-40
0.033770211 -0.12577499 -0.005500434 2.2420775e-44
0.035646331 -0.12577499 -0.005500434 6.4789875e-40
0.037600484 -0.12655805 -0.008569954 1.3861686e-39
0.039481983 -0.12655805 -0.008569954 2.4910729e-39
0.041363481 -0.12655805 -0.008569954 5.1607945e-39
0.043367878 -0.12757985 -0.012575267 9.1835917e-40
0.045353543 -0.1283439 -0.015570162 9.1835496e-40
0.047247317 -0.1283439 -0.015570162 7.3468397e-40
0.049141087 -0.1283439 -0.015570162 9.1835496e-40
0.051183444 -0.12934943 -0.019511698 2.022892e-39
0.053084128 -0.12934943 -0.019511698 1.1938615e-39
0.054984808 -0.12934943 -0.019511698 1.1938615e-39
0.057015806 -0.13012333 -0.022545336 1.1938615e-39
0.05892181 -0.13012333 -0.022545336 1.3775324e-39
0.06082781 -0.13012333 -0.022545336 2.0236095e-39
0.062875226 -0.13087155 -0.025478242 5.9880104e-39
0.064786375 -0.13087155 -0.025478242 1.6222441e-38
0.066697523 -0.13087155 -0.025478242 2.2953801e-38
0.068823338 -0.13189565 -0.029492615 2.3509496e-38
0.070741519 -0.13189565 -0.029492615 2.3508063e-38
0.072659701 -0.13189565 -0.029492615 2.3325129e-38
0.074991196 -0.13369073 -0.036529183 2.3141466e-38
0.076921716 -0.13369073 -0.036529183 2.3141822e-38
0.078852236 -0.13369073 -0.036529183 2.3234015e-38
0.080782756 -0.13369073 -0.036529183 2.332621e-38
0.082974657 -0.1347049 -0.040504575 2.3234012e-38
0.084912151 -0.1347049 -0.040504575 2.2865229e-38
0.087059543 -0.13547809 -0.043535352 2.2496447e-38
0.089002341 -0.13547809 -0.043535352 2.2865229e-38
0.090945154 -0.13547809 -0.043535352 2.2865232e-38
0.092887953 -0.13547809 -0.043535352 2.341805e-38
0.095137842 -0.13650523 -0.047561646 2.2957075e-38
0.097317614 -0.13725694 -0.050508261 2.0652187e-38
0.099597894 -0.13829704 -0.054585338 1.871608e-38
0.10188475 -0.13931294 -0.058567524 1.8070355e-38
0.1038539 -0.13931294 -0.058567524 1.7518257e-38
0.10582306 -0.13931294 -0.058567524 1.8073227e-38
0.10805305 -0.14007963 -0.06157279 1.9732749e-38
0.11002748 -0.14007963 -0.06157279 1.9822426e-38
0.11235458 -0.14107598 -0.065478444 1.9544757e-38
0.11433586 -0.14107598 -0.065478444 1.9358927e-38
0.11631715 -0.14107598 -0.065478444 1.9727707e-38
0.11829842 -0.14107598 -0.065478444 1.9635511e-38
0.1206748 -0.14211179 -0.069538713 1.6040598e-38
0.12266321 -0.14211179 -0.069538713 1.1247864e-38
0.1246516 -0.14211179 -0.069538713 2.0290199e-39
0.12704629 -0.14312236 -0.073499918 2.3988786e-39
0.12904164 -0.14312236 -0.073499918 2.676183e-39
-0.11715644 -0.1294684 -0.012575267 2.1943265e-38
-0.11480092 -0.12843956 -0.008569954 2.3509879e-38
-0.1125669 -0.12765111 -0.005500434 2.3233299e-38
-0.11069078 -0.12765111 -0.005500434 2.3324775e-38
-0.1084874 -0.1268961 -0.0025610905 2.3230059e-38
-0.10617336 -0.12585752 0.0014822502 1.7144784e-38
-0.10398466 -0.12508373 0.0044946689 1.7791599e-38
-0.10180833 -0.12431435 0.0074900407 1.7793041e-38
-0.099644266 -0.1235493 0.010468485 2.0006099e-38
-0.097078808 -0.12175287 0.017462136 1.9545836e-38
-0.094937421 -0.12097444 0.020492675 2.0190843e-38
-0.093106888 -0.12097444 0.020492675 2.350988e-38
-0.09098313 -0.12020047 0.023505809 2.3509153e-38
-0.088871621 -0.11943097 0.026501538 2.3509869e-38
-0.086682744 -0.11842094 0.030433776 2.3509866e-38
-0.084869646 -0.11842094 0.030433776 2.295561e-38
-0.082780086 -0.11763458 0.033495188 2.3509869e-38
-0.080712147 -0.11687975 0.036433816 2.3418035e-38
-0.078646936 -0.1161025 0.039459705 2.3142534e-38
-0.076339535 -0.11456163 0.045458555 2.2499694e-38
-0.074305154 -0.11379795 0.048431635 2.2132353e-38
-0.072523601 -0.11379795 0.048431635 1.955199e-38
-0.070498131 -0.1130126 0.051489115 1.8631121e-38
-0.068484806 -0.11223195 0.054528236 1.6973406e-38
-0.066713952 -0.11223195 0.054528236 1.5222779e-38
-0.064725451 -0.11148177 0.057448745 1.2643109e-38
-0.062741168 -0.11071031 0.060452223 1.0708091e-38
-0.060768671 -0.10994337 0.063437939 7.6670756e-39
-0.059013419 -0.10994337 0.063437939 8.3124506e-39
-0.057051174 -0.10915567 0.066504538 8.035861e-39
-0.055301301 -0.10915567 0.066504538 8.4046435e-39
-0.053551428 -0.10915567 0.066504538 9.3262354e-39
-0.05180157 -0.10915567 0.066504538 1.0154907e-38
-0.050051697 -0.10915567 0.066504538 1.0615161e-38
-0.048481949 -0.10994337 0.063437939 1.1720427e-38
-0.046726711 -0.10994337 0.063437939 1.2917527e-38
-0.044971459 -0.10994337 0.063437939 1.3930234e-38
-0.043375887 -0.11071031 0.060452223 1.5403919e-38
-0.041770749 -0.11148177 0.057448745 1.7431859e-38
-0.040150948 -0.11223195 0.054528236 1.9643468e-38
-0.038526617 -0.1130126 0.051489115 2.1393723e-38
-0.036750421 -0.1130126 0.051489115 2.2314231e-38
-0.034974225 -0.1130126 0.051489115 2.2590096e-38
-0.033329368 -0.11379795 0.048431635 2.2681572e-38
-0.031547815 -0.11379795 0.048431635 2.3234379e-38
-0.029766258 -0.11379795 0.048431635 2.3234379e-38
-0.027984701 -0.11379795 0.048431635 2.3234379e-38
-0.026203144 -0.11379795 0.048431635 2.3142544e-38
-0.024421588 -0.11379795 0.048431635 2.2958873e-38
-0.022640035 -0.11379795 0.048431635 2.2958873e-38
-0.020949703 -0.11456163 0.045458555 2.2775202e-38
-0.01924945 -0.11532979 0.042467952 2.2867037e-38
-0.01745744 -0.11532979 0.042467952 2.3142544e-38
-0.015741907 -0.1161025 0.039459705 2.3234379e-38
-0.014016241 -0.11687975 0.036433816 2.341805e-38
-0.012278054 -0.11763458 0.033495188 2.341805e-38
-0.010470308 -0.11763458 0.033495188 2.341805e-38
-0.0086625665 -0.11763458 0.033495188 2.341805e-38
-0.0069058128 -0.11842094 0.030433776 2.3509886e-38
-0.005195953 -0.12020047 0.023505809 2.3509886e-38
-0.0033706911 -0.12020047 0.023505809 2.3509886e-38
-0.001545433 -0.12020047 0.023505809 2.3233299e-38
0.00025076978 -0.12097444 0.020492675 2.3509883e-38
0.0020813122 -0.12097444 0.020492675 2.3509883e-38
0.0038932562 -0.12175287 0.017462136 2.3509883e-38
0.0057291128 -0.12175287 0.017462136 2.3509883e-38
0.0075649694 -0.12175287 0.017462136 2.3509521e-38
0.009398248 -0.12250783 0.014523031 2.350988e-38
0.011239257 -0.12250783 0.014523031 2.3234374e-38
0.013080265 -0.12250783 0.014523031 2.286632e-38
0.014921274 -0.12250783 0.014523031 2.1943301e-38
0.016787166 -0.1235493 0.010468485 2.3141826e-38
0.018635284 -0.1235493 0.010468485 2.2958873e-38
0.020483401 -0.1235493 0.010468485 2.2590096e-38
0.022365464 -0.12431435 0.0074900407 1.3185802e-38
0.024218805 -0.12431435 0.0074900407 7.3781853e-39
0.026116785 -0.12508373 0.0044946689 9.5781553e-41
0.028025554 -0.12585752 0.0014822502 3.7273278e-40
0.029963866 -0.1268961 -0.0025610905 2.8025969e-44
0.03183483 -0.1268961 -0.0025610905 1.0159932e-39
0.033705793 -0.1268961 -0.0025610905 1.9386516e-39
0.035646331 -0.12765111 -0.005500434 2.6769215e-39
0.037522446 -0.12765111 -0.005500434 2.0322569e-39
0.039398566 -0.12765111 -0.005500434 3.6899804e-39
0.041274682 -0.12765111 -0.005500434 7.2820338e-39
0.043367878 -0.1294684 -0.012575267 1.4719155e-39
0.045353543 -0.13023765 -0.015570162 5.5102979e-40
0.047247317 -0.13023765 -0.015570162 5.5102839e-40
0.049141087 -0.13023765 -0.015570162 8.2653488e-40
0.05103486 -0.13023765 -0.015570162 1.3786269e-39
0.052928634 -0.13023765 -0.015570162 7.3468677e-40
0.054822404 -0.13023765 -0.015570162 7.3468397e-40
0.056885492 -0.1312501 -0.019511698 7.3468397e-40
0.05892181 -0.13202934 -0.022545336 7.3468397e-40
0.06082781 -0.13202934 -0.022545336 7.3468397e-40
0.062875226 -0.13278268 -0.025478242 5.3433795e-39
0.064786375 -0.13278268 -0.025478242 1.4748053e-38
0.066905156 -0.13381381 -0.029492615 2.3507356e-38
0.068823338 -0.13381381 -0.029492615 2.3509517e-38
0.070741519 -0.13381381 -0.029492615 2.3509879e-38
0.072659701 -0.13381381 -0.029492615 2.3509883e-38
0.074991196 -0.13562126 -0.036529183 2.341805e-38
0.076921716 -0.13562126 -0.036529183 2.341805e-38
0.078852236 -0.13562126 -0.036529183 2.3418047e-38
0.080782756 -0.13562126 -0.036529183 2.3418047e-38
0.082974657 -0.13664238 -0.040504575 2.3141816e-38
0.084912151 -0.13664238 -0.040504575 2.2680838e-38
0.087059543 -0.13742088 -0.043535352 2.2404251e-38
0.089002341 -0.13742088 -0.043535352 2.3234015e-38
0.090945154 -0.13742088 -0.043535352 2.249645e-38
0.092887953 -0.13742088 -0.043535352 2.2588648e-38
0.094830759 -0.13742088 -0.043535352 2.2403901e-38
0.097317614 -0.13921197 -0.050508261 2.1020969e-38
0.099597894 -0.14025922 -0.054585338 1.9545841e-38
0.10188475 -0.1412821 -0.058567524 1.8531333e-38
0.1038539 -0.1412821 -0.058567524 1.7333866e-38
0.10582306 -0.1412821 -0.058567524 1.705835e-38
0.10805305 -0.14205404 -0.06157279 1.9086651e-38
0.11037331 -0.14305727 -0.065478444 1.9729862e-38
0.11235458 -0.14305727 -0.065478444 1.9267442e-38
0.11433586 -0.14305727 -0.065478444 1.8805025e-38
0.11631715 -0.14305727 -0.065478444 1.9358197e-38
0.11829842 -0.14305727 -0.065478444 1.8989414e-38
0.1206748 -0.1441002 -0.069538713 1.5394864e-38
0.12266321 -0.1441002 -0.069538713 1.1339697e-38
0.1246516 -0.1441002 -0.069538713 2.1212127e-39
0.12704629 -0.14511769 -0.073499918 2.5832699e-39
0.12904164 -0.14511769 -0.073499918 2.9527699e-39
-0.11668242 -0.13032107 -0.008569954 2.2864502e-38
-0.11480092 -0.13032107 -0.008569954 2.350988e-38
-0.1125669 -0.12952723 -0.005500434 2.3048907e-38
-0.11035838 -0.12876706 -0.0025610905 2.3509168e-38
-0.1084874 -0.12876706 -0.0025610905 2.3508448e-38
-0.10617336 -0.12772138 0.0014822502 5.1593553e-39
-0.10398466 -0.12694232 0.0044946689 1.1967523e-39
-0.10180833 -0.12616767 0.0074900407 1.2611686e-44
-0.099644266 -0.1253974 0.010468485 3.7414669e-43
-0.097078808 -0.12358873 0.017462136 7.300765e-43
-0.094937421 -0.12280498 0.020492675 3.7058739e-40
-0.093106888 -0.12280498 0.020492675 1.2910919e-39
-0.09098313 -0.12202574 0.023505809 8.2965053e-39
-0.088871621 -0.121251 0.026501538 1.0691783e-38
-0.086682744 -0.12023406 0.030433776 1.585329e-38
-0.084869646 -0.12023406 0.030433776 2.2308061e-38
-0.082780086 -0.11944233 0.033495188 2.3509851e-38
-0.080712147 -0.11868234 0.036433816 2.3326181e-38
-0.078646936 -0.11789979 0.039459705 2.1576989e-38
-0.076339535 -0.1163484 0.045458555 2.277519e-38
-0.074305154 -0.1155795 0.048431635 2.2867037e-38
-0.07227432 -0.11478879 0.051489115 2.2775202e-38
-0.070498131 -0.11478879 0.051489115 2.2499695e-38
-0.068484806 -0.11400281 0.054528236 2.1948682e-38
-0.066713952 -0.11400281 0.054528236 2.0659757e-38
-0.064725451 -0.11324753 0.057448745 2.0199862e-38
-0.062741168 -0.11247079 0.060452223 1.8357771e-38
-0.060768671 -0.11169861 0.063437939 1.4486291e-38
-0.059013419 -0.11169861 0.063437939 1.4486296e-38
-0.057051174 -0.11090554 0.066504538 1.430262e-38
-0.055301301 -0.11090554 0.066504538 1.5223858e-38
-0.053551428 -0.11090554 0.066504538 1.697485e-38
-0.05180157 -0.11090554 0.066504538 1.8079753e-38
-0.050051697 -0.11090554 0.066504538 1.8540366e-38
-0.048481949 -0.11169861 0.063437939 1.992292e-38
-0.046726711 -0.11169861 0.063437939 2.1856847e-38
-0.044971459 -0.11169861 0.063437939 2.1856488e-38
-0.043375887 -0.11247079 0.060452223 2.1947606e-38
-0.041770749 -0.11324753 0.057448745 2.2039083e-38
-0.040150948 -0.11400281 0.054528236 2.2314231e-38
-0.038526617 -0.11478879 0.051489115 2.268229e-38
-0.036750421 -0.11478879 0.051489115 2.3142544e-38
-0.034974225 -0.11478879 0.051489115 2.3417691e-38
-0.033198029 -0.11478879 0.051489115 2.3509527e-38
-0.031547815 -0.1155795 0.048431635 2.3509168e-38
-0.029766258 -0.1155795 0.048431635 2.3509168e-38
-0.027984701 -0.1155795 0.048431635 2.3417691e-38
-0.026093248 -0.11478879 0.051489115 2.3325856e-38
-0.024317052 -0.11478879 0.051489115 2.3325856e-38
-0.022640035 -0.1155795 0.048431635 2.3142544e-38
-0.020949703 -0.1163484 0.045458555 2.3142544e-38
-0.01924945 -0.1171218 0.042467952 2.3142544e-38
-0.01745744 -0.1171218 0.042467952 2.2958155e-38
-0.015741907 -0.11789979 0.039459705 2.2958155e-38
-0.013944618 -0.11789979 0.039459705 2.3141466e-38
-0.012213647 -0.11868234 0.036433816 2.3141466e-38
-0.010470308 -0.11944233 0.033495188 2.3233662e-38
-0.0086625665 -0.11944233 0.033495188 2.3325856e-38
-0.0069058128 -0.12023406 0.030433776 2.3509886e-38
-0.005195953 -0.12202574 0.023505809 2.3509886e-38
-0.0033706911 -0.12202574 0.023505809 2.2587929e-38
-0.001545433 -0.12202574 0.023505809 2.2680125e-38
0.00027982518 -0.12202574 0.023505809 2.3509883e-38
0.0020813122 -0.12280498 0.020492675 2.3509883e-38
0.0038932562 -0.12358873 0.017462136 2.3509883e-38
0.0057291128 -0.12358873 0.017462136 2.3509523e-38
0.0075649694 -0.12358873 0.017462136 2.3509161e-38
0.009398248 -0.12434883 0.014523031 2.350988e-38
0.011239257 -0.12434883 0.014523031 2.074473e-38
0.013090929 -0.1253974 0.010468485 1.6505179e-38
0.014939047 -0.1253974 0.010468485 4.8874698e-39
0.016787166 -0.1253974 0.010468485 3.3201469e-39
0.018635284 -0.1253974 0.010468485 9.4004706e-41
0.020483401 -0.1253974 0.010468485 3.7134409e-43
0.022365464 -0.12616767 0.0074900407 3.5032462e-44
0.024218805 -0.12616767 0.0074900407 7.3988559e-43
0.02616168 -0.12772138 0.0014822502 7.0115244e-39
0.028025554 -0.12772138 0.0014822502 9.4086108e-39
0.029963866 -0.12876706 -0.0025610905 9.8674786e-39
0.03183483 -0.12876706 -0.0025610905 1.2080189e-38
0.033705793 -0.12876706 -0.0025610905 1.2910653e-38
0.035646331 -0.12952723 -0.005500434 1.1528421e-38
0.037522446 -0.12952723 -0.005500434 9.3164305e-39
0.039398566 -0.12952723 -0.005500434 1.1712801e-38
0.041274682 -0.12952723 -0.005500434 1.060216e-38
0.043367878 -0.13135691 -0.012575267 3.6857008e-39
0.045256399 -0.13135691 -0.012575267 1.1956957e-39
0.04714492 -0.13135691 -0.012575267 1.1034959e-39
0.049141087 -0.13213144 -0.015570162 6.428723e-40
0.05103486 -0.13213144 -0.015570162 3.673574e-40
0.052928634 -0.13213144 -0.015570162 5.5102279e-40
0.054822404 -0.13213144 -0.015570162 2.2091064e-39
0.056885492 -0.13315077 -0.019511698 1.7481268e-39
0.058786176 -0.13315077 -0.019511698 9.187221e-40
0.06082781 -0.13393532 -0.022545336 5.5101298e-40
0.062733814 -0.13393532 -0.022545336 5.4373814e-39
0.064786375 -0.13469382 -0.025478242 1.3551316e-38
0.066905156 -0.13573201 -0.029492615 2.3508804e-38
0.068823338 -0.13573201 -0.029492615 2.3325131e-38
0.070741519 -0.13573201 -0.029492615 2.3509883e-38
0.072835773 -0.13653107 -0.032582402 2.3509886e-38
0.074991196 -0.1375518 -0.036529183 2.341805e-38
0.076921716 -0.1375518 -0.036529183 2.341805e-38
0.078852236 -0.1375518 -0.036529183 2.3418047e-38
0.080782756 -0.1375518 -0.036529183 2.3049624e-38
0.082974657 -0.13857989 -0.040504575 2.2588643e-38
0.084912151 -0.13857989 -0.040504575 2.2404251e-38
0.087059543 -0.13936369 -0.043535352 2.2496447e-38
0.089002341 -0.13936369 -0.043535352 2.332621e-38
0.090945154 -0.13936369 -0.043535352 2.1666689e-38
0.092887953 -0.13936369 -0.043535352 2.065254e-38
0.094830759 -0.13936369 -0.043535352 2.0468149e-38
0.097317614 -0.141167 -0.050508261 2.0006815e-38
0.099597894 -0.14222141 -0.054585338 1.9730231e-38
0.10156008 -0.14222141 -0.054585338 1.9269254e-38
0.1038539 -0.14325126 -0.058567524 1.8347296e-38
0.10582306 -0.14325126 -0.058567524 1.8164331e-38
0.10805305 -0.14402847 -0.06157279 1.9730933e-38
0.11037331 -0.14503856 -0.065478444 2.0466337e-38
0.11235458 -0.14503856 -0.065478444 1.9819525e-38
0.11433586 -0.14503856 -0.065478444 1.9634415e-38
0.11631715 -0.14503856 -0.065478444 2.0740403e-38
0.11829842 -0.14503856 -0.065478444 1.9450024e-38
0.1206748 -0.14608859 -0.069538713 1.5670725e-38
0.12266321 -0.14608859 -0.069538713 1.2168736e-38
0.1246516 -0.14608859 -0.069538713 2.7662206e-39
0.12663999 -0.14608859 -0.069538713 2.9520524e-39
-0.11668242 -0.13220255 -0.008569954 2.3141092e-38
-0.11480092 -0.13220255 -0.008569954 2.3509883e-38
-0.1125669 -0.13140334 -0.005500434 2.3232583e-38
-0.11035838 -0.13063805 -0.0025610905 2.3509168e-38
-0.1084874 -0.13063805 -0.0025610905 2.3508807e-38
-0.10617336 -0.12958528 0.0014822502 2.4860422e-39
-0.10398466 -0.12880091 0.0044946689 9.1842503e-41
-0.10180833 -0.12802102 0.0074900407 4.624313e-40
-0.099644266 -0.12724553 0.010468485 1.8764507e-40
-0.097380273 -0.12618984 0.014523031 1.0888089e-42
-0.094937421 -0.12463553 0.020492675 9.5079502e-41
-0.093106888 -0.12463553 0.020492675 2.2137657e-39
-0.090691619 -0.123071 0.026501538 4.3310114e-39
-0.088495858 -0.12204717 0.030433776 4.9749276e-39
-0.086682744 -0.12204717 0.030433776 8.4769154e-39
-0.084587835 -0.12125005 0.033495188 1.5299748e-38
-0.082514741 -0.12048493 0.036433816 2.0926202e-38
-0.080712147 -0.12048493 0.036433816 2.3048505e-38
-0.078385852 -0.11891381 0.042467952 2.3509856e-38
-0.076339535 -0.11813517 0.045458555 2.3418028e-38
-0.074305154 -0.11736105 0.048431635 2.2496439e-38
-0.07227432 -0.11656497 0.051489115 2.2680838e-38
-0.070498131 -0.11656497 0.051489115 2.3234379e-38
-0.068484806 -0.11577369 0.054528236 2.2958873e-38
-0.066713952 -0.11577369 0.054528236 2.2591531e-38
-0.064725451 -0.11501329 0.057448745 2.2316024e-38
-0.062741168 -0.11423124 0.060452223 2.1580264e-38
-0.060768671 -0.11345388 0.063437939 1.9737814e-38
-0.059013419 -0.11345388 0.063437939 1.7801713e-38
-0.057051174 -0.11265542 0.066504538 1.6695364e-38
-0.055301301 -0.11265542 0.066504538 1.6879037e-38
-0.053551428 -0.11265542 0.066504538 1.8815498e-38
-0.05180157 -0.11265542 0.066504538 2.0934546e-38
-0.050051697 -0.11265542 0.066504538 2.1671741e-38
-0.048481949 -0.11345388 0.063437939 2.20398e-38
-0.046896845 -0.11423124 0.060452223 2.2499695e-38
-0.045136362 -0.11423124 0.060452223 2.2775202e-38
-0.043536499 -0.11501329 0.057448745 2.2867037e-38
-0.041770749 -0.11501329 0.057448745 2.2958873e-38
-0.040150948 -0.11577369 0.054528236 2.323402e-38
-0.038526617 -0.11656497 0.051489115 2.3417691e-38
-0.036750421 -0.11656497 0.051489115 2.3509168e-38
-0.034974225 -0.11656497 0.051489115 2.3508451e-38
-0.033198029 -0.11656497 0.051489115 2.3508445e-38
-0.031547815 -0.11736105 0.048431635 2.3509165e-38
-0.029766258 -0.11736105 0.048431635 2.3509521e-38
-0.027984701 -0.11736105 0.048431635 2.3509524e-38
-0.026093248 -0.11656497 0.051489115 2.3509883e-38
-0.024317052 -0.11656497 0.051489115 2.3509527e-38
-0.022640035 -0.11736105 0.048431635 2.3509886e-38
-0.020949703 -0.11813517 0.045458555 2.341805e-38
-0.01924945 -0.11891381 0.042467952 2.341805e-38
-0.017539192 -0.11969708 0.039459705 2.341805e-38
-0.015741907 -0.11969708 0.039459705 2.341805e-38
-0.013944618 -0.11969708 0.039459705 2.341805e-38
-0.012213647 -0.12048493 0.036433816 2.341805e-38
-0.010411058 -0.12048493 0.036433816 2.341805e-38
-0.0086625665 -0.12125005 0.033495188 2.3325856e-38
-0.0069058128 -0.12204717 0.030433776 2.3325494e-38
-0.0051513053 -0.123071 0.026501538 2.3325494e-38
-0.0033706911 -0.12385099 0.023505809 2.3509886e-38
-0.001545433 -0.12385099 0.023505809 2.3509886e-38
0.00027982518 -0.12385099 0.023505809 2.3509883e-38
0.0020813122 -0.12463553 0.020492675 2.3417327e-38
0.0038932562 -0.12542458 0.017462136 2.3509883e-38
0.0057291128 -0.12542458 0.017462136 2.2587566e-38
0.0075649694 -0.12542458 0.017462136 2.3509883e-38
0.009398248 -0.12618984 0.014523031 2.3417327e-38
0.011239257 -0.12618984 0.014523031 1.4936408e-38
0.013090929 -0.12724553 0.010468485 1.0603937e-38
0.014939047 -0.12724553 0.010468485 9.3283037e-41
0.016787166 -0.12724553 0.010468485 9.2376257e-40
0.018658783 -0.12802102 0.0074900407 1.7950633e-42
0.020512123 -0.12802102 0.0074900407 3.657389e-43
0.022365464 -0.12802102 0.0074900407 1.1210388e-42
0.024258193 -0.12880091 0.0044946689 3.8675838e-43
0.02616168 -0.12958528 0.0014822502 8.8557859e-39
0.028025554 -0.12958528 0.0014822502 1.1253228e-38
0.029963866 -0.13063805 -0.0025610905 1.0698311e-38
0.03183483 -0.13063805 -0.0025610905 1.1803602e-38
0.033705793 -0.13063805 -0.0025610905 1.1435166e-38
0.035646331 -0.13140334 -0.005500434 8.2101012e-39
0.037522446 -0.13140334 -0.005500434 4.7995649e-39
0.039398566 -0.13140334 -0.005500434 7.1959311e-39
0.041274682 -0.13140334 -0.005500434 7.9302815e-39
0.043367878 -0.13324542 -0.012575267 3.1339606e-39
0.045256399 -0.13324542 -0.012575267 6.4431563e-40
0.04714492 -0.13324542 -0.012575267 1.8369341e-40
0.049141087 -0.1340252 -0.015570162 4.5955723e-40
0.05103486 -0.1340252 -0.015570162 1.7506492e-39
0.052928634 -0.1340252 -0.015570162 2.5796868e-39
0.054822404 -0.1340252 -0.015570162 2.6718782e-39
0.056716178 -0.1340252 -0.015570162 2.0268647e-39
0.058786176 -0.13505147 -0.019511698 4.5953621e-40
0.06068686 -0.13505147 -0.019511698 9.1835496e-41
0.062733814 -0.13584132 -0.022545336 5.1625895e-39
0.064639822 -0.13584132 -0.022545336 1.2723349e-38
0.066697523 -0.13660498 -0.025478242 2.3509879e-38
0.068823338 -0.13765021 -0.029492615 2.3049978e-38
0.070741519 -0.13765021 -0.029492615 2.3418045e-38
0.072835773 -0.13845469 -0.032582402 2.3049624e-38
0.074759364 -0.13845469 -0.032582402 2.3049626e-38
0.07668297 -0.13845469 -0.032582402 2.3141819e-38
0.078852236 -0.1394823 -0.036529183 2.3141819e-38
0.080782756 -0.1394823 -0.036529183 2.249645e-38
0.082974657 -0.14051737 -0.040504575 2.1943276e-38
0.084912151 -0.14051737 -0.040504575 2.2127664e-38
0.086849645 -0.14051737 -0.040504575 2.2773034e-38
0.088787124 -0.14051737 -0.040504575 2.2773037e-38
0.090945154 -0.1413065 -0.043535352 2.0652537e-38
0.092887953 -0.1413065 -0.043535352 1.9269606e-38
0.095137842 -0.14235483 -0.047561646 1.917741e-38
0.097317614 -0.14312203 -0.050508261 1.9361445e-38
0.099597894 -0.14418359 -0.054585338 1.9822426e-38
0.10156008 -0.14418359 -0.054585338 1.9914622e-38
0.1038539 -0.14522041 -0.058567524 1.917741e-38
0.10582306 -0.14522041 -0.058567524 1.9453983e-38
0.10805305 -0.1460029 -0.06157279 1.9360341e-38
0.11002748 -0.1460029 -0.06157279 1.8990117e-38
0.11235458 -0.14701982 -0.065478444 1.7882687e-38
0.11433586 -0.14701982 -0.065478444 1.8711369e-38
0.11631715 -0.14701982 -0.065478444 2.0739313e-38
0.11829842 -0.14701982 -0.065478444 1.9448937e-38
0.12027969 -0.14701982 -0.065478444 1.5946947e-38
0.12266321 -0.148077 -0.069538713 1.2537153e-38
0.1246516 -0.148077 -0.069538713 2.9502489e-39
0.12663999 -0.148077 -0.069538713 2.9513307e-39
-0.11715644 -0.13513394 -0.012575267 2.2679758e-38
-0.11480092 -0.13408406 -0.008569954 2.3509883e-38
-0.1125669 -0.13327946 -0.005500434 2.332478e-38
-0.10990111 -0.13144915 0.0014822502 2.3509527e-38
-0.10803724 -0.13144915 0.0014822502 2.323258e-38
-0.10584325 -0.13065951 0.0044946689 3.7796579e-39
-0.10398466 -0.13065951 0.0044946689 3.6914546e-40
-0.10180833 -0.12987436 0.0074900407 1.5694865e-39
-0.099644266 -0.12909363 0.010468485 1.7535218e-39
-0.097380273 -0.12803085 0.014523031 7.2026741e-43
-0.094937421 -0.12646608 0.020492675 2.6754683e-39
-0.093106888 -0.12646608 0.020492675 1.180139e-38
-0.090691619 -0.124891 0.026501538 1.115457e-38
-0.088495858 -0.12386028 0.030433776 1.0876537e-38
-0.086682744 -0.12386028 0.030433776 8.5702013e-39
-0.084587835 -0.1230578 0.033495188 4.7905336e-39
-0.082514741 -0.12228753 0.036433816 5.0671233e-39
-0.080712147 -0.12228753 0.036433816 1.207507e-38
-0.078385852 -0.12070583 0.042467952 1.9819866e-38
-0.076339535 -0.11992194 0.045458555 2.2770489e-38
-0.074305154 -0.11914261 0.048431635 2.350986e-38
-0.07227432 -0.11834116 0.051489115 2.3509869e-38
-0.070498131 -0.11834116 0.051489115 2.2494641e-38
-0.068484806 -0.11754455 0.054528236 2.3509518e-38
-0.066713952 -0.11754455 0.054528236 2.3234379e-38
-0.064725451 -0.11677901 0.057448745 2.2958873e-38
-0.062741168 -0.11599173 0.060452223 2.2315307e-38
-0.060768671 -0.11520912 0.063437939 2.2591531e-38
-0.059013419 -0.11520912 0.063437939 2.2499695e-38
-0.057051174 -0.11440529 0.066504538 2.240786e-38
-0.055301301 -0.11440529 0.066504538 2.2316024e-38
-0.053551428 -0.11440529 0.066504538 2.2775202e-38
-0.05180157 -0.11440529 0.066504538 2.2867037e-38
-0.050051697 -0.11440529 0.066504538 2.2958873e-38
-0.048481949 -0.11520912 0.063437939 2.2958514e-38
-0.046726711 -0.11520912 0.063437939 2.3142544e-38
-0.044971459 -0.11520912 0.063437939 2.2681212e-38
-0.043375887 -0.11599173 0.060452223 2.2865602e-38
-0.041615404 -0.11599173 0.060452223 2.3325138e-38
-0.040005006 -0.11677901 0.057448745 2.3509527e-38
-0.038380079 -0.11754455 0.054528236 2.3509168e-38
-0.036750421 -0.11834116 0.051489115 2.3508805e-38
-0.034974225 -0.11834116 0.051489115 2.3508082e-38
-0.033198029 -0.11834116 0.051489115 2.350736e-38
-0.031421833 -0.11834116 0.051489115 2.3508442e-38
-0.029766258 -0.11914261 0.048431635 2.3508441e-38
-0.027984701 -0.11914261 0.048431635 2.3508442e-38
-0.026093248 -0.11834116 0.051489115 2.3508801e-38
-0.024317052 -0.11834116 0.051489115 2.3508807e-38
-0.022640035 -0.11914261 0.048431635 2.3416971e-38
-0.020949703 -0.11992194 0.045458555 2.3417691e-38
-0.01924945 -0.12070583 0.042467952 2.3417691e-38
-0.017539192 -0.12149437 0.039459705 2.341805e-38
-0.015741907 -0.12149437 0.039459705 2.341805e-38
-0.014016241 -0.12228753 0.036433816 2.341805e-38
-0.012213647 -0.12228753 0.036433816 2.341805e-38
-0.010411058 -0.12228753 0.036433816 2.341805e-38
-0.0087189265 -0.12386028 0.030433776 2.341805e-38
-0.0069058128 -0.12386028 0.030433776 2.3509886e-38
-0.0051513053 -0.124891 0.026501538 2.341769e-38
-0.0033312961 -0.124891 0.026501538 2.2034756e-38
-0.001545433 -0.12567626 0.023505809 2.2956712e-38
0.00027982518 -0.12567626 0.023505809 2.3417327e-38
0.002105087 -0.12567626 0.023505809 2.3509883e-38
0.0039118547 -0.12646608 0.020492675 2.2956349e-38
0.0057291128 -0.12726043 0.017462136 1.0233352e-38
0.0075649694 -0.12726043 0.017462136 4.9782011e-39
0.009398248 -0.12803085 0.014523031 1.8402972e-40
0.011239257 -0.12803085 0.014523031 1.8439126e-40
0.013090929 -0.12909363 0.010468485 3.6877972e-40
0.014939047 -0.12909363 0.010468485 3.5873241e-43
0.016787166 -0.12909363 0.010468485 1.8546465e-40
0.018658783 -0.12987436 0.0074900407 7.1746481e-43
0.020512123 -0.12987436 0.0074900407 1.0155967e-39
0.022365464 -0.12987436 0.0074900407 9.2163961e-40
0.024258193 -0.13065951 0.0044946689 4.1499104e-39
0.02616168 -0.13144915 0.0014822502 6.2739425e-39
0.028025554 -0.13144915 0.0014822502 6.4586897e-39
0.029963866 -0.13250901 -0.0025610905 2.7691199e-39
0.03183483 -0.13250901 -0.0025610905 1.2932962e-39
0.033705793 -0.13250901 -0.0025610905 6.4827991e-40
0.035576753 -0.13250901 -0.0025610905 3.6125474e-42
0.037447721 -0.13250901 -0.0025610905 2.8712606e-42
0.039318681 -0.13250901 -0.0025610905 3.6924943e-39
0.041189644 -0.13250901 -0.0025610905 4.2424521e-39
0.04324498 -0.13408406 -0.008569954 2.4900233e-39
0.045256399 -0.13513394 -0.012575267 9.2161578e-40
0.04714492 -0.13513394 -0.012575267 3.6879934e-40
0.049033441 -0.13513394 -0.012575267 3.1343025e-39
0.050921962 -0.13513394 -0.012575267 8.0206667e-39
0.052928634 -0.13591899 -0.015570162 8.3890863e-39
0.054822404 -0.13591899 -0.015570162 4.1484404e-39
0.056716178 -0.13591899 -0.015570162 2.8576988e-39
0.058786176 -0.13695215 -0.019511698 2.7622395e-40
0.06068686 -0.13695215 -0.019511698 2.7694142e-40
0.062733814 -0.13774733 -0.022545336 5.1633042e-39
0.064639822 -0.13774733 -0.022545336 1.2816258e-38
0.066697523 -0.13851611 -0.025478242 2.3234367e-38
0.068823338 -0.13956837 -0.029492615 2.3234367e-38
0.070741519 -0.13956837 -0.029492615 2.3234369e-38
0.072659701 -0.13956837 -0.029492615 2.3418047e-38
0.074759364 -0.14037828 -0.032582402 2.3326213e-38
0.07668297 -0.14037828 -0.032582402 2.332621e-38
0.078852236 -0.14141284 -0.036529183 2.3234015e-38
0.080782756 -0.14141284 -0.036529183 2.249645e-38
0.082974657 -0.14245488 -0.040504575 2.185108e-38
0.084912151 -0.14245488 -0.040504575 2.2035469e-38
0.086849645 -0.14245488 -0.040504575 2.2773034e-38
0.088787124 -0.14245488 -0.040504575 2.2127667e-38
0.090945154 -0.14324932 -0.043535352 2.037595e-38
0.092887953 -0.14324932 -0.043535352 1.9546192e-38
0.095137842 -0.14430468 -0.047561646 1.9638388e-38
0.097087704 -0.14430468 -0.047561646 1.9730228e-38
0.099272646 -0.14507706 -0.050508261 1.9914619e-38
0.10156008 -0.14614578 -0.054585338 1.9914619e-38
0.1038539 -0.1471896 -0.058567524 1.9361435e-38
0.10582306 -0.1471896 -0.058567524 1.9175953e-38
0.10805305 -0.14797734 -0.06157279 1.7146558e-38
0.11002748 -0.14797734 -0.06157279 1.5485953e-38
0.11200192 -0.14797734 -0.06157279 1.3917185e-38
0.11397635 -0.14797734 -0.06157279 1.4930614e-38
0.11631715 -0.14900111 -0.065478444 1.7880518e-38
0.11829842 -0.14900111 -0.065478444 1.7605013e-38
0.12027969 -0.14900111 -0.065478444 1.5762188e-38
-0.11668242 -0.13596557 -0.008569954 2.2309898e-38
-0.11480092 -0.13596557 -0.008569954 2.3509527e-38
-0.1125669 -0.13515557 -0.005500434 2.3509168e-38
-0.10990111 -0.13331302 0.0014822502 2.3325138e-38
-0.10803724 -0.13331302 0.0014822502 2.2775202e-38
-0.10584325 -0.1325181 0.0044946689 2.6776263e-39
-0.10398466 -0.1325181 0.0044946689 1.0761972e-42
-0.10180833 -0.13172771 0.0074900407 5.3484115e-39
-0.099644266 -0.13094176 0.010468485 7.3756336e-39
-0.097380273 -0.12987186 0.014523031 3.9636736e-39
-0.094937421 -0.1282966 0.020492675 3.0417187e-39
-0.093106888 -0.1282966 0.020492675 9.21847e-39
-0.090691619 -0.126711 0.026501538 9.4961387e-39
-0.088495858 -0.1256734 0.030433776 8.9433278e-39
-0.086395584 -0.12486555 0.033495188 9.9567609e-39
-0.084587835 -0.12486555 0.033495188 7.0054147e-39
-0.082514741 -0.12409012 0.036433816 6.4284847e-40
-0.080444224 -0.12329166 0.039459705 1.3778912e-39
-0.078385852 -0.12249784 0.042467952 1.1333199e-38
-0.076593839 -0.12249784 0.042467952 1.9630803e-38
-0.074305154 -0.12092416 0.048431635 2.3506618e-38
-0.07227432 -0.12011738 0.051489115 2.35095e-38
-0.070498131 -0.12011738 0.051489115 2.3509504e-38
-0.068484806 -0.11931543 0.054528236 2.3509869e-38
-0.066713952 -0.11931543 0.054528236 2.3509873e-38
-0.064725451 -0.11854477 0.057448745 2.350988e-38
-0.062741168 -0.11775221 0.060452223 2.2497173e-38
-0.060768671 -0.11696436 0.063437939 2.3142544e-38
-0.059013419 -0.11696436 0.063437939 2.2314226e-38
-0.057051174 -0.11615516 0.066504538 2.2867037e-38
-0.055301301 -0.11615516 0.066504538 2.3142544e-38
-0.053551428 -0.11615516 0.066504538 2.3234379e-38
-0.05180157 -0.11615516 0.066504538 2.2865232e-38
-0.050051697 -0.11615516 0.066504538 2.2680478e-38
-0.048301831 -0.11615516 0.066504538 2.304854e-38
-0.046726711 -0.11696436 0.063437939 2.350988e-38
-0.044971459 -0.11696436 0.063437939 2.3509886e-38
-0.043375887 -0.11775221 0.060452223 2.3509886e-38
-0.041615404 -0.11775221 0.060452223 2.3509527e-38
-0.040005006 -0.11854477 0.057448745 2.3509524e-38
-0.038380079 -0.11931543 0.054528236 2.3509521e-38
-0.03660921 -0.11931543 0.054528236 2.3509163e-38
-0.034974225 -0.12011738 0.051489115 2.3509161e-38
-0.033198029 -0.12011738 0.051489115 2.3508802e-38
-0.031421833 -0.12011738 0.051489115 2.3508802e-38
-0.029766258 -0.12092416 0.048431635 2.3509161e-38
-0.027984701 -0.12092416 0.048431635 2.3509163e-38
-0.026093248 -0.12011738 0.051489115 2.3509521e-38
-0.024317052 -0.12011738 0.051489115 2.3509527e-38
-0.022640035 -0.12092416 0.048431635 2.3509527e-38
-0.020949703 -0.12170871 0.045458555 2.3509886e-38
-0.01924945 -0.12249784 0.042467952 2.3509886e-38
-0.017539192 -0.12329166 0.039459705 2.3325497e-38
-0.015741907 -0.12329166 0.039459705 2.3325494e-38
-0.014016241 -0.12409012 0.036433816 2.341769e-38
-0.012213647 -0.12409012 0.036433816 2.3509886e-38
-0.010411058 -0.12409012 0.036433816 2.3509886e-38
-0.0086625665 -0.12486555 0.033495188 2.3509886e-38
-0.006854821 -0.12486555 0.033495188 2.3509886e-38
-0.0051513053 -0.126711 0.026501538 2.3509886e-38
-0.0033312961 -0.126711 0.026501538 2.3509886e-38
-0.001545433 -0.1275015 0.023505809 2.3509886e-38
0.00027982518 -0.1275015 0.023505809 2.3325494e-38
0.002105087 -0.1275015 0.023505809 2.3509886e-38
0.0039118547 -0.1282966 0.020492675 2.2956712e-38
0.0057291128 -0.12909628 0.017462136 4.0566077e-39
0.0075649694 -0.12909628 0.017462136 1.1985432e-39
0.009398248 -0.12987186 0.014523031 9.1835496e-41
0.011239257 -0.12987186 0.014523031 2.7550929e-40
0.013080265 -0.12987186 0.014523031 3.6734198e-40
0.014939047 -0.13094176 0.010468485 7.361189e-40
0.016787166 -0.13094176 0.010468485 2.7622395e-40
0.018658783 -0.13172771 0.0074900407 9.2194229e-41
0.020512123 -0.13172771 0.0074900407 4.6062502e-40
0.022365464 -0.13172771 0.0074900407 3.5032462e-44
0.024258193 -0.1325181 0.0044946689 1.6591864e-39
0.02616168 -0.13331302 0.0014822502 7.4078242e-40
0.028025554 -0.13331302 0.0014822502 2.7694226e-39
0.029963866 -0.13437997 -0.0025610905 1.5694865e-39
0.03183483 -0.13437997 -0.0025610905 7.3939233e-40
0.033705793 -0.13437997 -0.0025610905 2.9427268e-44
0.035576753 -0.13437997 -0.0025610905 3.7835059e-43
0.037447721 -0.13437997 -0.0025610905 3.5929293e-42
0.039318681 -0.13437997 -0.0025610905 4.3374994e-39
0.041189644 -0.13437997 -0.0025610905 4.0576951e-39
0.04324498 -0.13596557 -0.008569954 3.1346654e-39
0.045126479 -0.13596557 -0.008569954 1.1985572e-39
0.047007978 -0.13596557 -0.008569954 7.3793218e-40
0.049033441 -0.13702248 -0.012575267 4.5172327e-39
0.050921962 -0.13702248 -0.012575267 1.0509583e-38
0.052810483 -0.13702248 -0.012575267 1.0786523e-38
0.054699004 -0.13702248 -0.012575267 5.0703925e-39
0.056587528 -0.13702248 -0.012575267 3.2268358e-39
0.058609951 -0.13781275 -0.015570162 9.2194229e-41
0.06068686 -0.13885282 -0.019511698 7.1746481e-43
0.062733814 -0.13965334 -0.022545336 4.1495054e-39
0.064639822 -0.13965334 -0.022545336 1.2079048e-38
0.066697523 -0.14042725 -0.025478242 2.3234364e-38
0.068823338 -0.14148657 -0.029492615 2.2866657e-38
0.070741519 -0.14148657 -0.029492615 2.286666e-38
0.072659701 -0.14148657 -0.029492615 2.3418045e-38
0.074759364 -0.14230187 -0.032582402 2.2957428e-38
0.07668297 -0.14230187 -0.032582402 2.2680841e-38
0.078852236 -0.14334334 -0.036529183 2.2957428e-38
0.080782756 -0.14334334 -0.036529183 2.2865232e-38
0.082974657 -0.14439236 -0.040504575 2.2312058e-38
0.084912151 -0.14439236 -0.040504575 2.2404254e-38
0.087059543 -0.1451921 -0.043535352 2.2865232e-38
0.089002341 -0.1451921 -0.043535352 2.2219863e-38
0.090945154 -0.1451921 -0.043535352 2.102132e-38
0.092887953 -0.1451921 -0.043535352 2.0744733e-38
0.095137842 -0.14625455 -0.047561646 2.0744733e-38
0.097087704 -0.14625455 -0.047561646 2.0191562e-38
0.099272646 -0.1470321 -0.050508261 1.9730584e-38
0.10156008 -0.14810793 -0.054585338 1.9546192e-38
0.1038539 -0.14915876 -0.058567524 1.8900456e-38
0.10582306 -0.14915876 -0.058567524 1.9543646e-38
0.10805305 -0.14995177 -0.06157279 1.6408262e-38
0.11002748 -0.14995177 -0.06157279 1.4562906e-38
0.11200192 -0.14995177 -0.06157279 1.2348769e-38
0.11397635 -0.14995177 -0.06157279 1.2624993e-38
0.11595077 -0.14995177 -0.06157279 1.5483057e-38
-0.11668242 -0.13784705 -0.008569954 2.1941115e-38
-0.11444301 -0.13703169 -0.005500434 2.3509527e-38
-0.11222934 -0.13625093 -0.0025610905 2.3509168e-38
-0.10990111 -0.13517688 0.0014822502 2.3141467e-38
-0.10770185 -0.13437669 0.0044946689 2.2775202e-38
-0.10584325 -0.13437669 0.0044946689 1.2968499e-39
-0.10366168 -0.13358103 0.0074900407 2.5111268e-42
-0.10149238 -0.13278987 0.010468485 9.9585475e-39
-0.099644266 -0.13278987 0.010468485 1.0601393e-38
-0.097078808 -0.13093217 0.017462136 6.8206493e-39
-0.094937421 -0.13012715 0.020492675 5.068582e-39
-0.092808388 -0.12932678 0.023505809 7.0979705e-39
-0.090691619 -0.12853102 0.026501538 5.3480654e-39
-0.088495858 -0.12748651 0.030433776 3.1360962e-39
-0.086395584 -0.1266733 0.033495188 5.4406296e-39
-0.084587835 -0.1266733 0.033495188 6.8221235e-39
-0.082514741 -0.12589271 0.036433816 2.9466602e-39
-0.080444224 -0.12508895 0.039459705 1.2856969e-39
-0.078385852 -0.12428986 0.042467952 3.7702846e-39
-0.076593839 -0.12428986 0.042467952 4.3238129e-39
-0.074305154 -0.12270571 0.048431635 1.1241e-38
-0.07227432 -0.12189357 0.051489115 2.0923702e-38
-0.070498131 -0.12189357 0.051489115 2.3509143e-38
-0.068484806 -0.12108628 0.054528236 2.3509149e-38
-0.066713952 -0.12108628 0.054528236 2.3138568e-38
-0.064725451 -0.1203105 0.057448745 2.3509873e-38
-0.062741168 -0.11951269 0.060452223 2.3049259e-38
-0.060768671 -0.11871959 0.063437939 2.3418045e-38
-0.059013419 -0.11871959 0.063437939 2.3418047e-38
-0.057051174 -0.11790501 0.066504538 2.341805e-38
-0.055301301 -0.11790501 0.066504538 2.332621e-38
-0.053551428 -0.11790501 0.066504538 2.3233652e-38
-0.05180157 -0.11790501 0.066504538 2.3509879e-38
-0.050051697 -0.11790501 0.066504538 2.3509876e-38
-0.048301831 -0.11790501 0.066504538 2.3509517e-38
-0.046726711 -0.11871959 0.063437939 2.3508437e-38
-0.044971459 -0.11871959 0.063437939 2.350988e-38
-0.043216221 -0.11871959 0.063437939 2.3509883e-38
-0.041460969 -0.11871959 0.063437939 2.3509521e-38
-0.039854921 -0.11951269 0.060452223 2.3509161e-38
-0.038380079 -0.12108628 0.054528236 2.350916e-38
-0.03660921 -0.12108628 0.054528236 2.350916e-38
-0.034974225 -0.12189357 0.051489115 2.3508801e-38
-0.033198029 -0.12189357 0.051489115 2.3508801e-38
-0.031421833 -0.12189357 0.051489115 2.3508801e-38
-0.029766258 -0.12270571 0.048431635 2.3508802e-38
-0.027984701 -0.12270571 0.048431635 2.3508805e-38
-0.026093248 -0.12189357 0.051489115 2.3509164e-38
-0.024317052 -0.12189357 0.051489115 2.3509167e-38
-0.022640035 -0.12270571 0.048431635 2.3325497e-38
-0.020949703 -0.12349547 0.045458555 2.3325138e-38
-0.01924945 -0.12428986 0.042467952 2.3232944e-38
-0.017539192 -0.12508895 0.039459705 2.3509886e-38
-0.015741907 -0.12508895 0.039459705 2.3509886e-38
-0.014016241 -0.12589271 0.036433816 2.3509886e-38
-0.012213647 -0.12589271 0.036433816 2.341769e-38
-0.010411058 -0.12589271 0.036433816 2.3325494e-38
-0.0086625665 -0.1266733 0.033495188 2.3325494e-38
-0.006854821 -0.1266733 0.033495188 2.341769e-38
-0.0051513053 -0.12853102 0.026501538 2.3509886e-38
-0.0033312961 -0.12853102 0.026501538 2.2864516e-38
-0.001545433 -0.12932678 0.023505809 2.3509886e-38
0.00027982518 -0.12932678 0.023505809 2.3141103e-38
0.002105087 -0.12932678 0.023505809 2.3509886e-38
0.0039118547 -0.13012715 0.020492675 2.2864516e-38
0.0057423972 -0.13012715 0.020492675 0
0.0075729396 -0.13012715 0.020492675 0
0.0094008241 -0.13093217 0.017462136 1.0134359e-39
0.011236681 -0.13093217 0.017462136 1.8403225e-39
0.013080265 -0.13171287 0.014523031 3.4076356e-39
0.014939047 -0.13278987 0.010468485 6.3593068e-39
0.016787166 -0.13278987 0.010468485 9.1251701e-39
0.018658783 -0.13358103 0.0074900407 7.8340936e-39
0.020512123 -0.13358103 0.0074900407 2.7633578e-39
0.022365464 -0.13358103 0.0074900407 1.1949769e-39
0.024258193 -0.13437669 0.0044946689 3.0399573e-39
0.026116785 -0.13437669 0.0044946689 7.0075587e-39
0.028025554 -0.13517688 0.0014822502 9.5897482e-39
0.029889429 -0.13517688 0.0014822502 8.4830685e-39
0.03183483 -0.13625093 -0.0025610905 5.6250264e-39
0.033705793 -0.13625093 -0.0025610905 1.3829709e-39
0.035576753 -0.13625093 -0.0025610905 5.542808e-40
0.037447721 -0.13625093 -0.0025610905 3.2290022e-39
0.039318681 -0.13625093 -0.0025610905 9.0380374e-39
0.041189644 -0.13625093 -0.0025610905 6.6384511e-39
0.04324498 -0.13784705 -0.008569954 4.3324898e-39
0.045126479 -0.13784705 -0.008569954 1.290034e-39
0.047007978 -0.13784705 -0.008569954 8.2941175e-40
0.049033441 -0.13891099 -0.012575267 3.7793076e-39
0.050921962 -0.13891099 -0.012575267 8.6645941e-39
0.052810483 -0.13891099 -0.012575267 9.5869036e-39
0.054699004 -0.13891099 -0.012575267 5.3462591e-39
0.056587528 -0.13891099 -0.012575267 3.686735e-39
0.058609951 -0.13970654 -0.015570162 9.2194229e-41
0.060503721 -0.13970654 -0.015570162 9.2194229e-41
0.062587544 -0.14075352 -0.019511698 3.68853e-39
0.064639822 -0.14155935 -0.022545336 1.2170888e-38
0.066697523 -0.14233841 -0.025478242 2.3234367e-38
0.068823338 -0.14340474 -0.029492615 2.3234367e-38
0.070741519 -0.14340474 -0.029492615 2.3234369e-38
0.072659701 -0.14340474 -0.029492615 2.221986e-38
0.074759364 -0.14422549 -0.032582402 2.1205711e-38
0.07668297 -0.14422549 -0.032582402 2.0929124e-38
0.078852236 -0.14527388 -0.036529183 2.1943276e-38
0.080782756 -0.14527388 -0.036529183 2.2773037e-38
0.082974657 -0.14632986 -0.040504575 2.2957428e-38
0.084912151 -0.14632986 -0.040504575 2.3141819e-38
0.087059543 -0.14713491 -0.043535352 2.3418047e-38
0.089002341 -0.14713491 -0.043535352 2.2773037e-38
0.090945154 -0.14713491 -0.043535352 2.185108e-38
0.092887953 -0.14713491 -0.043535352 2.1666689e-38
0.095137842 -0.14820443 -0.047561646 2.1390102e-38
0.097087704 -0.14820443 -0.047561646 2.0191559e-38
0.099272646 -0.14898713 -0.050508261 1.9361798e-38
-0.11668242 -0.13972856 -0.008569954 2.2310977e-38
-0.11444301 -0.13890781 -0.005500434 2.3509167e-38
-0.11222934 -0.13812189 -0.0025610905 2.332478e-38
-0.10990111 -0.13704078 0.0014822502 2.3234379e-38
-0.10770185 -0.13623528 0.0044946689 2.2591531e-38
-0.10584325 -0.13623528 0.0044946689 1.9418662e-39
-0.10366168 -0.13543437 0.0074900407 5.5676391e-40
-0.10149238 -0.134638 0.010468485 9.6816089e-39
-0.099644266 -0.134638 0.010468485 1.0693956e-38
-0.097078808 -0.13276802 0.017462136 6.4522367e-39
-0.094937421 -0.13195769 0.020492675 6.2674938e-39
-0.092808388 -0.13115202 0.023505809 6.2689371e-39
-0.090691619 -0.13035102 0.026501538 4.7023443e-39
-0.088495858 -0.1292996 0.030433776 2.4907352e-39
-0.086395584 -0.12848105 0.033495188 2.9509972e-39
-0.084587835 -0.12848105 0.033495188 5.0700548e-39
-0.082514741 -0.12769531 0.036433816 2.4853289e-39
-0.080444224 -0.12688623 0.039459705 1.8370729e-39
-0.078385852 -0.12608187 0.042467952 2.0203809e-39
-0.076593839 -0.12608187 0.042467952 1.9285454e-39
-0.074552767 -0.12528224 0.045458555 1.9296216e-39
-0.072523601 -0.1244873 0.048431635 1.1150611e-38
-0.070498131 -0.12366976 0.051489115 2.2952373e-38
-0.068721928 -0.12366976 0.051489115 2.350843e-38
-0.066713952 -0.12285714 0.054528236 2.3509514e-38
-0.064725451 -0.12207626 0.057448745 2.3509876e-38
-0.062741168 -0.12127317 0.060452223 2.3509879e-38
-0.060768671 -0.12047486 0.063437939 2.3325847e-38
-0.059013419 -0.12047486 0.063437939 2.3509883e-38
-0.057258181 -0.12047486 0.063437939 2.3509883e-38
-0.055301301 -0.11965488 0.066504538 2.3509883e-38
-0.053551428 -0.11965488 0.066504538 2.3509883e-38
-0.05180157 -0.11965488 0.066504538 2.3509521e-38
-0.050051697 -0.11965488 0.066504538 2.350952e-38
-0.048301831 -0.11965488 0.066504538 2.3509161e-38
-0.046726711 -0.12047486 0.063437939 2.350952e-38
-0.044971459 -0.12047486 0.063437939 2.350988e-38
-0.043216221 -0.12047486 0.063437939 2.3509883e-38
-0.041460969 -0.12047486 0.063437939 2.350988e-38
-0.039854921 -0.12127317 0.060452223 2.3509521e-38
-0.038239263 -0.12207626 0.057448745 2.3509521e-38
-0.03647352 -0.12207626 0.057448745 2.3509521e-38
-0.034974225 -0.12366976 0.051489115 2.3509521e-38
-0.033198029 -0.12366976 0.051489115 2.3509521e-38
-0.031421833 -0.12366976 0.051489115 2.3509524e-38
-0.029766258 -0.1244873 0.048431635 2.3509524e-38
-0.027984701 -0.1244873 0.048431635 2.3509527e-38
-0.026203144 -0.1244873 0.048431635 2.3509886e-38
-0.024421588 -0.1244873 0.048431635 2.341805e-38
-0.022640035 -0.1244873 0.048431635 2.341805e-38
-0.020949703 -0.12528224 0.045458555 2.341805e-38
-0.01924945 -0.12608187 0.042467952 2.341805e-38
-0.017539192 -0.12688623 0.039459705 2.3509886e-38
-0.015741907 -0.12688623 0.039459705 2.3509886e-38
-0.014016241 -0.12769531 0.036433816 2.3509886e-38
-0.012213647 -0.12769531 0.036433816 2.3509886e-38
-0.010411058 -0.12769531 0.036433816 2.3509886e-38
-0.0086625665 -0.12848105 0.033495188 2.3509886e-38
-0.006854821 -0.12848105 0.033495188 2.3509886e-38
-0.0051513053 -0.13035102 0.026501538 2.3509886e-38
-0.0033312961 -0.13035102 0.026501538 2.3509886e-38
-0.0015112907 -0.13035102 0.026501538 2.3509886e-38
0.00027982518 -0.13115202 0.023505809 2.3325494e-38
0.002105087 -0.13115202 0.023505809 2.3509886e-38
0.0039118547 -0.13195769 0.020492675 2.1020604e-38
0.0057423972 -0.13195769 0.020492675 4.6097815e-40
0.0075729396 -0.13195769 0.020492675 9.219563e-41
0.0094008241 -0.13276802 0.017462136 2.7550929e-40
0.011236681 -0.13276802 0.017462136 1.1938783e-39
0.013080265 -0.13355388 0.014523031 8.1074547e-39
0.014939047 -0.134638 0.010468485 8.1092119e-39
0.016787166 -0.134638 0.010468485 1.2996296e-38
0.018658783 -0.13543437 0.0074900407 1.1888546e-38
0.020512123 -0.13543437 0.0074900407 3.1299837e-39
0.022365464 -0.13543437 0.0074900407 7.3470078e-40
0.024258193 -0.13623528 0.0044946689 5.1593665e-39
0.026116785 -0.13623528 0.0044946689 8.9415201e-39
0.028025554 -0.13704078 0.0014822502 1.1063087e-38
0.029889429 -0.13704078 0.0014822502 1.115493e-38
0.03183483 -0.13812189 -0.0025610905 3.5949107e-39
0.033705793 -0.13812189 -0.0025610905 1.8425071e-39
0.035576753 -0.13812189 -0.0025610905 1.1971377e-39
0.037447721 -0.13812189 -0.0025610905 5.4395394e-39
0.039318681 -0.13812189 -0.0025610905 6.7306327e-39
0.041189644 -0.13812189 -0.0025610905 5.8072597e-39
0.04324498 -0.13972856 -0.008569954 4.6994814e-39
0.045126479 -0.13972856 -0.008569954 4.3306961e-39
0.047007978 -0.13972856 -0.008569954 1.1042064e-39
0.049033441 -0.14079951 -0.012575267 6.5430269e-39
0.050921962 -0.14079951 -0.012575267 8.8479148e-39
0.052810483 -0.14079951 -0.012575267 8.939386e-39
0.054699004 -0.14079951 -0.012575267 5.7128949e-39
0.056587528 -0.14079951 -0.012575267 4.238841e-39
0.058609951 -0.1416003 -0.015570162 4.5917888e-40
0.060503721 -0.1416003 -0.015570162 2.7550649e-40
0.062587544 -0.1426542 -0.019511698 4.8856495e-39
0.064639822 -0.14346536 -0.022545336 1.2537887e-38
0.066697523 -0.14424954 -0.025478242 2.2034756e-38
0.068823338 -0.14532293 -0.029492615 2.341805e-38
0.070741519 -0.14532293 -0.029492615 2.2404257e-38
0.072659701 -0.14532293 -0.029492615 2.1666689e-38
0.074759364 -0.14614908 -0.032582402 2.0744733e-38
0.07668297 -0.14614908 -0.032582402 2.0560342e-38
0.078852236 -0.14720438 -0.036529183 2.1666689e-38
0.080782756 -0.14720438 -0.036529183 2.2588645e-38
0.082974657 -0.14826734 -0.040504575 2.2588645e-38
0.084912151 -0.14826734 -0.040504575 2.2312058e-38
0.087059543 -0.14907773 -0.043535352 2.2404254e-38
0.089002341 -0.14907773 -0.043535352 2.2404254e-38
0.090945154 -0.14907773 -0.043535352 2.2127667e-38
0.092887953 -0.14907773 -0.043535352 2.1297907e-38
-0.11668242 -0.14161004 -0.008569954 2.2679758e-38
-0.11444301 -0.14078392 -0.005500434 2.3509527e-38
-0.11222934 -0.13999285 -0.0025610905 2.3416974e-38
-0.10990111 -0.13890465 0.0014822502 2.3233662e-38
-0.10803724 -0.13890465 0.0014822502 2.2867037e-38
-0.10584325 -0.13809387 0.0044946689 4.3371617e-39
-0.10366168 -0.13728772 0.0074900407 1.6624066e-39
-0.10149238 -0.13648613 0.010468485 7.3778112e-39
-0.099644266 -0.13648613 0.010468485 6.8228395e-39
-0.097078808 -0.13460387 0.017462136 4.0573266e-39
-0.094937421 -0.13378824 0.020492675 6.2696658e-39
-0.092808388 -0.13297729 0.023505809 7.652603e-39
-0.090691619 -0.13217102 0.026501538 3.781111e-39
-0.088495858 -0.13111271 0.030433776 3.3190567e-39
-0.086395584 -0.13028879 0.033495188 4.7016282e-39
-0.084587835 -0.13028879 0.033495188 7.0972726e-39
-0.082514741 -0.1294979 0.036433816 4.9746081e-39
-0.080444224 -0.12868352 0.039459705 4.9728019e-39
-0.078385852 -0.12787388 0.042467952 4.6022117e-39
-0.076593839 -0.12787388 0.042467952 3.4962215e-39
-0.074552767 -0.12706901 0.045458555 1.9310565e-39
-0.072523601 -0.12626885 0.048431635 8.4773036e-39
-0.070498131 -0.12544595 0.051489115 1.9726251e-38
-0.068721928 -0.12544595 0.051489115 2.3507715e-38
-0.066713952 -0.12462802 0.054528236 2.3509517e-38
-0.064725451 -0.12384202 0.057448745 2.2955624e-38
-0.062741168 -0.12303366 0.060452223 2.3140737e-38
-0.060768671 -0.1222301 0.063437939 2.3509883e-38
-0.059013419 -0.1222301 0.063437939 2.3509886e-38
-0.057258181 -0.1222301 0.063437939 2.3509886e-38
-0.055301301 -0.12140475 0.066504538 2.3509886e-38
-0.053551428 -0.12140475 0.066504538 2.3509527e-38
-0.05180157 -0.12140475 0.066504538 2.3509524e-38
-0.050051697 -0.12140475 0.066504538 2.3509165e-38
-0.048301831 -0.12140475 0.066504538 2.3509521e-38
-0.046726711 -0.1222301 0.063437939 2.3509524e-38
-0.044971459 -0.1222301 0.063437939 2.3509883e-38
