# .PCD v0.7 - Point Cloud Data file format
VERSION 0.7
FIELDS x y z rgb
SIZE 4 4 4 4
TYPE F F F F
COUNT 1 1 1 1
WIDTH 924
HEIGHT 1
VIEWPOINT 0 0 0 1 0 0 0
POINTS 924
DATA ascii
0.023747914 -0.090996325 -0.011628963 2.3234379e-38
0.025602231 -0.091685757 -0.014642097 2.3234379e-38
0.027398434 -0.090996325 -0.011628963 2.3234379e-38
0.029184299 -0.090310872 -0.0086332336 2.3234379e-38
0.031004306 -0.090310872 -0.0086332336 2.3234379e-38
0.032824311 -0.090310872 -0.0086332336 2.3234379e-38
0.034644321 -0.090310872 -0.0086332336 2.3142544e-38
0.036385037 -0.089411139 -0.004700996 2.3142544e-38
0.038198151 -0.089411139 -0.004700996 2.3142544e-38
0.040011264 -0.089411139 -0.004700996 2.3142544e-38
0.041824378 -0.089411139 -0.004700996 2.3142544e-38
0.043637488 -0.089411139 -0.004700996 2.3050708e-38
0.045450598 -0.089411139 -0.004700996 2.2958873e-38
0.047169778 -0.088710666 -0.0016395822 2.3142544e-38
0.04897752 -0.088710666 -0.0016395822 2.341805e-38
0.050785266 -0.088710666 -0.0016395822 2.3509527e-38
0.052593011 -0.088710666 -0.0016395822 2.3509168e-38
0.054400757 -0.088710666 -0.0016395822 2.3509168e-38
0.056092571 -0.088038266 0.001299046 2.3509165e-38
0.057895165 -0.088038266 0.001299046 2.3509524e-38
0.059955496 -0.089411139 -0.004700996 2.3140384e-38
0.061631735 -0.088710666 -0.0016395822 2.2865602e-38
0.063302942 -0.088038266 0.001299046 2.2775202e-38
0.065105528 -0.088038266 0.001299046 2.2224189e-38
0.066756919 -0.087345913 0.0043249354 2.158134e-38
0.068554208 -0.087345913 0.0043249354 1.4485219e-38
0.070351496 -0.087345913 0.0043249354 9.3237187e-39
0.071817465 -0.085973322 0.010323785 9.6950446e-39
0.073604234 -0.085973322 0.010323785 6.1044849e-39
-0.10930891 -0.10343929 -0.057680108 6.3705943e-39
-0.1074029 -0.10343929 -0.057680108 3.0544509e-39
-0.10549689 -0.10343929 -0.057680108 3.1498947e-39
-0.1035909 -0.10343929 -0.057680108 2.5988832e-39
-0.10168489 -0.10343929 -0.057680108 2.0464353e-39
-0.10009 -0.1041155 -0.060613014 1.6780157e-39
-0.098178856 -0.1041155 -0.060613014 1.5872606e-39
-0.096679471 -0.10504107 -0.064627387 2.6943228e-39
-0.095072784 -0.10575347 -0.067717172 4.4474719e-39
-0.093540169 -0.10666345 -0.071663953 5.9236698e-39
-0.091996484 -0.10758002 -0.075639345 9.335257e-39
-0.090059005 -0.10758002 -0.075639345 1.1916723e-38
-0.087378375 -0.10575347 -0.067717172 1.3391479e-38
-0.085170366 -0.10504107 -0.064627387 1.4589646e-38
-0.083252184 -0.10504107 -0.064627387 1.523357e-38
-0.081334002 -0.10504107 -0.064627387 1.5141017e-38
-0.07238742 -0.086369663 0.016354345 1.5047747e-38
-0.070611216 -0.086369663 0.016354345 1.3387159e-38
-0.068835028 -0.086369663 0.016354345 1.3570483e-38
-0.067058824 -0.086369663 0.016354345 1.2461251e-38
-0.069594584 -0.098831654 -0.037695862 1.3932043e-38
-0.06772361 -0.098831654 -0.037695862 1.8169424e-38
-0.06554427 -0.097899407 -0.033652522 2.1945095e-38
-0.063680388 -0.097899407 -0.033652522 2.3048556e-38
-0.061816521 -0.097899407 -0.033652522 2.3324055e-38
-0.059952639 -0.097899407 -0.033652522 2.3509524e-38
-0.058088772 -0.097899407 -0.033652522 2.3141103e-38
-0.05622489 -0.097899407 -0.033652522 2.2865961e-38
-0.054361023 -0.097899407 -0.033652522 2.286632e-38
-0.052497156 -0.097899407 -0.033652522 2.3049991e-38
-0.050633274 -0.097899407 -0.033652522 2.3325138e-38
-0.048769407 -0.097899407 -0.033652522 2.3508808e-38
-0.046905525 -0.097899407 -0.033652522 2.3508084e-38
-0.045041658 -0.097899407 -0.033652522 2.3508439e-38
-0.043177776 -0.097899407 -0.033652522 2.350988e-38
-0.041313909 -0.097899407 -0.033652522 2.3234374e-38
-0.039294221 -0.097204864 -0.030640103 2.3234374e-38
-0.037435628 -0.097204864 -0.030640103 2.3234374e-38
-0.035577036 -0.097204864 -0.030640103 2.3234374e-38
-0.033718444 -0.097204864 -0.030640103 2.3234374e-38
-0.031725928 -0.09651424 -0.027644731 2.3234376e-38
-0.029872589 -0.09651424 -0.027644731 2.3234376e-38
-0.027896531 -0.09582752 -0.024666287 2.3418047e-38
-0.026048407 -0.09582752 -0.024666287 2.3418047e-38
-0.02420029 -0.09582752 -0.024666287 2.3418047e-38
-0.02235217 -0.09582752 -0.024666287 2.3418047e-38
-0.020365428 -0.094892681 -0.020611741 2.341805e-38
-0.01852442 -0.094892681 -0.020611741 2.341805e-38
-0.017083544 -0.097899407 -0.033652522 2.3509886e-38
-0.015219674 -0.097899407 -0.033652522 2.341805e-38
-0.01346568 -0.098831654 -0.037695862 2.3142544e-38
-0.01159472 -0.098831654 -0.037695862 2.2958873e-38
-0.0097237527 -0.098831654 -0.037695862 2.3142544e-38
-0.0078527927 -0.098831654 -0.037695862 2.3142544e-38
-0.005900301 -0.097899407 -0.033652522 2.3234379e-38
-0.0039809681 -0.097204864 -0.030640103 2.3234379e-38
-0.0021223761 -0.097204864 -0.030640103 2.3418047e-38
-0.00021914393 -0.09651424 -0.027644731 2.3418047e-38
0.0016341954 -0.09651424 -0.027644731 2.3326208e-38
0.0035214797 -0.09582752 -0.024666287 2.3142537e-38
0.0053695999 -0.09582752 -0.024666287 2.3234376e-38
0.0072177164 -0.09582752 -0.024666287 2.3142541e-38
0.0090658348 -0.09582752 -0.024666287 2.3142544e-38
0.010931727 -0.094892681 -0.020611741 2.2958873e-38
0.012772735 -0.094892681 -0.020611741 2.2958873e-38
0.01461632 -0.094215035 -0.017672636 2.2958873e-38
0.016449519 -0.093516305 -0.014642097 2.3234379e-38
0.018280061 -0.093516305 -0.014642097 2.3234376e-38
0.020110603 -0.093516305 -0.014642097 2.3418047e-38
0.021922655 -0.092821583 -0.011628963 2.3142539e-38
0.023747914 -0.092821583 -0.011628963 2.3234376e-38
0.025602231 -0.093516305 -0.014642097 2.3234376e-38
0.027398434 -0.092821583 -0.011628963 2.3234376e-38
0.029184299 -0.092130885 -0.0086332336 2.3142544e-38
0.030945703 -0.091224253 -0.004700996 2.3234379e-38
0.032758813 -0.091224253 -0.004700996 2.295887e-38
0.034644321 -0.092130885 -0.0086332336 2.2682283e-38
0.036385037 -0.091224253 -0.004700996 2.2498971e-38
0.038198151 -0.091224253 -0.004700996 2.2774481e-38
0.0399388 -0.0905184 -0.0016395822 2.2775202e-38
0.041746542 -0.0905184 -0.0016395822 2.3050708e-38
0.043554291 -0.0905184 -0.0016395822 2.3050708e-38
0.045450598 -0.091224253 -0.004700996 2.3325856e-38
0.047169778 -0.0905184 -0.0016395822 2.3417333e-38
0.04897752 -0.0905184 -0.0016395822 2.3416615e-38
0.050785266 -0.0905184 -0.0016395822 2.3508451e-38
0.052593011 -0.0905184 -0.0016395822 2.3508451e-38
0.054400757 -0.0905184 -0.0016395822 2.3508809e-38
0.056329273 -0.091224253 -0.004700996 2.3509527e-38
0.058142386 -0.091224253 -0.004700996 2.3509527e-38
0.059955496 -0.091224253 -0.004700996 2.3233662e-38
0.06176861 -0.091224253 -0.004700996 2.2867037e-38
0.06358172 -0.091224253 -0.004700996 1.8353078e-38
0.065105528 -0.089840859 0.001299046 7.2917813e-39
0.066756919 -0.089143202 0.0043249354 4.0678363e-39
0.068554208 -0.089143202 0.0043249354 3.9774582e-39
0.070351496 -0.089143202 0.0043249354 3.4257417e-39
0.071817465 -0.087760091 0.010323785 2.1375407e-39
0.073604234 -0.087760091 0.010323785 1.2177648e-39
-0.10930891 -0.10534529 -0.057680108 5.7266794e-39
-0.1074029 -0.10534529 -0.057680108 3.0555411e-39
-0.10549689 -0.10534529 -0.057680108 3.5197563e-39
-0.1035909 -0.10534529 -0.057680108 3.5208395e-39
-0.10168489 -0.10534529 -0.057680108 3.3371741e-39
-0.10009 -0.10602666 -0.060613014 3.1531472e-39
-0.098178856 -0.10602666 -0.060613014 3.3389803e-39
-0.096267708 -0.10602666 -0.060613014 4.6304352e-39
-0.094356574 -0.10602666 -0.060613014 6.2910314e-39
-0.092445426 -0.10602666 -0.060613014 7.5821219e-39
-0.090534277 -0.10602666 -0.060613014 9.9799159e-39
-0.089301981 -0.10767709 -0.067717172 1.2008566e-38
-0.087378375 -0.10767709 -0.067717172 1.3022344e-38
-0.085170366 -0.10695927 -0.064627387 1.4312704e-38
-0.083252184 -0.10695927 -0.064627387 1.54176e-38
-0.081334002 -0.10695927 -0.064627387 1.5786018e-38
-0.07238742 -0.088145852 0.016354345 1.5784942e-38
-0.070611216 -0.088145852 0.016354345 1.4124726e-38
-0.068835028 -0.088145852 0.016354345 1.4400952e-38
-0.067058824 -0.088145852 0.016354345 1.4398078e-38
-0.069272019 -0.099763289 -0.033652522 1.467105e-38
-0.067408137 -0.099763289 -0.033652522 1.6234757e-38
-0.06554427 -0.099763289 -0.033652522 1.9641656e-38
-0.063455917 -0.099063456 -0.030640103 2.2681572e-38
-0.061597325 -0.099063456 -0.030640103 2.341805e-38
-0.059952639 -0.099763289 -0.033652522 2.3509886e-38
-0.058088772 -0.099763289 -0.033652522 2.3234379e-38
-0.056021549 -0.099063456 -0.030640103 2.3142544e-38
-0.054162957 -0.099063456 -0.030640103 2.3142544e-38
-0.052304365 -0.099063456 -0.030640103 2.3234379e-38
-0.050445773 -0.099063456 -0.030640103 2.3509527e-38
-0.048587181 -0.099063456 -0.030640103 2.3508802e-38
-0.046728589 -0.099063456 -0.030640103 2.3507358e-38
-0.044869997 -0.099063456 -0.030640103 2.3507353e-38
-0.043011405 -0.099063456 -0.030640103 2.3509876e-38
-0.041152813 -0.099063456 -0.030640103 2.3234372e-38
-0.039294221 -0.099063456 -0.030640103 2.3234372e-38
-0.037435628 -0.099063456 -0.030640103 2.3234372e-38
-0.035577036 -0.099063456 -0.030640103 2.3418043e-38
-0.033718444 -0.099063456 -0.030640103 2.3418043e-38
-0.031725928 -0.098367572 -0.027644731 2.3418043e-38
-0.029744647 -0.097675636 -0.024666287 2.3418043e-38
-0.027896531 -0.097675636 -0.024666287 2.3509879e-38
-0.025888454 -0.096733689 -0.020611741 2.3509879e-38
-0.024047446 -0.096733689 -0.020611741 2.3509879e-38
-0.022206437 -0.096733689 -0.020611741 2.3509879e-38
-0.020264938 -0.096050888 -0.017672636 2.3509879e-38
-0.018429086 -0.096050888 -0.017672636 2.3509879e-38
-0.017083544 -0.099763289 -0.033652522 2.3509879e-38
-0.015219674 -0.099763289 -0.033652522 2.350988e-38
-0.01346568 -0.10070263 -0.037695862 2.3234379e-38
-0.01159472 -0.10070263 -0.037695862 2.3142544e-38
-0.0097237527 -0.10070263 -0.037695862 2.3234379e-38
-0.0078527927 -0.10070263 -0.037695862 2.3234379e-38
-0.005900301 -0.099763289 -0.033652522 2.3418047e-38
-0.0039809681 -0.099063456 -0.030640103 2.3418045e-38
-0.0020724833 -0.098367572 -0.027644731 2.3509879e-38
-0.00017475337 -0.097675636 -0.024666287 2.3509879e-38
0.0016733631 -0.097675636 -0.024666287 2.3418042e-38
0.0035214797 -0.097675636 -0.024666287 2.3418042e-38
0.0053695999 -0.097675636 -0.024666287 2.3418042e-38
0.0072497074 -0.096733689 -0.020611741 2.3418043e-38
0.009090716 -0.096733689 -0.020611741 2.3418045e-38
0.010931727 -0.096733689 -0.020611741 2.3234374e-38
0.012772735 -0.096733689 -0.020611741 2.3234374e-38
0.01461632 -0.096050888 -0.017672636 2.3234374e-38
0.016449519 -0.095346853 -0.014642097 2.3418045e-38
0.018280061 -0.095346853 -0.014642097 2.3418045e-38
0.020110603 -0.095346853 -0.014642097 2.350988e-38
0.021922655 -0.094646841 -0.011628963 2.3418045e-38
0.023747914 -0.094646841 -0.011628963 2.3418045e-38
0.025573175 -0.094646841 -0.011628963 2.3418045e-38
0.027398434 -0.094646841 -0.011628963 2.3418045e-38
0.029184299 -0.093950883 -0.0086332336 2.3234376e-38
0.030945703 -0.093037367 -0.004700996 2.3418047e-38
0.032758813 -0.093037367 -0.004700996 2.3234376e-38
0.034571927 -0.093037367 -0.004700996 2.3234376e-38
0.036385037 -0.093037367 -0.004700996 2.3142541e-38
0.038198151 -0.093037367 -0.004700996 2.3234379e-38
0.0399388 -0.092326149 -0.0016395822 2.3142544e-38
0.041746542 -0.092326149 -0.0016395822 2.3142542e-38
0.043554291 -0.092326149 -0.0016395822 2.3141466e-38
0.045450598 -0.093037367 -0.004700996 2.3509527e-38
0.047169778 -0.092326149 -0.0016395822 2.3509168e-38
0.04897752 -0.092326149 -0.0016395822 2.3509168e-38
0.050785266 -0.092326149 -0.0016395822 2.3508809e-38
0.052593011 -0.092326149 -0.0016395822 2.3509168e-38
0.054400757 -0.092326149 -0.0016395822 2.3509168e-38
0.056329273 -0.093037367 -0.004700996 2.3509527e-38
0.058142386 -0.093037367 -0.004700996 2.341805e-38
0.059955496 -0.093037367 -0.004700996 2.2958873e-38
0.06176861 -0.093037367 -0.004700996 2.0012232e-38
0.063764423 -0.093950883 -0.0086332336 1.4575586e-38
0.065105528 -0.091643453 0.001299046 5.5425951e-39
0.066908121 -0.091643453 0.001299046 3.6090288e-39
0.068710715 -0.091643453 0.001299046 6.3770809e-39
-0.10773458 -0.1079378 -0.060613014 3.2410198e-39
-0.10549689 -0.1072513 -0.057680108 3.2435323e-39
-0.1035909 -0.1072513 -0.057680108 3.9825379e-39
-0.10168489 -0.1072513 -0.057680108 5.1814468e-39
-0.099778883 -0.1072513 -0.057680108 6.3799942e-39
-0.097872891 -0.1072513 -0.057680108 7.6714589e-39
-0.095966883 -0.1072513 -0.057680108 9.3313404e-39
-0.094356574 -0.1079378 -0.060613014 1.0807171e-38
-0.092445426 -0.1079378 -0.060613014 1.1729472e-38
-0.090534277 -0.1079378 -0.060613014 1.283652e-38
-0.089301981 -0.10960068 -0.067717172 1.3758821e-38
-0.087378375 -0.10960068 -0.067717172 1.3666627e-38
-0.085170366 -0.10887744 -0.064627387 1.4311628e-38
-0.083252184 -0.10887744 -0.064627387 1.495627e-38
-0.08097855 -0.1079378 -0.060613014 1.4956629e-38
-0.07238742 -0.089922056 0.016354345 1.51403e-38
-0.070611216 -0.089922056 0.016354345 1.3940697e-38
-0.068835028 -0.089922056 0.016354345 1.4678252e-38
-0.067058824 -0.089922056 0.016354345 1.5874984e-38
-0.069031693 -0.10092205 -0.030640103 1.6332009e-38
-0.067173101 -0.10092205 -0.030640103 1.6421308e-38
-0.065314509 -0.10092205 -0.030640103 1.8906615e-38
-0.063455917 -0.10092205 -0.030640103 2.2499695e-38
-0.061597325 -0.10092205 -0.030640103 2.2867037e-38
-0.059738733 -0.10092205 -0.030640103 2.2406422e-38
-0.057880141 -0.10092205 -0.030640103 2.2314947e-38
-0.056021549 -0.10092205 -0.030640103 2.2315307e-38
-0.054162957 -0.10092205 -0.030640103 2.2591531e-38
-0.052304365 -0.10092205 -0.030640103 2.2958873e-38
-0.050445773 -0.10092205 -0.030640103 2.3234379e-38
-0.048587181 -0.10092205 -0.030640103 2.3509883e-38
-0.046728589 -0.10092205 -0.030640103 2.3509158e-38
-0.044869997 -0.10092205 -0.030640103 2.3509517e-38
-0.043011405 -0.10092205 -0.030640103 2.3509879e-38
-0.041152813 -0.10092205 -0.030640103 2.3142538e-38
-0.039294221 -0.10092205 -0.030640103 2.3234374e-38
-0.037435628 -0.10092205 -0.030640103 2.3234374e-38
-0.035577036 -0.10092205 -0.030640103 2.3234374e-38
-0.033579268 -0.10022092 -0.027644731 2.3418045e-38
-0.031725928 -0.10022092 -0.027644731 2.3418045e-38
-0.029744647 -0.099523753 -0.024666287 2.3418045e-38
-0.027896531 -0.099523753 -0.024666287 2.3418045e-38
-0.025888454 -0.098574698 -0.020611741 2.350988e-38
-0.024047446 -0.098574698 -0.020611741 2.350988e-38
-0.022206437 -0.098574698 -0.020611741 2.3509879e-38
-0.020161327 -0.097177386 -0.014642097 2.350988e-38
-0.018330783 -0.097177386 -0.014642097 2.3509879e-38
-0.016807817 -0.099523753 -0.024666287 2.350988e-38
-0.015132524 -0.10092205 -0.030640103 2.350988e-38
-0.01346568 -0.10257359 -0.037695862 2.341805e-38
-0.01159472 -0.10257359 -0.037695862 2.341805e-38
-0.0097237527 -0.10257359 -0.037695862 2.3509886e-38
-0.0078527927 -0.10257359 -0.037695862 2.3509886e-38
-0.005900301 -0.10162716 -0.033652522 2.3509883e-38
-0.0039809681 -0.10092205 -0.030640103 2.350988e-38
-0.0020724833 -0.10022092 -0.027644731 2.3509879e-38
-0.00017475337 -0.099523753 -0.024666287 2.3509876e-38
0.0016733631 -0.099523753 -0.024666287 2.3509876e-38
0.0035214797 -0.099523753 -0.024666287 2.3509876e-38
0.0053695999 -0.099523753 -0.024666287 2.3509876e-38
0.0072497074 -0.098574698 -0.020611741 2.3418039e-38
0.009090716 -0.098574698 -0.020611741 2.3418042e-38
0.010931727 -0.098574698 -0.020611741 2.3326206e-38
0.012772735 -0.098574698 -0.020611741 2.3234369e-38
0.01461632 -0.097886756 -0.017672636 2.3234012e-38
0.016449519 -0.097177386 -0.014642097 2.3509886e-38
0.018280061 -0.097177386 -0.014642097 2.3509886e-38
0.020110603 -0.097177386 -0.014642097 2.3509527e-38
0.021922655 -0.096472099 -0.011628963 2.3509886e-38
0.023747914 -0.096472099 -0.011628963 2.3509168e-38
0.025573175 -0.096472099 -0.011628963 2.3325497e-38
0.027398434 -0.096472099 -0.011628963 2.314075e-38
0.029184299 -0.095770895 -0.0086332336 2.2957078e-38
0.030945703 -0.094850481 -0.004700996 2.3048554e-38
0.032758813 -0.094850481 -0.004700996 2.3233662e-38
0.034571927 -0.094850481 -0.004700996 2.341805e-38
0.036385037 -0.094850481 -0.004700996 2.341805e-38
0.038198151 -0.094850481 -0.004700996 2.341805e-38
0.0399388 -0.094133899 -0.0016395822 2.2681214e-38
0.041746542 -0.094133899 -0.0016395822 2.1942571e-38
0.043554291 -0.094133899 -0.0016395822 2.1297205e-38
0.045450598 -0.094850481 -0.004700996 2.1664908e-38
0.047263712 -0.094850481 -0.004700996 2.2032612e-38
0.049076825 -0.094850481 -0.004700996 2.2401394e-38
0.050889935 -0.094850481 -0.004700996 2.267906e-38
0.052703049 -0.094850481 -0.004700996 2.3140033e-38
0.054516159 -0.094850481 -0.004700996 2.3325138e-38
0.056484401 -0.095770895 -0.0086332336 2.3417691e-38
0.058304407 -0.095770895 -0.0086332336 2.2958873e-38
0.060124412 -0.095770895 -0.0086332336 1.8997357e-38
0.061944421 -0.095770895 -0.0086332336 6.830066e-39
0.063764423 -0.095770895 -0.0086332336 3.6983139e-39
0.065584436 -0.095770895 -0.0086332336 4.8986774e-39
0.067404442 -0.095770895 -0.0086332336 6.9295274e-39
0.069224447 -0.095770895 -0.0086332336 7.4848816e-39
-0.1074029 -0.10915731 -0.057680108 4.3477345e-39
-0.10549689 -0.10915731 -0.057680108 4.3502442e-39
-0.1035909 -0.10915731 -0.057680108 5.2732767e-39
-0.10168489 -0.10915731 -0.057680108 6.4721884e-39
-0.099778883 -0.10915731 -0.057680108 7.6703799e-39
-0.097872891 -0.10915731 -0.057680108 8.869649e-39
-0.095966883 -0.10915731 -0.057680108 1.0436959e-38
-0.094060875 -0.10915731 -0.057680108 1.1359619e-38
-0.092154883 -0.10915731 -0.057680108 1.163656e-38
-0.085476123 -0.097590908 -0.0086332336 1.2558861e-38
-0.083656125 -0.097590908 -0.0086332336 1.2835803e-38
-0.081836112 -0.097590908 -0.0086332336 1.2190443e-38
-0.080016099 -0.097590908 -0.0086332336 1.2559579e-38
-0.082889698 -0.10984896 -0.060613014 1.2835443e-38
-0.08097855 -0.10984896 -0.060613014 1.2651406e-38
-0.072910808 -0.093120396 0.010323785 1.3572639e-38
-0.07112404 -0.093120396 0.010323785 1.3203858e-38
-0.069337271 -0.093120396 0.010323785 1.3388602e-38
-0.067550503 -0.093120396 0.010323785 1.4769728e-38
-0.069031693 -0.10278064 -0.030640103 1.5873543e-38
-0.067173101 -0.10278064 -0.030640103 1.6607857e-38
-0.065086044 -0.10207425 -0.027644731 1.8633986e-38
-0.063010775 -0.10137187 -0.024666287 2.1120728e-38
-0.061162643 -0.10137187 -0.024666287 2.1580981e-38
-0.059526034 -0.10207425 -0.027644731 2.0658672e-38
-0.057672687 -0.10207425 -0.027644731 2.0014021e-38
-0.056021549 -0.10278064 -0.030640103 2.0290251e-38
-0.054162957 -0.10278064 -0.030640103 2.0751229e-38
-0.052112676 -0.10207425 -0.027644731 2.1211846e-38
-0.050259329 -0.10207425 -0.027644731 2.1947965e-38
-0.048587181 -0.10278064 -0.030640103 2.2499336e-38
-0.046552651 -0.10207425 -0.027644731 2.295887e-38
-0.044699304 -0.10207425 -0.027644731 2.3050347e-38
-0.043011405 -0.10278064 -0.030640103 2.3142544e-38
-0.041152813 -0.10278064 -0.030640103 2.2958873e-38
-0.039294221 -0.10278064 -0.030640103 2.3142544e-38
-0.037435628 -0.10278064 -0.030640103 2.3142544e-38
-0.035577036 -0.10278064 -0.030640103 2.3142544e-38
-0.033579268 -0.10207425 -0.027644731 2.3234379e-38
-0.031725928 -0.10207425 -0.027644731 2.3234379e-38
-0.029744647 -0.10137187 -0.024666287 2.3234379e-38
-0.027608365 -0.099722609 -0.017672636 2.3234379e-38
-0.025772508 -0.099722609 -0.017672636 2.341805e-38
-0.023936652 -0.099722609 -0.017672636 2.341805e-38
-0.022100795 -0.099722609 -0.017672636 2.341805e-38
-0.020161327 -0.099007934 -0.014642097 2.3509886e-38
-0.018330783 -0.099007934 -0.014642097 2.3509886e-38
-0.016807817 -0.10137187 -0.024666287 2.3509886e-38
-0.0149597 -0.10137187 -0.024666287 2.3509886e-38
-0.013355799 -0.10349102 -0.033652522 2.3509886e-38
-0.011491925 -0.10349102 -0.033652522 2.3509886e-38
-0.00962805 -0.10349102 -0.033652522 2.3509527e-38
-0.0077641755 -0.10349102 -0.033652522 2.3509527e-38
-0.005900301 -0.10349102 -0.033652522 2.3509524e-38
-0.0039258227 -0.10207425 -0.027644731 2.3509521e-38
-0.0020724833 -0.10207425 -0.027644731 2.350952e-38
-0.00017475337 -0.10137187 -0.024666287 2.3509517e-38
0.0016733631 -0.10137187 -0.024666287 2.3509517e-38
0.0035214797 -0.10137187 -0.024666287 2.3509873e-38
0.0054086987 -0.10041572 -0.020611741 2.3509873e-38
0.0072497074 -0.10041572 -0.020611741 2.3509513e-38
0.009090716 -0.10041572 -0.020611741 2.3509516e-38
0.010931727 -0.10041572 -0.020611741 2.3417679e-38
0.012780465 -0.099722609 -0.017672636 2.3325127e-38
0.01461632 -0.099722609 -0.017672636 2.3324775e-38
0.016449519 -0.099007934 -0.014642097 2.3231868e-38
0.018280061 -0.099007934 -0.014642097 2.3323703e-38
0.020097397 -0.098297372 -0.011628963 2.3507016e-38
0.021922655 -0.098297372 -0.011628963 2.3231509e-38
0.023747914 -0.098297372 -0.011628963 2.3230433e-38
0.025573175 -0.098297372 -0.011628963 2.2678344e-38
0.027398434 -0.098297372 -0.011628963 2.2401761e-38
0.02913259 -0.096663594 -0.004700996 2.2033343e-38
0.030900076 -0.095941633 -0.0016395822 2.1018835e-38
0.032707822 -0.095941633 -0.0016395822 2.1111391e-38
0.034515567 -0.095941633 -0.0016395822 2.1387981e-38
0.036323309 -0.095941633 -0.0016395822 2.1572372e-38
0.038131054 -0.095941633 -0.0016395822 2.1387981e-38
0.0399388 -0.095941633 -0.0016395822 2.0742974e-38
0.041746542 -0.095941633 -0.0016395822 2.0005049e-38
0.043554291 -0.095941633 -0.0016395822 1.9267844e-38
0.045450598 -0.096663594 -0.004700996 1.9175648e-38
0.047384366 -0.097590908 -0.0086332336 1.9636983e-38
0.049204372 -0.097590908 -0.0086332336 2.0282352e-38
0.051024381 -0.097590908 -0.0086332336 2.0836602e-38
0.052844387 -0.097590908 -0.0086332336 2.1574166e-38
0.054664392 -0.097590908 -0.0086332336 2.2035495e-38
0.056484401 -0.097590908 -0.0086332336 2.2128766e-38
0.058304407 -0.097590908 -0.0086332336 2.194653e-38
0.060124412 -0.097590908 -0.0086332336 1.7339292e-38
0.061944421 -0.097590908 -0.0086332336 9.2286084e-39
0.063764423 -0.097590908 -0.0086332336 8.6779709e-39
0.065584436 -0.097590908 -0.0086332336 8.3110087e-39
0.067404442 -0.097590908 -0.0086332336 9.1433155e-39
-0.1032246 -0.098476708 -0.004700996 8.1270364e-39
-0.10141148 -0.098476708 -0.004700996 1.0525566e-38
-0.09959837 -0.098476708 -0.004700996 8.9600257e-39
-0.1035909 -0.11106332 -0.057680108 9.0533003e-39
-0.10168489 -0.11106332 -0.057680108 8.8692762e-39
-0.099778883 -0.11106332 -0.057680108 8.4079449e-39
-0.091719978 -0.097051233 0.001299046 8.4075932e-39
-0.090936147 -0.099410906 -0.0086332336 8.7763757e-39
-0.089116134 -0.099410906 -0.0086332336 8.7763743e-39
-0.087296136 -0.099410906 -0.0086332336 8.5001406e-39
-0.085476123 -0.099410906 -0.0086332336 8.8692748e-39
-0.083656125 -0.099410906 -0.0086332336 9.1462106e-39
-0.081836112 -0.099410906 -0.0086332336 8.6855828e-39
-0.080016099 -0.099410906 -0.0086332336 9.6078908e-39
-0.077299245 -0.097051233 0.001299046 9.9770265e-39
-0.075228728 -0.096332356 0.0043249354 1.0253968e-38
-0.07343144 -0.096332356 0.0043249354 1.2097162e-38
-0.071634166 -0.096332356 0.0043249354 1.2742884e-38
-0.069836877 -0.096332356 0.0043249354 1.2927624e-38
-0.068039589 -0.096332356 0.0043249354 1.3756298e-38
-0.0662423 -0.096332356 0.0043249354 1.5321814e-38
-0.06514924 -0.098476708 -0.004700996 1.7440492e-38
-0.063336127 -0.098476708 -0.004700996 1.9742837e-38
-0.063010775 -0.10322 -0.024666287 2.1030327e-38
-0.061162643 -0.10322 -0.024666287 2.1305834e-38
-0.059526034 -0.1039276 -0.027644731 2.1122163e-38
-0.057672687 -0.1039276 -0.027644731 2.057115e-38
-0.055819355 -0.1039276 -0.027644731 2.0662985e-38
-0.053966008 -0.1039276 -0.027644731 2.0938492e-38
-0.052112676 -0.1039276 -0.027644731 2.1213998e-38
-0.050259329 -0.1039276 -0.027644731 2.1489505e-38
-0.048587181 -0.10463922 -0.030640103 2.1673176e-38
-0.046552651 -0.1039276 -0.027644731 2.1948682e-38
-0.044699304 -0.1039276 -0.027644731 2.2132353e-38
-0.043011405 -0.10463922 -0.030640103 2.2316024e-38
-0.041152813 -0.10463922 -0.030640103 2.2499695e-38
-0.039294221 -0.10463922 -0.030640103 2.2499695e-38
-0.037435628 -0.10463922 -0.030640103 2.2499695e-38
-0.035577036 -0.10463922 -0.030640103 2.2499695e-38
-0.03344088 -0.10322 -0.024666287 2.2591531e-38
-0.031592764 -0.10322 -0.024666287 2.2591531e-38
-0.029570475 -0.10225673 -0.020611741 2.2775202e-38
-0.027483501 -0.10083848 -0.014642097 2.2775202e-38
-0.025652952 -0.10083848 -0.014642097 2.2775202e-38
-0.023107417 -0.096332356 0.0043249354 2.2867037e-38
-0.021310132 -0.096332356 0.0043249354 2.2867037e-38
-0.020058308 -0.10012263 -0.011628963 2.2958873e-38
-0.017617978 -0.095617667 0.0073331818 2.2958873e-38
-0.015825968 -0.095617667 0.0073331818 2.2958873e-38
-0.014033955 -0.095617667 0.0073331818 2.2958873e-38
-0.013355799 -0.10535492 -0.033652522 2.3142544e-38
-0.011491925 -0.10535492 -0.033652522 2.323402e-38
-0.00962805 -0.10535492 -0.033652522 2.3417691e-38
-0.0077641755 -0.10535492 -0.033652522 2.3417691e-38
-0.005900301 -0.10535492 -0.033652522 2.3509527e-38
-0.0039258227 -0.1039276 -0.027644731 2.3509527e-38
-0.0020228736 -0.10322 -0.024666287 2.3509527e-38
-0.00017475337 -0.10322 -0.024666287 2.3509527e-38
0.0017266795 -0.10225673 -0.020611741 2.3509527e-38
0.0035676882 -0.10225673 -0.020611741 2.3509883e-38
0.0054086987 -0.10225673 -0.020611741 2.3509886e-38
0.0072497074 -0.10225673 -0.020611741 2.3326213e-38
0.009090716 -0.10225673 -0.020611741 2.3234018e-38
0.010944609 -0.10155846 -0.017672636 2.2958154e-38
0.012780465 -0.10155846 -0.017672636 2.2865958e-38
0.01461632 -0.10155846 -0.017672636 2.2865602e-38
0.016449519 -0.10083848 -0.014642097 2.249539e-38
0.018280061 -0.10083848 -0.014642097 2.2587226e-38
0.020097397 -0.10012263 -0.011628963 2.267942e-38
0.021922655 -0.10012263 -0.011628963 2.2587226e-38
0.023747914 -0.10012263 -0.011628963 2.2218449e-38
0.025544286 -0.099410906 -0.0086332336 2.166636e-38
0.027319478 -0.098476708 -0.004700996 2.1205028e-38
0.029053688 -0.097051233 0.001299046 2.0928442e-38
0.030856282 -0.097051233 0.001299046 2.1112836e-38
0.032608472 -0.096332356 0.0043249354 2.0836968e-38
0.03440576 -0.096332356 0.0043249354 2.0836252e-38
0.036203045 -0.096332356 0.0043249354 2.0744416e-38
0.038066648 -0.097051233 0.001299046 2.065222e-38
0.039869241 -0.097051233 0.001299046 2.0376715e-38
0.041671835 -0.097051233 0.001299046 2.0375636e-38
0.043474428 -0.097051233 0.001299046 2.000793e-38
0.045277018 -0.097051233 0.001299046 2.0377429e-38
0.047263712 -0.098476708 -0.004700996 2.0746208e-38
0.049076825 -0.098476708 -0.004700996 2.12079e-38
0.051024381 -0.099410906 -0.0086332336 2.1853259e-38
0.052844387 -0.099410906 -0.0086332336 2.2130918e-38
0.054664392 -0.099410906 -0.0086332336 2.2315665e-38
0.056484401 -0.099410906 -0.0086332336 2.2132353e-38
0.05842784 -0.10012263 -0.011628963 2.1948682e-38
0.060253099 -0.10012263 -0.011628963 2.1673176e-38
0.06207836 -0.10012263 -0.011628963 1.9556654e-38
0.063903615 -0.10012263 -0.011628963 2.057115e-38
0.065728873 -0.10012263 -0.011628963 1.5780278e-38
0.067554139 -0.10012263 -0.011628963 1.2831846e-38
0.098862819 -0.095617667 0.0073331818 9.6136558e-39
0.10065483 -0.095617667 0.0073331818 1.016432e-38
0.10270265 -0.096332356 0.0043249354 1.1081601e-38
0.10449994 -0.096332356 0.0043249354 1.1262403e-38
-0.1032246 -0.10028981 -0.004700996 8.4965406e-39
-0.10141148 -0.10028981 -0.004700996 8.1292e-39
-0.09959837 -0.10028981 -0.004700996 7.9458766e-39
-0.097127758 -0.098853827 0.001299046 8.3157353e-39
-0.095325164 -0.098853827 0.001299046 8.7763617e-39
-0.093522571 -0.098853827 0.001299046 8.4994217e-39
-0.091719978 -0.098853827 0.001299046 7.7618623e-39
-0.090936147 -0.10123092 -0.0086332336 7.484918e-39
-0.089116134 -0.10123092 -0.0086332336 8.1295658e-39
-0.087296136 -0.10123092 -0.0086332336 8.7752883e-39
-0.085767634 -0.10194789 -0.011628963 8.3146619e-39
-0.083656125 -0.10123092 -0.0086332336 8.2228166e-39
-0.081180088 -0.099557132 -0.0016395822 9.5146274e-39
-0.079372339 -0.099557132 -0.0016395822 1.0252547e-38
-0.077299245 -0.098853827 0.001299046 9.6997263e-39
-0.075496651 -0.098853827 0.001299046 1.0713875e-38
-0.073694058 -0.098853827 0.001299046 1.2649979e-38
-0.072141357 -0.099557132 -0.0016395822 1.2926921e-38
-0.070088886 -0.098853827 0.001299046 1.3572639e-38
-0.068286292 -0.098853827 0.001299046 1.3110937e-38
-0.066718124 -0.099557132 -0.0016395822 1.587606e-38
-0.06514924 -0.10028981 -0.004700996 1.7534121e-38
-0.063336127 -0.10028981 -0.004700996 2.0020137e-38
-0.061523028 -0.10028981 -0.004700996 1.9652795e-38
-0.059709914 -0.10028981 -0.004700996 1.89156e-38
-0.059526034 -0.10578094 -0.027644731 1.8731211e-38
-0.057672687 -0.10578094 -0.027644731 1.9836466e-38
-0.055819355 -0.10578094 -0.027644731 1.9285453e-38
-0.053966008 -0.10578094 -0.027644731 1.8640811e-38
-0.052112676 -0.10578094 -0.027644731 1.8455346e-38
-0.050259329 -0.10578094 -0.027644731 1.7994016e-38
-0.048587181 -0.10649781 -0.030640103 1.7717075e-38
-0.046728589 -0.10649781 -0.030640103 1.8269164e-38
-0.044869997 -0.10649781 -0.030640103 1.9097477e-38
-0.040914141 -0.09740968 0.0073331818 1.9649207e-38
-0.039122127 -0.09740968 0.0073331818 1.9739608e-38
-0.037330113 -0.09740968 0.0073331818 1.9832161e-38
-0.035688423 -0.098129645 0.0043249354 2.0016549e-38
-0.033891134 -0.098129645 0.0043249354 1.9924355e-38
-0.03344088 -0.1050681 -0.024666287 2.0015473e-38
-0.031592764 -0.1050681 -0.024666287 2.0476444e-38
-0.029570475 -0.10409774 -0.020611741 2.1213639e-38
-0.026701994 -0.098129645 0.0043249354 2.0567562e-38
-0.024786029 -0.09740968 0.0073331818 2.1028534e-38
-0.022994015 -0.09740968 0.0073331818 2.1765011e-38
-0.021202005 -0.09740968 0.0073331818 2.1856847e-38
-0.019409992 -0.09740968 0.0073331818 2.1856847e-38
-0.017520975 -0.096693933 0.010323785 2.1765011e-38
-0.015734207 -0.096693933 0.010323785 2.1948682e-38
-0.013947435 -0.096693933 0.010323785 2.2132353e-38
-0.012241945 -0.09740968 0.0073331818 2.2224189e-38
-0.010449931 -0.09740968 0.0073331818 2.2316024e-38
-0.0086579174 -0.09740968 0.0073331818 2.2499695e-38
-0.006800361 -0.096693933 0.010323785 2.2499695e-38
-0.005779162 -0.10578094 -0.027644731 2.2591531e-38
-0.0039258227 -0.10578094 -0.027644731 2.2591531e-38
-0.0020228736 -0.1050681 -0.024666287 2.2498978e-38
-0.00011432916 -0.10409774 -0.020611741 2.2406783e-38
0.0017266795 -0.10409774 -0.020611741 2.2775202e-38
0.0035676882 -0.10409774 -0.020611741 2.2775202e-38
0.0054086987 -0.10409774 -0.020611741 2.2775202e-38
0.0072728973 -0.10339431 -0.017672636 2.2591531e-38
0.009108752 -0.10339431 -0.017672636 2.2591531e-38
0.010944609 -0.10339431 -0.017672636 2.2499695e-38
0.012780465 -0.10339431 -0.017672636 2.240786e-38
0.01461632 -0.10339431 -0.017672636 2.2132353e-38
0.016449519 -0.10266902 -0.014642097 2.2316024e-38
0.018280061 -0.10266902 -0.014642097 2.2224189e-38
0.020123888 -0.10339431 -0.017672636 2.2132353e-38
0.021959744 -0.10339431 -0.017672636 2.2224189e-38
0.023645913 -0.098853827 0.001299046 2.240786e-38
0.025448505 -0.098853827 0.001299046 2.2224189e-38
0.027251098 -0.098853827 0.001299046 2.2224189e-38
0.029013898 -0.098129645 0.0043249354 2.2132353e-38
0.030811187 -0.098129645 0.0043249354 2.1672099e-38
0.032558367 -0.09740968 0.0073331818 2.1580264e-38
0.034295321 -0.096693933 0.010323785 2.1763935e-38
0.036082089 -0.096693933 0.010323785 2.1764652e-38
0.0379344 -0.09740968 0.0073331818 2.1764652e-38
0.039726414 -0.09740968 0.0073331818 2.1672817e-38
0.041518427 -0.09740968 0.0073331818 2.1580264e-38
0.043392193 -0.098129645 0.0043249354 2.1396593e-38
0.045277018 -0.098853827 0.001299046 2.1948682e-38
0.047263712 -0.10028981 -0.004700996 2.1397669e-38
0.049076825 -0.10028981 -0.004700996 2.1121445e-38
0.051024381 -0.10123092 -0.0086332336 2.1213638e-38
0.052844387 -0.10123092 -0.0086332336 2.1673176e-38
0.054664392 -0.10123092 -0.0086332336 2.1856847e-38
0.056602582 -0.10194789 -0.011628963 2.1856847e-38
0.05842784 -0.10194789 -0.011628963 2.1489505e-38
0.060253099 -0.10194789 -0.011628963 2.1122163e-38
0.061944421 -0.10123092 -0.0086332336 2.1030327e-38
0.063764423 -0.10123092 -0.0086332336 1.9652436e-38
0.065584436 -0.10123092 -0.0086332336 1.6980584e-38
0.089685157 -0.096693933 0.010323785 1.1824536e-38
0.091250375 -0.095982388 0.013296865 1.1640865e-38
0.093031928 -0.095982388 0.013296865 1.1272088e-38
0.094574928 -0.095250636 0.016354345 1.0535242e-38
0.096351132 -0.095250636 0.016354345 1.0811829e-38
0.098618992 -0.096693933 0.010323785 1.1089135e-38
0.10040576 -0.096693933 0.010323785 1.0994429e-38
0.10219253 -0.096693933 0.010323785 1.2280126e-38
0.1039793 -0.096693933 0.010323785 1.0708866e-38
-0.10287302 -0.10136487 -0.0016395822 3.7945607e-39
-0.10141148 -0.10210292 -0.004700996 3.5190528e-39
-0.09959837 -0.10210292 -0.004700996 3.3360923e-39
-0.097127758 -0.10065642 0.001299046 3.4293641e-39
-0.095325164 -0.10065642 0.001299046 3.7977963e-39
-0.093522571 -0.10065642 0.001299046 4.165504e-39
-0.091719978 -0.10065642 0.001299046 4.3491792e-39
-0.090936147 -0.10305093 -0.0086332336 4.8098014e-39
-0.088719703 -0.10210292 -0.004700996 5.6391992e-39
-0.08690659 -0.10210292 -0.004700996 6.2849217e-39
-0.085093476 -0.10210292 -0.004700996 6.9306428e-39
-0.083280362 -0.10210292 -0.004700996 7.2997771e-39
-0.081180088 -0.10136487 -0.0016395822 9.0522073e-39
-0.079372339 -0.10136487 -0.0016395822 1.0066717e-38
-0.077299245 -0.10065642 0.001299046 9.6064545e-39
-0.075496651 -0.10065642 0.001299046 1.0252544e-38
-0.073694058 -0.10065642 0.001299046 1.1543286e-38
-0.072141357 -0.10136487 -0.0016395822 1.1635835e-38
-0.070333622 -0.10136487 -0.0016395822 1.1636186e-38
-0.068525873 -0.10136487 -0.0016395822 1.0713504e-38
-0.066718124 -0.10136487 -0.0016395822 1.1265956e-38
-0.06514924 -0.10210292 -0.004700996 9.4216821e-39
-0.06310264 -0.10136487 -0.0016395822 9.4216793e-39
-0.061294891 -0.10136487 -0.0016395822 7.8547095e-39
-0.059487157 -0.10136487 -0.0016395822 6.1029925e-39
-0.057470731 -0.10065642 0.001299046 4.720421e-39
-0.055668138 -0.10065642 0.001299046 3.3378495e-39
-0.054063924 -0.10136487 -0.0016395822 2.8779504e-39
-0.052256174 -0.10136487 -0.0016395822 2.6010089e-39
-0.050448425 -0.10136487 -0.0016395822 2.2329453e-39
-0.048082195 -0.099201679 0.0073331818 1.8634439e-39
-0.046290174 -0.099201679 0.0073331818 1.586857e-39
-0.044498168 -0.099201679 0.0073331818 2.0471121e-39
-0.042706154 -0.099201679 0.0073331818 2.6917626e-39
-0.040914141 -0.099201679 0.0073331818 3.0591088e-39
-0.039122127 -0.099201679 0.0073331818 3.333895e-39
-0.037330113 -0.099201679 0.0073331818 3.7948732e-39
-0.0355381 -0.099201679 0.0073331818 4.4402426e-39
-0.033891134 -0.099926919 0.0043249354 4.9012207e-39
-0.032093845 -0.099926919 0.0043249354 5.454033e-39
-0.030296564 -0.099926919 0.0043249354 6.2837909e-39
-0.028370053 -0.099201679 0.0073331818 7.2975798e-39
-0.026578039 -0.099201679 0.0073331818 9.3248047e-39
-0.024786029 -0.099201679 0.0073331818 1.0154202e-38
-0.022994015 -0.099201679 0.0073331818 1.1168354e-38
-0.021202005 -0.099201679 0.0073331818 1.2273979e-38
-0.019409992 -0.099201679 0.0073331818 1.2919347e-38
-0.017520975 -0.098480701 0.010323785 1.3564716e-38
-0.015734207 -0.098480701 0.010323785 1.4393758e-38
-0.013947435 -0.098480701 0.010323785 1.5038762e-38
-0.012241945 -0.099201679 0.0073331818 1.5868151e-38
-0.010449931 -0.099201679 0.0073331818 1.6236566e-38
-0.0085871294 -0.098480701 0.010323785 1.6881213e-38
-0.006800361 -0.098480701 0.010323785 1.7710252e-38
-0.0050135925 -0.098480701 0.010323785 1.8540007e-38
-0.0032268241 -0.098480701 0.010323785 1.9277202e-38
-0.0019553378 -0.10593875 -0.020611741 1.9553785e-38
-0.00011432916 -0.10593875 -0.020611741 1.9738173e-38
0.0017266795 -0.10593875 -0.020611741 1.9092096e-38
0.0035676882 -0.10593875 -0.020611741 1.9000978e-38
0.0054370426 -0.10523017 -0.017672636 1.9185366e-38
0.0072728973 -0.10523017 -0.017672636 1.9185725e-38
0.009108752 -0.10523017 -0.017672636 1.9093531e-38
0.01104103 -0.099926919 0.0043249354 1.890986e-38
0.01284623 -0.099201679 0.0073331818 1.8725472e-38
0.014638241 -0.099201679 0.0073331818 1.8357771e-38
0.016430255 -0.099201679 0.0073331818 1.9279354e-38
0.018230177 -0.099926919 0.0043249354 1.9187155e-38
0.020027466 -0.099926919 0.0043249354 1.9094959e-38
0.021824751 -0.099926919 0.0043249354 1.9187157e-38
0.02362204 -0.099926919 0.0043249354 1.9096041e-38
0.025419325 -0.099926919 0.0043249354 1.9188236e-38
0.027182329 -0.099201679 0.0073331818 1.9095683e-38
0.028935015 -0.098480701 0.010323785 1.9003489e-38
0.030721784 -0.098480701 0.010323785 1.8451037e-38
0.032508552 -0.098480701 0.010323785 1.8635071e-38
0.034240589 -0.097763941 0.013296865 1.8819459e-38
0.036022142 -0.097763941 0.013296865 1.9003848e-38
0.037803698 -0.097763941 0.013296865 1.8820536e-38
0.039585255 -0.097763941 0.013296865 1.891273e-38
0.041366808 -0.097763941 0.013296865 1.8912371e-38
0.043229163 -0.098480701 0.010323785 1.9004924e-38
0.045015931 -0.098480701 0.010323785 1.891201e-38
0.047263712 -0.10210292 -0.004700996 1.8727971e-38
0.049076825 -0.10210292 -0.004700996 1.8451385e-38
0.051024381 -0.10305093 -0.0086332336 1.854358e-38
0.052844387 -0.10305093 -0.0086332336 1.8820166e-38
0.054664392 -0.10305093 -0.0086332336 1.900491e-38
0.056484401 -0.10305093 -0.0086332336 1.9097103e-38
0.058304407 -0.10305093 -0.0086332336 1.8821952e-38
0.059955496 -0.10210292 -0.004700996 1.8914508e-38
0.06176861 -0.10210292 -0.004700996 1.9376206e-38
0.063439474 -0.10136487 -0.0016395822 1.8270949e-38
0.06495963 -0.099926919 0.0043249354 1.7072779e-38
0.066606596 -0.099201679 0.0073331818 1.6980956e-38
0.06839861 -0.099201679 0.0073331818 1.688912e-38
0.07115525 -0.09559007 0.022313975 1.6336672e-38
0.072749846 -0.094865978 0.025317453 1.5968254e-38
0.074510321 -0.094865978 0.025317453 1.5599836e-38
0.076270804 -0.094865978 0.025317453 1.5138865e-38
0.078031287 -0.094865978 0.025317453 1.4586776e-38
0.082141563 -0.09702684 0.016354345 1.3941416e-38
0.083917767 -0.09702684 0.016354345 1.366591e-38
0.085693955 -0.09702684 0.016354345 1.3574433e-38
0.087687269 -0.097763941 0.013296865 1.3206015e-38
0.089468822 -0.097763941 0.013296865 1.2377343e-38
0.091250375 -0.097763941 0.013296865 1.2101119e-38
0.09279874 -0.09702684 0.016354345 1.1732342e-38
0.094574928 -0.09702684 0.016354345 1.1088053e-38
0.096351132 -0.09702684 0.016354345 1.1180249e-38
0.098376602 -0.097763941 0.013296865 1.0719989e-38
0.10015816 -0.097763941 0.013296865 9.9799131e-39
0.10193972 -0.097763941 0.013296865 9.2369685e-39
0.10372127 -0.097763941 0.013296865 8.3114109e-39
-0.10287302 -0.10317262 -0.0016395822 3.5176067e-39
-0.10106527 -0.10317262 -0.0016395822 3.3339343e-39
-0.099257536 -0.10317262 -0.0016395822 2.8747498e-39
-0.097449787 -0.10317262 -0.0016395822 2.783273e-39
-0.095642038 -0.10317262 -0.0016395822 2.8754701e-39
-0.093834303 -0.10317262 -0.0016395822 3.3353762e-39
-0.092026554 -0.10317262 -0.0016395822 4.1644208e-39
-0.090532817 -0.10391603 -0.004700996 5.3622409e-39
-0.088411056 -0.10317262 -0.0016395822 6.3756712e-39
-0.086603321 -0.10317262 -0.0016395822 7.0213951e-39
-0.084795572 -0.10317262 -0.0016395822 7.3905308e-39
-0.082987823 -0.10317262 -0.0016395822 7.9440563e-39
-0.080904432 -0.10245901 0.001299046 9.5120981e-39
-0.079101838 -0.10245901 0.001299046 1.0342938e-38
-0.077299245 -0.10245901 0.001299046 1.0158909e-38
-0.075496651 -0.10245901 0.001299046 1.062025e-38
-0.073694058 -0.10245901 0.001299046 1.1450013e-38
-0.072141357 -0.10317262 -0.0016395822 1.1450013e-38
-0.070088886 -0.10245901 0.001299046 1.2187573e-38
-0.068286292 -0.10245901 0.001299046 1.1081229e-38
-0.066718124 -0.10317262 -0.0016395822 1.0712086e-38
-0.064910389 -0.10317262 -0.0016395822 7.3934034e-39
-0.06310264 -0.10317262 -0.0016395822 6.9324253e-39
-0.061075918 -0.10245901 0.001299046 5.9193538e-39
-0.059273325 -0.10245901 0.001299046 4.6289751e-39
-0.057470731 -0.10245901 0.001299046 3.1549268e-39
-0.055668138 -0.10245901 0.001299046 2.8787028e-39
-0.053865544 -0.10245901 0.001299046 2.5106392e-39
-0.052062951 -0.10245901 0.001299046 2.418089e-39
-0.050066717 -0.10172421 0.0043249354 2.2336978e-39
-0.048082195 -0.10099369 0.0073331818 1.6816058e-39
-0.046290174 -0.10099369 0.0073331818 1.3128233e-39
-0.044498168 -0.10099369 0.0073331818 1.7727196e-39
-0.042706154 -0.10099369 0.0073331818 2.2336978e-39
-0.040914141 -0.10099369 0.0073331818 9.4295896e-40
-0.039122127 -0.10099369 0.0073331818 1.2191843e-39
-0.037330113 -0.10099369 0.0073331818 1.8645537e-39
-0.0355381 -0.10099369 0.0073331818 2.7865072e-39
-0.033746086 -0.10099369 0.0073331818 3.6162679e-39
-0.031954072 -0.10099369 0.0073331818 4.6300569e-39
-0.030162066 -0.10099369 0.0073331818 6.0119095e-39
-0.028370053 -0.10099369 0.0073331818 7.0256999e-39
-0.026578039 -0.10099369 0.0073331818 6.8413059e-39
-0.024786029 -0.10099369 0.0073331818 7.5781478e-39
-0.022994015 -0.10099369 0.0073331818 8.5001041e-39
-0.021202005 -0.10099369 0.0073331818 9.4216975e-39
-0.019307744 -0.10026747 0.010323785 1.015926e-38
-0.017520975 -0.10026747 0.010323785 1.098902e-38
-0.015734207 -0.10026747 0.010323785 1.1818062e-38
-0.013947435 -0.10026747 0.010323785 1.2554903e-38
-0.012160666 -0.10026747 0.010323785 1.2647084e-38
-0.010373898 -0.10026747 0.010323785 1.2923303e-38
-0.0085871294 -0.10026747 0.010323785 1.3291366e-38
-0.006800361 -0.10026747 0.010323785 1.3660146e-38
-0.0050135925 -0.10026747 0.010323785 1.4120761e-38
-0.0032268241 -0.10026747 0.010323785 1.4396266e-38
-0.0014400557 -0.10026747 0.010323785 1.4396266e-38
0.00034671277 -0.10026747 0.010323785 1.4304071e-38
0.0021334812 -0.10026747 0.010323785 1.5225667e-38
0.0039202496 -0.10026747 0.010323785 1.5318223e-38
0.0057070199 -0.10026747 0.010323785 1.5502614e-38
0.0074701943 -0.10099369 0.0073331818 1.54115e-38
0.0092622042 -0.10099369 0.0073331818 1.5227828e-38
0.011054218 -0.10099369 0.0073331818 1.4859408e-38
0.01284623 -0.10099369 0.0073331818 1.4582821e-38
0.014638241 -0.10099369 0.0073331818 1.4306234e-38
0.016435545 -0.10245901 0.001299046 1.4582821e-38
0.018230177 -0.10172421 0.0043249354 1.439843e-38
0.020027466 -0.10172421 0.0043249354 1.4306234e-38
0.021806292 -0.10099369 0.0073331818 1.4306237e-38
0.023574708 -0.10026747 0.010323785 1.4306237e-38
0.025361476 -0.10026747 0.010323785 1.4214042e-38
0.027148245 -0.10026747 0.010323785 1.3938176e-38
0.028935015 -0.10026747 0.010323785 1.3753788e-38
0.030721784 -0.10026747 0.010323785 1.3569397e-38
0.032459028 -0.099545494 0.013296865 1.3845628e-38
0.034240589 -0.099545494 0.013296865 1.4122935e-38
0.036022142 -0.099545494 0.013296865 1.4215129e-38
0.037803698 -0.099545494 0.013296865 1.4122576e-38
0.039585255 -0.099545494 0.013296865 1.421477e-38
0.041366808 -0.099545494 0.013296865 1.4399159e-38
0.043148365 -0.099545494 0.013296865 1.4675383e-38
0.045015931 -0.10026747 0.010323785 1.5042364e-38
0.046802703 -0.10026747 0.010323785 1.5133837e-38
0.048589472 -0.10026747 0.010323785 1.4949446e-38
0.05037624 -0.10026747 0.010323785 1.485725e-38
0.052163009 -0.10026747 0.010323785 1.4765052e-38
0.053837702 -0.099545494 0.013296865 1.4856884e-38
0.055619258 -0.099545494 0.013296865 1.4856883e-38
0.057523314 -0.10026747 0.010323785 1.4949432e-38
0.059438549 -0.10099369 0.0073331818 1.4857952e-38
0.061230563 -0.10099369 0.0073331818 1.5226735e-38
0.063162342 -0.10172421 0.0043249354 1.4674287e-38
0.064670384 -0.10026747 0.010323785 1.4305869e-38
0.06645716 -0.10026747 0.010323785 1.4673946e-38
0.068090148 -0.099545494 0.013296865 1.4489918e-38
0.069708198 -0.098803028 0.016354345 1.4120424e-38
0.07115525 -0.097355813 0.022313975 1.4305888e-38
0.072749846 -0.096626461 0.025317453 1.4031099e-38
0.074510321 -0.096626461 0.025317453 1.347901e-38
0.076270804 -0.096626461 0.025317453 1.2925843e-38
0.078031287 -0.096626461 0.025317453 1.218936e-38
0.079983979 -0.097355813 0.022313975 1.182022e-38
0.081941739 -0.098065019 0.019393466 1.1636551e-38
0.083917767 -0.098803028 0.016354345 1.1636195e-38
0.085693955 -0.098803028 0.016354345 1.1452885e-38
0.087470159 -0.098803028 0.016354345 1.1452529e-38
0.089246348 -0.098803028 0.016354345 1.0439096e-38
0.091022536 -0.098803028 0.016354345 9.9788341e-39
0.09279874 -0.098803028 0.016354345 9.8866385e-39
0.094337806 -0.098065019 0.019393466 9.4267394e-39
0.096108675 -0.098065019 0.019393466 9.4267394e-39
0.09812732 -0.098803028 0.016354345 8.5969759e-39
0.099903516 -0.098803028 0.016354345 7.2122492e-39
0.10167972 -0.098803028 0.016354345 7.4848872e-39
0.10345591 -0.098803028 0.016354345 7.0203049e-39
0.10523211 -0.098803028 0.016354345 6.3727537e-39
-0.10287302 -0.10498036 -0.0016395822 3.4250397e-39
-0.10106527 -0.10498036 -0.0016395822 3.4250397e-39
-0.099257536 -0.10498036 -0.0016395822 3.7966963e-39
-0.097449787 -0.10498036 -0.0016395822 3.7048608e-39
-0.095642038 -0.10498036 -0.0016395822 3.7970592e-39
-0.093834303 -0.10498036 -0.0016395822 4.2573185e-39
-0.092026554 -0.10498036 -0.0016395822 5.2696754e-39
-0.090218805 -0.10498036 -0.0016395822 6.5596911e-39
-0.088114806 -0.10426159 0.001299046 7.8500656e-39
-0.086312212 -0.10426159 0.001299046 8.5879838e-39
-0.084509619 -0.10426159 0.001299046 1.0432248e-38
-0.082707025 -0.10426159 0.001299046 1.0801028e-38
-0.080904432 -0.10426159 0.001299046 1.1539312e-38
-0.079101838 -0.10426159 0.001299046 1.1816978e-38
-0.077299245 -0.10426159 0.001299046 1.1725146e-38
-0.075496651 -0.10426159 0.001299046 1.1818428e-38
-0.073694058 -0.10426159 0.001299046 1.2371603e-38
-0.071891464 -0.10426159 0.001299046 1.2555633e-38
-0.070088886 -0.10426159 0.001299046 1.1264186e-38
-0.068286292 -0.10426159 0.001299046 9.6968607e-39
-0.066483699 -0.10426159 0.001299046 9.0522129e-39
-0.064681105 -0.10426159 0.001299046 5.7335332e-39
-0.062878512 -0.10426159 0.001299046 4.9974115e-39
-0.061075918 -0.10426159 0.001299046 4.1683739e-39
-0.059273325 -0.10426159 0.001299046 3.5233674e-39
-0.057470731 -0.10426159 0.001299046 2.9709125e-39
-0.055668138 -0.10426159 0.001299046 3.5240863e-39
-0.053661294 -0.10352151 0.0043249354 3.2475008e-39
-0.051864006 -0.10352151 0.0043249354 3.0631095e-39
-0.050066717 -0.10352151 0.0043249354 2.970558e-39
-0.048082195 -0.10278571 0.0073331818 2.4184632e-39
-0.046290174 -0.10278571 0.0073331818 2.2340719e-39
-0.044498168 -0.10278571 0.0073331818 2.6028544e-39
-0.042706154 -0.10278571 0.0073331818 3.0645515e-39
-0.040914141 -0.10278571 0.0073331818 3.7102754e-39
-0.039122127 -0.10278571 0.0073331818 3.8957429e-39
-0.037330113 -0.10278571 0.0073331818 4.7244245e-39
-0.0355381 -0.10278571 0.0073331818 5.3697911e-39
-0.033746086 -0.10278571 0.0073331818 6.1995518e-39
-0.031954072 -0.10278571 0.0073331818 7.2133408e-39
-0.030162066 -0.10278571 0.0073331818 8.4111623e-39
-0.028370053 -0.10278571 0.0073331818 9.3323941e-39
-0.026578039 -0.10278571 0.0073331818 1.0162155e-38
-0.024786029 -0.10278571 0.0073331818 1.062277e-38
-0.022994015 -0.10278571 0.0073331818 1.1175222e-38
-0.021094512 -0.10205424 0.010323785 1.1544002e-38
-0.019307744 -0.10205424 0.010323785 1.1912421e-38
-0.017424539 -0.10132705 0.013296865 1.2189008e-38
-0.015642982 -0.10132705 0.013296865 1.2833292e-38
-0.013861425 -0.10132705 0.013296865 1.3110233e-38
-0.012160666 -0.10205424 0.010323785 1.264961e-38
-0.010373898 -0.10205424 0.010323785 1.2742157e-38
-0.0085871294 -0.10205424 0.010323785 1.3110221e-38
-0.006800361 -0.10205424 0.010323785 1.3570836e-38
-0.0050135925 -0.10205424 0.010323785 1.4031091e-38
-0.0032268241 -0.10205424 0.010323785 1.4123286e-38
-0.0014400557 -0.10205424 0.010323785 1.4122568e-38
0.00034671277 -0.10205424 0.010323785 1.4030372e-38
0.0021334812 -0.10205424 0.010323785 1.3753785e-38
0.0039202496 -0.10205424 0.010323785 1.3753785e-38
0.0057070199 -0.10205424 0.010323785 1.3661952e-38
0.0074937884 -0.10205424 0.010323785 1.3477564e-38
0.0092805587 -0.10205424 0.010323785 1.3017665e-38
0.011067327 -0.10205424 0.010323785 1.2649245e-38
0.012854096 -0.10205424 0.010323785 1.2280465e-38
0.01464347 -0.10132705 0.013296865 1.200424e-38
0.016425027 -0.10132705 0.013296865 1.2557417e-38
0.018206581 -0.10132705 0.013296865 1.237267e-38
0.019988138 -0.10132705 0.013296865 1.2280477e-38
0.021787938 -0.10205424 0.010323785 1.2188281e-38
0.023574708 -0.10205424 0.010323785 1.2188282e-38
0.025361476 -0.10205424 0.010323785 1.2003891e-38
0.027148245 -0.10205424 0.010323785 1.1543636e-38
0.028935015 -0.10205424 0.010323785 1.1359245e-38
0.030677475 -0.10132705 0.013296865 1.1543639e-38
0.032459028 -0.10132705 0.013296865 1.181987e-38
0.034240589 -0.10132705 0.013296865 1.2004979e-38
0.036022142 -0.10132705 0.013296865 1.1912784e-38
