# .PCD v0.7 - Point Cloud Data file format
VERSION 0.7
FIELDS x y z rgb
SIZE 4 4 4 4
TYPE F F F F
COUNT 1 1 1 1
WIDTH 922
HEIGHT 1
VIEWPOINT 0 0 0 1 0 0 0
POINTS 922
DATA ascii
0.046626575 -0.071805179 0.013949492 2.3418043e-38
0.04849045 -0.071805179 0.013949492 2.3509883e-38
0.050354324 -0.071805179 0.013949492 2.3509883e-38
0.052218199 -0.071805179 0.013949492 2.3509883e-38
0.054082073 -0.071805179 0.013949492 2.3509883e-38
0.055795416 -0.071184576 0.01696191 2.3325494e-38
0.057654008 -0.071184576 0.01696191 2.341769e-38
0.059352413 -0.070567474 0.019957282 2.3509886e-38
0.061041258 -0.069953859 0.022935726 2.3509886e-38
0.062889375 -0.069953859 0.022935726 2.3509527e-38
0.064737491 -0.069953859 0.022935726 2.341769e-38
0.06634035 -0.069118559 0.026990272 2.3509886e-38
0.068181358 -0.069118559 0.026990272 2.3418047e-38
0.070022367 -0.069118559 0.026990272 2.3234015e-38
0.07167013 -0.068513051 0.029929377 2.3418043e-38
0.073505983 -0.068513051 0.029929377 2.3509879e-38
0.075341843 -0.068513051 0.029929377 1.7423168e-38
0.077177696 -0.068513051 0.029929377 9.5847414e-39
0.07922741 -0.069118559 0.026990272 2.6697062e-39
0.081068419 -0.069118559 0.026990272 3.221801e-39
0.083218671 -0.069953859 0.022935726 3.4994669e-39
-0.089634933 -0.08842507 -0.05707147 3.4090607e-39
-0.087646537 -0.08842507 -0.05707147 1.0508846e-38
-0.085341342 -0.087581471 -0.053011201 2.3509873e-38
-0.083360069 -0.087581471 -0.053011201 2.3509879e-38
-0.081087746 -0.086769998 -0.049105547 2.3418043e-38
-0.078894652 -0.086145595 -0.046100281 2.3509883e-38
-0.076642714 -0.085318208 -0.042118095 2.341805e-38
-0.07468053 -0.085318208 -0.042118095 2.341805e-38
-0.072443135 -0.084471121 -0.038041018 2.341805e-38
-0.070488103 -0.084471121 -0.038041018 2.3509527e-38
-0.06853307 -0.084471121 -0.038041018 2.3509886e-38
-0.066394635 -0.083858907 -0.035094403 2.3509527e-38
-0.064444773 -0.083858907 -0.035094403 2.3509527e-38
-0.062494911 -0.083858907 -0.035094403 2.3509527e-38
-0.06054505 -0.083858907 -0.035094403 2.3509527e-38
-0.058595181 -0.083858907 -0.035094403 2.3509886e-38
-0.056430005 -0.083022356 -0.031068109 2.3509886e-38
-0.054487199 -0.083022356 -0.031068109 2.3509886e-38
-0.052544393 -0.083022356 -0.031068109 2.3509886e-38
-0.050601594 -0.083022356 -0.031068109 2.3509886e-38
-0.048517965 -0.082392648 -0.028037332 2.3509886e-38
-0.046580471 -0.082392648 -0.028037332 2.3509886e-38
-0.044642985 -0.082392648 -0.028037332 2.3509886e-38
-0.042705499 -0.082392648 -0.028037332 2.3509886e-38
-0.040768005 -0.082392648 -0.028037332 2.3509886e-38
-0.038830511 -0.082392648 -0.028037332 2.3509886e-38
-0.036893025 -0.082392648 -0.028037332 2.3509886e-38
-0.03481961 -0.081566691 -0.024061941 2.3509886e-38
-0.03288909 -0.081566691 -0.024061941 2.3509886e-38
-0.030958572 -0.081566691 -0.024061941 2.3509886e-38
-0.029028052 -0.081566691 -0.024061941 2.3509886e-38
-0.027097533 -0.081566691 -0.024061941 2.3509886e-38
-0.025167013 -0.081566691 -0.024061941 2.3509886e-38
-0.02314307 -0.080746666 -0.020115159 2.3509886e-38
-0.021219471 -0.080746666 -0.020115159 2.3509886e-38
-0.019233568 -0.080104694 -0.017025374 2.3509886e-38
-0.017315386 -0.080104694 -0.017025374 2.3509886e-38
-0.015330339 -0.079270631 -0.013011 2.3509886e-38
-0.01341919 -0.079270631 -0.013011 2.3509886e-38
-0.011508046 -0.079270631 -0.013011 2.3509886e-38
-0.0095634777 -0.078661263 -0.010078094 2.3509886e-38
-0.0076574739 -0.078661263 -0.010078094 2.3509886e-38
-0.0057514738 -0.078661263 -0.010078094 2.3509886e-38
-0.0038268548 -0.078030959 -0.007044456 2.3509886e-38
-0.0019261707 -0.078030959 -0.007044456 2.3509886e-38
-1.5120953e-05 -0.077212036 -0.00310292 2.3509886e-38
0.0018786509 -0.077212036 -0.00310292 2.3509886e-38
0.0037724245 -0.077212036 -0.00310292 2.3509886e-38
0.0056661963 -0.077212036 -0.00310292 2.3509886e-38
0.0075599682 -0.077212036 -0.00310292 2.3509886e-38
0.0094537418 -0.077212036 -0.00310292 2.3509886e-38
0.011323884 -0.076589778 -0.00010802504 2.3509886e-38
0.013212405 -0.076589778 -0.00010802504 2.3509886e-38
0.015100927 -0.076589778 -0.00010802504 2.3509886e-38
0.016989447 -0.076589778 -0.00010802504 2.3509886e-38
0.018818278 -0.075757593 0.0038972879 2.3509886e-38
0.020699777 -0.075757593 0.0038972879 2.3509886e-38
0.022524765 -0.075119838 0.0069668079 2.3509886e-38
0.024400882 -0.075119838 0.0069668079 2.3509886e-38
0.026276998 -0.075119838 0.0069668079 2.3509886e-38
0.028153116 -0.075119838 0.0069668079 2.3509886e-38
0.030029232 -0.075119838 0.0069668079 2.3509886e-38
0.031825468 -0.074509144 0.0099061513 2.3509886e-38
0.033696428 -0.074509144 0.0099061513 2.3417691e-38
0.035567395 -0.074509144 0.0099061513 2.3417691e-38
0.037307203 -0.073669046 0.013949492 2.3417691e-38
0.039171077 -0.073669046 0.013949492 2.3509886e-38
0.041034952 -0.073669046 0.013949492 2.3509886e-38
0.042898826 -0.073669046 0.013949492 2.3509886e-38
0.044762701 -0.073669046 0.013949492 2.3509886e-38
0.046626575 -0.073669046 0.013949492 2.3509883e-38
0.04849045 -0.073669046 0.013949492 2.3509886e-38
0.050354324 -0.073669046 0.013949492 2.3509886e-38
0.052218199 -0.073669046 0.013949492 2.3509886e-38
0.053936824 -0.073043168 0.01696191 2.3509886e-38
0.055795416 -0.073043168 0.01696191 2.3417691e-38
0.057654008 -0.073043168 0.01696191 2.3417691e-38
0.059352413 -0.072420821 0.019957282 2.3509886e-38
0.061041258 -0.071801975 0.022935726 2.3509886e-38
0.062889375 -0.071801975 0.022935726 2.3509527e-38
0.064499341 -0.070959568 0.026990272 2.3325497e-38
0.06634035 -0.070959568 0.026990272 2.3509886e-38
0.068181358 -0.070959568 0.026990272 2.341805e-38
0.070022367 -0.070959568 0.026990272 2.3049624e-38
0.07167013 -0.070348918 0.029929377 2.3418043e-38
0.073505983 -0.070348918 0.029929377 2.3509879e-38
0.075341843 -0.070348918 0.029929377 1.6869994e-38
0.077177696 -0.070348918 0.029929377 9.7687697e-39
0.07922741 -0.070959568 0.026990272 3.4061922e-39
0.081370555 -0.071801975 0.022935726 3.959366e-39
0.083218671 -0.071801975 0.022935726 4.2370291e-39
-0.089634933 -0.090413481 -0.05707147 1.3804023e-39
-0.08732263 -0.089562759 -0.053011201 9.8634792e-39
-0.085341342 -0.089562759 -0.053011201 2.3509876e-38
-0.083062179 -0.088744432 -0.049105547 2.3509879e-38
-0.081087746 -0.088744432 -0.049105547 2.3141456e-38
-0.078894652 -0.088114753 -0.046100281 2.3233296e-38
-0.076642714 -0.087280393 -0.042118095 2.341805e-38
-0.074398167 -0.086426154 -0.038041018 2.341805e-38
-0.072443135 -0.086426154 -0.038041018 2.341805e-38
-0.070488103 -0.086426154 -0.038041018 2.3509527e-38
-0.068344496 -0.085808769 -0.035094403 2.3509527e-38
-0.066394635 -0.085808769 -0.035094403 2.3509527e-38
-0.064444773 -0.085808769 -0.035094403 2.3509527e-38
-0.062494911 -0.085808769 -0.035094403 2.3509527e-38
-0.06054505 -0.085808769 -0.035094403 2.3509527e-38
-0.058595181 -0.085808769 -0.035094403 2.3509886e-38
-0.056430005 -0.084965169 -0.031068109 2.3509886e-38
-0.054487199 -0.084965169 -0.031068109 2.3509886e-38
-0.052544393 -0.084965169 -0.031068109 2.3509886e-38
-0.050455458 -0.084330142 -0.028037332 2.3509886e-38
-0.048517965 -0.084330142 -0.028037332 2.3509886e-38
-0.046580471 -0.084330142 -0.028037332 2.3509886e-38
-0.044642985 -0.084330142 -0.028037332 2.3509886e-38
-0.042705499 -0.084330142 -0.028037332 2.3509886e-38
-0.040768005 -0.084330142 -0.028037332 2.3509886e-38
-0.038830511 -0.084330142 -0.028037332 2.3509886e-38
-0.036893025 -0.084330142 -0.028037332 2.3509886e-38
-0.03481961 -0.083497211 -0.024061941 2.3509886e-38
-0.03288909 -0.083497211 -0.024061941 2.3509886e-38
-0.030958572 -0.083497211 -0.024061941 2.3509886e-38
-0.029028052 -0.083497211 -0.024061941 2.3509886e-38
-0.027097533 -0.083497211 -0.024061941 2.3509886e-38
-0.025167013 -0.083497211 -0.024061941 2.3509886e-38
-0.02314307 -0.082670271 -0.020115159 2.3509886e-38
-0.021151753 -0.08202289 -0.017025374 2.3509886e-38
-0.019233568 -0.08202289 -0.017025374 2.3509886e-38
-0.01724148 -0.08118178 -0.013011 2.3509886e-38
-0.015330339 -0.08118178 -0.013011 2.3509886e-38
-0.01341919 -0.08118178 -0.013011 2.3509886e-38
-0.011508046 -0.08118178 -0.013011 2.3509886e-38
-0.0095634777 -0.080567271 -0.010078094 2.3509886e-38
-0.0076574739 -0.080567271 -0.010078094 2.3509886e-38
-0.0057514738 -0.080567271 -0.010078094 2.3509886e-38
-0.0038268548 -0.079931647 -0.007044456 2.3509886e-38
-0.0019261707 -0.079931647 -0.007044456 2.3509886e-38
-2.5486574e-05 -0.079931647 -0.007044456 2.3509886e-38
0.0018786509 -0.079105809 -0.00310292 2.3509886e-38
0.0037724245 -0.079105809 -0.00310292 2.3509886e-38
0.0056661963 -0.079105809 -0.00310292 2.3509886e-38
0.0075599682 -0.079105809 -0.00310292 2.3509886e-38
0.0094537418 -0.079105809 -0.00310292 2.3509886e-38
0.011323884 -0.078478307 -0.00010802504 2.3509886e-38
0.013212405 -0.078478307 -0.00010802504 2.3509886e-38
0.015100927 -0.078478307 -0.00010802504 2.3509886e-38
0.016989447 -0.078478307 -0.00010802504 2.3509886e-38
0.018818278 -0.077639103 0.0038972879 2.3509886e-38
0.020699777 -0.077639103 0.0038972879 2.3509886e-38
0.022524765 -0.076995969 0.0069668079 2.3509886e-38
0.024400882 -0.076995969 0.0069668079 2.3509886e-38
0.026276998 -0.076995969 0.0069668079 2.3509886e-38
0.028153116 -0.076995969 0.0069668079 2.3509886e-38
0.030029232 -0.076995969 0.0069668079 2.3509886e-38
0.031825468 -0.076380104 0.0099061513 2.3509886e-38
0.033696428 -0.076380104 0.0099061513 2.3509886e-38
0.035443328 -0.075532928 0.013949492 2.3509886e-38
0.037307203 -0.075532928 0.013949492 2.3417691e-38
0.039171077 -0.075532928 0.013949492 2.3417691e-38
0.041034952 -0.075532928 0.013949492 2.3509886e-38
0.042898826 -0.075532928 0.013949492 2.3509886e-38
0.044762701 -0.075532928 0.013949492 2.3509886e-38
0.046626575 -0.075532928 0.013949492 2.3509886e-38
0.04849045 -0.075532928 0.013949492 2.341769e-38
0.050354324 -0.075532928 0.013949492 2.3325494e-38
0.052218199 -0.075532928 0.013949492 2.341769e-38
0.053936824 -0.07490176 0.01696191 2.3509886e-38
0.055795416 -0.07490176 0.01696191 2.3509886e-38
0.057654008 -0.07490176 0.01696191 2.3509886e-38
0.059352413 -0.074274153 0.019957282 2.3417691e-38
0.061041258 -0.073650107 0.022935726 2.3325497e-38
0.062889375 -0.073650107 0.022935726 2.3509527e-38
0.064499341 -0.072800577 0.026990272 2.3325138e-38
0.06634035 -0.072800577 0.026990272 2.341805e-38
0.068181358 -0.072800577 0.026990272 2.341805e-38
0.070022367 -0.072800577 0.026990272 2.2957428e-38
0.07167013 -0.072184771 0.029929377 2.350988e-38
0.073505983 -0.072184771 0.029929377 2.3509879e-38
0.075341843 -0.072184771 0.029929377 1.6593404e-38
0.077177696 -0.072184771 0.029929377 9.6765741e-39
0.07922741 -0.072800577 0.026990272 3.3139966e-39
0.081370555 -0.073650107 0.022935726 3.5909394e-39
0.083218671 -0.073650107 0.022935726 3.4994641e-39
-0.091623329 -0.092401877 -0.05707147 2.5800245e-39
-0.089303903 -0.091544032 -0.053011201 1.8413776e-39
-0.08732263 -0.091544032 -0.053011201 1.1430805e-38
-0.085036613 -0.090718865 -0.049105547 2.3324404e-38
-0.083062179 -0.090718865 -0.049105547 2.3509879e-38
-0.080863811 -0.090083912 -0.046100281 2.350988e-38
-0.078894652 -0.090083912 -0.046100281 2.3509883e-38
-0.076642714 -0.089242578 -0.042118095 2.3326213e-38
-0.074398167 -0.088381186 -0.038041018 2.341805e-38
-0.072443135 -0.088381186 -0.038041018 2.341805e-38
-0.070294373 -0.087758631 -0.035094403 2.3509527e-38
-0.068344496 -0.087758631 -0.035094403 2.3509527e-38
-0.066144027 -0.086907968 -0.031068109 2.3509527e-38
-0.064201228 -0.086907968 -0.031068109 2.3509527e-38
-0.062494911 -0.087758631 -0.035094403 2.3509527e-38
-0.060315616 -0.086907968 -0.031068109 2.3509527e-38
-0.05837281 -0.086907968 -0.031068109 2.3509886e-38
-0.056430005 -0.086907968 -0.031068109 2.3509886e-38
-0.054487199 -0.086907968 -0.031068109 2.3509886e-38
-0.052544393 -0.086907968 -0.031068109 2.3509886e-38
-0.050455458 -0.086267635 -0.028037332 2.3509886e-38
-0.048517965 -0.086267635 -0.028037332 2.3509886e-38
-0.046580471 -0.086267635 -0.028037332 2.3509886e-38
-0.044642985 -0.086267635 -0.028037332 2.3509886e-38
-0.042705499 -0.086267635 -0.028037332 2.3509886e-38
-0.04061117 -0.085427731 -0.024061941 2.3509886e-38
-0.038680658 -0.085427731 -0.024061941 2.3509886e-38
-0.036750138 -0.085427731 -0.024061941 2.3509886e-38
-0.03481961 -0.085427731 -0.024061941 2.3509886e-38
-0.03288909 -0.085427731 -0.024061941 2.3509886e-38
-0.030958572 -0.085427731 -0.024061941 2.3509886e-38
-0.029028052 -0.085427731 -0.024061941 2.3509886e-38
-0.027097533 -0.085427731 -0.024061941 2.3509886e-38
-0.025167013 -0.085427731 -0.024061941 2.3509886e-38
-0.02314307 -0.084593862 -0.020115159 2.3509886e-38
-0.021151753 -0.083941072 -0.017025374 2.3509886e-38
-0.019233568 -0.083941072 -0.017025374 2.3509886e-38
-0.01724148 -0.083092928 -0.013011 2.3509886e-38
-0.015330339 -0.083092928 -0.013011 2.3509886e-38
-0.01341919 -0.083092928 -0.013011 2.3509886e-38
-0.011469478 -0.082473263 -0.010078094 2.3509886e-38
-0.0095634777 -0.082473263 -0.010078094 2.3509886e-38
-0.0076574739 -0.082473263 -0.010078094 2.3509886e-38
-0.0057514738 -0.082473263 -0.010078094 2.3509886e-38
-0.00384547 -0.082473263 -0.010078094 2.3509886e-38
-0.0019261707 -0.081832334 -0.007044456 2.3509886e-38
-2.5486574e-05 -0.081832334 -0.007044456 2.3509886e-38
0.0018786509 -0.080999583 -0.00310292 2.3509886e-38
0.0037724245 -0.080999583 -0.00310292 2.3509886e-38
0.0056661963 -0.080999583 -0.00310292 2.3509886e-38
0.0075599682 -0.080999583 -0.00310292 2.3509886e-38
0.0094537418 -0.080999583 -0.00310292 2.3509886e-38
0.011323884 -0.08036682 -0.00010802504 2.3509886e-38
0.013212405 -0.08036682 -0.00010802504 2.3509886e-38
0.015100927 -0.08036682 -0.00010802504 2.3509886e-38
0.016989447 -0.08036682 -0.00010802504 2.3509886e-38
0.018818278 -0.079520598 0.0038972879 2.3509886e-38
0.020699777 -0.079520598 0.0038972879 2.3509886e-38
0.022524765 -0.078872085 0.0069668079 2.3509886e-38
0.024400882 -0.078872085 0.0069668079 2.3509886e-38
0.026276998 -0.078872085 0.0069668079 2.3509886e-38
0.02808354 -0.078251064 0.0099061513 2.3509886e-38
0.029954504 -0.078251064 0.0099061513 2.3509886e-38
0.031825468 -0.078251064 0.0099061513 2.3509886e-38
0.033579458 -0.077396795 0.013949492 2.3509886e-38
0.035443328 -0.077396795 0.013949492 2.3509886e-38
0.037307203 -0.077396795 0.013949492 2.3509886e-38
0.039171077 -0.077396795 0.013949492 2.3509886e-38
0.041034952 -0.077396795 0.013949492 2.3509886e-38
0.042898826 -0.077396795 0.013949492 2.3509886e-38
0.044762701 -0.077396795 0.013949492 2.3509886e-38
0.046626575 -0.077396795 0.013949492 2.3509886e-38
0.04849045 -0.077396795 0.013949492 2.3509886e-38
0.050354324 -0.077396795 0.013949492 2.3509886e-38
0.052218199 -0.077396795 0.013949492 2.3509886e-38
0.053936824 -0.076760352 0.01696191 2.3509886e-38
0.055795416 -0.076760352 0.01696191 2.3509886e-38
0.057654008 -0.076760352 0.01696191 2.3509886e-38
0.059352413 -0.076127499 0.019957282 2.3509886e-38
0.061041258 -0.075498223 0.022935726 2.3509886e-38
0.062889375 -0.075498223 0.022935726 2.2956359e-38
0.064499341 -0.074641585 0.026990272 2.3509527e-38
0.06634035 -0.074641585 0.026990272 2.2957075e-38
0.068181358 -0.074641585 0.026990272 2.2865235e-38
0.070022367 -0.074641585 0.026990272 2.3418047e-38
0.07167013 -0.074020624 0.029929377 2.3049261e-38
0.073505983 -0.074020624 0.029929377 2.3509879e-38
0.075341843 -0.074020624 0.029929377 1.4840967e-38
0.077177696 -0.074020624 0.029929377 8.8457344e-39
0.07922741 -0.074641585 0.026990272 5.0653506e-39
0.081068419 -0.074641585 0.026990272 2.94557e-39
0.082909428 -0.074641585 0.026990272 2.4853121e-39
-0.091623329 -0.094390273 -0.05707147 1.2892857e-39
-0.089303903 -0.093525305 -0.053011201 2.3945514e-39
-0.087011047 -0.092693284 -0.049105547 1.2260566e-38
-0.084802128 -0.092053071 -0.046100281 2.3509153e-38
-0.08283297 -0.092053071 -0.046100281 2.3509876e-38
-0.080863811 -0.092053071 -0.046100281 2.3325846e-38
-0.078604884 -0.091204748 -0.042118095 2.350988e-38
-0.0763532 -0.090336218 -0.038041018 2.3418047e-38
-0.074398167 -0.090336218 -0.038041018 2.341805e-38
-0.072443135 -0.090336218 -0.038041018 2.341805e-38
-0.070294373 -0.089708492 -0.035094403 2.3509886e-38
-0.068344496 -0.089708492 -0.035094403 2.3509527e-38
-0.066144027 -0.088850766 -0.031068109 2.3509527e-38
-0.064201228 -0.088850766 -0.031068109 2.3509527e-38
-0.062258415 -0.088850766 -0.031068109 2.3509527e-38
-0.060315616 -0.088850766 -0.031068109 2.3509527e-38
-0.05837281 -0.088850766 -0.031068109 2.3509886e-38
-0.056430005 -0.088850766 -0.031068109 2.3509886e-38
-0.054487199 -0.088850766 -0.031068109 2.3509886e-38
-0.052392952 -0.088205129 -0.028037332 2.3509886e-38
-0.050455458 -0.088205129 -0.028037332 2.3509886e-38
-0.048517965 -0.088205129 -0.028037332 2.3509886e-38
-0.046580471 -0.088205129 -0.028037332 2.3509886e-38
-0.04447221 -0.087358251 -0.024061941 2.3509886e-38
-0.04254169 -0.087358251 -0.024061941 2.3509886e-38
-0.04061117 -0.087358251 -0.024061941 2.3509886e-38
-0.038680658 -0.087358251 -0.024061941 2.3509886e-38
-0.036750138 -0.087358251 -0.024061941 2.3509886e-38
-0.03481961 -0.087358251 -0.024061941 2.3509886e-38
-0.03288909 -0.087358251 -0.024061941 2.3509886e-38
-0.030958572 -0.087358251 -0.024061941 2.3509886e-38
-0.029028052 -0.087358251 -0.024061941 2.3509886e-38
-0.027097533 -0.087358251 -0.024061941 2.3509886e-38
-0.025167013 -0.087358251 -0.024061941 2.3509886e-38
-0.02314307 -0.086517468 -0.020115159 2.3509886e-38
-0.021151753 -0.085859254 -0.017025374 2.3509886e-38
-0.019152625 -0.085004061 -0.013011 2.3509886e-38
-0.01724148 -0.085004061 -0.013011 2.3509886e-38
-0.015330339 -0.085004061 -0.013011 2.3509886e-38
-0.01341919 -0.085004061 -0.013011 2.3509886e-38
-0.011469478 -0.084379271 -0.010078094 2.3509886e-38
-0.0095634777 -0.084379271 -0.010078094 2.3509886e-38
-0.0076574739 -0.084379271 -0.010078094 2.3509886e-38
-0.0057514738 -0.084379271 -0.010078094 2.3509886e-38
-0.00384547 -0.084379271 -0.010078094 2.3509886e-38
-0.0019261707 -0.083733007 -0.007044456 2.3509886e-38
-2.5486574e-05 -0.083733007 -0.007044456 2.3509886e-38
0.0018786509 -0.082893357 -0.00310292 2.3509886e-38
0.0037724245 -0.082893357 -0.00310292 2.3509886e-38
0.0056661963 -0.082893357 -0.00310292 2.3509886e-38
0.0075599682 -0.082893357 -0.00310292 2.3509886e-38
0.0094353631 -0.082255349 -0.00010802504 2.3509886e-38
0.011323884 -0.082255349 -0.00010802504 2.3509886e-38
0.01317378 -0.081402093 0.0038972879 2.3509886e-38
0.015055279 -0.081402093 0.0038972879 2.3509886e-38
0.016936779 -0.081402093 0.0038972879 2.3509886e-38
0.018818278 -0.081402093 0.0038972879 2.3509886e-38
0.020699777 -0.081402093 0.0038972879 2.3509886e-38
0.022524765 -0.0807482 0.0069668079 2.3509886e-38
0.024341615 -0.080122024 0.0099061513 2.3509886e-38
0.026212579 -0.080122024 0.0099061513 2.3509886e-38
0.02808354 -0.080122024 0.0099061513 2.3509886e-38
0.029851709 -0.079260677 0.013949492 2.3509886e-38
0.031715583 -0.079260677 0.013949492 2.3509886e-38
0.033579458 -0.079260677 0.013949492 2.3509886e-38
0.035443328 -0.079260677 0.013949492 2.3509886e-38
0.037307203 -0.079260677 0.013949492 2.3509886e-38
0.039171077 -0.079260677 0.013949492 2.3509886e-38
0.041034952 -0.079260677 0.013949492 2.3509886e-38
0.042898826 -0.079260677 0.013949492 2.3509886e-38
0.044762701 -0.079260677 0.013949492 2.3509886e-38
0.046626575 -0.079260677 0.013949492 2.3509886e-38
0.04849045 -0.079260677 0.013949492 2.3509886e-38
0.050354324 -0.079260677 0.013949492 2.3509886e-38
0.052218199 -0.079260677 0.013949492 2.3509886e-38
0.053936824 -0.078618944 0.01696191 2.3509886e-38
0.055795416 -0.078618944 0.01696191 2.3509886e-38
0.057499073 -0.077980831 0.019957282 2.3509886e-38
0.059352413 -0.077980831 0.019957282 2.3509886e-38
0.061041258 -0.07734634 0.022935726 2.3509886e-38
0.062658332 -0.076482594 0.026990272 2.3325138e-38
0.064499341 -0.076482594 0.026990272 2.341805e-38
0.06634035 -0.076482594 0.026990272 2.3233662e-38
0.068181358 -0.076482594 0.026990272 2.3049626e-38
0.070022367 -0.076482594 0.026990272 2.3418047e-38
0.07167013 -0.075856477 0.029929377 2.2957064e-38
0.073505983 -0.075856477 0.029929377 2.3509876e-38
0.075341843 -0.075856477 0.029929377 1.4011204e-38
0.077177696 -0.075856477 0.029929377 9.0304816e-39
0.07922741 -0.076482594 0.026990272 5.8029157e-39
0.081068419 -0.076482594 0.026990272 3.8675263e-39
-0.091623329 -0.096378669 -0.05707147 3.6734198e-40
-0.08898548 -0.094667718 -0.049105547 4.0540728e-39
-0.086771287 -0.094022244 -0.046100281 1.4104478e-38
-0.084802128 -0.094022244 -0.046100281 2.3509873e-38
-0.08283297 -0.094022244 -0.046100281 2.3509876e-38
-0.080567069 -0.093166932 -0.042118095 2.3141455e-38
-0.078604884 -0.093166932 -0.042118095 2.350988e-38
-0.0763532 -0.092291236 -0.038041018 2.3418047e-38
-0.074398167 -0.092291236 -0.038041018 2.3418047e-38
-0.072244234 -0.091658354 -0.035094403 2.341805e-38
-0.070294373 -0.091658354 -0.035094403 2.3509886e-38
-0.06808684 -0.09079358 -0.031068109 2.3509886e-38
-0.066144027 -0.09079358 -0.031068109 2.3509527e-38
-0.064201228 -0.09079358 -0.031068109 2.3509527e-38
-0.062258415 -0.09079358 -0.031068109 2.3509527e-38
-0.060315616 -0.09079358 -0.031068109 2.3509527e-38
-0.05837281 -0.09079358 -0.031068109 2.3509886e-38
-0.056430005 -0.09079358 -0.031068109 2.3509886e-38
-0.054487199 -0.09079358 -0.031068109 2.3509886e-38
-0.052392952 -0.090142623 -0.028037332 2.3509886e-38
-0.050455458 -0.090142623 -0.028037332 2.3509886e-38
-0.048517965 -0.090142623 -0.028037332 2.3509886e-38
-0.046580471 -0.090142623 -0.028037332 2.3509886e-38
-0.04447221 -0.089288771 -0.024061941 2.3509886e-38
-0.04254169 -0.089288771 -0.024061941 2.3509886e-38
-0.04061117 -0.089288771 -0.024061941 2.3509886e-38
-0.038680658 -0.089288771 -0.024061941 2.3509886e-38
-0.036750138 -0.089288771 -0.024061941 2.3509886e-38
-0.034684673 -0.088441074 -0.020115159 2.3509886e-38
-0.032761075 -0.088441074 -0.020115159 2.3509886e-38
-0.030837471 -0.088441074 -0.020115159 2.3509886e-38
-0.028913872 -0.088441074 -0.020115159 2.3509886e-38
-0.026990274 -0.088441074 -0.020115159 2.3509886e-38
-0.025066668 -0.088441074 -0.020115159 2.3509886e-38
-0.023069935 -0.087777436 -0.017025374 2.3509886e-38
-0.021151753 -0.087777436 -0.017025374 2.3509886e-38
-0.019152625 -0.08691521 -0.013011 2.3509886e-38
-0.01724148 -0.08691521 -0.013011 2.3509886e-38
-0.015330339 -0.08691521 -0.013011 2.3509886e-38
-0.01341919 -0.08691521 -0.013011 2.3509886e-38
-0.011508046 -0.08691521 -0.013011 2.3509886e-38
-0.0095634777 -0.086285278 -0.010078094 2.3509886e-38
-0.0076574739 -0.086285278 -0.010078094 2.3509886e-38
-0.0057514738 -0.086285278 -0.010078094 2.3509886e-38
-0.00384547 -0.086285278 -0.010078094 2.3509886e-38
-0.0019261707 -0.085633695 -0.007044456 2.3509886e-38
-2.5486574e-05 -0.085633695 -0.007044456 2.3509886e-38
0.0018786509 -0.084787115 -0.00310292 2.3509886e-38
0.0037697982 -0.084143862 -0.00010802504 2.3509886e-38
0.0056583192 -0.084143862 -0.00010802504 2.3509886e-38
0.0075468402 -0.084143862 -0.00010802504 2.3509886e-38
0.0094353631 -0.084143862 -0.00010802504 2.3509886e-38
0.011323884 -0.084143862 -0.00010802504 2.3509886e-38
0.01317378 -0.083283588 0.0038972879 2.3509886e-38
0.015055279 -0.083283588 0.0038972879 2.3509886e-38
0.016936779 -0.083283588 0.0038972879 2.3509886e-38
0.018818278 -0.083283588 0.0038972879 2.3509886e-38
0.020648647 -0.082624316 0.0069668079 2.3509886e-38
0.022470651 -0.081992984 0.0099061513 2.3509886e-38
0.024341615 -0.081992984 0.0099061513 2.3509886e-38
0.026212579 -0.081992984 0.0099061513 2.3509886e-38
0.02808354 -0.081992984 0.0099061513 2.3509886e-38
0.029851709 -0.081124544 0.013949492 2.3509886e-38
0.031715583 -0.081124544 0.013949492 2.3509886e-38
0.033579458 -0.081124544 0.013949492 2.3509886e-38
0.035443328 -0.081124544 0.013949492 2.3509886e-38
0.037307203 -0.081124544 0.013949492 2.3509886e-38
0.039171077 -0.081124544 0.013949492 2.3509886e-38
0.041034952 -0.081124544 0.013949492 2.3509886e-38
0.042898826 -0.081124544 0.013949492 2.3509886e-38
0.044762701 -0.081124544 0.013949492 2.3509527e-38
0.046626575 -0.081124544 0.013949492 2.3509527e-38
0.04849045 -0.081124544 0.013949492 2.3509527e-38
0.050354324 -0.081124544 0.013949492 2.3509527e-38
0.052218199 -0.081124544 0.013949492 2.3509886e-38
0.053936824 -0.080477536 0.01696191 2.3509886e-38
0.055645734 -0.079834178 0.019957282 2.3509886e-38
0.057499073 -0.079834178 0.019957282 2.3509886e-38
0.059193134 -0.079194456 0.022935726 2.3509886e-38
0.061041258 -0.079194456 0.022935726 2.3509886e-38
0.062658332 -0.078323603 0.026990272 2.3325856e-38
0.064499341 -0.078323603 0.026990272 2.341805e-38
0.06634035 -0.078323603 0.026990272 2.3325856e-38
0.068181358 -0.078323603 0.026990272 2.3141819e-38
0.070022367 -0.078323603 0.026990272 2.3418045e-38
0.07167013 -0.07769233 0.029929377 2.3140736e-38
0.073505983 -0.07769233 0.029929377 2.3509517e-38
0.075341843 -0.07769233 0.029929377 1.3180724e-38
0.077177696 -0.07769233 0.029929377 9.0304816e-39
0.07922741 -0.078323603 0.026990272 6.9092604e-39
0.081068419 -0.078323603 0.026990272 5.4341331e-39
0.083218671 -0.079194456 0.022935726 3.4994641e-39
-0.090959899 -0.096642151 -0.049105547 3.6734198e-40
-0.088740461 -0.095991403 -0.046100281 6.9121373e-39
-0.086771287 -0.095991403 -0.046100281 1.6132782e-38
-0.084491424 -0.095129102 -0.042118095 2.3509873e-38
-0.082529254 -0.095129102 -0.042118095 2.3509876e-38
-0.080567069 -0.095129102 -0.042118095 2.3233648e-38
-0.078604884 -0.095129102 -0.042118095 2.3418042e-38
-0.0763532 -0.094246268 -0.038041018 2.3418045e-38
-0.074398167 -0.094246268 -0.038041018 2.3418045e-38
-0.072244234 -0.093608215 -0.035094403 2.3418047e-38
-0.070294373 -0.093608215 -0.035094403 2.3509883e-38
-0.06808684 -0.092736378 -0.031068109 2.3509886e-38
-0.066144027 -0.092736378 -0.031068109 2.3509527e-38
-0.064201228 -0.092736378 -0.031068109 2.3509527e-38
-0.062258415 -0.092736378 -0.031068109 2.3509527e-38
-0.060315616 -0.092736378 -0.031068109 2.3509527e-38
-0.05837281 -0.092736378 -0.031068109 2.3509886e-38
-0.056430005 -0.092736378 -0.031068109 2.3509886e-38
-0.054487199 -0.092736378 -0.031068109 2.3509886e-38
-0.052392952 -0.092080101 -0.028037332 2.3509886e-38
-0.050455458 -0.092080101 -0.028037332 2.3509886e-38
-0.048517965 -0.092080101 -0.028037332 2.3509886e-38
-0.04640273 -0.091219291 -0.024061941 2.3509886e-38
-0.04447221 -0.091219291 -0.024061941 2.3509886e-38
-0.042379074 -0.090364665 -0.020115159 2.3509886e-38
-0.040455468 -0.090364665 -0.020115159 2.3509886e-38
-0.038531877 -0.090364665 -0.020115159 2.3509886e-38
-0.036608271 -0.090364665 -0.020115159 2.3509886e-38
-0.034579031 -0.089695618 -0.017025374 2.3509886e-38
-0.032660849 -0.089695618 -0.017025374 2.3509886e-38
-0.030742666 -0.089695618 -0.017025374 2.3509886e-38
-0.028824484 -0.089695618 -0.017025374 2.3509886e-38
-0.026906298 -0.089695618 -0.017025374 2.3509886e-38
-0.025066668 -0.090364665 -0.020115159 2.3509886e-38
-0.023069935 -0.089695618 -0.017025374 2.3509886e-38
-0.021151753 -0.089695618 -0.017025374 2.3509886e-38
-0.019152625 -0.088826358 -0.013011 2.3509886e-38
-0.01724148 -0.088826358 -0.013011 2.3509886e-38
-0.015330339 -0.088826358 -0.013011 2.3509886e-38
-0.01341919 -0.088826358 -0.013011 2.3509886e-38
-0.011469478 -0.088191271 -0.010078094 2.3509886e-38
-0.0095634777 -0.088191271 -0.010078094 2.3509886e-38
-0.0076282192 -0.087534383 -0.007044456 2.3509886e-38
-0.005727537 -0.087534383 -0.007044456 2.3509886e-38
-0.0038268548 -0.087534383 -0.007044456 2.3509886e-38
-0.0019088928 -0.086680889 -0.00310292 2.3509886e-38
-1.5120953e-05 -0.086680889 -0.00310292 2.3509886e-38
0.0018812772 -0.086032391 -0.00010802504 2.3509886e-38
0.0037697982 -0.086032391 -0.00010802504 2.3509886e-38
0.0056583192 -0.086032391 -0.00010802504 2.3509886e-38
0.0075468402 -0.086032391 -0.00010802504 2.3509886e-38
0.0094107836 -0.085165098 0.0038972879 2.3509886e-38
0.011292282 -0.085165098 0.0038972879 2.3509886e-38
0.01314418 -0.084500432 0.0069668079 2.3509886e-38
0.015020297 -0.084500432 0.0069668079 2.3509886e-38
0.016936779 -0.085165098 0.0038972879 2.3509886e-38
0.018772531 -0.084500432 0.0069668079 2.3509886e-38
0.020648647 -0.084500432 0.0069668079 2.3509886e-38
0.022470651 -0.083863959 0.0099061513 2.3509886e-38
0.024341615 -0.083863959 0.0099061513 2.3509886e-38
0.026212579 -0.083863959 0.0099061513 2.3509886e-38
0.027987836 -0.082988426 0.013949492 2.3509886e-38
0.029851709 -0.082988426 0.013949492 2.3509886e-38
0.031715583 -0.082988426 0.013949492 2.3509886e-38
0.033579458 -0.082988426 0.013949492 2.3509883e-38
0.035443328 -0.082988426 0.013949492 2.3509883e-38
0.037307203 -0.082988426 0.013949492 2.3509886e-38
0.039171077 -0.082988426 0.013949492 2.3509886e-38
0.041034952 -0.082988426 0.013949492 2.3509886e-38
0.042898826 -0.082988426 0.013949492 2.3509886e-38
0.044762701 -0.082988426 0.013949492 2.3509527e-38
0.046626575 -0.082988426 0.013949492 2.3509527e-38
0.04849045 -0.082988426 0.013949492 2.3509527e-38
0.050354324 -0.082988426 0.013949492 2.3509886e-38
0.052218199 -0.082988426 0.013949492 2.3509886e-38
0.053936824 -0.082336128 0.01696191 2.3509886e-38
0.055645734 -0.08168751 0.019957282 2.3509886e-38
0.057499073 -0.08168751 0.019957282 2.3509883e-38
0.059193134 -0.081042573 0.022935726 2.3509883e-38
0.061041258 -0.081042573 0.022935726 2.3509883e-38
0.062658332 -0.080164611 0.026990272 2.304927e-38
0.064499341 -0.080164611 0.026990272 2.341805e-38
0.06634035 -0.080164611 0.026990272 2.3142542e-38
0.068181358 -0.080164611 0.026990272 2.3050703e-38
0.070022367 -0.080164611 0.026990272 2.350988e-38
0.07167013 -0.079528198 0.029929377 2.3325483e-38
0.073505983 -0.079528198 0.029929377 2.3509873e-38
0.075341843 -0.079528198 0.029929377 1.2443159e-38
0.077386402 -0.080164611 0.026990272 8.5695006e-39
0.07922741 -0.080164611 0.026990272 7.1858473e-39
0.081370555 -0.081042573 0.022935726 5.8951113e-39
0.083218671 -0.081042573 0.022935726 3.7760537e-39
-0.090959899 -0.098616585 -0.049105547 5.5173044e-40
-0.088415779 -0.097091287 -0.042118095 9.7705591e-39
-0.086453609 -0.097091287 -0.042118095 1.7607909e-38
-0.084491424 -0.097091287 -0.042118095 2.350987e-38
-0.082529254 -0.097091287 -0.042118095 2.3509873e-38
-0.080567069 -0.097091287 -0.042118095 2.3325843e-38
-0.078308232 -0.096201301 -0.038041018 2.3509876e-38
-0.0763532 -0.096201301 -0.038041018 2.3418043e-38
-0.074398167 -0.096201301 -0.038041018 2.3418043e-38
-0.072244234 -0.095558092 -0.035094403 2.3418045e-38
-0.070029639 -0.094679192 -0.031068109 2.3509883e-38
-0.06808684 -0.094679192 -0.031068109 2.3509883e-38
-0.066144027 -0.094679192 -0.031068109 2.3509527e-38
-0.064201228 -0.094679192 -0.031068109 2.3509527e-38
-0.062258415 -0.094679192 -0.031068109 2.3509527e-38
-0.060315616 -0.094679192 -0.031068109 2.3509527e-38
-0.05837281 -0.094679192 -0.031068109 2.3509886e-38
-0.056430005 -0.094679192 -0.031068109 2.3509886e-38
-0.054487199 -0.094679192 -0.031068109 2.3509886e-38
-0.052392952 -0.094017595 -0.028037332 2.3509886e-38
-0.050455458 -0.094017595 -0.028037332 2.3509886e-38
-0.048517965 -0.094017595 -0.028037332 2.3509886e-38
-0.04640273 -0.093149811 -0.024061941 2.3509886e-38
-0.04447221 -0.093149811 -0.024061941 2.3509886e-38
-0.042379074 -0.092288271 -0.020115159 2.3509886e-38
-0.040455468 -0.092288271 -0.020115159 2.3509886e-38
-0.038415402 -0.091613799 -0.017025374 2.3509886e-38
-0.03649722 -0.091613799 -0.017025374 2.3509886e-38
-0.034579031 -0.091613799 -0.017025374 2.3509886e-38
-0.032530636 -0.090737507 -0.013011 2.3509886e-38
-0.030619493 -0.090737507 -0.013011 2.3509886e-38
-0.028708348 -0.090737507 -0.013011 2.3509886e-38
-0.026797203 -0.090737507 -0.013011 2.3509886e-38
-0.024988117 -0.091613799 -0.017025374 2.3509886e-38
-0.023069935 -0.091613799 -0.017025374 2.3509886e-38
-0.021063769 -0.090737507 -0.013011 2.3509886e-38
-0.019152625 -0.090737507 -0.013011 2.3509886e-38
-0.01724148 -0.090737507 -0.013011 2.3509886e-38
-0.015330339 -0.090737507 -0.013011 2.3509886e-38
-0.013375482 -0.090097278 -0.010078094 2.3509886e-38
-0.011469478 -0.090097278 -0.010078094 2.3509886e-38
-0.0095634777 -0.090097278 -0.010078094 2.3509886e-38
-0.0076282192 -0.089435071 -0.007044456 2.3509886e-38
-0.005727537 -0.089435071 -0.007044456 2.3509886e-38
-0.0038268548 -0.089435071 -0.007044456 2.3509886e-38
-0.0019088928 -0.088574663 -0.00310292 2.3509886e-38
-1.5120953e-05 -0.088574663 -0.00310292 2.3509886e-38
0.0018812772 -0.087920904 -0.00010802504 2.3509886e-38
0.0037697982 -0.087920904 -0.00010802504 2.3509886e-38
0.0056583192 -0.087920904 -0.00010802504 2.3509886e-38
0.0075468402 -0.087920904 -0.00010802504 2.3509886e-38
0.0094107836 -0.087046593 0.0038972879 2.3509886e-38
0.011292282 -0.087046593 0.0038972879 2.3509886e-38
0.01314418 -0.086376548 0.0069668079 2.3509886e-38
0.015020297 -0.086376548 0.0069668079 2.3509886e-38
0.016936779 -0.087046593 0.0038972879 2.3509886e-38
0.018772531 -0.086376548 0.0069668079 2.3509886e-38
0.020599687 -0.085734919 0.0099061513 2.3509886e-38
0.022470651 -0.085734919 0.0099061513 2.3509886e-38
0.024341615 -0.085734919 0.0099061513 2.3509886e-38
0.026212579 -0.085734919 0.0099061513 2.3509886e-38
0.027987836 -0.084852293 0.013949492 2.3509886e-38
0.029851709 -0.084852293 0.013949492 2.3509886e-38
0.031715583 -0.084852293 0.013949492 2.3509886e-38
0.033579458 -0.084852293 0.013949492 2.3509883e-38
0.035443328 -0.084852293 0.013949492 2.350988e-38
0.037307203 -0.084852293 0.013949492 2.3509883e-38
0.039171077 -0.084852293 0.013949492 2.3509883e-38
0.041034952 -0.084852293 0.013949492 2.3509886e-38
0.042898826 -0.084852293 0.013949492 2.3509886e-38
0.044762701 -0.084852293 0.013949492 2.3509886e-38
0.046626575 -0.084852293 0.013949492 2.3509886e-38
0.04849045 -0.084852293 0.013949492 2.3509886e-38
0.050354324 -0.084852293 0.013949492 2.3509886e-38
0.052078232 -0.08419472 0.01696191 2.3509886e-38
0.053936824 -0.08419472 0.01696191 2.3509886e-38
0.055645734 -0.083540857 0.019957282 2.3509886e-38
0.057499073 -0.083540857 0.019957282 2.3509883e-38
0.059193134 -0.082890689 0.022935726 2.3509883e-38
0.061041258 -0.082890689 0.022935726 2.3509883e-38
0.062658332 -0.08200562 0.026990272 2.3233662e-38
0.064499341 -0.08200562 0.026990272 2.3142544e-38
0.06634035 -0.08200562 0.026990272 2.3234379e-38
0.068181358 -0.08200562 0.026990272 2.3142537e-38
0.070022367 -0.08200562 0.026990272 2.3509879e-38
0.071863376 -0.08200562 0.026990272 2.3417679e-38
0.073704384 -0.08200562 0.026990272 2.3509514e-38
0.075545393 -0.08200562 0.026990272 1.152084e-38
0.077386402 -0.08200562 0.026990272 8.3843905e-39
0.07922741 -0.08200562 0.026990272 6.9085402e-39
0.081370555 -0.082890689 0.022935726 5.1575463e-39
0.083218671 -0.082890689 0.022935726 2.5775106e-39
0.085066788 -0.082890689 0.022935726 3.0406509e-39
-0.090709619 -0.09992972 -0.046100281 3.6734198e-40
-0.088415779 -0.099053472 -0.042118095 1.207545e-38
-0.086453609 -0.099053472 -0.042118095 1.8714257e-38
-0.084491424 -0.099053472 -0.042118095 2.3140366e-38
-0.082529254 -0.099053472 -0.042118095 2.3509509e-38
-0.080567069 -0.099053472 -0.042118095 2.3418036e-38
-0.078308232 -0.098156333 -0.038041018 2.3509873e-38
-0.0763532 -0.098156333 -0.038041018 2.3326203e-38
-0.074194096 -0.097507954 -0.035094403 2.341804e-38
-0.072244234 -0.097507954 -0.035094403 2.3418043e-38
-0.070029639 -0.09662199 -0.031068109 2.350988e-38
-0.06808684 -0.09662199 -0.031068109 2.3509883e-38
-0.066144027 -0.09662199 -0.031068109 2.3509527e-38
-0.064201228 -0.09662199 -0.031068109 2.3509527e-38
-0.062258415 -0.09662199 -0.031068109 2.3509527e-38
-0.060315616 -0.09662199 -0.031068109 2.3509527e-38
-0.05837281 -0.09662199 -0.031068109 2.3509886e-38
-0.056430005 -0.09662199 -0.031068109 2.3509886e-38
-0.054330438 -0.095955089 -0.028037332 2.3509886e-38
-0.052392952 -0.095955089 -0.028037332 2.3509886e-38
-0.050455458 -0.095955089 -0.028037332 2.3509886e-38
-0.048517965 -0.095955089 -0.028037332 2.3509886e-38
-0.04640273 -0.095080331 -0.024061941 2.3509886e-38
-0.04447221 -0.095080331 -0.024061941 2.3509886e-38
-0.042379074 -0.094211861 -0.020115159 2.3509886e-38
-0.040455468 -0.094211861 -0.020115159 2.3509886e-38
-0.038415402 -0.093531981 -0.017025374 2.3509886e-38
-0.03649722 -0.093531981 -0.017025374 2.3509886e-38
-0.034441784 -0.09264864 -0.013011 2.3509886e-38
-0.032530636 -0.09264864 -0.013011 2.3509886e-38
-0.030619493 -0.09264864 -0.013011 2.3509886e-38
-0.028708348 -0.09264864 -0.013011 2.3509886e-38
-0.026797203 -0.09264864 -0.013011 2.3509886e-38
-0.024988117 -0.093531981 -0.017025374 2.3509886e-38
-0.023069935 -0.093531981 -0.017025374 2.3509886e-38
-0.021063769 -0.09264864 -0.013011 2.3509886e-38
-0.019093486 -0.092003286 -0.010078094 2.3509886e-38
-0.017187485 -0.092003286 -0.010078094 2.3509886e-38
-0.015281485 -0.092003286 -0.010078094 2.3509886e-38
-0.013375482 -0.092003286 -0.010078094 2.3509886e-38
-0.011469478 -0.092003286 -0.010078094 2.3509886e-38
-0.0095634777 -0.092003286 -0.010078094 2.3509886e-38
-0.0076282192 -0.091335744 -0.007044456 2.3509886e-38
-0.005727537 -0.091335744 -0.007044456 2.3509886e-38
-0.0038268548 -0.091335744 -0.007044456 2.3509886e-38
-0.0019088928 -0.090468436 -0.00310292 2.3509886e-38
-1.5120953e-05 -0.090468436 -0.00310292 2.3509886e-38
0.0018812772 -0.089809433 -0.00010802504 2.3509886e-38
0.0037697982 -0.089809433 -0.00010802504 2.3509886e-38
0.0056583192 -0.089809433 -0.00010802504 2.3509886e-38
0.0075468402 -0.089809433 -0.00010802504 2.3509886e-38
0.0094107836 -0.088928089 0.0038972879 2.3509886e-38
0.011292282 -0.088928089 0.0038972879 2.3509886e-38
0.01317378 -0.088928089 0.0038972879 2.3509886e-38
0.015055279 -0.088928089 0.0038972879 2.3509886e-38
0.016936779 -0.088928089 0.0038972879 2.3509886e-38
0.018772531 -0.088252664 0.0069668079 2.3509886e-38
0.020599687 -0.087605879 0.0099061513 2.3509886e-38
0.022470651 -0.087605879 0.0099061513 2.3509886e-38
0.024341615 -0.087605879 0.0099061513 2.3509886e-38
0.026212579 -0.087605879 0.0099061513 2.3509886e-38
0.027987836 -0.086716175 0.013949492 2.3509886e-38
0.029851709 -0.086716175 0.013949492 2.3509886e-38
0.031715583 -0.086716175 0.013949492 2.3509883e-38
0.033579458 -0.086716175 0.013949492 2.350988e-38
0.035443328 -0.086716175 0.013949492 2.350988e-38
0.037307203 -0.086716175 0.013949492 2.350988e-38
0.039171077 -0.086716175 0.013949492 2.3509883e-38
0.041034952 -0.086716175 0.013949492 2.3509886e-38
0.042898826 -0.086716175 0.013949492 2.3509886e-38
0.044762701 -0.086716175 0.013949492 2.3509886e-38
0.046626575 -0.086716175 0.013949492 2.3509886e-38
0.04849045 -0.086716175 0.013949492 2.3509886e-38
0.050354324 -0.086716175 0.013949492 2.3509886e-38
0.052078232 -0.086053312 0.01696191 2.3509886e-38
0.053936824 -0.086053312 0.01696191 2.3509886e-38
0.055645734 -0.085394189 0.019957282 2.3509883e-38
0.057499073 -0.085394189 0.019957282 2.350988e-38
0.059193134 -0.084738806 0.022935726 2.350988e-38
0.061041258 -0.084738806 0.022935726 2.3418045e-38
0.062658332 -0.083846629 0.026990272 2.341805e-38
0.064499341 -0.083846629 0.026990272 2.3234379e-38
0.06634035 -0.083846629 0.026990272 2.3234376e-38
0.068181358 -0.083846629 0.026990272 2.3142537e-38
0.070022367 -0.083846629 0.026990272 2.3509879e-38
0.071863376 -0.083846629 0.026990272 2.3417676e-38
0.073704384 -0.083846629 0.026990272 2.3508791e-38
0.075545393 -0.083846629 0.026990272 1.0414492e-38
0.077386402 -0.083846629 0.026990272 9.0297599e-39
0.07922741 -0.083846629 0.026990272 7.0929314e-39
0.081370555 -0.084738806 0.022935726 4.6043753e-39
0.083218671 -0.084738806 0.022935726 1.4711658e-39
0.085066788 -0.084738806 0.022935726 1.4733252e-39
-0.090709619 -0.10189888 -0.046100281 3.6734198e-40
-0.088415779 -0.10101564 -0.042118095 1.4195949e-38
-0.086453609 -0.10101564 -0.042118095 2.0189386e-38
-0.084491424 -0.10101564 -0.042118095 2.3048169e-38
-0.082529254 -0.10101564 -0.042118095 2.3416952e-38
-0.080263264 -0.10011137 -0.038041018 2.3234001e-38
-0.078093819 -0.099457815 -0.035094403 2.3418033e-38
-0.076143958 -0.099457815 -0.035094403 2.3234364e-38
-0.074194096 -0.099457815 -0.035094403 2.341804e-38
-0.072244234 -0.099457815 -0.035094403 2.3418043e-38
-0.070029639 -0.098564804 -0.031068109 2.350988e-38
-0.06808684 -0.098564804 -0.031068109 2.350988e-38
-0.066144027 -0.098564804 -0.031068109 2.3509883e-38
-0.064201228 -0.098564804 -0.031068109 2.3509883e-38
-0.062258415 -0.098564804 -0.031068109 2.3509527e-38
-0.060315616 -0.098564804 -0.031068109 2.3509527e-38
-0.05837281 -0.098564804 -0.031068109 2.3509886e-38
-0.056267925 -0.097892582 -0.028037332 2.3509886e-38
-0.054330438 -0.097892582 -0.028037332 2.3509886e-38
-0.052392952 -0.097892582 -0.028037332 2.3509886e-38
-0.050455458 -0.097892582 -0.028037332 2.3509886e-38
-0.048517965 -0.097892582 -0.028037332 2.3509886e-38
-0.04640273 -0.097010851 -0.024061941 2.3509886e-38
-0.04447221 -0.097010851 -0.024061941 2.3509886e-38
-0.042379074 -0.096135467 -0.020115159 2.3509886e-38
-0.040455468 -0.096135467 -0.020115159 2.3509886e-38
-0.038415402 -0.095450163 -0.017025374 2.3509886e-38
-0.03649722 -0.095450163 -0.017025374 2.3509886e-38
-0.034441784 -0.094559789 -0.013011 2.3509886e-38
-0.032530636 -0.094559789 -0.013011 2.3509886e-38
-0.030619493 -0.094559789 -0.013011 2.3509886e-38
-0.028708348 -0.094559789 -0.013011 2.3509886e-38
-0.026797203 -0.094559789 -0.013011 2.3509886e-38
-0.024886059 -0.094559789 -0.013011 2.3509886e-38
-0.022974914 -0.094559789 -0.013011 2.3509886e-38
-0.021063769 -0.094559789 -0.013011 2.3509886e-38
-0.019093486 -0.093909279 -0.010078094 2.3509886e-38
-0.017187485 -0.093909279 -0.010078094 2.3509886e-38
-0.015281485 -0.093909279 -0.010078094 2.3509886e-38
-0.013375482 -0.093909279 -0.010078094 2.3509886e-38
-0.011469478 -0.093909279 -0.010078094 2.3509886e-38
-0.0095634777 -0.093909279 -0.010078094 2.3509886e-38
-0.0076282192 -0.093236431 -0.007044456 2.3509886e-38
-0.005727537 -0.093236431 -0.007044456 2.3509886e-38
-0.0038026664 -0.09236221 -0.00310292 2.3509886e-38
-0.0019088928 -0.09236221 -0.00310292 2.3509886e-38
-1.5120953e-05 -0.09236221 -0.00310292 2.3509886e-38
0.0018812772 -0.091697961 -0.00010802504 2.3509886e-38
0.0037697982 -0.091697961 -0.00010802504 2.3509886e-38
0.0056583192 -0.091697961 -0.00010802504 2.3509886e-38
0.0075468402 -0.091697961 -0.00010802504 2.3509886e-38
0.0094353631 -0.091697961 -0.00010802504 2.3509886e-38
0.011292282 -0.090809584 0.0038972879 2.3509886e-38
0.01317378 -0.090809584 0.0038972879 2.3509886e-38
0.015055279 -0.090809584 0.0038972879 2.3509886e-38
0.016936779 -0.090809584 0.0038972879 2.3509886e-38
0.018772531 -0.090128779 0.0069668079 2.3509886e-38
0.020648647 -0.090128779 0.0069668079 2.3509886e-38
0.022470651 -0.089476839 0.0099061513 2.3509886e-38
0.024341615 -0.089476839 0.0099061513 2.3509886e-38
0.026212579 -0.089476839 0.0099061513 2.3509886e-38
0.027987836 -0.088580042 0.013949492 2.3509886e-38
0.029851709 -0.088580042 0.013949492 2.3509886e-38
0.031715583 -0.088580042 0.013949492 2.3509883e-38
0.033579458 -0.088580042 0.013949492 2.3509879e-38
0.035443328 -0.088580042 0.013949492 2.3509879e-38
0.037307203 -0.088580042 0.013949492 2.350988e-38
0.039171077 -0.088580042 0.013949492 2.3509883e-38
0.041034952 -0.088580042 0.013949492 2.3509886e-38
0.042898826 -0.088580042 0.013949492 2.3509886e-38
0.044762701 -0.088580042 0.013949492 2.3509886e-38
0.046626575 -0.088580042 0.013949492 2.3509886e-38
0.04849045 -0.088580042 0.013949492 2.3509886e-38
0.050354324 -0.088580042 0.013949492 2.3509886e-38
0.052078232 -0.087911904 0.01696191 2.3509886e-38
0.053936824 -0.087911904 0.01696191 2.3509886e-38
0.055645734 -0.087247536 0.019957282 2.3509883e-38
0.057499073 -0.087247536 0.019957282 2.350988e-38
0.059193134 -0.086586922 0.022935726 2.3509879e-38
0.061041258 -0.086586922 0.022935726 2.3418043e-38
0.062658332 -0.085687637 0.026990272 2.3418047e-38
0.064499341 -0.085687637 0.026990272 2.3142542e-38
0.06634035 -0.085687637 0.026990272 2.3234376e-38
0.068181358 -0.085687637 0.026990272 2.3050698e-38
0.070022367 -0.085687637 0.026990272 2.3418039e-38
0.071863376 -0.085687637 0.026990272 2.3509872e-38
0.073704384 -0.085687637 0.026990272 2.3509151e-38
0.075826198 -0.086586922 0.022935726 9.861317e-39
0.077674314 -0.086586922 0.022935726 9.6751293e-39
0.079522431 -0.086586922 0.022935726 8.0148877e-39
0.081370555 -0.086586922 0.022935726 5.9873097e-39
0.083218671 -0.086586922 0.022935726 3.0384915e-39
0.085066788 -0.086586922 0.022935726 2.5793168e-39
-0.094302319 -0.10297783 -0.042118095 9.1835496e-41
-0.092340149 -0.10297783 -0.042118095 3.6770072e-40
-0.090377964 -0.10297783 -0.042118095 8.2759566e-40
-0.088415779 -0.10297783 -0.042118095 1.5854749e-38
-0.086453609 -0.10297783 -0.042118095 2.1663793e-38
-0.084491424 -0.10297783 -0.042118095 2.3508784e-38
-0.082529254 -0.10297783 -0.042118095 2.3416952e-38
-0.080263264 -0.1020664 -0.038041018 2.3141444e-38
-0.078093819 -0.10140768 -0.035094403 2.3234001e-38
-0.076143958 -0.10140768 -0.035094403 2.3049972e-38
-0.074194096 -0.10140768 -0.035094403 2.341804e-38
-0.071972437 -0.1005076 -0.031068109 2.3418043e-38
-0.070029639 -0.1005076 -0.031068109 2.350988e-38
-0.06808684 -0.1005076 -0.031068109 2.3509883e-38
-0.065955378 -0.099830076 -0.028037332 2.3509883e-38
-0.064017899 -0.099830076 -0.028037332 2.3509883e-38
-0.062080406 -0.099830076 -0.028037332 2.3509527e-38
-0.060142912 -0.099830076 -0.028037332 2.3509886e-38
-0.05837281 -0.1005076 -0.031068109 2.3509886e-38
-0.056267925 -0.099830076 -0.028037332 2.3509886e-38
-0.054330438 -0.099830076 -0.028037332 2.3509886e-38
-0.052392952 -0.099830076 -0.028037332 2.3509886e-38
-0.050455458 -0.099830076 -0.028037332 2.3509886e-38
-0.048333257 -0.098941371 -0.024061941 2.3509886e-38
-0.04640273 -0.098941371 -0.024061941 2.3509886e-38
-0.04447221 -0.098941371 -0.024061941 2.3509886e-38
-0.042379074 -0.098059073 -0.020115159 2.3509886e-38
-0.040333577 -0.097368345 -0.017025374 2.3509886e-38
-0.038415402 -0.097368345 -0.017025374 2.3509886e-38
-0.036352925 -0.096470937 -0.013011 2.3509886e-38
-0.034441784 -0.096470937 -0.013011 2.3509886e-38
-0.032530636 -0.096470937 -0.013011 2.3509886e-38
-0.030619493 -0.096470937 -0.013011 2.3509886e-38
-0.028708348 -0.096470937 -0.013011 2.3509886e-38
-0.026797203 -0.096470937 -0.013011 2.3509886e-38
-0.024886059 -0.096470937 -0.013011 2.3509886e-38
-0.022974914 -0.096470937 -0.013011 2.3509886e-38
-0.021063769 -0.096470937 -0.013011 2.3509886e-38
-0.019093486 -0.095815286 -0.010078094 2.3509886e-38
-0.017187485 -0.095815286 -0.010078094 2.3509886e-38
-0.015281485 -0.095815286 -0.010078094 2.3509886e-38
-0.013375482 -0.095815286 -0.010078094 2.3509886e-38
-0.011469478 -0.095815286 -0.010078094 2.3509886e-38
-0.0095634777 -0.095815286 -0.010078094 2.3509886e-38
-0.0076282192 -0.095137119 -0.007044456 2.3509886e-38
-0.005727537 -0.095137119 -0.007044456 2.3509886e-38
-0.0038026664 -0.094255984 -0.00310292 2.3509886e-38
-0.0019088928 -0.094255984 -0.00310292 2.3509886e-38
-7.243827e-06 -0.093586475 -0.00010802504 2.3509886e-38
0.0018812772 -0.093586475 -0.00010802504 2.3509886e-38
0.0037662871 -0.092691094 0.0038972879 2.3509886e-38
0.005647786 -0.092691094 0.0038972879 2.3509886e-38
0.0075468402 -0.093586475 -0.00010802504 2.3509886e-38
0.0094353631 -0.093586475 -0.00010802504 2.3509886e-38
0.011323884 -0.093586475 -0.00010802504 2.3509886e-38
0.01317378 -0.092691094 0.0038972879 2.3509886e-38
0.015055279 -0.092691094 0.0038972879 2.3509886e-38
0.016936779 -0.092691094 0.0038972879 2.3509886e-38
0.018772531 -0.092004895 0.0069668079 2.3509886e-38
0.020648647 -0.092004895 0.0069668079 2.3509886e-38
0.022470651 -0.091347814 0.0099061513 2.3509886e-38
0.024341615 -0.091347814 0.0099061513 2.3509886e-38
0.026123961 -0.090443924 0.013949492 2.3509886e-38
0.027987836 -0.090443924 0.013949492 2.3509886e-38
0.029851709 -0.090443924 0.013949492 2.3509886e-38
0.031715583 -0.090443924 0.013949492 2.3509883e-38
0.033579458 -0.090443924 0.013949492 2.350988e-38
0.035443328 -0.090443924 0.013949492 2.350988e-38
0.037307203 -0.090443924 0.013949492 2.350988e-38
0.039171077 -0.090443924 0.013949492 2.3509883e-38
0.041034952 -0.090443924 0.013949492 2.3509886e-38
0.042898826 -0.090443924 0.013949492 2.3509886e-38
0.044762701 -0.090443924 0.013949492 2.3509886e-38
