# .PCD v0.7 - Point Cloud Data file format
VERSION 0.7
FIELDS x y z rgb
SIZE 4 4 4 4
TYPE F F F F
COUNT 1 1 1 1
WIDTH 941
HEIGHT 1
VIEWPOINT 0 0 0 1 0 0 0
POINTS 941
DATA ascii
0.048887175 -0.11993565 -0.022601569 2.3509883e-38
0.050829981 -0.11993565 -0.022601569 2.3509879e-38
0.052896325 -0.12090631 -0.026627863 2.3509879e-38
0.05484619 -0.12090631 -0.026627863 2.3509883e-38
0.056796052 -0.12090631 -0.026627863 2.3509886e-38
0.058851827 -0.12161671 -0.029574478 2.341769e-38
0.06096055 -0.12259962 -0.033651553 2.3325843e-38
0.062922731 -0.12259962 -0.033651553 2.3418022e-38
0.064884908 -0.12259962 -0.033651553 2.3326168e-38
0.066847086 -0.12259962 -0.033651553 2.2498183e-38
0.06898731 -0.12355967 -0.037633739 2.2775119e-38
0.070956469 -0.12355967 -0.037633739 2.2221224e-38
0.073070541 -0.12428416 -0.040639006 2.2404907e-38
0.075044967 -0.12428416 -0.040639006 2.3509844e-38
0.077019393 -0.12428416 -0.040639006 2.3509866e-38
0.078993827 -0.12428416 -0.040639006 2.3508807e-38
0.080968261 -0.12428416 -0.040639006 2.3509168e-38
0.082942694 -0.12428416 -0.040639006 2.3324055e-38
0.084740594 -0.12355967 -0.037633739 9.4025095e-39
0.086709768 -0.12355967 -0.037633739 7.283089e-39
0.088678926 -0.12355967 -0.037633739 8.0213729e-39
-0.084671296 -0.11094652 0.022416031 7.3760035e-39
-0.082807429 -0.11094652 0.022416031 6.9143051e-39
-0.080943547 -0.11094652 0.022416031 8.2043208e-39
-0.079451866 -0.11192839 0.01837269 1.1521919e-38
-0.077580906 -0.11192839 0.01837269 1.2166927e-38
-0.075709946 -0.11192839 0.01837269 1.1521192e-38
-0.073488049 -0.11094652 0.022416031 1.1059134e-38
-0.071624182 -0.11094652 0.022416031 8.7531562e-39
-0.069509424 -0.11021499 0.02542845 8.7506325e-39
-0.067406617 -0.10948761 0.028423822 1.2806158e-38
-0.065315671 -0.10876434 0.031402268 1.9723001e-38
-0.063151203 -0.10777976 0.035456814 2.3508428e-38
-0.060854889 -0.10633011 0.041426457 2.3509514e-38
-0.059024341 -0.10633011 0.041426457 2.350988e-38
-0.057193808 -0.10633011 0.041426457 2.2772321e-38
-0.05536326 -0.10633011 0.041426457 2.3509886e-38
-0.05374261 -0.10706602 0.038395919 2.3509527e-38
-0.051906742 -0.10706602 0.038395919 2.3509883e-38
-0.050070889 -0.10706602 0.038395919 2.3509524e-38
-0.048235036 -0.10706602 0.038395919 2.3509883e-38
-0.046399184 -0.10706602 0.038395919 2.3509527e-38
-0.044741116 -0.10777976 0.035456814 2.341805e-38
-0.0429001 -0.10777976 0.035456814 2.341805e-38
-0.041290134 -0.10876434 0.031402268 2.3234379e-38
-0.039442018 -0.10876434 0.031402268 2.3509886e-38
-0.037593894 -0.10876434 0.031402268 2.3509886e-38
-0.035745777 -0.10876434 0.031402268 2.3509886e-38
-0.034196176 -0.11021499 0.02542845 2.3509886e-38
-0.032337584 -0.11021499 0.02542845 2.3509886e-38
-0.030478992 -0.11021499 0.02542845 2.3509886e-38
-0.0286204 -0.11021499 0.02542845 2.3509886e-38
-0.026761808 -0.11021499 0.02542845 2.3509886e-38
-0.025027335 -0.11094652 0.022416031 2.3509886e-38
-0.02316346 -0.11094652 0.022416031 2.3509886e-38
-0.021299586 -0.11094652 0.022416031 2.3509886e-38
-0.019435715 -0.11094652 0.022416031 2.3509886e-38
-0.01757184 -0.11094652 0.022416031 2.3509886e-38
-0.015707966 -0.11094652 0.022416031 2.3509886e-38
-0.013844091 -0.11094652 0.022416031 2.3509886e-38
-0.011980221 -0.11094652 0.022416031 2.3509886e-38
-0.010306112 -0.11264218 0.015433348 2.3509886e-38
-0.0084299929 -0.11264218 0.015433348 2.3509886e-38
-0.0065538771 -0.11264218 0.015433348 2.3509886e-38
-0.0047450326 -0.11338757 0.012363828 2.3509886e-38
-0.0028635338 -0.11338757 0.012363828 2.3509886e-38
-0.0010557733 -0.1143602 0.0083585149 2.3509886e-38
0.00083274767 -0.1143602 0.0083585149 2.3509886e-38
0.0027212687 -0.1143602 0.0083585149 2.3509886e-38
0.0046097897 -0.1143602 0.0083585149 2.3509886e-38
0.0064641796 -0.11508749 0.0053636199 2.3509886e-38
0.0083579533 -0.11508749 0.0053636199 2.3509886e-38
0.010220626 -0.11604463 0.0014220838 2.3509886e-38
0.012121309 -0.11604463 0.0014220838 2.3509886e-38
0.014021993 -0.11604463 0.0014220838 2.3509886e-38
0.015914697 -0.11678131 -0.0016115542 2.3509886e-38
0.017818129 -0.11749353 -0.0045444602 2.3509886e-38
0.019729273 -0.11749353 -0.0045444602 2.3509886e-38
0.021640418 -0.11749353 -0.0045444602 2.3509886e-38
0.023551563 -0.11749353 -0.0045444602 2.3509886e-38
0.025462708 -0.11749353 -0.0045444602 2.3509886e-38
0.027373852 -0.11749353 -0.0045444602 2.3509886e-38
0.029323708 -0.11846836 -0.008558833 2.3509886e-38
0.031241892 -0.11846836 -0.008558833 2.3509886e-38
0.033200704 -0.11921866 -0.011648619 2.3509886e-38
0.035124306 -0.11921866 -0.011648619 2.3509886e-38
0.037113644 -0.12017711 -0.0155954 2.3509886e-38
0.039044168 -0.12017711 -0.0155954 2.3509886e-38
0.041054845 -0.12114246 -0.019570792 2.3509886e-38
0.042992339 -0.12114246 -0.019570792 2.3509886e-38
0.044929825 -0.12114246 -0.019570792 2.3509886e-38
0.046944372 -0.12187846 -0.022601569 2.3509886e-38
0.048887175 -0.12187846 -0.022601569 2.3509883e-38
0.050829981 -0.12187846 -0.022601569 2.3509879e-38
0.052896325 -0.12285618 -0.026627863 2.3509879e-38
0.05484619 -0.12285618 -0.026627863 2.350988e-38
0.056796052 -0.12285618 -0.026627863 2.350988e-38
0.058851827 -0.12357174 -0.029574478 2.3509879e-38
0.060806859 -0.12357174 -0.029574478 2.3509869e-38
0.062761888 -0.12357174 -0.029574478 2.3509855e-38
0.064884908 -0.1245618 -0.033651553 2.3509839e-38
0.066847086 -0.1245618 -0.033651553 2.2588944e-38
0.06898731 -0.12552883 -0.037633739 2.2774046e-38
0.070956469 -0.12552883 -0.037633739 2.2866241e-38
0.073070541 -0.1262586 -0.040639006 2.3049922e-38
0.075044967 -0.1262586 -0.040639006 2.3509842e-38
0.077019393 -0.1262586 -0.040639006 2.3509863e-38
0.078993827 -0.1262586 -0.040639006 2.3509521e-38
0.080968261 -0.1262586 -0.040639006 2.3509168e-38
0.082942694 -0.1262586 -0.040639006 2.3509524e-38
0.084740594 -0.12552883 -0.037633739 1.1707403e-38
0.086709768 -0.12552883 -0.037633739 7.6518743e-39
0.088678926 -0.12552883 -0.037633739 7.6525904e-39
-0.085064761 -0.11379938 0.01837269 9.8645653e-39
-0.083193801 -0.11379938 0.01837269 9.6794509e-39
-0.081322826 -0.11379938 0.01837269 1.0416653e-38
-0.079451866 -0.11379938 0.01837269 1.2260563e-38
-0.077580906 -0.11379938 0.01837269 1.2351318e-38
-0.075709946 -0.11379938 0.01837269 1.1429715e-38
-0.073838972 -0.11379938 0.01837269 1.0691431e-38
-0.071624182 -0.11281042 0.022416031 8.1074309e-39
-0.069509424 -0.11207359 0.02542845 8.658797e-39
-0.067406617 -0.11134095 0.028423822 1.0778936e-38
-0.065315671 -0.11061247 0.031402268 1.7234438e-38
-0.063151203 -0.10962076 0.035456814 2.3508428e-38
-0.060854889 -0.10816063 0.041426457 2.3509517e-38
-0.059024341 -0.10816063 0.041426457 2.350952e-38
-0.057193808 -0.10816063 0.041426457 2.2865232e-38
-0.05536326 -0.10816063 0.041426457 2.341805e-38
-0.053532712 -0.10816063 0.041426457 2.3509883e-38
-0.051702179 -0.10816063 0.041426457 2.3509883e-38
-0.050070889 -0.10890187 0.038395919 2.3509524e-38
-0.048235036 -0.10890187 0.038395919 2.3509883e-38
-0.046399184 -0.10890187 0.038395919 2.3509527e-38
-0.044563331 -0.10890187 0.038395919 2.341805e-38
-0.0429001 -0.10962076 0.035456814 2.341805e-38
-0.041059092 -0.10962076 0.035456814 2.3234379e-38
-0.039218083 -0.10962076 0.035456814 2.3509886e-38
-0.037593894 -0.11061247 0.031402268 2.3509886e-38
-0.035745777 -0.11061247 0.031402268 2.3509886e-38
-0.034046493 -0.11134095 0.028423822 2.3509886e-38
-0.032337584 -0.11207359 0.02542845 2.3509886e-38
-0.030478992 -0.11207359 0.02542845 2.3509886e-38
-0.0286204 -0.11207359 0.02542845 2.3509886e-38
-0.026761808 -0.11207359 0.02542845 2.3509886e-38
-0.025027335 -0.11281042 0.022416031 2.3509886e-38
-0.02316346 -0.11281042 0.022416031 2.3509886e-38
-0.021299586 -0.11281042 0.022416031 2.3509886e-38
-0.019435715 -0.11281042 0.022416031 2.3509886e-38
-0.01757184 -0.11281042 0.022416031 2.3509886e-38
-0.015707966 -0.11281042 0.022416031 2.3509886e-38
-0.013844091 -0.11281042 0.022416031 2.3509886e-38
-0.011980221 -0.11281042 0.022416031 2.3509886e-38
-0.010306112 -0.1145183 0.015433348 2.3509886e-38
-0.0084299929 -0.1145183 0.015433348 2.3509886e-38
-0.0065538771 -0.1145183 0.015433348 2.3509886e-38
-0.0047450326 -0.11526908 0.012363828 2.3509886e-38
-0.0028635338 -0.11526908 0.012363828 2.3509886e-38
-0.0010557733 -0.11624874 0.0083585149 2.3509886e-38
0.00083274767 -0.11624874 0.0083585149 2.3509886e-38
0.0027212687 -0.11624874 0.0083585149 2.3509886e-38
0.0046097897 -0.11624874 0.0083585149 2.3509886e-38
0.0064641796 -0.11698125 0.0053636199 2.3509886e-38
0.0083579533 -0.11698125 0.0053636199 2.3509886e-38
0.010251725 -0.11698125 0.0053636199 2.3509886e-38
0.012121309 -0.11794533 0.0014220838 2.3509886e-38
0.014021993 -0.11794533 0.0014220838 2.3509886e-38
0.015914697 -0.11868732 -0.0016115542 2.3509886e-38
0.017820699 -0.11868732 -0.0016115542 2.3509886e-38
0.019726703 -0.11868732 -0.0016115542 2.3509886e-38
0.021632705 -0.11868732 -0.0016115542 2.3509886e-38
0.023551563 -0.11940466 -0.0045444602 2.3509886e-38
0.025462708 -0.11940466 -0.0045444602 2.3509886e-38
0.027373852 -0.11940466 -0.0045444602 2.3509886e-38
0.029323708 -0.12038656 -0.008558833 2.3509886e-38
0.031241892 -0.12038656 -0.008558833 2.3509886e-38
0.033200704 -0.12114228 -0.011648619 2.3509886e-38
0.035124306 -0.12114228 -0.011648619 2.3509886e-38
0.037113644 -0.12210761 -0.0155954 2.3509886e-38
0.039044168 -0.12210761 -0.0155954 2.3509886e-38
0.040974688 -0.12210761 -0.0155954 2.3509886e-38
0.042992339 -0.12307997 -0.019570792 2.3509886e-38
0.044929825 -0.12307997 -0.019570792 2.3509886e-38
0.046944372 -0.12382124 -0.022601569 2.3509886e-38
0.048887175 -0.12382124 -0.022601569 2.3509886e-38
0.050829981 -0.12382124 -0.022601569 2.3509883e-38
0.052772783 -0.12382124 -0.022601569 2.3509883e-38
0.05484619 -0.12480606 -0.026627863 2.350988e-38
0.056796052 -0.12480606 -0.026627863 2.3509879e-38
0.058745917 -0.12480606 -0.026627863 2.3509873e-38
0.060806859 -0.12552677 -0.029574478 2.3509866e-38
0.062761888 -0.12552677 -0.029574478 2.3509853e-38
0.064884908 -0.12652399 -0.033651553 2.3509844e-38
0.066847086 -0.12652399 -0.033651553 2.3326159e-38
0.068809271 -0.12652399 -0.033651553 2.314212e-38
0.070956469 -0.12749799 -0.037633739 2.3326153e-38
0.072925627 -0.12749799 -0.037633739 2.3233964e-38
0.075044967 -0.12823303 -0.040639006 2.2955957e-38
0.077019393 -0.12823303 -0.040639006 2.3416589e-38
0.078993827 -0.12823303 -0.040639006 2.350952e-38
0.080968261 -0.12823303 -0.040639006 2.3508085e-38
0.082942694 -0.12823303 -0.040639006 2.3509524e-38
0.084917113 -0.12823303 -0.040639006 1.3551316e-38
0.086891547 -0.12823303 -0.040639006 7.8362656e-39
0.088865981 -0.12823303 -0.040639006 7.0990607e-39
-0.084671296 -0.11467429 0.022416031 1.272191e-38
-0.083193801 -0.11567034 0.01837269 1.2076537e-38
-0.081322826 -0.11567034 0.01837269 1.2076174e-38
-0.079451866 -0.11567034 0.01837269 1.2905932e-38
-0.077580906 -0.11567034 0.01837269 1.2259122e-38
-0.075709946 -0.11567034 0.01837269 1.1337519e-38
-0.073838972 -0.11567034 0.01837269 1.0875822e-38
-0.071624182 -0.11467429 0.022416031 8.3850968e-39
-0.069760315 -0.11467429 0.022416031 8.1988978e-39
-0.067896433 -0.11467429 0.022416031 9.3052454e-39
-0.065553285 -0.1131943 0.028423822 1.5299769e-38
-0.063151203 -0.11146177 0.035456814 2.3508427e-38
-0.060854889 -0.10999118 0.041426457 2.3509876e-38
-0.059024341 -0.10999118 0.041426457 2.3325847e-38
-0.056974553 -0.10924892 0.044439591 2.3234015e-38
-0.055149294 -0.10924892 0.044439591 2.341805e-38
-0.053532712 -0.10999118 0.041426457 2.3509883e-38
-0.051702179 -0.10999118 0.041426457 2.3509883e-38
-0.049871631 -0.10999118 0.041426457 2.3509521e-38
-0.048235036 -0.11073773 0.038395919 2.3509883e-38
-0.046399184 -0.11073773 0.038395919 2.3509883e-38
-0.044563331 -0.11073773 0.038395919 2.341805e-38
-0.04272747 -0.11073773 0.038395919 2.341805e-38
-0.041059092 -0.11146177 0.035456814 2.3234379e-38
-0.039218083 -0.11146177 0.035456814 2.3509886e-38
-0.037593894 -0.11246057 0.031402268 2.3509886e-38
-0.035745777 -0.11246057 0.031402268 2.3509886e-38
-0.033897661 -0.11246057 0.031402268 2.3509886e-38
-0.032193154 -0.1131943 0.028423822 2.3509886e-38
-0.030339815 -0.1131943 0.028423822 2.3509886e-38
-0.0286204 -0.11393218 0.02542845 2.3509886e-38
-0.026761808 -0.11393218 0.02542845 2.3509886e-38
-0.025027335 -0.11467429 0.022416031 2.3509886e-38
-0.02316346 -0.11467429 0.022416031 2.3509886e-38
-0.021299586 -0.11467429 0.022416031 2.3509886e-38
-0.019435715 -0.11467429 0.022416031 2.3509886e-38
-0.017710082 -0.11567034 0.01837269 2.3509886e-38
-0.015839119 -0.11567034 0.01837269 2.3509886e-38
-0.013968155 -0.11567034 0.01837269 2.3509886e-38
-0.012097191 -0.11567034 0.01837269 2.3509886e-38
-0.010306112 -0.11639442 0.015433348 2.3509886e-38
-0.0084299929 -0.11639442 0.015433348 2.3509886e-38
-0.0065538771 -0.11639442 0.015433348 2.3509886e-38
-0.0047450326 -0.11715056 0.012363828 2.3509886e-38
-0.0028635338 -0.11715056 0.012363828 2.3509886e-38
-0.0010557733 -0.11813726 0.0083585149 2.3509886e-38
0.00083274767 -0.11813726 0.0083585149 2.3509886e-38
0.0027212687 -0.11813726 0.0083585149 2.3509886e-38
0.0046097897 -0.11813726 0.0083585149 2.3509886e-38
0.0064641796 -0.11887501 0.0053636199 2.3509886e-38
0.0083579533 -0.11887501 0.0053636199 2.3509886e-38
0.010251725 -0.11887501 0.0053636199 2.3509886e-38
0.012121309 -0.119846 0.0014220838 2.3509886e-38
0.014021993 -0.119846 0.0014220838 2.3509886e-38
0.015914697 -0.12059332 -0.0016115542 2.3509886e-38
0.017820699 -0.12059332 -0.0016115542 2.3509886e-38
0.019726703 -0.12059332 -0.0016115542 2.3509886e-38
0.021632705 -0.12059332 -0.0016115542 2.3509886e-38
0.023538707 -0.12059332 -0.0016115542 2.3509886e-38
0.025462708 -0.12131582 -0.0045444602 2.3509886e-38
0.027373852 -0.12131582 -0.0045444602 2.3509886e-38
0.029323708 -0.12230472 -0.008558833 2.3509886e-38
0.031241892 -0.12230472 -0.008558833 2.3509886e-38
0.033200704 -0.12306587 -0.011648619 2.3509886e-38
0.035124306 -0.12306587 -0.011648619 2.3509886e-38
0.037047908 -0.12306587 -0.011648619 2.3509886e-38
0.038971506 -0.12306587 -0.011648619 2.3509886e-38
0.040974688 -0.12403814 -0.0155954 2.3509886e-38
0.042992339 -0.12501745 -0.019570792 2.3509886e-38
0.044929825 -0.12501745 -0.019570792 2.3509886e-38
0.046867318 -0.12501745 -0.019570792 2.3509886e-38
0.048804808 -0.12501745 -0.019570792 2.3509886e-38
0.050829981 -0.12576406 -0.022601569 2.3509527e-38
0.052772783 -0.12576406 -0.022601569 2.3509527e-38
0.054715589 -0.12576406 -0.022601569 2.3509527e-38
0.056658395 -0.12576406 -0.022601569 2.3509879e-38
0.058745917 -0.12675591 -0.026627863 2.350987e-38
0.060806859 -0.1274818 -0.029574478 2.3509863e-38
0.062761888 -0.1274818 -0.029574478 2.3509856e-38
0.06471692 -0.1274818 -0.029574478 2.3509848e-38
0.066847086 -0.12848614 -0.033651553 2.3418005e-38
0.068809271 -0.12848614 -0.033651553 2.332581e-38
0.070956469 -0.12946714 -0.037633739 2.3509844e-38
0.072925627 -0.12946714 -0.037633739 2.350913e-38
0.074894793 -0.12946714 -0.037633739 2.3232195e-38
0.076863959 -0.12946714 -0.037633739 2.350915e-38
0.078833118 -0.12946714 -0.037633739 2.3509517e-38
0.080802277 -0.12946714 -0.037633739 2.3415885e-38
0.082942694 -0.13020746 -0.040639006 2.3509524e-38
0.084917113 -0.13020746 -0.040639006 1.5579622e-38
0.086891547 -0.13020746 -0.040639006 8.6656703e-39
0.088865981 -0.13020746 -0.040639006 6.8224766e-39
-0.084671296 -0.11653815 0.022416031 9.5872553e-39
-0.082807429 -0.11653815 0.022416031 9.4950569e-39
-0.080943547 -0.11653815 0.022416031 1.041665e-38
-0.079451866 -0.1175413 0.01837269 1.2444232e-38
-0.077580906 -0.1175413 0.01837269 1.2166927e-38
-0.075709946 -0.1175413 0.01837269 1.1244968e-38
-0.073838972 -0.1175413 0.01837269 1.0968018e-38
-0.071624182 -0.11653815 0.022416031 8.5702069e-39
-0.069760315 -0.11653815 0.022416031 8.1070651e-39
-0.067896433 -0.11653815 0.022416031 8.0148695e-39
-0.06579224 -0.11579077 0.02542845 1.3640609e-38
-0.063151203 -0.11330278 0.035456814 2.3509149e-38
-0.060854889 -0.11182173 0.041426457 2.3325483e-38
-0.059024341 -0.11182173 0.041426457 2.3141816e-38
-0.056974553 -0.11107419 0.044439591 2.3234379e-38
-0.055149294 -0.11107419 0.044439591 2.3142542e-38
-0.053324036 -0.11107419 0.044439591 2.3418047e-38
-0.051702179 -0.11182173 0.041426457 2.350988e-38
-0.049871631 -0.11182173 0.041426457 2.350988e-38
-0.048041098 -0.11182173 0.041426457 2.350988e-38
-0.046399184 -0.11257361 0.038395919 2.3509883e-38
-0.044563331 -0.11257361 0.038395919 2.3509883e-38
-0.04272747 -0.11257361 0.038395919 2.341805e-38
-0.041059092 -0.11330278 0.035456814 2.341805e-38
-0.039218083 -0.11330278 0.035456814 2.3509886e-38
-0.037377074 -0.11330278 0.035456814 2.3509886e-38
-0.035745777 -0.1143087 0.031402268 2.3509886e-38
-0.033897661 -0.1143087 0.031402268 2.3509886e-38
-0.032193154 -0.11504765 0.028423822 2.3509886e-38
-0.030339815 -0.11504765 0.028423822 2.3509886e-38
-0.0286204 -0.11579077 0.02542845 2.3509886e-38
-0.026761808 -0.11579077 0.02542845 2.3509886e-38
-0.025027335 -0.11653815 0.022416031 2.3509886e-38
-0.02316346 -0.11653815 0.022416031 2.3509886e-38
-0.021299586 -0.11653815 0.022416031 2.3509886e-38
-0.019435715 -0.11653815 0.022416031 2.3509886e-38
-0.01757184 -0.11653815 0.022416031 2.3509886e-38
-0.015839119 -0.1175413 0.01837269 2.3509886e-38
-0.013844091 -0.11653815 0.022416031 2.3509886e-38
-0.011980221 -0.11653815 0.022416031 2.3509886e-38
-0.010226227 -0.1175413 0.01837269 2.3509886e-38
-0.0083552673 -0.1175413 0.01837269 2.3509886e-38
-0.0065538771 -0.11827053 0.015433348 2.3509886e-38
-0.0046777576 -0.11827053 0.015433348 2.3509886e-38
-0.0028635338 -0.11903207 0.012363828 2.3509886e-38
-0.00098203495 -0.11903207 0.012363828 2.3509886e-38
0.00083274767 -0.12002577 0.0083585149 2.3509886e-38
0.0027212687 -0.12002577 0.0083585149 2.3509886e-38
0.0046097897 -0.12002577 0.0083585149 2.3509886e-38
0.0064641796 -0.1207688 0.0053636199 2.3509886e-38
0.0083579533 -0.1207688 0.0053636199 2.3509886e-38
0.010251725 -0.1207688 0.0053636199 2.3509886e-38
0.012121309 -0.12174667 0.0014220838 2.3509886e-38
0.014021993 -0.12174667 0.0014220838 2.3509886e-38
0.015922677 -0.12174667 0.0014220838 2.3509886e-38
0.017820699 -0.1224993 -0.0016115542 2.3509886e-38
0.019726703 -0.1224993 -0.0016115542 2.3509886e-38
0.021632705 -0.1224993 -0.0016115542 2.3509886e-38
0.023538707 -0.1224993 -0.0016115542 2.3509886e-38
0.025462708 -0.12322696 -0.0045444602 2.3509886e-38
0.027373852 -0.12322696 -0.0045444602 2.3509886e-38
0.029323708 -0.12422292 -0.008558833 2.3509886e-38
0.031241892 -0.12422292 -0.008558833 2.3509886e-38
0.033200704 -0.12498946 -0.011648619 2.3509886e-38
0.035124306 -0.12498946 -0.011648619 2.3509886e-38
0.037047908 -0.12498946 -0.011648619 2.3509886e-38
0.038971506 -0.12498946 -0.011648619 2.3509886e-38
0.040974688 -0.12596865 -0.0155954 2.3509886e-38
0.042905208 -0.12596865 -0.0155954 2.3509886e-38
0.044929825 -0.12695493 -0.019570792 2.3509886e-38
0.046867318 -0.12695493 -0.019570792 2.3509886e-38
0.048804808 -0.12695493 -0.019570792 2.3509886e-38
0.050829981 -0.12770687 -0.022601569 2.3509168e-38
0.052772783 -0.12770687 -0.022601569 2.3509168e-38
0.054715589 -0.12770687 -0.022601569 2.3509168e-38
0.056658395 -0.12770687 -0.022601569 2.350952e-38
0.058745917 -0.12870578 -0.026627863 2.3509869e-38
0.060695782 -0.12870578 -0.026627863 2.3418025e-38
0.062645644 -0.12870578 -0.026627863 2.3509856e-38
0.06471692 -0.12943684 -0.029574478 2.3509853e-38
0.066847086 -0.13044833 -0.033651553 2.3233265e-38
0.068809271 -0.13044833 -0.033651553 2.3509858e-38
0.070771441 -0.13044833 -0.033651553 2.3509862e-38
0.072925627 -0.1314363 -0.037633739 2.3324037e-38
0.074894793 -0.1314363 -0.037633739 2.350843e-38
0.076863959 -0.1314363 -0.037633739 2.3509517e-38
0.078833118 -0.1314363 -0.037633739 2.3509517e-38
0.080802277 -0.1314363 -0.037633739 2.3509521e-38
0.082771435 -0.1314363 -0.037633739 2.3509524e-38
0.084740594 -0.1314363 -0.037633739 1.8253296e-38
0.086891547 -0.1321819 -0.040639006 1.0970561e-38
0.088865981 -0.1321819 -0.040639006 6.730281e-39
0.090840414 -0.1321819 -0.040639006 7.5600416e-39
-0.084671296 -0.11840202 0.022416031 8.6645801e-39
-0.082807429 -0.11840202 0.022416031 8.6649361e-39
-0.080943547 -0.11840202 0.022416031 1.0323376e-38
-0.079451866 -0.11941226 0.01837269 1.2813015e-38
-0.077580906 -0.11941226 0.01837269 1.2535709e-38
-0.075709946 -0.11941226 0.01837269 1.1060576e-38
-0.073838972 -0.11941226 0.01837269 1.0414844e-38
-0.071968012 -0.11941226 0.01837269 8.2014244e-39
-0.070097052 -0.11941226 0.01837269 8.4758476e-39
-0.067650832 -0.11764936 0.02542845 6.7241307e-39
-0.06579224 -0.11764936 0.02542845 1.1796697e-38
-0.063151203 -0.11514379 0.035456814 2.3509509e-38
-0.060625084 -0.11289944 0.044439591 2.3417679e-38
-0.058799811 -0.11289944 0.044439591 2.3049621e-38
-0.056974553 -0.11289944 0.044439591 2.3234379e-38
-0.055149294 -0.11289944 0.044439591 2.3142542e-38
-0.053324036 -0.11289944 0.044439591 2.3418047e-38
-0.051498778 -0.11289944 0.044439591 2.350988e-38
-0.049871631 -0.11365227 0.041426457 2.350988e-38
-0.048041098 -0.11365227 0.041426457 2.3509879e-38
-0.046399184 -0.11440946 0.038395919 2.350988e-38
-0.044563331 -0.11440946 0.038395919 2.3509883e-38
-0.04272747 -0.11440946 0.038395919 2.341805e-38
-0.04089161 -0.11440946 0.038395919 2.341805e-38
-0.039218083 -0.11514379 0.035456814 2.3509886e-38
-0.037377074 -0.11514379 0.035456814 2.3509886e-38
-0.035536066 -0.11514379 0.035456814 2.3509886e-38
-0.033897661 -0.1161568 0.031402268 2.3509886e-38
-0.032049544 -0.1161568 0.031402268 2.3509886e-38
-0.030339815 -0.11690097 0.028423822 2.3509886e-38
-0.0286204 -0.11764936 0.02542845 2.3509886e-38
-0.026761808 -0.11764936 0.02542845 2.3509886e-38
-0.024903215 -0.11764936 0.02542845 2.3509886e-38
-0.02316346 -0.11840202 0.022416031 2.3509886e-38
-0.021299586 -0.11840202 0.022416031 2.3509886e-38
-0.019435715 -0.11840202 0.022416031 2.3509886e-38
-0.01757184 -0.11840202 0.022416031 2.3509886e-38
-0.015707966 -0.11840202 0.022416031 2.3509886e-38
-0.013844091 -0.11840202 0.022416031 2.3509886e-38
-0.011980221 -0.11840202 0.022416031 2.3509886e-38
-0.010226227 -0.11941226 0.01837269 2.3509886e-38
-0.0083552673 -0.11941226 0.01837269 2.3509886e-38
-0.0065538771 -0.12014665 0.015433348 2.3509886e-38
-0.0046777576 -0.12014665 0.015433348 2.3509886e-38
-0.0028016418 -0.12014665 0.015433348 2.3509886e-38
-0.00098203495 -0.12091358 0.012363828 2.3509886e-38
0.00083274767 -0.12191428 0.0083585149 2.3509886e-38
0.0027212687 -0.12191428 0.0083585149 2.3509886e-38
0.0046097897 -0.12191428 0.0083585149 2.3509886e-38
0.0064641796 -0.12266256 0.0053636199 2.3509886e-38
0.0083579533 -0.12266256 0.0053636199 2.3509886e-38
0.010251725 -0.12266256 0.0053636199 2.3509886e-38
0.012121309 -0.12364738 0.0014220838 2.3509886e-38
0.014021993 -0.12364738 0.0014220838 2.3509886e-38
0.015922677 -0.12364738 0.0014220838 2.3509886e-38
0.017820699 -0.12440531 -0.0016115542 2.3509886e-38
0.019726703 -0.12440531 -0.0016115542 2.3509886e-38
0.021632705 -0.12440531 -0.0016115542 2.3509886e-38
0.023538707 -0.12440531 -0.0016115542 2.3509886e-38
0.025462708 -0.12513812 -0.0045444602 2.3509886e-38
0.027373852 -0.12513812 -0.0045444602 2.3509886e-38
0.029323708 -0.12614109 -0.008558833 2.3509886e-38
0.031241892 -0.12614109 -0.008558833 2.3509886e-38
0.033160076 -0.12614109 -0.008558833 2.3509886e-38
0.035124306 -0.12691309 -0.011648619 2.3509886e-38
0.037047908 -0.12691309 -0.011648619 2.3509886e-38
0.038971506 -0.12691309 -0.011648619 2.3509886e-38
0.040895108 -0.12691309 -0.011648619 2.3509886e-38
0.042905208 -0.12789918 -0.0155954 2.3509886e-38
0.044929825 -0.12889244 -0.019570792 2.3509886e-38
0.046867318 -0.12889244 -0.019570792 2.3509886e-38
0.048804808 -0.12889244 -0.019570792 2.3509527e-38
0.050829981 -0.12964968 -0.022601569 2.3508809e-38
0.052772783 -0.12964968 -0.022601569 2.3508451e-38
0.054715589 -0.12964968 -0.022601569 2.3508809e-38
0.056658395 -0.12964968 -0.022601569 2.3417324e-38
0.058745917 -0.13065563 -0.026627863 2.3325478e-38
0.060695782 -0.13065563 -0.026627863 2.3325829e-38
0.062645644 -0.13065563 -0.026627863 2.3417302e-38
0.06471692 -0.13139187 -0.029574478 2.3417302e-38
0.066671953 -0.13139187 -0.029574478 2.3324753e-38
0.068809271 -0.13241051 -0.033651553 2.3509873e-38
0.070771441 -0.13241051 -0.033651553 2.2954906e-38
0.072925627 -0.13340546 -0.037633739 2.120319e-38
0.074894793 -0.13340546 -0.037633739 2.1479777e-38
0.076863959 -0.13340546 -0.037633739 2.2125145e-38
0.078833118 -0.13340546 -0.037633739 2.286271e-38
0.080802277 -0.13340546 -0.037633739 2.350952e-38
0.082771435 -0.13340546 -0.037633739 2.3509527e-38
0.084740594 -0.13340546 -0.037633739 2.12032e-38
0.086891547 -0.13415633 -0.040639006 1.3920824e-38
0.088865981 -0.13415633 -0.040639006 6.4536969e-39
0.090840414 -0.13415633 -0.040639006 7.6522401e-39
-0.084671296 -0.12026589 0.022416031 9.5872525e-39
-0.082807429 -0.12026589 0.022416031 8.942239e-39
-0.080943547 -0.12026589 0.022416031 9.7712794e-39
-0.079451866 -0.12128322 0.01837269 1.2167643e-38
-0.077580906 -0.12128322 0.01837269 1.1890693e-38
-0.075709946 -0.12128322 0.01837269 1.0692147e-38
-0.073838972 -0.12128322 0.01837269 1.0876177e-38
-0.071968012 -0.12128322 0.01837269 9.4921604e-39
-0.070097052 -0.12128322 0.01837269 8.7524345e-39
-0.067650832 -0.11950795 0.02542845 5.7107004e-39
-0.06579224 -0.11950795 0.02542845 1.0505958e-38
-0.062685438 -0.11548282 0.041426457 2.3509866e-38
-0.060625084 -0.11472471 0.044439591 2.3509873e-38
-0.058799811 -0.11472471 0.044439591 2.3049259e-38
-0.056974553 -0.11472471 0.044439591 2.3418045e-38
-0.055149294 -0.11472471 0.044439591 2.3418047e-38
-0.053324036 -0.11472471 0.044439591 2.3418047e-38
-0.051498778 -0.11472471 0.044439591 2.3509883e-38
-0.049871631 -0.11548282 0.041426457 2.3509883e-38
-0.048041098 -0.11548282 0.041426457 2.3509883e-38
-0.04621055 -0.11548282 0.041426457 2.3509883e-38
-0.044563331 -0.11624531 0.038395919 2.3509883e-38
-0.04272747 -0.11624531 0.038395919 2.3509883e-38
-0.04089161 -0.11624531 0.038395919 2.3418047e-38
-0.039055757 -0.11624531 0.038395919 2.3509886e-38
-0.037377074 -0.1169848 0.035456814 2.3509886e-38
-0.035536066 -0.1169848 0.035456814 2.3509886e-38
-0.033695057 -0.1169848 0.035456814 2.3509886e-38
-0.032049544 -0.11800493 0.031402268 2.3509886e-38
-0.030201428 -0.11800493 0.031402268 2.3509886e-38
-0.028486475 -0.11875431 0.028423822 2.3509886e-38
-0.026633136 -0.11875431 0.028423822 2.3509886e-38
-0.024903215 -0.11950795 0.02542845 2.3509886e-38
-0.02304462 -0.11950795 0.02542845 2.3509886e-38
-0.021299586 -0.12026589 0.022416031 2.3509886e-38
-0.019435715 -0.12026589 0.022416031 2.3509886e-38
-0.01757184 -0.12026589 0.022416031 2.3509886e-38
-0.015707966 -0.12026589 0.022416031 2.3509886e-38
-0.013844091 -0.12026589 0.022416031 2.3509886e-38
-0.011980221 -0.12026589 0.022416031 2.3509886e-38
-0.010226227 -0.12128322 0.01837269 2.3509886e-38
-0.0083552673 -0.12128322 0.01837269 2.3509886e-38
-0.0065538771 -0.12202276 0.015433348 2.3509886e-38
-0.0046777576 -0.12202276 0.015433348 2.3509886e-38
-0.0028016418 -0.12202276 0.015433348 2.3509886e-38
-0.00098203495 -0.12279506 0.012363828 2.3509886e-38
0.00089946389 -0.12279506 0.012363828 2.3509886e-38
0.0027212687 -0.12380283 0.0083585149 2.3509886e-38
0.0046097897 -0.12380283 0.0083585149 2.3509886e-38
0.0064641796 -0.12455635 0.0053636199 2.3509886e-38
0.0083579533 -0.12455635 0.0053636199 2.3509886e-38
0.010251725 -0.12455635 0.0053636199 2.3509886e-38
0.012121309 -0.12554805 0.0014220838 2.3509886e-38
0.014021993 -0.12554805 0.0014220838 2.3509886e-38
0.015922677 -0.12554805 0.0014220838 2.3509886e-38
0.017820699 -0.12631132 -0.0016115542 2.3509886e-38
0.019726703 -0.12631132 -0.0016115542 2.3509886e-38
0.021632705 -0.12631132 -0.0016115542 2.3509886e-38
0.023538707 -0.12631132 -0.0016115542 2.3509886e-38
0.025462708 -0.12704925 -0.0045444602 2.3509886e-38
0.027373852 -0.12704925 -0.0045444602 2.3509886e-38
0.029284995 -0.12704925 -0.0045444602 2.3509886e-38
0.031241892 -0.12805928 -0.008558833 2.3509883e-38
0.033160076 -0.12805928 -0.008558833 2.3509883e-38
0.035078257 -0.12805928 -0.008558833 2.3509883e-38
0.037047908 -0.12883668 -0.011648619 2.3509883e-38
0.038971506 -0.12883668 -0.011648619 2.3509883e-38
0.040895108 -0.12883668 -0.011648619 2.3509883e-38
0.042905208 -0.12982969 -0.0155954 2.3509883e-38
0.044929825 -0.13082992 -0.019570792 2.3509886e-38
0.046867318 -0.13082992 -0.019570792 2.3509886e-38
0.048804808 -0.13082992 -0.019570792 2.3509527e-38
0.050829981 -0.13159247 -0.022601569 2.3508809e-38
0.052772783 -0.13159247 -0.022601569 2.3508451e-38
0.054715589 -0.13159247 -0.022601569 2.3508809e-38
0.056658395 -0.13159247 -0.022601569 2.3417327e-38
0.058745917 -0.13260551 -0.026627863 2.332548e-38
0.060695782 -0.13260551 -0.026627863 2.3233639e-38
0.062645644 -0.13260551 -0.026627863 2.3324753e-38
0.064595506 -0.13260551 -0.026627863 2.3324753e-38
0.066671953 -0.13334687 -0.029574478 2.3416953e-38
0.068626985 -0.13334687 -0.029574478 2.3509876e-38
0.070771441 -0.1343727 -0.033651553 2.1571973e-38
0.072733626 -0.1343727 -0.033651553 1.8160734e-38
0.074894793 -0.13537462 -0.037633739 1.8068537e-38
0.076863959 -0.13537462 -0.037633739 1.8898651e-38
0.078833118 -0.13537462 -0.037633739 2.0373778e-38
0.080802277 -0.13537462 -0.037633739 2.3047814e-38
0.082771435 -0.13537462 -0.037633739 2.350988e-38
0.084740594 -0.13537462 -0.037633739 2.3048189e-38
0.086709768 -0.13537462 -0.037633739 1.6041321e-38
0.088865981 -0.13613077 -0.040639006 6.1771072e-39
0.090840414 -0.13613077 -0.040639006 7.467846e-39
-0.083193801 -0.12315418 0.01837269 1.0234416e-38
-0.081322826 -0.12315418 0.01837269 1.0326245e-38
-0.079451866 -0.12315418 0.01837269 1.1708095e-38
-0.077580906 -0.12315418 0.01837269 1.19836e-38
-0.075970195 -0.12389888 0.015433348 1.1430061e-38
-0.074094079 -0.12389888 0.015433348 1.0876524e-38
-0.071968012 -0.12315418 0.01837269 8.7542296e-39
-0.070097052 -0.12315418 0.01837269 8.845349e-39
-0.067896433 -0.12212978 0.022416031 6.5404611e-39
-0.06579224 -0.12136655 0.02542845 9.4914443e-39
-0.062685438 -0.11731337 0.041426457 2.3506981e-38
-0.060625084 -0.11654995 0.044439591 2.3509863e-38
-0.058799811 -0.11654995 0.044439591 2.3509869e-38
-0.056974553 -0.11654995 0.044439591 2.3508795e-38
-0.055149294 -0.11654995 0.044439591 2.3325129e-38
-0.053324036 -0.11654995 0.044439591 2.3509527e-38
-0.051498778 -0.11654995 0.044439591 2.3509886e-38
-0.049871631 -0.11731337 0.041426457 2.3509527e-38
-0.048041098 -0.11731337 0.041426457 2.3509527e-38
-0.04621055 -0.11731337 0.041426457 2.3509886e-38
-0.044380002 -0.11731337 0.041426457 2.3509883e-38
-0.04272747 -0.11808117 0.038395919 2.350988e-38
-0.04089161 -0.11808117 0.038395919 2.350988e-38
-0.039055757 -0.11808117 0.038395919 2.3509883e-38
-0.037377074 -0.11882581 0.035456814 2.3509886e-38
-0.035536066 -0.11882581 0.035456814 2.3509886e-38
-0.033695057 -0.11882581 0.035456814 2.3509886e-38
-0.032049544 -0.11985306 0.031402268 2.3509886e-38
-0.030201428 -0.11985306 0.031402268 2.3509886e-38
-0.028486475 -0.12060766 0.028423822 2.3509886e-38
-0.026633136 -0.12060766 0.028423822 2.3509886e-38
-0.024903215 -0.12136655 0.02542845 2.3509886e-38
-0.02304462 -0.12136655 0.02542845 2.3509886e-38
-0.021186028 -0.12136655 0.02542845 2.3509886e-38
-0.019435715 -0.12212978 0.022416031 2.3509886e-38
-0.01757184 -0.12212978 0.022416031 2.3509886e-38
-0.015707966 -0.12212978 0.022416031 2.3509886e-38
-0.013844091 -0.12212978 0.022416031 2.3509886e-38
-0.011980221 -0.12212978 0.022416031 2.3509886e-38
-0.010226227 -0.12315418 0.01837269 2.3509886e-38
-0.0083552673 -0.12315418 0.01837269 2.3509886e-38
-0.0065538771 -0.12389888 0.015433348 2.3509886e-38
-0.0046777576 -0.12389888 0.015433348 2.3509886e-38
-0.0028016418 -0.12389888 0.015433348 2.3509886e-38
-0.00098203495 -0.12467657 0.012363828 2.3509886e-38
0.00089946389 -0.12467657 0.012363828 2.3509886e-38
0.0027212687 -0.12569134 0.0083585149 2.3509886e-38
0.0046097897 -0.12569134 0.0083585149 2.3509886e-38
0.0064641796 -0.12645011 0.0053636199 2.3509886e-38
0.0083579533 -0.12645011 0.0053636199 2.3509886e-38
0.010251725 -0.12645011 0.0053636199 2.3509886e-38
0.012121309 -0.12744872 0.0014220838 2.3509886e-38
0.014021993 -0.12744872 0.0014220838 2.3509886e-38
0.015922677 -0.12744872 0.0014220838 2.3509886e-38
0.017820699 -0.12821732 -0.0016115542 2.3509886e-38
0.019726703 -0.12821732 -0.0016115542 2.3509527e-38
0.021632705 -0.12821732 -0.0016115542 2.3509527e-38
0.023538707 -0.12821732 -0.0016115542 2.3509886e-38
0.025444709 -0.12821732 -0.0016115542 2.3509886e-38
0.027350713 -0.12821732 -0.0016115542 2.3509886e-38
0.029284995 -0.12896039 -0.0045444602 2.3509883e-38
0.03119614 -0.12896039 -0.0045444602 2.350988e-38
0.033160076 -0.12997745 -0.008558833 2.350988e-38
0.035078257 -0.12997745 -0.008558833 2.3509879e-38
0.037047908 -0.13076027 -0.011648619 2.3509879e-38
0.038971506 -0.13076027 -0.011648619 2.350988e-38
0.040895108 -0.13076027 -0.011648619 2.350988e-38
0.042905208 -0.13176022 -0.0155954 2.350988e-38
0.044929825 -0.13276742 -0.019570792 2.3509883e-38
0.046867318 -0.13276742 -0.019570792 2.3509883e-38
0.048804808 -0.13276742 -0.019570792 2.3509886e-38
0.050829981 -0.13353528 -0.022601569 2.3232944e-38
0.052772783 -0.13353528 -0.022601569 2.3509527e-38
0.054715589 -0.13353528 -0.022601569 2.3509527e-38
0.056658395 -0.13353528 -0.022601569 2.1942563e-38
0.058745917 -0.13455538 -0.026627863 1.9545827e-38
0.060695782 -0.13455538 -0.026627863 1.8716062e-38
0.062645644 -0.13455538 -0.026627863 2.037522e-38
0.064595506 -0.13455538 -0.026627863 2.2311326e-38
0.066671953 -0.1353019 -0.029574478 2.3509869e-38
0.068626985 -0.1353019 -0.029574478 2.3141444e-38
0.070771441 -0.13633488 -0.033651553 2.2126213e-38
0.072733626 -0.13633488 -0.033651553 2.0282297e-38
0.074894793 -0.13734378 -0.037633739 1.8991914e-38
0.076863959 -0.13734378 -0.037633739 1.9084107e-38
0.078833118 -0.13734378 -0.037633739 2.0651432e-38
0.080802277 -0.13734378 -0.037633739 2.1942895e-38
0.082771435 -0.13734378 -0.037633739 2.3509873e-38
0.084740594 -0.13734378 -0.037633739 2.2589e-38
0.086709768 -0.13734378 -0.037633739 1.8808979e-38
0.088865981 -0.1381052 -0.040639006 5.8086764e-39
0.091350198 -0.14012341 -0.048604928 6.4540458e-39
0.093338594 -0.14012341 -0.048604928 8.3894352e-39
0.095802695 -0.14190884 -0.055651985 8.4816308e-39
0.097803444 -0.14190884 -0.055651985 7.4674789e-39
-0.084150709 -0.12757985 0.0083585149 1.1433675e-38
-0.082262196 -0.12757985 0.0083585149 1.1525145e-38
-0.080004983 -0.12655805 0.012363828 1.2354181e-38
-0.078123488 -0.12655805 0.012363828 1.2168345e-38
-0.075970195 -0.12577499 0.015433348 1.1337502e-38
-0.074094079 -0.12577499 0.015433348 1.0691411e-38
-0.071968012 -0.12502514 0.01837269 8.3854443e-39
-0.070097052 -0.12502514 0.01837269 9.0297403e-39
-0.067896433 -0.12399365 0.022416031 6.9088877e-39
-0.06579224 -0.12322514 0.02542845 8.8453518e-39
-0.062450342 -0.11837523 0.044439591 2.3505896e-38
-0.060396589 -0.11761098 0.047435321 2.3509143e-38
-0.058576591 -0.11761098 0.047435321 2.3509863e-38
-0.056756578 -0.11761098 0.047435321 2.3508794e-38
-0.054936565 -0.11761098 0.047435321 2.3509879e-38
-0.053116567 -0.11761098 0.047435321 2.3509168e-38
-0.051296555 -0.11761098 0.047435321 2.3509527e-38
-0.049871631 -0.11914389 0.041426457 2.3509527e-38
-0.048041098 -0.11914389 0.041426457 2.3509527e-38
-0.04621055 -0.11914389 0.041426457 2.3509527e-38
-0.044380002 -0.11914389 0.041426457 2.3509886e-38
-0.04272747 -0.11991702 0.038395919 2.3509879e-38
-0.04089161 -0.11991702 0.038395919 2.3509879e-38
-0.039055757 -0.11991702 0.038395919 2.3509883e-38
-0.037219904 -0.11991702 0.038395919 2.3509886e-38
-0.035536066 -0.12066682 0.035456814 2.3509886e-38
-0.033695057 -0.12066682 0.035456814 2.3509886e-38
-0.031854048 -0.12066682 0.035456814 2.3509886e-38
-0.030201428 -0.12170117 0.031402268 2.3509886e-38
-0.028353311 -0.12170117 0.031402268 2.3509886e-38
-0.026633136 -0.12246101 0.028423822 2.3509886e-38
-0.024779789 -0.12246101 0.028423822 2.3509886e-38
-0.02304462 -0.12322514 0.02542845 2.3509886e-38
-0.021186028 -0.12322514 0.02542845 2.3509886e-38
-0.019327436 -0.12322514 0.02542845 2.3509886e-38
-0.01757184 -0.12399365 0.022416031 2.3509886e-38
-0.015707966 -0.12399365 0.022416031 2.3509886e-38
-0.013968155 -0.12502514 0.01837269 2.3509886e-38
-0.012097191 -0.12502514 0.01837269 2.3509886e-38
-0.010306112 -0.12577499 0.015433348 2.3509886e-38
-0.0084299929 -0.12577499 0.015433348 2.3509886e-38
-0.0065538771 -0.12577499 0.015433348 2.3509886e-38
-0.0046777576 -0.12577499 0.015433348 2.3509886e-38
-0.0028016418 -0.12577499 0.015433348 2.3509886e-38
-0.00098203495 -0.12655805 0.012363828 2.3509886e-38
0.00089946389 -0.12655805 0.012363828 2.3509886e-38
0.0027212687 -0.12757985 0.0083585149 2.3509886e-38
0.0046097897 -0.12757985 0.0083585149 2.3509886e-38
0.0064641796 -0.1283439 0.0053636199 2.3509886e-38
0.0083579533 -0.1283439 0.0053636199 2.3509886e-38
0.010251725 -0.1283439 0.0053636199 2.3509886e-38
0.012145497 -0.1283439 0.0053636199 2.3509886e-38
0.014039271 -0.1283439 0.0053636199 2.3509886e-38
0.015933042 -0.1283439 0.0053636199 2.3509886e-38
0.017823359 -0.12934943 0.0014220838 2.3509886e-38
0.019726703 -0.13012333 -0.0016115542 2.3509527e-38
0.021632705 -0.13012333 -0.0016115542 2.3509527e-38
0.023538707 -0.13012333 -0.0016115542 2.3509886e-38
0.025444709 -0.13012333 -0.0016115542 2.3509886e-38
0.027350713 -0.13012333 -0.0016115542 2.3509886e-38
0.029284995 -0.13087155 -0.0045444602 2.3509883e-38
0.03119614 -0.13087155 -0.0045444602 2.350988e-38
0.033160076 -0.13189565 -0.008558833 2.3509879e-38
0.035078257 -0.13189565 -0.008558833 2.3509879e-38
0.037047908 -0.13268389 -0.011648619 2.3509876e-38
0.038971506 -0.13268389 -0.011648619 2.3509879e-38
0.040895108 -0.13268389 -0.011648619 2.350988e-38
0.042905208 -0.13369073 -0.0155954 2.350988e-38
0.044929825 -0.1347049 -0.019570792 2.3509883e-38
0.046867318 -0.1347049 -0.019570792 2.3509883e-38
0.048887175 -0.13547809 -0.022601569 2.3509886e-38
0.050829981 -0.13547809 -0.022601569 2.3509886e-38
0.052772783 -0.13547809 -0.022601569 2.3509527e-38
0.054715589 -0.13547809 -0.022601569 2.3509886e-38
0.056658395 -0.13547809 -0.022601569 2.3509886e-38
0.058601197 -0.13547809 -0.022601569 2.3233296e-38
0.060544003 -0.13547809 -0.022601569 2.3141456e-38
0.062486809 -0.13547809 -0.022601569 2.3509879e-38
0.064595506 -0.13650523 -0.026627863 2.3509876e-38
0.066671953 -0.13725694 -0.029574478 2.350987e-38
0.068626985 -0.13725694 -0.029574478 2.3509869e-38
0.070771441 -0.13829704 -0.033651553 2.3509866e-38
0.072733626 -0.13829704 -0.033651553 2.3417305e-38
0.074695803 -0.13829704 -0.033651553 2.3048519e-38
0.076863959 -0.13931294 -0.037633739 2.3232909e-38
0.078833118 -0.13931294 -0.037633739 2.3509856e-38
0.080802277 -0.13931294 -0.037633739 2.350986e-38
0.082771435 -0.13931294 -0.037633739 2.3418038e-38
0.084740594 -0.13931294 -0.037633739 2.3234372e-38
0.086891547 -0.14007963 -0.040639006 2.1021674e-38
0.089109078 -0.14107598 -0.04454466 6.5462414e-39
0.091350198 -0.14211179 -0.048604928 6.7299138e-39
0.093599051 -0.14312236 -0.052566133 8.0206527e-39
0.095594391 -0.14312236 -0.052566133 8.2043237e-39
0.097589731 -0.14312236 -0.052566133 7.9277368e-39
-0.084150709 -0.1294684 0.0083585149 1.1248923e-38
-0.082262196 -0.1294684 0.0083585149 1.1432593e-38
-0.080004983 -0.12843956 0.012363828 1.244566e-38
-0.078123488 -0.12843956 0.012363828 1.1983237e-38
-0.076241992 -0.12843956 0.012363828 1.1060915e-38
-0.074360482 -0.12843956 0.012363828 1.0691411e-38
-0.072478987 -0.12843956 0.012363828 8.6620312e-39
-0.070597492 -0.12843956 0.012363828 9.0297403e-39
-0.068465732 -0.12765111 0.015433348 7.3702218e-39
-0.066032566 -0.12585752 0.022416031 7.7390043e-39
-0.062450342 -0.12020047 0.044439591 2.2768331e-38
-0.060396589 -0.11943097 0.047435321 2.3508423e-38
-0.058576591 -0.11943097 0.047435321 2.3509143e-38
-0.056756578 -0.11943097 0.047435321 2.3508794e-38
-0.054936565 -0.11943097 0.047435321 2.3509879e-38
-0.053116567 -0.11943097 0.047435321 2.3509168e-38
-0.051296555 -0.11943097 0.047435321 2.3509527e-38
-0.04967352 -0.12020047 0.044439591 2.3509527e-38
-0.048041098 -0.12097444 0.041426457 2.3509527e-38
-0.04621055 -0.12097444 0.041426457 2.3509527e-38
-0.044380002 -0.12097444 0.041426457 2.3509886e-38
-0.042549469 -0.12097444 0.041426457 2.350988e-38
-0.040718921 -0.12097444 0.041426457 2.350988e-38
-0.039055757 -0.12175287 0.038395919 2.3509883e-38
-0.037219904 -0.12175287 0.038395919 2.3509886e-38
-0.035384044 -0.12175287 0.038395919 2.3509886e-38
-0.033548191 -0.12175287 0.038395919 2.3509886e-38
-0.031854048 -0.12250783 0.035456814 2.3509886e-38
-0.03001304 -0.12250783 0.035456814 2.3509886e-38
-0.028353311 -0.1235493 0.031402268 2.3509886e-38
-0.026505195 -0.1235493 0.031402268 2.3509886e-38
-0.024779789 -0.12431435 0.028423822 2.3509886e-38
-0.022926454 -0.12431435 0.028423822 2.3509886e-38
-0.021073114 -0.12431435 0.028423822 2.3509886e-38
-0.019327436 -0.12508373 0.02542845 2.3509886e-38
-0.017468844 -0.12508373 0.02542845 2.3509886e-38
-0.015707966 -0.12585752 0.022416031 2.3509886e-38
-0.013844091 -0.12585752 0.022416031 2.3509886e-38
-0.011980221 -0.12585752 0.022416031 2.3509886e-38
-0.010306112 -0.12765111 0.015433348 2.3509886e-38
-0.0084299929 -0.12765111 0.015433348 2.3509886e-38
-0.0065538771 -0.12765111 0.015433348 2.3509886e-38
-0.0046777576 -0.12765111 0.015433348 2.3509886e-38
-0.0028635338 -0.12843956 0.012363828 2.3509886e-38
-0.00098203495 -0.12843956 0.012363828 2.3509886e-38
0.00083274767 -0.1294684 0.0083585149 2.3509886e-38
0.0027212687 -0.1294684 0.0083585149 2.3509886e-38
0.0046097897 -0.1294684 0.0083585149 2.3509886e-38
0.0064641796 -0.13023765 0.0053636199 2.3509886e-38
0.0083579533 -0.13023765 0.0053636199 2.3509886e-38
0.010251725 -0.13023765 0.0053636199 2.3509886e-38
0.012145497 -0.13023765 0.0053636199 2.3509886e-38
0.014039271 -0.13023765 0.0053636199 2.3509886e-38
0.015933042 -0.13023765 0.0053636199 2.3509886e-38
0.017823359 -0.1312501 0.0014220838 2.3509886e-38
0.019726703 -0.13202934 -0.0016115542 2.3509527e-38
0.021632705 -0.13202934 -0.0016115542 2.3509527e-38
0.023538707 -0.13202934 -0.0016115542 2.3509886e-38
0.025444709 -0.13202934 -0.0016115542 2.3509886e-38
0.027350713 -0.13202934 -0.0016115542 2.3509886e-38
0.029256713 -0.13202934 -0.0016115542 2.3509883e-38
0.03119614 -0.13278268 -0.0045444602 2.350988e-38
0.033107284 -0.13278268 -0.0045444602 2.3509879e-38
0.035078257 -0.13381381 -0.008558833 2.3509879e-38
0.037047908 -0.13460748 -0.011648619 2.3509879e-38
0.038971506 -0.13460748 -0.011648619 2.350988e-38
0.040895108 -0.13460748 -0.011648619 2.350988e-38
0.042992339 -0.13664238 -0.019570792 2.3509883e-38
0.044929825 -0.13664238 -0.019570792 2.3509886e-38
0.046867318 -0.13664238 -0.019570792 2.3509886e-38
0.048887175 -0.13742088 -0.022601569 2.3509886e-38
0.050829981 -0.13742088 -0.022601569 2.3326213e-38
0.052772783 -0.13742088 -0.022601569 2.3049624e-38
0.054715589 -0.13742088 -0.022601569 2.2957428e-38
0.056658395 -0.13742088 -0.022601569 2.3418047e-38
0.058601197 -0.13742088 -0.022601569 2.350988e-38
0.060544003 -0.13742088 -0.022601569 2.350988e-38
0.062486809 -0.13742088 -0.022601569 2.3509879e-38
0.064429611 -0.13742088 -0.022601569 2.3141452e-38
0.066545375 -0.13845511 -0.026627863 2.3325483e-38
0.068495236 -0.13845511 -0.026627863 2.332548e-38
0.07058201 -0.13921197 -0.029574478 2.3417676e-38
0.072733626 -0.14025922 -0.033651553 2.350987e-38
0.074695803 -0.14025922 -0.033651553 2.3509869e-38
0.076863959 -0.1412821 -0.037633739 2.3509869e-38
0.078833118 -0.1412821 -0.037633739 2.3509869e-38
0.080802277 -0.1412821 -0.037633739 2.3417673e-38
0.082771435 -0.1412821 -0.037633739 2.3141455e-38
0.084740594 -0.1412821 -0.037633739 2.3418047e-38
0.086891547 -0.14205404 -0.040639006 2.31411e-38
0.089361802 -0.1441002 -0.048604928 6.8224738e-39
0.091603711 -0.14511769 -0.052566133 6.3611355e-39
0.093599051 -0.14511769 -0.052566133 7.0065049e-39
0.095594391 -0.14511769 -0.052566133 7.0976188e-39
0.097589731 -0.14511769 -0.052566133 7.4664013e-39
0.100089 -0.14694051 -0.059662662 7.6507925e-39
-0.084150709 -0.13135691 0.0083585149 1.0787226e-38
-0.082262196 -0.13135691 0.0083585149 1.1339677e-38
-0.080373667 -0.13135691 0.0083585149 1.2352386e-38
-0.078485154 -0.13135691 0.0083585149 1.1798127e-38
-0.076241992 -0.13032107 0.012363828 1.0967644e-38
-0.074360482 -0.13032107 0.012363828 1.0782531e-38
-0.072478987 -0.13032107 0.012363828 9.1222891e-39
-0.070597492 -0.13032107 0.012363828 8.8446302e-39
-0.068715997 -0.13032107 0.012363828 7.7390043e-39
-0.065553285 -0.12616767 0.028423822 7.0014392e-39
-0.062450342 -0.12202574 0.044439591 2.1477592e-38
-0.060396589 -0.121251 0.047435321 2.350806e-38
-0.058576591 -0.121251 0.047435321 2.3508783e-38
-0.056756578 -0.121251 0.047435321 2.3508431e-38
-0.054936565 -0.121251 0.047435321 2.3509879e-38
-0.053116567 -0.121251 0.047435321 2.3509527e-38
-0.051296555 -0.121251 0.047435321 2.3509527e-38
-0.04967352 -0.12202574 0.044439591 2.3509527e-38
-0.047848262 -0.12202574 0.044439591 2.3509527e-38
-0.04621055 -0.12280498 0.041426457 2.3509527e-38
-0.044380002 -0.12280498 0.041426457 2.3509886e-38
-0.042549469 -0.12280498 0.041426457 2.350988e-38
-0.040718921 -0.12280498 0.041426457 2.350988e-38
-0.03888838 -0.12280498 0.041426457 2.3509883e-38
-0.037057839 -0.12280498 0.041426457 2.3509886e-38
-0.035227291 -0.12280498 0.041426457 2.3509886e-38
-0.033548191 -0.12358873 0.038395919 2.3509886e-38
-0.031712331 -0.12358873 0.038395919 2.3509886e-38
-0.03001304 -0.12434883 0.035456814 2.3509886e-38
-0.028172031 -0.12434883 0.035456814 2.3509886e-38
-0.026505195 -0.1253974 0.031402268 2.3509886e-38
-0.024657078 -0.1253974 0.031402268 2.3509886e-38
-0.022808954 -0.1253974 0.031402268 2.3509886e-38
-0.020960838 -0.1253974 0.031402268 2.3509886e-38
-0.019219775 -0.12616767 0.028423822 2.3509886e-38
-0.017366432 -0.12616767 0.028423822 2.3509886e-38
-0.015610252 -0.12694232 0.02542845 2.3509886e-38
-0.013844091 -0.12772138 0.022416031 2.3509886e-38
-0.011980221 -0.12772138 0.022416031 2.3509886e-38
-0.010306112 -0.12952723 0.015433348 2.3509886e-38
-0.0084299929 -0.12952723 0.015433348 2.3509886e-38
-0.0065538771 -0.12952723 0.015433348 2.3509886e-38
-0.0046777576 -0.12952723 0.015433348 2.3509886e-38
-0.0028635338 -0.13032107 0.012363828 2.3509886e-38
-0.00098203495 -0.13032107 0.012363828 2.3509886e-38
0.00083274767 -0.13135691 0.0083585149 2.3509886e-38
0.0027212687 -0.13135691 0.0083585149 2.3509886e-38
0.0046097897 -0.13135691 0.0083585149 2.3509886e-38
0.0064641796 -0.13213144 0.0053636199 2.3509886e-38
0.0083579533 -0.13213144 0.0053636199 2.3509886e-38
0.010251725 -0.13213144 0.0053636199 2.3509886e-38
0.012121309 -0.13315077 0.0014220838 2.3509886e-38
0.014021993 -0.13315077 0.0014220838 2.3509886e-38
0.015922677 -0.13315077 0.0014220838 2.3509886e-38
0.017823359 -0.13315077 0.0014220838 2.3509886e-38
0.019726703 -0.13393532 -0.0016115542 2.3509886e-38
0.021632705 -0.13393532 -0.0016115542 2.3509886e-38
0.023538707 -0.13393532 -0.0016115542 2.3509886e-38
0.025444709 -0.13393532 -0.0016115542 2.3509886e-38
0.027350713 -0.13393532 -0.0016115542 2.3509886e-38
0.029256713 -0.13393532 -0.0016115542 2.3509883e-38
0.03119614 -0.13469382 -0.0045444602 2.3509883e-38
0.033107284 -0.13469382 -0.0045444602 2.350988e-38
0.035078257 -0.13573201 -0.008558833 2.350988e-38
0.036996439 -0.13573201 -0.008558833 2.350988e-38
0.038971506 -0.13653107 -0.011648619 2.350988e-38
0.040895108 -0.13653107 -0.011648619 2.3509883e-38
0.042992339 -0.13857989 -0.019570792 2.3509886e-38
0.044929825 -0.13857989 -0.019570792 2.3509886e-38
0.046867318 -0.13857989 -0.019570792 2.3509886e-38
0.048804808 -0.13857989 -0.019570792 2.3509886e-38
0.050829981 -0.13936369 -0.022601569 2.3418047e-38
0.052772783 -0.13936369 -0.022601569 2.3418043e-38
0.054715589 -0.13936369 -0.022601569 2.3418045e-38
0.056658395 -0.13936369 -0.022601569 2.3418045e-38
0.058601197 -0.13936369 -0.022601569 2.3418043e-38
0.060544003 -0.13936369 -0.022601569 2.3325847e-38
0.062486809 -0.13936369 -0.022601569 2.3325847e-38
0.064429611 -0.13936369 -0.022601569 2.3325846e-38
