# .PCD v0.7 - Point Cloud Data file format
VERSION 0.7
FIELDS x y z rgb
SIZE 4 4 4 4
TYPE F F F F
COUNT 1 1 1 1
WIDTH 923
HEIGHT 1
VIEWPOINT 0 0 0 1 0 0 0
POINTS 923
DATA ascii
-0.028520774 -0.086706966 -0.088563755 2.3509886e-38
-0.026357457 -0.085257411 -0.081467226 2.3509886e-38
-0.024200372 -0.083618924 -0.073445752 2.3509886e-38
-0.022147194 -0.082821131 -0.069540098 2.341769e-38
-0.020122707 -0.082207277 -0.066534832 2.3141103e-38
-0.018094197 -0.081393853 -0.062552646 2.3509886e-38
-0.016078405 -0.080561057 -0.058475569 2.3509886e-38
-0.014009364 -0.078517675 -0.048471883 2.3509886e-38
-0.012033537 -0.077705652 -0.044496492 2.3509886e-38
-0.010071877 -0.076899469 -0.04054971 2.3509886e-38
-0.0081293136 -0.07626833 -0.037459925 2.3509886e-38
-0.006075358 -0.069941312 -0.0064850617 2.3509886e-38
-0.0042114854 -0.069941312 -0.0064850617 2.3509886e-38
-0.0023511555 -0.070767209 -0.010528402 2.3509527e-38
0.0013458394 -0.067277551 0.0065557193 2.3508444e-38
0.0083534 -0.05972673 0.043521807 2.3417676e-38
0.010094959 -0.059105948 0.046560928 2.3509168e-38
0.011827421 -0.058509395 0.049481437 2.3508809e-38
0.013593167 -0.058509395 0.049481437 2.350663e-38
0.015358914 -0.058509395 0.049481437 2.3506614e-38
0.017124658 -0.058509395 0.049481437 2.2308055e-38
-0.032860778 -0.091174185 -0.10050173 2.3233296e-38
-0.030627921 -0.089519933 -0.092472032 2.3509886e-38
-0.028520774 -0.088714764 -0.088563755 2.3509886e-38
-0.026357457 -0.087252751 -0.081467226 2.3509886e-38
-0.024200372 -0.085600197 -0.073445752 2.3509886e-38
-0.022091866 -0.084176436 -0.066534832 2.341769e-38
-0.020122707 -0.084176436 -0.066534832 2.3141103e-38
-0.018094197 -0.083356038 -0.062552646 2.3509886e-38
-0.016039655 -0.081909031 -0.055528954 2.3509886e-38
-0.013964057 -0.079636171 -0.044496492 2.3509886e-38
-0.011965681 -0.078186512 -0.037459925 2.3509886e-38
-0.010047499 -0.078186512 -0.037459925 2.3509886e-38
-0.0081046801 -0.077359483 -0.033445552 2.3509886e-38
-0.006075358 -0.071805179 -0.0064850617 2.3509886e-38
-0.0042114854 -0.071805179 -0.0064850617 2.3509886e-38
-0.002336178 -0.069118559 0.0065557193 2.3509527e-38
-0.00049516931 -0.069118559 0.0065557193 2.3509168e-38
0.0031343438 -0.066650793 0.018534226 2.3509883e-38
0.0066483812 -0.063361436 0.034500644 2.3141441e-38
0.0083534 -0.061502934 0.043521807 2.3416953e-38
0.010094959 -0.060876817 0.046560928 2.3508809e-38
0.011827421 -0.060275152 0.049481437 2.3508451e-38
0.013593167 -0.060275152 0.049481437 2.3506632e-38
0.015358914 -0.060275152 0.049481437 1.6958562e-38
0.017124658 -0.060275152 0.049481437 1.8711338e-38
-0.032860778 -0.093202889 -0.10050173 2.3233299e-38
-0.030627921 -0.09153457 -0.092472032 2.3509886e-38
-0.028352797 -0.089248091 -0.081467226 2.3509886e-38
-0.026270639 -0.08842507 -0.077506021 2.3233299e-38
-0.024121623 -0.086769998 -0.069540098 2.3509886e-38
-0.022091866 -0.086145595 -0.066534832 2.3509886e-38
-0.020056374 -0.085318208 -0.062552646 2.341769e-38
-0.018033434 -0.084471121 -0.058475569 2.3509886e-38
-0.016039655 -0.083858907 -0.055528954 2.3509886e-38
-0.013883866 -0.080104694 -0.037459925 2.3509886e-38
-0.011926968 -0.079270631 -0.033445552 2.3509886e-38
-0.0099687483 -0.078030959 -0.02747901 2.3509886e-38
-0.0079820827 -0.075119838 -0.013467746 2.3509886e-38
-0.006075358 -0.073669046 -0.0064850617 2.3509886e-38
-0.0041956846 -0.072420821 -0.00047727115 2.3509886e-38
-0.0023336019 -0.070348918 0.0094948243 2.341805e-38
-0.00050304458 -0.069093212 0.015538497 2.3049632e-38
0.0013222154 -0.069093212 0.015538497 2.323402e-38
0.0031343438 -0.068470791 0.018534226 2.3234379e-38
0.0049302187 -0.06765379 0.022466464 2.3234015e-38
0.0065772049 -0.063279122 0.043521807 2.3418026e-38
0.0083240923 -0.062647685 0.046560928 2.3509859e-38
0.010094959 -0.062647685 0.046560928 2.3506644e-38
0.011827421 -0.062040895 0.049481437 2.3506286e-38
0.013593167 -0.062040895 0.049481437 2.3508075e-38
0.015358914 -0.062040895 0.049481437 1.3269655e-38
0.017124658 -0.062040895 0.049481437 1.4745839e-38
0.018890405 -0.062040895 0.049481437 2.0925109e-38
-0.030627921 -0.093549207 -0.092472032 2.3509886e-38
-0.028352797 -0.091243446 -0.081467226 2.3509886e-38
-0.026270639 -0.090413481 -0.077506021 2.2956712e-38
-0.024121623 -0.088744432 -0.069540098 2.3509886e-38
-0.022091866 -0.088114753 -0.066534832 2.3509886e-38
-0.020056374 -0.087280393 -0.062552646 2.3509886e-38
-0.018033434 -0.086426154 -0.058475569 2.3509886e-38
-0.015946854 -0.084330142 -0.048471883 2.3509886e-38
-0.013883866 -0.08202289 -0.037459925 2.3509886e-38
-0.011926968 -0.08118178 -0.033445552 2.3509886e-38
-0.0099687483 -0.079931647 -0.02747901 2.3509886e-38
-0.0079820827 -0.076995969 -0.013467746 2.3509886e-38
-0.0060621537 -0.07490176 -0.003472643 2.3509886e-38
-0.0041878503 -0.073650107 0.0025011729 2.3509886e-38
-0.0023309439 -0.071549803 0.012525363 2.341805e-38
-0.00050304458 -0.070918471 0.015538497 2.2958155e-38
0.0013222154 -0.070918471 0.015538497 2.2958873e-38
0.0031171069 -0.069466904 0.022466464 2.2958873e-38
0.0049302187 -0.069466904 0.022466464 2.2681564e-38
0.0065532262 -0.064418554 0.046560928 2.3418022e-38
0.0083240923 -0.064418554 0.046560928 2.3509853e-38
0.010094959 -0.064418554 0.046560928 2.3508794e-38
0.011827421 -0.063806638 0.049481437 2.3508079e-38
0.013593167 -0.063806638 0.049481437 2.2856578e-38
0.015358914 -0.063806638 0.049481437 5.2471957e-39
0.017124658 -0.063806638 0.049481437 8.1992271e-39
0.018890405 -0.063806638 0.049481437 2.3229274e-38
0.02072016 -0.064418554 0.046560928 2.1662708e-38
-0.03052856 -0.094738111 -0.088563755 2.3509886e-38
-0.028352797 -0.093238786 -0.081467226 2.3509886e-38
-0.026181653 -0.091544032 -0.073445752 2.3509886e-38
-0.024121623 -0.090718865 -0.069540098 2.3509886e-38
-0.022018552 -0.089242578 -0.062552646 2.3509886e-38
-0.019988462 -0.088381186 -0.058475569 2.3509886e-38
-0.01798952 -0.087758631 -0.055528954 2.3509886e-38
-0.015946854 -0.086267635 -0.048471883 2.3509886e-38
-0.013883866 -0.083941072 -0.037459925 2.3509886e-38
-0.011926968 -0.083092928 -0.033445552 2.3509886e-38
-0.0099376496 -0.080999583 -0.023537474 2.3509886e-38
-0.0079820827 -0.078872085 -0.013467746 2.3509886e-38
-0.0060621537 -0.076760352 -0.003472643 2.3509886e-38
-0.0041878503 -0.075498223 0.0025011729 2.3509886e-38
-0.0023309439 -0.073380336 0.012525363 2.341805e-38
-0.00050304458 -0.072743744 0.015538497 2.2958873e-38
0.0013222154 -0.072743744 0.015538497 2.2683366e-38
0.0031171069 -0.071280017 0.022466464 2.2958873e-38
0.0049302187 -0.071280017 0.022466464 2.2958504e-38
0.0065532262 -0.066189423 0.046560928 2.3234337e-38
0.0083240923 -0.066189423 0.046560928 2.3509841e-38
0.010061675 -0.065572381 0.049481437 2.3507341e-38
0.011827421 -0.065572381 0.049481437 2.3506989e-38
0.013593167 -0.065572381 0.049481437 2.2762939e-38
0.015358914 -0.065572381 0.049481437 5.7067333e-39
0.017124658 -0.065572381 0.049481437 5.0642254e-39
0.018949293 -0.066189423 0.046560928 2.0739273e-38
0.02072016 -0.066189423 0.046560928 2.3044921e-38
-0.032536343 -0.096745893 -0.088563755 2.3509886e-38
-0.030426592 -0.095891505 -0.084553078 2.3509886e-38
-0.028352797 -0.095234126 -0.081467226 2.3509886e-38
-0.026181653 -0.093525305 -0.073445752 2.3509886e-38
-0.024121623 -0.092693284 -0.069540098 2.3509886e-38
-0.022018552 -0.091204748 -0.062552646 2.3509886e-38
-0.019988462 -0.090336218 -0.058475569 2.3509886e-38
-0.01798952 -0.089708492 -0.055528954 2.3509886e-38
-0.015946854 -0.088205129 -0.048471883 2.3509886e-38
-0.013883866 -0.085859254 -0.037459925 2.3509886e-38
-0.011898685 -0.084379271 -0.030512648 2.3509886e-38
-0.0099140201 -0.082255349 -0.020542579 2.3509886e-38
-0.0079820827 -0.0807482 -0.013467746 2.3509886e-38
-0.0060621537 -0.078618944 -0.003472643 2.3509886e-38
-0.0041878503 -0.07734634 0.0025011729 2.3509886e-38
-0.0023336019 -0.075856477 0.0094948243 2.341805e-38
-0.00050304458 -0.074569002 0.015538497 2.2958873e-38
0.0013143364 -0.073930815 0.018534226 2.2683363e-38
0.0031171069 -0.073093131 0.022466464 2.2958873e-38
0.0048933988 -0.071814939 0.028466506 2.314253e-38
0.0065772049 -0.068607718 0.043521807 2.3326168e-38
0.0083240923 -0.067960292 0.046560928 2.3509831e-38
0.010061675 -0.067338139 0.049481437 2.3506605e-38
0.011827421 -0.067338139 0.049481437 2.3503377e-38
0.013593167 -0.067338139 0.049481437 2.1932812e-38
0.015407559 -0.067960292 0.046560928 1.9285454e-39
0.017178426 -0.067960292 0.046560928 5.4319261e-39
0.018949293 -0.067960292 0.046560928 2.2674663e-38
0.02072016 -0.067960292 0.046560928 2.2214794e-38
0.022635331 -0.069259048 0.040464327 1.0046794e-38
-0.034428101 -0.097892255 -0.084553078 2.3234379e-38
-0.032427348 -0.097892255 -0.084553078 2.3509886e-38
-0.030426592 -0.097892255 -0.084553078 2.3509886e-38
-0.028259039 -0.096378669 -0.077506021 2.3509886e-38
-0.026181653 -0.095506594 -0.073445752 2.3509886e-38
-0.024121623 -0.094667718 -0.069540098 2.3509886e-38
-0.022018552 -0.093166932 -0.062552646 2.3509886e-38
-0.019988462 -0.092291236 -0.058475569 2.3509886e-38
-0.01798952 -0.091658354 -0.055528954 2.3509886e-38
-0.015894577 -0.089288771 -0.044496492 2.3509886e-38
-0.013838112 -0.08691521 -0.033445552 2.3509886e-38
-0.011869431 -0.085633695 -0.02747901 2.3509886e-38
-0.0098824184 -0.083283588 -0.016537266 2.3509886e-38
-0.0079392325 -0.081124544 -0.0064850617 2.3509886e-38
-0.0060490239 -0.079834178 -0.00047727115 2.3509886e-38
-0.0041878503 -0.079194456 0.0025011729 2.3509886e-38
-0.0023336019 -0.07769233 0.0094948243 2.3418047e-38
-0.00050304458 -0.07639426 0.015538497 2.3050701e-38
0.0013143364 -0.075750828 0.018534226 2.2958863e-38
0.0031036884 -0.074248701 0.025527878 2.3142538e-38
0.0048748301 -0.072967619 0.031492397 2.3418031e-38
0.0065772049 -0.070383906 0.043521807 2.3326166e-38
0.0083534 -0.070383906 0.043521807 2.3509465e-38
0.010129595 -0.070383906 0.043521807 2.3505516e-38
0.011865825 -0.069731161 0.046560928 2.2488493e-38
0.013636692 -0.069731161 0.046560928 2.1287437e-38
0.015458182 -0.070383906 0.043521807 2.0203809e-39
0.017234376 -0.070383906 0.043521807 5.4312086e-39
0.019010572 -0.070383906 0.043521807 1.9723682e-38
0.020786766 -0.070383906 0.043521807 2.2214067e-38
0.022635331 -0.071040601 0.040464327 1.6776708e-38
0.024339156 -0.070383906 0.043521807 8.7575142e-39
0.026115352 -0.070383906 0.043521807 4.0562672e-39
-0.034428101 -0.099893004 -0.084553078 2.3234379e-38
-0.032427348 -0.099893004 -0.084553078 2.341805e-38
-0.030348141 -0.099224806 -0.081467226 2.3509886e-38
-0.028259039 -0.098367065 -0.077506021 2.3509886e-38
-0.026096053 -0.096642151 -0.069540098 2.3509886e-38
-0.024061024 -0.095991403 -0.066534832 2.3509886e-38
-0.022018552 -0.095129102 -0.062552646 2.3509886e-38
-0.019988462 -0.094246268 -0.058475569 2.3509886e-38
-0.01798952 -0.093608215 -0.055528954 2.3509886e-38
-0.015894577 -0.091219291 -0.044496492 2.3509886e-38
-0.013838112 -0.088826358 -0.033445552 2.3509886e-38
-0.011831421 -0.086680889 -0.023537474 2.3509886e-38
-0.0098824184 -0.085165098 -0.016537266 2.3509886e-38
-0.0079392325 -0.082988426 -0.0064850617 2.3509886e-38
-0.0060490239 -0.08168751 -0.00047727115 2.3509886e-38
-0.0041878503 -0.081042573 0.0025011729 2.3509886e-38
-0.0023336019 -0.079528198 0.0094948243 2.3509883e-38
-0.00050567091 -0.077570826 0.018534226 2.3326206e-38
0.001303995 -0.076719359 0.022466464 2.314253e-38
0.0030908063 -0.075420126 0.028466506 2.3326201e-38
0.0048748301 -0.074764907 0.031492397 2.3509863e-38
0.0065772049 -0.072160095 0.043521807 2.3325807e-38
0.0083534 -0.072160095 0.043521807 2.3508748e-38
0.010129595 -0.072160095 0.043521807 2.3506231e-38
0.01190579 -0.072160095 0.043521807 2.1382499e-38
0.013681985 -0.072160095 0.043521807 2.0088894e-38
0.015458182 -0.072160095 0.043521807 4.23089e-39
0.017234376 -0.072160095 0.043521807 4.3245192e-39
0.019010572 -0.072160095 0.043521807 1.3361465e-38
0.020853776 -0.072822154 0.040464327 2.2306252e-38
0.022635331 -0.072822154 0.040464327 2.2585019e-38
0.024339156 -0.072160095 0.043521807 1.4564398e-38
0.026115352 -0.072160095 0.043521807 5.5306812e-39
-0.034544129 -0.10276926 -0.088563755 2.3234379e-38
-0.032343484 -0.10122015 -0.081467226 2.341805e-38
-0.030247435 -0.10035546 -0.077506021 2.3509886e-38
-0.02816293 -0.09946914 -0.073445752 2.3509886e-38
-0.02603019 -0.097960562 -0.066534832 2.3509886e-38
-0.023898527 -0.096201301 -0.058475569 2.3509886e-38
-0.021889247 -0.095558092 -0.055528954 2.3509886e-38
-0.019939385 -0.095558092 -0.055528954 2.3509886e-38
-0.017884344 -0.094017595 -0.048471883 2.3509886e-38
-0.015802048 -0.091613799 -0.037459925 2.3509886e-38
-0.013770115 -0.089435071 -0.02747901 2.3509886e-38
-0.011831421 -0.088574663 -0.023537474 2.3509886e-38
-0.0098824184 -0.087046593 -0.016537266 2.3509886e-38
-0.0079392325 -0.084852293 -0.0064850617 2.3509886e-38
-0.0060490239 -0.083540857 -0.00047727115 2.3509886e-38
-0.0041771866 -0.08200562 0.0065557193 2.3509886e-38
-0.0023309439 -0.080702513 0.012525363 2.3509883e-38
-0.00050567091 -0.079390839 0.018534226 2.3509879e-38
0.001303995 -0.078532472 0.022466464 2.3509876e-38
0.0030908063 -0.07722272 0.028466506 2.3325478e-38
0.0048748301 -0.076562196 0.031492397 2.3509863e-38
0.006601328 -0.074603721 0.040464327 2.3324016e-38
0.0083534 -0.073936298 0.043521807 2.3507677e-38
0.010129595 -0.073936298 0.043521807 2.3506595e-38
0.01190579 -0.073936298 0.043521807 2.0552738e-38
0.013681985 -0.073936298 0.043521807 1.8521569e-38
0.015458182 -0.073936298 0.043521807 4.3230842e-39
0.017234376 -0.073936298 0.043521807 3.4944124e-39
0.019010572 -0.073936298 0.043521807 9.3959767e-39
0.020786766 -0.073936298 0.043521807 1.9908794e-38
0.022562962 -0.073936298 0.043521807 2.2860513e-38
0.026115352 -0.073936298 0.043521807 8.2025594e-39
-0.032343484 -0.1032155 -0.081467226 2.341805e-38
-0.030247435 -0.10234386 -0.077506021 2.3509886e-38
-0.02816293 -0.10145043 -0.073445752 2.3509886e-38
-0.025942914 -0.099053472 -0.062552646 2.3509886e-38
-0.023898527 -0.098156333 -0.058475569 2.3509886e-38
-0.021889247 -0.097507954 -0.055528954 2.3509886e-38
-0.019821838 -0.095955089 -0.048471883 2.3509886e-38
-0.017766278 -0.094211861 -0.04054971 2.3509886e-38
-0.015749257 -0.09264864 -0.033445552 2.3509886e-38
-0.013770115 -0.091335744 -0.02747901 2.3509886e-38
-0.011802541 -0.089809433 -0.020542579 2.3509886e-38
-0.0098824184 -0.088928089 -0.016537266 2.3509886e-38
-0.0079392325 -0.086716175 -0.0064850617 2.3509886e-38
-0.0060490239 -0.085394189 -0.00047727115 2.3509886e-38
-0.0041771866 -0.083846629 0.0065557193 2.3509886e-38
-0.0023309439 -0.082533047 0.012525363 2.3509527e-38
-0.00050567091 -0.081210837 0.018534226 2.3509524e-38
0.001303995 -0.080345586 0.022466464 2.350952e-38
0.0030908063 -0.079025313 0.028466506 2.3416237e-38
0.0048563695 -0.077697545 0.034500644 2.3509866e-38
0.006601328 -0.076385275 0.040464327 2.3322947e-38
0.0083534 -0.075712487 0.043521807 2.3506246e-38
0.010129595 -0.075712487 0.043521807 2.3506957e-38
0.01190579 -0.075712487 0.043521807 1.9446391e-38
0.013681985 -0.075712487 0.043521807 1.7599612e-38
0.015458182 -0.075712487 0.043521807 4.5071168e-39
0.017234376 -0.075712487 0.043521807 4.6003844e-39
0.019010572 -0.075712487 0.043521807 7.27548e-39
0.020786766 -0.075712487 0.043521807 1.4561799e-38
0.022562962 -0.075712487 0.043521807 2.3044533e-38
0.024339156 -0.075712487 0.043521807 2.3505564e-38
0.026115352 -0.075712487 0.043521807 7.4646314e-39
-0.036551915 -0.10678484 -0.088563755 2.3142544e-38
-0.034428101 -0.10589527 -0.084553078 2.2958873e-38
-0.032343484 -0.10521083 -0.081467226 2.341805e-38
-0.030144207 -0.10343169 -0.073445752 2.3509886e-38
-0.028070483 -0.10256544 -0.069540098 2.3509886e-38
-0.025942914 -0.10101564 -0.062552646 2.3509886e-38
-0.023898527 -0.10011137 -0.058475569 2.3509886e-38
-0.021889247 -0.099457815 -0.055528954 2.3509886e-38
-0.019821838 -0.097892582 -0.048471883 2.3509886e-38
-0.01772023 -0.095450163 -0.037459925 2.3509886e-38
-0.015749257 -0.094559789 -0.033445552 2.3509886e-38
-0.013770115 -0.093236431 -0.02747901 2.3509886e-38
-0.011802541 -0.091697961 -0.020542579 2.3509886e-38
-0.0098824184 -0.090809584 -0.016537266 2.3509886e-38
-0.0079392325 -0.088580042 -0.0064850617 2.3509886e-38
-0.0060490239 -0.087247536 -0.00047727115 2.3509886e-38
-0.0041771866 -0.085687637 0.0065557193 2.3509886e-38
-0.0023309439 -0.084363595 0.012525363 2.3509527e-38
-0.0005091168 -0.082158685 0.022466464 2.3508809e-38
0.0012959428 -0.081479684 0.025527878 2.3508451e-38
0.0030775443 -0.080156773 0.031492397 2.3507716e-38
0.0048563695 -0.079489544 0.034500644 2.350951e-38
0.006601328 -0.078166828 0.040464327 2.3230402e-38
0.0083534 -0.077488691 0.043521807 2.3229312e-38
0.010129595 -0.077488691 0.043521807 2.3505879e-38
0.01190579 -0.077488691 0.043521807 1.7972339e-38
0.013681985 -0.077488691 0.043521807 1.4926661e-38
0.015458182 -0.077488691 0.043521807 4.6922297e-39
0.017234376 -0.077488691 0.043521807 5.8907673e-39
0.019010572 -0.077488691 0.043521807 6.0765809e-39
0.020786766 -0.077488691 0.043521807 1.0504823e-38
0.022562962 -0.077488691 0.043521807 2.3508022e-38
0.024261892 -0.076814622 0.046560928 2.3508441e-38
0.026032759 -0.076814622 0.046560928 9.9539134e-39
-0.038686473 -0.1096663 -0.092472032 2.3142541e-38
-0.036551915 -0.10879262 -0.088563755 2.2682283e-38
-0.034428101 -0.10789602 -0.084553078 2.3050707e-38
-0.032343484 -0.10720618 -0.081467226 2.341805e-38
-0.030144207 -0.10541297 -0.073445752 2.3509886e-38
-0.027999349 -0.10386805 -0.066534832 2.3509886e-38
-0.025942914 -0.10297783 -0.062552646 2.3509886e-38
-0.023839112 -0.10140768 -0.055528954 2.3509886e-38
-0.021815121 -0.1005076 -0.05150266 2.3509886e-38
-0.019755617 -0.098941371 -0.044496492 2.3509886e-38
-0.01772023 -0.097368345 -0.037459925 2.3509886e-38
-0.015710689 -0.095815286 -0.030512648 2.3509886e-38
-0.013770115 -0.095137119 -0.02747901 2.3509886e-38
-0.011831421 -0.094255984 -0.023537474 2.3509886e-38
-0.0098824184 -0.092691094 -0.016537266 2.3509886e-38
-0.0079207458 -0.089770496 -0.003472643 2.3509886e-38
-0.0060490239 -0.089100882 -0.00047727115 2.3509886e-38
-0.0041694567 -0.086871609 0.0094948243 2.3509886e-38
-0.0023283027 -0.085520551 0.015538497 2.3509527e-38
-0.0005091168 -0.083971798 0.022466464 2.3508809e-38
0.0012959428 -0.083287418 0.025527878 2.3508809e-38
0.0030775443 -0.081954062 0.031492397 2.3507716e-38
0.0048197722 -0.079948381 0.040464327 2.3509153e-38
0.0065772049 -0.079264879 0.043521807 2.3321879e-38
0.0083534 -0.079264879 0.043521807 2.3044563e-38
0.010129595 -0.079264879 0.043521807 2.3320415e-38
0.01190579 -0.079264879 0.043521807 1.6957834e-38
0.013681985 -0.079264879 0.043521807 1.0686385e-38
0.015509108 -0.079948381 0.040464327 3.4018594e-39
0.017234376 -0.079264879 0.043521807 5.6149021e-39
0.019010572 -0.079264879 0.043521807 6.169501e-39
0.020853776 -0.079948381 0.040464327 9.1215338e-39
0.022562962 -0.079264879 0.043521807 2.3228554e-38
0.024261892 -0.078585491 0.046560928 2.3136043e-38
0.02595339 -0.077932611 0.049481437 1.742174e-38
0.027719134 -0.077932611 0.049481437 7.0068847e-39
0.029484881 -0.077932611 0.049481437 5.1651357e-39
-0.038686473 -0.11168094 -0.092472032 2.2036911e-38
-0.036551915 -0.1108004 -0.088563755 2.3142541e-38
-0.034338828 -0.10920154 -0.081467226 2.2865955e-38
-0.032235831 -0.10830905 -0.077506021 2.341805e-38
-0.030044913 -0.10651429 -0.069540098 2.3509886e-38
-0.027905092 -0.10494001 -0.062552646 2.3509886e-38
-0.025853556 -0.10402142 -0.058475569 2.3509886e-38
-0.023839112 -0.10335754 -0.055528954 2.3509886e-38
-0.021759328 -0.10176755 -0.048471883 2.3509886e-38
-0.01968988 -0.099982664 -0.04054971 2.3509886e-38
-0.01772023 -0.099286526 -0.037459925 2.3509886e-38
-0.015710689 -0.097721294 -0.030512648 2.3509886e-38
-0.013770115 -0.097037792 -0.02747901 2.3509886e-38
-0.011831421 -0.096149758 -0.023537474 2.3509886e-38
-0.0098824184 -0.094572589 -0.016537266 2.3509886e-38
-0.0079207458 -0.091629088 -0.003472643 2.3509886e-38
-0.0060359687 -0.090283155 0.0025011729 2.3509886e-38
-0.0041694567 -0.088707477 0.0094948243 2.3509886e-38
-0.0023283027 -0.087345809 0.015538497 2.3509886e-38
-0.0005091168 -0.085784912 0.022466464 2.3509883e-38
0.0012959428 -0.085095167 0.025527878 2.3232932e-38
0.0030643567 -0.083073571 0.034500644 2.3509873e-38
0.0048197722 -0.081729934 0.040464327 2.3508065e-38
0.0065772049 -0.081041083 0.043521807 2.3509504e-38
0.0083534 -0.081041083 0.043521807 2.2583221e-38
0.010129595 -0.081041083 0.043521807 2.2121157e-38
0.01190579 -0.081041083 0.043521807 1.3454046e-38
0.013681985 -0.081041083 0.043521807 8.9346678e-39
0.015509108 -0.081729934 0.040464327 5.0624513e-39
0.017234376 -0.081041083 0.043521807 6.8145242e-39
0.019010572 -0.081041083 0.043521807 6.9074317e-39
0.020853776 -0.081729934 0.040464327 8.6605766e-39
0.022562962 -0.081041083 0.043521807 2.1015507e-38
0.024261892 -0.080356359 0.046560928 2.3509841e-38
0.02595339 -0.079698354 0.049481437 2.1202803e-38
0.027719134 -0.079698354 0.049481437 1.2356007e-38
-0.038686473 -0.11369558 -0.092472032 2.2774476e-38
-0.036551915 -0.11280818 -0.088563755 2.3142541e-38
-0.034224231 -0.11029746 -0.077506021 2.268192e-38
-0.032125488 -0.10937552 -0.073445752 2.341805e-38
-0.029968508 -0.10780637 -0.066534832 2.3509886e-38
-0.027905092 -0.1069022 -0.062552646 2.3509886e-38
-0.025853556 -0.10597645 -0.058475569 2.3509886e-38
-0.023839112 -0.10530742 -0.055528954 2.3509886e-38
-0.021759328 -0.10370506 -0.048471883 2.3509886e-38
-0.01968988 -0.10190627 -0.04054971 2.3509886e-38
-0.017660402 -0.10029322 -0.033445552 2.3509886e-38
-0.015710689 -0.099627286 -0.030512648 2.3509886e-38
-0.013770115 -0.09893848 -0.02747901 2.3509886e-38
-0.011802541 -0.097363517 -0.020542579 2.3509886e-38
-0.0098824184 -0.096454084 -0.016537266 2.3509886e-38
-0.0079023652 -0.092807561 -0.00047727115 2.3509886e-38
-0.0060359687 -0.092131287 0.0025011729 2.3509886e-38
-0.0041694567 -0.09054333 0.0094948243 2.3509886e-38
-0.0023283027 -0.089171067 0.015538497 2.3509883e-38
-0.0005091168 -0.087598026 0.022466464 2.3509879e-38
0.0012882147 -0.086235672 0.028466506 2.3234001e-38
0.0030643567 -0.084865585 0.034500644 2.3509869e-38
0.0048010089 -0.082817271 0.043521807 2.3508779e-38
0.0065772049 -0.082817271 0.043521807 2.3509856e-38
0.0083240923 -0.082127213 0.046560928 2.2767965e-38
0.010094959 -0.082127213 0.046560928 2.1936766e-38
0.011865825 -0.082127213 0.046560928 1.2254782e-38
0.014232904 -0.091210663 0.0065557193 6.5379374e-39
0.016073912 -0.091210663 0.0065557193 5.3393942e-39
0.017914921 -0.091210663 0.0065557193 6.0773193e-39
0.01907222 -0.083511502 0.040464327 7.0918258e-39
0.020853776 -0.083511502 0.040464327 7.6453527e-39
0.022562962 -0.082817271 0.043521807 1.5851839e-38
0.024261892 -0.082127213 0.046560928 2.2306602e-38
0.026032759 -0.082127213 0.046560928 2.3139614e-38
0.027803626 -0.082127213 0.046560928 1.9271747e-38
-0.040975645 -0.1175475 -0.10050173 2.3050703e-38
-0.038686473 -0.11571021 -0.092472032 2.3234376e-38
-0.036428854 -0.11389829 -0.084553078 2.3234376e-38
-0.034106765 -0.11135681 -0.073445752 2.3142539e-38
-0.032019347 -0.11046316 -0.069540098 2.341805e-38
-0.029968508 -0.10977553 -0.066534832 2.3509886e-38
-0.027905092 -0.10886435 -0.062552646 2.3509886e-38
-0.025853556 -0.10793148 -0.058475569 2.3509886e-38
-0.023839112 -0.10725726 -0.055528954 2.3509886e-38
-0.021759328 -0.10564254 -0.048471883 2.3509886e-38
-0.01968988 -0.10382988 -0.04054971 2.3509886e-38
-0.017660402 -0.10220437 -0.033445552 2.3509886e-38
-0.015710689 -0.10153329 -0.030512648 2.3509886e-38
-0.013770115 -0.10083917 -0.02747901 2.3509886e-38
-0.011802541 -0.099252045 -0.020542579 2.3509886e-38
-0.0098031051 -0.09603554 -0.0064850617 2.3509886e-38
-0.0079023652 -0.094660893 -0.00047727115 2.3509886e-38
-0.0060181953 -0.093051672 0.0065557193 2.3509886e-38
-0.0041694567 -0.092379183 0.0094948243 2.3509886e-38
-0.0023256764 -0.090310872 0.018534226 2.350988e-38
-0.00051180087 -0.088710666 0.025527878 2.3326196e-38
0.0012882147 -0.088038266 0.028466506 2.3418025e-38
0.0030512474 -0.085973322 0.037491247 2.350986e-38
0.0048010089 -0.084593475 0.043521807 2.350877e-38
0.0065772049 -0.084593475 0.043521807 2.3509848e-38
0.0083240923 -0.083898082 0.046560928 2.2951632e-38
0.010094959 -0.083898082 0.046560928 2.1475423e-38
0.011865825 -0.083898082 0.046560928 9.9498903e-39
0.014232904 -0.093051672 0.0065557193 4.6018263e-39
0.016073912 -0.093051672 0.0065557193 5.9847608e-39
0.017914921 -0.093051672 0.0065557193 5.7081739e-39
0.019837683 -0.093979403 0.0025011729 7.7371924e-39
0.021685801 -0.093979403 0.0025011729 7.7375455e-39
0.022562962 -0.084593475 0.043521807 1.0965467e-38
0.024339156 -0.084593475 0.043521807 1.834219e-38
0.026032759 -0.083898082 0.046560928 2.3509841e-38
0.027803626 -0.083898082 0.046560928 2.2313841e-38
-0.040975645 -0.1195762 -0.10050173 2.3418047e-38
-0.038559701 -0.11682375 -0.088563755 2.3234376e-38
-0.036428854 -0.11589904 -0.084553078 2.3234015e-38
-0.034106765 -0.1133381 -0.073445752 2.3418047e-38
-0.032019347 -0.11243759 -0.069540098 2.3509886e-38
-0.029968508 -0.11174469 -0.066534832 2.3509886e-38
-0.027905092 -0.11082654 -0.062552646 2.3509886e-38
-0.025853556 -0.10988651 -0.058475569 2.3509886e-38
-0.023839112 -0.10920714 -0.055528954 2.3509886e-38
-0.021759328 -0.10758002 -0.048471883 2.3509886e-38
-0.01968988 -0.10575347 -0.04054971 2.3509886e-38
-0.017660402 -0.1041155 -0.033445552 2.3509886e-38
-0.015670799 -0.10273984 -0.02747901 2.3509886e-38
-0.013725195 -0.10183108 -0.023537474 2.3509886e-38
-0.011802541 -0.10114056 -0.020542579 2.3509886e-38
-0.0097322054 -0.09582752 0.0025011729 2.3509886e-38
-0.007884087 -0.09582752 0.0025011729 2.3509886e-38
-0.0060053132 -0.094215035 0.0094948243 2.3509886e-38
-0.0041614864 -0.093516305 0.012525363 2.3509886e-38
-0.0023256764 -0.092130885 0.018534226 2.3509879e-38
-0.00051180087 -0.0905184 0.025527878 2.3233636e-38
0.0012802556 -0.089143202 0.031492397 2.3509853e-38
0.0030512474 -0.087760091 0.037491247 2.3509486e-38
0.0048010089 -0.086369663 0.043521807 2.3323653e-38
0.0065772049 -0.086369663 0.043521807 2.3508762e-38
0.0083534 -0.086369663 0.043521807 2.2675398e-38
0.010597094 -0.09582752 0.0025011729 2.0922244e-38
0.012445211 -0.09582752 0.0025011729 7.5531571e-39
0.014232904 -0.094892681 0.0065557193 3.9568184e-39
0.016073912 -0.094892681 0.0065557193 6.1691506e-39
0.017914921 -0.094892681 0.0065557193 5.8925637e-39
0.019837683 -0.09582752 0.0025011729 7.8290279e-39
0.021685801 -0.09582752 0.0025011729 8.7509786e-39
0.022562962 -0.086369663 0.043521807 9.489617e-39
0.024339156 -0.086369663 0.043521807 1.4284863e-38
0.026032759 -0.085668951 0.046560928 2.3507679e-38
0.027803626 -0.085668951 0.046560928 2.1298247e-38
0.029574491 -0.085668951 0.046560928 8.8543706e-39
0.03134536 -0.085668951 0.046560928 5.533893e-39
-0.042861916 -0.12068425 -0.096538737 2.3509883e-38
-0.040840149 -0.12068425 -0.096538737 2.3509883e-38
-0.038559701 -0.11883153 -0.088563755 2.3418047e-38
-0.036428854 -0.11789979 -0.084553078 2.2956712e-38
-0.034106765 -0.11531936 -0.073445752 2.3509886e-38
-0.032019347 -0.11441202 -0.069540098 2.3509886e-38
-0.029968508 -0.11371385 -0.066534832 2.3509886e-38
-0.027905092 -0.11278872 -0.062552646 2.3509886e-38
-0.025853556 -0.11184154 -0.058475569 2.3509886e-38
-0.023839112 -0.11115701 -0.055528954 2.3509886e-38
-0.02168614 -0.10859399 -0.044496492 2.3509886e-38
-0.019638412 -0.10695927 -0.037459925 2.3509886e-38
-0.017616693 -0.10534529 -0.030512648 2.3509886e-38
-0.015579585 -0.10302909 -0.020542579 2.3509886e-38
-0.013691064 -0.10302909 -0.020542579 2.3509886e-38
-0.011705972 -0.10070263 -0.010528402 2.3509886e-38
-0.0097322054 -0.097675636 0.0025011729 2.3509886e-38
-0.0078411698 -0.096050888 0.0094948243 2.3509886e-38
-0.0059920289 -0.095346853 0.012525363 2.3509886e-38
-0.0041535627 -0.094646841 0.015538497 2.3509886e-38
-0.0023222305 -0.093037367 0.022466464 2.3509876e-38
-0.00051437691 -0.091643453 0.028466506 2.3509858e-38
0.0012802556 -0.09094049 0.031492397 2.3509845e-38
0.0030382164 -0.088856161 0.040464327 2.3232172e-38
0.0048010089 -0.088145852 0.043521807 2.323109e-38
0.0065772049 -0.088145852 0.043521807 2.3507314e-38
0.0083534 -0.088145852 0.043521807 2.2306249e-38
0.010597094 -0.097675636 0.0025011729 2.0553816e-38
0.012445211 -0.097675636 0.0025011729 5.7092417e-39
0.014232904 -0.096733689 0.0065557193 3.5880415e-39
0.016073912 -0.096733689 0.0065557193 6.0762319e-39
0.017914921 -0.096733689 0.0065557193 6.6294085e-39
0.01975593 -0.096733689 0.0065557193 6.814876e-39
0.02159694 -0.096733689 0.0065557193 8.5665901e-39
0.023437949 -0.096733689 0.0065557193 9.5814567e-39
0.024339156 -0.088145852 0.043521807 1.1610114e-38
0.026115352 -0.088145852 0.043521807 2.2583923e-38
0.027803626 -0.08743982 0.046560928 2.2127286e-38
0.029574491 -0.08743982 0.046560928 1.3739296e-38
-0.044730388 -0.12175412 -0.092472032 1.2999581e-38
-0.042715747 -0.12175412 -0.092472032 2.3509883e-38
-0.04070111 -0.12175412 -0.092472032 2.3509883e-38
-0.038559701 -0.12083931 -0.088563755 2.3509883e-38
-0.036551915 -0.12083931 -0.088563755 2.3048907e-38
-0.034106765 -0.11730064 -0.073445752 2.341769e-38
-0.032019347 -0.11638646 -0.069540098 2.3509886e-38
-0.029968508 -0.115683 -0.066534832 2.3509886e-38
-0.027905092 -0.11475091 -0.062552646 2.3509886e-38
-0.025853556 -0.11379658 -0.058475569 2.3509886e-38
-0.023839112 -0.11310686 -0.055528954 2.3509886e-38
-0.021300286 -0.10561861 -0.023537474 2.3509886e-38
-0.019406512 -0.10561861 -0.023537474 2.3509886e-38
-0.017512739 -0.10561861 -0.023537474 2.3509886e-38
-0.015526913 -0.10398008 -0.016537266 2.3509886e-38
-0.013610434 -0.1032616 -0.013467746 2.3509886e-38
-0.01166698 -0.10162716 -0.0064850617 2.3509886e-38
-0.0097322054 -0.099523753 0.0025011729 2.3509886e-38
-0.0078411698 -0.097886756 0.0094948243 2.3509886e-38
-0.0059920289 -0.097177386 0.012525363 2.3509886e-38
-0.0041535627 -0.096472099 0.015538497 2.3509886e-38
-0.0023195464 -0.094133899 0.025527878 2.3509876e-38
-0.00051437691 -0.093446046 0.028466506 2.3509856e-38
0.0012802556 -0.092737779 0.031492397 2.3509839e-38
0.0030382164 -0.090637714 0.040464327 2.3047418e-38
0.00478236 -0.089210689 0.046560928 2.3415836e-38
0.0065532262 -0.089210689 0.046560928 2.350731e-38
0.0082669659 -0.087824062 0.052484915 2.1845268e-38
0.010027446 -0.087824062 0.052484915 2.0277226e-38
0.012445211 -0.099523753 0.0025011729 4.5107013e-39
0.01429333 -0.099523753 0.0025011729 3.6791596e-39
0.016141448 -0.099523753 0.0025011729 6.260626e-39
0.017989565 -0.099523753 0.0025011729 7.4588118e-39
0.01975593 -0.098574698 0.0065557193 6.7216041e-39
0.02159694 -0.098574698 0.0065557193 8.0123402e-39
0.023437949 -0.098574698 0.0065557193 9.5807393e-39
0.024261892 -0.089210689 0.046560928 1.0964031e-38
0.026032759 -0.089210689 0.046560928 2.1845282e-38
0.027803626 -0.089210689 0.046560928 2.3232549e-38
0.029574491 -0.089210689 0.046560928 1.8439828e-38
-0.044730388 -0.12376876 -0.092472032 1.7332776e-38
-0.042715747 -0.12376876 -0.092472032 2.3325492e-38
-0.040567484 -0.1228471 -0.088563755 2.3509527e-38
-0.038559701 -0.1228471 -0.088563755 2.3509527e-38
-0.036551915 -0.1228471 -0.088563755 2.3509527e-38
-0.034106765 -0.11928193 -0.073445752 2.3509527e-38
-0.032019347 -0.11836089 -0.069540098 2.3509886e-38
-0.029867269 -0.11671309 -0.062552646 2.3509886e-38
-0.027808584 -0.11575161 -0.058475569 2.3509886e-38
-0.025788978 -0.11505674 -0.055528954 2.3509886e-38
-0.02361666 -0.11245503 -0.044496492 2.3509886e-38
-0.021300286 -0.1075124 -0.023537474 2.3509886e-38
-0.019406512 -0.1075124 -0.023537474 2.3509886e-38
-0.017512739 -0.1075124 -0.023537474 2.3509886e-38
-0.015526913 -0.10586159 -0.016537266 2.3509886e-38
-0.013610434 -0.10513772 -0.013467746 2.3509886e-38
-0.01166698 -0.10349102 -0.0064850617 2.3509886e-38
-0.0097002145 -0.10041572 0.0065557193 2.3509886e-38
-0.0078411698 -0.099722609 0.0094948243 2.3509886e-38
-0.0059788227 -0.098297372 0.015538497 2.3509886e-38
-0.0041456837 -0.097590908 0.018534226 2.3509886e-38
-0.0023195464 -0.095941633 0.025527878 2.3509876e-38
-0.00051437691 -0.09524864 0.028466506 2.350913e-38
0.001264479 -0.093120396 0.037491247 2.3324365e-38
0.0030382164 -0.092419267 0.040464327 2.2586437e-38
0.00478236 -0.090981558 0.046560928 2.3508033e-38
0.0065301834 -0.090292826 0.049481437 2.350731e-38
0.0082669659 -0.089584544 0.052484915 2.1292097e-38
0.010027446 -0.089584544 0.052484915 1.9631859e-38
0.012445211 -0.10137187 0.0025011729 3.4043705e-39
0.01429333 -0.10137187 0.0025011729 3.863548e-39
0.016141448 -0.10137187 0.0025011729 6.6290512e-39
0.017989565 -0.10137187 0.0025011729 7.1815089e-39
0.019837683 -0.10137187 0.0025011729 7.3659002e-39
0.021685801 -0.10137187 0.0025011729 8.195658e-39
0.02353392 -0.10137187 0.0025011729 9.1186905e-39
0.024187643 -0.090292826 0.049481437 1.1054796e-38
0.02595339 -0.090292826 0.049481437 1.9447119e-38
0.027719134 -0.090292826 0.049481437 2.2401346e-38
0.029484881 -0.090292826 0.049481437 2.1757064e-38
-0.047061794 -0.12769108 -0.10050173 1.6779602e-38
-0.045033075 -0.12769108 -0.10050173 2.1297188e-38
-0.042431112 -0.12390204 -0.084553078 2.3417687e-38
-0.04043036 -0.12390204 -0.084553078 2.3509167e-38
-0.038429607 -0.12390204 -0.084553078 2.3416971e-38
-0.036428854 -0.12390204 -0.084553078 2.3509527e-38
-0.033906832 -0.11962132 -0.066534832 2.3509527e-38
-0.031937674 -0.11962132 -0.066534832 2.3509527e-38
-0.029867269 -0.11867525 -0.062552646 2.3509886e-38
-0.027808584 -0.11770664 -0.058475569 2.3509886e-38
-0.025700733 -0.11605005 -0.05150266 2.3509886e-38
-0.02361666 -0.11438553 -0.044496492 2.3509886e-38
-0.021372847 -0.11034258 -0.02747901 2.3509886e-38
-0.019406512 -0.10940616 -0.023537474 2.3509886e-38
-0.017468106 -0.10869466 -0.020542579 2.3509886e-38
-0.015526913 -0.10774307 -0.016537266 2.3509886e-38
-0.013576932 -0.10631551 -0.010528402 2.3509886e-38
-0.01166698 -0.10535492 -0.0064850617 2.3509886e-38
-0.0097002145 -0.10225673 0.0065557193 2.3509886e-38
-0.0078225713 -0.10083848 0.012525363 2.3509886e-38
-0.0059788227 -0.10012263 0.015538497 2.3509886e-38
-0.0041456837 -0.099410906 0.018534226 2.3509886e-38
-0.0023195464 -0.097749382 0.025527878 2.3509876e-38
-0.00051437691 -0.097051233 0.028466506 2.3048155e-38
0.001264479 -0.094907165 0.037491247 2.2770475e-38
0.0030382164 -0.094200835 0.040464327 2.2216938e-38
0.00478236 -0.092752427 0.046560928 2.3508033e-38
0.0065301834 -0.092058569 0.049481437 2.350659e-38
0.0082669659 -0.091345012 0.052484915 2.064673e-38
0.010027446 -0.091345012 0.052484915 1.9078687e-38
0.012523768 -0.10463922 -0.003472643 2.5742638e-39
0.01429333 -0.10322 0.0025011729 3.5876828e-39
0.016141448 -0.10322 0.0025011729 6.5365024e-39
0.017989565 -0.10322 0.0025011729 5.7982241e-39
0.019837683 -0.10322 0.0025011729 7.7343323e-39
0.021685801 -0.10322 0.0025011729 8.5640902e-39
0.02353392 -0.10322 0.0025011729 8.2878565e-39
0.024187643 -0.092058569 0.049481437 1.0409072e-38
0.02595339 -0.092058569 0.049481437 1.631139e-38
0.027719134 -0.092058569 0.049481437 2.20304e-38
0.029484881 -0.092058569 0.049481437 2.3509856e-38
0.031153206 -0.091345012 0.052484915 2.1848181e-38
0.032913685 -0.091345012 0.052484915 7.9262892e-39
-0.047061794 -0.12971978 -0.10050173 2.3418047e-38
-0.045033075 -0.12971978 -0.10050173 2.3048907e-38
-0.04300436 -0.12971978 -0.10050173 2.3325494e-38
-0.04043036 -0.12590279 -0.084553078 2.3509527e-38
-0.038429607 -0.12590279 -0.084553078 2.3509527e-38
-0.036428854 -0.12590279 -0.084553078 2.3415895e-38
-0.033791628 -0.12063743 -0.062552646 2.3509527e-38
-0.031829447 -0.12063743 -0.062552646 2.3509527e-38
-0.029763617 -0.11966167 -0.058475569 2.3509886e-38
-0.027738839 -0.11895646 -0.055528954 2.3509886e-38
-0.025634311 -0.11726747 -0.048471883 2.3509886e-38
-0.02361666 -0.11631607 -0.044496492 2.3509886e-38
-0.021372847 -0.11224325 -0.02747901 2.3509886e-38
-0.019406512 -0.11129995 -0.023537474 2.3509886e-38
-0.017468106 -0.11058317 -0.020542579 2.3509886e-38
-0.015526913 -0.10962458 -0.016537266 2.3509886e-38
-0.013576932 -0.10818647 -0.010528402 2.3509886e-38
-0.01166698 -0.10721879 -0.0064850617 2.3509886e-38
-0.0097002145 -0.10409774 0.0065557193 2.3509886e-38
-0.0078225713 -0.10266902 0.012525363 2.3509886e-38
-0.0059788227 -0.10194789 0.015538497 2.3509886e-38
-0.0041353423 -0.10028981 0.022466464 2.3509886e-38
-0.0023169704 -0.098853827 0.028466506 2.3509876e-38
-0.00051702932 -0.098129645 0.031492397 2.2309514e-38
0.001264479 -0.096693933 0.037491247 2.313926e-38
0.0030382164 -0.095982388 0.040464327 2.2401332e-38
0.0047644377 -0.093824327 0.049481437 2.1847077e-38
0.0065064859 -0.093105495 0.052484915 2.2215496e-38
0.0082669659 -0.093105495 0.052484915 2.0461984e-38
0.0099934181 -0.092390925 0.055470631 1.7603204e-38
0.011748663 -0.092390925 0.055470631 3.6805945e-39
0.01429333 -0.1050681 0.0025011729 4.7858673e-39
0.016141448 -0.1050681 0.0025011729 5.6156307e-39
0.017989565 -0.1050681 0.0025011729 6.3517622e-39
0.019837683 -0.1050681 0.0025011729 7.0893273e-39
0.021685801 -0.1050681 0.0025011729 7.4577469e-39
0.02353392 -0.1050681 0.0025011729 9.6704406e-39
0.024187643 -0.093824327 0.049481437 1.0223612e-38
0.02595339 -0.093824327 0.049481437 1.2899436e-38
0.027719134 -0.093824327 0.049481437 1.7511371e-38
0.029484881 -0.093824327 0.049481437 2.3509128e-38
0.031153206 -0.093105495 0.052484915 2.2585019e-38
0.032913685 -0.093105495 0.052484915 1.0230816e-38
0.034674164 -0.093105495 0.052484915 7.4653139e-39
-0.046905451 -0.13079311 -0.096538737 2.3418047e-38
-0.044883691 -0.13079311 -0.096538737 2.3509886e-38
-0.04257527 -0.12887047 -0.088563755 2.3509886e-38
-0.04043036 -0.12790357 -0.084553078 2.3509527e-38
-0.038201023 -0.12620462 -0.077506021 2.3509168e-38
-0.036088046 -0.12522577 -0.073445752 2.3415895e-38
-0.033906832 -0.12355967 -0.066534832 2.3509168e-38
-0.031829447 -0.12259962 -0.062552646 2.3509527e-38
-0.029763617 -0.12161671 -0.058475569 2.3509886e-38
-0.027738839 -0.12090631 -0.055528954 2.3509886e-38
-0.025634311 -0.11920498 -0.048471883 2.3509886e-38
-0.023474779 -0.11655019 -0.037459925 2.3509886e-38
-0.021372847 -0.11414395 -0.02747901 2.3509886e-38
-0.019406512 -0.11319371 -0.023537474 2.3509886e-38
-0.017468106 -0.11247168 -0.020542579 2.3509886e-38
-0.01548655 -0.11076607 -0.013467746 2.3509886e-38
-0.013576932 -0.11005743 -0.010528402 2.3509886e-38
-0.01163793 -0.1083564 -0.003472643 2.3509886e-38
-0.0097002145 -0.10593875 0.0065557193 2.3509886e-38
-0.0078225713 -0.10449956 0.012525363 2.3509886e-38
-0.0059788227 -0.10377313 0.015538497 2.3509886e-38
-0.0041353423 -0.10210292 0.022466464 2.3509886e-38
-0.0023169704 -0.10065642 0.028466506 2.3509879e-38
-0.00051702932 -0.099926919 0.031492397 2.3509859e-38
0.001272345 -0.099201679 0.034500644 2.3509849e-38
0.0030382164 -0.097763941 0.040464327 2.3046347e-38
0.0047644377 -0.09559007 0.049481437 2.1386104e-38
0.0065064859 -0.094865978 0.052484915 2.1754165e-38
0.0082669659 -0.094865978 0.052484915 1.9079413e-38
0.0099934181 -0.094146177 0.055470631 1.566746e-38
0.011748663 -0.094146177 0.055470631 3.9579017e-39
0.014382359 -0.1083564 -0.003472643 4.6018389e-39
0.016240951 -0.1083564 -0.003472643 5.6152762e-39
0.018099543 -0.1083564 -0.003472643 6.2595694e-39
0.019958135 -0.1083564 -0.003472643 6.7205476e-39
0.021816729 -0.1083564 -0.003472643 6.9964156e-39
0.024079366 -0.11247168 -0.020542579 9.3016595e-39
0.024187643 -0.09559007 0.049481437 9.8548318e-39
0.02595339 -0.09559007 0.049481437 1.2345183e-38
0.027719134 -0.09559007 0.049481437 1.5758568e-38
0.029484881 -0.09559007 0.049481437 2.350516e-38
0.031153206 -0.094865978 0.052484915 2.3412256e-38
0.032913685 -0.094865978 0.052484915 1.4378174e-38
0.034674164 -0.094865978 0.052484915 9.769483e-39
0.036434643 -0.094865978 0.052484915 8.7560555e-39
-0.044730388 -0.13182731 -0.092472032 2.341805e-38
-0.042431112 -0.12990431 -0.084553078 2.3509886e-38
-0.04043036 -0.12990431 -0.084553078 2.3416974e-38
-0.038201023 -0.12819304 -0.077506021 2.3416974e-38
-0.036088046 -0.12720706 -0.073445752 2.3508809e-38
-0.033906832 -0.12552883 -0.066534832 2.3509527e-38
-0.031937674 -0.12552883 -0.066534832 2.3509527e-38
-0.029688705 -0.12285618 -0.055528954 2.3509886e-38
-0.027571797 -0.12114246 -0.048471883 2.3509886e-38
-0.02554718 -0.12017711 -0.044496492 2.3509886e-38
-0.023474779 -0.11846836 -0.037459925 2.3509886e-38
-0.021372847 -0.11604463 -0.02747901 2.3509886e-38
-0.019406512 -0.11508749 -0.023537474 2.3509886e-38
-0.017468106 -0.1143602 -0.020542579 2.3509886e-38
-0.01548655 -0.11264218 -0.013467746 2.3509886e-38
-0.013576932 -0.11192839 -0.010528402 2.3509886e-38
-0.011609044 -0.10948761 -0.00047727115 2.3509886e-38
-0.0097002145 -0.10777976 0.0065557193 2.3509886e-38
-0.0078225713 -0.10633011 0.012525363 2.3509886e-38
-0.0059788227 -0.10559841 0.015538497 2.3509886e-38
-0.0041353423 -0.10391603 0.022466464 2.3509886e-38
-0.0023169704 -0.10245901 0.028466506 2.3509879e-38
-0.00051702932 -0.10172421 0.031492397 2.3509866e-38
0.001264479 -0.10026747 0.037491247 2.3509856e-38
0.0030248147 -0.098803028 0.043521807 2.3509493e-38
0.0047644377 -0.097355813 0.049481437 2.2031119e-38
0.0064829281 -0.095901415 0.055470631 2.2491376e-38
0.0082381731 -0.095901415 0.055470631 1.73277e-38
0.0099934181 -0.095901415 0.055470631 1.2071833e-38
0.011748663 -0.095901415 0.055470631 3.4965676e-39
0.014427254 -0.11094652 -0.0064850617 4.6018403e-39
0.016291128 -0.11094652 -0.0064850617 5.7081907e-39
0.018155003 -0.11094652 -0.0064850617 6.0758984e-39
0.020018876 -0.11094652 -0.0064850617 6.168094e-39
0.02210306 -0.11338757 -0.016537266 6.5361563e-39
0.024079366 -0.1143602 -0.020542579 9.1176283e-39
0.025967887 -0.1143602 -0.020542579 9.5782449e-39
0.026032759 -0.098065019 0.046560928 1.1606896e-38
0.027803626 -0.098065019 0.046560928 1.4005408e-38
0.029484881 -0.097355813 0.049481437 2.2304091e-38
0.031153206 -0.096626461 0.052484915 2.3319333e-38
0.032811601 -0.095901415 0.055470631 1.9816632e-38
0.034566846 -0.095901415 0.055470631 1.4746962e-38
0.036322091 -0.095901415 0.055470631 9.1241163e-39
-0.04458306 -0.13288604 -0.088563755 2.3234379e-38
-0.042431112 -0.13190506 -0.084553078 2.3326213e-38
-0.040324856 -0.13115029 -0.081467226 2.3325497e-38
-0.038329512 -0.13115029 -0.081467226 2.3509527e-38
-0.036212627 -0.13018142 -0.077506021 2.3509168e-38
-0.033993773 -0.12823303 -0.069540098 2.3416974e-38
-0.031937674 -0.12749799 -0.066534832 2.3509527e-38
-0.029688705 -0.12480606 -0.055528954 2.3509886e-38
-0.027571797 -0.12307997 -0.048471883 2.3509886e-38
-0.02554718 -0.12210761 -0.044496492 2.3509886e-38
-0.023393836 -0.11940466 -0.033445552 2.3509886e-38
-0.021372847 -0.11794533 -0.02747901 2.3509886e-38
-0.019406512 -0.11698125 -0.023537474 2.3509886e-38
-0.017468106 -0.11624874 -0.020542579 2.3509886e-38
-0.01548655 -0.1145183 -0.013467746 2.3509886e-38
-0.013576932 -0.11379938 -0.010528402 2.3509886e-38
-0.011609044 -0.11134095 -0.00047727115 2.3509886e-38
-0.0097002145 -0.10962076 0.0065557193 2.3509886e-38
-0.0078225713 -0.10816063 0.012525363 2.3509886e-38
-0.0059656911 -0.10669093 0.018534226 2.3509886e-38
-0.0041272901 -0.10498036 0.025527878 2.3509886e-38
-0.0023169704 -0.10426159 0.028466506 2.350988e-38
-0.00051966682 -0.10278571 0.034500644 2.3508428e-38
0.0012566596 -0.10132705 0.040464327 2.3508058e-38
0.0030248147 -0.10057923 0.043521807 2.3509856e-38
0.0047460059 -0.098386943 0.052484915 2.2032198e-38
0.0064829281 -0.097656667 0.055470631 2.2768681e-38
0.0082381731 -0.097656667 0.055470631 1.4839138e-38
0.0099584693 -0.096906602 0.05853723 8.7531506e-39
0.011708338 -0.096906602 0.05853723 3.6816749e-39
0.014487514 -0.11379938 -0.010528402 4.6029179e-39
0.016358476 -0.11379938 -0.010528402 5.9847776e-39
0.01822944 -0.11379938 -0.010528402 6.1688129e-39
0.020100404 -0.11379938 -0.010528402 6.16845e-39
0.02210306 -0.11526908 -0.016537266 6.6283463e-39
0.024079366 -0.11624874 -0.020542579 9.3023769e-39
0.025967887 -0.11624874 -0.020542579 9.5782421e-39
0.026032759 -0.099835888 0.046560928 1.1238471e-38
0.027803626 -0.099835888 0.046560928 1.3451149e-38
0.029484881 -0.099121556 0.049481437 2.0366538e-38
0.031153206 -0.098386943 0.052484915 2.3041301e-38
0.032811601 -0.097656667 0.055470631 2.3411896e-38
0.034566846 -0.097656667 0.055470631 2.0185783e-38
0.036322091 -0.097656667 0.055470631 1.0046073e-38
0.038077336 -0.097656667 0.055470631 9.3099523e-39
-0.044431865 -0.13390581 -0.084553078 2.3142544e-38
-0.042320196 -0.13314565 -0.081467226 2.3234379e-38
-0.040324856 -0.13314565 -0.081467226 2.3509527e-38
-0.038201023 -0.13216983 -0.077506021 2.3509527e-38
-0.036088046 -0.1311696 -0.073445752 2.3509168e-38
-0.033906832 -0.12946714 -0.066534832 2.3140387e-38
-0.031829447 -0.12848614 -0.062552646 2.3509527e-38
-0.029688705 -0.12675591 -0.055528954 2.3509886e-38
-0.027571797 -0.12501745 -0.048471883 2.3509886e-38
-0.025460683 -0.12306587 -0.04054971 2.3509886e-38
-0.023393836 -0.12131582 -0.033445552 2.3509886e-38
-0.021372847 -0.119846 -0.02747901 2.3509886e-38
-0.019406512 -0.11887501 -0.023537474 2.3509886e-38
-0.017468106 -0.11813726 -0.020542579 2.3509886e-38
-0.015526913 -0.11715056 -0.016537266 2.3509886e-38
-0.013576932 -0.11567034 -0.010528402 2.3509886e-38
-0.011580322 -0.11246057 0.0025011729 2.3509886e-38
-0.0096770246 -0.11073773 0.0094948243 2.3509886e-38
-0.0078040808 -0.10924892 0.015538497 2.3509886e-38
-0.0059484541 -0.10754226 0.022466464 2.3509886e-38
-0.004119562 -0.10606419 0.028466506 2.3509886e-38
-0.002314318 -0.1053188 0.031492397 2.350988e-38
-0.00052228943 -0.10384102 0.037491247 2.3509869e-38
0.0012566596 -0.1031086 0.040464327 2.3509499e-38
0.0030382164 -0.1031086 0.040464327 2.3509856e-38
0.0047460059 -0.10014741 0.052484915 2.1294633e-38
0.0064829281 -0.099411905 0.055470631 2.1571217e-38
0.0082381731 -0.099411905 0.055470631 1.1705206e-38
0.0099584693 -0.098656476 0.05853723 6.7259229e-39
0.011708338 -0.098656476 0.05853723 4.9731298e-39
0.014577067 -0.11715056 -0.016537266 4.6958296e-39
0.016407436 -0.11639442 -0.013467746 5.7092655e-39
0.018283553 -0.11639442 -0.013467746 5.9847748e-39
0.020221561 -0.11715056 -0.016537266 6.076969e-39
0.022190845 -0.11813726 -0.020542579 6.5375842e-39
0.024079366 -0.11813726 -0.020542579 9.119415e-39
0.025967887 -0.11813726 -0.020542579 9.3027244e-39
0.026032759 -0.10160676 0.046560928 1.105443e-38
0.027803626 -0.10160676 0.046560928 1.3358228e-38
0.029484881 -0.1008873 0.049481437 1.8797769e-38
0.031153206 -0.10014741 0.052484915 2.2856188e-38
0.032913685 -0.10014741 0.052484915 2.350769e-38
0.034566846 -0.099411905 0.055470631 2.3043124e-38
0.036322091 -0.099411905 0.055470631 1.004571e-38
0.038077336 -0.099411905 0.055470631 9.8631261e-39
-0.044315539 -0.13514097 -0.081467226 2.2775202e-38
-0.042177819 -0.13415821 -0.077506021 2.2682286e-38
-0.040189423 -0.13415821 -0.077506021 2.341805e-38
-0.038069323 -0.13315089 -0.073445752 2.3509527e-38
-0.035968207 -0.1321819 -0.069540098 2.3509527e-38
-0.033673678 -0.12943684 -0.058475569 2.3416974e-38
-0.03163857 -0.12870578 -0.055528954 2.3509886e-38
-0.029586345 -0.12770687 -0.05150266 2.3509886e-38
-0.027477704 -0.12596865 -0.044496492 2.3509886e-38
-0.025392964 -0.12422292 -0.037459925 2.3509886e-38
-0.023334697 -0.1224993 -0.030512648 2.3509886e-38
-0.021300286 -0.1207688 -0.023537474 2.3509886e-38
-0.019356627 -0.12002577 -0.020542579 2.3509886e-38
-0.017408416 -0.11903207 -0.016537266 2.3509886e-38
-0.015526913 -0.11903207 -0.016537266 2.3509886e-38
-0.013576932 -0.1175413 -0.010528402 2.3509886e-38
-0.011580322 -0.1143087 0.0025011729 2.3509886e-38
-0.0096531138 -0.11182173 0.012525363 2.3509886e-38
-0.0077856965 -0.11033095 0.018534226 2.3509886e-38
-0.0059484541 -0.10935538 0.022466464 2.3509886e-38
-0.004119562 -0.10786678 0.028466506 2.3509886e-38
-0.002314318 -0.10711606 0.031492397 2.350988e-38
-0.00052228943 -0.10562779 0.037491247 2.3509869e-38
0.0012566596 -0.10489015 0.040464327 2.350986e-38
0.0030382164 -0.10489015 0.040464327 2.3509856e-38
0.0047460059 -0.10190789 0.052484915 2.1848167e-38
0.0064829281 -0.10116716 0.055470631 2.147902e-38
0.0082381731 -0.10116716 0.055470631 9.0326102e-39
0.0099934181 -0.10116716 0.055470631 5.4362603e-39
