# .PCD v0.7 - Point Cloud Data file format
VERSION 0.7
FIELDS x y z rgb
SIZE 4 4 4 4
TYPE F F F F
COUNT 1 1 1 1
WIDTH 921
HEIGHT 1
VIEWPOINT 0 0 0 1 0 0 0
POINTS 921
DATA ascii
0.004795013 -0.046008319 0.035048742 2.0926927e-38
0.006695753 -0.046578646 0.032022852 2.2126552e-38
-0.031518929 -0.074439198 -0.10495363 1.2541491e-38
-0.029476173 -0.074439198 -0.10495363 2.2958873e-38
-0.027433414 -0.074439198 -0.10495363 2.3142544e-38
-0.025390657 -0.074439198 -0.10495363 2.3142544e-38
-0.023365512 -0.073674828 -0.10093568 2.2865958e-38
-0.021495404 -0.06854111 -0.07394968 2.3234376e-38
-0.019539041 -0.067768693 -0.069889411 2.3418045e-38
-0.017595425 -0.067025691 -0.065983757 2.3049261e-38
-0.015655246 -0.066453978 -0.062978491 2.3509883e-38
-0.013792064 -0.064920813 -0.054919224 2.3509886e-38
-0.012045369 -0.062261477 -0.040940147 2.3509527e-38
-0.010180589 -0.061510652 -0.036993366 2.3509527e-38
-0.0083138701 -0.060922861 -0.03390358 2.3417691e-38
-0.0064766314 -0.060159191 -0.029889207 2.3048914e-38
-0.0045654867 -0.060159191 -0.029889207 2.3049991e-38
-0.002654342 -0.060159191 -0.029889207 2.3142544e-38
0.0029977243 -0.047805607 0.035048742 2.1387908e-38
0.004795013 -0.047805607 0.035048742 2.2032561e-38
0.006695753 -0.048381239 0.032022852 2.3139272e-38
0.0086039696 -0.048940286 0.029084224 2.3508774e-38
-0.033579424 -0.077258736 -0.1089996 1.2079788e-38
-0.031518929 -0.076481953 -0.10495363 1.5583594e-38
-0.029476173 -0.076481953 -0.10495363 2.249826e-38
-0.027436936 -0.07571055 -0.10093568 2.3142544e-38
-0.025411719 -0.074944451 -0.09694539 2.3234379e-38
-0.023452912 -0.071882471 -0.080996737 2.3142544e-38
-0.021495404 -0.070529506 -0.07394968 2.332621e-38
-0.019539041 -0.069749966 -0.069889411 2.3417687e-38
-0.017624408 -0.068423137 -0.062978491 2.3509523e-38
-0.015747095 -0.066875845 -0.054919224 2.3509527e-38
-0.013923612 -0.064955235 -0.044915538 2.3509168e-38
-0.012104189 -0.063434258 -0.036993366 2.3508451e-38
-0.010180589 -0.063434258 -0.036993366 2.3046762e-38
-0.0083877742 -0.062070325 -0.029889207 2.267906e-38
-0.0064766314 -0.062070325 -0.029889207 2.3509168e-38
-0.0046297647 -0.06150724 -0.026956301 2.3509527e-38
-0.0028888658 -0.060168073 -0.019981127 2.3509886e-38
-0.0011730623 -0.058824107 -0.012980919 2.3234015e-38
0.00070843659 -0.058824107 -0.012980919 2.3509873e-38
0.0019218549 -0.05439049 0.010112066 2.350986e-38
0.0030905697 -0.050183833 0.032022852 1.8252543e-38
0.0048931595 -0.050183833 0.032022852 1.9265979e-38
0.006695753 -0.050183833 0.032022852 2.0372687e-38
0.0084983464 -0.050183833 0.032022852 2.0096101e-38
0.010300936 -0.050183833 0.032022852 1.4749473e-38
-0.033561688 -0.078524709 -0.10495363 1.7242389e-38
-0.031508364 -0.077746257 -0.10093568 1.9824238e-38
-0.029472651 -0.077746257 -0.10093568 2.2958873e-38
-0.02744391 -0.076205358 -0.092982396 2.3234379e-38
-0.025443116 -0.074660257 -0.085007414 2.3325856e-38
-0.023452912 -0.073883221 -0.080996737 2.341805e-38
-0.021495404 -0.072517902 -0.07394968 2.3325492e-38
-0.019539041 -0.071731254 -0.069889411 2.3417327e-38
-0.017624408 -0.070392311 -0.062978491 2.3509524e-38
-0.015747095 -0.068830878 -0.054919224 2.3508808e-38
-0.013975889 -0.066122517 -0.040940147 2.3508451e-38
-0.012104189 -0.065357864 -0.036993366 2.3507374e-38
-0.010232054 -0.06475924 -0.03390358 2.3508451e-38
-0.0083877742 -0.063981473 -0.029889207 2.3508451e-38
-0.0065357685 -0.063413247 -0.026956301 2.3508809e-38
-0.0046962518 -0.062825501 -0.023922663 2.3508091e-38
-0.0028888658 -0.062061846 -0.019981127 2.3509521e-38
-0.0011730623 -0.060705602 -0.012980919 2.3047817e-38
0.00027197972 -0.057594091 0.0030790754 2.3139646e-38
0.0019218549 -0.056231499 0.010112066 2.3507707e-38
0.0035796966 -0.055074915 0.016081709 1.8067081e-38
0.0054102372 -0.055074915 0.016081709 1.8895763e-38
0.0071377624 -0.054491147 0.019094843 1.9634407e-38
0.0084983464 -0.051986426 0.032022852 1.8897561e-38
0.010300936 -0.051986426 0.032022852 1.5855468e-38
0.012340231 -0.053148896 0.02602281 1.391936e-38
-0.037647203 -0.080567464 -0.10495363 9.7734416e-39
-0.035604447 -0.080567464 -0.10495363 8.1150105e-39
-0.033544078 -0.079781964 -0.10093568 2.0930213e-38
-0.031508364 -0.079781964 -0.10093568 2.22206e-38
-0.029472651 -0.079781964 -0.10093568 2.3142544e-38
-0.02744391 -0.078227133 -0.092982396 2.341805e-38
-0.025443116 -0.076668039 -0.085007414 2.3049626e-38
-0.023452912 -0.07588397 -0.080996737 2.3509886e-38
-0.021495404 -0.074506298 -0.07394968 2.3417687e-38
-0.019539041 -0.073712528 -0.069889411 2.3509883e-38
-0.017595425 -0.072948977 -0.065983757 2.3509527e-38
-0.015747095 -0.07078591 -0.054919224 2.3507728e-38
-0.013975889 -0.068053037 -0.040940147 2.3509168e-38
-0.012104189 -0.067281455 -0.036993366 2.3508092e-38
-0.010232054 -0.066677421 -0.03390358 2.3508451e-38
-0.0083877742 -0.065892622 -0.029889207 2.341518e-38
-0.0065357685 -0.065319255 -0.026956301 2.3508092e-38
-0.0046962518 -0.064726189 -0.023922663 2.2955273e-38
-0.0028888658 -0.06395562 -0.019981127 2.3509521e-38
-0.0011730623 -0.062587112 -0.012980919 2.3509876e-38
0.00027197972 -0.059447438 0.0030790754 2.350987e-38
0.0020391531 -0.05886516 0.0060575195 2.3509511e-38
0.0036726836 -0.057497919 0.013051171 1.8159285e-38
0.0054102372 -0.056905463 0.016081709 1.6960742e-38
0.0071377624 -0.056316406 0.019094843 1.8712459e-38
0.0087140072 -0.054962009 0.02602281 2.0003201e-38
0.010300936 -0.05378902 0.032022852 2.3322962e-38
0.01210353 -0.05378902 0.032022852 2.3509514e-38
-0.037647203 -0.08261022 -0.10495363 7.5621968e-39
-0.035604447 -0.08261022 -0.10495363 8.5763516e-39
-0.033544078 -0.081817687 -0.10093568 2.3142544e-38
-0.031508364 -0.081817687 -0.10093568 2.3142542e-38
-0.029469151 -0.081030592 -0.09694539 2.341805e-38
-0.027450901 -0.078675836 -0.085007414 2.341805e-38
-0.025453664 -0.077884719 -0.080996737 2.3509886e-38
-0.023466438 -0.077276036 -0.077910885 2.3509886e-38
-0.021495404 -0.076494694 -0.07394968 2.3509886e-38
-0.019539041 -0.075693801 -0.069889411 2.3509886e-38
-0.017624408 -0.074330628 -0.062978491 2.3509527e-38
-0.015861103 -0.070767716 -0.044915538 2.3509527e-38
-0.014027789 -0.069205061 -0.036993366 2.3509527e-38
-0.012150237 -0.068595603 -0.03390358 2.3509527e-38
-0.010232054 -0.068595603 -0.03390358 2.3509527e-38
-0.0083877742 -0.06780377 -0.029889207 2.3509527e-38
-0.0065357685 -0.067225248 -0.026956301 2.3509527e-38
-0.0046962518 -0.066626862 -0.023922663 2.3509527e-38
-0.0028888658 -0.065849394 -0.019981127 2.3509883e-38
-0.0011730623 -0.064468607 -0.012980919 2.3509883e-38
0.00035338476 -0.061891615 8.3703548e-05 2.350988e-38
0.0020391531 -0.060713276 0.0060575195 2.3509879e-38
0.0036726836 -0.059333771 0.013051171 2.0835845e-38
0.0054102372 -0.058735996 0.016081709 1.7607921e-38
0.0071377624 -0.058141664 0.019094843 1.7054031e-38
0.0087140072 -0.056775123 0.02602281 2.0004294e-38
0.010300936 -0.055591613 0.032022852 2.350773e-38
0.01210353 -0.055591613 0.032022852 2.3509168e-38
0.013906123 -0.055591613 0.032022852 2.3324775e-38
-0.0376155 -0.083853394 -0.10093568 7.3785343e-39
-0.035579786 -0.083853394 -0.10093568 8.0242596e-39
-0.033526585 -0.083059311 -0.09694539 2.3142541e-38
-0.031497866 -0.083059311 -0.09694539 2.2589722e-38
-0.029465677 -0.082270667 -0.092982396 2.3418045e-38
-0.027450901 -0.080683619 -0.085007414 2.3509883e-38
-0.025453664 -0.079885483 -0.080996737 2.3509886e-38
-0.023466438 -0.079271376 -0.077910885 2.3509886e-38
-0.02152032 -0.077675089 -0.069889411 2.3509886e-38
-0.019569857 -0.076897845 -0.065983757 2.3509886e-38
-0.017624408 -0.076299787 -0.062978491 2.3509886e-38
-0.015861103 -0.072705194 -0.044915538 2.3509886e-38
-0.014027789 -0.071128666 -0.036993366 2.3509886e-38
-0.012150237 -0.070513785 -0.03390358 2.3509886e-38
-0.010298919 -0.069714904 -0.029889207 2.3509886e-38
-0.0084417704 -0.069131255 -0.026956301 2.3509886e-38
-0.0065969359 -0.06852755 -0.023922663 2.3509886e-38
-0.0047826376 -0.067743167 -0.019981127 2.3509886e-38
-0.0029597543 -0.06714718 -0.016986232 2.3509886e-38
-0.0011730623 -0.066350102 -0.012980919 2.3509886e-38
0.00035338476 -0.063750207 8.3703548e-05 2.3509883e-38
0.0020391531 -0.062561393 0.0060575195 2.3418047e-38
0.0036726836 -0.061169639 0.013051171 2.3141819e-38
0.0054102372 -0.060566545 0.016081709 2.2034037e-38
0.0071377624 -0.059966922 0.019094843 2.1112086e-38
0.0087140072 -0.058588237 0.02602281 2.1848573e-38
0.010300936 -0.057394207 0.032022852 2.3323345e-38
0.011747504 -0.055598259 0.041047592 2.3509168e-38
0.013534272 -0.055598259 0.041047592 2.3509527e-38
-0.037584018 -0.08508803 -0.09694539 6.2729056e-39
-0.035555303 -0.08508803 -0.09694539 9.407194e-39
-0.033509213 -0.084292427 -0.092982396 2.3142544e-38
-0.031487446 -0.084292427 -0.092982396 2.2958507e-38
-0.029462112 -0.083476007 -0.088915691 2.3418045e-38
-0.027450901 -0.082691401 -0.085007414 2.3509883e-38
-0.025453664 -0.081886232 -0.080996737 2.3509886e-38
-0.0234838 -0.080471486 -0.07394968 2.3509886e-38
-0.02152032 -0.079656363 -0.069889411 2.3509886e-38
-0.019569857 -0.078872278 -0.065983757 2.3509886e-38
-0.017662808 -0.077469498 -0.058996301 2.3509886e-38
-0.015747095 -0.076650992 -0.054919224 2.3509886e-38
-0.014027789 -0.073052257 -0.036993366 2.3509886e-38
-0.012150237 -0.072431967 -0.03390358 2.3509886e-38
-0.010298919 -0.071626052 -0.029889207 2.3509886e-38
-0.00849762 -0.070428237 -0.023922663 2.3509886e-38
-0.0065969359 -0.070428237 -0.023922663 2.3509886e-38
-0.0047826376 -0.069636941 -0.019981127 2.3509886e-38
-0.0029597543 -0.069035694 -0.016986232 2.3509886e-38
-0.0014286228 -0.066213563 -0.0029287152 2.3509886e-38
0.00035338476 -0.065608799 8.3703548e-05 2.3509883e-38
0.0020391531 -0.064409509 0.0060575195 2.3141819e-38
0.0037628654 -0.063595533 0.010112066 2.3418047e-38
0.0054102372 -0.062397093 0.016081709 2.3509527e-38
0.0070353393 -0.061190769 0.022090573 2.3509527e-38
0.0086039696 -0.059786752 0.029084224 2.3415898e-38
0.010186872 -0.058589324 0.035048742 2.3508092e-38
0.011747504 -0.057385027 0.041047592 2.3509168e-38
0.013411773 -0.056788161 0.044020671 2.3509886e-38
0.015193326 -0.056788161 0.044020671 2.341805e-38
0.016838184 -0.056174353 0.047078151 2.2958867e-38
0.01861438 -0.056174353 0.047078151 2.3142538e-38
-0.037584018 -0.087116748 -0.09694539 5.4435064e-39
-0.035530984 -0.086314201 -0.092982396 1.2634404e-38
-0.033509213 -0.086314201 -0.092982396 2.2498973e-38
-0.031487446 -0.086314201 -0.092982396 2.3142541e-38
-0.029458687 -0.084699184 -0.085007414 2.3234376e-38
-0.027450901 -0.084699184 -0.085007414 2.3509886e-38
-0.02546178 -0.083262071 -0.077910885 2.3509886e-38
-0.0234838 -0.082459882 -0.07394968 2.3509886e-38
-0.021544287 -0.080846712 -0.065983757 2.3509886e-38
-0.019593569 -0.080238104 -0.062978491 2.3509886e-38
-0.017662808 -0.079431683 -0.058996301 2.3509886e-38
-0.015861103 -0.076580182 -0.044915538 2.3509886e-38
-0.014027789 -0.074975863 -0.036993366 2.3509886e-38
-0.012150237 -0.074350148 -0.03390358 2.3509886e-38
-0.010298919 -0.073537201 -0.029889207 2.3509886e-38
-0.00849762 -0.07232891 -0.023922663 2.3509886e-38
-0.0065969359 -0.07232891 -0.023922663 2.3509886e-38
-0.0048482753 -0.070924222 -0.016986232 2.3509886e-38
-0.0030545611 -0.070113108 -0.012980919 2.3509886e-38
-0.0015052073 -0.067467391 8.3703548e-05 2.3509886e-38
0.00027197972 -0.066860795 0.0030790754 2.3509883e-38
0.0020391531 -0.066257626 0.0060575195 2.3049624e-38
0.0036726836 -0.064841345 0.013051171 2.3509883e-38
0.0054102372 -0.064227626 0.016081709 2.3509886e-38
0.0070353393 -0.063010782 0.022090573 2.3416974e-38
0.0086039696 -0.061594486 0.029084224 2.3509168e-38
0.010186872 -0.060386613 0.035048742 2.3509168e-38
0.011747504 -0.059171796 0.041047592 2.3509527e-38
0.013411773 -0.058569714 0.044020671 2.3509886e-38
0.015193326 -0.058569714 0.044020671 2.249645e-38
0.016838184 -0.057950541 0.047078151 2.3234374e-38
0.018473173 -0.057335094 0.050117273 2.3050698e-38
0.020244038 -0.057335094 0.050117273 2.3234372e-38
-0.037584018 -0.089145467 -0.09694539 7.9327912e-39
-0.035530984 -0.088335961 -0.092982396 1.5676861e-38
-0.033509213 -0.088335961 -0.092982396 2.2406422e-38
-0.031476751 -0.087505296 -0.088915691 2.3142544e-38
-0.029458687 -0.086706966 -0.085007414 2.3234379e-38
-0.027454417 -0.085887745 -0.080996737 2.3509886e-38
-0.02546178 -0.085257411 -0.077910885 2.3509886e-38
-0.0234838 -0.084448278 -0.07394968 2.3509886e-38
-0.021544287 -0.082821131 -0.065983757 2.3509886e-38
-0.019593569 -0.082207277 -0.062978491 2.3509886e-38
-0.017702125 -0.080561057 -0.054919224 2.3509886e-38
-0.015861103 -0.078517675 -0.044915538 2.3509886e-38
-0.014027789 -0.076899469 -0.036993366 2.3509886e-38
-0.012150237 -0.07626833 -0.03390358 2.3509886e-38
-0.010298919 -0.075448349 -0.029889207 2.3509886e-38
-0.0084417704 -0.074849263 -0.026956301 2.3509886e-38
-0.0065969359 -0.074229598 -0.023922663 2.3509886e-38
-0.0048482753 -0.072812736 -0.016986232 2.3509886e-38
-0.0030545611 -0.071994603 -0.012980919 2.3509886e-38
-0.0015052073 -0.069325984 8.3703548e-05 2.3509886e-38
0.00019103661 -0.068105742 0.0060575195 2.3509883e-38
0.0019218549 -0.067277551 0.010112066 2.3509883e-38
0.0036726836 -0.066677198 0.013051171 2.3509883e-38
0.0053125042 -0.065442696 0.019094843 2.3233299e-38
0.0069008935 -0.064027563 0.02602281 2.3232944e-38
0.0084983464 -0.062801987 0.032022852 2.3509168e-38
0.01007347 -0.061569422 0.038056988 2.3509168e-38
0.011630217 -0.060351267 0.044020671 2.3509527e-38
0.013411773 -0.060351267 0.044020671 2.3048189e-38
0.015061988 -0.05972673 0.047078151 2.350988e-38
0.016838184 -0.05972673 0.047078151 2.3509879e-38
0.018473173 -0.059105948 0.050117273 2.3233648e-38
0.020103222 -0.058509395 0.053037781 2.0744366e-38
0.021569686 -0.057286024 0.059026975 1.9914608e-38
0.023324931 -0.057286024 0.059026975 4.0569608e-39
-0.035530984 -0.090357736 -0.092982396 1.7797724e-38
-0.033491388 -0.089519933 -0.088915691 2.2958873e-38
-0.031466469 -0.088714764 -0.085007414 2.2774481e-38
-0.029458687 -0.088714764 -0.085007414 2.3234379e-38
-0.027454417 -0.087888494 -0.080996737 2.3509886e-38
-0.02546178 -0.087252751 -0.077910885 2.3509886e-38
-0.023501597 -0.085600197 -0.069889411 2.3509886e-38
-0.021544287 -0.084795564 -0.065983757 2.3509886e-38
-0.019593569 -0.084176436 -0.062978491 2.3509886e-38
-0.017702125 -0.082516089 -0.054919224 2.3509886e-38
-0.015861103 -0.080455169 -0.044915538 2.3509886e-38
-0.014027789 -0.07882306 -0.036993366 2.3509886e-38
-0.012150237 -0.078186512 -0.03390358 2.3509886e-38
-0.010298919 -0.077359483 -0.029889207 2.3509886e-38
-0.0084417704 -0.076755255 -0.026956301 2.3509886e-38
-0.0065969359 -0.076130286 -0.023922663 2.3509886e-38
-0.0048482753 -0.074701265 -0.016986232 2.3509886e-38
-0.0031272154 -0.073243722 -0.0099113993 2.3509886e-38
-0.0015052073 -0.071184576 8.3703548e-05 2.3509886e-38
0.00019103661 -0.069953859 0.0060575195 2.3509883e-38
0.001836827 -0.068513051 0.013051171 2.3509883e-38
0.0035796966 -0.067888707 0.016081709 2.3509883e-38
0.00521533 -0.066650793 0.022090573 2.3509886e-38
0.006796224 -0.065209985 0.029084224 2.3509886e-38
0.0084983464 -0.06460458 0.032022852 2.3509527e-38
0.01007347 -0.063361436 0.038056988 2.3509527e-38
0.011630217 -0.06213282 0.044020671 2.3509527e-38
0.013411773 -0.06213282 0.044020671 2.3416971e-38
0.015061988 -0.061502934 0.047078151 2.350988e-38
0.016838184 -0.061502934 0.047078151 2.2956701e-38
0.018473173 -0.060876817 0.050117273 2.1019511e-38
0.020103222 -0.060275152 0.053037781 1.28141e-38
0.021569686 -0.059041277 0.059026975 1.4658015e-38
0.023324931 -0.059041277 0.059026975 1.2629714e-38
0.025080176 -0.059041277 0.059026975 2.5800357e-39
-0.035530984 -0.09237951 -0.092982396 2.0655788e-38
-0.033491388 -0.09153457 -0.088915691 2.2867037e-38
-0.031466469 -0.090722546 -0.085007414 2.2497539e-38
-0.029458687 -0.090722546 -0.085007414 2.3234379e-38
-0.027454417 -0.089889243 -0.080996737 2.3509886e-38
-0.025472198 -0.08842507 -0.07394968 2.3509886e-38
-0.023518719 -0.086769998 -0.065983757 2.3509886e-38
-0.021562729 -0.086145595 -0.062978491 2.3509886e-38
-0.019624988 -0.085318208 -0.058996301 2.3509886e-38
-0.017798595 -0.082392648 -0.044915538 2.3509886e-38
-0.015906408 -0.081566691 -0.040940147 2.3509886e-38
-0.014027789 -0.080746666 -0.036993366 2.3509886e-38
-0.012150237 -0.080104694 -0.03390358 2.3509886e-38
-0.010347772 -0.078661263 -0.026956301 2.3509886e-38
-0.00849762 -0.078030959 -0.023922663 2.3509886e-38
-0.0066764113 -0.077212036 -0.019981127 2.3509886e-38
-0.0048482753 -0.076589778 -0.016986232 2.3509886e-38
-0.0033637993 -0.073043168 8.3703548e-05 2.3509886e-38
-0.0016570818 -0.071801975 0.0060575195 2.3509886e-38
8.084625e-05 -0.070959568 0.010112066 2.3509883e-38
0.001836827 -0.070348918 0.013051171 2.3048545e-38
0.0034872424 -0.069093212 0.019094843 2.3325492e-38
0.00521533 -0.068470791 0.022090573 2.3509886e-38
0.006796224 -0.067017719 0.029084224 2.341805e-38
0.0084983464 -0.066407159 0.032022852 2.341805e-38
0.0099607352 -0.064532101 0.041047592 2.3233662e-38
0.011630217 -0.063914374 0.044020671 2.3509886e-38
0.013285792 -0.063279122 0.047078151 2.3509883e-38
0.015061988 -0.063279122 0.047078151 2.3509158e-38
0.016702304 -0.062647685 0.050117273 2.2494281e-38
0.018337475 -0.062040895 0.053037781 1.9635492e-38
0.020103222 -0.062040895 0.053037781 1.1798863e-38
0.021569686 -0.060796514 0.059026975 1.1615193e-38
0.023324931 -0.060796514 0.059026975 1.6317173e-38
0.025080176 -0.060796514 0.059026975 7.7426266e-39
-0.037584018 -0.095231608 -0.09694539 1.9366494e-38
-0.035530984 -0.09440127 -0.092982396 2.2591531e-38
-0.033491388 -0.093549207 -0.088915691 2.2591531e-38
-0.031466469 -0.092730328 -0.085007414 2.3050708e-38
-0.029458687 -0.092730328 -0.085007414 2.341805e-38
-0.027454417 -0.091889992 -0.080996737 2.3509886e-38
-0.025482876 -0.089562759 -0.069889411 2.3509886e-38
-0.023531891 -0.088114753 -0.062978491 2.3509886e-38
-0.021587167 -0.087280393 -0.058996301 2.3509886e-38
-0.019657157 -0.086426154 -0.054919224 2.3509886e-38
-0.01783693 -0.083497211 -0.040940147 2.3509886e-38
-0.015906408 -0.083497211 -0.040940147 2.3509886e-38
-0.014027789 -0.082670271 -0.036993366 2.3509886e-38
-0.012210064 -0.08118178 -0.029889207 2.3509886e-38
-0.010347772 -0.080567271 -0.026956301 2.3509886e-38
-0.00849762 -0.079931647 -0.023922663 2.3509886e-38
-0.0067367982 -0.078478307 -0.016986232 2.3509886e-38
-0.0049360599 -0.077639103 -0.012980919 2.3509886e-38
-0.0033637993 -0.07490176 8.3703548e-05 2.3509886e-38
-0.0016570818 -0.073650107 0.0060575195 2.3509886e-38
8.084625e-05 -0.072800577 0.010112066 2.3509886e-38
0.001836827 -0.072184771 0.013051171 2.3509883e-38
0.0034872424 -0.070918471 0.019094843 2.3509883e-38
0.0050877836 -0.069466904 0.02602281 2.3326213e-38
0.006695753 -0.068209752 0.032022852 2.3050349e-38
0.0083895866 -0.067575768 0.035048742 2.3050349e-38
0.0098486599 -0.065695941 0.044020671 2.3050349e-38
0.011509599 -0.065055326 0.047078151 2.3233662e-38
0.013285792 -0.065055326 0.047078151 2.350952e-38
0.015061988 -0.065055326 0.047078151 2.3509157e-38
0.016702304 -0.064418554 0.050117273 2.2953815e-38
0.018337475 -0.063806638 0.053037781 1.6315008e-38
0.019958401 -0.063177347 0.056041259 2.946642e-39
0.021569686 -0.062551767 0.059026975 7.1883626e-39
0.023324931 -0.062551767 0.059026975 1.5854395e-38
0.025080176 -0.062551767 0.059026975 1.5578529e-38
0.026835421 -0.062551767 0.059026975 2.7550649e-40
0.029271549 -0.065055326 0.047078151 3.5873241e-43
-0.037584018 -0.097260326 -0.09694539 2.1947965e-38
-0.035530984 -0.096423045 -0.092982396 2.2223112e-38
-0.033491388 -0.095563844 -0.088915691 2.2774843e-38
-0.031466469 -0.094738111 -0.085007414 2.3234379e-38
-0.029458687 -0.094738111 -0.085007414 2.2864879e-38
-0.027454417 -0.093890756 -0.080996737 2.3509886e-38
-0.025482876 -0.091544032 -0.069889411 2.3509886e-38
-0.023531891 -0.090083912 -0.062978491 2.3509886e-38
-0.021587167 -0.089242578 -0.058996301 2.3509886e-38
-0.019680405 -0.087758631 -0.051972609 2.3509886e-38
-0.01783693 -0.085427731 -0.040940147 2.3509886e-38
-0.015906408 -0.085427731 -0.040940147 2.3509886e-38
-0.01406842 -0.083941072 -0.03390358 2.3509886e-38
-0.012210064 -0.083092928 -0.029889207 2.3509886e-38
-0.010398302 -0.081832334 -0.023922663 2.3509886e-38
-0.0085701831 -0.080999583 -0.019981127 2.3509886e-38
-0.0067367982 -0.08036682 -0.016986232 2.3509886e-38
-0.0049360599 -0.079520598 -0.012980919 2.3509886e-38
-0.0033637993 -0.076760352 8.3703548e-05 2.3509886e-38
-0.0016570818 -0.075498223 0.0060575195 2.3509886e-38
8.084625e-05 -0.074641585 0.010112066 2.3509886e-38
0.001836827 -0.074020624 0.013051171 2.3509883e-38
0.0034872424 -0.072743744 0.019094843 2.3509883e-38
0.0050877836 -0.071280017 0.02602281 2.341805e-38
0.006695753 -0.070012346 0.032022852 2.3234379e-38
0.0083895866 -0.069373056 0.035048742 2.3142544e-38
0.0098486599 -0.067477494 0.044020671 2.3142544e-38
0.011509599 -0.066831514 0.047078151 2.341805e-38
0.013285792 -0.066831514 0.047078151 2.3509521e-38
0.014931438 -0.066189423 0.050117273 2.3507712e-38
0.016702304 -0.066189423 0.050117273 2.0739678e-38
0.018337475 -0.065572381 0.053037781 1.6589433e-38
0.019958401 -0.064937815 0.056041259 3.4054551e-39
0.021569686 -0.064307004 0.059026975 7.3705903e-39
0.023324931 -0.064307004 0.059026975 1.585403e-38
0.025080176 -0.064307004 0.059026975 1.5024991e-38
0.027327506 -0.066189423 0.050117273 2.0272136e-39
0.029271549 -0.066831514 0.047078151 2.8025969e-45
0.031047745 -0.066831514 0.047078151 7.272739e-43
-0.043722637 -0.1001391 -0.10093568 5.0758029e-39
-0.04168693 -0.1001391 -0.10093568 3.9698211e-39
-0.039651215 -0.1001391 -0.10093568 6.9208043e-39
-0.037584018 -0.099289045 -0.09694539 2.2499695e-38
-0.035530984 -0.098444805 -0.092982396 2.2775202e-38
-0.033509213 -0.098444805 -0.092982396 2.2406066e-38
-0.031466469 -0.096745893 -0.085007414 2.3234379e-38
-0.02945517 -0.095891505 -0.080996737 2.3325497e-38
-0.027454417 -0.095891505 -0.080996737 2.3509886e-38
-0.025482876 -0.093525305 -0.069889411 2.3509886e-38
-0.023531891 -0.092053071 -0.062978491 2.3509886e-38
-0.021587167 -0.091204748 -0.058996301 2.3509886e-38
-0.019680405 -0.089708492 -0.051972609 2.3509886e-38
-0.01787499 -0.086517468 -0.036993366 2.3509886e-38
-0.015951389 -0.086517468 -0.036993366 2.3509886e-38
-0.01406842 -0.085859254 -0.03390358 2.3509886e-38
-0.012253774 -0.084379271 -0.026956301 2.3509886e-38
-0.010398302 -0.083733007 -0.023922663 2.3509886e-38
-0.0085701831 -0.082893357 -0.019981127 2.3509886e-38
-0.0067367982 -0.082255349 -0.016986232 2.3509886e-38
-0.0050033331 -0.0807482 -0.0099113993 2.3509886e-38
-0.0033637993 -0.078618944 8.3703548e-05 2.3509886e-38
-0.0016570818 -0.07734634 0.0060575195 2.3509886e-38
8.084625e-05 -0.076482594 0.010112066 2.3509527e-38
0.001836827 -0.075856477 0.013051171 2.3509524e-38
0.0034872424 -0.074569002 0.019094843 2.3509883e-38
0.0050877836 -0.073093131 0.02602281 2.341805e-38
0.006695753 -0.071814939 0.032022852 2.3142544e-38
0.0083895866 -0.07117033 0.035048742 2.2958873e-38
0.0098486599 -0.069259048 0.044020671 2.3142544e-38
0.011509599 -0.068607718 0.047078151 2.3418047e-38
0.013285792 -0.068607718 0.047078151 2.3509879e-38
0.014931438 -0.067960292 0.050117273 2.3509151e-38
0.016702304 -0.067960292 0.050117273 1.9263106e-38
0.018337475 -0.067338139 0.053037781 1.4928828e-38
0.020103222 -0.067338139 0.053037781 1.8370687e-39
0.021718884 -0.066698298 0.056041259 6.0787669e-39
0.023479363 -0.066698298 0.056041259 1.7051486e-38
0.025400458 -0.067338139 0.053037781 1.5301212e-38
0.027327506 -0.067960292 0.050117273 4.4239371e-39
0.029271549 -0.068607718 0.047078151 1.8403813e-40
0.031047745 -0.068607718 0.047078151 4.6207116e-40
0.032823943 -0.068607718 0.047078151 7.3757905e-40
-0.043775477 -0.10303779 -0.10495363 4.8914117e-39
-0.04168693 -0.1021748 -0.10093568 5.2605599e-39
-0.039651215 -0.1021748 -0.10093568 9.8703442e-39
-0.037584018 -0.10131776 -0.09694539 2.2591531e-38
-0.035555303 -0.10131776 -0.09694539 2.2867037e-38
-0.033509213 -0.10046658 -0.092982396 2.2681931e-38
-0.031466469 -0.098753676 -0.085007414 2.3141467e-38
-0.02945517 -0.097892255 -0.080996737 2.3509886e-38
-0.027457122 -0.097229466 -0.077910885 2.3509886e-38
-0.025493149 -0.094667718 -0.065983757 2.3509886e-38
-0.023531891 -0.094022244 -0.062978491 2.3509886e-38
-0.021612186 -0.092291236 -0.054919224 2.3509886e-38
-0.019712172 -0.09079358 -0.047946315 2.3509886e-38
-0.01787499 -0.088441074 -0.036993366 2.3509886e-38
-0.015951389 -0.088441074 -0.036993366 2.3509886e-38
-0.01406842 -0.087777436 -0.03390358 2.3509886e-38
-0.012253774 -0.086285278 -0.026956301 2.3509886e-38
-0.010398302 -0.085633695 -0.023922663 2.3509886e-38
-0.0085701831 -0.084787115 -0.019981127 2.3509886e-38
-0.0068175588 -0.083283588 -0.012980919 2.3509886e-38
-0.0050677527 -0.081992984 -0.0069720559 2.3509886e-38
-0.0034347009 -0.079834178 0.0030790754 2.3509886e-38
-0.0016570818 -0.079194456 0.0060575195 2.3509886e-38
8.084625e-05 -0.078323603 0.010112066 2.3509527e-38
0.0017491542 -0.077041432 0.016081709 2.3509165e-38
0.0033953246 -0.075750828 0.022090573 2.3509524e-38
0.0050877836 -0.074906245 0.02602281 2.341805e-38
0.006695753 -0.073617533 0.032022852 2.3142544e-38
0.0083895866 -0.072967619 0.035048742 2.2867037e-38
0.0098486599 -0.071040601 0.044020671 2.2958873e-38
0.011509599 -0.070383906 0.047078151 2.3234376e-38
0.013285792 -0.070383906 0.047078151 2.3509876e-38
0.014931438 -0.069731161 0.050117273 2.3509149e-38
0.016702304 -0.069731161 0.050117273 1.8063841e-38
0.018337475 -0.069103882 0.053037781 1.4466408e-38
0.020103222 -0.069103882 0.053037781 2.1122164e-39
0.021868965 -0.069103882 0.053037781 3.864627e-39
0.023634711 -0.069103882 0.053037781 1.5851498e-38
0.025556637 -0.069731161 0.050117273 1.5300488e-38
0.027495356 -0.070383906 0.047078151 9.6783635e-39
0.029098371 -0.069731161 0.050117273 2.4889289e-39
0.030869236 -0.069731161 0.050117273 1.8446497e-39
0.032640107 -0.069731161 0.050117273 1.936125e-39
-0.047860987 -0.10508056 -0.10495363 7.2859659e-39
-0.045818232 -0.10508056 -0.10495363 7.1030194e-39
-0.043775477 -0.10508056 -0.10495363 5.4445854e-39
-0.04168693 -0.10421051 -0.10093568 8.3030129e-39
-0.039651215 -0.10421051 -0.10093568 1.3097188e-38
-0.037584018 -0.10334648 -0.09694539 2.1301881e-38
-0.035530984 -0.10248834 -0.092982396 2.2867037e-38
-0.033474259 -0.10076147 -0.085007414 2.3234379e-38
-0.031455923 -0.099893004 -0.080996737 2.3232944e-38
-0.029452465 -0.099224806 -0.077910885 2.3509527e-38
-0.027460596 -0.098367065 -0.07394968 2.3509886e-38
-0.025493149 -0.096642151 -0.065983757 2.3509886e-38
-0.023531891 -0.095991403 -0.062978491 2.3509886e-38
-0.021612186 -0.094246268 -0.054919224 2.3509886e-38
-0.019712172 -0.092736378 -0.047946315 2.3509886e-38
-0.01787499 -0.090364665 -0.036993366 2.3509886e-38
-0.015986603 -0.089695618 -0.03390358 2.3509886e-38
-0.014121209 -0.088826358 -0.029889207 2.3509886e-38
-0.012253774 -0.088191271 -0.026956301 2.3509886e-38
-0.010398302 -0.087534383 -0.023922663 2.3509886e-38
-0.0086253192 -0.086032391 -0.016986232 2.3509886e-38
-0.0068794489 -0.084500432 -0.0099113993 2.3509886e-38
-0.0050677527 -0.083863959 -0.0069720559 2.3509886e-38
-0.0034347009 -0.08168751 0.0030790754 2.3509886e-38
-0.0017601624 -0.080164611 0.010112066 2.3509886e-38
9.7230077e-07 -0.079528198 0.013051171 2.3509527e-38
0.0016619842 -0.078219518 0.019094843 2.3509165e-38
0.0033953246 -0.077570826 0.022090573 2.3509524e-38
0.0049884785 -0.076056451 0.029084224 2.341805e-38
0.0065922979 -0.074764907 0.035048742 2.2958873e-38
0.00828146 -0.074113518 0.038056988 2.2775202e-38
0.0097334031 -0.072160095 0.047078151 2.2867037e-38
0.011509599 -0.072160095 0.047078151 2.3234374e-38
0.013285792 -0.072160095 0.047078151 2.3509873e-38
0.014931438 -0.071502015 0.050117273 2.350879e-38
0.016702304 -0.071502015 0.050117273 1.6034097e-38
0.018337475 -0.070869625 0.053037781 1.1791293e-38
0.020103222 -0.070869625 0.053037781 3.2171122e-39
0.021868965 -0.070869625 0.053037781 3.0334412e-39
0.023634711 -0.070869625 0.053037781 1.3085266e-38
0.02571916 -0.072160095 0.047078151 1.5023535e-38
0.027495356 -0.072160095 0.047078151 1.4195947e-38
0.029098371 -0.071502015 0.050117273 5.9923628e-39
0.030869236 -0.071502015 0.050117273 2.766606e-39
0.032640107 -0.071502015 0.050117273 2.3045502e-39
-0.047860987 -0.1071233 -0.10495363 7.009379e-39
-0.045818232 -0.1071233 -0.10495363 6.6420384e-39
-0.043775477 -0.1071233 -0.10495363 5.9055622e-39
-0.04168693 -0.10624625 -0.10093568 1.3650359e-38
-0.039651215 -0.10624625 -0.10093568 1.835162e-38
-0.037584018 -0.10537519 -0.09694539 2.1762139e-38
-0.035530984 -0.10451011 -0.092982396 2.2958873e-38
-0.033474259 -0.10276926 -0.085007414 2.341805e-38
-0.031455923 -0.10189377 -0.080996737 2.3324778e-38
-0.029452465 -0.10122015 -0.077910885 2.3508807e-38
-0.027460596 -0.10035546 -0.07394968 2.3509527e-38
-0.025493149 -0.098616585 -0.065983757 2.3509886e-38
-0.023531891 -0.097960562 -0.062978491 2.3509886e-38
-0.021612186 -0.096201301 -0.054919224 2.3509886e-38
-0.019712172 -0.094679192 -0.047946315 2.3509886e-38
-0.017904786 -0.091613799 -0.03390358 2.3509886e-38
-0.015986603 -0.091613799 -0.03390358 2.3509886e-38
-0.014121209 -0.090737507 -0.029889207 2.3509886e-38
-0.012298986 -0.089435071 -0.023922663 2.3509886e-38
-0.010463955 -0.088574663 -0.019981127 2.3509886e-38
-0.0086990576 -0.087046593 -0.012980919 2.3509886e-38
-0.0069387164 -0.085734919 -0.0069720559 2.3509886e-38
-0.0051563699 -0.084852293 -0.0029287152 2.3509886e-38
-0.0035052001 -0.082890689 0.0060575195 2.3509886e-38
-0.0017601624 -0.08200562 0.010112066 2.3509886e-38
9.7230077e-07 -0.081364051 0.013051171 2.3509527e-38
0.0016619842 -0.080044776 0.019094843 2.3509165e-38
0.0033953246 -0.079390839 0.022090573 2.3509524e-38
0.0049884785 -0.077864185 0.029084224 2.341805e-38
0.0065922979 -0.076562196 0.035048742 2.2958873e-38
0.0081739668 -0.075252712 0.041047592 2.2775202e-38
0.0097334031 -0.073936298 0.047078151 2.2775202e-38
0.011509599 -0.073936298 0.047078151 2.3142538e-38
0.013285792 -0.073936298 0.047078151 2.350987e-38
0.014931438 -0.073272884 0.050117273 2.3506986e-38
0.016702304 -0.073272884 0.050117273 1.2345909e-38
0.018337475 -0.072635368 0.053037781 6.443225e-39
0.020103222 -0.072635368 0.053037781 3.9532311e-39
0.022014903 -0.073272884 0.050117273 3.8628306e-39
0.023785772 -0.073272884 0.050117273 1.0503064e-38
0.026201582 -0.075905532 0.038056988 1.4193049e-38
0.027495356 -0.073936298 0.047078151 1.5762909e-38
0.029271549 -0.073936298 0.047078151 9.4961527e-39
0.031047745 -0.073936298 0.047078151 2.9513532e-39
0.032823943 -0.073936298 0.047078151 1.936125e-39
0.034600131 -0.073936298 0.047078151 2.5814916e-39
-0.047860987 -0.10916607 -0.10495363 6.2718126e-39
-0.045818232 -0.10916607 -0.10495363 5.5356909e-39
-0.043775477 -0.10916607 -0.10495363 4.4304321e-39
-0.04168693 -0.10828196 -0.10093568 1.7707323e-38
-0.039651215 -0.10828196 -0.10093568 2.2131994e-38
-0.037584018 -0.10740392 -0.09694539 2.2775202e-38
-0.035530984 -0.10653187 -0.092982396 2.3142544e-38
-0.033456676 -0.10389452 -0.080996737 2.3509527e-38
-0.031455923 -0.10389452 -0.080996737 2.3508809e-38
-0.029452465 -0.1032155 -0.077910885 2.3509168e-38
-0.027460596 -0.10234386 -0.07394968 2.3509527e-38
-0.025493149 -0.100591 -0.065983757 2.3509886e-38
-0.023531891 -0.09992972 -0.062978491 2.3509886e-38
-0.021630269 -0.097507954 -0.051972609 2.3509886e-38
-0.019736085 -0.095955089 -0.044915538 2.3509886e-38
-0.017904786 -0.093531981 -0.03390358 2.3509886e-38
-0.015986603 -0.093531981 -0.03390358 2.3509886e-38
-0.014121209 -0.09264864 -0.029889207 2.3509886e-38
-0.012298986 -0.091335744 -0.023922663 2.3509886e-38
-0.01051384 -0.089809433 -0.016986232 2.3509886e-38
-0.0086990576 -0.088928089 -0.012980919 2.3509886e-38
-0.0069387164 -0.087605879 -0.0069720559 2.3509886e-38
-0.0052223913 -0.086053312 8.3703548e-05 2.3509886e-38
-0.0035052001 -0.084738806 0.0060575195 2.3509886e-38
-0.0017601624 -0.083846629 0.010112066 2.3509886e-38
9.7230077e-07 -0.083199903 0.013051171 2.3509527e-38
0.0016619842 -0.081870034 0.019094843 2.3509165e-38
0.0033953246 -0.081210837 0.022090573 2.3509524e-38
0.0048931595 -0.079025313 0.032022852 2.341805e-38
0.0065922979 -0.078359485 0.035048742 2.2867037e-38
0.0081739668 -0.07703948 0.041047592 2.2591531e-38
0.0096188392 -0.075043753 0.050117273 2.2775202e-38
0.011389704 -0.075043753 0.050117273 2.3142537e-38
0.01316057 -0.075043753 0.050117273 2.350987e-38
0.014805982 -0.07440111 0.053037781 2.3504105e-38
0.016571729 -0.07440111 0.053037781 9.7633495e-39
0.01861438 -0.075712487 0.047078151 4.5978733e-39
0.020390576 -0.075712487 0.047078151 5.5201813e-39
0.02231955 -0.076385275 0.044020671 4.5996669e-39
0.024409568 -0.077697545 0.038056988 6.9992672e-39
0.026201582 -0.077697545 0.038056988 1.161157e-38
0.027828423 -0.07703948 0.041047592 1.5855102e-38
0.029271549 -0.075712487 0.047078151 1.3091777e-38
0.031047745 -0.075712487 0.047078151 4.1498936e-39
0.032823943 -0.075712487 0.047078151 2.8580757e-39
0.034600131 -0.075712487 0.047078151 3.3190539e-39
-0.047860987 -0.11120884 -0.10495363 6.3632893e-39
-0.045818232 -0.11120884 -0.10495363 5.3509367e-39
-0.043775477 -0.11120884 -0.10495363 4.0609265e-39
-0.04168693 -0.11031766 -0.10093568 2.0103691e-38
-0.039651215 -0.11031766 -0.10093568 2.2591531e-38
-0.037584018 -0.10943262 -0.09694539 2.2775202e-38
-0.035530984 -0.10855366 -0.092982396 2.3142544e-38
-0.033456676 -0.10589527 -0.080996737 2.3509886e-38
-0.031447805 -0.10521083 -0.077910885 2.3509168e-38
-0.029448992 -0.10433225 -0.07394968 2.3509165e-38
-0.027464155 -0.10343169 -0.069889411 2.3509527e-38
-0.025493149 -0.10256544 -0.065983757 2.3509886e-38
-0.023549346 -0.10101564 -0.058996301 2.3509886e-38
-0.021630269 -0.099457815 -0.051972609 2.3509886e-38
-0.019736085 -0.097892582 -0.044915538 2.3509886e-38
-0.017904786 -0.095450163 -0.03390358 2.3509886e-38
-0.015986603 -0.095450163 -0.03390358 2.3509886e-38
-0.014121209 -0.094559789 -0.029889207 2.3509886e-38
-0.012298986 -0.093236431 -0.023922663 2.3509886e-38
-0.01051384 -0.091697961 -0.016986232 2.3509886e-38
-0.0087555666 -0.090128779 -0.0099113993 2.3509886e-38
-0.0069387164 -0.089476839 -0.0069720559 2.3509886e-38
-0.0052223913 -0.087911904 8.3703548e-05 2.3509886e-38
-0.0035052001 -0.086586922 0.0060575195 2.3509886e-38
-0.0017601624 -0.085687637 0.010112066 2.3509886e-38
9.7230077e-07 -0.085035756 0.013051171 2.3509527e-38
0.0016619842 -0.083695292 0.019094843 2.3508807e-38
0.0032746699 -0.082158685 0.02602281 2.3509165e-38
0.0048931595 -0.080827907 0.032022852 2.3234379e-38
0.0065922979 -0.080156773 0.035048742 2.2867037e-38
0.0081739668 -0.078826249 0.041047592 2.2591531e-38
0.0096188392 -0.076814622 0.050117273 2.2591531e-38
0.011389704 -0.076814622 0.050117273 2.3142537e-38
0.01316057 -0.076814622 0.050117273 2.350987e-38
0.014805982 -0.076166868 0.053037781 2.230484e-38
0.016571729 -0.076166868 0.053037781 6.9971204e-39
0.01875644 -0.078166828 0.044020671 4.8737385e-39
0.020537997 -0.078166828 0.044020671 6.3492189e-39
0.02231955 -0.078166828 0.044020671 4.7833379e-39
0.024409568 -0.079489544 0.038056988 5.2464713e-39
0.026201582 -0.079489544 0.038056988 9.1215688e-39
0.027828423 -0.078826249 0.041047592 1.5486318e-38
0.029271549 -0.077488691 0.047078151 1.5028241e-38
0.030869236 -0.076814622 0.050117273 5.7172165e-39
0.032640107 -0.076814622 0.050117273 4.8867355e-39
0.034410968 -0.076814622 0.050117273 4.5179516e-39
0.035802722 -0.075500697 0.056041259 4.8856551e-39
-0.047860987 -0.11325158 -0.10495363 6.5494798e-39
-0.045818232 -0.11325158 -0.10495363 5.9044734e-39
-0.043775477 -0.11325158 -0.10495363 5.8126435e-39
-0.04168693 -0.11235337 -0.10093568 2.203872e-38
-0.039651215 -0.11235337 -0.10093568 2.203872e-38
-0.037552752 -0.11057542 -0.092982396 2.2590813e-38
-0.035530984 -0.11057542 -0.092982396 2.3234379e-38
-0.033456676 -0.10789602 -0.080996737 2.3509527e-38
-0.031447805 -0.10720618 -0.077910885 2.3509168e-38
-0.029448992 -0.10632066 -0.07394968 2.3508088e-38
-0.027464155 -0.10541297 -0.069889411 2.3509527e-38
-0.025501052 -0.10386805 -0.062978491 2.3509886e-38
-0.023567218 -0.1020664 -0.054919224 2.3509886e-38
-0.021654977 -0.1005076 -0.047946315 2.3509886e-38
-0.019798592 -0.098059073 -0.036993366 2.3509886e-38
-0.017904786 -0.097368345 -0.03390358 2.3509886e-38
-0.016032353 -0.096470937 -0.029889207 2.3509886e-38
-0.014159776 -0.095815286 -0.026956301 2.3509886e-38
-0.012298986 -0.095137119 -0.023922663 2.3509886e-38
-0.01051384 -0.093586475 -0.016986232 2.3509886e-38
-0.0087555666 -0.092004895 -0.0099113993 2.3509886e-38
-0.0070202444 -0.090443924 -0.0029287152 2.3509886e-38
-0.0053533185 -0.088435039 0.0060575195 2.3509886e-38
-0.0036011711 -0.087528646 0.010112066 2.3509886e-38
-0.0018348843 -0.086871609 0.013051171 2.3509886e-38
-8.138828e-05 -0.086194143 0.016081709 2.3509527e-38
0.0016619842 -0.085520551 0.019094843 2.3509527e-38
0.0032746699 -0.083971798 0.02602281 2.3509527e-38
0.0048931595 -0.0826305 0.032022852 2.3234379e-38
0.0065922979 -0.081954062 0.035048742 2.2958873e-38
0.0081739668 -0.080613017 0.041047592 2.2867037e-38
0.0096188392 -0.078585491 0.050117273 2.2867034e-38
0.011389704 -0.078585491 0.050117273 2.3418043e-38
0.01316057 -0.078585491 0.050117273 2.350987e-38
0.014931438 -0.078585491 0.050117273 2.1290691e-38
0.016702304 -0.078585491 0.050117273 3.5862479e-39
0.018894577 -0.080613017 0.041047592 3.0312888e-39
0.020681346 -0.080613017 0.041047592 4.7829792e-39
0.022617558 -0.081281558 0.038056988 4.8769699e-39
0.024409568 -0.081281558 0.038056988 5.9851153e-39
0.026201582 -0.081281558 0.038056988 8.1074169e-39
0.027828423 -0.080613017 0.041047592 1.4656195e-38
0.029445777 -0.079948381 0.044020671 1.511899e-38
0.030869236 -0.078585491 0.050117273 6.5458869e-39
0.032463439 -0.077932611 0.053037781 6.2693e-39
0.034042239 -0.07726118 0.056041259 5.4395394e-39
0.035802722 -0.07726118 0.056041259 5.9001574e-39
0.037563197 -0.07726118 0.056041259 5.9001574e-39
-0.045818232 -0.11529435 -0.10495363 4.7077379e-39
-0.043775477 -0.11529435 -0.10495363 6.458736e-39
-0.04168693 -0.11438908 -0.10093568 2.1669577e-38
-0.039612733 -0.11349006 -0.09694539 2.2958514e-38
-0.037552752 -0.11259718 -0.092982396 2.3234379e-38
-0.035482042 -0.1108004 -0.085007414 2.3048554e-38
-0.033456676 -0.10989676 -0.080996737 2.3509168e-38
-0.031447805 -0.10920154 -0.077910885 2.3509168e-38
-0.029448992 -0.10830905 -0.07394968 2.3508446e-38
-0.027467579 -0.10651429 -0.065983757 2.3509527e-38
-0.025501052 -0.10583721 -0.062978491 2.3509886e-38
-0.023580132 -0.10335754 -0.051972609 2.3509886e-38
-0.021654977 -0.1024504 -0.047946315 2.3509886e-38
-0.019798592 -0.099982664 -0.036993366 2.3509886e-38
-0.017904786 -0.099286526 -0.03390358 2.3509886e-38
-0.016032353 -0.098382086 -0.029889207 2.3509886e-38
-0.014159776 -0.097721294 -0.026956301 2.3509886e-38
-0.012298986 -0.097037792 -0.023922663 2.3509886e-38
-0.010580555 -0.094572589 -0.012980919 2.3509886e-38
-0.0088096801 -0.093218774 -0.0069720559 2.3509886e-38
-0.0070809852 -0.091629088 8.3703548e-05 2.3509886e-38
-0.0053533185 -0.090283155 0.0060575195 2.3509886e-38
-0.0036707409 -0.088707477 0.013051171 2.3509886e-38
-0.0019119307 -0.088024676 0.016081709 2.3509886e-38
-0.00016327575 -0.087345809 0.019094843 2.3509886e-38
0.0015753172 -0.086670861 0.022090573 2.341805e-38
0.0031807367 -0.085095167 0.029084224 2.3325856e-38
0.004795013 -0.083751351 0.035048742 2.3234379e-38
0.0063871983 -0.082399786 0.041047592 2.2773763e-38
0.0080671031 -0.081729934 0.044020671 2.341805e-38
0.0096188392 -0.080356359 0.050117273 2.3509883e-38
0.011389704 -0.080356359 0.050117273 2.3509879e-38
0.01316057 -0.080356359 0.050117273 2.2492483e-38
0.014931438 -0.080356359 0.050117273 1.9263832e-38
0.017241521 -0.083073571 0.038056988 2.7593697e-39
0.019033531 -0.083073571 0.038056988 2.2058456e-39
0.020825544 -0.083073571 0.038056988 4.6021921e-39
0.022617558 -0.083073571 0.038056988 5.2486377e-39
0.024565166 -0.083751351 0.035048742 4.9727668e-39
0.026201582 -0.083073571 0.038056988 6.5408114e-39
0.027828423 -0.082399786 0.041047592 1.4194135e-38
0.029445777 -0.081729934 0.044020671 1.4749473e-38
0.030869236 -0.080356359 0.050117273 1.0693955e-38
0.032463439 -0.079698354 0.053037781 7.098325e-39
0.034042239 -0.079021662 0.056041259 6.1763701e-39
0.035802722 -0.079021662 0.056041259 6.3604083e-39
0.037563197 -0.079021662 0.056041259 5.9916285e-39
0.03932368 -0.079021662 0.056041259 5.5313721e-39
0.041084163 -0.079021662 0.056041259 5.992353e-39
-0.045818232 -0.11733709 -0.10495363 3.602112e-39
-0.043775477 -0.11733709 -0.10495363 9.9621713e-39
-0.04168693 -0.11642478 -0.10093568 2.2867037e-38
-0.039612733 -0.11551876 -0.09694539 2.3234379e-38
-0.037552752 -0.11461894 -0.092982396 2.3509527e-38
-0.035482042 -0.11280818 -0.085007414 2.314039e-38
-0.033456676 -0.11189754 -0.080996737 2.3509168e-38
-0.03143739 -0.11029746 -0.07394968 2.3509168e-38
-0.029445432 -0.10937552 -0.069889411 2.3509168e-38
-0.027470212 -0.10780637 -0.062978491 2.3509886e-38
-0.025511526 -0.1069022 -0.058996301 2.3509886e-38
-0.023580132 -0.10530742 -0.051972609 2.3509886e-38
-0.021673575 -0.10370506 -0.044915538 2.3509886e-38
-0.019798592 -0.10190627 -0.036993366 2.3509886e-38
-0.017904786 -0.10120471 -0.03390358 2.3509886e-38
-0.016032353 -0.10029322 -0.029889207 2.3509886e-38
-0.014159776 -0.099627286 -0.026956301 2.3509886e-38
-0.012357729 -0.098043531 -0.019981127 2.3509886e-38
-0.010580555 -0.096454084 -0.012980919 2.3509886e-38
-0.0088096801 -0.095089734 -0.0069720559 2.3509886e-38
-0.0070809852 -0.09348768 8.3703548e-05 2.3509886e-38
-0.0054421797 -0.091210663 0.010112066 2.3509886e-38
-0.0036707409 -0.09054333 0.013051171 2.3509886e-38
-0.0019885339 -0.089171067 0.019094843 2.3509886e-38
-0.00024469011 -0.088490874 0.022090573 2.341805e-38
0.001461558 -0.087598026 0.02602281 2.3234379e-38
0.0030905697 -0.086235672 0.032022852 2.3050708e-38
0.004795013 -0.085548624 0.035048742 2.341805e-38
0.0063871983 -0.084186554 0.041047592 2.3141103e-38
0.0078479704 -0.082127213 0.050117273 2.3509527e-38
0.0095087457 -0.081464097 0.053037781 2.3509521e-38
0.011274492 -0.081464097 0.053037781 2.3509161e-38
0.013040235 -0.081464097 0.053037781 2.1385416e-38
0.014805982 -0.081464097 0.053037781 1.7512477e-38
0.016571729 -0.081464097 0.053037781 2.0232508e-39
0.019173304 -0.085548624 0.035048742 2.3913102e-39
0.020970592 -0.085548624 0.035048742 4.4199616e-39
0.022767877 -0.085548624 0.035048742 4.9731326e-39
0.024565166 -0.085548624 0.035048742 5.0653254e-39
0.026201582 -0.084865585 0.038056988 5.8032464e-39
0.027828423 -0.084186554 0.041047592 1.105912e-38
0.029615192 -0.084186554 0.041047592 1.4563999e-38
0.030869236 -0.082127213 0.050117273 1.2444581e-38
0.032463439 -0.081464097 0.053037781 8.9411488e-39
0.034042239 -0.080782145 0.056041259 6.360397e-39
0.035802722 -0.080782145 0.056041259 6.1763701e-39
0.037563197 -0.080782145 0.056041259 6.176017e-39
0.03932368 -0.080782145 0.056041259 5.7157619e-39
0.041084163 -0.080782145 0.056041259 5.9923502e-39
-0.045818232 -0.11937986 -0.10495363 5.3541863e-39
-0.043775477 -0.11937986 -0.10495363 1.2635845e-38
-0.04168693 -0.11846052 -0.10093568 2.2867037e-38
-0.039612733 -0.1175475 -0.09694539 2.3050349e-38
-0.037552752 -0.11664073 -0.092982396 2.3509527e-38
-0.035482042 -0.11481597 -0.085007414 2.3232585e-38
-0.033443153 -0.11319222 -0.077910885 2.3509527e-38
-0.03143739 -0.11228584 -0.07394968 2.3509527e-38
-0.029442009 -0.11046316 -0.065983757 2.3509527e-38
-0.027473705 -0.10886435 -0.058996301 2.3509886e-38
-0.025522247 -0.10793148 -0.054919224 2.3509886e-38
-0.023597782 -0.10633601 -0.047946315 2.3509886e-38
-0.021673575 -0.10564254 -0.044915538 2.3509886e-38
-0.01982297 -0.1031229 -0.03390358 2.3509886e-38
-0.017943498 -0.10220437 -0.029889207 2.3509886e-38
-0.01606578 -0.10153329 -0.026956301 2.3509886e-38
-0.014159776 -0.10153329 -0.026956301 2.3509886e-38
-0.012357729 -0.099937305 -0.019981127 2.3509886e-38
-0.010580555 -0.098335579 -0.012980919 2.3509886e-38
-0.008884117 -0.09603554 -0.0029287152 2.3509886e-38
-0.0070809852 -0.095346272 8.3703548e-05 2.3509886e-38
-0.0054421797 -0.093051672 0.010112066 2.3509886e-38
-0.0036707409 -0.092379183 0.013051171 2.3509886e-38
-0.0019885339 -0.090996325 0.019094843 2.3509886e-38
-0.00024469011 -0.090310872 0.022090573 2.341805e-38
0.0013729911 -0.088710666 0.029084224 2.3142544e-38
0.0030905697 -0.088038266 0.032022852 2.3050708e-38
0.0046974327 -0.086657599 0.038056988 2.341805e-38
0.0063871983 -0.085973322 0.041047592 2.3325494e-38
0.0078479704 -0.083898082 0.050117273 2.3509527e-38
0.009395523 -0.082542613 0.056041259 2.3508801e-38
0.011156002 -0.082542613 0.056041259 2.3507722e-38
0.012916485 -0.082542613 0.056041259 1.9725895e-38
0.014676964 -0.082542613 0.056041259 1.723589e-38
0.016437443 -0.082542613 0.056041259 2.4842247e-39
0.019173304 -0.087345913 0.035048742 2.5756987e-39
0.020970592 -0.087345913 0.035048742 3.7745922e-39
0.022767877 -0.087345913 0.035048742 4.0504574e-39
0.024565166 -0.087345913 0.035048742 5.2493565e-39
0.026362451 -0.087345913 0.035048742 6.0791144e-39
0.027828423 -0.085973322 0.041047592 8.9386209e-39
0.029615192 -0.085973322 0.041047592 1.2627888e-38
0.030869236 -0.083898082 0.050117273 1.373532e-38
0.032463439 -0.08322984 0.053037781 1.0785061e-38
0.034042239 -0.082542613 0.056041259 6.6369839e-39
0.035802722 -0.082542613 0.056041259 6.1763701e-39
0.037563197 -0.082542613 0.056041259 6.4526039e-39
0.03932368 -0.082542613 0.056041259 5.6235663e-39
0.041084163 -0.082542613 0.056041259 5.8079589e-39
-0.045758352 -0.12049623 -0.10093568 1.0517142e-38
-0.043722637 -0.12049623 -0.10093568 1.5032931e-38
-0.04168693 -0.12049623 -0.10093568 2.2407142e-38
-0.039574519 -0.11866249 -0.092982396 2.2589374e-38
-0.037552752 -0.11866249 -0.092982396 2.341805e-38
-0.035457432 -0.11589904 -0.080996737 2.3509886e-38
-0.033443153 -0.11518754 -0.077910885 2.3509527e-38
-0.031426713 -0.1133381 -0.069889411 2.3509168e-38
-0.029439375 -0.11174469 -0.062978491 2.3509886e-38
-0.027477277 -0.10988651 -0.054919224 2.3509886e-38
-0.025529997 -0.10920714 -0.051972609 2.3509886e-38
-0.023597782 -0.10827883 -0.047946315 2.3509886e-38
-0.021673575 -0.10758002 -0.044915538 2.3509886e-38
-0.01982297 -0.10504107 -0.03390358 2.3509886e-38
-0.017943498 -0.1041155 -0.029889207 2.3509886e-38
-0.01606578 -0.10343929 -0.026956301 2.3509886e-38
-0.014199669 -0.10273984 -0.023922663 2.3509886e-38
-0.012357729 -0.10183108 -0.019981127 2.3509886e-38
-0.010580555 -0.10021709 -0.012980919 2.3509886e-38
-0.008884117 -0.097899407 -0.0029287152 2.3509886e-38
-0.0071413815 -0.09651424 0.0030790754 2.3509886e-38
-0.0054421797 -0.094892681 0.010112066 2.3509886e-38
-0.0037424732 -0.093516305 0.016081709 2.3509886e-38
-0.0020646956 -0.092130885 0.022090573 2.3509886e-38
-0.00035155378 -0.091224253 0.02602281 2.341805e-38
0.0012879763 -0.089840859 0.032022852 2.3142544e-38
0.0029977243 -0.089143202 0.035048742 2.3234379e-38
0.0046974327 -0.088449612 0.038056988 2.341805e-38
0.0062855463 -0.087074608 0.044020671 2.341769e-38
0.0077429991 -0.084995598 0.053037781 2.3509524e-38
0.009395523 -0.084303096 0.056041259 2.3508801e-38
0.011038216 -0.083614707 0.059026975 2.3507722e-38
0.012793461 -0.083614707 0.059026975 1.8250765e-38
0.014548706 -0.083614707 0.059026975 1.6313215e-38
0.016303951 -0.083614707 0.059026975 2.4842247e-39
0.019450435 -0.0905184 0.029084224 2.5756987e-39
0.021258181 -0.0905184 0.029084224 3.589845e-39
0.022919083 -0.089840859 0.032022852 3.7738733e-39
0.024565166 -0.089143202 0.035048742 5.156805e-39
0.026362451 -0.089143202 0.035048742 6.0791172e-39
0.027828423 -0.087760091 0.041047592 7.8311943e-39
0.029615192 -0.087760091 0.041047592 9.6776278e-39
0.03122733 -0.087074608 0.044020671 1.3919348e-38
0.032640107 -0.085668951 0.050117273 1.2167277e-38
0.034042239 -0.084303096 0.056041259 6.9124918e-39
0.035415389 -0.082907662 0.062093575 5.99126e-39
0.036772095 -0.081528962 0.068073228 6.4526039e-39
0.038511485 -0.081528962 0.068073228 5.439175e-39
0.040250868 -0.081528962 0.068073228 5.4391764e-39
-0.045758352 -0.12253194 -0.10093568 1.5864848e-38
