# .PCD v0.7 - Point Cloud Data file format
VERSION 0.7
FIELDS x y z rgb
SIZE 4 4 4 4
TYPE F F F F
COUNT 1 1 1 1
WIDTH 941
HEIGHT 1
VIEWPOINT 0 0 0 1 0 0 0
POINTS 941
DATA ascii
0.012283197 -0.12399365 0.00089985132 2.3509886e-38
0.014147069 -0.12399365 0.00089985132 2.3509886e-38
0.016120829 -0.12502514 -0.0031434894 2.3509886e-38
0.017991791 -0.12502514 -0.0031434894 2.3509886e-38
0.019862754 -0.12502514 -0.0031434894 2.3509886e-38
0.021928625 -0.12655805 -0.0091523528 2.3509886e-38
0.023810124 -0.12655805 -0.0091523528 2.3509886e-38
0.025691623 -0.12655805 -0.0091523528 2.3509886e-38
0.027724108 -0.12757985 -0.013157666 2.3509886e-38
0.029612629 -0.12757985 -0.013157666 2.3509886e-38
0.031501152 -0.12757985 -0.013157666 2.3509886e-38
0.033518326 -0.1283439 -0.016152561 2.3509886e-38
0.035412099 -0.1283439 -0.016152561 2.3509886e-38
0.037489008 -0.12934943 -0.020094097 2.3509886e-38
0.039535962 -0.13012333 -0.023127735 2.3509886e-38
0.041441966 -0.13012333 -0.023127735 2.3509886e-38
0.043499667 -0.13087155 -0.026060641 2.3509886e-38
0.045625485 -0.13189565 -0.030075014 2.3509886e-38
0.047543671 -0.13189565 -0.030075014 2.341805e-38
0.049461853 -0.13189565 -0.030075014 2.3142544e-38
0.051561516 -0.13268389 -0.033164799 2.3142544e-38
0.053485122 -0.13268389 -0.033164799 2.3234379e-38
0.05540872 -0.13268389 -0.033164799 2.341805e-38
0.0575849 -0.13369073 -0.03711158 2.3509883e-38
0.05951542 -0.13369073 -0.03711158 2.3509883e-38
0.061714295 -0.1347049 -0.041086972 2.3509524e-38
0.063651785 -0.1347049 -0.041086972 2.3509524e-38
0.065804489 -0.13547809 -0.044117749 2.3509521e-38
0.067747295 -0.13547809 -0.044117749 2.3508441e-38
0.069690101 -0.13547809 -0.044117749 2.3509521e-38
0.07193999 -0.13650523 -0.048144042 2.3325129e-38
0.073889852 -0.13650523 -0.048144042 2.3509883e-38
0.075839713 -0.13650523 -0.048144042 2.3325492e-38
0.078362226 -0.13829704 -0.055167735 2.3418047e-38
0.080324411 -0.13829704 -0.055167735 1.4015178e-38
0.082286581 -0.13829704 -0.055167735 7.3781853e-39
0.084594384 -0.13931294 -0.059149921 5.0729373e-39
0.086563542 -0.13931294 -0.059149921 5.9938033e-39
0.088804066 -0.14007963 -0.062155187 6.3622145e-39
-0.077489346 -0.11943097 0.025919139 1.1338609e-38
-0.075669333 -0.11943097 0.025919139 1.1707389e-38
-0.07384932 -0.11943097 0.025919139 1.1983976e-38
-0.072029322 -0.11943097 0.025919139 1.2166924e-38
-0.070374765 -0.12020047 0.02292341 1.2072196e-38
-0.068549506 -0.12020047 0.02292341 1.1979638e-38
-0.066880092 -0.12097444 0.019910276 1.1059123e-38
-0.065049559 -0.12097444 0.019910276 8.2946962e-39
-0.063365132 -0.12175287 0.016879737 8.2950605e-39
-0.061529279 -0.12175287 0.016879737 7.7418867e-39
-0.05955793 -0.12097444 0.019910276 7.2809072e-39
-0.057727382 -0.12097444 0.019910276 5.344799e-39
-0.054745667 -0.11379795 0.047849238 1.1797051e-38
-0.052843492 -0.1130126 0.050906718 2.3509495e-38
-0.051067296 -0.1130126 0.050906718 2.3508417e-38
-0.0492911 -0.1130126 0.050906718 1.9911708e-38
-0.047514904 -0.1130126 0.050906718 2.0927307e-38
-0.045738712 -0.1130126 0.050906718 2.3326196e-38
-0.043962516 -0.1130126 0.050906718 2.3234372e-38
-0.04218632 -0.1130126 0.050906718 2.3050703e-38
-0.040493216 -0.11379795 0.047849238 2.341805e-38
-0.03871166 -0.11379795 0.047849238 2.3509886e-38
-0.037000477 -0.11456163 0.044876158 2.3509886e-38
-0.035279252 -0.11532979 0.041885555 2.3509886e-38
-0.03342694 -0.11456163 0.044876158 2.3509886e-38
-0.031640172 -0.11456163 0.044876158 2.3509886e-38
-0.02990322 -0.11532979 0.041885555 2.3509886e-38
-0.02815604 -0.1161025 0.038877308 2.3509886e-38
-0.026358752 -0.1161025 0.038877308 2.3509886e-38
-0.024595952 -0.11687975 0.035851419 2.3509886e-38
-0.022821696 -0.11763458 0.032912791 2.3509886e-38
-0.021069132 -0.11943097 0.025919139 2.3509886e-38
-0.019267509 -0.12020047 0.02292341 2.3509886e-38
-0.017442251 -0.12020047 0.02292341 2.3509886e-38
-0.015616991 -0.12020047 0.02292341 2.3509886e-38
-0.013791731 -0.12020047 0.02292341 2.3509886e-38
-0.011966472 -0.12020047 0.02292341 2.3509886e-38
-0.010141212 -0.12020047 0.02292341 2.3509886e-38
-0.0083159525 -0.12020047 0.02292341 2.3509886e-38
-0.0064906939 -0.12020047 0.02292341 2.3509886e-38
-0.004641661 -0.12097444 0.019910276 2.3509886e-38
-0.0028111185 -0.12097444 0.019910276 2.3509886e-38
-0.00094603794 -0.12175287 0.016879737 2.3509886e-38
0.00088981772 -0.12175287 0.016879737 2.3509886e-38
0.0027694763 -0.12250783 0.013940632 2.3509886e-38
0.0046104849 -0.12250783 0.013940632 2.3509886e-38
0.0065261372 -0.1235493 0.009886086 2.3509886e-38
0.0084343106 -0.12431435 0.0069076419 2.3509886e-38
0.010287652 -0.12431435 0.0069076419 2.3509886e-38
0.012283197 -0.12585752 0.00089985132 2.3509886e-38
0.014147069 -0.12585752 0.00089985132 2.3509886e-38
0.016010944 -0.12585752 0.00089985132 2.3509886e-38
0.017991791 -0.1268961 -0.0031434894 2.3509886e-38
0.019862754 -0.1268961 -0.0031434894 2.3509886e-38
0.021829059 -0.12765111 -0.0060828328 2.3509886e-38
0.023705179 -0.12765111 -0.0060828328 2.3509886e-38
0.025581295 -0.12765111 -0.0060828328 2.3509886e-38
0.027573122 -0.12843956 -0.0091523528 2.3509886e-38
0.029454621 -0.12843956 -0.0091523528 2.3509886e-38
0.031336121 -0.12843956 -0.0091523528 2.3509886e-38
0.033389676 -0.1294684 -0.013157666 2.3509886e-38
0.035412099 -0.13023765 -0.016152561 2.3509886e-38
0.037489008 -0.1312501 -0.020094097 2.3509886e-38
0.039389689 -0.1312501 -0.020094097 2.3509886e-38
0.041441966 -0.13202934 -0.023127735 2.3509886e-38
0.043499667 -0.13278268 -0.026060641 2.3509886e-38
0.045625485 -0.13381381 -0.030075014 2.3509886e-38
0.047543671 -0.13381381 -0.030075014 2.341805e-38
0.049461853 -0.13381381 -0.030075014 2.3234379e-38
0.051561516 -0.13460748 -0.033164799 2.3234376e-38
0.053485122 -0.13460748 -0.033164799 2.3234376e-38
0.05540872 -0.13460748 -0.033164799 2.3418047e-38
0.0575849 -0.13562126 -0.03711158 2.3509883e-38
0.05951542 -0.13562126 -0.03711158 2.3509883e-38
0.061714295 -0.13664238 -0.041086972 2.3509524e-38
0.063651785 -0.13664238 -0.041086972 2.3509524e-38
0.065804489 -0.13742088 -0.044117749 2.3509524e-38
0.067747295 -0.13742088 -0.044117749 2.3508444e-38
0.069690101 -0.13742088 -0.044117749 2.3509524e-38
0.07193999 -0.13845511 -0.048144042 2.3325131e-38
0.073889852 -0.13845511 -0.048144042 2.3509886e-38
0.075839713 -0.13845511 -0.048144042 2.3325494e-38
0.078362226 -0.14025922 -0.055167735 2.341805e-38
0.080324411 -0.14025922 -0.055167735 1.5674702e-38
0.082286581 -0.14025922 -0.055167735 9.4054102e-39
0.084594384 -0.1412821 -0.059149921 4.0591427e-39
0.086563542 -0.1412821 -0.059149921 4.7034219e-39
0.088532701 -0.1412821 -0.059149921 6.1771044e-39
-0.077675804 -0.12202574 0.02292341 1.1062022e-38
-0.075669333 -0.121251 0.025919139 1.216837e-38
-0.07384932 -0.121251 0.025919139 1.2260563e-38
-0.072029322 -0.121251 0.025919139 1.1890337e-38
-0.070374765 -0.12202574 0.02292341 1.198e-38
-0.068549506 -0.12202574 0.02292341 1.2164026e-38
-0.066880092 -0.12280498 0.019910276 1.1151319e-38
-0.065049559 -0.12280498 0.019910276 8.1092259e-39
-0.063365132 -0.12358873 0.016879737 8.1103077e-39
-0.061529279 -0.12358873 0.016879737 7.9255591e-39
-0.059693426 -0.12358873 0.016879737 7.2805471e-39
-0.057857566 -0.12358873 0.016879737 4.7912623e-39
-0.054745667 -0.1155795 0.047849238 9.3996018e-39
-0.052843492 -0.11478879 0.050906718 2.3509495e-38
-0.051067296 -0.11478879 0.050906718 2.3509139e-38
-0.0492911 -0.11478879 0.050906718 1.9726957e-38
-0.047514904 -0.11478879 0.050906718 1.981988e-38
-0.045738712 -0.11478879 0.050906718 2.350987e-38
-0.043962516 -0.11478879 0.050906718 2.3326206e-38
-0.04218632 -0.11478879 0.050906718 2.3234374e-38
-0.040493216 -0.1155795 0.047849238 2.3418047e-38
-0.03871166 -0.1155795 0.047849238 2.3509886e-38
-0.036930107 -0.1155795 0.047849238 2.3509886e-38
-0.035213709 -0.1163484 0.044876158 2.3509886e-38
-0.03342694 -0.1163484 0.044876158 2.3509886e-38
-0.031640172 -0.1163484 0.044876158 2.3509886e-38
-0.029853405 -0.1163484 0.044876158 2.3509886e-38
-0.028111206 -0.1171218 0.041885555 2.3509886e-38
-0.026398541 -0.11868234 0.035851419 2.3509886e-38
-0.024595952 -0.11868234 0.035851419 2.3509886e-38
-0.022793358 -0.11868234 0.035851419 2.3509886e-38
-0.021069132 -0.121251 0.025919139 2.3509886e-38
-0.019249124 -0.121251 0.025919139 2.3509886e-38
-0.017429119 -0.121251 0.025919139 2.3509886e-38
-0.015609112 -0.121251 0.025919139 2.3509886e-38
-0.013791731 -0.12202574 0.02292341 2.3509886e-38
-0.011966472 -0.12202574 0.02292341 2.3509886e-38
-0.010141212 -0.12202574 0.02292341 2.3509886e-38
-0.0083159525 -0.12202574 0.02292341 2.3509886e-38
-0.0064906939 -0.12202574 0.02292341 2.3509886e-38
-0.004641661 -0.12280498 0.019910276 2.3509886e-38
-0.0028111185 -0.12280498 0.019910276 2.3509886e-38
-0.00094603794 -0.12358873 0.016879737 2.3509886e-38
0.00088981772 -0.12358873 0.016879737 2.3509886e-38
0.0027694763 -0.12434883 0.013940632 2.3509886e-38
0.0046104849 -0.12434883 0.013940632 2.3509886e-38
0.0065261372 -0.1253974 0.009886086 2.3509886e-38
0.0083742552 -0.1253974 0.009886086 2.3509886e-38
0.010287652 -0.12616767 0.0069076419 2.3509886e-38
0.012283197 -0.12772138 0.00089985132 2.3509886e-38
0.014147069 -0.12772138 0.00089985132 2.3509886e-38
0.016010944 -0.12772138 0.00089985132 2.3509886e-38
0.017991791 -0.12876706 -0.0031434894 2.3509886e-38
0.019862754 -0.12876706 -0.0031434894 2.3509886e-38
0.021733718 -0.12876706 -0.0031434894 2.3509886e-38
0.023705179 -0.12952723 -0.0060828328 2.3509886e-38
0.025581295 -0.12952723 -0.0060828328 2.3509886e-38
0.02745741 -0.12952723 -0.0060828328 2.3509886e-38
0.029454621 -0.13032107 -0.0091523528 2.3509886e-38
0.031336121 -0.13032107 -0.0091523528 2.3509886e-38
0.033389676 -0.13135691 -0.013157666 2.3509886e-38
0.035278197 -0.13135691 -0.013157666 2.3509886e-38
0.037305869 -0.13213144 -0.016152561 2.3509886e-38
0.039389689 -0.13315077 -0.020094097 2.3509886e-38
0.041290373 -0.13315077 -0.020094097 2.3509886e-38
0.043499667 -0.13469382 -0.026060641 2.3509886e-38
0.045410812 -0.13469382 -0.026060641 2.3509886e-38
0.047321957 -0.13469382 -0.026060641 2.3509886e-38
0.049461853 -0.13573201 -0.030075014 2.3418047e-38
0.051380035 -0.13573201 -0.030075014 2.3418047e-38
0.053485122 -0.13653107 -0.033164799 2.3418047e-38
0.05540872 -0.13653107 -0.033164799 2.3509883e-38
0.057332318 -0.13653107 -0.033164799 2.3509883e-38
0.05951542 -0.1375518 -0.03711158 2.3509883e-38
0.061714295 -0.13857989 -0.041086972 2.3509524e-38
0.063651785 -0.13857989 -0.041086972 2.3509524e-38
0.065804489 -0.13936369 -0.044117749 2.3509524e-38
0.067747295 -0.13936369 -0.044117749 2.323258e-38
0.069690101 -0.13936369 -0.044117749 2.3509527e-38
0.07193999 -0.14040495 -0.048144042 2.3233299e-38
0.073889852 -0.14040495 -0.048144042 2.3509886e-38
0.075839713 -0.14040495 -0.048144042 2.3325856e-38
0.078362226 -0.14222141 -0.055167735 2.341805e-38
0.079984859 -0.141167 -0.051090658 1.7702648e-38
0.081939876 -0.141167 -0.051090658 1.0603951e-38
0.084248766 -0.14222141 -0.055167735 3.5970827e-39
0.086210936 -0.14222141 -0.055167735 4.5179516e-39
0.088173121 -0.14222141 -0.055167735 6.0849088e-39
-0.077675804 -0.12385099 0.02292341 1.0324457e-38
-0.075850546 -0.12385099 0.02292341 1.1799587e-38
-0.074025288 -0.12385099 0.02292341 1.1982897e-38
-0.07220003 -0.12385099 0.02292341 1.1152053e-38
-0.070374765 -0.12385099 0.02292341 1.1703414e-38
-0.068549506 -0.12385099 0.02292341 1.1979635e-38
-0.066880092 -0.12463553 0.019910276 1.115024e-38
-0.065049559 -0.12463553 0.019910276 7.8319202e-39
-0.063365132 -0.12542458 0.016879737 8.0170331e-39
-0.061529279 -0.12542458 0.016879737 8.201067e-39
-0.059693426 -0.12542458 0.016879737 7.7404462e-39
-0.057857566 -0.12542458 0.016879737 5.2504425e-39
-0.054619685 -0.11656497 0.050906718 7.7390015e-39
-0.052843492 -0.11656497 0.050906718 2.3508773e-38
-0.051067296 -0.11656497 0.050906718 2.3509136e-38
-0.0492911 -0.11656497 0.050906718 2.0002462e-38
-0.047514904 -0.11656497 0.050906718 1.9266343e-38
-0.045738712 -0.11656497 0.050906718 2.3509867e-38
-0.043962516 -0.11656497 0.050906718 2.3141452e-38
-0.04218632 -0.11656497 0.050906718 2.3234012e-38
-0.040493216 -0.11736105 0.047849238 2.3509883e-38
-0.03871166 -0.11736105 0.047849238 2.3509886e-38
-0.036930107 -0.11736105 0.047849238 2.3509886e-38
-0.035213709 -0.11813517 0.044876158 2.3509886e-38
-0.033366993 -0.11736105 0.047849238 2.3509886e-38
-0.03158544 -0.11736105 0.047849238 2.3509886e-38
-0.029853405 -0.11813517 0.044876158 2.3509886e-38
-0.028111206 -0.11891381 0.041885555 2.3509886e-38
-0.026358752 -0.11969708 0.038877308 2.3509886e-38
-0.024561467 -0.11969708 0.038877308 2.3509886e-38
-0.022793358 -0.12048493 0.035851419 2.3509886e-38
-0.020990767 -0.12048493 0.035851419 2.3509886e-38
-0.019224994 -0.12204717 0.029851377 2.3509886e-38
-0.017429119 -0.123071 0.025919139 2.3509886e-38
-0.015609112 -0.123071 0.025919139 2.3509886e-38
-0.013789104 -0.123071 0.025919139 2.3509886e-38
-0.011966472 -0.12385099 0.02292341 2.3509886e-38
-0.010141212 -0.12385099 0.02292341 2.3509886e-38
-0.0083159525 -0.12385099 0.02292341 2.3509886e-38
-0.0064906939 -0.12385099 0.02292341 2.3509886e-38
-0.004641661 -0.12463553 0.019910276 2.3509886e-38
-0.0028111185 -0.12463553 0.019910276 2.3509886e-38
-0.00094603794 -0.12542458 0.016879737 2.3509886e-38
0.00088981772 -0.12542458 0.016879737 2.3509886e-38
0.0027694763 -0.12618984 0.013940632 2.3509886e-38
0.0046104849 -0.12618984 0.013940632 2.3509886e-38
0.0064514936 -0.12618984 0.013940632 2.3509886e-38
0.0083742552 -0.12724553 0.009886086 2.3509886e-38
0.010287652 -0.12802102 0.0069076419 2.3509886e-38
0.012211893 -0.12880091 0.0039122701 2.3509886e-38
0.014070485 -0.12880091 0.0039122701 2.3509886e-38
0.016010944 -0.12958528 0.00089985132 2.3509886e-38
0.017874818 -0.12958528 0.00089985132 2.3509886e-38
0.019862754 -0.13063805 -0.0031434894 2.3509886e-38
0.021733718 -0.13063805 -0.0031434894 2.3509886e-38
0.023604682 -0.13063805 -0.0031434894 2.3509886e-38
0.025475645 -0.13063805 -0.0031434894 2.3509886e-38
0.02745741 -0.13140334 -0.0060828328 2.3509886e-38
0.029333526 -0.13140334 -0.0060828328 2.3509886e-38
0.031336121 -0.13220255 -0.0091523528 2.3509886e-38
0.03321762 -0.13220255 -0.0091523528 2.3509886e-38
0.035278197 -0.13324542 -0.013157666 2.3509886e-38
0.037166718 -0.13324542 -0.013157666 2.3509886e-38
0.039199643 -0.1340252 -0.016152561 2.3509886e-38
0.041290373 -0.13505147 -0.020094097 2.3509886e-38
0.043347966 -0.13584132 -0.023127735 2.3509886e-38
0.045410812 -0.13660498 -0.026060641 2.3509886e-38
0.047321957 -0.13660498 -0.026060641 2.3509883e-38
0.049461853 -0.13765021 -0.030075014 2.350988e-38
0.051380035 -0.13765021 -0.030075014 2.350988e-38
0.053298216 -0.13765021 -0.030075014 2.350988e-38
0.05540872 -0.13845469 -0.033164799 2.350988e-38
0.057332318 -0.13845469 -0.033164799 2.3509883e-38
0.05951542 -0.1394823 -0.03711158 2.3509883e-38
0.061714295 -0.14051737 -0.041086972 2.3509527e-38
0.063651785 -0.14051737 -0.041086972 2.3509527e-38
0.065589271 -0.14051737 -0.041086972 2.3509527e-38
0.067747295 -0.1413065 -0.044117749 2.3232583e-38
0.069690101 -0.1413065 -0.044117749 2.3509527e-38
0.07193999 -0.14235483 -0.048144042 2.3417691e-38
0.073889852 -0.14235483 -0.048144042 2.3325138e-38
0.075839713 -0.14235483 -0.048144042 2.341805e-38
0.078029826 -0.14312203 -0.051090658 2.341805e-38
0.079984859 -0.14312203 -0.051090658 1.9730952e-38
0.081939876 -0.14312203 -0.051090658 1.1894326e-38
0.083894908 -0.14312203 -0.051090658 3.6889154e-39
0.085849941 -0.14312203 -0.051090658 4.8867313e-39
0.087804973 -0.14312203 -0.051090658 6.0849088e-39
-0.077675804 -0.12567626 0.02292341 1.0231906e-38
-0.075850546 -0.12567626 0.02292341 1.1891783e-38
-0.074025288 -0.12567626 0.02292341 1.2167288e-38
-0.072371721 -0.12646608 0.019910276 1.1428996e-38
-0.070541181 -0.12646608 0.019910276 1.1518659e-38
-0.06871064 -0.12646608 0.019910276 1.1702329e-38
-0.066880092 -0.12646608 0.019910276 1.0965486e-38
-0.065049559 -0.12646608 0.019910276 8.0155912e-39
-0.063365132 -0.12726043 0.016879737 8.1085099e-39
-0.061529279 -0.12726043 0.016879737 8.2007055e-39
-0.059693426 -0.12726043 0.016879737 8.0163142e-39
-0.057857566 -0.12726043 0.016879737 6.0794829e-39
-0.054619685 -0.11834116 0.050906718 7.2773045e-39
-0.052843492 -0.11834116 0.050906718 2.3505172e-38
-0.051067296 -0.11834116 0.050906718 2.3508777e-38
-0.0492911 -0.11834116 0.050906718 2.1015895e-38
-0.047514904 -0.11834116 0.050906718 1.9910994e-38
-0.045738712 -0.11834116 0.050906718 2.3508788e-38
-0.043962516 -0.11834116 0.050906718 2.3417676e-38
-0.04218632 -0.11834116 0.050906718 2.3509879e-38
-0.040493216 -0.11914261 0.047849238 2.3509883e-38
-0.03871166 -0.11914261 0.047849238 2.3509886e-38
-0.036930107 -0.11914261 0.047849238 2.3509886e-38
-0.03514855 -0.11914261 0.047849238 2.3509886e-38
-0.033366993 -0.11914261 0.047849238 2.3509886e-38
-0.03158544 -0.11914261 0.047849238 2.3509886e-38
-0.029853405 -0.11992194 0.044876158 2.3509886e-38
-0.028111206 -0.12070583 0.041885555 2.3509886e-38
-0.026358752 -0.12149437 0.038877308 2.3509886e-38
-0.024561467 -0.12149437 0.038877308 2.3509886e-38
-0.022764178 -0.12149437 0.038877308 2.3509886e-38
-0.020990767 -0.12228753 0.035851419 2.3509886e-38
-0.019206207 -0.1230578 0.032912791 2.3509886e-38
-0.017411882 -0.12386028 0.029851377 2.3509886e-38
-0.015609112 -0.124891 0.025919139 2.3509886e-38
-0.013789104 -0.124891 0.025919139 2.3509886e-38
-0.011966472 -0.12567626 0.02292341 2.3509886e-38
-0.010141212 -0.12567626 0.02292341 2.3509886e-38
-0.0083159525 -0.12567626 0.02292341 2.3509886e-38
-0.0064906939 -0.12567626 0.02292341 2.3509886e-38
-0.0046654348 -0.12567626 0.02292341 2.3509886e-38
-0.0028111185 -0.12646608 0.019910276 2.3509886e-38
-0.00098057603 -0.12646608 0.019910276 2.3509886e-38
0.00084996643 -0.12646608 0.019910276 2.3509886e-38
0.0027694763 -0.12803085 0.013940632 2.3509886e-38
0.0046104849 -0.12803085 0.013940632 2.3509886e-38
0.0064514936 -0.12803085 0.013940632 2.3509886e-38
0.0083742552 -0.12909363 0.009886086 2.3509886e-38
0.010222374 -0.12909363 0.009886086 2.3509886e-38
0.012211893 -0.13065951 0.0039122701 2.3509886e-38
0.014070485 -0.13065951 0.0039122701 2.3509886e-38
0.015929077 -0.13065951 0.0039122701 2.3509886e-38
0.017874818 -0.13144915 0.00089985132 2.3509886e-38
0.019862754 -0.13250901 -0.0031434894 2.3509886e-38
0.021733718 -0.13250901 -0.0031434894 2.3509886e-38
0.023604682 -0.13250901 -0.0031434894 2.3509886e-38
0.025475645 -0.13250901 -0.0031434894 2.3509886e-38
0.02745741 -0.13327946 -0.0060828328 2.3509886e-38
0.029333526 -0.13327946 -0.0060828328 2.3509886e-38
0.031209646 -0.13327946 -0.0060828328 2.3509886e-38
0.03321762 -0.13408406 -0.0091523528 2.3509886e-38
0.035278197 -0.13513394 -0.013157666 2.3509886e-38
0.037166718 -0.13513394 -0.013157666 2.3509886e-38
0.039199643 -0.13591899 -0.016152561 2.3509886e-38
0.041093417 -0.13591899 -0.016152561 2.3509886e-38
0.042987186 -0.13591899 -0.016152561 2.3509886e-38
0.04525397 -0.13774733 -0.023127735 2.3509886e-38
0.04715997 -0.13774733 -0.023127735 2.3509883e-38
0.049233101 -0.13851611 -0.026060641 2.350988e-38
0.051380035 -0.13956837 -0.030075014 2.3509879e-38
0.053298216 -0.13956837 -0.030075014 2.350988e-38
0.05540872 -0.14037828 -0.033164799 2.350988e-38
0.057332318 -0.14037828 -0.033164799 2.3509883e-38
0.05951542 -0.14141284 -0.03711158 2.3509883e-38
0.06144594 -0.14141284 -0.03711158 2.3509527e-38
0.063651785 -0.14245488 -0.041086972 2.3509527e-38
0.065589271 -0.14245488 -0.041086972 2.3509527e-38
0.067526765 -0.14245488 -0.041086972 2.3141106e-38
0.069690101 -0.14324932 -0.044117749 2.3509527e-38
0.071632907 -0.14324932 -0.044117749 2.3509527e-38
0.073889852 -0.14430468 -0.048144042 2.3141467e-38
0.075839713 -0.14430468 -0.048144042 2.341805e-38
0.078029826 -0.14507706 -0.051090658 2.3234379e-38
0.079984859 -0.14507706 -0.051090658 2.1482669e-38
0.081939876 -0.14507706 -0.051090658 1.3738236e-38
0.083894908 -0.14507706 -0.051090658 3.9647778e-39
0.085849941 -0.14507706 -0.051090658 4.7019799e-39
-0.079887837 -0.12909628 0.016879737 9.1255611e-39
-0.077675804 -0.1275015 0.02292341 1.1060946e-38
-0.075850546 -0.1275015 0.02292341 1.2259487e-38
-0.074202269 -0.1282966 0.019910276 1.2350961e-38
-0.072371721 -0.1282966 0.019910276 1.198217e-38
-0.070541181 -0.1282966 0.019910276 1.1518659e-38
-0.06871064 -0.1282966 0.019910276 1.1610133e-38
-0.066880092 -0.1282966 0.019910276 1.1057681e-38
-0.065049559 -0.1282966 0.019910276 8.3843737e-39
-0.063365132 -0.12909628 0.016879737 8.3840178e-39
-0.061529279 -0.12909628 0.016879737 8.0152352e-39
-0.059693426 -0.12909628 0.016879737 8.0148751e-39
-0.057857566 -0.12909628 0.016879737 6.4471837e-39
-0.054619685 -0.12011738 0.050906718 7.5524494e-39
-0.052843492 -0.12011738 0.050906718 2.2580693e-38
-0.051067296 -0.12011738 0.050906718 2.3508416e-38
-0.0492911 -0.12011738 0.050906718 2.2305192e-38
-0.047514904 -0.12011738 0.050906718 2.101626e-38
-0.045738712 -0.12011738 0.050906718 2.3507705e-38
-0.043962516 -0.12011738 0.050906718 2.350987e-38
-0.04218632 -0.12011738 0.050906718 2.3509879e-38
-0.040410124 -0.12011738 0.050906718 2.3509883e-38
-0.038633928 -0.12011738 0.050906718 2.3509886e-38
-0.036930107 -0.12092416 0.047849238 2.3509886e-38
-0.03514855 -0.12092416 0.047849238 2.3509886e-38
-0.033366993 -0.12092416 0.047849238 2.3509886e-38
-0.03158544 -0.12092416 0.047849238 2.3509886e-38
-0.029803881 -0.12092416 0.047849238 2.3509886e-38
-0.028066637 -0.12170871 0.044876158 2.3509886e-38
-0.026319193 -0.12249784 0.041885555 2.3509886e-38
-0.024561467 -0.12329166 0.038877308 2.3509886e-38
-0.022764178 -0.12329166 0.038877308 2.3509886e-38
-0.020990767 -0.12409012 0.035851419 2.3509886e-38
-0.019188175 -0.12409012 0.035851419 2.3509886e-38
-0.017411882 -0.1256734 0.029851377 2.3509886e-38
-0.01559877 -0.1256734 0.029851377 2.3509886e-38
-0.013789104 -0.126711 0.025919139 2.3509886e-38
-0.011969099 -0.126711 0.025919139 2.3509886e-38
-0.010149091 -0.126711 0.025919139 2.3509886e-38
-0.0083159525 -0.1275015 0.02292341 2.3509886e-38
-0.0064906939 -0.1275015 0.02292341 2.3509886e-38
-0.0046654348 -0.1275015 0.02292341 2.3509886e-38
-0.0028111185 -0.1282966 0.019910276 2.3509886e-38
-0.00098057603 -0.1282966 0.019910276 2.3509886e-38
0.00084996643 -0.1282966 0.019910276 2.3509886e-38
0.0027694763 -0.12987186 0.013940632 2.3509886e-38
0.0046104849 -0.12987186 0.013940632 2.3509886e-38
0.0064514936 -0.12987186 0.013940632 2.3509886e-38
0.0083742552 -0.13094176 0.009886086 2.3509886e-38
0.010222374 -0.13094176 0.009886086 2.3509886e-38
0.012211893 -0.1325181 0.0039122701 2.3509886e-38
0.014070485 -0.1325181 0.0039122701 2.3509886e-38
0.015929077 -0.1325181 0.0039122701 2.3509886e-38
0.017874818 -0.13331302 0.00089985132 2.3509886e-38
0.019862754 -0.13437997 -0.0031434894 2.3509886e-38
0.021733718 -0.13437997 -0.0031434894 2.3509886e-38
0.023604682 -0.13437997 -0.0031434894 2.3509886e-38
0.025475645 -0.13437997 -0.0031434894 2.3509886e-38
0.027346609 -0.13437997 -0.0031434894 2.3509886e-38
0.029333526 -0.13515557 -0.0060828328 2.3509886e-38
0.031209646 -0.13515557 -0.0060828328 2.3509886e-38
0.03321762 -0.13596557 -0.0091523528 2.3509886e-38
0.035099119 -0.13596557 -0.0091523528 2.3509886e-38
0.036980618 -0.13596557 -0.0091523528 2.3509886e-38
0.039055239 -0.13702248 -0.013157666 2.3509886e-38
0.04094376 -0.13702248 -0.013157666 2.3509886e-38
0.042987186 -0.13781275 -0.016152561 2.3509886e-38
0.045091741 -0.13885282 -0.020094097 2.3509886e-38
0.046992425 -0.13885282 -0.020094097 2.3509883e-38
0.049065974 -0.13965334 -0.023127735 2.3509879e-38
0.051144246 -0.14042725 -0.026060641 2.3509876e-38
0.053298216 -0.14148657 -0.030075014 2.3509879e-38
0.055216406 -0.14148657 -0.030075014 2.350988e-38
0.057332318 -0.14230187 -0.033164799 2.3509883e-38
0.059255924 -0.14230187 -0.033164799 2.3509883e-38
0.06144594 -0.14334334 -0.03711158 2.3509527e-38
0.063651785 -0.14439236 -0.041086972 2.3509527e-38
0.065589271 -0.14439236 -0.041086972 2.3509527e-38
0.067526765 -0.14439236 -0.041086972 2.314075e-38
0.069464251 -0.14439236 -0.041086972 2.3509527e-38
0.071632907 -0.1451921 -0.044117749 2.341805e-38
0.073889852 -0.14625455 -0.048144042 2.3141467e-38
0.075839713 -0.14625455 -0.048144042 2.341805e-38
0.078029826 -0.1470321 -0.051090658 2.3234379e-38
0.079984859 -0.1470321 -0.051090658 2.268157e-38
0.082286581 -0.14810793 -0.055167735 1.6872163e-38
0.083894908 -0.1470321 -0.051090658 4.425393e-39
0.085849941 -0.1470321 -0.051090658 4.0566077e-39
-0.079887837 -0.13093217 0.016879737 1.0139713e-38
-0.077863351 -0.13012715 0.019910276 1.1521924e-38
-0.076032802 -0.13012715 0.019910276 1.1890701e-38
-0.074202269 -0.13012715 0.019910276 1.1705949e-38
-0.072371721 -0.13012715 0.019910276 1.1704504e-38
-0.070541181 -0.13012715 0.019910276 1.1795246e-38
-0.06871064 -0.13012715 0.019910276 1.1794525e-38
-0.066880092 -0.13012715 0.019910276 1.1334268e-38
-0.065049559 -0.13012715 0.019910276 8.8446302e-39
-0.063365132 -0.13093217 0.016879737 8.568409e-39
-0.06166584 -0.13171287 0.013940632 7.7382882e-39
-0.059824832 -0.13171287 0.013940632 7.5531753e-39
-0.057983823 -0.13171287 0.013940632 6.2617134e-39
-0.056142807 -0.13171287 0.013940632 7.2755024e-39
-0.052843492 -0.12189357 0.050906718 2.119704e-38
-0.051067296 -0.12189357 0.050906718 2.3505892e-38
-0.0492911 -0.12189357 0.050906718 2.2581419e-38
-0.047514904 -0.12189357 0.050906718 2.1384681e-38
-0.045738712 -0.12189357 0.050906718 2.3046008e-38
-0.043962516 -0.12189357 0.050906718 2.3509869e-38
-0.04218632 -0.12189357 0.050906718 2.3509876e-38
-0.040410124 -0.12189357 0.050906718 2.3509883e-38
-0.038633928 -0.12189357 0.050906718 2.3509886e-38
-0.036857735 -0.12189357 0.050906718 2.3509886e-38
-0.03514855 -0.12270571 0.047849238 2.3509886e-38
-0.033366993 -0.12270571 0.047849238 2.3509886e-38
-0.03158544 -0.12270571 0.047849238 2.3509886e-38
-0.029803881 -0.12270571 0.047849238 2.3509886e-38
-0.028066637 -0.12349547 0.044876158 2.3509886e-38
-0.026319193 -0.12428986 0.041885555 2.3509886e-38
-0.024527183 -0.12428986 0.041885555 2.3509886e-38
-0.022764178 -0.12508895 0.038877308 2.3509886e-38
-0.020966893 -0.12508895 0.038877308 2.3509886e-38
-0.019188175 -0.12589271 0.035851419 2.3509886e-38
-0.017398464 -0.1266733 0.032912791 2.3509886e-38
-0.015590718 -0.1266733 0.032912791 2.3509886e-38
-0.013785658 -0.12748651 0.029851377 2.3509886e-38
-0.011969099 -0.12853102 0.025919139 2.3509886e-38
-0.010149091 -0.12853102 0.025919139 2.3509886e-38
-0.0083290841 -0.12853102 0.025919139 2.3509886e-38
-0.0064906939 -0.12932678 0.02292341 2.3509886e-38
-0.0046654348 -0.12932678 0.02292341 2.3509886e-38
-0.0028111185 -0.13012715 0.019910276 2.3509886e-38
-0.00098057603 -0.13012715 0.019910276 2.3509886e-38
0.00084996643 -0.13012715 0.019910276 2.3509886e-38
0.0027694763 -0.13171287 0.013940632 2.3509886e-38
0.0046104849 -0.13171287 0.013940632 2.3509886e-38
0.0064514936 -0.13171287 0.013940632 2.3509886e-38
0.0083742552 -0.13278987 0.009886086 2.3509886e-38
0.010222374 -0.13278987 0.009886086 2.3509886e-38
0.012140991 -0.13358103 0.0069076419 2.3509886e-38
0.014070485 -0.13437669 0.0039122701 2.3509886e-38
0.015929077 -0.13437669 0.0039122701 2.3509886e-38
0.017874818 -0.13517688 0.00089985132 2.3509886e-38
0.019862754 -0.13625093 -0.0031434894 2.3509886e-38
0.021733718 -0.13625093 -0.0031434894 2.3509886e-38
0.023604682 -0.13625093 -0.0031434894 2.3509886e-38
0.025475645 -0.13625093 -0.0031434894 2.3509886e-38
0.027346609 -0.13625093 -0.0031434894 2.3509886e-38
0.029333526 -0.13703169 -0.0060828328 2.3509886e-38
0.031209646 -0.13703169 -0.0060828328 2.3509886e-38
0.033085763 -0.13703169 -0.0060828328 2.3509886e-38
0.035099119 -0.13784705 -0.0091523528 2.3509886e-38
0.036980618 -0.13784705 -0.0091523528 2.3509886e-38
0.039055239 -0.13891099 -0.013157666 2.3509886e-38
0.04094376 -0.13891099 -0.013157666 2.3509886e-38
0.042832281 -0.13891099 -0.013157666 2.3509886e-38
0.04488096 -0.13970654 -0.016152561 2.3509886e-38
0.046774734 -0.13970654 -0.016152561 2.3509883e-38
0.049065974 -0.14155935 -0.023127735 2.3509879e-38
0.050971974 -0.14155935 -0.023127735 2.3509876e-38
0.053055387 -0.14233841 -0.026060641 2.3509879e-38
0.055216406 -0.14340474 -0.030075014 2.350988e-38
0.057134587 -0.14340474 -0.030075014 2.3509883e-38
0.059255924 -0.14422549 -0.033164799 2.3509527e-38
0.06144594 -0.14527388 -0.03711158 2.3509527e-38
0.063376456 -0.14527388 -0.03711158 2.3509886e-38
0.065306984 -0.14527388 -0.03711158 2.3509527e-38
0.067526765 -0.14632986 -0.041086972 2.314075e-38
0.069464251 -0.14632986 -0.041086972 2.341805e-38
0.071632907 -0.14713491 -0.044117749 2.341805e-38
0.073889852 -0.14820443 -0.048144042 2.3049273e-38
0.075839713 -0.14820443 -0.048144042 2.341805e-38
-0.077863351 -0.13195769 0.019910276 1.0968748e-38
-0.076032802 -0.13195769 0.019910276 1.2166569e-38
-0.074202269 -0.13195769 0.019910276 1.2074012e-38
-0.072371721 -0.13195769 0.019910276 1.152011e-38
-0.070541181 -0.13195769 0.019910276 1.1887442e-38
-0.06871064 -0.13195769 0.019910276 1.1241351e-38
-0.066880092 -0.13195769 0.019910276 1.1149877e-38
-0.065200992 -0.13276802 0.016879737 8.2914564e-39
-0.063365132 -0.13276802 0.016879737 8.1074309e-39
-0.06166584 -0.13355388 0.013940632 7.7382882e-39
-0.060006112 -0.134638 0.009886086 7.0000015e-39
-0.058157995 -0.134638 0.009886086 6.169515e-39
-0.056142807 -0.13355388 0.013940632 7.0900293e-39
-0.054301802 -0.13355388 0.013940632 1.926021e-38
-0.051067296 -0.12366976 0.050906718 2.3501929e-38
-0.0492911 -0.12366976 0.050906718 2.3504094e-38
-0.047410998 -0.12285714 0.053945839 2.1384678e-38
-0.045640133 -0.12285714 0.053945839 2.1940017e-38
-0.043869264 -0.12285714 0.053945839 2.3509869e-38
-0.04218632 -0.12366976 0.050906718 2.3233288e-38
-0.040410124 -0.12366976 0.050906718 2.3509883e-38
-0.038633928 -0.12366976 0.050906718 2.3509886e-38
-0.036857735 -0.12366976 0.050906718 2.3509886e-38
-0.035081539 -0.12366976 0.050906718 2.3509886e-38
-0.033305347 -0.12366976 0.050906718 2.3509886e-38
-0.03158544 -0.1244873 0.047849238 2.3509886e-38
-0.029803881 -0.1244873 0.047849238 2.3509886e-38
-0.028066637 -0.12528224 0.044876158 2.3509886e-38
-0.026319193 -0.12608187 0.041885555 2.3509886e-38
-0.024527183 -0.12608187 0.041885555 2.3509886e-38
-0.022764178 -0.12688623 0.038877308 2.3509886e-38
-0.020966893 -0.12688623 0.038877308 2.3509886e-38
-0.019169604 -0.12688623 0.038877308 2.3509886e-38
-0.017385582 -0.12769531 0.035851419 2.3509886e-38
-0.015590718 -0.12848105 0.032912791 2.3509886e-38
-0.013785658 -0.1292996 0.029851377 2.3509886e-38
-0.011969099 -0.13035102 0.025919139 2.3509886e-38
-0.010149091 -0.13035102 0.025919139 2.3509886e-38
-0.0083290841 -0.13035102 0.025919139 2.3509886e-38
-0.0064906939 -0.13115202 0.02292341 2.3509886e-38
-0.004641661 -0.13195769 0.019910276 2.3509886e-38
-0.0028111185 -0.13195769 0.019910276 2.3509886e-38
-0.00098057603 -0.13195769 0.019910276 2.3509886e-38
0.00084996643 -0.13195769 0.019910276 2.3509886e-38
0.0027694763 -0.13355388 0.013940632 2.3509886e-38
0.0046104849 -0.13355388 0.013940632 2.3509886e-38
0.0064514936 -0.13355388 0.013940632 2.3509886e-38
0.0082925018 -0.13355388 0.013940632 2.3509886e-38
0.010222374 -0.134638 0.009886086 2.3509886e-38
0.012070492 -0.134638 0.009886086 2.3509886e-38
0.013994332 -0.13543437 0.0069076419 2.3509886e-38
0.015929077 -0.13623528 0.0039122701 2.3509886e-38
0.017787669 -0.13623528 0.0039122701 2.3509886e-38
0.019738691 -0.13704078 0.00089985132 2.3509886e-38
0.021733718 -0.13812189 -0.0031434894 2.3509886e-38
0.023604682 -0.13812189 -0.0031434894 2.3509886e-38
0.025475645 -0.13812189 -0.0031434894 2.3509886e-38
0.027346609 -0.13812189 -0.0031434894 2.3509886e-38
0.029333526 -0.13890781 -0.0060828328 2.3509886e-38
0.031209646 -0.13890781 -0.0060828328 2.3509886e-38
0.033085763 -0.13890781 -0.0060828328 2.3509886e-38
0.035099119 -0.13972856 -0.0091523528 2.3509886e-38
0.036980618 -0.13972856 -0.0091523528 2.3509886e-38
0.039055239 -0.14079951 -0.013157666 2.3509886e-38
0.04094376 -0.14079951 -0.013157666 2.3509886e-38
0.042832281 -0.14079951 -0.013157666 2.3509886e-38
0.04488096 -0.1416003 -0.016152561 2.3509886e-38
0.046774734 -0.1416003 -0.016152561 2.3509883e-38
0.048893105 -0.1426542 -0.020094097 2.3509879e-38
0.050971974 -0.14346536 -0.023127735 2.3509876e-38
0.053055387 -0.14424954 -0.026060641 2.3509518e-38
0.054966535 -0.14424954 -0.026060641 2.3232933e-38
0.057134587 -0.14532293 -0.030075014 2.3048905e-38
0.059255924 -0.14614908 -0.033164799 2.3141103e-38
0.06144594 -0.14720438 -0.03711158 2.3417691e-38
0.063376456 -0.14720438 -0.03711158 2.3509886e-38
0.065306984 -0.14720438 -0.03711158 2.314075e-38
0.067526765 -0.14826734 -0.041086972 2.3141467e-38
0.069464251 -0.14826734 -0.041086972 2.341805e-38
0.071632907 -0.14907773 -0.044117749 2.341805e-38
-0.079887837 -0.13460387 0.016879737 9.2166777e-39
-0.078051984 -0.13460387 0.016879737 1.0875833e-38
-0.076216131 -0.13460387 0.016879737 1.2166927e-38
-0.074380271 -0.13460387 0.016879737 1.1981814e-38
-0.072544411 -0.13460387 0.016879737 1.124388e-38
-0.070541181 -0.13378824 0.019910276 1.1887442e-38
-0.06871064 -0.13378824 0.019910276 1.1149874e-38
-0.066880092 -0.13378824 0.019910276 1.1334268e-38
-0.065200992 -0.13460387 0.016879737 8.5680433e-39
-0.063365132 -0.13460387 0.016879737 8.3843737e-39
-0.06166584 -0.13539489 0.013940632 8.1992636e-39
-0.060006112 -0.13648613 0.009886086 7.5535312e-39
-0.058157995 -0.13648613 0.009886086 6.8145242e-39
-0.056309879 -0.13648613 0.009886086 6.4439411e-39
-0.054461755 -0.13648613 0.009886086 1.6032644e-38
-0.050952733 -0.12462802 0.053945839 2.2302666e-38
-0.049181864 -0.12462802 0.053945839 2.3505891e-38
-0.047410998 -0.12462802 0.053945839 2.2490305e-38
-0.045640133 -0.12462802 0.053945839 2.1939295e-38
-0.043869264 -0.12462802 0.053945839 2.3509866e-38
-0.04218632 -0.12544595 0.050906718 2.3509873e-38
-0.040327534 -0.12462802 0.053945839 2.350988e-38
-0.038556665 -0.12462802 0.053945839 2.3509886e-38
-0.036857735 -0.12544595 0.050906718 2.3509886e-38
-0.035081539 -0.12544595 0.050906718 2.3509886e-38
-0.033305347 -0.12544595 0.050906718 2.3509886e-38
-0.03158544 -0.12626885 0.047849238 2.3509886e-38
-0.029803881 -0.12626885 0.047849238 2.3509886e-38
-0.028066637 -0.12706901 0.044876158 2.3509886e-38
-0.026319193 -0.12787388 0.041885555 2.3509886e-38
-0.024527183 -0.12787388 0.041885555 2.3509886e-38
-0.022735169 -0.12787388 0.041885555 2.3509886e-38
-0.020966893 -0.12868352 0.038877308 2.3509886e-38
-0.019169604 -0.12868352 0.038877308 2.3509886e-38
-0.017385582 -0.1294979 0.035851419 2.3509886e-38
-0.01558299 -0.1294979 0.035851419 2.3509886e-38
-0.013782974 -0.13028879 0.032912791 2.3509886e-38
-0.011972545 -0.13111271 0.029851377 2.3509886e-38
-0.010149091 -0.13217102 0.025919139 2.3509886e-38
-0.0083290841 -0.13217102 0.025919139 2.3509886e-38
-0.0064906939 -0.13297729 0.02292341 2.3509886e-38
-0.004641661 -0.13378824 0.019910276 2.3509886e-38
-0.0028111185 -0.13378824 0.019910276 2.3509886e-38
-0.00098057603 -0.13378824 0.019910276 2.3509886e-38
0.00084996643 -0.13378824 0.019910276 2.3509886e-38
0.0027256734 -0.13460387 0.016879737 2.3509886e-38
0.0046104849 -0.13539489 0.013940632 2.3509886e-38
0.0064514936 -0.13539489 0.013940632 2.3509886e-38
0.0082925018 -0.13539489 0.013940632 2.3509886e-38
0.010222374 -0.13648613 0.009886086 2.3509886e-38
0.012070492 -0.13648613 0.009886086 2.3509886e-38
0.013994332 -0.13728772 0.0069076419 2.3509886e-38
0.015847672 -0.13728772 0.0069076419 2.3509886e-38
0.017787669 -0.13809387 0.0039122701 2.3509886e-38
0.019738691 -0.13890465 0.00089985132 2.3509886e-38
0.021733718 -0.13999285 -0.0031434894 2.3509886e-38
0.023604682 -0.13999285 -0.0031434894 2.3509886e-38
0.025475645 -0.13999285 -0.0031434894 2.3509886e-38
0.02745741 -0.14078392 -0.0060828328 2.3509886e-38
0.029333526 -0.14078392 -0.0060828328 2.3509886e-38
0.031336121 -0.14161004 -0.0091523528 2.3509886e-38
0.03321762 -0.14161004 -0.0091523528 2.3509886e-38
0.035099119 -0.14161004 -0.0091523528 2.3509886e-38
0.036980618 -0.14161004 -0.0091523528 2.3509886e-38
0.039055239 -0.14268802 -0.013157666 2.3509886e-38
0.04094376 -0.14268802 -0.013157666 2.3509886e-38
0.042832281 -0.14268802 -0.013157666 2.3509886e-38
0.044720802 -0.14268802 -0.013157666 2.3509886e-38
0.046774734 -0.14349405 -0.016152561 2.3509883e-38
0.048668504 -0.14349405 -0.016152561 2.304854e-38
0.050793793 -0.14455487 -0.020094097 2.3417323e-38
0.052877981 -0.14537133 -0.023127735 2.350988e-38
0.054966535 -0.14616071 -0.026060641 2.3509883e-38
0.057134587 -0.1472411 -0.030075014 2.3509886e-38
0.059255924 -0.14807267 -0.033164799 2.3509886e-38
0.061179522 -0.14807267 -0.033164799 2.3509886e-38
0.063103117 -0.14807267 -0.033164799 2.3325856e-38
0.065306984 -0.14913492 -0.03711158 2.341805e-38
0.067237504 -0.14913492 -0.03711158 2.3141466e-38
-0.079887837 -0.13643973 0.016879737 9.2170336e-39
-0.078051984 -0.13643973 0.016879737 1.0691439e-38
-0.076216131 -0.13643973 0.016879737 1.2442792e-38
-0.074380271 -0.13643973 0.016879737 1.2534262e-38
-0.072544411 -0.13643973 0.016879737 1.1519745e-38
-0.070541181 -0.13561879 0.019910276 1.1611571e-38
-0.06871064 -0.13561879 0.019910276 1.1149874e-38
-0.067036845 -0.13643973 0.016879737 1.1334268e-38
-0.065200992 -0.13643973 0.016879737 8.5687621e-39
-0.063365132 -0.13643973 0.016879737 8.5687649e-39
-0.06166584 -0.13723589 0.013940632 8.4758505e-39
-0.060006112 -0.13833423 0.009886086 8.1978216e-39
-0.058157995 -0.13833423 0.009886086 7.3676952e-39
-0.05643259 -0.13914107 0.0069076419 6.7208853e-39
-0.054579254 -0.13914107 0.0069076419 1.2068229e-38
-0.050952733 -0.12639888 0.053945839 2.0550946e-38
-0.049181864 -0.12639888 0.053945839 2.350877e-38
-0.047410998 -0.12639888 0.053945839 2.3227867e-38
-0.045640133 -0.12639888 0.053945839 2.0648913e-38
-0.043869264 -0.12639888 0.053945839 2.2033651e-38
-0.04218632 -0.12722217 0.050906718 2.350987e-38
-0.040327534 -0.12639888 0.053945839 2.350988e-38
-0.038556665 -0.12639888 0.053945839 2.3509886e-38
-0.036857735 -0.12722217 0.050906718 2.3509886e-38
-0.035081539 -0.12722217 0.050906718 2.3509886e-38
-0.033305347 -0.12722217 0.050906718 2.3509886e-38
-0.03158544 -0.1280504 0.047849238 2.3509886e-38
-0.029803881 -0.1280504 0.047849238 2.3509886e-38
-0.028066637 -0.12885578 0.044876158 2.3509886e-38
-0.026279869 -0.12885578 0.044876158 2.3509886e-38
-0.0244931 -0.12885578 0.044876158 2.3509886e-38
-0.022735169 -0.1296659 0.041885555 2.3509886e-38
-0.020966893 -0.13048081 0.038877308 2.3509886e-38
-0.019169604 -0.13048081 0.038877308 2.3509886e-38
-0.017372319 -0.13048081 0.038877308 2.3509886e-38
-0.01558299 -0.13130049 0.035851419 2.3509886e-38
-0.013780398 -0.13130049 0.035851419 2.3509886e-38
-0.011975229 -0.13209651 0.032912791 2.3509886e-38
-0.010159433 -0.13292582 0.029851377 2.3509886e-38
-0.0083290841 -0.13399105 0.025919139 2.3509886e-38
-0.0064906939 -0.13480256 0.02292341 2.3509886e-38
-0.0046654348 -0.13480256 0.02292341 2.3509886e-38
-0.0028401748 -0.13480256 0.02292341 2.3509886e-38
-0.00098057603 -0.13561879 0.019910276 2.3509886e-38
0.00084996643 -0.13561879 0.019910276 2.3509886e-38
0.0027256734 -0.13643973 0.016879737 2.3509886e-38
0.0046104849 -0.13723589 0.013940632 2.3509886e-38
0.0064514936 -0.13723589 0.013940632 2.3509886e-38
0.0082925018 -0.13723589 0.013940632 2.3509886e-38
0.010133512 -0.13723589 0.013940632 2.3509886e-38
0.012070492 -0.13833423 0.009886086 2.3509886e-38
0.01391861 -0.13833423 0.009886086 2.3509886e-38
0.015847672 -0.13914107 0.0069076419 2.3509886e-38
0.017701013 -0.13914107 0.0069076419 2.3509886e-38
0.019646259 -0.13995247 0.0039122701 2.3509886e-38
0.021602565 -0.14076851 0.00089985132 2.3509886e-38
0.023604682 -0.14186381 -0.0031434894 2.3509886e-38
0.025475645 -0.14186381 -0.0031434894 2.3509886e-38
0.027346609 -0.14186381 -0.0031434894 2.3509886e-38
0.029333526 -0.14266007 -0.0060828328 2.3509886e-38
0.031209646 -0.14266007 -0.0060828328 2.3509886e-38
0.033085763 -0.14266007 -0.0060828328 2.3509886e-38
0.035099119 -0.14349155 -0.0091523528 2.3509886e-38
0.036980618 -0.14349155 -0.0091523528 2.3509886e-38
0.038862117 -0.14349155 -0.0091523528 2.3509886e-38
0.040743615 -0.14349155 -0.0091523528 2.3509886e-38
0.042625114 -0.14349155 -0.0091523528 2.3509886e-38
0.044720802 -0.14457656 -0.013157666 2.3509886e-38
0.046609323 -0.14457656 -0.013157666 2.3509883e-38
0.048668504 -0.14538784 -0.016152561 2.350988e-38
0.050793793 -0.14645557 -0.020094097 2.350988e-38
0.052877981 -0.14727734 -0.023127735 2.3417687e-38
0.054966535 -0.14807184 -0.026060641 2.3049626e-38
0.057134587 -0.1491593 -0.030075014 2.3049626e-38
0.059052769 -0.1491593 -0.030075014 2.3233662e-38
0.061179522 -0.1499963 -0.033164799 2.341805e-38
0.063103117 -0.1499963 -0.033164799 2.341805e-38
0.065026723 -0.1499963 -0.033164799 2.3325856e-38
-0.079887837 -0.13827558 0.016879737 9.4014221e-39
-0.078051984 -0.13827558 0.016879737 1.0691797e-38
-0.076216131 -0.13827558 0.016879737 1.2350952e-38
-0.074380271 -0.13827558 0.016879737 1.2626815e-38
-0.072544411 -0.13827558 0.016879737 1.1704493e-38
-0.070541181 -0.13744931 0.019910276 1.142718e-38
-0.06871064 -0.13744931 0.019910276 1.0874006e-38
-0.067036845 -0.13827558 0.016879737 1.1150237e-38
-0.065200992 -0.13827558 0.016879737 8.3843709e-39
-0.063365132 -0.13827558 0.016879737 8.3843737e-39
-0.06166584 -0.1390769 0.013940632 8.1992608e-39
-0.060006112 -0.14018236 0.009886086 8.0134304e-39
-0.058157995 -0.14018236 0.009886086 7.5510075e-39
-0.05643259 -0.14099441 0.0069076419 6.9052765e-39
-0.054579254 -0.14099441 0.0069076419 8.1960125e-39
-0.050952733 -0.12816976 0.053945839 1.8060945e-38
-0.049076892 -0.1273735 0.056866348 2.350877e-38
-0.047311146 -0.1273735 0.056866348 2.3505532e-38
-0.045545399 -0.1273735 0.056866348 1.9265979e-38
-0.043779656 -0.1273735 0.056866348 1.9913152e-38
-0.042098399 -0.12816976 0.053945839 2.3048891e-38
-0.040327534 -0.12816976 0.053945839 2.350988e-38
-0.038556665 -0.12816976 0.053945839 2.3509886e-38
-0.036857735 -0.12899835 0.050906718 2.3509886e-38
-0.035081539 -0.12899835 0.050906718 2.3509886e-38
-0.033305347 -0.12899835 0.050906718 2.3509886e-38
-0.03158544 -0.12983195 0.047849238 2.3509886e-38
-0.029803881 -0.12983195 0.047849238 2.3509886e-38
-0.028066637 -0.13064255 0.044876158 2.3509886e-38
-0.026279869 -0.13064255 0.044876158 2.3509886e-38
-0.0244931 -0.13064255 0.044876158 2.3509886e-38
-0.022735169 -0.13145791 0.041885555 2.3509886e-38
-0.020966893 -0.1322781 0.038877308 2.3509886e-38
-0.019169604 -0.1322781 0.038877308 2.3509886e-38
-0.017372319 -0.1322781 0.038877308 2.3509886e-38
-0.01558299 -0.13310309 0.035851419 2.3509886e-38
-0.013780398 -0.13310309 0.035851419 2.3509886e-38
-0.011975229 -0.13390426 0.032912791 2.3509886e-38
-0.010159433 -0.13473894 0.029851377 2.3509886e-38
-0.0083290841 -0.13581105 0.025919139 2.3509886e-38
-0.0065090782 -0.13581105 0.025919139 2.3509886e-38
-0.0046654348 -0.13662781 0.02292341 2.3509886e-38
-0.0028401748 -0.13662781 0.02292341 2.3509886e-38
-0.0010149158 -0.13662781 0.02292341 2.3509886e-38
0.00084996643 -0.13744931 0.019910276 2.3509886e-38
0.0027256734 -0.13827558 0.016879737 2.3509886e-38
0.004561529 -0.13827558 0.016879737 2.3509886e-38
0.0064514936 -0.1390769 0.013940632 2.3509886e-38
0.0082925018 -0.1390769 0.013940632 2.3509886e-38
0.010133512 -0.1390769 0.013940632 2.3509886e-38
0.012070492 -0.14018236 0.009886086 2.3509886e-38
0.01391861 -0.14018236 0.009886086 2.3509886e-38
0.015847672 -0.14099441 0.0069076419 2.3509886e-38
0.017701013 -0.14099441 0.0069076419 2.3509886e-38
0.019646259 -0.14181106 0.0039122701 2.3509886e-38
0.021602565 -0.14263238 0.00089985132 2.3509886e-38
0.02346644 -0.14263238 0.00089985132 2.3509886e-38
0.025330314 -0.14263238 0.00089985132 2.3509886e-38
0.027346609 -0.14373477 -0.0031434894 2.3509886e-38
0.029217569 -0.14373477 -0.0031434894 2.3509886e-38
0.031209646 -0.14453618 -0.0060828328 2.3509886e-38
0.033085763 -0.14453618 -0.0060828328 2.3509886e-38
0.035099119 -0.14537306 -0.0091523528 2.3509886e-38
0.036980618 -0.14537306 -0.0091523528 2.3509886e-38
0.038862117 -0.14537306 -0.0091523528 2.3509886e-38
0.040743615 -0.14537306 -0.0091523528 2.3509886e-38
0.042625114 -0.14537306 -0.0091523528 2.3509886e-38
0.044720802 -0.14646508 -0.013157666 2.3509886e-38
0.046609323 -0.14646508 -0.013157666 2.3509886e-38
0.048668504 -0.1472816 -0.016152561 2.2956709e-38
0.050562274 -0.1472816 -0.016152561 2.3049624e-38
0.052877981 -0.14918335 -0.023127735 2.3234018e-38
0.054783981 -0.14918335 -0.023127735 2.341805e-38
0.056877676 -0.14998297 -0.026060641 2.341805e-38
-0.079887837 -0.14011143 0.016879737 1.0231183e-38
-0.078051984 -0.14011143 0.016879737 1.1244968e-38
-0.076216131 -0.14011143 0.016879737 1.2350949e-38
-0.074380271 -0.14011143 0.016879737 1.2165834e-38
-0.072544411 -0.14011143 0.016879737 1.133571e-38
-0.070541181 -0.13927986 0.019910276 1.1243509e-38
-0.06871064 -0.13927986 0.019910276 1.0782531e-38
-0.067036845 -0.14011143 0.016879737 1.0966925e-38
-0.065200992 -0.14011143 0.016879737 8.108863e-39
-0.063365132 -0.14011143 0.016879737 8.1077868e-39
-0.06166584 -0.14091791 0.013940632 7.9226739e-39
-0.060006112 -0.14203046 0.009886086 7.8290391e-39
-0.058285937 -0.14284773 0.0069076419 7.3666162e-39
-0.05643259 -0.14284773 0.0069076419 6.4442956e-39
-0.054579254 -0.14284773 0.0069076419 5.0613583e-39
-0.052838828 -0.14366965 0.0039122701 1.4741899e-38
-0.049076892 -0.12913923 0.056866348 2.3508767e-38
-0.047311146 -0.12913923 0.056866348 2.3508409e-38
-0.045447979 -0.12831511 0.059869826 1.9082304e-38
-0.0436875 -0.12831511 0.059869826 1.9268498e-38
-0.042013906 -0.12913923 0.056866348 2.3418032e-38
-0.040327534 -0.12994061 0.053945839 2.350988e-38
-0.038556665 -0.12994061 0.053945839 2.3509886e-38
-0.036785796 -0.12994061 0.053945839 2.3509886e-38
-0.035081539 -0.13077454 0.050906718 2.3509886e-38
-0.033305347 -0.13077454 0.050906718 2.3509886e-38
-0.03158544 -0.13161351 0.047849238 2.3509886e-38
-0.029803881 -0.13161351 0.047849238 2.3509886e-38
-0.028022328 -0.13161351 0.047849238 2.3509886e-38
-0.026279869 -0.13242932 0.044876158 2.3509886e-38
-0.0244931 -0.13242932 0.044876158 2.3509886e-38
-0.02270633 -0.13242932 0.044876158 2.3509886e-38
-0.020943156 -0.13324992 0.041885555 2.3509886e-38
-0.019151146 -0.13324992 0.041885555 2.3509886e-38
-0.017372319 -0.13407536 0.038877308 2.3509886e-38
-0.015575031 -0.13407536 0.038877308 2.3509886e-38
-0.013780398 -0.13490568 0.035851419 2.3509886e-38
-0.011975229 -0.13571201 0.032912791 2.3509886e-38
-0.010167485 -0.13571201 0.032912791 2.3509886e-38
-0.0083463211 -0.13655205 0.029851377 2.3509886e-38
-0.0065090782 -0.13763104 0.025919139 2.3509886e-38
-0.0046654348 -0.13845308 0.02292341 2.3509886e-38
-0.0028401748 -0.13845308 0.02292341 2.3509886e-38
-0.0010149158 -0.13845308 0.02292341 2.3509886e-38
0.00084996643 -0.13927986 0.019910276 2.3509886e-38
0.002680508 -0.13927986 0.019910276 2.3509886e-38
0.004561529 -0.14011143 0.016879737 2.3509886e-38
0.0064514936 -0.14091791 0.013940632 2.3509886e-38
0.0082925018 -0.14091791 0.013940632 2.3509886e-38
0.010133512 -0.14091791 0.013940632 2.3509886e-38
0.012070492 -0.14203046 0.009886086 2.3509886e-38
0.01391861 -0.14203046 0.009886086 2.3509886e-38
0.015766729 -0.14203046 0.009886086 2.3509886e-38
0.017701013 -0.14284773 0.0069076419 2.3509886e-38
0.019646259 -0.14366965 0.0039122701 2.3509886e-38
0.021504851 -0.14366965 0.0039122701 2.3509886e-38
0.02346644 -0.14449625 0.00089985132 2.3509886e-38
0.025330314 -0.14449625 0.00089985132 2.3509886e-38
0.027346609 -0.14560573 -0.0031434894 2.3509886e-38
0.029217569 -0.14560573 -0.0031434894 2.3509886e-38
0.031088533 -0.14560573 -0.0031434894 2.3509886e-38
0.033085763 -0.1464123 -0.0060828328 2.3509886e-38
0.035099119 -0.14725454 -0.0091523528 2.3509886e-38
0.036980618 -0.14725454 -0.0091523528 2.3509886e-38
0.038862117 -0.14725454 -0.0091523528 2.3509886e-38
0.040743615 -0.14725454 -0.0091523528 2.3509886e-38
0.042625114 -0.14725454 -0.0091523528 2.3509886e-38
0.044720802 -0.14835359 -0.013157666 2.3509886e-38
0.046609323 -0.14835359 -0.013157666 2.3509886e-38
