# .PCD v0.7 - Point Cloud Data file format
VERSION 0.7
FIELDS x y z rgb
SIZE 4 4 4 4
TYPE F F F F
COUNT 1 1 1 1
WIDTH 944
HEIGHT 1
VIEWPOINT 0 0 0 1 0 0 0
POINTS 944
DATA ascii
-0.0086944327 -0.10851096 0.051914182 2.3234374e-38
-0.0070271902 -0.10999118 0.045905318 2.3509886e-38
-0.0052683838 -0.11073773 0.04287478 2.3509886e-38
-0.0034969412 -0.11146177 0.039935675 2.3509886e-38
-0.0017376877 -0.11246057 0.035881128 2.3509886e-38
5.5599958e-05 -0.1131943 0.032902684 2.3509886e-38
0.0018088706 -0.11467429 0.026894893 2.3509886e-38
0.0035686754 -0.11639442 0.019912209 2.3509886e-38
0.0054044314 -0.11715056 0.016842689 2.3509886e-38
0.0072402805 -0.11813726 0.012837376 2.3509886e-38
0.0090999231 -0.11887501 0.0098424815 2.3509886e-38
0.010962596 -0.119846 0.0059009455 2.3509886e-38
0.012826664 -0.12131582 -6.5598404e-05 2.3509886e-38
0.014720213 -0.12230472 -0.0040799715 2.3509886e-38
0.016619891 -0.12403814 -0.011116538 2.3509886e-38
0.018546926 -0.12501745 -0.01509193 2.3509527e-38
0.020490604 -0.12675591 -0.022149 2.3508451e-38
0.022458939 -0.12848614 -0.029172692 2.3508451e-38
0.024421118 -0.12848614 -0.029172692 2.3508441e-38
0.026426177 -0.13020746 -0.036160145 2.3418039e-38
0.028400607 -0.13020746 -0.036160145 2.3234374e-38
0.030451857 -0.13216983 -0.044126067 2.3234379e-38
0.032485396 -0.13314565 -0.048087273 2.2773408e-38
0.034521319 -0.13390581 -0.051173124 2.258758e-38
0.036640093 -0.13585658 -0.059092078 2.1848569e-38
0.038722467 -0.13685839 -0.06315878 1.8437317e-38
0.040817194 -0.13783465 -0.067121774 1.6777057e-38
0.043007381 -0.13980745 -0.075130016 1.7145827e-38
0.045225114 -0.14177416 -0.0831137 1.834437e-38
0.047281872 -0.14177416 -0.0831137 2.2401346e-38
0.049338628 -0.14177416 -0.0831137 2.1571242e-38
0.051503122 -0.14275078 -0.087078124 1.2168733e-38
0.053566828 -0.14275078 -0.087078124 8.390154e-39
0.055630535 -0.14275078 -0.087078124 8.2064816e-39
0.057694241 -0.14275078 -0.087078124 9.4043032e-39
0.059757948 -0.14275078 -0.087078124 9.0355206e-39
-0.046092521 -0.1143087 0.035881128 1.3458379e-38
-0.044244405 -0.1143087 0.035881128 1.4287776e-38
-0.042396288 -0.1143087 0.035881128 1.3733884e-38
-0.040548164 -0.1143087 0.035881128 8.0170303e-39
-0.038864549 -0.11504765 0.032902684 8.1088574e-39
-0.03717139 -0.11579077 0.029907312 7.2769387e-39
-0.035468604 -0.11653815 0.026894893 8.0105563e-39
-0.033604737 -0.11653815 0.026894893 5.429443e-39
-0.031935822 -0.1175413 0.022851553 4.6047242e-39
-0.030201431 -0.11827053 0.019912209 3.6849287e-39
-0.028641623 -0.12002577 0.012837376 3.7753279e-39
-0.026881751 -0.1207688 0.0098424815 3.5909352e-39
-0.022966322 -0.10859586 0.058907833 3.7756824e-39
-0.021042652 -0.10786678 0.061846461 1.6530389e-39
-0.019240059 -0.10786678 0.061846461 3.8570908e-39
-0.017437469 -0.10786678 0.061846461 1.9988798e-38
-0.015634876 -0.10786678 0.061846461 2.3502309e-38
-0.013927601 -0.10859586 0.058907833 2.3509143e-38
-0.012213793 -0.10935538 0.055846419 2.2314557e-38
-0.010400679 -0.10935538 0.055846419 2.2683352e-38
-0.008587569 -0.10935538 0.055846419 2.3234374e-38
-0.0069505908 -0.11107419 0.048918452 2.3509886e-38
-0.0052683838 -0.11257361 0.04287478 2.3509886e-38
-0.0034969412 -0.11330278 0.039935675 2.3509886e-38
-0.0017376877 -0.1143087 0.035881128 2.3509886e-38
5.5599958e-05 -0.11504765 0.032902684 2.3509886e-38
0.0018590465 -0.11579077 0.029907312 2.3509886e-38
0.0036124848 -0.1175413 0.022851553 2.3509886e-38
0.0054044314 -0.11903207 0.016842689 2.3509886e-38
0.0072402805 -0.12002577 0.012837376 2.3509886e-38
0.0090999231 -0.1207688 0.0098424815 2.3509886e-38
0.010962596 -0.12174667 0.0059009455 2.3509886e-38
0.012826664 -0.12322696 -6.5598404e-05 2.3509886e-38
0.014737809 -0.12322696 -6.5598404e-05 2.3509886e-38
0.01663027 -0.12498946 -0.007169757 2.3509886e-38
0.018546926 -0.12695493 -0.01509193 2.3509527e-38
0.020490604 -0.12870578 -0.022149 2.3508809e-38
0.022448217 -0.12943684 -0.025095616 2.3508449e-38
0.024421118 -0.13044833 -0.029172692 2.3509158e-38
0.026407735 -0.1314363 -0.033154879 2.3509876e-38
0.028400607 -0.1321819 -0.036160145 2.3234374e-38
0.030412702 -0.13315089 -0.040065799 2.3142544e-38
0.032485396 -0.13514097 -0.048087273 2.3234379e-38
0.034480739 -0.13514097 -0.048087273 2.3233303e-38
0.036581844 -0.1369016 -0.055183802 2.3509527e-38
0.03865473 -0.13787122 -0.059092078 2.3509518e-38
0.040744234 -0.13888018 -0.06315878 2.3231471e-38
0.043007381 -0.14185019 -0.075130016 2.1848886e-38
0.045138814 -0.14285399 -0.079175979 2.1202798e-38
0.047281872 -0.14383091 -0.0831137 2.3509859e-38
0.049338628 -0.14383091 -0.0831137 2.3509873e-38
0.051503122 -0.14481448 -0.087078124 1.7331691e-38
0.053682297 -0.14580469 -0.091069371 1.0141871e-38
0.055630535 -0.14481448 -0.087078124 7.376721e-39
0.057694241 -0.14481448 -0.087078124 8.3901512e-39
0.059757948 -0.14481448 -0.087078124 8.5745425e-39
-0.045657214 -0.11440946 0.04287478 1.4103748e-38
-0.043821361 -0.11440946 0.04287478 1.4103385e-38
-0.042158131 -0.11514379 0.039935675 1.3457654e-38
-0.040548164 -0.1161568 0.035881128 7.7404406e-39
-0.038864549 -0.11690097 0.032902684 8.2932486e-39
-0.03717139 -0.11764936 0.029907312 7.6457212e-39
-0.035468604 -0.11840202 0.026894893 8.6548467e-39
-0.033806782 -0.11941226 0.022851553 5.7975067e-39
-0.031935822 -0.11941226 0.022851553 4.2363046e-39
-0.03034405 -0.12091358 0.016842689 3.0399208e-39
-0.028641623 -0.12191428 0.012837376 3.3136309e-39
-0.026881751 -0.12266256 0.0098424815 3.3139882e-39
-0.022966322 -0.11040358 0.058907833 4.0537084e-39
-0.021042652 -0.10966937 0.061846461 1.6530389e-39
-0.019240059 -0.10966937 0.061846461 5.329693e-39
-0.017437469 -0.10966937 0.061846461 1.2611706e-38
-0.015634876 -0.10966937 0.061846461 2.1654433e-38
-0.013927601 -0.11040358 0.058907833 2.3507341e-38
-0.012213793 -0.11116849 0.055846419 2.2867013e-38
-0.010400679 -0.11116849 0.055846419 2.2499676e-38
-0.008587569 -0.11116849 0.055846419 2.3234374e-38
-0.0069505908 -0.11289944 0.048918452 2.3509886e-38
-0.0051253289 -0.11289944 0.048918452 2.3509886e-38
-0.0034325272 -0.11440946 0.04287478 2.3509886e-38
-0.0016559325 -0.11514379 0.039935675 2.3509886e-38
0.00011043251 -0.1161568 0.035881128 2.3509886e-38
0.0019089393 -0.11690097 0.032902684 2.3509886e-38
0.0036727451 -0.11840202 0.026894893 2.3509886e-38
0.0054834448 -0.11941226 0.022851553 2.3509886e-38
0.0072859302 -0.12091358 0.016842689 2.3509886e-38
0.0091288034 -0.12191428 0.012837376 2.3509886e-38
0.010993695 -0.12266256 0.0098424815 2.3509886e-38
0.012844663 -0.12440531 0.0028673077 2.3509886e-38
0.014737809 -0.12513812 -6.5598404e-05 2.3509886e-38
0.01663027 -0.12691309 -0.007169757 2.3509886e-38
0.018546926 -0.12889244 -0.01509193 2.3509527e-38
0.020487074 -0.12964968 -0.018122707 2.3508809e-38
0.022440467 -0.13065563 -0.022149 2.3508451e-38
0.024403248 -0.13139187 -0.025095616 2.3509879e-38
0.026383298 -0.13241051 -0.029172692 2.3509876e-38
0.028376896 -0.13340546 -0.033154879 2.3234374e-38
0.030375037 -0.13415633 -0.036160145 2.3142544e-38
0.032440253 -0.13614662 -0.044126067 2.3142544e-38
0.034480739 -0.13713633 -0.048087273 2.3234379e-38
0.036581844 -0.13890938 -0.055183802 2.3048556e-38
0.03865473 -0.13988586 -0.059092078 2.3509521e-38
0.040744234 -0.14090194 -0.06315878 2.3509863e-38
0.042926367 -0.14288907 -0.071112067 2.350949e-38
0.045138814 -0.14490382 -0.079175979 2.1664497e-38
0.047281872 -0.14588766 -0.0831137 2.2771214e-38
0.049439415 -0.1468782 -0.087078124 2.34166e-38
0.051503122 -0.1468782 -0.087078124 1.908413e-38
0.053682297 -0.14787538 -0.091069371 1.290774e-38
0.055753 -0.14787538 -0.091069371 7.1001341e-39
0.057694241 -0.1468782 -0.087078124 7.8369775e-39
0.059757948 -0.1468782 -0.087078124 8.4823469e-39
-0.045657214 -0.11624531 0.04287478 1.3919357e-38
-0.043821361 -0.11624531 0.04287478 1.364241e-38
-0.042158131 -0.1169848 0.039935675 1.3273625e-38
-0.040548164 -0.11800493 0.035881128 7.7415224e-39
-0.038864549 -0.11875431 0.032902684 7.6478792e-39
-0.03717139 -0.11950795 0.029907312 7.4616873e-39
-0.035468604 -0.12026589 0.026894893 8.5637273e-39
-0.033806782 -0.12128322 0.022851553 5.7067474e-39
-0.032077547 -0.12202276 0.019912209 4.1444649e-39
-0.030530151 -0.12380283 0.012837376 3.1317549e-39
-0.028775524 -0.12455635 0.0098424815 3.5902178e-39
-0.026881751 -0.12455635 0.0098424815 3.9590003e-39
-0.024987977 -0.12455635 0.0098424815 2.4863855e-39
-0.023765337 -0.12883668 -0.007169757 2.9444798e-39
-0.019350838 -0.11221133 0.058907833 4.4109737e-39
-0.017437469 -0.11147197 0.061846461 6.8988137e-39
-0.015634876 -0.11147197 0.061846461 1.5202176e-38
-0.013927601 -0.11221133 0.058907833 2.3509497e-38
-0.012213793 -0.1129816 0.055846419 2.3418022e-38
-0.010400679 -0.1129816 0.055846419 2.323436e-38
-0.008587569 -0.1129816 0.055846419 2.3509879e-38
-0.0069505908 -0.11472471 0.048918452 2.3509886e-38
-0.0051253289 -0.11472471 0.048918452 2.3509527e-38
-0.0034325272 -0.11624531 0.04287478 2.3509886e-38
-0.0015966706 -0.11624531 0.04287478 2.3509527e-38
0.00011043251 -0.11800493 0.035881128 2.3509886e-38
0.0019089393 -0.11875431 0.032902684 2.3509527e-38
0.0036727451 -0.12026589 0.026894893 2.3509886e-38
0.0054834448 -0.12128322 0.022851553 2.3509527e-38
0.0073209107 -0.12202276 0.019912209 2.3509883e-38
0.0091674291 -0.12279506 0.016842689 2.3509883e-38
0.011017324 -0.12380283 0.012837376 2.3509883e-38
0.012863278 -0.12554805 0.0059009455 2.3509886e-38
0.014750665 -0.12631132 0.0028673077 2.3509886e-38
0.01663027 -0.12883668 -0.007169757 2.3509886e-38
0.018546926 -0.13082992 -0.01509193 2.3509527e-38
0.020487074 -0.13159247 -0.018122707 2.3509168e-38
0.022429878 -0.13159247 -0.018122707 2.3509168e-38
0.024403248 -0.13334687 -0.025095616 2.350988e-38
0.026383298 -0.1343727 -0.029172692 2.3509879e-38
0.028345477 -0.1343727 -0.029172692 2.3234012e-38
0.030346058 -0.13537462 -0.033154879 2.3050347e-38
0.032393981 -0.13711344 -0.040065799 2.3142185e-38
0.034428649 -0.138135 -0.044126067 2.3417691e-38
0.036522072 -0.13990806 -0.051173124 2.3509527e-38
0.03858963 -0.14091717 -0.055183802 2.3231854e-38
0.040669367 -0.14190049 -0.059092078 2.2955973e-38
0.042926367 -0.14492477 -0.071112067 2.3509863e-38
0.04505014 -0.1459357 -0.075130016 2.3509863e-38
0.047281872 -0.14794444 -0.0831137 2.3509869e-38
0.049439415 -0.14894189 -0.087078124 2.3418042e-38
0.051503122 -0.14894189 -0.087078124 2.037595e-38
0.053682297 -0.14994611 -0.091069371 1.4844564e-38
0.055630535 -0.14894189 -0.087078124 7.3763552e-39
0.057306685 -0.1459357 -0.075130016 7.6525862e-39
0.059349444 -0.1459357 -0.075130016 8.666378e-39
-0.045657214 -0.11808117 0.04287478 1.4657648e-38
-0.043821361 -0.11808117 0.04287478 1.3089602e-38
-0.042158131 -0.11882581 0.039935675 1.0876907e-38
-0.040548164 -0.11985306 0.035881128 8.1099504e-39
-0.039029982 -0.12136655 0.029907312 7.2794541e-39
-0.037332486 -0.12212978 0.026894893 7.3702049e-39
-0.035468604 -0.12212978 0.026894893 7.5535256e-39
-0.033806782 -0.12315418 0.022851553 5.8940099e-39
-0.032077547 -0.12389888 0.019912209 5.1582511e-39
-0.030201431 -0.12389888 0.019912209 3.5912911e-39
-0.028641623 -0.12569134 0.012837376 3.6831322e-39
-0.026881751 -0.12645011 0.0098424815 3.0377656e-39
-0.024987977 -0.12645011 0.0098424815 2.9466462e-39
-0.023921039 -0.13176022 -0.011116538 3.4061838e-39
-0.02214038 -0.13276742 -0.01509193 2.2047694e-39
-0.02020289 -0.13276742 -0.01509193 2.1122164e-39
-0.015735347 -0.11401908 0.058907833 1.2624291e-38
-0.013927601 -0.11401908 0.058907833 2.3504807e-38
-0.012213793 -0.11479472 0.055846419 2.3509846e-38
-0.010400679 -0.11479472 0.055846419 2.3509132e-38
-0.008587569 -0.11479472 0.055846419 2.3509873e-38
-0.0069505908 -0.11654995 0.048918452 2.3509527e-38
-0.0051253289 -0.11654995 0.048918452 2.3509527e-38
-0.0034325272 -0.11808117 0.04287478 2.3509527e-38
-0.0015966706 -0.11808117 0.04287478 2.3509168e-38
0.00011043251 -0.11985306 0.035881128 2.3509527e-38
0.001958549 -0.11985306 0.035881128 2.3509168e-38
0.0037176386 -0.12136655 0.029907312 2.3509527e-38
0.0055366158 -0.12212978 0.026894893 2.3509524e-38
0.0073544122 -0.12315418 0.022851553 2.350988e-38
0.0091970284 -0.12389888 0.019912209 2.350988e-38
0.011048926 -0.12467657 0.016842689 2.350988e-38
0.012887467 -0.12645011 0.0098424815 2.3509883e-38
0.014763962 -0.12744872 0.0059009455 2.3509886e-38
0.016638396 -0.12997745 -0.0040799715 2.341805e-38
0.018550411 -0.13176022 -0.011116538 2.341805e-38
0.020484416 -0.13276742 -0.01509193 2.341805e-38
0.022429878 -0.13353528 -0.018122707 2.341805e-38
0.024390332 -0.13455538 -0.022149 2.341805e-38
0.026358278 -0.1353019 -0.025095616 2.3509883e-38
0.028345477 -0.13633488 -0.029172692 2.350988e-38
0.030307654 -0.13633488 -0.029172692 2.3509883e-38
0.032349467 -0.1381052 -0.036160145 2.3509883e-38
0.034375258 -0.13909473 -0.040065799 2.3509524e-38
0.036476083 -0.14112701 -0.048087273 2.3509524e-38
0.03858963 -0.14292495 -0.055183802 2.3508441e-38
0.040597416 -0.14292495 -0.055183802 2.3140736e-38
0.042845912 -0.14594953 -0.067121774 2.3418042e-38
0.044962078 -0.14696048 -0.071112067 2.3418043e-38
0.047188666 -0.14900355 -0.079175979 2.3050701e-38
0.057306685 -0.14797847 -0.075130016 7.2834379e-39
0.059349444 -0.14797847 -0.075130016 8.3897911e-39
0.061392199 -0.14797847 -0.075130016 8.5738306e-39
-0.051164772 -0.11991702 0.04287478 1.023405e-38
-0.047493067 -0.11991702 0.04287478 1.4381777e-38
-0.045657214 -0.11991702 0.04287478 1.5026786e-38
-0.043821361 -0.11991702 0.04287478 1.2720819e-38
-0.042158131 -0.12066682 0.039935675 1.0231537e-38
-0.040548164 -0.12170117 0.035881128 7.557134e-39
-0.039029982 -0.12322514 0.029907312 7.2794541e-39
-0.037332486 -0.12399365 0.026894893 7.6475107e-39
-0.035468604 -0.12399365 0.026894893 7.5549619e-39
-0.033953663 -0.12577499 0.019912209 4.7898175e-39
-0.032077547 -0.12577499 0.019912209 4.4206847e-39
-0.030201431 -0.12577499 0.019912209 3.7749607e-39
-0.028641623 -0.12757985 0.012837376 3.9597191e-39
-0.026881751 -0.1283439 0.0098424815 2.8533744e-39
-0.025150385 -0.12934943 0.0059009455 2.8533744e-39
-0.024077874 -0.1347049 -0.01509193 2.5767847e-39
-0.02214038 -0.1347049 -0.01509193 1.4700854e-39
-0.02020289 -0.1347049 -0.01509193 1.1938615e-39
-0.015735347 -0.11582683 0.058907833 8.6602389e-39
-0.013927601 -0.11582683 0.058907833 2.3319696e-38
-0.012119859 -0.11582683 0.058907833 2.3507323e-38
-0.010312114 -0.11582683 0.058907833 2.3509489e-38
-0.008587569 -0.11660783 0.055846419 2.3509511e-38
-0.0068744272 -0.11761098 0.051914182 2.3509527e-38
-0.0051253289 -0.11837523 0.048918452 2.3509168e-38
-0.003366109 -0.11914389 0.045905318 2.3509168e-38
-0.0015355647 -0.11914389 0.045905318 2.3509168e-38
0.00018507615 -0.12066682 0.039935675 2.3509168e-38
0.001958549 -0.12170117 0.035881128 2.3509168e-38
0.0037176386 -0.12322514 0.029907312 2.3509527e-38
0.0055366158 -0.12399365 0.026894893 2.3509521e-38
0.0073544122 -0.12502514 0.022851553 2.3509879e-38
0.0091970284 -0.12577499 0.019912209 2.3509879e-38
0.011048926 -0.12655805 0.016842689 2.350988e-38
0.012887467 -0.1283439 0.0098424815 2.3509883e-38
0.014763962 -0.12934943 0.0059009455 2.3509886e-38
0.016648954 -0.13087155 -6.5598404e-05 2.341805e-38
0.018550411 -0.13369073 -0.011116538 2.341805e-38
0.020484416 -0.1347049 -0.01509193 2.3234379e-38
0.022429878 -0.13547809 -0.018122707 2.3234379e-38
0.024372682 -0.13547809 -0.018122707 2.341805e-38
0.026358278 -0.13725694 -0.025095616 2.3509886e-38
0.028345477 -0.13829704 -0.029172692 2.3509883e-38
0.030307654 -0.13829704 -0.029172692 2.3509521e-38
0.032315217 -0.13931294 -0.033154879 2.3509521e-38
0.034323901 -0.14007963 -0.036160145 2.3509879e-38
0.036476083 -0.14312236 -0.048087273 2.3047101e-38
0.038522825 -0.14390959 -0.051173124 2.3509521e-38
0.040523581 -0.14390959 -0.051173124 2.350988e-38
0.042605199 -0.14493273 -0.055183802 2.3418047e-38
0.044874627 -0.14797823 -0.067121774 2.3234379e-38
0.046997793 -0.14899619 -0.071112067 2.2958873e-38
-0.052790742 -0.12097444 0.045905318 9.5886804e-39
-0.051164772 -0.12175287 0.04287478 9.8652673e-39
-0.04932892 -0.12175287 0.04287478 1.1800655e-38
-0.047493067 -0.12175287 0.04287478 1.5118976e-38
-0.045657214 -0.12175287 0.04287478 1.5210452e-38
-0.043821361 -0.12175287 0.04287478 1.2167996e-38
-0.042158131 -0.12250783 0.039935675 9.9545819e-39
-0.040317122 -0.12250783 0.039935675 7.5571283e-39
-0.038700048 -0.1235493 0.035881128 7.3716497e-39
-0.03717139 -0.12508373 0.029907312 8.2003285e-39
-0.035468604 -0.12585752 0.026894893 7.7393546e-39
-0.033806782 -0.1268961 0.022851553 4.3288422e-39
-0.032077547 -0.12765111 0.019912209 3.9597079e-39
-0.030201431 -0.12765111 0.019912209 3.867878e-39
-0.028775524 -0.13023765 0.0098424815 4.3285017e-39
-0.026881751 -0.13023765 0.0098424815 2.8533744e-39
-0.025688943 -0.13460748 -0.007169757 2.8533744e-39
-0.024077874 -0.13664238 -0.01509193 2.3923934e-39
-0.02214038 -0.13664238 -0.01509193 2.115445e-39
-0.020311825 -0.13742088 -0.018122707 1.2856969e-39
-0.018369023 -0.13742088 -0.018122707 4.9724137e-39
-0.013927601 -0.11763458 0.058907833 2.2581413e-38
-0.012119859 -0.11763458 0.058907833 2.3505526e-38
-0.010312114 -0.11763458 0.058907833 2.3509133e-38
-0.0085043721 -0.11763458 0.058907833 2.3509514e-38
-0.0068744272 -0.11943097 0.051914182 2.3509527e-38
-0.0051253289 -0.12020047 0.048918452 2.3509527e-38
-0.003300067 -0.12020047 0.048918452 2.3509527e-38
-0.0015355647 -0.12097444 0.045905318 2.3509168e-38
0.00023918226 -0.12175287 0.04287478 2.3509168e-38
0.0020260848 -0.12250783 0.039935675 2.3509527e-38
0.0037176386 -0.12508373 0.029907312 2.3509527e-38
0.0055366158 -0.12585752 0.026894893 2.3509883e-38
0.0073544122 -0.1268961 0.022851553 2.350988e-38
0.0091674291 -0.12843956 0.016842689 2.3509879e-38
0.011048926 -0.12843956 0.016842689 2.350988e-38
0.012887467 -0.13023765 0.0098424815 2.3509883e-38
0.014763962 -0.1312501 0.0059009455 2.3509886e-38
0.016648954 -0.13278268 -6.5598404e-05 2.3509527e-38
0.01855387 -0.13460748 -0.007169757 2.341805e-38
0.020484416 -0.13664238 -0.01509193 2.3234379e-38
0.022421908 -0.13664238 -0.01509193 2.3234379e-38
0.024372682 -0.13742088 -0.018122707 2.341805e-38
0.026358278 -0.13921197 -0.025095616 2.341805e-38
0.028345477 -0.14025922 -0.029172692 2.3509886e-38
0.030307654 -0.14025922 -0.029172692 2.3509883e-38
0.032315217 -0.1412821 -0.033154879 2.3509883e-38
0.034284379 -0.1412821 -0.033154879 2.350988e-38
0.036356539 -0.14305727 -0.040065799 2.3231854e-38
0.038471423 -0.14511769 -0.048087273 2.3417324e-38
0.040523581 -0.14591034 -0.051173124 2.3325847e-38
0.042605199 -0.14694051 -0.055183802 2.3049261e-38
0.044787772 -0.14898901 -0.06315878 2.3141816e-38
-0.052790742 -0.12280498 0.045905318 7.9291619e-39
-0.050960209 -0.12280498 0.045905318 9.2191776e-39
-0.049129661 -0.12280498 0.045905318 1.1615542e-38
-0.047493067 -0.12358873 0.04287478 1.5118255e-38
-0.045657214 -0.12358873 0.04287478 1.4749469e-38
-0.043821361 -0.12358873 0.04287478 1.1891045e-38
-0.042158131 -0.12434883 0.039935675 9.9542147e-39
-0.040317122 -0.12434883 0.039935675 7.9251878e-39
-0.038700048 -0.1253974 0.035881128 7.7404322e-39
-0.037011202 -0.12616767 0.032902684 8.0170163e-39
-0.035312798 -0.12694232 0.029907312 7.5556864e-39
-0.033806782 -0.12876706 0.022851553 4.4214007e-39
-0.031935822 -0.12876706 0.022851553 3.9600681e-39
-0.030064855 -0.12876706 0.022851553 3.6834868e-39
-0.028775524 -0.13213144 0.0098424815 4.1441132e-39
-0.026881751 -0.13213144 0.0098424815 2.94557e-39
-0.026015367 -0.13857989 -0.01509193 2.6686272e-39
-0.024077874 -0.13857989 -0.01509193 2.6682615e-39
-0.02214038 -0.13857989 -0.01509193 2.7597354e-39
-0.020311825 -0.13936369 -0.018122707 1.9296216e-39
-0.018607426 -0.141167 -0.025095616 3.4043719e-39
-0.013927601 -0.11944233 0.058907833 1.9722628e-38
-0.012119859 -0.11944233 0.058907833 2.3504449e-38
-0.010312114 -0.11944233 0.058907833 2.3508416e-38
-0.0085043721 -0.11944233 0.058907833 2.3509514e-38
-0.0068744272 -0.121251 0.051914182 2.3509886e-38
-0.0051253289 -0.12202574 0.048918452 2.3509527e-38
-0.003300067 -0.12202574 0.048918452 2.3509527e-38
-0.0015355647 -0.12280498 0.045905318 2.3509168e-38
0.00029497966 -0.12280498 0.045905318 2.3509527e-38
0.0020750426 -0.12358873 0.04287478 2.3509168e-38
0.0037622787 -0.12616767 0.032902684 2.3509886e-38
0.0055762306 -0.12694232 0.029907312 2.3509527e-38
0.0074004903 -0.12772138 0.026894893 2.350988e-38
0.0092253722 -0.12876706 0.022851553 2.350988e-38
0.011048926 -0.13032107 0.016842689 2.350988e-38
0.012887467 -0.13213144 0.0098424815 2.3509883e-38
0.014763962 -0.13315077 0.0059009455 2.3509886e-38
0.016648954 -0.13469382 -6.5598404e-05 2.3509527e-38
0.01855387 -0.13653107 -0.007169757 2.3509527e-38
0.020480931 -0.1375518 -0.011116538 2.341805e-38
0.022421908 -0.13857989 -0.01509193 2.341805e-38
0.024372682 -0.13936369 -0.018122707 2.341805e-38
0.026340196 -0.14040495 -0.022149 2.341805e-38
0.028313309 -0.141167 -0.025095616 2.3509886e-38
0.030268339 -0.141167 -0.025095616 2.3509886e-38
0.032269835 -0.14222141 -0.029172692 2.3509886e-38
0.034284379 -0.14325126 -0.033154879 2.3509883e-38
0.036298327 -0.14402847 -0.036160145 2.3509883e-38
0.038405444 -0.14608859 -0.044126067 2.350988e-38
0.040466771 -0.14711304 -0.048087273 2.323365e-38
0.042605199 -0.14894833 -0.055183802 2.3509876e-38
-0.050960209 -0.12463553 0.045905318 9.5879601e-39
-0.049129661 -0.12463553 0.045905318 1.1892487e-38
-0.047493067 -0.12542458 0.04287478 1.5026056e-38
-0.045657214 -0.12542458 0.04287478 1.4564715e-38
-0.043821361 -0.12542458 0.04287478 1.1706288e-38
-0.042158131 -0.12618984 0.039935675 9.9534889e-39
-0.040317122 -0.12618984 0.039935675 7.7411511e-39
-0.038700048 -0.12724553 0.035881128 7.9248235e-39
-0.037011202 -0.12802102 0.032902684 7.4645642e-39
-0.035312798 -0.12880091 0.029907312 7.0950712e-39
-0.033806782 -0.13063805 0.022851553 4.7901861e-39
-0.031935822 -0.13063805 0.022851553 4.3288534e-39
-0.030064855 -0.13063805 0.022851553 2.9466448e-39
-0.029087391 -0.13584132 0.0028673077 3.22288e-39
-0.027181383 -0.13584132 0.0028673077 2.8530184e-39
-0.026015367 -0.14051737 -0.01509193 2.2998475e-39
-0.024077874 -0.14051737 -0.01509193 2.483873e-39
-0.022254631 -0.1413065 -0.018122707 2.2987587e-39
-0.020456545 -0.14235483 -0.022149 1.5612034e-39
-0.018607426 -0.14312203 -0.025095616 2.9433994e-39
-0.016784642 -0.14418359 -0.029172692 1.428273e-38
-0.012119859 -0.12125005 0.058907833 2.2764365e-38
-0.010312114 -0.12125005 0.058907833 2.3506256e-38
-0.0085043721 -0.12125005 0.058907833 2.3509873e-38
-0.006774459 -0.12204717 0.055846419 2.3418047e-38
-0.005054418 -0.123071 0.051914182 2.3509886e-38
-0.003300067 -0.12385099 0.048918452 2.341805e-38
-0.0014748089 -0.12385099 0.048918452 2.3509527e-38
0.00029497966 -0.12463553 0.045905318 2.3417691e-38
0.0020750426 -0.12542458 0.04287478 2.3509527e-38
0.0038066693 -0.12724553 0.035881128 2.341805e-38
0.0055762306 -0.12880091 0.029907312 2.3509886e-38
0.0074004903 -0.12958528 0.026894893 2.3509883e-38
0.0092253722 -0.13063805 0.022851553 2.350988e-38
0.011073146 -0.13140334 0.019912209 2.350988e-38
0.012887467 -0.1340252 0.0098424815 2.3509883e-38
0.01478124 -0.1340252 0.0098424815 2.3509886e-38
0.016648954 -0.13660498 -6.5598404e-05 2.3509527e-38
0.01855658 -0.13765021 -0.0040799715 2.3509527e-38
0.020480931 -0.1394823 -0.011116538 2.3509527e-38
0.022411451 -0.1394823 -0.011116538 2.341805e-38
0.024359398 -0.14051737 -0.01509193 2.341805e-38
0.026315488 -0.1413065 -0.018122707 2.341805e-38
0.028290059 -0.14235483 -0.022149 2.341805e-38
0.030268339 -0.14312203 -0.025095616 2.341805e-38
0.03222337 -0.14312203 -0.025095616 2.341805e-38
0.034232013 -0.14418359 -0.029172692 2.341805e-38
0.036298327 -0.1460029 -0.036160145 2.31411e-38
0.038337816 -0.14701982 -0.040065799 2.350988e-38
0.040466771 -0.14910837 -0.048087273 2.3509876e-38
-0.054836493 -0.12726043 0.04287478 7.9288102e-39
-0.052790742 -0.12646608 0.045905318 8.4812595e-39
-0.050960209 -0.12646608 0.045905318 9.9560266e-39
-0.049129661 -0.12646608 0.045905318 1.2260191e-38
-0.047493067 -0.12726043 0.04287478 1.5025696e-38
-0.045657214 -0.12726043 0.04287478 1.419557e-38
-0.043821361 -0.12726043 0.04287478 1.161301e-38
-0.042158131 -0.12803085 0.039935675 9.9531273e-39
-0.040317122 -0.12803085 0.039935675 7.9248235e-39
-0.038700048 -0.12909363 0.035881128 7.7411511e-39
-0.037011202 -0.12987436 0.032902684 7.0954243e-39
-0.035468604 -0.13144915 0.026894893 6.8184871e-39
-0.033806782 -0.13250901 0.022851553 4.6065165e-39
-0.031935822 -0.13250901 0.022851553 4.0529896e-39
-0.030201431 -0.13327946 0.019912209 2.4856681e-39
-0.029536139 -0.14037828 -0.007169757 2.6697062e-39
-0.027782079 -0.14141284 -0.011116538 2.3009265e-39
-0.026015367 -0.14245488 -0.01509193 2.4835199e-39
-0.024077874 -0.14245488 -0.01509193 2.6671881e-39
-0.02214038 -0.14245488 -0.01509193 2.2058456e-39
-0.020311825 -0.14324932 -0.018122707 1.4693679e-39
-0.01850668 -0.14430468 -0.022149 2.9423232e-39
-0.016784642 -0.14614578 -0.029172692 8.6580809e-39
-0.014822461 -0.14614578 -0.029172692 1.9628638e-38
-0.010312114 -0.1230578 0.058907833 2.350878e-38
-0.0085043721 -0.1230578 0.058907833 2.350987e-38
-0.006774459 -0.12386028 0.055846419 2.3418045e-38
-0.0049613453 -0.12386028 0.055846419 2.341805e-38
-0.0032344125 -0.124891 0.051914182 2.341805e-38
-0.0014748089 -0.12567626 0.048918452 2.3417691e-38
0.00035044923 -0.12567626 0.048918452 2.3417691e-38
0.0020750426 -0.12726043 0.04287478 2.3417691e-38
0.0038066693 -0.12909363 0.035881128 2.341805e-38
0.0056156181 -0.12987436 0.032902684 2.341805e-38
0.0074348226 -0.13065951 0.029907312 2.341805e-38
0.0092643648 -0.13144915 0.026894893 2.3509883e-38
0.011096336 -0.13250901 0.022851553 2.350988e-38
0.012887467 -0.13591899 0.0098424815 2.3509883e-38
0.01478124 -0.13591899 0.0098424815 2.3509886e-38
0.016664647 -0.13695215 0.0059009455 2.3509527e-38
0.018560098 -0.13851611 -6.5598404e-05 2.3509527e-38
0.020477472 -0.14037828 -0.007169757 2.3509527e-38
0.022411451 -0.14141284 -0.011116538 2.3509886e-38
0.024359398 -0.14245488 -0.01509193 2.3509527e-38
0.026315488 -0.14324932 -0.018122707 2.341805e-38
0.028290059 -0.14430468 -0.022149 2.341805e-38
0.030268339 -0.14507706 -0.025095616 2.341805e-38
0.03222337 -0.14507706 -0.025095616 2.341805e-38
0.034232013 -0.14614578 -0.029172692 2.341805e-38
0.036253542 -0.1471896 -0.033154879 2.2496453e-38
0.038337816 -0.14900111 -0.040065799 2.3325847e-38
-0.054836493 -0.12909628 0.04287478 8.2975955e-39
-0.052790742 -0.1282966 0.045905318 8.2968696e-39
-0.050960209 -0.1282966 0.045905318 1.0140062e-38
-0.049129661 -0.1282966 0.045905318 1.2628618e-38
-0.047493067 -0.12909628 0.04287478 1.502534e-38
-0.045657214 -0.12909628 0.04287478 1.4101939e-38
-0.043821361 -0.12909628 0.04287478 1.1335707e-38
-0.042158131 -0.12987186 0.039935675 1.0136441e-38
-0.040317122 -0.12987186 0.039935675 8.384724e-39
-0.038864549 -0.13172771 0.032902684 7.6485981e-39
-0.03717139 -0.1325181 0.029907312 7.2808974e-39
-0.035468604 -0.13331302 0.026894893 6.9117645e-39
-0.033806782 -0.13437997 0.022851553 4.2384556e-39
-0.031935822 -0.13437997 0.022851553 3.6849287e-39
-0.03034405 -0.13596557 0.016842689 2.6704223e-39
-0.029536139 -0.14230187 -0.007169757 2.9462931e-39
-0.027782079 -0.14334334 -0.011116538 2.1165352e-39
-0.026015367 -0.14439236 -0.01509193 2.5757155e-39
-0.024077874 -0.14439236 -0.01509193 2.2984055e-39
-0.02214038 -0.14439236 -0.01509193 2.7590208e-39
-0.020311825 -0.1451921 -0.018122707 2.1132926e-39
-0.01850668 -0.14625455 -0.022149 2.3891578e-39
-0.016784642 -0.14810793 -0.029172692 3.863911e-39
-0.014822461 -0.14810793 -0.029172692 1.3912153e-38
-0.010227099 -0.12409012 0.061846461 2.3508061e-38
-0.0084245093 -0.12409012 0.061846461 2.3509869e-38
-0.0066966228 -0.12486555 0.058907833 2.3418043e-38
-0.0049613453 -0.1256734 0.055846419 2.3234376e-38
-0.0031482317 -0.1256734 0.055846419 2.3234379e-38
-0.001414407 -0.126711 0.051914182 2.3234379e-38
0.00040559843 -0.126711 0.051914182 2.3234379e-38
0.0021757074 -0.1275015 0.048918452 2.3234379e-38
0.0038670935 -0.12987186 0.039935675 2.3234379e-38
0.0056547858 -0.13094176 0.035881128 2.3234379e-38
0.0074348226 -0.1325181 0.029907312 2.3234379e-38
0.0092643648 -0.13331302 0.026894893 2.3418047e-38
0.011096336 -0.13437997 0.022851553 2.350988e-38
0.012949262 -0.13515557 0.019912209 2.3509883e-38
0.01478124 -0.13781275 0.0098424815 2.3509527e-38
0.016675012 -0.13781275 0.0098424815 2.3509168e-38
0.018560098 -0.14042725 -6.5598404e-05 2.3509527e-38
0.020474762 -0.14148657 -0.0040799715 2.3509527e-38
0.022401072 -0.14230187 -0.007169757 2.3509886e-38
0.024359398 -0.14439236 -0.01509193 2.3509527e-38
0.026296888 -0.14439236 -0.01509193 2.341805e-38
0.028290059 -0.14625455 -0.022149 2.341805e-38
0.030239925 -0.14625455 -0.022149 2.3234379e-38
0.03222337 -0.1470321 -0.025095616 2.3234379e-38
0.034232013 -0.14810793 -0.029172692 2.3234379e-38
0.036253542 -0.14915876 -0.033154879 2.341805e-38
-0.054836493 -0.13093217 0.04287478 8.3897911e-39
-0.052790742 -0.13012715 0.045905318 9.0337186e-39
-0.050960209 -0.13012715 0.045905318 1.1245332e-38
-0.049129661 -0.13012715 0.045905318 1.3826448e-38
-0.047299128 -0.13012715 0.045905318 1.576219e-38
-0.045657214 -0.13093217 0.04287478 1.4101945e-38
-0.043821361 -0.13093217 0.04287478 1.0966572e-38
-0.042158131 -0.13171287 0.039935675 9.9509777e-39
-0.040317122 -0.13171287 0.039935675 8.2921725e-39
-0.039029982 -0.13437669 0.029907312 7.7404406e-39
-0.03717139 -0.13437669 0.029907312 8.0181065e-39
-0.035468604 -0.13517688 0.026894893 7.3731028e-39
-0.033806782 -0.13625093 0.022851553 3.9618687e-39
-0.031935822 -0.13625093 0.022851553 3.4083418e-39
-0.030993383 -0.14155935 0.0028673077 3.1314004e-39
-0.029536139 -0.14422549 -0.007169757 3.5916625e-39
-0.027782079 -0.14527388 -0.011116538 2.1165352e-39
-0.026015367 -0.14632986 -0.01509193 2.1147373e-39
-0.024077874 -0.14632986 -0.01509193 1.6530389e-39
-0.02214038 -0.14632986 -0.01509193 3.3121945e-39
-0.020311825 -0.14713491 -0.018122707 2.7586564e-39
-0.018607426 -0.14898713 -0.025095616 1.7448744e-39
-0.010227099 -0.12589271 0.061846461 2.3503379e-38
-0.0084245093 -0.12589271 0.061846461 2.3509866e-38
-0.0066966228 -0.1266733 0.058907833 2.3418038e-38
-0.004888881 -0.1266733 0.058907833 2.3418045e-38
-0.0030811355 -0.1266733 0.058907833 2.3234379e-38
-0.001335118 -0.12748651 0.055846419 2.3234379e-38
0.00040559843 -0.12853102 0.051914182 2.3234379e-38
0.0022256076 -0.12853102 0.051914182 2.3234379e-38
0.0038670935 -0.13171287 0.039935675 2.3234379e-38
0.0056547858 -0.13278987 0.035881128 2.3234379e-38
0.0074348226 -0.13437669 0.029907312 2.3234379e-38
0.0092643648 -0.13517688 0.026894893 2.3418047e-38
0.011096336 -0.13625093 0.022851553 2.3418045e-38
0.0129673 -0.13625093 0.022851553 2.3509883e-38
0.014825378 -0.13703169 0.019912209 2.3509883e-38
0.016693423 -0.13784705 0.016842689 2.3509527e-38
0.018565329 -0.14075352 0.0059009455 2.3509168e-38
0.020471243 -0.14233841 -6.5598404e-05 2.3509527e-38
0.022401072 -0.14422549 -0.007169757 2.3509527e-38
0.024341973 -0.14527388 -0.011116538 2.3509527e-38
0.026296888 -0.14632986 -0.01509193 2.3509527e-38
0.028258292 -0.14713491 -0.018122707 2.341805e-38
0.030239925 -0.14820443 -0.022149 2.3234379e-38
0.032189786 -0.14820443 -0.022149 2.3234379e-38
0.034178399 -0.14898713 -0.025095616 2.341805e-38
-0.054836493 -0.13276802 0.04287478 8.6660221e-39
-0.052790742 -0.13195769 0.045905318 8.7567758e-39
-0.050960209 -0.13195769 0.045905318 1.1890704e-38
-0.049129661 -0.13195769 0.045905318 1.3826091e-38
-0.047299128 -0.13195769 0.045905318 1.465549e-38
-0.045657214 -0.13276802 0.04287478 1.3271832e-38
-0.043821361 -0.13276802 0.04287478 1.0597793e-38
-0.042158131 -0.13355388 0.039935675 9.3052566e-39
-0.040548164 -0.134638 0.035881128 7.4620615e-39
-0.039029982 -0.13623528 0.029907312 7.5560522e-39
-0.03717139 -0.13623528 0.029907312 7.7415224e-39
-0.035468604 -0.13704078 0.026894893 7.7418853e-39
-0.033806782 -0.13812189 0.022851553 4.4228469e-39
-0.033040803 -0.14424954 -6.5598404e-05 4.1459069e-39
-0.031316187 -0.14532293 -0.0040799715 3.5001829e-39
-0.029536139 -0.14614908 -0.007169757 3.1306843e-39
-0.027782079 -0.14720438 -0.011116538 3.0384915e-39
-0.026015367 -0.14826734 -0.01509193 2.7601068e-39
-0.024077874 -0.14826734 -0.01509193 1.4693679e-39
-0.02214038 -0.14826734 -0.01509193 2.3902382e-39
-0.010227099 -0.12769531 0.061846461 2.350446e-38
-0.0084245093 -0.12769531 0.061846461 2.350986e-38
-0.0066966228 -0.12848105 0.058907833 2.3418032e-38
-0.004888881 -0.12848105 0.058907833 2.3509876e-38
-0.0030811355 -0.12848105 0.058907833 2.3418047e-38
-0.001335118 -0.1292996 0.055846419 2.3050349e-38
0.000477992 -0.1292996 0.055846419 2.258902e-38
0.0022256076 -0.13035102 0.051914182 2.3142544e-38
0.0038670935 -0.13355388 0.039935675 2.3142544e-38
0.0056547858 -0.134638 0.035881128 2.3234379e-38
0.0074689575 -0.13543437 0.032902684 2.3234379e-38
0.0092643648 -0.13704078 0.026894893 2.341805e-38
0.011096336 -0.13812189 0.022851553 2.3418047e-38
0.0129673 -0.13812189 0.022851553 2.3509883e-38
0.014825378 -0.13890781 0.019912209 2.3509883e-38
0.016693423 -0.13972856 0.016842689 2.3509527e-38
0.018568784 -0.1416003 0.0098424815 2.3509527e-38
0.020471243 -0.14424954 -6.5598404e-05 2.3509527e-38
0.022401072 -0.14614908 -0.007169757 2.3509527e-38
0.024341973 -0.14720438 -0.011116538 2.2956715e-38
0.026272492 -0.14720438 -0.011116538 2.3509527e-38
0.028258292 -0.14907773 -0.018122707 2.341805e-38
-0.054836493 -0.13460387 0.04287478 8.9418887e-39
-0.05300064 -0.13460387 0.04287478 8.1114064e-39
-0.050960209 -0.13378824 0.045905318 1.1245337e-38
-0.049129661 -0.13378824 0.045905318 1.3180724e-38
-0.047299128 -0.13378824 0.045905318 1.4194513e-38
-0.045657214 -0.13460387 0.04287478 1.3087085e-38
-0.043821361 -0.13460387 0.04287478 1.059744e-38
-0.042396288 -0.13648613 0.035881128 9.4903695e-39
-0.040717881 -0.13728772 0.032902684 8.1996279e-39
-0.039029982 -0.13809387 0.029907312 7.556055e-39
-0.037332486 -0.13890465 0.026894893 7.4649355e-39
-0.035468604 -0.13890465 0.026894893 7.464581e-39
-0.033806782 -0.13999285 0.022851553 4.0540644e-39
-0.033040803 -0.14616071 -6.5598404e-05 3.9615156e-39
-0.031459745 -0.14807267 -0.007169757 3.5001801e-39
-0.029536139 -0.14807267 -0.007169757 3.1306843e-39
-0.027782079 -0.14913492 -0.011116538 3.1306843e-39
-0.010227099 -0.1294979 0.061846461 2.0552039e-38
-0.0084245093 -0.1294979 0.061846461 2.3046716e-38
-0.0066966228 -0.13028879 0.058907833 2.3417302e-38
-0.004888881 -0.13028879 0.058907833 2.3509869e-38
-0.0030811355 -0.13028879 0.058907833 2.3509876e-38
-0.0012733899 -0.13028879 0.058907833 2.341805e-38
0.000477992 -0.13111271 0.055846419 2.2957796e-38
0.0022256076 -0.13217102 0.051914182 2.3234379e-38
0.0038066693 -0.13648613 0.035881128 2.2958514e-38
0.0056547858 -0.13648613 0.035881128 2.3234379e-38
0.0074689575 -0.13728772 0.032902684 2.3234379e-38
0.0092934147 -0.13809387 0.029907312 2.341805e-38
0.011096336 -0.13999285 0.022851553 2.3418047e-38
0.0129673 -0.13999285 0.022851553 2.3509883e-38
0.014838263 -0.13999285 0.022851553 2.3509883e-38
0.016701495 -0.14078392 0.019912209 2.3509527e-38
0.018568784 -0.14349405 0.0098424815 2.3509527e-38
0.020471243 -0.14616071 -6.5598404e-05 2.3048191e-38
0.022382388 -0.14616071 -6.5598404e-05 2.3509886e-38
0.024324672 -0.14807267 -0.007169757 2.3141106e-38
0.026272492 -0.14913492 -0.011116538 2.3141106e-38
-0.054836493 -0.13643973 0.04287478 9.5872581e-39
-0.05300064 -0.13643973 0.04287478 8.4801917e-39
-0.050960209 -0.13561879 0.045905318 1.1521924e-38
-0.049129661 -0.13561879 0.045905318 1.3088528e-38
-0.047493067 -0.13643973 0.04287478 1.4102317e-38
-0.045657214 -0.13643973 0.04287478 1.3087085e-38
-0.043821361 -0.13643973 0.04287478 1.0228658e-38
-0.042396288 -0.13833423 0.035881128 9.2137826e-39
-0.040717881 -0.13914107 0.032902684 8.7528017e-39
-0.039029982 -0.13995247 0.029907312 7.7404462e-39
-0.037332486 -0.14076851 0.026894893 7.4638565e-39
-0.035468604 -0.14076851 0.026894893 7.2791107e-39
-0.033953663 -0.14266007 0.019912209 3.8689542e-39
-0.033040803 -0.14807184 -6.5598404e-05 3.9607939e-39
-0.031316187 -0.1491593 -0.0040799715 3.4076244e-39
-0.029536139 -0.1499963 -0.007169757 2.761899e-39
-0.0085043721 -0.13209651 0.058907833 2.1846725e-38
-0.0066966228 -0.13209651 0.058907833 2.3509488e-38
-0.004888881 -0.13209651 0.058907833 2.3509499e-38
-0.0030811355 -0.13209651 0.058907833 2.350987e-38
-0.0012733899 -0.13209651 0.058907833 2.350988e-38
0.000477992 -0.13292582 0.055846419 2.3325856e-38
0.0020750426 -0.13643973 0.04287478 2.3234379e-38
0.0038670935 -0.13723589 0.039935675 2.2957796e-38
0.0057081021 -0.13723589 0.039935675 2.3234379e-38
0.0075029023 -0.13833423 0.035881128 2.3234379e-38
0.0093223006 -0.13914107 0.032902684 2.341805e-38
0.011128239 -0.14076851 0.026894893 2.3418047e-38
0.0129673 -0.14186381 0.022851553 2.3509883e-38
0.014838263 -0.14186381 0.022851553 2.3509883e-38
0.016709225 -0.14186381 0.022851553 2.3509527e-38
0.018574921 -0.14349155 0.016842689 2.3509527e-38
0.020466013 -0.14645557 0.0059009455 2.341769e-38
0.022382388 -0.14807184 -6.5598404e-05 2.341769e-38
0.024311129 -0.1491593 -0.0040799715 2.3233299e-38
0.026248273 -0.1499963 -0.007169757 2.3509883e-38
-0.054836493 -0.13827558 0.04287478 9.863845e-39
-0.05300064 -0.13827558 0.04287478 9.7709305e-39
-0.050960209 -0.13744931 0.045905318 1.2721188e-38
-0.049129661 -0.13744931 0.045905318 1.3918289e-38
-0.047493067 -0.13827558 0.04287478 1.4286707e-38
-0.045657214 -0.13827558 0.04287478 1.3087441e-38
-0.043999147 -0.1390769 0.039935675 9.8598723e-39
-0.042396288 -0.14018236 0.035881128 8.4772938e-39
-0.040888574 -0.14181106 0.029907312 8.3850968e-39
-0.039196353 -0.14263238 0.026894893 8.1085071e-39
-0.037332486 -0.14263238 0.026894893 7.6482478e-39
-0.035829779 -0.14453618 0.019912209 7.3716637e-39
-0.034307193 -0.14646508 0.012837376 4.3288506e-39
-0.033040803 -0.14998297 -6.5598404e-05 4.3288562e-39
-0.010139558 -0.1322781 0.064872354 1.4651513e-38
-0.0083422735 -0.1322781 0.064872354 2.0279032e-38
-0.0065449886 -0.1322781 0.064872354 2.3509841e-38
-0.004888881 -0.13390426 0.058907833 2.3508409e-38
-0.0030811355 -0.13390426 0.058907833 2.3509142e-38
-0.0012733899 -0.13390426 0.058907833 2.34166e-38
0.000477992 -0.13473894 0.055846419 2.3233296e-38
0.0020750426 -0.13827558 0.04287478 2.341805e-38
0.0038670935 -0.1390769 0.039935675 2.3142185e-38
0.0057081021 -0.1390769 0.039935675 2.3234379e-38
0.0075029023 -0.14018236 0.035881128 2.3234379e-38
0.0093223006 -0.14099441 0.032902684 2.341805e-38
0.011128239 -0.14263238 0.026894893 2.3418047e-38
0.0129673 -0.14373477 0.022851553 2.3509883e-38
0.014838263 -0.14373477 0.022851553 2.3509883e-38
0.016709225 -0.14373477 0.022851553 2.3509527e-38
0.018577613 -0.14453618 0.019912209 2.3509527e-38
0.020459931 -0.14646508 0.012837376 2.341805e-38
0.022382388 -0.14998297 -6.5598404e-05 2.3234018e-38
0.024293533 -0.14998297 -6.5598404e-05 2.3509883e-38
-0.054836493 -0.14011143 0.04287478 8.7567786e-39
-0.05300064 -0.14011143 0.04287478 1.0324101e-38
-0.050960209 -0.13927986 0.045905318 1.3827891e-38
-0.049129661 -0.13927986 0.045905318 1.4656209e-38
-0.047493067 -0.14011143 0.04287478 1.4287779e-38
-0.045657214 -0.14011143 0.04287478 1.290448e-38
-0.043999147 -0.14091791 0.039935675 9.7687445e-39
-0.042396288 -0.14203046 0.035881128 8.2932515e-39
-0.040888574 -0.14366965 0.029907312 8.3854471e-39
-0.039196353 -0.14449625 0.026894893 8.2932543e-39
-0.037548702 -0.14560573 0.022851553 7.9241158e-39
-0.035988543 -0.14725454 0.016842689 7.831923e-39
-0.034307193 -0.14835359 0.012837376 4.8820244e-39
-0.010139558 -0.13407536 0.064872354 9.3045223e-39
-0.0083422735 -0.13407536 0.064872354 1.7419883e-38
-0.0065449886 -0.13407536 0.064872354 2.3509111e-38
-0.004888881 -0.13571201 0.058907833 2.3506961e-38
-0.0030811355 -0.13571201 0.058907833 2.3508774e-38
-0.0012733899 -0.13571201 0.058907833 2.3508428e-38
0.000477992 -0.13655205 0.055846419 2.3509521e-38
0.0021757074 -0.13845308 0.048918452 2.3509886e-38
0.0039108954 -0.14011143 0.04287478 2.341805e-38
0.0057081021 -0.14091791 0.039935675 2.3234379e-38
0.0075491108 -0.14091791 0.039935675 2.3234379e-38
0.0093223006 -0.14284773 0.032902684 2.341805e-38
0.011152007 -0.14366965 0.029907312 2.341805e-38
0.012992112 -0.14449625 0.026894893 2.3509883e-38
0.014838263 -0.14560573 0.022851553 2.3509883e-38
0.016709225 -0.14560573 0.022851553 2.3509527e-38
0.018577613 -0.1464123 0.019912209 2.3509527e-38
0.02045642 -0.14725454 0.016842689 2.3326213e-38
-0.05300064 -0.14194728 0.04287478 9.5868924e-39
-0.051164772 -0.14194728 0.04287478 1.4104474e-38
-0.04932892 -0.14194728 0.04287478 1.4841313e-38
-0.047493067 -0.14194728 0.04287478 1.3919348e-38
-0.045657214 -0.14194728 0.04287478 1.2904831e-38
-0.043999147 -0.14275892 0.039935675 9.8623708e-39
-0.042571228 -0.14470108 0.032902684 8.4787105e-39
-0.041060235 -0.14636014 0.026894893 8.5701901e-39
-0.03941967 -0.14747669 0.022851553 8.2921725e-39
-0.037705895 -0.14828841 0.019912209 8.0155912e-39
-0.035988543 -0.14913605 0.016842689 8.1074309e-39
-0.010312114 -0.13751976 0.058907833 8.1992524e-39
-0.0085043721 -0.13751976 0.058907833 1.3178516e-38
-0.0066966228 -0.13751976 0.058907833 2.313636e-38
-0.004888881 -0.13751976 0.058907833 2.3320765e-38
-0.0030811355 -0.13751976 0.058907833 2.350949e-38
-0.0012733899 -0.13751976 0.058907833 2.3509507e-38
0.000477992 -0.13836516 0.055846419 2.3509517e-38
0.0022256076 -0.13945107 0.051914182 2.3509167e-38
0.0039560609 -0.14111041 0.045905318 2.3509527e-38
0.005746752 -0.14194728 0.04287478 2.341805e-38
0.0075491108 -0.14275892 0.039935675 2.3234379e-38
0.0093510225 -0.14387859 0.035881128 2.341805e-38
0.011152007 -0.14552824 0.029907312 2.341805e-38
0.012992112 -0.14636014 0.026894893 2.3509883e-38
0.014838263 -0.14747669 0.022851553 2.3509883e-38
0.016709225 -0.14747669 0.022851553 2.3509527e-38
0.018577613 -0.14828841 0.019912209 2.3509527e-38
0.020453729 -0.14828841 0.019912209 2.3234379e-38
-0.05300064 -0.14378314 0.04287478 9.1259142e-39
-0.051164772 -0.14378314 0.04287478 1.4658004e-38
-0.04932892 -0.14378314 0.04287478 1.5302646e-38
-0.047493067 -0.14378314 0.04287478 1.3734952e-38
-0.045657214 -0.14378314 0.04287478 1.2812987e-38
-0.043999147 -0.14459993 0.039935675 1.0139665e-38
-0.042571228 -0.14655443 0.032902684 8.4794182e-39
-0.041290637 -0.14934768 0.022851553 8.2939549e-39
-0.03941967 -0.14934768 0.022851553 8.0159415e-39
-0.037548702 -0.14934768 0.022851553 7.6468086e-39
-0.014674511 -0.1457267 0.035881128 7.8304838e-39
-0.012701988 -0.14459993 0.039935675 6.8156102e-39
-0.01077595 -0.14378314 0.04287478 5.2489894e-39
-0.0085043721 -0.13932751 0.058907833 1.0043141e-38
-0.0066966228 -0.13932751 0.058907833 2.2214039e-38
-0.004888881 -0.13932751 0.058907833 2.2859422e-38
-0.0030811355 -0.13932751 0.058907833 2.3508049e-38
-0.0012733899 -0.13932751 0.058907833 2.3509144e-38
0.000477992 -0.14017828 0.055846419 2.3509514e-38
0.0022256076 -0.14127107 0.051914182 2.3508444e-38
0.0039560609 -0.14294095 0.045905318 2.3509886e-38
0.005746752 -0.14378314 0.04287478 2.341805e-38
0.0075029023 -0.1457267 0.035881128 2.341805e-38
0.0093510225 -0.1457267 0.035881128 2.341805e-38
0.011152007 -0.14738683 0.029907312 2.341805e-38
0.013010599 -0.14738683 0.029907312 2.3509883e-38
0.014855986 -0.14822401 0.026894893 2.3509883e-38
0.016709225 -0.14934768 0.022851553 2.3509527e-38
-0.05320419 -0.14644094 0.039935675 9.4024983e-39
-0.051363181 -0.14644094 0.039935675 1.5671074e-38
-0.049522173 -0.14644094 0.039935675 1.6132044e-38
-0.047940638 -0.14757483 0.035881128 1.391898e-38
-0.046092521 -0.14757483 0.035881128 1.2812987e-38
-0.04442456 -0.14840777 0.032902684 1.0322979e-38
-0.042747166 -0.14924543 0.029907312 8.2024753e-39
-0.014674511 -0.14757483 0.035881128 8.9371929e-39
-0.012701988 -0.14644094 0.039935675 7.3713092e-39
-0.01077595 -0.14561899 0.04287478 5.0653254e-39
-0.0089400969 -0.14561899 0.04287478 8.8438791e-39
-0.0071042366 -0.14561899 0.04287478 2.2395912e-38
-0.004888881 -0.14113526 0.058907833 2.2673589e-38
-0.0030811355 -0.14113526 0.058907833 2.3505884e-38
-0.001335118 -0.14199139 0.055846419 2.3506259e-38
0.000477992 -0.14199139 0.055846419 2.3508791e-38
0.0022256076 -0.14309107 0.051914182 2.3140737e-38
0.0040009655 -0.14392884 0.048918452 2.341805e-38
0.0057866015 -0.1447715 0.045905318 2.3234379e-38
0.0075826086 -0.14561899 0.04287478 2.3234379e-38
0.0093510225 -0.14757483 0.035881128 2.3234379e-38
0.01117564 -0.14840777 0.032902684 2.341805e-38
0.013010599 -0.14924543 0.029907312 2.3509886e-38
-0.05300064 -0.14745484 0.04287478 1.0507767e-38
-0.051164772 -0.14745484 0.04287478 1.6130617e-38
-0.049522173 -0.14828195 0.039935675 1.6221725e-38
-0.047940638 -0.14942293 0.035881128 1.4746948e-38
-0.046092521 -0.14942293 0.035881128 1.3271815e-38
-0.019614473 -0.14491107 0.051914182 1.1426111e-38
-0.017794468 -0.14491107 0.051914182 1.1149524e-38
-0.016179904 -0.14660202 0.045905318 9.8591478e-39
-0.014542997 -0.14828195 0.039935675 8.2025118e-39
-0.012701988 -0.14828195 0.039935675 6.9143051e-39
-0.01077595 -0.14745484 0.04287478 5.3458892e-39
-0.0089400969 -0.14745484 0.04287478 8.0126891e-39
-0.0071789585 -0.14828195 0.039935675 2.2669622e-38
-0.004888881 -0.14294298 0.058907833 2.3501189e-38
-0.0030811355 -0.14294298 0.058907833 2.1843477e-38
-0.001335118 -0.14380451 0.055846419 2.3044915e-38
0.000477992 -0.14380451 0.055846419 2.3509866e-38
0.0022911057 -0.14380451 0.055846419 2.3509879e-38
0.0040456131 -0.14491107 0.051914182 2.286632e-38
0.0058262274 -0.14575411 0.048918452 2.2958873e-38
0.0076171458 -0.14660202 0.045905318 2.2590096e-38
0.0094184652 -0.14745484 0.04287478 2.2590454e-38
0.011199139 -0.14942293 0.035881128 2.3234379e-38
-0.05300064 -0.14929073 0.04287478 1.0783635e-38
-0.051164772 -0.14929073 0.04287478 1.6590872e-38
-0.021434482 -0.14673109 0.051914182 1.4469282e-38
-0.019614473 -0.14673109 0.051914182 1.2440981e-38
-0.017794468 -0.14673109 0.051914182 1.2901604e-38
-0.016179904 -0.14843257 0.045905318 9.5850833e-39
-0.014447663 -0.14929073 0.04287478 7.3741944e-39
-0.012611806 -0.14929073 0.04287478 7.5607549e-39
-0.01077595 -0.14929073 0.04287478 5.899063e-39
-0.0089400969 -0.14929073 0.04287478 7.5517151e-39
-0.0071042366 -0.14929073 0.04287478 1.8613017e-38
-0.0049613453 -0.14561762 0.055846419 2.267071e-38
-0.0031482317 -0.14561762 0.055846419 2.1290303e-38
-0.001335118 -0.14561762 0.055846419 2.1200637e-38
0.000477992 -0.14561762 0.055846419 2.3509859e-38
0.0022911057 -0.14561762 0.055846419 2.3049256e-38
0.0040456131 -0.14673109 0.051914182 2.2682286e-38
0.0058656223 -0.14673109 0.051914182 2.249826e-38
0.0076171458 -0.14843257 0.045905318 2.2497901e-38
0.0094184652 -0.14929073 0.04287478 2.3142544e-38
-0.024905574 -0.14743073 0.055846419 2.1842034e-38
-0.023092467 -0.14743073 0.055846419 2.2394861e-38
-0.021279354 -0.14743073 0.055846419 1.9631159e-38
-0.019614473 -0.14855109 0.051914182 1.3917551e-38
-0.017794468 -0.14855109 0.051914182 1.0876901e-38
-0.016076885 -0.14940463 0.048918452 1.0047871e-38
-0.0032344125 -0.14855109 0.051914182 2.2121143e-38
-0.001335118 -0.14743073 0.055846419 2.0278681e-38
0.000477992 -0.14743073 0.055846419 2.3509859e-38
0.0022911057 -0.14743073 0.055846419 2.3417673e-38
0.0040456131 -0.14855109 0.051914182 2.3418045e-38
0.0058656223 -0.14855109 0.051914182 2.2589374e-38
0.0076514855 -0.14940463 0.048918452 2.3234379e-38
-0.024905574 -0.14924385 0.055846419 1.9904846e-38
-0.023092467 -0.14924385 0.055846419 2.0826451e-38
-0.021279354 -0.14924385 0.055846419 2.267217e-38
-0.01946624 -0.14924385 0.055846419 1.6775618e-38
-0.0031482317 -0.14924385 0.055846419 2.3320046e-38
-0.0012733899 -0.14836623 0.058907833 2.0555625e-38
0.00053435192 -0.14836623 0.058907833 2.3508411e-38
0.0023420975 -0.14836623 0.058907833 2.3509863e-38
0.004149843 -0.14836623 0.058907833 2.3509873e-38
0.0059173293 -0.14924385 0.055846419 2.350988e-38
-0.0030167289 -0.1493264 0.061846461 2.3320768e-38
-0.0012141392 -0.1493264 0.061846461 2.1108796e-38
0.00058845058 -0.1493264 0.061846461 2.1754887e-38
0.0023910441 -0.1493264 0.061846461 2.3509856e-38
0.0041936375 -0.1493264 0.061846461 2.3507702e-38
