# .PCD v0.7 - Point Cloud Data file format
VERSION 0.7
FIELDS x y z rgb
SIZE 4 4 4 4
TYPE F F F F
COUNT 1 1 1 1
WIDTH 940
HEIGHT 1
VIEWPOINT 0 0 0 1 0 0 0
POINTS 940
DATA ascii
0.03976161 -0.099722609 0.038606543 1.3919348e-38
0.041597463 -0.099722609 0.038606543 1.1799213e-38
0.043433324 -0.099722609 0.038606543 8.9418747e-39
0.047105033 -0.099722609 0.038606543 8.6649445e-39
-0.064052187 -0.12390204 -0.055441361 1.0141152e-38
-0.061843134 -0.12316893 -0.052355509 9.8645653e-39
-0.059847794 -0.12316893 -0.052355509 9.0355206e-39
-0.057852454 -0.12316893 -0.052355509 7.4689138e-39
-0.056542076 -0.1257834 -0.063360311 8.9440411e-39
-0.054527439 -0.1257834 -0.063360311 7.0090119e-39
-0.053923763 -0.13149039 -0.087381937 6.2721657e-39
-0.051642619 -0.13055487 -0.083444215 1.5491731e-38
-0.049592771 -0.13055487 -0.083444215 1.7151621e-38
-0.047542907 -0.13055487 -0.083444215 2.2591166e-38
-0.045283787 -0.12959366 -0.079398252 2.3142544e-38
-0.043040253 -0.12863909 -0.075380303 2.3234379e-38
-0.040812142 -0.12769108 -0.07139001 2.2588648e-38
-0.038599297 -0.12674956 -0.067427017 2.341805e-38
-0.036395706 -0.1257834 -0.063360311 2.3509886e-38
-0.034213178 -0.12485488 -0.059452038 2.2955993e-38
-0.032040142 -0.12390204 -0.055441361 2.3509527e-38
-0.029761381 -0.12222783 -0.048394304 2.3509527e-38
-0.027359404 -0.11962132 -0.037423115 2.3509527e-38
-0.025247116 -0.11867525 -0.033440929 2.3509886e-38
-0.023145542 -0.11770664 -0.02936385 2.3509886e-38
-0.021094933 -0.11700659 -0.026417235 2.341805e-38
-0.019021526 -0.11605005 -0.022390941 2.341805e-38
-0.016269691 -0.10940616 0.0055742464 2.341805e-38
-0.014375918 -0.10940616 0.0055742464 2.3509883e-38
-0.012582354 -0.11034258 0.0016327103 2.3509883e-38
-0.01058837 -0.10940616 0.0055742464 2.3509883e-38
-0.0086946003 -0.10940616 0.0055742464 2.3509886e-38
-0.0067404397 -0.10869466 0.0085691409 2.3509886e-38
-0.0047781803 -0.10774307 0.012574454 2.3509886e-38
-0.0028455555 -0.10701384 0.015643975 2.3509886e-38
-0.00086537004 -0.10535492 0.022626659 2.3509886e-38
0.0010381155 -0.10463922 0.025639078 2.3509886e-38
0.0029308423 -0.1039276 0.028634449 2.341769e-38
0.0048803501 -0.10155846 0.038606543 2.3325494e-38
0.0067638904 -0.10012263 0.044650216 2.3509883e-38
0.0086316634 -0.098476708 0.051578183 2.350988e-38
0.010458194 -0.097749382 0.054639596 2.3418042e-38
0.012273667 -0.097051233 0.057578225 2.2772672e-38
0.014076259 -0.097051233 0.057578225 2.2587191e-38
0.015878852 -0.097051233 0.057578225 2.0003892e-38
0.017673485 -0.096332356 0.060604114 4.0526042e-39
0.019470774 -0.096332356 0.060604114 3.5905527e-39
0.021286629 -0.097051233 0.057578225 5.0653282e-39
0.023499532 -0.10940616 0.0055742464 5.0642576e-39
0.025364423 -0.10869466 0.0085691409 5.6174342e-39
0.027172316 -0.10701384 0.015643975 5.5245197e-39
0.028956611 -0.10535492 0.022626659 7.4609839e-39
0.030730948 -0.1039276 0.028634449 7.4617013e-39
0.032534678 -0.10322 0.031612892 8.0148695e-39
0.034382794 -0.10322 0.031612892 1.0320476e-38
0.036149159 -0.10225673 0.035667438 1.0137161e-38
0.037925754 -0.10155846 0.038606543 1.2903749e-38
0.03976161 -0.10155846 0.038606543 1.3458005e-38
0.041597463 -0.10155846 0.038606543 1.2259824e-38
0.043513194 -0.10225673 0.035667438 9.6787138e-39
0.045354202 -0.10225673 0.035667438 8.5727404e-39
-0.064052187 -0.12590279 -0.055441361 1.0417739e-38
-0.061843134 -0.12516426 -0.052355509 9.5879784e-39
-0.059847794 -0.12516426 -0.052355509 7.1916081e-39
-0.05804994 -0.12590279 -0.055441361 7.5611094e-39
-0.056795202 -0.12877132 -0.067427017 7.6533023e-39
-0.054773442 -0.12877132 -0.067427017 7.5621856e-39
-0.053923763 -0.13354714 -0.087381937 6.9175351e-39
-0.051642619 -0.13260473 -0.083444215 1.8810774e-38
-0.049592771 -0.13260473 -0.083444215 2.1022759e-38
-0.047542907 -0.13260473 -0.083444215 2.2221305e-38
-0.045283787 -0.1316364 -0.079398252 2.3142544e-38
-0.043040253 -0.13067479 -0.075380303 2.3234379e-38
-0.040812142 -0.12971978 -0.07139001 2.3326213e-38
-0.038410343 -0.12779804 -0.063360311 2.341805e-38
-0.036220968 -0.12686269 -0.059452038 2.3509886e-38
-0.034040898 -0.12590279 -0.055441361 2.3509886e-38
-0.031912997 -0.12516426 -0.052355509 2.3509527e-38
-0.029601209 -0.12324448 -0.044334035 2.3509527e-38
-0.027209289 -0.12063743 -0.033440929 2.3509886e-38
-0.025247116 -0.12063743 -0.033440929 2.3509886e-38
-0.023145542 -0.11966167 -0.02936385 2.3509886e-38
-0.021094933 -0.11895646 -0.026417235 2.341805e-38
-0.018928532 -0.11726747 -0.019360164 2.341805e-38
-0.016269691 -0.11129995 0.0055742464 2.341805e-38
-0.014375918 -0.11129995 0.0055742464 2.3509883e-38
-0.012582354 -0.11224325 0.0016327103 2.3509883e-38
-0.01058837 -0.11129995 0.0055742464 2.3509886e-38
-0.0086946003 -0.11129995 0.0055742464 2.3509886e-38
-0.0067404397 -0.11058317 0.0085691409 2.3509886e-38
-0.0047781803 -0.10962458 0.012574454 2.3509886e-38
-0.0028455555 -0.10888995 0.015643975 2.3509886e-38
-0.00086537004 -0.10721879 0.022626659 2.3509886e-38
0.0010381155 -0.10649781 0.025639078 2.341769e-38
0.0029647872 -0.1050681 0.031612892 2.341769e-38
0.0048803501 -0.10339431 0.038606543 2.3509886e-38
0.0067638904 -0.10194789 0.044650216 2.3509883e-38
0.0086316634 -0.10028981 0.051578183 2.3049261e-38
0.010458194 -0.099557132 0.054639596 2.3509879e-38
0.012273667 -0.098853827 0.057578225 2.3509879e-38
0.014076259 -0.098853827 0.057578225 2.1388645e-38
0.015878852 -0.098853827 0.057578225 1.8436564e-38
0.017681444 -0.098853827 0.057578225 3.4072404e-39
0.019484036 -0.098853827 0.057578225 3.4061642e-39
0.021286629 -0.098853827 0.057578225 4.2355675e-39
0.023089221 -0.098853827 0.057578225 3.7735188e-39
0.025393303 -0.11129995 0.0055742464 5.5252414e-39
0.027207296 -0.10962458 0.012574454 5.9862195e-39
0.02900978 -0.10818647 0.018583318 6.3549992e-39
0.030730948 -0.10578094 0.028634449 7.3695057e-39
0.032534678 -0.1050681 0.031612892 8.1070651e-39
0.034382794 -0.1050681 0.031612892 9.1222891e-39
0.036149159 -0.10409774 0.035667438 1.0229714e-38
0.037990168 -0.10409774 0.035667438 1.0414105e-38
0.03976161 -0.10339431 0.038606543 1.4287041e-38
0.041597463 -0.10339431 0.038606543 1.4010097e-38
0.043433324 -0.10339431 0.038606543 1.0047132e-38
0.045269176 -0.10339431 0.038606543 8.3883464e-39
-0.055980511 -0.13560389 -0.087381937 7.5621856e-39
-0.053692468 -0.13465457 -0.083444215 8.2082739e-39
-0.051642619 -0.13465457 -0.083444215 2.0101513e-38
-0.049592771 -0.13465457 -0.083444215 2.2221302e-38
-0.04732655 -0.13367917 -0.079398252 2.3050347e-38
-0.045283787 -0.13367917 -0.079398252 2.3234379e-38
-0.042840861 -0.13174851 -0.07139001 2.341805e-38
-0.040621065 -0.13079311 -0.067427017 2.3234018e-38
-0.038410343 -0.12981267 -0.063360311 2.3326213e-38
-0.036220968 -0.12887047 -0.059452038 2.3509886e-38
-0.034040898 -0.12790357 -0.055441361 2.3509886e-38
-0.031912997 -0.12715961 -0.052355509 2.3509527e-38
-0.029601209 -0.12522577 -0.044334035 2.3509527e-38
-0.027209289 -0.12259962 -0.033440929 2.3509886e-38
-0.025247116 -0.12259962 -0.033440929 2.3509886e-38
-0.023145542 -0.12161671 -0.02936385 2.3509886e-38
-0.021094933 -0.12090631 -0.026417235 2.3509886e-38
-0.018928532 -0.11920498 -0.019360164 2.341805e-38
-0.016761854 -0.11729507 -0.011437993 2.341805e-38
-0.014483035 -0.11414395 0.0016327103 2.3509883e-38
-0.012582354 -0.11414395 0.0016327103 2.3509883e-38
-0.01058837 -0.11319371 0.0055742464 2.3509886e-38
-0.0086946003 -0.11319371 0.0055742464 2.3509886e-38
-0.0067404397 -0.11247168 0.0085691409 2.3509886e-38
-0.0047781803 -0.11150609 0.012574454 2.3509886e-38
-0.0027965941 -0.11005743 0.018583318 2.3509886e-38
-0.00082047656 -0.1083564 0.025639078 2.3509886e-38
0.001077503 -0.10763429 0.028634449 2.341769e-38
0.0029647872 -0.10691623 0.031612892 2.3509886e-38
0.0048803501 -0.10523017 0.038606543 2.3509883e-38
0.0067638904 -0.10377313 0.044650216 2.350988e-38
0.0086075328 -0.10305093 0.047645945 2.3141455e-38
0.010458194 -0.10136487 0.054639596 2.3509876e-38
0.012273667 -0.10065642 0.057578225 2.3325843e-38
0.014076259 -0.10065642 0.057578225 2.0282297e-38
0.015878852 -0.10065642 0.057578225 1.6408261e-38
0.017681444 -0.10065642 0.057578225 2.2087154e-39
0.019484036 -0.10065642 0.057578225 2.9451931e-39
0.021268059 -0.099926919 0.060604114 4.4199616e-39
0.023065347 -0.099926919 0.060604114 4.1423013e-39
0.025393303 -0.11319371 0.0055742464 5.5252414e-39
0.027207296 -0.11150609 0.012574454 6.0784152e-39
0.02900978 -0.11005743 0.018583318 6.7237818e-39
0.030820483 -0.10908265 0.022626659 7.553897e-39
0.032534678 -0.10691623 0.031612892 7.9230298e-39
0.03430815 -0.10593875 0.035667438 8.5691153e-39
0.036149159 -0.10593875 0.035667438 1.0413024e-38
0.037925754 -0.10523017 0.038606543 1.1519371e-38
0.039689876 -0.10449956 0.041637082 1.5392667e-38
0.041520417 -0.10449956 0.041637082 1.4009735e-38
0.043350961 -0.10449956 0.041637082 8.9400628e-39
0.045181505 -0.10449956 0.041637082 9.4946939e-39
-0.055980511 -0.13766064 -0.087381937 7.930971e-39
-0.053692468 -0.13670443 -0.083444215 1.0328773e-38
-0.051642619 -0.13670443 -0.083444215 2.1761034e-38
-0.049592771 -0.13670443 -0.083444215 2.3234376e-38
-0.04732655 -0.13572191 -0.079398252 2.341805e-38
-0.045075975 -0.13474621 -0.075380303 2.341805e-38
-0.042840861 -0.13377722 -0.07139001 2.3509886e-38
-0.040621065 -0.13281487 -0.067427017 2.3325494e-38
-0.038410343 -0.13182731 -0.063360311 2.341769e-38
-0.036220968 -0.13087825 -0.059452038 2.3509886e-38
-0.034040898 -0.12990431 -0.055441361 2.3509886e-38
-0.031749777 -0.12819304 -0.048394304 2.3509886e-38
-0.029601209 -0.12720706 -0.044334035 2.3509886e-38
-0.027209289 -0.1245618 -0.033440929 2.3509886e-38
-0.02510057 -0.12357174 -0.02936385 2.3509886e-38
-0.023044795 -0.12285618 -0.026417235 2.3509886e-38
-0.020964332 -0.12187846 -0.022390941 2.3509886e-38
-0.018806554 -0.12017711 -0.015384774 2.3509886e-38
-0.016383719 -0.11604463 0.0016327103 2.3509886e-38
-0.014483035 -0.11604463 0.0016327103 2.3509883e-38
-0.012482144 -0.11508749 0.0055742464 2.3509883e-38
-0.01058837 -0.11508749 0.0055742464 2.3509886e-38
-0.0086289644 -0.1143602 0.0085691409 2.3509886e-38
-0.0066596791 -0.11338757 0.012574454 2.3509886e-38
-0.0047216713 -0.11264218 0.015643975 2.3509886e-38
-0.0027965941 -0.11192839 0.018583318 2.3509886e-38
-0.00082047656 -0.11021499 0.025639078 2.3509886e-38
0.001077503 -0.10948761 0.028634449 2.3509886e-38
0.0030109957 -0.10777976 0.035667438 2.3509886e-38
0.0049095731 -0.10633011 0.041637082 2.3509883e-38
0.0067638904 -0.10559841 0.044650216 2.3325847e-38
0.0086075328 -0.10487093 0.047645945 2.3325846e-38
0.010458194 -0.10317262 0.054639596 2.3509876e-38
0.012265939 -0.10317262 0.054639596 2.2957061e-38
0.014073683 -0.10317262 0.054639596 1.8714972e-38
0.015881428 -0.10317262 0.054639596 1.5578501e-38
0.017681444 -0.10245901 0.057578225 2.2087154e-39
0.019484036 -0.10245901 0.057578225 3.0381048e-39
0.021268059 -0.10172421 0.060604114 5.0660513e-39
0.023065347 -0.10172421 0.060604114 4.7883896e-39
0.025431313 -0.11604463 0.0016327103 5.2493705e-39
0.027207296 -0.11338757 0.012574454 5.8018255e-39
0.029048432 -0.11264218 0.015643975 6.6315833e-39
0.030880744 -0.11192839 0.018583318 7.0007204e-39
0.032534678 -0.10876434 0.031612892 7.6464401e-39
0.03430815 -0.10777976 0.035667438 8.1996125e-39
0.036089897 -0.10706602 0.038606543 9.9516826e-39
0.037925754 -0.10706602 0.038606543 1.1334617e-38
0.039689876 -0.10633011 0.041637082 1.5299748e-38
0.041520417 -0.10633011 0.041637082 1.4008653e-38
0.043350961 -0.10633011 0.041637082 9.5843532e-39
0.045181505 -0.10633011 0.041637082 9.1248324e-39
-0.055980511 -0.13971741 -0.087381937 8.668536e-39
-0.053692468 -0.13875429 -0.083444215 1.2172686e-38
-0.051642619 -0.13875429 -0.083444215 2.2866663e-38
-0.049592771 -0.13875429 -0.083444215 2.3418047e-38
-0.04732655 -0.13776468 -0.079398252 2.3509886e-38
-0.045075975 -0.13678192 -0.075380303 2.3509886e-38
-0.042840861 -0.13580595 -0.07139001 2.341769e-38
-0.040621065 -0.13483663 -0.067427017 2.3509886e-38
-0.038410343 -0.13384195 -0.063360311 2.3509886e-38
-0.036220968 -0.13288604 -0.059452038 2.3509886e-38
-0.034040898 -0.13190506 -0.055441361 2.3509886e-38
-0.031749777 -0.13018142 -0.048394304 2.3509886e-38
-0.029601209 -0.12918831 -0.044334035 2.3509886e-38
-0.027209289 -0.12652399 -0.033440929 2.3509886e-38
-0.02510057 -0.12552677 -0.02936385 2.3509886e-38
-0.023044795 -0.12480606 -0.026417235 2.3509886e-38
-0.020866025 -0.12307997 -0.019360164 2.3509886e-38
-0.018806554 -0.12210761 -0.015384774 2.3509886e-38
-0.016383719 -0.11794533 0.0016327103 2.3509886e-38
-0.014483035 -0.11794533 0.0016327103 2.3509883e-38
-0.012482144 -0.11698125 0.0055742464 2.3509883e-38
-0.01058837 -0.11698125 0.0055742464 2.3509886e-38
-0.0086289644 -0.11624874 0.0085691409 2.3509886e-38
-0.0066596791 -0.11526908 0.012574454 2.3509886e-38
-0.0046675578 -0.11379938 0.018583318 2.3509886e-38
-0.0027292445 -0.11281042 0.022626659 2.3509886e-38
-0.00082047656 -0.11207359 0.025639078 2.3509886e-38
0.001077503 -0.11134095 0.028634449 2.341769e-38
0.0030109957 -0.10962076 0.035667438 2.3509883e-38
0.0049095731 -0.10816063 0.041637082 2.3325847e-38
0.0067638904 -0.10742365 0.044650216 2.3141455e-38
0.0086075328 -0.10669093 0.047645945 2.3509876e-38
0.010444775 -0.10572915 0.051578183 2.3326199e-38
0.012273667 -0.10426159 0.057578225 2.2588634e-38
0.014076259 -0.10426159 0.057578225 1.7147646e-38
0.015878852 -0.10426159 0.057578225 1.5209722e-38
0.017673485 -0.10352151 0.060604114 2.6696866e-39
0.019470774 -0.10352151 0.060604114 3.0381048e-39
0.021286629 -0.10426159 0.057578225 5.1582469e-39
0.023554567 -0.11868732 -0.0014009277 5.0649765e-39
0.025460567 -0.11868732 -0.0014009277 5.0649793e-39
0.027207296 -0.11526908 0.012574454 5.709627e-39
0.029048432 -0.1145183 0.015643975 6.4475494e-39
0.030880744 -0.11379938 0.018583318 6.1709569e-39
0.032584287 -0.11134095 0.028634449 7.7386343e-39
0.03430815 -0.10962076 0.035667438 8.5687481e-39
0.036089897 -0.10890187 0.038606543 9.6750957e-39
0.037925754 -0.10890187 0.038606543 1.0136074e-38
0.039689876 -0.10816063 0.041637082 1.3916095e-38
0.041443817 -0.10742365 0.044650216 1.4560748e-38
0.043269075 -0.10742365 0.044650216 1.2442058e-38
0.045094334 -0.10742365 0.044650216 8.8486028e-39
0.046919592 -0.10742365 0.044650216 8.2965193e-39
-0.056220315 -0.14275078 -0.091346361 9.3139054e-39
-0.053692468 -0.14080413 -0.083444215 1.3279036e-38
-0.051642619 -0.14080413 -0.083444215 2.3234372e-38
-0.049592771 -0.14080413 -0.083444215 2.3509883e-38
-0.04732655 -0.13980745 -0.079398252 2.3509167e-38
-0.045075975 -0.13881765 -0.075380303 2.3416971e-38
-0.042840861 -0.13783465 -0.07139001 2.3509527e-38
-0.040621065 -0.13685839 -0.067427017 2.3509886e-38
-0.038410343 -0.13585658 -0.063360311 2.3509886e-38
-0.036220968 -0.13489382 -0.059452038 2.3509886e-38
-0.033908337 -0.13314565 -0.052355509 2.3509886e-38
-0.031749777 -0.13216983 -0.048394304 2.3509886e-38
-0.029447131 -0.13020746 -0.040428381 2.3509886e-38
-0.027209289 -0.12848614 -0.033440929 2.3509886e-38
-0.02499466 -0.12675591 -0.026417235 2.3509886e-38
-0.022907138 -0.12576406 -0.022390941 2.3509886e-38
-0.020737074 -0.12403814 -0.015384774 2.3509886e-38
-0.018685453 -0.12306587 -0.011437993 2.3509886e-38
-0.016383719 -0.119846 0.0016327103 2.3509886e-38
-0.014483035 -0.119846 0.0016327103 2.3509883e-38
-0.012482144 -0.11887501 0.0055742464 2.3509883e-38
-0.01058837 -0.11887501 0.0055742464 2.3509886e-38
-0.0086289644 -0.11813726 0.0085691409 2.3509886e-38
-0.0066596791 -0.11715056 0.012574454 2.3509886e-38
-0.0046675578 -0.11567034 0.018583318 2.3509886e-38
-0.0027292445 -0.11467429 0.022626659 2.3509886e-38
-0.00077583641 -0.1131943 0.028634449 2.3509886e-38
0.0011166707 -0.11246057 0.031612892 2.341769e-38
0.0030109957 -0.11146177 0.035667438 2.3509883e-38
0.0049095731 -0.10999118 0.041637082 2.3325847e-38
0.0067638904 -0.10924892 0.044650216 2.323365e-38
0.0086075328 -0.10851096 0.047645945 2.3509876e-38
0.010444775 -0.10754226 0.051578183 2.2588634e-38
0.012273667 -0.10606419 0.057578225 2.2127656e-38
0.014076259 -0.10606419 0.057578225 1.6041298e-38
0.015878852 -0.10606419 0.057578225 1.3918627e-38
0.017673485 -0.1053188 0.060604114 2.4849394e-39
0.019470774 -0.1053188 0.060604114 2.3005509e-39
0.021710157 -0.12306587 -0.011437993 4.2362906e-39
0.023577707 -0.12131582 -0.0043338337 4.696194e-39
0.025460567 -0.12059332 -0.0014009277 4.8805852e-39
0.027252946 -0.11813726 0.0085691409 5.7103445e-39
0.029088795 -0.11715056 0.012574454 6.2638714e-39
0.030924549 -0.11639442 0.015643975 6.17131e-39
0.032584287 -0.1131943 0.028634449 8.0155772e-39
0.034382794 -0.11246057 0.031612892 8.9371677e-39
0.036149159 -0.11146177 0.035667438 9.9513196e-39
0.037925754 -0.11073773 0.038606543 9.9513196e-39
0.039689876 -0.10999118 0.041637082 1.2993419e-38
0.041443817 -0.10924892 0.044650216 1.4559669e-38
0.043269075 -0.10924892 0.044650216 1.4653674e-38
0.045094334 -0.10924892 0.044650216 1.0691797e-38
0.046919592 -0.10924892 0.044650216 8.4801889e-39
0.048744854 -0.10924892 0.044650216 8.5723845e-39
-0.056220315 -0.14481448 -0.091346361 1.0512449e-38
-0.053692468 -0.14285399 -0.083444215 1.447758e-38
-0.051642619 -0.14285399 -0.083444215 2.3234372e-38
-0.049369313 -0.14185019 -0.079398252 2.3509883e-38
-0.04732655 -0.14185019 -0.079398252 2.3509167e-38
-0.044869579 -0.13986339 -0.07139001 2.3509167e-38
-0.042642832 -0.13888018 -0.067427017 2.3509527e-38
-0.04042498 -0.13787122 -0.063360311 2.3509886e-38
-0.03822875 -0.1369016 -0.059452038 2.3509886e-38
-0.036041655 -0.13590656 -0.055441361 2.3325494e-38
-0.033908337 -0.13514097 -0.052355509 2.3325494e-38
-0.031749777 -0.13415821 -0.048394304 2.3509886e-38
-0.02932857 -0.1314363 -0.037423115 2.3509886e-38
-0.027055599 -0.12943684 -0.02936385 2.3509886e-38
-0.02499466 -0.12870578 -0.026417235 2.3509886e-38
-0.022803515 -0.12695493 -0.019360164 2.3509886e-38
-0.020609055 -0.12498946 -0.011437993 2.3509886e-38
-0.018467475 -0.12322696 -0.0043338337 2.3509886e-38
-0.016383719 -0.12174667 0.0016327103 2.3509886e-38
-0.014483035 -0.12174667 0.0016327103 2.3509883e-38
-0.012482144 -0.1207688 0.0055742464 2.3509883e-38
-0.010517485 -0.12002577 0.0085691409 2.3509886e-38
-0.008541178 -0.11903207 0.012574454 2.3509886e-38
-0.0065977871 -0.11827053 0.015643975 2.3509886e-38
-0.0046675578 -0.1175413 0.018583318 2.3509886e-38
-0.0026790686 -0.11579077 0.025639078 2.3509886e-38
-0.00077583641 -0.11504765 0.028634449 2.3509886e-38
0.0011166707 -0.1143087 0.031612892 2.3417687e-38
0.0030444935 -0.11257361 0.038606543 2.350988e-38
0.0049095731 -0.11182173 0.041637082 2.3325847e-38
0.0067638904 -0.11107419 0.044650216 2.3325843e-38
0.0086075328 -0.11033095 0.047645945 2.3509876e-38
0.010444775 -0.10935538 0.051578183 2.1297895e-38
0.012273667 -0.10786678 0.057578225 2.1205697e-38
0.014076259 -0.10786678 0.057578225 1.5211538e-38
0.015878852 -0.10786678 0.057578225 1.2904478e-38
0.017681444 -0.10786678 0.057578225 3.0381048e-39
0.019834567 -0.12770687 -0.022390941 2.6689691e-39
0.021710157 -0.12498946 -0.011437993 3.9597065e-39
0.023609381 -0.12422292 -0.008348207 4.32741e-39
0.02548885 -0.12322696 -0.0043338337 4.4196057e-39
0.027287077 -0.1207688 0.0055742464 5.6185048e-39
0.029141467 -0.12002577 0.0085691409 5.8028904e-39
0.030970296 -0.11903207 0.012574454 6.079113e-39
0.032684356 -0.11653815 0.022626659 7.2780093e-39
0.034437627 -0.11504765 0.028634449 8.01521e-39
0.036149159 -0.11330278 0.035667438 9.8591226e-39
0.037925754 -0.11257361 0.038606543 1.0411219e-38
0.039689876 -0.11182173 0.041637082 1.234733e-38
0.041520417 -0.11182173 0.041637082 1.3176735e-38
0.043269075 -0.11107419 0.044650216 1.4284172e-38
0.045094334 -0.11107419 0.044650216 1.2351318e-38
0.046919592 -0.11107419 0.044650216 8.2957976e-39
0.050570112 -0.11107419 0.044650216 8.6645801e-39
-0.056220315 -0.1468782 -0.091346361 1.3186122e-38
-0.053692468 -0.14490382 -0.083444215 1.6505883e-38
-0.051642619 -0.14490382 -0.083444215 2.3234372e-38
-0.049369313 -0.14389296 -0.079398252 2.3509883e-38
-0.04732655 -0.14389296 -0.079398252 2.3509167e-38
-0.044869579 -0.14189209 -0.07139001 2.3509167e-38
-0.042642832 -0.14090194 -0.067427017 2.3509527e-38
-0.04042498 -0.13988586 -0.063360311 2.3509886e-38
-0.03822875 -0.13890938 -0.059452038 2.3325494e-38
-0.036041655 -0.13790731 -0.055441361 2.3233299e-38
-0.033908337 -0.13713633 -0.052355509 2.3509886e-38
-0.031582482 -0.13513215 -0.044334035 2.3509886e-38
-0.02932857 -0.13340546 -0.037423115 2.3509886e-38
-0.027055599 -0.13139187 -0.02936385 2.3509886e-38
-0.02499466 -0.13065563 -0.026417235 2.3509886e-38
-0.022667594 -0.12789918 -0.015384774 2.3509886e-38
-0.020609055 -0.12691309 -0.011437993 2.3509886e-38
-0.018467475 -0.12513812 -0.0043338337 2.3509886e-38
-0.016383719 -0.12364738 0.0016327103 2.3509886e-38
-0.014483035 -0.12364738 0.0016327103 2.3509883e-38
-0.012482144 -0.12266256 0.0055742464 2.3509883e-38
-0.010517485 -0.12191428 0.0085691409 2.3509886e-38
-0.0084739029 -0.12014665 0.015643975 2.3509886e-38
-0.0065385215 -0.11941226 0.018583318 2.3509886e-38
-0.004593119 -0.11840202 0.022626659 2.3509886e-38
-0.0026790686 -0.11764936 0.025639078 2.3509886e-38
-0.00077583641 -0.11690097 0.028634449 2.3509886e-38
0.0011166707 -0.1161568 0.031612892 2.3509883e-38
0.0030444935 -0.11440946 0.038606543 2.350988e-38
0.0049095731 -0.11365227 0.041637082 2.3325847e-38
0.0067638904 -0.11289944 0.044650216 2.3509876e-38
0.0086075328 -0.11215095 0.047645945 2.3509876e-38
0.010444775 -0.11116849 0.051578183 1.973057e-38
0.012273667 -0.10966937 0.057578225 2.0099349e-38
0.014076259 -0.10966937 0.057578225 1.4381777e-38
0.015878852 -0.10966937 0.057578225 1.0968369e-38
0.017681444 -0.10966937 0.057578225 3.2224946e-39
0.019834567 -0.12964968 -0.022390941 3.4065299e-39
0.021734377 -0.12789918 -0.015384774 4.2362934e-39
0.023633759 -0.12691309 -0.011437993 3.9597065e-39
0.025527563 -0.12614109 -0.008348207 3.8675081e-39
0.027366571 -0.12440531 -0.0014009277 5.4341107e-39
0.029180849 -0.12266256 0.0055742464 5.3422668e-39
0.030970296 -0.12091358 0.012574454 5.7106836e-39
0.032800667 -0.12014665 0.015643975 6.4486032e-39
0.034492772 -0.11764936 0.025639078 7.0932509e-39
0.036149159 -0.11514379 0.035667438 9.6747285e-39
0.037859336 -0.11365227 0.041637082 1.0319022e-38
0.039689876 -0.11365227 0.041637082 1.1240982e-38
0.041443817 -0.11289944 0.044650216 1.2069671e-38
0.043269075 -0.11289944 0.044650216 1.4284175e-38
0.045094334 -0.11289944 0.044650216 1.336547e-38
0.046919592 -0.11289944 0.044650216 7.9270151e-39
0.048744854 -0.11289944 0.044650216 7.4660369e-39
-0.056220315 -0.14894189 -0.091346361 1.5767245e-38
-0.053692468 -0.14695369 -0.083444215 1.8441637e-38
-0.051642619 -0.14695369 -0.083444215 2.2958504e-38
-0.049369313 -0.1459357 -0.079398252 2.3418045e-38
-0.047111683 -0.14492477 -0.075380303 2.3325847e-38
-0.044664599 -0.1429237 -0.067427017 2.341769e-38
-0.042439617 -0.14190049 -0.063360311 2.341805e-38
-0.04042498 -0.14190049 -0.063360311 2.3509527e-38
-0.03822875 -0.14091717 -0.059452038 2.3325138e-38
-0.036041655 -0.13990806 -0.055441361 2.3509886e-38
-0.033738174 -0.138135 -0.048394304 2.3509886e-38
-0.031297736 -0.13537462 -0.037423115 2.3509883e-38
-0.02932857 -0.13537462 -0.037423115 2.350988e-38
-0.027055599 -0.13334687 -0.02936385 2.350988e-38
-0.02484994 -0.13159247 -0.022390941 2.350988e-38
-0.022667594 -0.12982969 -0.015384774 2.3509883e-38
-0.020508833 -0.12805928 -0.008348207 2.3509886e-38
-0.018467475 -0.12704925 -0.0043338337 2.3509527e-38
-0.016471483 -0.12631132 -0.0014009277 2.3509527e-38
-0.014483035 -0.12554805 0.0016327103 2.3509886e-38
-0.012482144 -0.12455635 0.0055742464 2.3509883e-38
-0.010517485 -0.12380283 0.0085691409 2.3509883e-38
-0.0084739029 -0.12202276 0.015643975 2.3509883e-38
-0.0065385215 -0.12128322 0.018583318 2.3509886e-38
-0.004593119 -0.12026589 0.022626659 2.341805e-38
-0.0026790686 -0.11950795 0.025639078 2.3509886e-38
-0.00077583641 -0.11875431 0.028634449 2.3509886e-38
0.0011166707 -0.11800493 0.031612892 2.3509886e-38
0.0030790307 -0.11548282 0.041637082 2.3509883e-38
0.0049095731 -0.11548282 0.041637082 2.3325492e-38
0.0067638904 -0.11472471 0.044650216 2.3509879e-38
0.0086075328 -0.11397095 0.047645945 2.3509876e-38
0.010444775 -0.1129816 0.051578183 1.8807892e-38
0.012257887 -0.1129816 0.051578183 1.9453618e-38
0.014070999 -0.1129816 0.051578183 1.4012632e-38
0.015958644 -0.1343727 -0.033440929 8.4780113e-39
0.017910102 -0.13334687 -0.02936385 2.1158037e-39
0.019834567 -0.13159247 -0.022390941 3.4054551e-39
0.021758772 -0.13082992 -0.019360164 4.0519036e-39
0.023664899 -0.12982969 -0.015384774 3.8664333e-39
0.025527563 -0.12805928 -0.008348207 3.8664333e-39
0.027399994 -0.12704925 -0.0043338337 5.5263092e-39
0.029272573 -0.12631132 -0.0014009277 5.4344639e-39
0.031029988 -0.12380283 0.0085691409 5.6184908e-39
0.032800667 -0.12202276 0.015643975 6.4482458e-39
0.03454823 -0.12026589 0.022626659 7.277645e-39
0.036149159 -0.1169848 0.035667438 9.9513182e-39
0.037859336 -0.11548282 0.041637082 9.9509637e-39
0.039689876 -0.11548282 0.041637082 1.0503061e-38
0.041443817 -0.11472471 0.044650216 1.1978196e-38
0.043269075 -0.11472471 0.044650216 1.5759305e-38
0.045094334 -0.11472471 0.044650216 1.4748401e-38
0.046919592 -0.11472471 0.044650216 8.3883464e-39
0.048744854 -0.11472471 0.044650216 7.8351754e-39
0.050673131 -0.11548282 0.041637082 8.941523e-39
-0.053692468 -0.14900355 -0.083444215 2.0930214e-38
-0.051412068 -0.14797847 -0.079398252 2.2406778e-38
-0.049369313 -0.14797847 -0.079398252 2.2958863e-38
-0.047111683 -0.14696048 -0.075380303 2.295886e-38
-0.044664599 -0.14494546 -0.067427017 2.295887e-38
-0.042439617 -0.14391513 -0.063360311 2.2958514e-38
-0.04023654 -0.14292495 -0.059452038 2.3142185e-38
-0.03822875 -0.14292495 -0.059452038 2.3417691e-38
-0.036041655 -0.14190884 -0.055441361 2.3509527e-38
-0.033738174 -0.14012341 -0.048394304 2.3048189e-38
-0.031297736 -0.13734378 -0.037423115 2.3509879e-38
-0.029171474 -0.13633488 -0.033440929 2.350987e-38
-0.027055599 -0.1353019 -0.02936385 2.3509867e-38
-0.02484994 -0.13353528 -0.022390941 2.3509509e-38
-0.022667594 -0.13176022 -0.015384774 2.3508801e-38
-0.020508833 -0.12997745 -0.008348207 2.3509168e-38
-0.018467475 -0.12896039 -0.0043338337 2.3508451e-38
-0.016383719 -0.12744872 0.0016327103 2.3508809e-38
-0.014375918 -0.12645011 0.0055742464 2.3417333e-38
-0.012482144 -0.12645011 0.0055742464 2.3509883e-38
-0.010422677 -0.12467657 0.012574454 2.3418047e-38
-0.0084739029 -0.12389888 0.015643975 2.3418045e-38
-0.0065385215 -0.12315418 0.018583318 2.332621e-38
-0.004593119 -0.12212978 0.022626659 2.3142539e-38
-0.0026291758 -0.12060766 0.028634449 2.341805e-38
-0.00073144585 -0.11985306 0.031612892 2.341805e-38
0.0012086369 -0.11808117 0.038606543 2.3233662e-38
0.0030790307 -0.11731337 0.041637082 2.3417691e-38
0.0049386285 -0.11654995 0.044650216 2.3417691e-38
0.0067875255 -0.11579098 0.047645945 2.3509883e-38
0.0086316634 -0.11479472 0.051578183 2.3509876e-38
0.010444775 -0.11479472 0.051578183 2.0281583e-38
0.012265939 -0.11401908 0.054639596 2.0097543e-38
0.014073683 -0.11401908 0.054639596 1.4379972e-38
0.015958644 -0.13633488 -0.033440929 7.3705903e-39
0.017910102 -0.1353019 -0.02936385 2.7600885e-39
0.019852217 -0.13455538 -0.026417235 3.0359594e-39
0.021758772 -0.13276742 -0.019360164 4.1426699e-39
0.023696264 -0.13276742 -0.019360164 4.141951e-39
0.025595419 -0.13176022 -0.015384774 4.141951e-39
0.027445747 -0.12997745 -0.008348207 3.8657172e-39
0.029272573 -0.12821732 -0.0014009277 5.5255931e-39
0.031074621 -0.12645011 0.0055742464 5.6177831e-39
0.032851793 -0.12467657 0.012574454 7.0932663e-39
0.03454823 -0.12212978 0.022626659 7.2780121e-39
0.036230914 -0.11985306 0.031612892 8.5687509e-39
0.037925754 -0.11808117 0.038606543 8.9371775e-39
0.039689876 -0.11731337 0.041637082 1.0964767e-38
0.041520417 -0.11731337 0.041637082 1.2347704e-38
0.043350961 -0.11731337 0.041637082 1.4745872e-38
0.045094334 -0.11654995 0.044650216 1.4472882e-38
0.046919592 -0.11654995 0.044650216 1.0048935e-38
0.048842587 -0.11731337 0.041637082 7.5593004e-39
0.050673131 -0.11731337 0.041637082 8.0202827e-39
0.052503671 -0.11731337 0.041637082 8.5731034e-39
-0.04914739 -0.14899619 -0.075380303 2.2683352e-38
-0.047111683 -0.14899619 -0.075380303 2.2591514e-38
-0.044664599 -0.14696725 -0.067427017 2.2683356e-38
-0.042439617 -0.14592977 -0.063360311 2.2682286e-38
-0.04023654 -0.14493273 -0.059452038 2.2957796e-38
-0.03822875 -0.14493273 -0.059452038 2.3417691e-38
-0.036041655 -0.14390959 -0.055441361 2.3509527e-38
-0.033266895 -0.13931294 -0.037423115 2.3509527e-38
-0.031133652 -0.13829704 -0.033440929 2.3509874e-38
-0.029171474 -0.13829704 -0.033440929 2.3509869e-38
-0.027055599 -0.13725694 -0.02936385 2.3509147e-38
-0.02484994 -0.13547809 -0.022390941 2.3509149e-38
-0.022667594 -0.13369073 -0.015384774 2.3508441e-38
-0.020508833 -0.13189565 -0.008348207 2.3508091e-38
-0.018284403 -0.12934943 0.0016327103 2.3508451e-38
-0.016383719 -0.12934943 0.0016327103 2.3508451e-38
-0.014375918 -0.1283439 0.0055742464 2.3416974e-38
-0.012406006 -0.12757985 0.0085691409 2.341769e-38
-0.010422677 -0.12655805 0.012574454 2.3418047e-38
-0.0084094852 -0.12502514 0.018583318 2.3418045e-38
-0.0064569935 -0.12399365 0.022626659 2.3142537e-38
-0.0045376606 -0.12322514 0.025639078 2.30507e-38
-0.0026291758 -0.12246101 0.028634449 2.3142542e-38
-0.00073144585 -0.12170117 0.031612892 2.3234379e-38
0.0012086369 -0.11991702 0.038606543 2.341805e-38
0.0030790307 -0.11914389 0.041637082 2.3509527e-38
0.0049386285 -0.11837523 0.044650216 2.3509527e-38
0.0067875255 -0.11761098 0.047645945 2.3417327e-38
0.00865045 -0.11582683 0.054639596 2.3509157e-38
0.010458194 -0.11582683 0.054639596 1.9728407e-38
0.012265939 -0.11582683 0.054639596 1.926634e-38
0.014073683 -0.11582683 0.054639596 1.2258754e-38
0.015958644 -0.13829704 -0.033440929 6.2642427e-39
0.017910102 -0.13725694 -0.02936385 2.6671768e-39
0.019852217 -0.13650523 -0.026417235 2.7590179e-39
0.021802081 -0.13650523 -0.026417235 3.5887786e-39
0.023720177 -0.13547809 -0.022390941 3.4965858e-39
0.025633756 -0.1347049 -0.019360164 3.6809742e-39
0.02748096 -0.13268389 -0.011437993 3.6809728e-39
0.029311139 -0.13087155 -0.0043338337 5.1564561e-39
0.031133363 -0.12934943 0.0016327103 5.5255903e-39
0.032918509 -0.12757985 0.0085691409 7.0010735e-39
0.034622669 -0.12502514 0.018583318 7.185462e-39
0.036351364 -0.12322514 0.025639078 8.568395e-39
0.037925754 -0.11991702 0.038606543 8.9371789e-39
0.039689876 -0.11914389 0.041637082 1.0504507e-38
0.041520417 -0.11914389 0.041637082 1.1149524e-38
0.043350961 -0.11914389 0.041637082 1.2718289e-38
0.045094334 -0.11837523 0.044650216 1.4842021e-38
0.046919592 -0.11837523 0.044650216 1.1616613e-38
0.048842587 -0.11914389 0.041637082 8.9418691e-39
0.050673131 -0.11914389 0.041637082 8.2046726e-39
0.052503671 -0.11914389 0.041637082 8.2965165e-39
-0.044664599 -0.14898901 -0.067427017 2.3142537e-38
-0.042439617 -0.14794444 -0.063360311 2.3234374e-38
-0.04023654 -0.14694051 -0.059452038 2.3418045e-38
-0.038042404 -0.14591034 -0.055441361 2.3418043e-38
-0.035903685 -0.14511769 -0.052355509 2.350988e-38
-0.033266895 -0.1412821 -0.037423115 2.350988e-38
-0.031133652 -0.14025922 -0.033440929 2.3233652e-38
-0.029171474 -0.14025922 -0.033440929 2.3325129e-38
-0.027055599 -0.13921197 -0.02936385 2.3232933e-38
-0.02484994 -0.13742088 -0.022390941 2.3140737e-38
-0.022667594 -0.13562126 -0.015384774 2.3140737e-38
-0.020378619 -0.13278268 -0.0043338337 2.3232933e-38
-0.018163461 -0.13023765 0.0055742464 2.3508444e-38
-0.016269691 -0.13023765 0.0055742464 2.3325131e-38
-0.014375918 -0.13023765 0.0055742464 2.323258e-38
-0.012406006 -0.1294684 0.0085691409 2.3325494e-38
-0.010422677 -0.12843956 0.012574454 2.332621e-38
-0.0084094852 -0.1268961 0.018583318 2.3418047e-38
-0.0064569935 -0.12585752 0.022626659 2.3326208e-38
-0.0045376606 -0.12508373 0.025639078 2.3234012e-38
-0.0025795661 -0.1235493 0.031612892 2.3326213e-38
-0.00073144585 -0.1235493 0.031612892 2.341805e-38
0.0012086369 -0.12175287 0.038606543 2.3509527e-38
0.0031133704 -0.12020047 0.044650216 2.3509527e-38
0.0049675182 -0.11943097 0.047645945 2.3509527e-38
0.0068185516 -0.11842094 0.051578183 2.314074e-38
0.00865045 -0.11763458 0.054639596 2.3323685e-38
0.010458194 -0.11763458 0.054639596 1.9544016e-38
0.012265939 -0.11763458 0.054639596 1.843658e-38
0.013996467 -0.14025922 -0.033440929 9.8620247e-39
0.015958644 -0.14025922 -0.033440929 5.4344821e-39
0.017910102 -0.13921197 -0.02936385 3.2207108e-39
0.019852217 -0.13845511 -0.026417235 3.220715e-39
0.021802081 -0.13845511 -0.026417235 3.4051062e-39
0.023751944 -0.13845511 -0.026417235 3.220359e-39
0.025633756 -0.13664238 -0.019360164 3.6813372e-39
0.027571246 -0.13664238 -0.019360164 4.0504742e-39
0.02940456 -0.13460748 -0.011437993 5.1571749e-39
0.031178575 -0.13202934 -0.0014009277 5.4333947e-39
0.032918509 -0.1294684 0.0085691409 6.9088779e-39
0.034622669 -0.1268961 0.018583318 7.1847431e-39
0.036351364 -0.12508373 0.025639078 8.7524261e-39
0.037990168 -0.12250783 0.035667438 9.3052426e-39
0.03976161 -0.12175287 0.038606543 1.068818e-38
0.041520417 -0.12097444 0.041637082 1.0503435e-38
0.043350961 -0.12097444 0.041637082 1.1334634e-38
0.045181505 -0.12097444 0.041637082 1.4656911e-38
0.047012046 -0.12097444 0.041637082 1.3828589e-38
0.048744854 -0.12020047 0.044650216 1.124604e-38
0.050570112 -0.12020047 0.044650216 8.5727362e-39
0.052612599 -0.12175287 0.038606543 8.0199296e-39
0.054448456 -0.12175287 0.038606543 7.5596759e-39
-0.042439617 -0.14995907 -0.063360311 2.3509876e-38
-0.040043153 -0.14791109 -0.055441361 2.3509873e-38
-0.037899025 -0.14711304 -0.052355509 2.3326199e-38
-0.035726577 -0.14608859 -0.048394304 2.2957061e-38
-0.033095829 -0.14222141 -0.033440929 2.2864868e-38
-0.031133652 -0.14222141 -0.033440929 2.3233296e-38
-0.029010631 -0.141167 -0.02936385 2.3141103e-38
-0.027055599 -0.141167 -0.02936385 2.304891e-38
-0.02484994 -0.13936369 -0.022390941 2.3048189e-38
-0.022667594 -0.1375518 -0.015384774 2.3048542e-38
-0.020185083 -0.13315077 0.0016327103 2.3141092e-38
-0.018163461 -0.13213144 0.0055742464 2.3416953e-38
-0.016269691 -0.13213144 0.0055742464 2.332548e-38
-0.014294527 -0.13135691 0.0085691409 2.31411e-38
-0.012406006 -0.13135691 0.0085691409 2.3325497e-38
-0.010350022 -0.12952723 0.015643975 2.341805e-38
-0.0084094852 -0.12876706 0.018583318 2.3418047e-38
-0.0063962527 -0.12694232 0.025639078 2.3418045e-38
-0.0044825152 -0.12616767 0.028634449 2.3326208e-38
-0.0025795661 -0.1253974 0.031612892 2.3326213e-38
-0.00062721968 -0.12358873 0.038606543 2.341805e-38
0.0012484863 -0.12280498 0.041637082 2.3233302e-38
0.0031133704 -0.12202574 0.044650216 2.3509886e-38
0.0049675182 -0.121251 0.047645945 2.3509527e-38
0.0068185516 -0.12023406 0.051578183 2.3416245e-38
0.00865045 -0.11944233 0.054639596 2.3324041e-38
0.010458194 -0.11944233 0.054639596 2.0096467e-38
0.012273667 -0.11868234 0.057578225 1.8344383e-38
0.014076259 -0.11868234 0.057578225 8.2946962e-39
0.015962137 -0.14325126 -0.037423115 4.7898315e-39
0.017920824 -0.14222141 -0.033440929 4.0515532e-39
0.019865133 -0.141167 -0.02936385 3.774609e-39
0.021802081 -0.14040495 -0.026417235 3.4969459e-39
0.023751944 -0.14040495 -0.026417235 3.2203618e-39
0.02570181 -0.14040495 -0.026417235 3.6813372e-39
0.027571246 -0.13857989 -0.019360164 4.4192568e-39
0.029456459 -0.1375518 -0.015384774 5.1571749e-39
0.031133363 -0.13315077 0.0016327103 5.341199e-39
0.032918509 -0.13135691 0.0085691409 6.7244866e-39
0.034676783 -0.12952723 0.015643975 7.0003518e-39
0.036412105 -0.12772138 0.022626659 8.7524261e-39
0.038144309 -0.12616767 0.028634449 9.6740251e-39
0.039831176 -0.12434883 0.035667438 1.1149155e-38
0.041672185 -0.12434883 0.035667438 1.0595987e-38
0.043433324 -0.12358873 0.038606543 1.1057325e-38
0.045181505 -0.12280498 0.041637082 1.3641317e-38
0.047012046 -0.12280498 0.041637082 1.5486671e-38
0.048744854 -0.12202574 0.044650216 1.3181429e-38
0.050570112 -0.12202574 0.044650216 8.8486028e-39
0.052612599 -0.12358873 0.038606543 7.7426238e-39
0.054448456 -0.12358873 0.038606543 7.9273794e-39
-0.040043153 -0.14991184 -0.055441361 2.3509869e-38
-0.037714973 -0.148077 -0.048394304 2.3509869e-38
-0.035236053 -0.14522041 -0.037423115 2.3049612e-38
-0.033095829 -0.14418359 -0.033440929 2.2773391e-38
-0.030965663 -0.14312203 -0.02936385 2.3049624e-38
-0.029010631 -0.14312203 -0.02936385 2.3049626e-38
-0.026944526 -0.14235483 -0.026417235 2.2957431e-38
-0.024741005 -0.14051737 -0.019360164 2.2956709e-38
-0.022667594 -0.1394823 -0.015384774 2.2957064e-38
-0.020185083 -0.13505147 0.0016327103 2.304961e-38
-0.018163461 -0.1340252 0.0055742464 2.3233636e-38
-0.016183048 -0.13324542 0.0085691409 2.3233639e-38
-0.014294527 -0.13324542 0.0085691409 2.3048905e-38
-0.012304176 -0.13220255 0.012574454 2.3325497e-38
-0.010350022 -0.13140334 0.015643975 2.3509886e-38
-0.008320868 -0.12958528 0.022626659 2.3509883e-38
-0.0063962527 -0.12880091 0.025639078 2.3418045e-38
-0.0044825152 -0.12802102 0.028634449 2.3418045e-38
-0.0025795661 -0.12724553 0.031612892 2.341805e-38
-0.00062721968 -0.12542458 0.038606543 2.341805e-38
0.0012881123 -0.12385099 0.044650216 2.3233302e-38
0.0031475127 -0.123071 0.047645945 2.3509886e-38
0.0049675182 -0.123071 0.047645945 2.3509883e-38
0.0068427064 -0.12125005 0.054639596 2.3508798e-38
0.0086684823 -0.12048493 0.057578225 2.3231841e-38
0.010471076 -0.12048493 0.057578225 2.009682e-38
0.012273667 -0.12048493 0.057578225 1.7975953e-38
0.014076259 -0.12048493 0.057578225 6.9124778e-39
0.015964771 -0.1460029 -0.040428381 3.9611471e-39
0.017931297 -0.14522041 -0.037423115 4.5128915e-39
0.019883003 -0.14418359 -0.033440929 3.8675235e-39
0.021820163 -0.14312203 -0.02936385 3.221438e-39
0.023775194 -0.14312203 -0.02936385 2.9448539e-39
0.02570181 -0.14235483 -0.026417235 3.0370468e-39
0.027571246 -0.14051737 -0.019360164 3.95828e-39
0.029456459 -0.1394823 -0.015384774 4.4196099e-39
0.031133363 -0.13505147 0.0016327103 5.0646121e-39
0.032918509 -0.13324542 0.0085691409 6.4478997e-39
0.034733292 -0.13220255 0.012574454 6.6319266e-39
0.036552899 -0.13140334 0.015643975 8.1070539e-39
0.03820996 -0.12880091 0.025639078 9.2123253e-39
0.039927147 -0.12724553 0.031612892 1.0964044e-38
0.041672185 -0.12618984 0.035667438 1.0594905e-38
0.043433324 -0.12542458 0.038606543 1.0964767e-38
0.045181505 -0.12463553 0.041637082 1.2442055e-38
0.047012046 -0.12463553 0.041637082 1.6222439e-38
0.048744854 -0.12385099 0.044650216 1.4287058e-38
0.050570112 -0.12385099 0.044650216 8.9400796e-39
0.05239537 -0.12385099 0.044650216 7.6497079e-39
-0.037526317 -0.14900111 -0.044334035 2.3509513e-38
-0.035236053 -0.1471896 -0.037423115 2.3418039e-38
-0.033095829 -0.14614578 -0.033440929 2.3049978e-38
-0.030965663 -0.14507706 -0.02936385 2.2866308e-38
-0.029010631 -0.14507706 -0.02936385 2.2774111e-38
-0.026944526 -0.14430468 -0.026417235 2.2865587e-38
-0.024741005 -0.14245488 -0.019360164 2.2773388e-38
-0.022667594 -0.14141284 -0.015384774 2.2865221e-38
-0.020185083 -0.13695215 0.0016327103 2.2957414e-38
-0.01807157 -0.13513394 0.0085691409 2.3141444e-38
-0.016183048 -0.13513394 0.0085691409 2.3233285e-38
-0.014185674 -0.13408406 0.012574454 2.2956712e-38
-0.012304176 -0.13408406 0.012574454 2.314075e-38
-0.010280445 -0.13250901 0.018583318 2.3417691e-38
-0.008320868 -0.13144915 0.022626659 2.3509883e-38
-0.0063358545 -0.12987436 0.028634449 2.3418047e-38
-0.0044276826 -0.12909363 0.031612892 2.3418045e-38
-0.0025120303 -0.12803085 0.035667438 2.332621e-38
-0.00062721968 -0.12726043 0.038606543 2.341805e-38
0.0012881123 -0.12567626 0.044650216 2.3509886e-38
0.0031475127 -0.124891 0.047645945 2.3325494e-38
0.0050054379 -0.12386028 0.051578183 2.3509524e-38
0.0068427064 -0.1230578 0.054639596 2.3508795e-38
0.0086684823 -0.12228753 0.057578225 2.2862336e-38
0.010471076 -0.12228753 0.057578225 1.9267058e-38
0.012273667 -0.12228753 0.057578225 1.6961799e-38
0.014076259 -0.12228753 0.057578225 5.3451493e-39
0.015964771 -0.14797734 -0.040428381 3.685279e-39
0.017931297 -0.1471896 -0.037423115 4.9749459e-39
0.019900458 -0.1471896 -0.037423115 3.9607981e-39
0.021845182 -0.14614578 -0.033440929 3.4987438e-39
0.023775194 -0.14507706 -0.02936385 3.3139966e-39
0.025730224 -0.14507706 -0.02936385 2.9448511e-39
0.027605787 -0.14324932 -0.022390941 3.5902178e-39
0.029456459 -0.14141284 -0.015384774 4.0508274e-39
0.031133363 -0.13695215 0.0016327103 4.6036368e-39
0.032968394 -0.13591899 0.0055742464 6.1713128e-39
0.03480703 -0.13513394 0.0085691409 6.1709485e-39
0.036614791 -0.13408406 0.012574454 7.1850976e-39
0.038429014 -0.13327946 0.015643975 8.0137821e-39
0.039927147 -0.12909363 0.031612892 9.9498903e-39
0.041775268 -0.12909363 0.031612892 1.0133564e-38
0.043433324 -0.12726043 0.038606543 1.0964044e-38
0.045181505 -0.12646608 0.041637082 1.2164026e-38
0.047012046 -0.12646608 0.041637082 1.5668902e-38
0.048842587 -0.12646608 0.041637082 1.4931705e-38
0.050673131 -0.12646608 0.041637082 1.0045706e-38
-0.035236053 -0.14915876 -0.037423115 2.3509883e-38
-0.033095829 -0.14810793 -0.033440929 2.3233652e-38
-0.030965663 -0.1470321 -0.02936385 2.2865581e-38
-0.029010631 -0.1470321 -0.02936385 2.2590425e-38
-0.026792746 -0.1451921 -0.022390941 2.2498585e-38
-0.024741005 -0.14439236 -0.019360164 2.240639e-38
-0.022532657 -0.14230187 -0.011437993 2.2589349e-38
-0.020185083 -0.13885282 0.0016327103 2.2772669e-38
-0.01807157 -0.13702248 0.0085691409 2.2956346e-38
-0.016183048 -0.13702248 0.0085691409 2.3048189e-38
-0.014185674 -0.13596557 0.012574454 2.2771607e-38
-0.012226138 -0.13515557 0.015643975 2.3048194e-38
-0.010280445 -0.13437997 0.018583318 2.3233302e-38
-0.008320868 -0.13331302 0.022626659 2.3417687e-38
-0.0063358545 -0.13172771 0.028634449 2.332621e-38
-0.0044276826 -0.13094176 0.031612892 2.3234012e-38
-0.0024630725 -0.12909628 0.038606543 2.3141819e-38
-0.00058205426 -0.1282966 0.041637082 2.3141819e-38
0.0012881123 -0.1275015 0.044650216 2.3509886e-38
0.0031923279 -0.1256734 0.051578183 2.3233296e-38
0.0050054379 -0.1256734 0.051578183 2.3509521e-38
0.0068658907 -0.12409012 0.057578225 2.3508793e-38
0.0086684823 -0.12409012 0.057578225 2.2216964e-38
0.010484338 -0.12329166 0.060604114 1.8345099e-38
0.012281626 -0.12329166 0.060604114 1.5948003e-38
0.017939201 -0.14995177 -0.040428381 5.4369988e-39
0.019900458 -0.14915876 -0.037423115 4.1459069e-39
0.021845182 -0.14810793 -0.033440929 3.8682466e-39
0.023775194 -0.1470321 -0.02936385 3.960445e-39
0.025730224 -0.1470321 -0.02936385 3.1299613e-39
0.027651673 -0.14625455 -0.026417235 3.774609e-39
0.029456459 -0.14334334 -0.015384774 4.2352186e-39
0.031133363 -0.13885282 0.0016327103 4.2348543e-39
0.032968394 -0.13781275 0.0055742464 6.0791172e-39
0.03480703 -0.13702248 0.0085691409 6.1709485e-39
0.036695551 -0.13702248 0.0085691409 6.9996274e-39
0.038496289 -0.13596557 0.012574454 7.3680497e-39
0.040139854 -0.13331302 0.022626659 9.3959977e-39
0.041927144 -0.1325181 0.025639078 1.0224681e-38
0.043513194 -0.12987186 0.035667438 1.1332107e-38
0.045269176 -0.12909628 0.038606543 1.2071111e-38
0.047012046 -0.1282966 0.041637082 1.4837702e-38
0.048842587 -0.1282966 0.041637082 1.5759668e-38
0.050673131 -0.1282966 0.041637082 1.2994527e-38
-0.030965663 -0.14898713 -0.02936385 2.2773377e-38
-0.028894387 -0.14820443 -0.026417235 2.2589698e-38
-0.026792746 -0.14713491 -0.022390941 2.2497858e-38
-0.024598118 -0.14527388 -0.015384774 2.2497502e-38
-0.022532657 -0.14422549 -0.011437993 2.2497153e-38
-0.020057235 -0.13970654 0.0055742464 2.2588281e-38
-0.01807157 -0.13891099 0.0085691409 2.2679772e-38
-0.016067173 -0.13784705 0.012574454 2.2863448e-38
-0.014102258 -0.13703169 0.015643975 2.2586859e-38
-0.012151413 -0.13625093 0.018583318 2.2863803e-38
-0.010280445 -0.13625093 0.018583318 2.304891e-38
-0.008320868 -0.13517688 0.022626659 2.3233296e-38
-0.0063358545 -0.13358103 0.028634449 2.3233652e-38
-0.0044276826 -0.13278987 0.031612892 2.3049621e-38
-0.0024125949 -0.13012715 0.041637082 2.3049624e-38
-0.00058205426 -0.13012715 0.041637082 2.2957428e-38
0.0013275072 -0.12853102 0.047645945 2.3509886e-38
0.0031923279 -0.12748651 0.051578183 2.314074e-38
0.0050349608 -0.1266733 0.054639596 2.3509521e-38
0.0068658907 -0.12589271 0.057578225 2.3508793e-38
0.0086870529 -0.12508895 0.060604114 2.2032572e-38
0.010484338 -0.12508895 0.060604114 1.7883758e-38
0.012289537 -0.12428986 0.063612364 1.55785e-38
0.014084172 -0.12349547 0.066602968 3.8703737e-39
0.01587094 -0.12349547 0.066602968 3.6856336e-39
0.027651673 -0.14820443 -0.026417235 3.774609e-39
0.029456459 -0.14527388 -0.015384774 4.0515504e-39
0.031178575 -0.14155935 -0.0014009277 3.8664319e-39
0.032968394 -0.13970654 0.0055742464 6.1713128e-39
0.03480703 -0.13891099 0.0085691409 6.4475354e-39
0.036695551 -0.13891099 0.0085691409 7.1840186e-39
0.038496289 -0.13784705 0.012574454 7.3680497e-39
0.040139854 -0.13517688 0.022626659 9.4881933e-39
0.041927144 -0.13437669 0.025639078 1.0593463e-38
0.043623388 -0.13278987 0.031612892 1.2069672e-38
0.045354202 -0.13171287 0.035667438 1.207039e-38
0.047012046 -0.13012715 0.041637082 1.400722e-38
0.048842587 -0.13012715 0.041637082 1.649687e-38
0.050673131 -0.13012715 0.041637082 1.5667477e-38
-0.028735556 -0.14907773 -0.022390941 2.2588616e-38
-0.026678495 -0.14826734 -0.019360164 2.2220552e-38
-0.024598118 -0.14720438 -0.015384774 2.2128002e-38
-0.022427015 -0.14532293 -0.008348207 2.268083e-38
-0.020057235 -0.1416003 0.0055742464 2.2495734e-38
-0.01807157 -0.14079951 0.0085691409 2.2310638e-38
-0.016067173 -0.13972856 0.012574454 2.2956003e-38
-0.014102258 -0.13890781 0.015643975 2.2955644e-38
-0.012151413 -0.13812189 0.018583318 2.2955996e-38
-0.010280445 -0.13812189 0.018583318 2.323258e-38
-0.0082548484 -0.13623528 0.025639078 2.3325492e-38
-0.0063358545 -0.13543437 0.028634449 2.3233652e-38
-0.0044276826 -0.134638 0.031612892 2.3049259e-38
-0.0024125949 -0.13195769 0.041637082 2.3233652e-38
-0.00058205426 -0.13195769 0.041637082 2.350988e-38
0.0013275072 -0.13035102 0.047645945 2.3509883e-38
0.0031923279 -0.1292996 0.051578183 2.350988e-38
0.0050349608 -0.12848105 0.054639596 2.3509879e-38
0.0068658907 -0.12769531 0.057578225 2.2678669e-38
0.0086870529 -0.12688623 0.060604114 2.1110972e-38
0.010484338 -0.12688623 0.060604114 1.7699367e-38
0.012289537 -0.12608187 0.063612364 1.6223869e-38
0.014084172 -0.12528224 0.066602968 3.7781781e-39
0.01587094 -0.12528224 0.066602968 3.8700192e-39
0.029508736 -0.14826734 -0.019360164 3.3139854e-39
0.03132816 -0.14614908 -0.011437993 4.1430188e-39
0.033034049 -0.1426542 0.0016327103 5.7099788e-39
0.034862168 -0.1416003 0.0055742464 5.709613e-39
0.036695551 -0.14079951 0.0085691409 6.0787529e-39
0.038496289 -0.13972856 0.012574454 8.0137821e-39
0.040305134 -0.13890781 0.015643975 9.3967165e-39
0.041927144 -0.13623528 0.025639078 1.1239912e-38
0.043623388 -0.134638 0.031612892 1.1147715e-38
0.045354202 -0.13355388 0.035667438 1.1609049e-38
0.047012046 -0.13195769 0.041637082 1.2807236e-38
0.048842587 -0.13195769 0.041637082 1.5942255e-38
0.050673131 -0.13195769 0.041637082 1.6035538e-38
-0.024456255 -0.14807267 -0.011437993 2.231168e-38
-0.022427015 -0.1472411 -0.008348207 2.2679758e-38
-0.020057235 -0.14349405 0.0055742464 2.2495736e-38
-0.017948672 -0.14161004 0.012574454 2.2310638e-38
-0.016067173 -0.14161004 0.012574454 2.2771614e-38
-0.014102258 -0.14078392 0.015643975 2.2863446e-38
-0.012151413 -0.13999285 0.018583318 2.28638e-38
-0.010184743 -0.13890465 0.022626659 2.314074e-38
-0.0082548484 -0.13809387 0.025639078 2.3417324e-38
-0.0063358545 -0.13728772 0.028634449 2.323365e-38
-0.0042989329 -0.13460387 0.038606543 2.2957064e-38
-0.0024125949 -0.13378824 0.041637082 2.3233652e-38
-0.00053714961 -0.13297729 0.044650216 2.350988e-38
0.0013275072 -0.13217102 0.047645945 2.3509883e-38
0.0031923279 -0.13111271 0.051578183 2.350988e-38
0.0050349608 -0.13028879 0.054639596 2.35088e-38
0.0068658907 -0.1294979 0.057578225 2.1756713e-38
0.0086870529 -0.12868352 0.060604114 2.0464884e-38
0.010484338 -0.12868352 0.060604114 1.6500823e-38
0.012289537 -0.12787388 0.063612364 1.5209717e-38
0.014084172 -0.12706901 0.066602968 4.8841627e-39
