# .PCD v0.7 - Point Cloud Data file format
VERSION 0.7
FIELDS x y z rgb
SIZE 4 4 4 4
TYPE F F F F
COUNT 1 1 1 1
WIDTH 928
HEIGHT 1
VIEWPOINT 0 0 0 1 0 0 0
POINTS 928
DATA ascii
0.010040976 -0.095450163 -0.0068014977 2.3509886e-38
0.011959158 -0.095450163 -0.0068014977 2.3509886e-38
0.01387734 -0.095450163 -0.0068014977 2.3509886e-38
0.015795525 -0.095450163 -0.0068014977 2.3509886e-38
0.017878938 -0.096135467 -0.0098912828 2.3509886e-38
0.019802541 -0.096135467 -0.0098912828 2.3509886e-38
0.021726139 -0.096135467 -0.0098912828 2.3509886e-38
0.023881562 -0.097010851 -0.013838064 2.3509886e-38
0.025812082 -0.097010851 -0.013838064 2.3509886e-38
0.027742602 -0.097010851 -0.013838064 2.3509886e-38
0.029673122 -0.097010851 -0.013838064 2.3509886e-38
0.031865023 -0.097892582 -0.017813455 2.3509886e-38
0.033802517 -0.097892582 -0.017813455 2.3509886e-38
0.03574001 -0.097892582 -0.017813455 2.3509886e-38
0.037677497 -0.097892582 -0.017813455 2.3509886e-38
0.03961499 -0.097892582 -0.017813455 2.3509886e-38
0.041778326 -0.098564804 -0.020844232 2.3509886e-38
0.043721128 -0.098564804 -0.020844232 2.3509886e-38
0.045663927 -0.098564804 -0.020844232 2.3509886e-38
0.047927935 -0.099457815 -0.024870526 2.3509886e-38
0.049877811 -0.099457815 -0.024870526 2.3509886e-38
0.051827673 -0.099457815 -0.024870526 2.350988e-38
0.053777535 -0.099457815 -0.024870526 2.3509873e-38
0.055727396 -0.099457815 -0.024870526 2.3509867e-38
0.057677258 -0.099457815 -0.024870526 2.3509869e-38
0.059893195 -0.10011137 -0.027817141 2.3509863e-38
0.061848227 -0.10011137 -0.027817141 2.3508414e-38
0.064185694 -0.10101564 -0.031894218 2.2863038e-38
0.066528395 -0.10189888 -0.035876404 2.2586087e-38
0.068497568 -0.10189888 -0.035876404 2.2770475e-38
0.070764437 -0.10256544 -0.038881671 2.3508406e-38
0.072738871 -0.10256544 -0.038881671 2.3509853e-38
0.07471329 -0.10256544 -0.038881671 2.3509146e-38
0.076687723 -0.10256544 -0.038881671 2.3507349e-38
0.078343362 -0.10189888 -0.035876404 2.350483e-38
0.080312535 -0.10189888 -0.035876404 2.3319714e-38
0.082281694 -0.10189888 -0.035876404 2.1567993e-38
0.084585443 -0.10256544 -0.038881671 9.6762027e-39
0.086559877 -0.10256544 -0.038881671 2.7550649e-40
0.08853431 -0.10256544 -0.038881671 9.8090893e-45
0.090508729 -0.10256544 -0.038881671 9.8090893e-45
-0.090836704 -0.093586475 0.010115851 3.1342997e-39
-0.088948175 -0.093586475 0.010115851 4.6079864e-39
-0.087059662 -0.093586475 0.010115851 7.8330258e-39
-0.085171133 -0.093586475 0.010115851 1.1703433e-38
-0.083282605 -0.093586475 0.010115851 1.1056976e-38
-0.081243098 -0.092691094 0.014121164 8.9361097e-39
-0.079361603 -0.092691094 0.014121164 1.7418827e-38
-0.077375159 -0.092004895 0.017190684 2.350554e-38
-0.075272545 -0.090443924 0.024173368 2.3506984e-38
-0.073408671 -0.090443924 0.024173368 2.3509511e-38
-0.071544796 -0.090443924 0.024173368 2.3323685e-38
-0.069680929 -0.090443924 0.024173368 2.3509883e-38
-0.067817047 -0.090443924 0.024173368 2.3509886e-38
-0.06595318 -0.090443924 0.024173368 2.3509886e-38
-0.064177915 -0.091347814 0.020130027 2.3509886e-38
-0.062225427 -0.090443924 0.024173368 2.3509886e-38
-0.060361553 -0.090443924 0.024173368 2.3509886e-38
-0.058565028 -0.091347814 0.020130027 2.3509886e-38
-0.056694064 -0.091347814 0.020130027 2.3509886e-38
-0.054823104 -0.091347814 0.020130027 2.3509886e-38
-0.052952137 -0.091347814 0.020130027 2.3509886e-38
-0.051081177 -0.091347814 0.020130027 2.3509886e-38
-0.049210213 -0.091347814 0.020130027 2.3509886e-38
-0.047339249 -0.091347814 0.020130027 2.3509886e-38
-0.045481171 -0.092004895 0.017190684 2.3509886e-38
-0.043605052 -0.092004895 0.017190684 2.3509886e-38
-0.041728936 -0.092004895 0.017190684 2.3509886e-38
-0.03985282 -0.092004895 0.017190684 2.3509886e-38
-0.037976705 -0.092004895 0.017190684 2.3509886e-38
-0.036069576 -0.093586475 0.010115851 2.3509886e-38
-0.034181051 -0.093586475 0.010115851 2.3509886e-38
-0.03229253 -0.093586475 0.010115851 2.3509886e-38
-0.030404011 -0.093586475 0.010115851 2.3509886e-38
-0.028481357 -0.094255984 0.0071209553 2.3509886e-38
-0.026587585 -0.094255984 0.0071209553 2.3509886e-38
-0.024693813 -0.094255984 0.0071209553 2.3509886e-38
-0.022800039 -0.094255984 0.0071209553 2.3509886e-38
-0.020906268 -0.094255984 0.0071209553 2.3509886e-38
-0.019012496 -0.094255984 0.0071209553 2.3509886e-38
-0.017118722 -0.094255984 0.0071209553 2.3509886e-38
-0.01522495 -0.094255984 0.0071209553 2.3509886e-38
-0.013331179 -0.094255984 0.0071209553 2.3509886e-38
-0.011330288 -0.095137119 0.0031794196 2.3509886e-38
-0.0094296038 -0.095137119 0.0031794196 2.3509886e-38
-0.0075289197 -0.095137119 0.0031794196 2.3509886e-38
-0.0056282394 -0.095137119 0.0031794196 2.3509886e-38
-0.0036238357 -0.095815286 0.00014578147 2.3509886e-38
-0.0017178319 -0.095815286 0.00014578147 2.3509886e-38
0.00029873103 -0.096470937 -0.0027871246 2.3509886e-38
0.0022098757 -0.096470937 -0.0027871246 2.3509886e-38
0.0041210204 -0.096470937 -0.0027871246 2.3509886e-38
0.0060321651 -0.096470937 -0.0027871246 2.3509886e-38
0.0081227906 -0.097368345 -0.0068014977 2.3509886e-38
0.0098544545 -0.096470937 -0.0027871246 2.3509886e-38
0.011765599 -0.096470937 -0.0027871246 2.3509886e-38
0.01387734 -0.097368345 -0.0068014977 2.3509886e-38
0.015795525 -0.097368345 -0.0068014977 2.3509886e-38
0.017713707 -0.097368345 -0.0068014977 2.3509886e-38
0.019802541 -0.098059073 -0.0098912828 2.3509886e-38
0.021726139 -0.098059073 -0.0098912828 2.3509886e-38
0.023649737 -0.098059073 -0.0098912828 2.3509886e-38
0.025573343 -0.098059073 -0.0098912828 2.3509886e-38
0.027742602 -0.098941371 -0.013838064 2.3509886e-38
0.029673122 -0.098941371 -0.013838064 2.3509886e-38
0.031603642 -0.098941371 -0.013838064 2.3509886e-38
0.033534162 -0.098941371 -0.013838064 2.3509886e-38
0.035464682 -0.098941371 -0.013838064 2.3509886e-38
0.037395209 -0.098941371 -0.013838064 2.3509886e-38
0.03961499 -0.099830076 -0.017813455 2.3509886e-38
0.041552477 -0.099830076 -0.017813455 2.3509886e-38
0.043489967 -0.099830076 -0.017813455 2.3509886e-38
0.04542746 -0.099830076 -0.017813455 2.3509886e-38
0.047927935 -0.10140768 -0.024870526 2.3509886e-38
0.049877811 -0.10140768 -0.024870526 2.3509886e-38
0.051827673 -0.10140768 -0.024870526 2.350988e-38
0.053777535 -0.10140768 -0.024870526 2.3509867e-38
0.055727396 -0.10140768 -0.024870526 2.3509865e-38
0.057677258 -0.10140768 -0.024870526 2.3509869e-38
0.059627134 -0.10140768 -0.024870526 2.3509869e-38
0.061848227 -0.1020664 -0.027817141 2.3509142e-38
0.064185694 -0.10297783 -0.031894218 2.2771571e-38
0.066147879 -0.10297783 -0.031894218 2.2863035e-38
0.068497568 -0.10386805 -0.035876404 2.3324371e-38
0.070466727 -0.10386805 -0.035876404 2.3509851e-38
0.072435886 -0.10386805 -0.035876404 2.3509859e-38
0.074405044 -0.10386805 -0.035876404 2.3507711e-38
0.076687723 -0.10453986 -0.038881671 2.3508437e-38
0.078662157 -0.10453986 -0.038881671 2.3508438e-38
0.080636591 -0.10453986 -0.038881671 2.3508072e-38
0.082611024 -0.10453986 -0.038881671 2.2767616e-38
0.084585443 -0.10453986 -0.038881671 1.2165485e-38
0.086559877 -0.10453986 -0.038881671 9.197983e-40
0.08853431 -0.10453986 -0.038881671 5.5210599e-40
0.090508729 -0.10453986 -0.038881671 3.6771473e-40
-0.092725217 -0.095475003 0.010115851 5.2555166e-39
-0.090836704 -0.095475003 0.010115851 4.6094284e-39
-0.088948175 -0.095475003 0.010115851 4.7927336e-39
-0.087059662 -0.095475003 0.010115851 8.2018069e-39
-0.085171133 -0.095475003 0.010115851 1.0320499e-38
-0.083282605 -0.095475003 0.010115851 1.1056976e-38
-0.081394091 -0.095475003 0.010115851 1.1056612e-38
-0.079361603 -0.094572589 0.014121164 1.2532458e-38
-0.077375159 -0.093881011 0.017190684 2.2028971e-38
-0.075272545 -0.092307791 0.024173368 2.3509143e-38
-0.073408671 -0.092307791 0.024173368 2.3509507e-38
-0.071544796 -0.092307791 0.024173368 2.3509873e-38
-0.069680929 -0.092307791 0.024173368 2.350988e-38
-0.067817047 -0.092307791 0.024173368 2.3509886e-38
-0.06595318 -0.092307791 0.024173368 2.3509886e-38
-0.064177915 -0.093218774 0.020130027 2.3509886e-38
-0.062225427 -0.092307791 0.024173368 2.3509886e-38
-0.060361553 -0.092307791 0.024173368 2.3509886e-38
-0.058497678 -0.092307791 0.024173368 2.3509886e-38
-0.056694064 -0.093218774 0.020130027 2.3509886e-38
-0.054823104 -0.093218774 0.020130027 2.3509886e-38
-0.052952137 -0.093218774 0.020130027 2.3509886e-38
-0.051081177 -0.093218774 0.020130027 2.3509886e-38
-0.049210213 -0.093218774 0.020130027 2.3509886e-38
-0.047339249 -0.093218774 0.020130027 2.3509886e-38
-0.045481171 -0.093881011 0.017190684 2.3509886e-38
-0.043605052 -0.093881011 0.017190684 2.3509886e-38
-0.041728936 -0.093881011 0.017190684 2.3509886e-38
-0.039850131 -0.094572589 0.014121164 2.3509886e-38
-0.037968628 -0.094572589 0.014121164 2.3509886e-38
-0.036069576 -0.095475003 0.010115851 2.3509886e-38
-0.034181051 -0.095475003 0.010115851 2.3509886e-38
-0.032268904 -0.096149758 0.0071209553 2.3509886e-38
-0.03037513 -0.096149758 0.0071209553 2.3509886e-38
-0.028481357 -0.096149758 0.0071209553 2.3509886e-38
-0.026587585 -0.096149758 0.0071209553 2.3509886e-38
-0.024693813 -0.096149758 0.0071209553 2.3509886e-38
-0.022800039 -0.096149758 0.0071209553 2.3509886e-38
-0.020906268 -0.096149758 0.0071209553 2.3509886e-38
-0.019012496 -0.096149758 0.0071209553 2.3509886e-38
-0.017118722 -0.096149758 0.0071209553 2.3509886e-38
-0.01522495 -0.096149758 0.0071209553 2.3509886e-38
-0.013331179 -0.096149758 0.0071209553 2.3509886e-38
-0.011330288 -0.097037792 0.0031794196 2.3509886e-38
-0.0094296038 -0.097037792 0.0031794196 2.3509886e-38
-0.0075289197 -0.097037792 0.0031794196 2.3509886e-38
-0.0056282394 -0.097037792 0.0031794196 2.3509886e-38
-0.0036238357 -0.097721294 0.00014578147 2.3509886e-38
-0.0017178319 -0.097721294 0.00014578147 2.3509886e-38
0.00018817186 -0.097721294 0.00014578147 2.3509886e-38
0.0020941719 -0.097721294 0.00014578147 2.3509886e-38
0.0041210204 -0.098382086 -0.0027871246 2.3509886e-38
0.0060321651 -0.098382086 -0.0027871246 2.3509886e-38
0.0081227906 -0.099286526 -0.0068014977 2.3509886e-38
0.0098544545 -0.098382086 -0.0027871246 2.3509886e-38
0.011765599 -0.098382086 -0.0027871246 2.3509886e-38
0.01387734 -0.099286526 -0.0068014977 2.3509886e-38
0.015795525 -0.099286526 -0.0068014977 2.3509886e-38
0.017713707 -0.099286526 -0.0068014977 2.3509886e-38
0.019631892 -0.099286526 -0.0068014977 2.3509886e-38
0.021726139 -0.099982664 -0.0098912828 2.3509886e-38
0.023649737 -0.099982664 -0.0098912828 2.3509886e-38
0.025573343 -0.099982664 -0.0098912828 2.3509886e-38
0.027742602 -0.10087189 -0.013838064 2.3509886e-38
0.029673122 -0.10087189 -0.013838064 2.3509886e-38
0.031603642 -0.10087189 -0.013838064 2.3509886e-38
0.033534162 -0.10087189 -0.013838064 2.3509886e-38
0.035464682 -0.10087189 -0.013838064 2.3509886e-38
0.037395209 -0.10087189 -0.013838064 2.3509886e-38
0.03961499 -0.10176755 -0.017813455 2.3509886e-38
0.041552477 -0.10176755 -0.017813455 2.3509886e-38
0.043489967 -0.10176755 -0.017813455 2.3509886e-38
0.04542746 -0.10176755 -0.017813455 2.3509886e-38
0.04760674 -0.1024504 -0.020844232 2.3509886e-38
0.049549539 -0.1024504 -0.020844232 2.3509886e-38
0.051492352 -0.1024504 -0.020844232 2.350988e-38
0.053777535 -0.10335754 -0.024870526 2.3418032e-38
0.055377964 -0.1024504 -0.020844232 2.3418032e-38
0.057320762 -0.1024504 -0.020844232 2.3325847e-38
0.059627134 -0.10335754 -0.024870526 2.3325494e-38
0.061576996 -0.10335754 -0.024870526 2.3233296e-38
0.063803256 -0.10402142 -0.027817141 2.3325843e-38
0.065758288 -0.10402142 -0.027817141 2.3418022e-38
0.068110049 -0.10494001 -0.031894218 2.3418015e-38
0.070466727 -0.10583721 -0.035876404 2.3509853e-38
0.072435886 -0.10583721 -0.035876404 2.350986e-38
0.074405044 -0.10583721 -0.035876404 2.3509517e-38
0.076687723 -0.10651429 -0.038881671 2.3507723e-38
0.078662157 -0.10651429 -0.038881671 2.3508442e-38
0.080312535 -0.10583721 -0.035876404 2.3509153e-38
0.082281694 -0.10583721 -0.035876404 2.3507337e-38
0.084250852 -0.10583721 -0.035876404 1.3457297e-38
0.086220011 -0.10583721 -0.035876404 5.3441067e-39
0.08853431 -0.10651429 -0.038881671 1.1042008e-39
0.090508729 -0.10651429 -0.038881671 2.3949396e-39
0.092483163 -0.10651429 -0.038881671 1.6573745e-39
-0.092725217 -0.097363517 0.010115851 6.3618614e-39
-0.090836704 -0.097363517 0.010115851 6.3615013e-39
-0.088948175 -0.097363517 0.010115851 6.3600565e-39
-0.087059662 -0.097363517 0.010115851 9.2170336e-39
-0.085171133 -0.097363517 0.010115851 1.0597086e-38
-0.083282605 -0.097363517 0.010115851 1.1149891e-38
-0.081394091 -0.097363517 0.010115851 1.087294e-38
-0.079361603 -0.096454084 0.014121164 1.207148e-38
-0.077375159 -0.095757127 0.017190684 2.0830428e-38
-0.075272545 -0.094171658 0.024173368 2.3508783e-38
-0.073408671 -0.094171658 0.024173368 2.3508787e-38
-0.071544796 -0.094171658 0.024173368 2.350915e-38
-0.069680929 -0.094171658 0.024173368 2.350988e-38
-0.067817047 -0.094171658 0.024173368 2.3509886e-38
-0.06595318 -0.094171658 0.024173368 2.3509886e-38
-0.064177915 -0.095089734 0.020130027 2.3509886e-38
-0.062225427 -0.094171658 0.024173368 2.3509886e-38
-0.060361553 -0.094171658 0.024173368 2.3509886e-38
-0.058497678 -0.094171658 0.024173368 2.3509886e-38
-0.056633804 -0.094171658 0.024173368 2.3509886e-38
-0.054769933 -0.094171658 0.024173368 2.3509886e-38
-0.052906059 -0.094171658 0.024173368 2.3509886e-38
-0.051042184 -0.094171658 0.024173368 2.3509886e-38
-0.049210213 -0.095089734 0.020130027 2.3509886e-38
-0.047339249 -0.095089734 0.020130027 2.3509886e-38
-0.045468286 -0.095089734 0.020130027 2.3509886e-38
-0.043605052 -0.095757127 0.017190684 2.3509886e-38
-0.041728936 -0.095757127 0.017190684 2.3509886e-38
-0.03985282 -0.095757127 0.017190684 2.3509886e-38
-0.037976705 -0.095757127 0.017190684 2.3509886e-38
-0.036069576 -0.097363517 0.010115851 2.3509886e-38
-0.034181051 -0.097363517 0.010115851 2.3509886e-38
-0.032268904 -0.098043531 0.0071209553 2.3509886e-38
-0.03037513 -0.098043531 0.0071209553 2.3509886e-38
-0.028481357 -0.098043531 0.0071209553 2.3509886e-38
-0.026587585 -0.098043531 0.0071209553 2.3509886e-38
-0.024693813 -0.098043531 0.0071209553 2.3509886e-38
-0.022800039 -0.098043531 0.0071209553 2.3509886e-38
-0.020906268 -0.098043531 0.0071209553 2.3509886e-38
-0.019012496 -0.098043531 0.0071209553 2.3509886e-38
-0.017118722 -0.098043531 0.0071209553 2.3509886e-38
-0.01522495 -0.098043531 0.0071209553 2.3509886e-38
-0.01323097 -0.09893848 0.0031794196 2.3509886e-38
-0.011330288 -0.09893848 0.0031794196 2.3509886e-38
-0.0094296038 -0.09893848 0.0031794196 2.3509886e-38
-0.0075289197 -0.09893848 0.0031794196 2.3509886e-38
-0.0056282394 -0.09893848 0.0031794196 2.3509886e-38
-0.0036238357 -0.099627286 0.00014578147 2.3509886e-38
-0.0017178319 -0.099627286 0.00014578147 2.3509886e-38
0.00018817186 -0.099627286 0.00014578147 2.3509886e-38
0.0020941719 -0.099627286 0.00014578147 2.3509886e-38
0.0041210204 -0.10029322 -0.0027871246 2.3509886e-38
0.0060321651 -0.10029322 -0.0027871246 2.3509886e-38
0.0081227906 -0.10120471 -0.0068014977 2.3509886e-38
0.010040976 -0.10120471 -0.0068014977 2.3509886e-38
0.011959158 -0.10120471 -0.0068014977 2.3509886e-38
0.01387734 -0.10120471 -0.0068014977 2.3509886e-38
0.015795525 -0.10120471 -0.0068014977 2.3509886e-38
0.017713707 -0.10120471 -0.0068014977 2.3509886e-38
0.019631892 -0.10120471 -0.0068014977 2.3509886e-38
0.021550074 -0.10120471 -0.0068014977 2.3509886e-38
0.023649737 -0.10190627 -0.0098912828 2.3509886e-38
0.025573343 -0.10190627 -0.0098912828 2.3509886e-38
0.027496941 -0.10190627 -0.0098912828 2.3509886e-38
0.02942054 -0.10190627 -0.0098912828 2.3509886e-38
0.031603642 -0.10280241 -0.013838064 2.3509886e-38
0.033534162 -0.10280241 -0.013838064 2.3509886e-38
0.035464682 -0.10280241 -0.013838064 2.3509886e-38
0.037395209 -0.10280241 -0.013838064 2.3509886e-38
0.03961499 -0.10370506 -0.017813455 2.3509886e-38
0.041552477 -0.10370506 -0.017813455 2.3509886e-38
0.043489967 -0.10370506 -0.017813455 2.3509886e-38
0.04542746 -0.10370506 -0.017813455 2.3509886e-38
0.04760674 -0.1043932 -0.020844232 2.3509886e-38
0.049549539 -0.1043932 -0.020844232 2.3509886e-38
0.051492352 -0.1043932 -0.020844232 2.350988e-38
0.053777535 -0.10530742 -0.024870526 2.3418035e-38
0.055377964 -0.1043932 -0.020844232 2.3418038e-38
0.057320762 -0.1043932 -0.020844232 2.341805e-38
0.059627134 -0.10530742 -0.024870526 2.341805e-38
0.061576996 -0.10530742 -0.024870526 2.3233662e-38
0.063803256 -0.10597645 -0.027817141 2.3049624e-38
0.065758288 -0.10597645 -0.027817141 2.2957412e-38
0.068110049 -0.1069022 -0.031894218 2.2773372e-38
0.070466727 -0.10780637 -0.035876404 2.3418021e-38
0.072435886 -0.10780637 -0.035876404 2.350986e-38
0.074405044 -0.10780637 -0.035876404 2.350952e-38
0.076374203 -0.10780637 -0.035876404 2.3508807e-38
0.078343362 -0.10780637 -0.035876404 2.3508804e-38
0.080312535 -0.10780637 -0.035876404 2.3509153e-38
0.082281694 -0.10780637 -0.035876404 2.3230391e-38
0.084250852 -0.10780637 -0.035876404 1.3918275e-38
0.086220011 -0.10780637 -0.035876404 7.3727665e-39
0.08853431 -0.10848872 -0.038881671 2.0257941e-39
0.090508729 -0.10848872 -0.038881671 3.2243373e-39
0.092483163 -0.10848872 -0.038881671 2.947749e-39
-0.092869624 -0.099937305 0.0071209553 6.5458925e-39
-0.090975851 -0.099937305 0.0071209553 6.7295621e-39
-0.088948175 -0.099252045 0.010115851 6.8210347e-39
-0.087059662 -0.099252045 0.010115851 1.0046794e-38
-0.085171133 -0.099252045 0.010115851 1.0781477e-38
-0.083282605 -0.099252045 0.010115851 1.1057695e-38
-0.081394091 -0.099252045 0.010115851 1.0595995e-38
-0.079361603 -0.098335579 0.014121164 1.1242082e-38
-0.07713642 -0.09603554 0.024173368 1.8618813e-38
-0.075272545 -0.09603554 0.024173368 2.3507701e-38
-0.073316239 -0.095346272 0.027185787 2.3508786e-38
-0.071457654 -0.095346272 0.027185787 2.3509153e-38
-0.069680929 -0.09603554 0.024173368 2.350988e-38
-0.067817047 -0.09603554 0.024173368 2.3509886e-38
-0.06595318 -0.09603554 0.024173368 2.3509886e-38
-0.064089298 -0.09603554 0.024173368 2.3509886e-38
-0.062225427 -0.09603554 0.024173368 2.3509886e-38
-0.060361553 -0.09603554 0.024173368 2.3509886e-38
-0.058497678 -0.09603554 0.024173368 2.3509886e-38
-0.056633804 -0.09603554 0.024173368 2.3509886e-38
-0.054769933 -0.09603554 0.024173368 2.3509886e-38
-0.052906059 -0.09603554 0.024173368 2.3509886e-38
-0.051042184 -0.09603554 0.024173368 2.3509886e-38
-0.04917831 -0.09603554 0.024173368 2.3509886e-38
-0.047339249 -0.096960694 0.020130027 2.3509886e-38
-0.045468286 -0.096960694 0.020130027 2.3509886e-38
-0.043597326 -0.096960694 0.020130027 2.3509886e-38
-0.041726358 -0.096960694 0.020130027 2.3509886e-38
-0.03985282 -0.097633243 0.017190684 2.3509886e-38
-0.037976705 -0.097633243 0.017190684 2.3509886e-38
-0.036069576 -0.099252045 0.010115851 2.3509886e-38
-0.034181051 -0.099252045 0.010115851 2.3509886e-38
-0.03229253 -0.099252045 0.010115851 2.3509886e-38
-0.03037513 -0.099937305 0.0071209553 2.3509886e-38
-0.028481357 -0.099937305 0.0071209553 2.3509886e-38
-0.026587585 -0.099937305 0.0071209553 2.3509886e-38
-0.024693813 -0.099937305 0.0071209553 2.3509886e-38
-0.022800039 -0.099937305 0.0071209553 2.3509886e-38
-0.020906268 -0.099937305 0.0071209553 2.3509886e-38
-0.019012496 -0.099937305 0.0071209553 2.3509886e-38
-0.017118722 -0.099937305 0.0071209553 2.3509886e-38
-0.01522495 -0.099937305 0.0071209553 2.3509886e-38
-0.01323097 -0.10083917 0.0031794196 2.3509886e-38
-0.011330288 -0.10083917 0.0031794196 2.3509886e-38
-0.0094296038 -0.10083917 0.0031794196 2.3509886e-38
-0.0075289197 -0.10083917 0.0031794196 2.3509886e-38
-0.0056282394 -0.10083917 0.0031794196 2.3509886e-38
-0.0036238357 -0.10153329 0.00014578147 2.3509886e-38
-0.0017178319 -0.10153329 0.00014578147 2.3509886e-38
0.00018817186 -0.10153329 0.00014578147 2.3509886e-38
0.0020941719 -0.10153329 0.00014578147 2.3509886e-38
0.0041210204 -0.10220437 -0.0027871246 2.3509886e-38
0.0060321651 -0.10220437 -0.0027871246 2.3509886e-38
0.0081227906 -0.1031229 -0.0068014977 2.3509886e-38
0.010040976 -0.1031229 -0.0068014977 2.3509886e-38
0.011959158 -0.1031229 -0.0068014977 2.3509886e-38
0.01387734 -0.1031229 -0.0068014977 2.3509886e-38
0.015795525 -0.1031229 -0.0068014977 2.3509886e-38
0.017713707 -0.1031229 -0.0068014977 2.3509886e-38
0.019631892 -0.1031229 -0.0068014977 2.3509886e-38
0.021550074 -0.1031229 -0.0068014977 2.3509886e-38
0.023468256 -0.1031229 -0.0068014977 2.3509886e-38
0.025573343 -0.10382988 -0.0098912828 2.3509886e-38
0.027496941 -0.10382988 -0.0098912828 2.3509886e-38
0.02942054 -0.10382988 -0.0098912828 2.3509886e-38
0.031344146 -0.10382988 -0.0098912828 2.3509886e-38
0.033534162 -0.10473295 -0.013838064 2.3509886e-38
0.035464682 -0.10473295 -0.013838064 2.3509886e-38
0.037395209 -0.10473295 -0.013838064 2.3509886e-38
0.039325729 -0.10473295 -0.013838064 2.3509886e-38
0.041552477 -0.10564254 -0.017813455 2.3509886e-38
0.043489967 -0.10564254 -0.017813455 2.3509886e-38
0.04542746 -0.10564254 -0.017813455 2.3509886e-38
0.04760674 -0.10633601 -0.020844232 2.3509886e-38
0.049549539 -0.10633601 -0.020844232 2.3509886e-38
0.051492352 -0.10633601 -0.020844232 2.3509883e-38
0.053435151 -0.10633601 -0.020844232 2.3418043e-38
0.055377964 -0.10633601 -0.020844232 2.3418045e-38
0.057320762 -0.10633601 -0.020844232 2.341805e-38
0.059627134 -0.10725726 -0.024870526 2.341805e-38
0.061576996 -0.10725726 -0.024870526 2.3509527e-38
0.063803256 -0.10793148 -0.027817141 2.3509883e-38
0.065758288 -0.10793148 -0.027817141 2.3509872e-38
0.06771332 -0.10793148 -0.027817141 2.3325832e-38
0.070072234 -0.10886435 -0.031894218 2.3509863e-38
0.072034419 -0.10886435 -0.031894218 2.3509504e-38
0.073996589 -0.10886435 -0.031894218 2.3508797e-38
0.076374203 -0.10977553 -0.035876404 2.3509161e-38
0.077920943 -0.10886435 -0.031894218 2.3507722e-38
0.079883128 -0.10886435 -0.031894218 2.3506992e-38
0.082281694 -0.10977553 -0.035876404 2.295345e-38
0.083807483 -0.10886435 -0.031894218 1.5301931e-38
0.085769668 -0.10886435 -0.031894218 9.9542428e-39
0.08818917 -0.10977553 -0.035876404 2.5793196e-39
0.090508729 -0.11046316 -0.038881671 3.5012759e-39
0.092483163 -0.11046316 -0.038881671 3.8700585e-39
0.094457597 -0.11046316 -0.038881671 3.3176035e-39
-0.090975851 -0.10183108 0.0071209553 5.3466277e-39
-0.089082077 -0.10183108 0.0071209553 6.0831067e-39
-0.087059662 -0.10114056 0.010115851 1.0138271e-38
-0.085171133 -0.10114056 0.010115851 1.0689999e-38
-0.083400756 -0.10183108 0.0071209553 1.0873304e-38
-0.081394091 -0.10114056 0.010115851 1.0319409e-38
-0.079361603 -0.10021709 0.014121164 1.0596714e-38
-0.07713642 -0.097899407 0.024173368 1.6406118e-38
-0.075272545 -0.097899407 0.024173368 2.3507704e-38
-0.073316239 -0.097204864 0.027185787 2.3509869e-38
-0.071457654 -0.097204864 0.027185787 2.3509873e-38
-0.069680929 -0.097899407 0.024173368 2.350988e-38
-0.067817047 -0.097899407 0.024173368 2.3509886e-38
-0.06595318 -0.097899407 0.024173368 2.3509886e-38
-0.064089298 -0.097899407 0.024173368 2.3509886e-38
-0.062225427 -0.097899407 0.024173368 2.3509886e-38
-0.060306095 -0.097204864 0.027185787 2.3509886e-38
-0.058447503 -0.097204864 0.027185787 2.3509886e-38
-0.056633804 -0.097899407 0.024173368 2.3509886e-38
-0.054769933 -0.097899407 0.024173368 2.3509886e-38
-0.052906059 -0.097899407 0.024173368 2.3509886e-38
-0.051042184 -0.097899407 0.024173368 2.3509886e-38
-0.04917831 -0.097899407 0.024173368 2.3509886e-38
-0.047339249 -0.098831654 0.020130027 2.3509886e-38
-0.045468286 -0.098831654 0.020130027 2.3509886e-38
-0.043597326 -0.098831654 0.020130027 2.3509886e-38
-0.041726358 -0.098831654 0.020130027 2.3509886e-38
-0.039855398 -0.098831654 0.020130027 2.3509886e-38
-0.037976705 -0.099509358 0.017190684 2.3509886e-38
-0.036087133 -0.10021709 0.014121164 2.3509886e-38
-0.03420563 -0.10021709 0.014121164 2.3509886e-38
-0.03229253 -0.10114056 0.010115851 2.3509886e-38
-0.03037513 -0.10183108 0.0071209553 2.3509886e-38
-0.028481357 -0.10183108 0.0071209553 2.3509886e-38
-0.026587585 -0.10183108 0.0071209553 2.3509886e-38
-0.024693813 -0.10183108 0.0071209553 2.3509886e-38
-0.022800039 -0.10183108 0.0071209553 2.3509886e-38
-0.020961404 -0.10114056 0.010115851 2.3509886e-38
-0.019072883 -0.10114056 0.010115851 2.3509886e-38
-0.01718436 -0.10114056 0.010115851 2.3509886e-38
-0.01522495 -0.10183108 0.0071209553 2.3509886e-38
-0.013331179 -0.10183108 0.0071209553 2.3509886e-38
-0.011437405 -0.10183108 0.0071209553 2.3509886e-38
-0.0095436331 -0.10183108 0.0071209553 2.3509886e-38
-0.0076498613 -0.10183108 0.0071209553 2.3509886e-38
-0.0057560876 -0.10183108 0.0071209553 2.3509886e-38
-0.0037275553 -0.10273984 0.0031794196 2.3509886e-38
-0.0018268712 -0.10273984 0.0031794196 2.3509886e-38
7.3812902e-05 -0.10273984 0.0031794196 2.3509886e-38
0.0020941719 -0.10343929 0.00014578147 2.3509886e-38
0.0041210204 -0.1041155 -0.0027871246 2.3509886e-38
0.0060321651 -0.1041155 -0.0027871246 2.3509886e-38
0.0079433098 -0.1041155 -0.0027871246 2.3509886e-38
0.0098544545 -0.1041155 -0.0027871246 2.3509886e-38
0.011959158 -0.10504107 -0.0068014977 2.3509886e-38
0.01387734 -0.10504107 -0.0068014977 2.3509886e-38
0.015795525 -0.10504107 -0.0068014977 2.3509886e-38
0.017713707 -0.10504107 -0.0068014977 2.3509886e-38
0.019631892 -0.10504107 -0.0068014977 2.3509886e-38
0.021550074 -0.10504107 -0.0068014977 2.3509886e-38
0.023468256 -0.10504107 -0.0068014977 2.3509886e-38
0.025386438 -0.10504107 -0.0068014977 2.3509886e-38
0.027496941 -0.10575347 -0.0098912828 2.3509886e-38
0.02942054 -0.10575347 -0.0098912828 2.3509886e-38
0.031344146 -0.10575347 -0.0098912828 2.3509886e-38
0.033267744 -0.10575347 -0.0098912828 2.3509886e-38
0.035464682 -0.10666345 -0.013838064 2.3509886e-38
0.037395209 -0.10666345 -0.013838064 2.3509886e-38
0.039325729 -0.10666345 -0.013838064 2.3509886e-38
0.041552477 -0.10758002 -0.017813455 2.3509886e-38
0.043489967 -0.10758002 -0.017813455 2.3509886e-38
0.04542746 -0.10758002 -0.017813455 2.3509886e-38
0.04760674 -0.10827883 -0.020844232 2.3509886e-38
0.049549539 -0.10827883 -0.020844232 2.3509886e-38
0.051492352 -0.10827883 -0.020844232 2.3509886e-38
0.053435151 -0.10827883 -0.020844232 2.3326213e-38
0.055377964 -0.10827883 -0.020844232 2.3326213e-38
0.057320762 -0.10827883 -0.020844232 2.341805e-38
0.059627134 -0.10920714 -0.024870526 2.341805e-38
0.061576996 -0.10920714 -0.024870526 2.3509886e-38
0.063526854 -0.10920714 -0.024870526 2.350988e-38
0.065476716 -0.10920714 -0.024870526 2.3509876e-38
0.06771332 -0.10988651 -0.027817141 2.350987e-38
0.070072234 -0.11082654 -0.031894218 2.2679386e-38
0.072034419 -0.11082654 -0.031894218 2.2863059e-38
0.073996589 -0.11082654 -0.031894218 2.3138568e-38
0.075958773 -0.11082654 -0.031894218 2.3230045e-38
0.077920943 -0.11082654 -0.031894218 2.2861262e-38
0.079883128 -0.11082654 -0.031894218 2.3506989e-38
0.081845313 -0.11082654 -0.031894218 2.2768702e-38
0.083807483 -0.11082654 -0.031894218 1.6407926e-38
0.085769668 -0.11082654 -0.031894218 1.2443881e-38
0.08818917 -0.11174469 -0.035876404 2.8562597e-39
0.090158328 -0.11174469 -0.035876404 3.5016291e-39
0.092127487 -0.11174469 -0.035876404 4.3313897e-39
-0.089082077 -0.10372485 0.0071209553 6.0831067e-39
-0.087188303 -0.10372485 0.0071209553 1.0322662e-38
-0.08529453 -0.10372485 0.0071209553 1.1058781e-38
-0.083400756 -0.10372485 0.0071209553 1.096622e-38
-0.081394091 -0.10302909 0.010115851 1.0320127e-38
-0.079361603 -0.10209858 0.014121164 1.0044619e-38
-0.077375159 -0.10138547 0.017190684 1.4193786e-38
-0.075272545 -0.099763289 0.024173368 2.3507707e-38
-0.073408671 -0.099763289 0.024173368 2.350987e-38
-0.071544796 -0.099763289 0.024173368 2.3509876e-38
-0.069680929 -0.099763289 0.024173368 2.3509883e-38
-0.067817047 -0.099763289 0.024173368 2.3509886e-38
-0.06595318 -0.099763289 0.024173368 2.3509886e-38
-0.064089298 -0.099763289 0.024173368 2.3509886e-38
-0.062225427 -0.099763289 0.024173368 2.3509886e-38
-0.060306095 -0.099063456 0.027185787 2.3509886e-38
-0.058447503 -0.099063456 0.027185787 2.3509886e-38
-0.056633804 -0.099763289 0.024173368 2.3509886e-38
-0.054769933 -0.099763289 0.024173368 2.3509886e-38
-0.052906059 -0.099763289 0.024173368 2.3509886e-38
-0.051042184 -0.099763289 0.024173368 2.3509886e-38
-0.04917831 -0.099763289 0.024173368 2.3509886e-38
-0.047339249 -0.10070263 0.020130027 2.3509886e-38
-0.045468286 -0.10070263 0.020130027 2.3509886e-38
-0.043597326 -0.10070263 0.020130027 2.3509886e-38
-0.041726358 -0.10070263 0.020130027 2.3509886e-38
-0.039855398 -0.10070263 0.020130027 2.3509886e-38
-0.037984431 -0.10070263 0.020130027 2.3509886e-38
-0.036087133 -0.10209858 0.014121164 2.3509886e-38
-0.03420563 -0.10209858 0.014121164 2.3509886e-38
-0.03229253 -0.10302909 0.010115851 2.3509886e-38
-0.03037513 -0.10372485 0.0071209553 2.3509886e-38
-0.028481357 -0.10372485 0.0071209553 2.3509886e-38
-0.026626967 -0.10302909 0.010115851 2.3509886e-38
-0.024738446 -0.10302909 0.010115851 2.3509886e-38
-0.022849925 -0.10302909 0.010115851 2.3509886e-38
-0.020961404 -0.10302909 0.010115851 2.3509886e-38
-0.019072883 -0.10302909 0.010115851 2.3509886e-38
-0.01718436 -0.10302909 0.010115851 2.3509886e-38
-0.015295839 -0.10302909 0.010115851 2.3509886e-38
-0.013407318 -0.10302909 0.010115851 2.3509886e-38
-0.011518797 -0.10302909 0.010115851 2.3509886e-38
-0.0095436331 -0.10372485 0.0071209553 2.3509886e-38
-0.0076498613 -0.10372485 0.0071209553 2.3509886e-38
-0.0057560876 -0.10372485 0.0071209553 2.3509886e-38
-0.0037275553 -0.10464053 0.0031794196 2.3509886e-38
-0.0018268712 -0.10464053 0.0031794196 2.3509886e-38
7.3812902e-05 -0.10464053 0.0031794196 2.3509886e-38
0.0020941719 -0.10534529 0.00014578147 2.3509886e-38
0.0040001757 -0.10534529 0.00014578147 2.3509886e-38
0.0060321651 -0.10602666 -0.0027871246 2.3509886e-38
0.0079433098 -0.10602666 -0.0027871246 2.3509886e-38
0.0098544545 -0.10602666 -0.0027871246 2.3509886e-38
0.011765599 -0.10602666 -0.0027871246 2.3509886e-38
0.013676744 -0.10602666 -0.0027871246 2.3509886e-38
0.015587889 -0.10602666 -0.0027871246 2.3509886e-38
0.017499033 -0.10602666 -0.0027871246 2.3509886e-38
0.019410178 -0.10602666 -0.0027871246 2.3509886e-38
0.021321323 -0.10602666 -0.0027871246 2.3509886e-38
0.023468256 -0.10695927 -0.0068014977 2.3509886e-38
0.025386438 -0.10695927 -0.0068014977 2.3509886e-38
0.027496941 -0.10767709 -0.0098912828 2.3509886e-38
0.02942054 -0.10767709 -0.0098912828 2.3509886e-38
0.031344146 -0.10767709 -0.0098912828 2.3509886e-38
0.033267744 -0.10767709 -0.0098912828 2.3509886e-38
0.035464682 -0.10859399 -0.013838064 2.3509886e-38
0.037395209 -0.10859399 -0.013838064 2.3509886e-38
0.039325729 -0.10859399 -0.013838064 2.3509886e-38
0.041256249 -0.10859399 -0.013838064 2.3509886e-38
0.043489967 -0.10951753 -0.017813455 2.3509886e-38
0.04542746 -0.10951753 -0.017813455 2.3509886e-38
0.04760674 -0.11022164 -0.020844232 2.3509886e-38
0.049549539 -0.11022164 -0.020844232 2.3509886e-38
0.051492352 -0.11022164 -0.020844232 2.3509886e-38
0.053435151 -0.11022164 -0.020844232 2.3417691e-38
0.055377964 -0.11022164 -0.020844232 2.341805e-38
0.057320762 -0.11022164 -0.020844232 2.3509886e-38
0.059263561 -0.11022164 -0.020844232 2.3325492e-38
0.061206374 -0.11022164 -0.020844232 2.3325127e-38
0.063526854 -0.11115701 -0.024870526 2.3325483e-38
0.065476716 -0.11115701 -0.024870526 2.3508795e-38
0.06771332 -0.11184154 -0.027817141 2.3508793e-38
0.069668353 -0.11184154 -0.027817141 2.1479047e-38
0.072034419 -0.11278872 -0.031894218 2.2400642e-38
0.073996589 -0.11278872 -0.031894218 2.2861973e-38
0.075958773 -0.11278872 -0.031894218 2.2953447e-38
0.077920943 -0.11278872 -0.031894218 2.2492471e-38
0.079883128 -0.11278872 -0.031894218 2.3508424e-38
0.081845313 -0.11278872 -0.031894218 2.2492118e-38
0.083807483 -0.11278872 -0.031894218 1.6960742e-38
0.085769668 -0.11278872 -0.031894218 1.4472182e-38
0.087731838 -0.11278872 -0.031894218 2.948807e-39
0.089694023 -0.11278872 -0.031894218 3.5019808e-39
0.091656193 -0.11278872 -0.031894218 4.700524e-39
-0.090975851 -0.10561861 0.0071209553 7.0976188e-39
-0.089082077 -0.10561861 0.0071209553 7.2816485e-39
-0.087188303 -0.10561861 0.0071209553 1.0968032e-38
-0.08529453 -0.10561861 0.0071209553 1.1611955e-38
-0.083400756 -0.10561861 0.0071209553 1.1335002e-38
-0.081506982 -0.10561861 0.0071209553 1.0688913e-38
-0.079361603 -0.10398008 0.014121164 9.9524239e-39
-0.077375159 -0.1032616 0.017190684 1.2349876e-38
-0.075403698 -0.10257359 0.020130027 2.3507708e-38
-0.073408671 -0.10162716 0.024173368 2.350987e-38
-0.071544796 -0.10162716 0.024173368 2.3509874e-38
-0.069680929 -0.10162716 0.024173368 2.3509883e-38
-0.067817047 -0.10162716 0.024173368 2.3509886e-38
-0.06595318 -0.10162716 0.024173368 2.3509886e-38
-0.064089298 -0.10162716 0.024173368 2.3509886e-38
-0.062225427 -0.10162716 0.024173368 2.3509886e-38
-0.060306095 -0.10092205 0.027185787 2.3509886e-38
-0.058447503 -0.10092205 0.027185787 2.3509886e-38
-0.056588911 -0.10092205 0.027185787 2.3509886e-38
-0.054769933 -0.10162716 0.024173368 2.3509886e-38
-0.052906059 -0.10162716 0.024173368 2.3509886e-38
-0.051042184 -0.10162716 0.024173368 2.3509886e-38
-0.04917831 -0.10162716 0.024173368 2.3509886e-38
-0.047339249 -0.10257359 0.020130027 2.3509886e-38
-0.045468286 -0.10257359 0.020130027 2.3509886e-38
-0.043597326 -0.10257359 0.020130027 2.3509886e-38
-0.041726358 -0.10257359 0.020130027 2.3509886e-38
-0.039855398 -0.10257359 0.020130027 2.3509886e-38
-0.037984431 -0.10257359 0.020130027 2.3509886e-38
-0.036087133 -0.10398008 0.014121164 2.3509886e-38
-0.03420563 -0.10398008 0.014121164 2.3509886e-38
-0.03229253 -0.1049176 0.010115851 2.3509886e-38
-0.030404011 -0.1049176 0.010115851 2.3509886e-38
-0.028515488 -0.1049176 0.010115851 2.3509886e-38
-0.026626967 -0.1049176 0.010115851 2.3509886e-38
-0.024738446 -0.1049176 0.010115851 2.3509886e-38
-0.022849925 -0.1049176 0.010115851 2.3509886e-38
-0.020961404 -0.1049176 0.010115851 2.3509886e-38
-0.019072883 -0.1049176 0.010115851 2.3509886e-38
-0.01718436 -0.1049176 0.010115851 2.3509886e-38
-0.015295839 -0.1049176 0.010115851 2.3509886e-38
-0.013407318 -0.1049176 0.010115851 2.3509886e-38
-0.011518797 -0.1049176 0.010115851 2.3509886e-38
-0.0095436331 -0.10561861 0.0071209553 2.3509886e-38
-0.0076498613 -0.10561861 0.0071209553 2.3509886e-38
-0.0057560876 -0.10561861 0.0071209553 2.3509886e-38
-0.0037275553 -0.1065412 0.0031794196 2.3509886e-38
-0.0018268712 -0.1065412 0.0031794196 2.3509886e-38
7.3812902e-05 -0.1065412 0.0031794196 2.3509886e-38
0.0020941719 -0.1072513 0.00014578147 2.3509886e-38
0.0040001757 -0.1072513 0.00014578147 2.3509886e-38
0.0059061758 -0.1072513 0.00014578147 2.3509886e-38
0.0079433098 -0.1079378 -0.0027871246 2.3509886e-38
0.0098544545 -0.1079378 -0.0027871246 2.3509886e-38
0.011765599 -0.1079378 -0.0027871246 2.3509886e-38
0.013676744 -0.1079378 -0.0027871246 2.3509886e-38
0.015587889 -0.1079378 -0.0027871246 2.3509886e-38
0.017499033 -0.1079378 -0.0027871246 2.3509886e-38
0.019410178 -0.1079378 -0.0027871246 2.3509886e-38
0.021321323 -0.1079378 -0.0027871246 2.3509886e-38
0.023232467 -0.1079378 -0.0027871246 2.3509886e-38
0.025386438 -0.10887744 -0.0068014977 2.3509886e-38
0.027304627 -0.10887744 -0.0068014977 2.3509886e-38
0.029222809 -0.10887744 -0.0068014977 2.3509886e-38
0.031140991 -0.10887744 -0.0068014977 2.3509886e-38
0.033267744 -0.10960068 -0.0098912828 2.3509886e-38
0.035464682 -0.11052449 -0.013838064 2.3509886e-38
0.037395209 -0.11052449 -0.013838064 2.3509886e-38
0.039325729 -0.11052449 -0.013838064 2.3509886e-38
0.041256249 -0.11052449 -0.013838064 2.3509886e-38
0.043489967 -0.11145501 -0.017813455 2.3509886e-38
0.04542746 -0.11145501 -0.017813455 2.3509886e-38
0.04760674 -0.11216442 -0.020844232 2.3509886e-38
0.049302448 -0.11145501 -0.017813455 2.3509886e-38
0.051239941 -0.11145501 -0.017813455 2.3509527e-38
0.053435151 -0.11216442 -0.020844232 2.3417691e-38
0.055377964 -0.11216442 -0.020844232 2.3417691e-38
0.057320762 -0.11216442 -0.020844232 2.3509886e-38
0.059263561 -0.11216442 -0.020844232 2.3509876e-38
0.061206374 -0.11216442 -0.020844232 2.350987e-38
0.063526854 -0.11310686 -0.024870526 2.3509869e-38
0.065476716 -0.11310686 -0.024870526 2.3509873e-38
0.067426577 -0.11310686 -0.024870526 2.3509514e-38
0.069668353 -0.11379658 -0.027817141 2.3507712e-38
0.07162337 -0.11379658 -0.027817141 2.3507704e-38
0.073996589 -0.11475091 -0.031894218 2.2953799e-38
0.075958773 -0.11475091 -0.031894218 2.2493176e-38
0.077920943 -0.11475091 -0.031894218 2.1755255e-38
0.079883128 -0.11475091 -0.031894218 2.3507698e-38
0.081845313 -0.11475091 -0.031894218 2.2399923e-38
0.083353564 -0.11379658 -0.027817141 1.8712462e-38
0.085308582 -0.11379658 -0.027817141 1.5670722e-38
0.087731838 -0.11475091 -0.031894218 2.7644129e-39
0.089694023 -0.11475091 -0.031894218 3.3175867e-39
0.091656193 -0.11475091 -0.031894218 4.5161299e-39
-0.092869624 -0.1075124 0.0071209553 8.0195751e-39
-0.090975851 -0.1075124 0.0071209553 7.3742057e-39
-0.087188303 -0.1075124 0.0071209553 1.1336811e-38
-0.08529453 -0.1075124 0.0071209553 1.1704151e-38
-0.083400756 -0.1075124 0.0071209553 1.1427198e-38
-0.081506982 -0.1075124 0.0071209553 1.0689633e-38
-0.079505563 -0.10680611 0.010115851 9.8605884e-39
-0.077480108 -0.10586159 0.014121164 1.0875466e-38
-0.075403698 -0.10444455 0.020130027 2.3508068e-38
-0.073408671 -0.10349102 0.024173368 2.3509873e-38
-0.071544796 -0.10349102 0.024173368 2.3325846e-38
-0.069680929 -0.10349102 0.024173368 2.3509883e-38
-0.067817047 -0.10349102 0.024173368 2.3509886e-38
-0.065881878 -0.10278064 0.027185787 2.3509886e-38
-0.064023286 -0.10278064 0.027185787 2.3509886e-38
-0.062164687 -0.10278064 0.027185787 2.3509886e-38
-0.060306095 -0.10278064 0.027185787 2.3509886e-38
-0.058447503 -0.10278064 0.027185787 2.3509886e-38
-0.056588911 -0.10278064 0.027185787 2.3509886e-38
-0.054769933 -0.10349102 0.024173368 2.3509886e-38
-0.052906059 -0.10349102 0.024173368 2.3509886e-38
-0.051042184 -0.10349102 0.024173368 2.3509886e-38
-0.04917831 -0.10349102 0.024173368 2.3509886e-38
-0.047314435 -0.10349102 0.024173368 2.3509886e-38
-0.045468286 -0.10444455 0.020130027 2.3509886e-38
-0.043597326 -0.10444455 0.020130027 2.3509886e-38
-0.041726358 -0.10444455 0.020130027 2.3509886e-38
-0.039855398 -0.10444455 0.020130027 2.3509886e-38
-0.037984431 -0.10444455 0.020130027 2.3509886e-38
-0.036100585 -0.10513772 0.017190684 2.3509886e-38
-0.034224469 -0.10513772 0.017190684 2.3509886e-38
-0.032324135 -0.10586159 0.014121164 2.3509886e-38
-0.030404011 -0.10680611 0.010115851 2.3509886e-38
-0.028515488 -0.10680611 0.010115851 2.3509886e-38
-0.026626967 -0.10680611 0.010115851 2.3509886e-38
-0.024798138 -0.10586159 0.014121164 2.3509886e-38
-0.022916639 -0.10586159 0.014121164 2.3509886e-38
-0.020961404 -0.10680611 0.010115851 2.3509886e-38
-0.019072883 -0.10680611 0.010115851 2.3509886e-38
-0.01718436 -0.10680611 0.010115851 2.3509886e-38
-0.015295839 -0.10680611 0.010115851 2.3509886e-38
-0.013407318 -0.10680611 0.010115851 2.3509886e-38
-0.011518797 -0.10680611 0.010115851 2.3509886e-38
-0.0095436331 -0.1075124 0.0071209553 2.3509886e-38
-0.0076498613 -0.1075124 0.0071209553 2.3509886e-38
-0.0055298358 -0.10915731 0.00014578147 2.3509886e-38
-0.0037275553 -0.1084419 0.0031794196 2.3509886e-38
-0.0018268712 -0.1084419 0.0031794196 2.3509886e-38
0.00018817186 -0.10915731 0.00014578147 2.3509886e-38
0.0020941719 -0.10915731 0.00014578147 2.3509886e-38
0.0040001757 -0.10915731 0.00014578147 2.3509886e-38
0.0059061758 -0.10915731 0.00014578147 2.3509886e-38
0.0079433098 -0.10984896 -0.0027871246 2.3509886e-38
0.0098544545 -0.10984896 -0.0027871246 2.3509886e-38
0.011765599 -0.10984896 -0.0027871246 2.3509886e-38
0.013676744 -0.10984896 -0.0027871246 2.3509886e-38
0.015587889 -0.10984896 -0.0027871246 2.3509886e-38
0.017499033 -0.10984896 -0.0027871246 2.3509886e-38
0.019410178 -0.10984896 -0.0027871246 2.3509886e-38
0.021321323 -0.10984896 -0.0027871246 2.3509886e-38
0.023232467 -0.10984896 -0.0027871246 2.3509886e-38
0.025386438 -0.11079563 -0.0068014977 2.3509886e-38
0.027304627 -0.11079563 -0.0068014977 2.3509886e-38
0.029222809 -0.11079563 -0.0068014977 2.3509886e-38
0.031140991 -0.11079563 -0.0068014977 2.3509886e-38
0.033267744 -0.11152427 -0.0098912828 2.3509886e-38
0.035464682 -0.11245503 -0.013838064 2.3509886e-38
0.037395209 -0.11245503 -0.013838064 2.3509886e-38
0.039325729 -0.11245503 -0.013838064 2.3509886e-38
0.041552477 -0.11339252 -0.017813455 2.3509886e-38
0.043489967 -0.11339252 -0.017813455 2.3509886e-38
0.04542746 -0.11339252 -0.017813455 2.3509886e-38
0.04760674 -0.11410724 -0.020844232 2.3509886e-38
0.049302448 -0.11339252 -0.017813455 2.3509886e-38
0.051239941 -0.11339252 -0.017813455 2.3509527e-38
0.053435151 -0.11410724 -0.020844232 2.3232944e-38
0.055377964 -0.11410724 -0.020844232 2.3325497e-38
0.057320762 -0.11410724 -0.020844232 2.350988e-38
0.059263561 -0.11410724 -0.020844232 2.3509869e-38
0.061206374 -0.11410724 -0.020844232 2.350986e-38
0.063526854 -0.11505674 -0.024870526 2.350986e-38
0.065476716 -0.11505674 -0.024870526 2.3508787e-38
0.067426577 -0.11505674 -0.024870526 2.3507711e-38
0.069668353 -0.11575161 -0.027817141 2.3509149e-38
0.07162337 -0.11575161 -0.027817141 2.2952722e-38
0.073996589 -0.11671309 -0.031894218 2.1662688e-38
0.075533435 -0.11575161 -0.027817141 2.2308411e-38
0.077488467 -0.11575161 -0.027817141 2.1939272e-38
0.079883128 -0.11671309 -0.031894218 2.350697e-38
0.081398532 -0.11575161 -0.027817141 2.2399923e-38
0.083353564 -0.11575161 -0.027817141 2.1017355e-38
0.085308582 -0.11575161 -0.027817141 1.6592678e-38
0.087731838 -0.11671309 -0.031894218 2.8566072e-39
0.089694023 -0.11671309 -0.031894218 3.4097824e-39
0.091656193 -0.11671309 -0.031894218 4.3317387e-39
-0.089258298 -0.11034258 0.0031794196 6.911787e-39
-0.087357625 -0.11034258 0.0031794196 1.1336811e-38
-0.085456938 -0.11034258 0.0031794196 1.1427564e-38
-0.08355625 -0.11034258 0.0031794196 1.1150611e-38
-0.081506982 -0.10940616 0.0071209553 1.0597793e-38
-0.079505563 -0.10869466 0.010115851 9.7683927e-39
-0.077480108 -0.10774307 0.014121164 1.0230097e-38
-0.075499043 -0.10701384 0.017190684 2.3508788e-38
-0.073408671 -0.10535492 0.024173368 2.3509873e-38
-0.071544796 -0.10535492 0.024173368 2.3418042e-38
-0.069599062 -0.10463922 0.027185787 2.3509883e-38
-0.06774047 -0.10463922 0.027185787 2.3509886e-38
-0.065881878 -0.10463922 0.027185787 2.3509886e-38
-0.064023286 -0.10463922 0.027185787 2.3509886e-38
-0.062104288 -0.1039276 0.030181158 2.3509886e-38
-0.060250949 -0.1039276 0.030181158 2.3509886e-38
-0.058447503 -0.10463922 0.027185787 2.3509886e-38
-0.056588911 -0.10463922 0.027185787 2.3509886e-38
-0.054769933 -0.10535492 0.024173368 2.3509886e-38
-0.052906059 -0.10535492 0.024173368 2.3509886e-38
-0.051042184 -0.10535492 0.024173368 2.3509886e-38
-0.04917831 -0.10535492 0.024173368 2.3509886e-38
-0.047314435 -0.10535492 0.024173368 2.3509886e-38
-0.045450561 -0.10535492 0.024173368 2.3509886e-38
-0.04358669 -0.10535492 0.024173368 2.3509886e-38
-0.041726358 -0.10631551 0.020130027 2.3509886e-38
-0.039855398 -0.10631551 0.020130027 2.3509886e-38
-0.037984431 -0.10631551 0.020130027 2.3509886e-38
-0.036100585 -0.10701384 0.017190684 2.3509886e-38
-0.034224469 -0.10701384 0.017190684 2.3509886e-38
-0.032324135 -0.10774307 0.014121164 2.3509886e-38
-0.030442636 -0.10774307 0.014121164 2.3509886e-38
-0.028561138 -0.10774307 0.014121164 2.3509886e-38
-0.026679639 -0.10774307 0.014121164 2.3509886e-38
-0.024798138 -0.10774307 0.014121164 2.3509886e-38
-0.022916639 -0.10774307 0.014121164 2.3509886e-38
-0.021035142 -0.10774307 0.014121164 2.3509886e-38
-0.019153643 -0.10774307 0.014121164 2.3509886e-38
-0.01718436 -0.10869466 0.010115851 2.3509886e-38
-0.015295839 -0.10869466 0.010115851 2.3509886e-38
-0.013407318 -0.10869466 0.010115851 2.3509886e-38
-0.011518797 -0.10869466 0.010115851 2.3509886e-38
-0.0095436331 -0.10940616 0.0071209553 2.3509886e-38
-0.0076498613 -0.10940616 0.0071209553 2.3509886e-38
-0.0056282394 -0.11034258 0.0031794196 2.3509886e-38
-0.0037275553 -0.11034258 0.0031794196 2.3509886e-38
-0.0018268712 -0.11034258 0.0031794196 2.3509886e-38
0.00018817186 -0.11106332 0.00014578147 2.3509886e-38
0.0020941719 -0.11106332 0.00014578147 2.3509886e-38
0.0040001757 -0.11106332 0.00014578147 2.3509886e-38
0.0059061758 -0.11106332 0.00014578147 2.3509886e-38
0.0079433098 -0.11176009 -0.0027871246 2.3509886e-38
0.0098544545 -0.11176009 -0.0027871246 2.3509886e-38
0.011765599 -0.11176009 -0.0027871246 2.3509886e-38
0.013676744 -0.11176009 -0.0027871246 2.3509886e-38
0.015587889 -0.11176009 -0.0027871246 2.3509886e-38
0.017499033 -0.11176009 -0.0027871246 2.3509886e-38
0.019410178 -0.11176009 -0.0027871246 2.3509886e-38
0.021321323 -0.11176009 -0.0027871246 2.3509886e-38
0.023232467 -0.11176009 -0.0027871246 2.3509886e-38
0.025143608 -0.11176009 -0.0027871246 2.3509886e-38
0.027304627 -0.1127138 -0.0068014977 2.3509886e-38
0.029222809 -0.1127138 -0.0068014977 2.3509886e-38
0.031140991 -0.1127138 -0.0068014977 2.3509886e-38
0.033267744 -0.11344786 -0.0098912828 2.3509886e-38
0.035191342 -0.11344786 -0.0098912828 2.3509886e-38
0.037395209 -0.11438553 -0.013838064 2.3509886e-38
0.039325729 -0.11438553 -0.013838064 2.3509886e-38
0.041256249 -0.11438553 -0.013838064 2.3509886e-38
0.043489967 -0.11533 -0.017813455 2.3509886e-38
0.04542746 -0.11533 -0.017813455 2.3509886e-38
0.04760674 -0.11605005 -0.020844232 2.3509886e-38
0.049549539 -0.11605005 -0.020844232 2.3509886e-38
0.051492352 -0.11605005 -0.020844232 2.3509527e-38
0.053435151 -0.11605005 -0.020844232 2.3232944e-38
0.055377964 -0.11605005 -0.020844232 2.3325497e-38
0.057320762 -0.11605005 -0.020844232 2.3509876e-38
0.059263561 -0.11605005 -0.020844232 2.3418022e-38
0.061206374 -0.11605005 -0.020844232 2.3140704e-38
0.063526854 -0.11700659 -0.024870526 2.2494255e-38
0.065476716 -0.11700659 -0.024870526 2.1847457e-38
0.067426577 -0.11700659 -0.024870526 2.1569433e-38
0.069668353 -0.11770664 -0.027817141 2.0739308e-38
0.07162337 -0.11770664 -0.027817141 1.9263808e-38
0.073996589 -0.11867525 -0.031894218 1.9633294e-38
0.075533435 -0.11770664 -0.027817141 2.2769019e-38
0.077488467 -0.11770664 -0.027817141 2.3230363e-38
0.079443499 -0.11770664 -0.027817141 2.3509485e-38
0.081398532 -0.11770664 -0.027817141 2.2215529e-38
0.083353564 -0.11770664 -0.027817141 2.1847116e-38
0.085308582 -0.11770664 -0.027817141 1.7791222e-38
0.087731838 -0.11867525 -0.031894218 3.5941736e-39
0.089694023 -0.11867525 -0.031894218 4.0551518e-39
0.091656193 -0.11867525 -0.031894218 4.6083283e-39
-0.087357625 -0.11224325 0.0031794196 1.0599246e-38
-0.085456938 -0.11224325 0.0031794196 1.1151333e-38
-0.08355625 -0.11224325 0.0031794196 1.0413046e-38
-0.081506982 -0.11129995 0.0071209553 1.1243163e-38
-0.079613209 -0.11129995 0.0071209553 9.3074146e-39
-0.077617049 -0.11058317 0.010115851 9.5847274e-39
-0.075499043 -0.10888995 0.017190684 2.3508068e-38
-0.073408671 -0.10721879 0.024173368 2.3509869e-38
-0.071544796 -0.10721879 0.024173368 2.3509876e-38
-0.069436714 -0.1050681 0.033159602 2.3509883e-38
-0.06758859 -0.1050681 0.033159602 2.3509886e-38
-0.065810971 -0.10578094 0.030181158 2.3509886e-38
-0.063957632 -0.10578094 0.030181158 2.3509886e-38
-0.062104288 -0.10578094 0.030181158 2.3509886e-38
-0.060250949 -0.10578094 0.030181158 2.3509886e-38
-0.058447503 -0.10649781 0.027185787 2.3509886e-38
-0.056588911 -0.10649781 0.027185787 2.3509886e-38
-0.054769933 -0.10721879 0.024173368 2.3509886e-38
-0.052906059 -0.10721879 0.024173368 2.3509886e-38
-0.051042184 -0.10721879 0.024173368 2.3509886e-38
-0.04917831 -0.10721879 0.024173368 2.3509886e-38
-0.047314435 -0.10721879 0.024173368 2.3509886e-38
-0.045450561 -0.10721879 0.024173368 2.3509886e-38
-0.04358669 -0.10721879 0.024173368 2.3509886e-38
-0.041726358 -0.10818647 0.020130027 2.3509886e-38
-0.039855398 -0.10818647 0.020130027 2.3509886e-38
-0.037984431 -0.10818647 0.020130027 2.3509886e-38
-0.036100585 -0.10888995 0.017190684 2.3509886e-38
-0.034224469 -0.10888995 0.017190684 2.3509886e-38
-0.032348353 -0.10888995 0.017190684 2.3509886e-38
-0.030442636 -0.10962458 0.014121164 2.3509886e-38
