# .PCD v0.7 - Point Cloud Data file format
VERSION 0.7
FIELDS x y z rgb
SIZE 4 4 4 4
TYPE F F F F
COUNT 1 1 1 1
WIDTH 919
HEIGHT 1
VIEWPOINT 0 0 0 1 0 0 0
POINTS 919
DATA ascii
-0.018088324 -0.096454084 -0.031566016 2.3509886e-38
-0.016140111 -0.097363517 -0.035571329 2.3509886e-38
-0.014325328 -0.096454084 -0.031566016 2.3509886e-38
-0.012443829 -0.096454084 -0.031566016 2.3509886e-38
-0.010474546 -0.097363517 -0.035571329 2.3509886e-38
-0.0085860249 -0.097363517 -0.035571329 2.3509886e-38
-0.0064440314 -0.099627286 -0.045541398 2.3509886e-38
-0.0048089828 -0.097363517 -0.035571329 2.3509886e-38
-0.0031251367 -0.095757127 -0.028496496 2.3509886e-38
-0.0016476102 -0.092807561 -0.015506022 2.3509886e-38
0.00020572916 -0.092807561 -0.015506022 2.3509886e-38
0.0021614805 -0.09348768 -0.018501393 2.3509886e-38
0.0039124116 -0.092807561 -0.015506022 2.3509886e-38
0.005765751 -0.092807561 -0.015506022 2.3509886e-38
0.0076190904 -0.092807561 -0.015506022 2.3509886e-38
0.0094724298 -0.092807561 -0.015506022 2.3509883e-38
0.011325773 -0.092807561 -0.015506022 2.3509883e-38
0.013179112 -0.092807561 -0.015506022 2.3233296e-38
0.015171628 -0.09348768 -0.018501393 2.2864869e-38
0.01703022 -0.09348768 -0.018501393 2.3233652e-38
0.018888813 -0.09348768 -0.018501393 2.350988e-38
0.020903215 -0.094171658 -0.021513812 2.3509879e-38
0.022767089 -0.094171658 -0.021513812 2.3509879e-38
0.024854276 -0.095089734 -0.025557153 2.3418043e-38
0.02672524 -0.095089734 -0.025557153 2.3142537e-38
0.028768852 -0.095757127 -0.028496496 2.2683356e-38
0.030644968 -0.095757127 -0.028496496 2.2683359e-38
0.032521084 -0.095757127 -0.028496496 2.295887e-38
0.034593642 -0.096454084 -0.031566016 2.2958867e-38
0.036935404 -0.098043531 -0.038566224 2.2958873e-38
-0.042397596 -0.093979403 -0.012527578 2.3142503e-38
-0.040549479 -0.093979403 -0.012527578 2.3417998e-38
-0.038701359 -0.093979403 -0.012527578 2.2313816e-38
-0.036861077 -0.094660893 -0.015506022 2.3141455e-38
-0.035019122 -0.097633243 -0.028496496 2.3232227e-38
-0.033143006 -0.097633243 -0.028496496 2.3509886e-38
-0.03126689 -0.097633243 -0.028496496 2.350988e-38
-0.029377317 -0.098335579 -0.031566016 2.350988e-38
-0.027471239 -0.099252045 -0.035571329 2.350988e-38
-0.025582718 -0.099252045 -0.035571329 2.350988e-38
-0.023732822 -0.098335579 -0.031566016 2.3509883e-38
-0.021919804 -0.096960694 -0.025557153 2.3509883e-38
-0.02004884 -0.096960694 -0.025557153 2.3509883e-38
-0.018088324 -0.098335579 -0.031566016 2.3509886e-38
-0.016140111 -0.099252045 -0.035571329 2.3509886e-38
-0.014381837 -0.097633243 -0.028496496 2.3509886e-38
-0.012564987 -0.096960694 -0.025557153 2.3509886e-38
-0.010694023 -0.096960694 -0.025557153 2.3509886e-38
-0.0088230614 -0.096960694 -0.025557153 2.3509886e-38
-0.0068773702 -0.097633243 -0.028496496 2.3509886e-38
-0.0050012525 -0.097633243 -0.028496496 2.3509886e-38
-0.0034142938 -0.095346272 -0.018501393 2.3509886e-38
-0.0016476102 -0.094660893 -0.015506022 2.3509886e-38
0.00020572916 -0.094660893 -0.015506022 2.3509886e-38
0.0020590685 -0.094660893 -0.015506022 2.3509886e-38
0.0038053542 -0.093979403 -0.012527578 2.3509886e-38
0.0056534745 -0.093979403 -0.012527578 2.3509886e-38
0.0073416382 -0.093051672 -0.0084730312 2.3509886e-38
0.0091826469 -0.093051672 -0.0084730312 2.3509886e-38
0.011023659 -0.093051672 -0.0084730312 2.3509883e-38
0.012864668 -0.093051672 -0.0084730312 2.3509883e-38
0.014894065 -0.093979403 -0.012527578 2.3509883e-38
0.016742181 -0.093979403 -0.012527578 2.350988e-38
0.018590301 -0.093979403 -0.012527578 2.3418043e-38
0.020592473 -0.094660893 -0.015506022 2.3233652e-38
0.022445813 -0.094660893 -0.015506022 2.3325847e-38
0.024630964 -0.09603554 -0.021513812 2.3418047e-38
0.02672524 -0.096960694 -0.025557153 2.341805e-38
0.028768852 -0.097633243 -0.028496496 2.2958154e-38
0.030467167 -0.096960694 -0.025557153 2.304927e-38
0.032338127 -0.096960694 -0.025557153 2.341805e-38
0.034849964 -0.099252045 -0.035571329 2.3418045e-38
0.036935404 -0.099937305 -0.038566224 2.3326213e-38
-0.042397596 -0.09582752 -0.012527578 2.3234347e-38
-0.040549479 -0.09582752 -0.012527578 2.3418011e-38
-0.038701359 -0.09582752 -0.012527578 2.3509856e-38
-0.036861077 -0.09651424 -0.015506022 2.350988e-38
-0.035013001 -0.097899407 -0.021513812 2.3509168e-38
-0.033149127 -0.097899407 -0.021513812 2.3509886e-38
-0.031285252 -0.097899407 -0.021513812 2.3509886e-38
-0.029403657 -0.098831654 -0.025557153 2.3509883e-38
-0.027514655 -0.099509358 -0.028496496 2.3509883e-38
-0.025638539 -0.099509358 -0.028496496 2.350988e-38
-0.023790766 -0.098831654 -0.025557153 2.350988e-38
-0.021965884 -0.097899407 -0.021513812 2.350988e-38
-0.020141624 -0.097204864 -0.018501393 2.350988e-38
-0.018283032 -0.097204864 -0.018501393 2.350988e-38
-0.016374262 -0.097899407 -0.021513812 2.350988e-38
-0.014510388 -0.097899407 -0.021513812 2.350988e-38
-0.012767652 -0.09651424 -0.015506022 2.3509883e-38
-0.010914311 -0.09651424 -0.015506022 2.3509883e-38
-0.0090609714 -0.09651424 -0.015506022 2.3509883e-38
-0.0072076302 -0.09651424 -0.015506022 2.3509886e-38
-0.0052728858 -0.097204864 -0.018501393 2.3509886e-38
-0.0035009496 -0.09651424 -0.015506022 2.3509886e-38
-0.001738999 -0.09582752 -0.012527578 2.3509886e-38
0.00010911748 -0.09582752 -0.012527578 2.3509886e-38
0.0019572377 -0.09582752 -0.012527578 2.3509886e-38
0.0036596209 -0.094892681 -0.0084730312 2.3509886e-38
0.0053898357 -0.094215035 -0.0055339262 2.3509886e-38
0.0072256923 -0.094215035 -0.0055339262 2.3509886e-38
0.0090615489 -0.094215035 -0.0055339262 2.3509886e-38
0.010897402 -0.094215035 -0.0055339262 2.3233299e-38
0.012864668 -0.094892681 -0.0084730312 2.3417687e-38
0.014705677 -0.094892681 -0.0084730312 2.3509883e-38
0.016546685 -0.094892681 -0.0084730312 2.3509883e-38
0.018387694 -0.094892681 -0.0084730312 2.3233296e-38
0.020438418 -0.09582752 -0.012527578 2.3049261e-38
0.022286534 -0.09582752 -0.012527578 2.3141456e-38
0.024134655 -0.09582752 -0.012527578 2.341769e-38
0.026323181 -0.097204864 -0.018501393 2.3509527e-38
0.028181773 -0.097204864 -0.018501393 2.3509527e-38
0.030040361 -0.097204864 -0.018501393 2.3509168e-38
0.031898953 -0.097204864 -0.018501393 2.3324775e-38
0.033950336 -0.097899407 -0.021513812 2.3140737e-38
0.036935404 -0.10183108 -0.038566224 2.3508804e-38
-0.046196245 -0.099763289 -0.021513812 2.3509844e-38
-0.04430332 -0.099063456 -0.018501393 2.350986e-38
-0.042397596 -0.097675636 -0.012527578 2.2404959e-38
-0.040549479 -0.097675636 -0.012527578 2.2865217e-38
-0.038701359 -0.097675636 -0.012527578 2.3509876e-38
-0.036861077 -0.098367572 -0.015506022 2.3138956e-38
-0.03501036 -0.099063456 -0.018501393 2.3415539e-38
-0.033151768 -0.099063456 -0.018501393 2.3509168e-38
-0.031293176 -0.099063456 -0.018501393 2.3509527e-38
-0.029434584 -0.099063456 -0.018501393 2.3509886e-38
-0.027575992 -0.099063456 -0.018501393 2.3509886e-38
-0.025661729 -0.10070263 -0.025557153 2.3509883e-38
-0.023829758 -0.099763289 -0.021513812 2.350988e-38
-0.022034353 -0.098367572 -0.015506022 2.3509879e-38
-0.020181011 -0.098367572 -0.015506022 2.3509879e-38
-0.018327672 -0.098367572 -0.015506022 2.3509879e-38
-0.016474333 -0.098367572 -0.015506022 2.3509879e-38
-0.014620991 -0.098367572 -0.015506022 2.3509879e-38
-0.012827707 -0.097675636 -0.012527578 2.350988e-38
-0.010979589 -0.097675636 -0.012527578 2.3509883e-38
-0.0091314707 -0.097675636 -0.012527578 2.3509883e-38
-0.0072833523 -0.097675636 -0.012527578 2.3509886e-38
-0.0054352339 -0.097675636 -0.012527578 2.3509886e-38
-0.0035871174 -0.097675636 -0.012527578 2.3509886e-38
-0.0018634051 -0.096733689 -0.0084730312 2.3509886e-38
-2.2396445e-05 -0.096733689 -0.0084730312 2.3509886e-38
0.0018186122 -0.096733689 -0.0084730312 2.3509886e-38
0.0035539791 -0.096050888 -0.0055339262 2.3509886e-38
0.0053898357 -0.096050888 -0.0055339262 2.3509886e-38
0.0072256923 -0.096050888 -0.0055339262 2.3509886e-38
0.0090615489 -0.096050888 -0.0055339262 2.3509886e-38
0.010897402 -0.096050888 -0.0055339262 2.341769e-38
0.012733258 -0.096050888 -0.0055339262 2.3509886e-38
0.014569115 -0.096050888 -0.0055339262 2.3509886e-38
0.016404971 -0.096050888 -0.0055339262 2.3509883e-38
0.018387694 -0.096733689 -0.0084730312 2.3509883e-38
0.020228703 -0.096733689 -0.0084730312 2.3509883e-38
0.022069711 -0.096733689 -0.0084730312 2.3509883e-38
0.02391072 -0.096733689 -0.0084730312 2.3417691e-38
0.025982771 -0.097675636 -0.012527578 2.3415539e-38
0.027830891 -0.097675636 -0.012527578 2.3508451e-38
0.029679008 -0.097675636 -0.012527578 2.3508451e-38
0.031527124 -0.097675636 -0.012527578 2.350773e-38
0.033375241 -0.097675636 -0.012527578 2.3508446e-38
-0.048020504 -0.10092205 -0.018501393 1.1800266e-38
-0.046161912 -0.10092205 -0.018501393 2.3509844e-38
-0.044274434 -0.10022092 -0.015506022 2.3509863e-38
-0.042421095 -0.10022092 -0.015506022 2.295778e-38
-0.040549479 -0.099523753 -0.012527578 2.3509879e-38
-0.038701359 -0.099523753 -0.012527578 2.3509527e-38
-0.036861077 -0.10022092 -0.015506022 2.3322627e-38
-0.035007734 -0.10022092 -0.015506022 2.3508809e-38
-0.033154394 -0.10022092 -0.015506022 2.3509168e-38
-0.031301051 -0.10022092 -0.015506022 2.3509527e-38
-0.029447714 -0.10022092 -0.015506022 2.3509527e-38
-0.027594373 -0.10022092 -0.015506022 2.3509886e-38
-0.0257174 -0.10092205 -0.018501393 2.3509886e-38
-0.023887694 -0.10022092 -0.015506022 2.350988e-38
-0.022068296 -0.099523753 -0.012527578 2.3509879e-38
-0.020220179 -0.099523753 -0.012527578 2.3509876e-38
-0.018372061 -0.099523753 -0.012527578 2.3509876e-38
-0.016523942 -0.099523753 -0.012527578 2.3509879e-38
-0.014675826 -0.099523753 -0.012527578 2.3509879e-38
-0.012827707 -0.099523753 -0.012527578 2.350988e-38
-0.01106845 -0.098574698 -0.0084730312 2.3509883e-38
-0.0092274416 -0.098574698 -0.0084730312 2.3509886e-38
-0.007386433 -0.098574698 -0.0084730312 2.3509886e-38
-0.0055454243 -0.098574698 -0.0084730312 2.3509527e-38
-0.0037044156 -0.098574698 -0.0084730312 2.3509886e-38
-0.0019535869 -0.097886756 -0.0055339262 2.3509886e-38
-0.00011773035 -0.097886756 -0.0055339262 2.3509886e-38
0.0017181225 -0.097886756 -0.0055339262 2.3509886e-38
0.0035539791 -0.097886756 -0.0055339262 2.3509886e-38
0.0052755959 -0.097177386 -0.0025033876 2.3509886e-38
0.0071061365 -0.097177386 -0.0025033876 2.3509886e-38
0.0090615489 -0.097886756 -0.0055339262 2.3509886e-38
0.010897402 -0.097886756 -0.0055339262 2.341769e-38
0.012597766 -0.097177386 -0.0025033876 2.3509886e-38
0.014428306 -0.097177386 -0.0025033876 2.341769e-38
0.016258847 -0.097177386 -0.0025033876 2.341769e-38
0.018089391 -0.097177386 -0.0025033876 2.3509883e-38
0.020076681 -0.097886756 -0.0055339262 2.3509883e-38
0.021912538 -0.097886756 -0.0055339262 2.3509883e-38
0.023748394 -0.097886756 -0.0055339262 2.3509168e-38
0.025584251 -0.097886756 -0.0055339262 2.3415539e-38
0.027592737 -0.098574698 -0.0084730312 2.3508092e-38
0.029255964 -0.097886756 -0.0055339262 2.3508451e-38
0.031091817 -0.097886756 -0.0055339262 2.3507016e-38
0.032927677 -0.097886756 -0.0055339262 2.3508451e-38
0.03476353 -0.097886756 -0.0055339262 2.3508802e-38
-0.048020504 -0.10278064 -0.018501393 1.2722927e-38
-0.046161912 -0.10278064 -0.018501393 2.2404555e-38
-0.044274434 -0.10207425 -0.015506022 2.314179e-38
-0.042421095 -0.10207425 -0.015506022 2.2865217e-38
-0.040549479 -0.10137187 -0.012527578 2.3509876e-38
-0.038701359 -0.10137187 -0.012527578 2.3509518e-38
-0.036853239 -0.10137187 -0.012527578 2.3046747e-38
-0.035007734 -0.10207425 -0.015506022 2.3509168e-38
-0.033157006 -0.10137187 -0.012527578 2.3509168e-38
-0.031308889 -0.10137187 -0.012527578 2.3509168e-38
-0.029460769 -0.10137187 -0.012527578 2.3509527e-38
-0.027612651 -0.10137187 -0.012527578 2.3509527e-38
-0.025741033 -0.10207425 -0.015506022 2.3509886e-38
-0.023916416 -0.10137187 -0.012527578 2.3509886e-38
-0.022068296 -0.10137187 -0.012527578 2.350988e-38
-0.020273495 -0.10041572 -0.0084730312 2.3509879e-38
-0.018432487 -0.10041572 -0.0084730312 2.3509879e-38
-0.016591478 -0.10041572 -0.0084730312 2.3509879e-38
-0.014750469 -0.10041572 -0.0084730312 2.350988e-38
-0.012909461 -0.10041572 -0.0084730312 2.3509883e-38
-0.01106845 -0.10041572 -0.0084730312 2.3509886e-38
-0.0092970114 -0.099722609 -0.0055339262 2.3509527e-38
-0.0074611548 -0.099722609 -0.0055339262 2.3509527e-38
-0.0056252982 -0.099722609 -0.0055339262 2.3509527e-38
-0.0037894435 -0.099722609 -0.0055339262 2.3509527e-38
-0.0019535869 -0.099722609 -0.0055339262 2.3509886e-38
-0.00011773035 -0.099722609 -0.0055339262 2.3509886e-38
0.0017181225 -0.099722609 -0.0055339262 2.3509886e-38
0.0034450516 -0.099007934 -0.0025033876 2.3509886e-38
0.0052755959 -0.099007934 -0.0025033876 2.3509886e-38
0.0071061365 -0.099007934 -0.0025033876 2.3509886e-38
0.0089366809 -0.099007934 -0.0025033876 2.3509886e-38
0.010767221 -0.099007934 -0.0025033876 2.3325494e-38
0.012597766 -0.099007934 -0.0025033876 2.3509886e-38
0.014428306 -0.099007934 -0.0025033876 2.341769e-38
0.016113564 -0.098297372 0.00050974637 2.3233299e-38
0.017938826 -0.098297372 0.00050974637 2.3325494e-38
0.019919932 -0.099007934 -0.0025033876 2.3509886e-38
0.021589343 -0.098297372 0.00050974637 2.3509886e-38
0.023414601 -0.098297372 0.00050974637 2.3324778e-38
0.025239863 -0.098297372 0.00050974637 2.3508809e-38
0.027065121 -0.098297372 0.00050974637 2.3508451e-38
0.029072642 -0.099007934 -0.0025033876 2.3508092e-38
0.03090319 -0.099007934 -0.0025033876 2.3507733e-38
0.032927677 -0.099722609 -0.0055339262 2.3508451e-38
0.03476353 -0.099722609 -0.0055339262 2.3506276e-38
-0.047981117 -0.1039276 -0.015506022 1.5488441e-38
-0.046127778 -0.1039276 -0.015506022 2.3049572e-38
-0.044274434 -0.1039276 -0.015506022 2.350986e-38
-0.042397596 -0.10322 -0.012527578 2.3509879e-38
-0.040524594 -0.10225673 -0.0084730312 2.314074e-38
-0.038683586 -0.10225673 -0.0084730312 2.3509527e-38
-0.036853239 -0.10322 -0.012527578 2.3509165e-38
-0.035005122 -0.10322 -0.012527578 2.3323339e-38
-0.03316056 -0.10225673 -0.0084730312 2.3509168e-38
-0.031319551 -0.10225673 -0.0084730312 2.3509168e-38
-0.029478543 -0.10225673 -0.0084730312 2.3509168e-38
-0.027637532 -0.10225673 -0.0084730312 2.3509527e-38
-0.025764532 -0.10322 -0.012527578 2.3509527e-38
-0.023955515 -0.10225673 -0.0084730312 2.3509886e-38
-0.022114504 -0.10225673 -0.0084730312 2.3509883e-38
-0.020273495 -0.10225673 -0.0084730312 2.3509883e-38
-0.018432487 -0.10225673 -0.0084730312 2.350988e-38
-0.016591478 -0.10225673 -0.0084730312 2.350988e-38
-0.014750469 -0.10225673 -0.0084730312 2.3509883e-38
-0.012968723 -0.10155846 -0.0055339262 2.3509886e-38
-0.011132866 -0.10155846 -0.0055339262 2.3509527e-38
-0.0092970114 -0.10155846 -0.0055339262 2.3509527e-38
-0.0075382013 -0.10083848 -0.0025033876 2.3509527e-38
-0.0057076588 -0.10083848 -0.0025033876 2.3509527e-38
-0.0038771164 -0.10083848 -0.0025033876 2.3509886e-38
-0.0020465739 -0.10083848 -0.0025033876 2.3509886e-38
-0.00021603331 -0.10083848 -0.0025033876 2.3509886e-38
0.001614511 -0.10083848 -0.0025033876 2.3509886e-38
0.0034450516 -0.10083848 -0.0025033876 2.3509886e-38
0.0051620081 -0.10012263 0.00050974637 2.3509886e-38
0.00698727 -0.10012263 0.00050974637 2.3509886e-38
0.0088125281 -0.10012263 0.00050974637 2.3509886e-38
0.010767221 -0.10083848 -0.0025033876 2.3509886e-38
0.012463048 -0.10012263 0.00050974637 2.3509886e-38
0.014288306 -0.10012263 0.00050974637 2.3509886e-38
0.016113564 -0.10012263 0.00050974637 2.341769e-38
0.017938826 -0.10012263 0.00050974637 2.3325494e-38
0.019764084 -0.10012263 0.00050974637 2.3509886e-38
0.021589343 -0.10012263 0.00050974637 2.3509886e-38
0.023249149 -0.099410906 0.0035054758 2.3509886e-38
0.025069155 -0.099410906 0.0035054758 2.3509527e-38
0.02688916 -0.099410906 0.0035054758 2.3509527e-38
0.028709166 -0.099410906 0.0035054758 2.3509168e-38
0.030529179 -0.099410906 0.0035054758 2.3508451e-38
0.032540895 -0.10012263 0.00050974637 2.3508092e-38
-0.049834456 -0.10578094 -0.015506022 1.6129894e-38
-0.047941949 -0.1050681 -0.012527578 1.5395192e-38
-0.046093833 -0.1050681 -0.012527578 2.3509859e-38
-0.044245712 -0.1050681 -0.012527578 2.3509883e-38
-0.042397596 -0.1050681 -0.012527578 2.2587224e-38
-0.040524594 -0.10409774 -0.0084730312 2.3508809e-38
-0.038683586 -0.10409774 -0.0084730312 2.3507733e-38
-0.036842577 -0.10409774 -0.0084730312 2.3508451e-38
-0.035005122 -0.1050681 -0.012527578 2.3507733e-38
-0.03316056 -0.10409774 -0.0084730312 2.3508451e-38
-0.031319551 -0.10409774 -0.0084730312 2.3509168e-38
-0.029478543 -0.10409774 -0.0084730312 2.3509168e-38
-0.027637532 -0.10409774 -0.0084730312 2.3509527e-38
-0.025796523 -0.10409774 -0.0084730312 2.3417333e-38
-0.023955515 -0.10409774 -0.0084730312 2.3417333e-38
-0.022114504 -0.10409774 -0.0084730312 2.3509886e-38
-0.020312145 -0.10339431 -0.0055339262 2.3509886e-38
-0.018476289 -0.10339431 -0.0055339262 2.3509886e-38
-0.016640434 -0.10339431 -0.0055339262 2.3509886e-38
-0.014804577 -0.10339431 -0.0055339262 2.3509886e-38
-0.012968723 -0.10339431 -0.0055339262 2.3417333e-38
-0.011132866 -0.10339431 -0.0055339262 2.3509527e-38
-0.0093687437 -0.10266902 -0.0025033876 2.3509527e-38
-0.0075382013 -0.10266902 -0.0025033876 2.3509527e-38
-0.0057895463 -0.10194789 0.00050974637 2.3509527e-38
-0.0039642863 -0.10194789 0.00050974637 2.3509886e-38
-0.0021390282 -0.10194789 0.00050974637 2.3509883e-38
-0.0003137663 -0.10194789 0.00050974637 2.3509886e-38
0.0015114918 -0.10194789 0.00050974637 2.3417687e-38
0.00333675 -0.10194789 0.00050974637 2.3509886e-38
0.0051620081 -0.10194789 0.00050974637 2.3509883e-38
0.00698727 -0.10194789 0.00050974637 2.3509883e-38
0.0088125281 -0.10194789 0.00050974637 2.3509883e-38
0.010637786 -0.10194789 0.00050974637 2.3509883e-38
0.012463048 -0.10194789 0.00050974637 2.3509883e-38
0.014288306 -0.10194789 0.00050974637 2.3509886e-38
0.01596912 -0.10123092 0.0035054758 2.3509886e-38
0.017789129 -0.10123092 0.0035054758 2.3509886e-38
0.019609135 -0.10123092 0.0035054758 2.3509886e-38
0.02142914 -0.10123092 0.0035054758 2.3509886e-38
0.023031972 -0.10028981 0.0074377134 2.3509883e-38
0.024845082 -0.10028981 0.0074377134 2.3418043e-38
0.026658196 -0.10028981 0.0074377134 2.3049978e-38
0.028471306 -0.10028981 0.0074377134 2.3509883e-38
0.030093864 -0.099557132 0.010499127 2.3139311e-38
0.031901613 -0.099557132 0.010499127 2.3508092e-38
-0.049790066 -0.10691623 -0.012527578 1.4746957e-38
-0.047941949 -0.10691623 -0.012527578 1.7054716e-38
-0.046093833 -0.10691623 -0.012527578 2.350986e-38
-0.044245712 -0.10691623 -0.012527578 2.3509527e-38
-0.042365603 -0.10593875 -0.0084730312 2.3048197e-38
-0.040524594 -0.10593875 -0.0084730312 2.3508809e-38
-0.038683586 -0.10593875 -0.0084730312 2.3508809e-38
-0.036842577 -0.10593875 -0.0084730312 2.3508451e-38
-0.035001568 -0.10593875 -0.0084730312 2.3508451e-38
-0.03316056 -0.10593875 -0.0084730312 2.3508809e-38
-0.031319551 -0.10593875 -0.0084730312 2.3509527e-38
-0.029478543 -0.10593875 -0.0084730312 2.3509527e-38
-0.027637532 -0.10593875 -0.0084730312 2.3509527e-38
-0.025796523 -0.10593875 -0.0084730312 2.3325138e-38
-0.023955515 -0.10593875 -0.0084730312 2.3325138e-38
-0.022148002 -0.10523017 -0.0055339262 2.3417333e-38
-0.020312145 -0.10523017 -0.0055339262 2.3509886e-38
-0.018476289 -0.10523017 -0.0055339262 2.3509886e-38
-0.016690912 -0.10449956 -0.0025033876 2.3417691e-38
-0.014860371 -0.10449956 -0.0025033876 2.3509527e-38
-0.013029829 -0.10449956 -0.0025033876 2.3509527e-38
-0.011199286 -0.10449956 -0.0025033876 2.3509527e-38
-0.0093687437 -0.10449956 -0.0025033876 2.3232944e-38
-0.0076148044 -0.10377313 0.00050974637 2.3325138e-38
-0.0057895463 -0.10377313 0.00050974637 2.3509527e-38
-0.0039642863 -0.10377313 0.00050974637 2.3509886e-38
-0.0021390282 -0.10377313 0.00050974637 2.350988e-38
-0.0003137663 -0.10377313 0.00050974637 2.350988e-38
0.0015114918 -0.10377313 0.00050974637 2.350988e-38
0.00333675 -0.10377313 0.00050974637 2.3509883e-38
0.0050490797 -0.10305093 0.0035054758 2.350988e-38
0.0068690889 -0.10305093 0.0035054758 2.3509883e-38
0.0086890943 -0.10305093 0.0035054758 2.3509883e-38
0.0105091 -0.10305093 0.0035054758 2.3509883e-38
0.012329109 -0.10305093 0.0035054758 2.3509883e-38
0.014149114 -0.10305093 0.0035054758 2.3509883e-38
0.01596912 -0.10305093 0.0035054758 2.3509883e-38
0.017789129 -0.10305093 0.0035054758 2.3509886e-38
0.019609135 -0.10305093 0.0035054758 2.3509886e-38
0.02142914 -0.10305093 0.0035054758 2.3509886e-38
0.023031972 -0.10210292 0.0074377134 2.3418045e-38
0.024845082 -0.10210292 0.0074377134 2.305069e-38
0.026478376 -0.10136487 0.010499127 2.2497875e-38
0.028286122 -0.10136487 0.010499127 2.3418043e-38
0.030093864 -0.10136487 0.010499127 2.3509527e-38
0.031901613 -0.10136487 0.010499127 2.3508092e-38
0.033709355 -0.10136487 0.010499127 2.1570881e-38
-0.049790066 -0.10876434 -0.012527578 1.5670326e-38
-0.047941949 -0.10876434 -0.012527578 1.9360307e-38
-0.046093833 -0.10876434 -0.012527578 2.2496771e-38
-0.044206612 -0.10777976 -0.0084730312 2.3418033e-38
-0.042365603 -0.10777976 -0.0084730312 2.2865229e-38
-0.04050656 -0.10706602 -0.0055339262 2.3509876e-38
-0.038670704 -0.10706602 -0.0055339262 2.3509872e-38
-0.036834847 -0.10706602 -0.0055339262 2.3415881e-38
-0.035001568 -0.10777976 -0.0084730312 2.3509518e-38
-0.033163138 -0.10706602 -0.0055339262 2.350988e-38
-0.031327281 -0.10706602 -0.0055339262 2.3509883e-38
-0.029491425 -0.10706602 -0.0055339262 2.3509883e-38
-0.027637532 -0.10777976 -0.0084730312 2.341769e-38
-0.025796523 -0.10777976 -0.0084730312 2.3325497e-38
-0.023955515 -0.10777976 -0.0084730312 2.3325497e-38
-0.022148002 -0.10706602 -0.0055339262 2.3417333e-38
-0.020351997 -0.10633011 -0.0025033876 2.3509527e-38
-0.018521454 -0.10633011 -0.0025033876 2.3509527e-38
-0.016741101 -0.10559841 0.00050974637 2.3325138e-38
-0.014915843 -0.10559841 0.00050974637 2.3417333e-38
-0.013090583 -0.10559841 0.00050974637 2.3509527e-38
-0.011265324 -0.10559841 0.00050974637 2.3509886e-38
-0.0094400644 -0.10559841 0.00050974637 2.304891e-38
-0.0076148044 -0.10559841 0.00050974637 2.3141106e-38
-0.0057895463 -0.10559841 0.00050974637 2.3509886e-38
-0.0039642863 -0.10559841 0.00050974637 2.350988e-38
-0.0021390282 -0.10559841 0.00050974637 2.3509879e-38
-0.0003137663 -0.10559841 0.00050974637 2.3509879e-38
0.0014090687 -0.10487093 0.0035054758 2.3509879e-38
0.0032290742 -0.10487093 0.0035054758 2.350988e-38
0.0050490797 -0.10487093 0.0035054758 2.3509879e-38
0.0068690889 -0.10487093 0.0035054758 2.3418043e-38
0.008527074 -0.10391603 0.0074377134 2.3325847e-38
0.010340184 -0.10391603 0.0074377134 2.350988e-38
0.012329109 -0.10487093 0.0035054758 2.350988e-38
0.014149114 -0.10487093 0.0035054758 2.350988e-38
0.015779521 -0.10391603 0.0074377134 2.350988e-38
0.017592635 -0.10391603 0.0074377134 2.3509883e-38
0.019609135 -0.10487093 0.0035054758 2.3509883e-38
0.021218859 -0.10391603 0.0074377134 2.3509883e-38
0.023031972 -0.10391603 0.0074377134 2.3418043e-38
0.024670634 -0.10317262 0.010499127 2.3142527e-38
0.026478376 -0.10317262 0.010499127 2.2775179e-38
0.028286122 -0.10317262 0.010499127 2.3234367e-38
0.030093864 -0.10317262 0.010499127 2.3509886e-38
0.031713545 -0.10245901 0.013437755 2.3046403e-38
0.033516139 -0.10245901 0.013437755 1.82522e-38
-0.049790066 -0.11061247 -0.012527578 2.0925823e-38
-0.047941949 -0.11061247 -0.012527578 2.3048486e-38
-0.046047624 -0.10962076 -0.0084730312 2.3050302e-38
-0.044206612 -0.10962076 -0.0084730312 2.3509866e-38
-0.042365603 -0.10962076 -0.0084730312 2.3418035e-38
-0.04050656 -0.10890187 -0.0055339262 2.3509859e-38
-0.038670704 -0.10890187 -0.0055339262 2.3509856e-38
-0.036834847 -0.10890187 -0.0055339262 2.350986e-38
-0.035001568 -0.10962076 -0.0084730312 2.3509866e-38
-0.033163138 -0.10890187 -0.0055339262 2.3509865e-38
-0.031327281 -0.10890187 -0.0055339262 2.3509869e-38
-0.029491425 -0.10890187 -0.0055339262 2.350987e-38
-0.027637532 -0.10962076 -0.0084730312 2.3509876e-38
-0.025819713 -0.10890187 -0.0055339262 2.3325846e-38
-0.023983859 -0.10890187 -0.0055339262 2.3325492e-38
-0.022182539 -0.10816063 -0.0025033876 2.3417691e-38
-0.020351997 -0.10816063 -0.0025033876 2.3509886e-38
-0.018566361 -0.10742365 0.00050974637 2.3417691e-38
-0.016741101 -0.10742365 0.00050974637 2.3417691e-38
-0.014915843 -0.10742365 0.00050974637 2.3417691e-38
-0.013090583 -0.10742365 0.00050974637 2.3509886e-38
-0.011265324 -0.10742365 0.00050974637 2.3509883e-38
-0.0094400644 -0.10742365 0.00050974637 2.350988e-38
-0.0076148044 -0.10742365 0.00050974637 2.3509879e-38
-0.0057895463 -0.10742365 0.00050974637 2.3509876e-38
-0.0040509533 -0.10669093 0.0035054758 2.3509876e-38
-0.002230946 -0.10669093 0.0035054758 2.3509876e-38
-0.0004109405 -0.10669093 0.0035054758 2.3418039e-38
0.0014090687 -0.10669093 0.0035054758 2.3418039e-38
0.0032290742 -0.10669093 0.0035054758 2.3418039e-38
0.0049008466 -0.10572915 0.0074377134 2.3418039e-38
0.0067139603 -0.10572915 0.0074377134 2.3418042e-38
0.008527074 -0.10572915 0.0074377134 2.3509879e-38
0.010340184 -0.10572915 0.0074377134 2.3509879e-38
0.012153298 -0.10572915 0.0074377134 2.3509879e-38
0.014149114 -0.10669093 0.0035054758 2.350988e-38
0.015779521 -0.10572915 0.0074377134 2.350988e-38
0.017592635 -0.10572915 0.0074377134 2.350988e-38
0.019405745 -0.10572915 0.0074377134 2.350988e-38
0.021218859 -0.10572915 0.0074377134 2.350988e-38
0.023031972 -0.10572915 0.0074377134 2.3418043e-38
0.024670634 -0.10498036 0.010499127 2.2958857e-38
0.026305772 -0.10426159 0.013437755 2.2958856e-38
0.028108366 -0.10426159 0.013437755 2.3234364e-38
0.029910959 -0.10426159 0.013437755 2.3509883e-38
0.031713545 -0.10426159 0.013437755 2.3508092e-38
0.033317186 -0.10352151 0.016463645 1.88965e-38
0.035114475 -0.10352151 0.016463645 1.6778428e-38
-0.053486302 -0.11246057 -0.012527578 1.6035504e-38
-0.051638186 -0.11246057 -0.012527578 1.5300086e-38
-0.049790066 -0.11246057 -0.012527578 2.3509823e-38
-0.047888633 -0.11146177 -0.0084730312 2.3509838e-38
-0.046047624 -0.11146177 -0.0084730312 2.3509853e-38
-0.044206612 -0.11146177 -0.0084730312 2.3418038e-38
-0.042365603 -0.11146177 -0.0084730312 2.3234364e-38
-0.04050656 -0.11073773 -0.0055339262 2.3234344e-38
-0.038670704 -0.11073773 -0.0055339262 2.3509848e-38
-0.036834847 -0.11073773 -0.0055339262 2.323399e-38
-0.034998991 -0.11073773 -0.0055339262 2.3509863e-38
-0.033165794 -0.10999118 -0.0025033876 2.3234343e-38
-0.03133525 -0.10999118 -0.0025033876 2.3418014e-38
-0.029504709 -0.10999118 -0.0025033876 2.3509856e-38
-0.027655568 -0.11073773 -0.0055339262 2.350986e-38
-0.025843624 -0.10999118 -0.0025033876 2.3418032e-38
-0.024013082 -0.10999118 -0.0025033876 2.3418039e-38
-0.022182539 -0.10999118 -0.0025033876 2.3509883e-38
-0.020351997 -0.10999118 -0.0025033876 2.3509886e-38
-0.018566361 -0.10924892 0.00050974637 2.3233299e-38
-0.016741101 -0.10924892 0.00050974637 2.3509886e-38
-0.014915843 -0.10924892 0.00050974637 2.3509883e-38
-0.013090583 -0.10924892 0.00050974637 2.3141455e-38
-0.011265324 -0.10924892 0.00050974637 2.3418036e-38
-0.0094400644 -0.10924892 0.00050974637 2.3509869e-38
-0.0076148044 -0.10924892 0.00050974637 2.3509866e-38
-0.0058709607 -0.10851096 0.0035054758 2.2957768e-38
-0.0040509533 -0.10851096 0.0035054758 2.350987e-38
-0.0023516007 -0.10754226 0.0074377134 2.3418036e-38
-0.00053848699 -0.10754226 0.0074377134 2.3234004e-38
0.001274623 -0.10754226 0.0074377134 2.3049612e-38
0.0030877367 -0.10754226 0.0074377134 2.3141808e-38
0.0047854446 -0.10678811 0.010499127 2.3326199e-38
0.0065931864 -0.10678811 0.010499127 2.3509876e-38
0.008400932 -0.10678811 0.010499127 2.3509876e-38
0.010208678 -0.10678811 0.010499127 2.3509876e-38
0.012016423 -0.10678811 0.010499127 2.3509876e-38
0.013966411 -0.10754226 0.0074377134 2.3418042e-38
0.015779521 -0.10754226 0.0074377134 2.3418042e-38
0.017592635 -0.10754226 0.0074377134 2.3418042e-38
0.019405745 -0.10754226 0.0074377134 2.3418042e-38
0.021218859 -0.10754226 0.0074377134 2.3509879e-38
0.022862889 -0.10678811 0.010499127 2.3418043e-38
0.024670634 -0.10678811 0.010499127 2.2867026e-38
0.026305772 -0.10606419 0.013437755 2.3142534e-38
0.028108366 -0.10606419 0.013437755 2.3142524e-38
0.029910959 -0.10606419 0.013437755 2.350988e-38
0.031519905 -0.1053188 0.016463645 2.3508092e-38
0.033119395 -0.10457774 0.019471891 2.0278723e-38
0.034911409 -0.10457774 0.019471891 1.6498993e-38
-0.055334423 -0.1143087 -0.012527578 1.4836595e-38
-0.053486302 -0.1143087 -0.012527578 1.3730962e-38
-0.051638186 -0.1143087 -0.012527578 1.4563226e-38
-0.049790066 -0.1143087 -0.012527578 2.3509814e-38
-0.047888633 -0.11330278 -0.0084730312 2.3509835e-38
-0.046047624 -0.11330278 -0.0084730312 2.3509853e-38
-0.044206612 -0.11330278 -0.0084730312 2.323436e-38
-0.042365603 -0.11330278 -0.0084730312 2.2775172e-38
-0.04050656 -0.11257361 -0.0055339262 2.2866981e-38
-0.038670704 -0.11257361 -0.0055339262 2.286698e-38
-0.036834847 -0.11257361 -0.0055339262 2.2958115e-38
-0.034996334 -0.11182173 -0.0025033876 2.2865559e-38
-0.033165794 -0.11182173 -0.0025033876 2.2774784e-38
-0.03133525 -0.11182173 -0.0025033876 2.3050649e-38
-0.029504709 -0.11182173 -0.0025033876 2.3326167e-38
-0.027674166 -0.11182173 -0.0025033876 2.3509848e-38
-0.025843624 -0.11182173 -0.0025033876 2.3509859e-38
-0.024013082 -0.11182173 -0.0025033876 2.3418032e-38
-0.022216879 -0.11107419 0.00050974637 2.3325843e-38
-0.020391621 -0.11107419 0.00050974637 2.3325847e-38
-0.018566361 -0.11107419 0.00050974637 2.3233296e-38
-0.016741101 -0.11107419 0.00050974637 2.350988e-38
-0.014970994 -0.11033095 0.0035054758 2.3418042e-38
-0.013150986 -0.11033095 0.0035054758 2.3141805e-38
-0.011330981 -0.11033095 0.0035054758 2.314216e-38
-0.0095109735 -0.11033095 0.0035054758 2.3509859e-38
-0.0076909661 -0.11033095 0.0035054758 2.3234343e-38
-0.0058709607 -0.11033095 0.0035054758 2.2497139e-38
-0.0041647125 -0.10935538 0.0074377134 2.3509866e-38
-0.0024455339 -0.10859586 0.010499127 2.3418033e-38
-0.00063779205 -0.10859586 0.010499127 2.3141805e-38
0.0011699535 -0.10859586 0.010499127 2.304961e-38
0.002977699 -0.10859586 0.010499127 2.304961e-38
0.0046746656 -0.10786678 0.013437755 2.3234004e-38
0.0064772591 -0.10786678 0.013437755 2.3509873e-38
0.0082798526 -0.10786678 0.013437755 2.3509873e-38
0.010208678 -0.10859586 0.010499127 2.3509876e-38
0.012016423 -0.10859586 0.010499127 2.3509876e-38
0.013824165 -0.10859586 0.010499127 2.3418039e-38
0.01563191 -0.10859586 0.010499127 2.3325843e-38
0.017439656 -0.10859586 0.010499127 2.3325846e-38
0.019247398 -0.10859586 0.010499127 2.3418042e-38
0.021055143 -0.10859586 0.010499127 2.3509879e-38
0.022862889 -0.10859586 0.010499127 2.3418045e-38
0.024503179 -0.10786678 0.013437755 2.3142544e-38
0.026305772 -0.10786678 0.013437755 2.3142544e-38
0.028108366 -0.10786678 0.013437755 2.3234004e-38
0.029910959 -0.10786678 0.013437755 2.3509879e-38
0.031519905 -0.10711606 0.016463645 2.3508092e-38
0.033119395 -0.10636975 0.019471891 2.0092901e-38
0.034911409 -0.10636975 0.019471891 1.4191977e-38
-0.057182539 -0.1161568 -0.012527578 1.5297922e-38
-0.055252668 -0.11514379 -0.0084730312 1.5482671e-38
-0.053411659 -0.11514379 -0.0084730312 1.2994456e-38
-0.051638186 -0.1161568 -0.012527578 1.2074641e-38
-0.049729642 -0.11514379 -0.0084730312 1.9821236e-38
-0.047849983 -0.11440946 -0.0055339262 2.2126878e-38
-0.046014126 -0.11440946 -0.0055339262 2.3509841e-38
-0.04417827 -0.11440946 -0.0055339262 2.2775162e-38
-0.042342417 -0.11440946 -0.0055339262 2.268332e-38
-0.04050656 -0.11440946 -0.0055339262 2.3142475e-38
-0.038657419 -0.11365227 -0.0025033876 2.2866957e-38
-0.036826879 -0.11365227 -0.0025033876 2.3509837e-38
-0.034993693 -0.11289944 0.00050974637 2.2406002e-38
-0.033168435 -0.11289944 0.00050974637 2.2130118e-38
-0.031343177 -0.11289944 0.00050974637 2.2498898e-38
-0.029517915 -0.11289944 0.00050974637 2.3050644e-38
-0.027692657 -0.11289944 0.00050974637 2.3326164e-38
-0.025867399 -0.11289944 0.00050974637 2.3326174e-38
-0.024042137 -0.11289944 0.00050974637 2.323435e-38
-0.022216879 -0.11289944 0.00050974637 2.304961e-38
-0.020391621 -0.11289944 0.00050974637 2.3049256e-38
-0.018566361 -0.11289944 0.00050974637 2.3509879e-38
-0.016741101 -0.11289944 0.00050974637 2.323365e-38
-0.014970994 -0.11215095 0.0035054758 2.3326196e-38
-0.013150986 -0.11215095 0.0035054758 2.3509866e-38
-0.011330981 -0.11215095 0.0035054758 2.3050313e-38
-0.0095109735 -0.11215095 0.0035054758 2.1944316e-38
-0.0076909661 -0.11215095 0.0035054758 2.1852475e-38
-0.0058709607 -0.11215095 0.0035054758 2.2497847e-38
-0.0041647125 -0.11116849 0.0074377134 2.350986e-38
-0.0024455339 -0.11040358 0.010499127 2.3418032e-38
-0.00063779205 -0.11040358 0.010499127 2.3326195e-38
0.0011699535 -0.11040358 0.010499127 2.3233999e-38
0.002977699 -0.11040358 0.010499127 2.3233999e-38
0.0046746656 -0.10966937 0.013437755 2.3141805e-38
0.0064772591 -0.10966937 0.013437755 2.3141805e-38
0.0082798526 -0.10966937 0.013437755 2.3141805e-38
0.010082442 -0.10966937 0.013437755 2.3509873e-38
0.012016423 -0.11040358 0.010499127 2.3509873e-38
0.013824165 -0.11040358 0.010499127 2.3326199e-38
0.01563191 -0.11040358 0.010499127 2.3234004e-38
0.017439656 -0.11040358 0.010499127 2.3233648e-38
0.019247398 -0.11040358 0.010499127 2.3325843e-38
0.021055143 -0.11040358 0.010499127 2.3509876e-38
0.022862889 -0.11040358 0.010499127 2.3418047e-38
0.024503179 -0.10966937 0.013437755 2.3142185e-38
0.026305772 -0.10966937 0.013437755 2.3234379e-38
0.028108366 -0.10966937 0.013437755 2.3325483e-38
0.029910959 -0.10966937 0.013437755 2.3509517e-38
0.031519905 -0.10891335 0.016463645 2.3507733e-38
0.033119395 -0.10816176 0.019471891 2.2026862e-38
0.034911409 -0.10816176 0.019471891 1.6862805e-38
-0.073662758 -0.1169848 -0.0084730312 1.0500163e-38
-0.071821749 -0.1169848 -0.0084730312 1.1608309e-38
-0.057093676 -0.1169848 -0.0084730312 1.1424615e-38
-0.055252668 -0.1169848 -0.0084730312 1.2623516e-38
-0.053411659 -0.1169848 -0.0084730312 1.1426039e-38
-0.051638186 -0.11800493 -0.012527578 9.860856e-39
-0.049729642 -0.1169848 -0.0084730312 1.4196933e-38
-0.047849983 -0.11624531 -0.0055339262 1.8808895e-38
-0.046014126 -0.11624531 -0.0055339262 2.2314504e-38
-0.04417827 -0.11624531 -0.0055339262 2.084118e-38
-0.042342417 -0.11624531 -0.0055339262 2.084333e-38
-0.04048796 -0.11548282 -0.0025033876 2.1581231e-38
-0.038657419 -0.11548282 -0.0025033876 2.1120606e-38
-0.036818951 -0.11472471 0.00050974637 2.2132263e-38
-0.034993693 -0.11472471 0.00050974637 2.0380191e-38
-0.033168435 -0.11472471 0.00050974637 2.1394694e-38
-0.031343177 -0.11472471 0.00050974637 2.1855675e-38
-0.029517915 -0.11472471 0.00050974637 2.2499619e-38
-0.027692657 -0.11472471 0.00050974637 2.2866977e-38
-0.025867399 -0.11472471 0.00050974637 2.2958826e-38
-0.024042137 -0.11472471 0.00050974637 2.2775157e-38
-0.022216879 -0.11472471 0.00050974637 2.259113e-38
-0.020391621 -0.11472471 0.00050974637 2.2681893e-38
-0.018566361 -0.11472471 0.00050974637 2.3418025e-38
-0.016791001 -0.11397095 0.0035054758 2.277409e-38
-0.014970994 -0.11397095 0.0035054758 2.3142514e-38
-0.013150986 -0.11397095 0.0035054758 2.3418021e-38
-0.011330981 -0.11397095 0.0035054758 2.2866991e-38
-0.0095109735 -0.11397095 0.0035054758 2.0470256e-38
-0.0076909661 -0.11397095 0.0035054758 2.0562801e-38
-0.0058709607 -0.11397095 0.0035054758 2.259111e-38
-0.0041647125 -0.1129816 0.0074377134 2.3326181e-38
-0.0024455339 -0.11221133 0.010499127 2.3418031e-38
-0.00063779205 -0.11221133 0.010499127 2.3418033e-38
0.0011699535 -0.11221133 0.010499127 2.3418033e-38
0.002977699 -0.11221133 0.010499127 2.3326194e-38
0.0046746656 -0.11147197 0.013437755 2.305068e-38
0.0064772591 -0.11147197 0.013437755 2.2774089e-38
0.0082798526 -0.11147197 0.013437755 2.2314543e-38
0.010082442 -0.11147197 0.013437755 2.323435e-38
0.011885036 -0.11147197 0.013437755 2.3142514e-38
0.013687629 -0.11147197 0.013437755 2.2958845e-38
0.015490219 -0.11147197 0.013437755 2.2867013e-38
0.017292812 -0.11147197 0.013437755 2.2958852e-38
0.019095402 -0.11147197 0.013437755 2.3050686e-38
0.020897996 -0.11147197 0.013437755 2.3418028e-38
0.022700589 -0.11147197 0.013437755 2.3234362e-38
0.024503179 -0.11147197 0.013437755 2.3142541e-38
0.026305772 -0.11147197 0.013437755 2.3142537e-38
0.028108366 -0.11147197 0.013437755 2.3141794e-38
0.029910959 -0.11147197 0.013437755 2.350986e-38
0.031519905 -0.11071064 0.016463645 2.3507732e-38
0.033317186 -0.11071064 0.016463645 2.2487829e-38
0.035114475 -0.11071064 0.016463645 1.8982586e-38
0.036911763 -0.11071064 0.016463645 1.4557156e-38
0.08916606 -0.11875431 -0.015506022 2.3325856e-38
0.091019392 -0.11875431 -0.015506022 2.3325856e-38
0.092872739 -0.11875431 -0.015506022 2.3325856e-38
0.094363138 -0.11800493 -0.012527578 2.3325856e-38
0.096211255 -0.11800493 -0.012527578 2.3417691e-38
0.098059371 -0.11800493 -0.012527578 2.3417691e-38
-0.075503767 -0.11882581 -0.0084730312 1.2989797e-38
-0.073437721 -0.11731337 -0.0025033876 1.0132809e-38
-0.07160718 -0.11731337 -0.0025033876 1.179233e-38
-0.069880247 -0.11808117 -0.0055339262 1.1423548e-38
-0.062616706 -0.11882581 -0.0084730312 1.2254016e-38
-0.060775694 -0.11882581 -0.0084730312 1.216182e-38
-0.058934685 -0.11882581 -0.0084730312 1.2344771e-38
-0.057093676 -0.11882581 -0.0084730312 1.1790513e-38
-0.055252668 -0.11882581 -0.0084730312 1.2158932e-38
-0.053411659 -0.11882581 -0.0084730312 1.1331321e-38
-0.05157065 -0.11882581 -0.0084730312 1.0227483e-38
-0.049729642 -0.11882581 -0.0084730312 1.1891318e-38
-0.047849983 -0.11808117 -0.0055339262 1.5952605e-38
-0.046014126 -0.11808117 -0.0055339262 2.0474148e-38
-0.044149049 -0.11731337 -0.0025033876 1.93714e-38
-0.042318504 -0.11731337 -0.0025033876 1.8266846e-38
-0.04048796 -0.11731337 -0.0025033876 1.8821089e-38
-0.038644213 -0.11654995 0.00050974637 1.9005478e-38
-0.036818951 -0.11654995 0.00050974637 2.0938359e-38
-0.034993693 -0.11654995 0.00050974637 2.1397549e-38
-0.033171061 -0.11579098 0.0035054758 2.1213882e-38
-0.031351052 -0.11579098 0.0035054758 2.1764916e-38
-0.029531047 -0.11579098 0.0035054758 2.2224114e-38
-0.027711041 -0.11579098 0.0035054758 2.2683309e-38
-0.025891034 -0.11579098 0.0035054758 2.2224131e-38
-0.024071027 -0.11579098 0.0035054758 2.0750076e-38
-0.022251021 -0.11579098 0.0035054758 2.0566391e-38
-0.020431014 -0.11579098 0.0035054758 2.2132279e-38
-0.018611006 -0.11579098 0.0035054758 2.2958812e-38
-0.016791001 -0.11579098 0.0035054758 2.2132286e-38
-0.014970994 -0.11579098 0.0035054758 2.2958828e-38
-0.013150986 -0.11579098 0.0035054758 2.2958833e-38
-0.011330981 -0.11579098 0.0035054758 2.3142502e-38
-0.0095109735 -0.11579098 0.0035054758 1.9273504e-38
-0.0077909362 -0.11479472 0.0074377134 2.0103967e-38
-0.0059778243 -0.11479472 0.0074377134 2.2866971e-38
-0.0041647125 -0.11479472 0.0074377134 2.2958835e-38
-0.0024455339 -0.11401908 0.010499127 2.3050684e-38
-0.00063779205 -0.11401908 0.010499127 2.2498594e-38
0.0010694824 -0.11327456 0.013437755 2.3234364e-38
0.0028720759 -0.11327456 0.013437755 2.3234357e-38
0.0046746656 -0.11327456 0.013437755 2.2223063e-38
0.0064772591 -0.11327456 0.013437755 2.231596e-38
0.0082798526 -0.11327456 0.013437755 2.2132278e-38
0.010082442 -0.11327456 0.013437755 2.2591463e-38
0.011885036 -0.11327456 0.013437755 2.2499634e-38
0.013687629 -0.11327456 0.013437755 2.2315977e-38
0.015490219 -0.11327456 0.013437755 2.2315984e-38
0.017292812 -0.11327456 0.013437755 2.1488735e-38
0.019095402 -0.11327456 0.013437755 2.2132304e-38
0.020897996 -0.11327456 0.013437755 2.2958825e-38
0.022700589 -0.11327456 0.013437755 2.2958824e-38
0.024503179 -0.11327456 0.013437755 2.2866992e-38
0.026305772 -0.11327456 0.013437755 2.2775151e-38
0.028108366 -0.11327456 0.013437755 2.3509828e-38
0.029910959 -0.11327456 0.013437755 2.3509837e-38
0.031519905 -0.11250792 0.016463645 2.3507702e-38
0.033317186 -0.11250792 0.016463645 2.0459491e-38
0.035114475 -0.11250792 0.016463645 1.9812313e-38
0.036911763 -0.11250792 0.016463645 1.4280557e-38
0.085798129 -0.12136655 -0.018501393 2.350987e-38
0.087656721 -0.12136655 -0.018501393 2.341805e-38
0.08916606 -0.12060766 -0.015506022 2.3509886e-38
0.091019392 -0.12060766 -0.015506022 2.3509886e-38
0.092515007 -0.11985306 -0.012527578 2.3509886e-38
0.094363138 -0.11985306 -0.012527578 2.3509886e-38
0.095710069 -0.11882581 -0.0084730312 2.3509527e-38
0.097551078 -0.11882581 -0.0084730312 2.3509527e-38
0.099392086 -0.11882581 -0.0084730312 2.3508451e-38
0.10123309 -0.11882581 -0.0084730312 2.3509168e-38
0.1030741 -0.11882581 -0.0084730312 2.2954557e-38
-0.075503767 -0.12066682 -0.0084730312 1.1238432e-38
-0.073437721 -0.11914389 -0.0025033876 1.188488e-38
-0.07160718 -0.11914389 -0.0025033876 1.2530247e-38
-0.069776639 -0.11914389 -0.0025033876 1.1975631e-38
-0.067946091 -0.11914389 -0.0025033876 1.2528081e-38
-0.066115558 -0.11914389 -0.0025033876 1.2988696e-38
-0.06428501 -0.11914389 -0.0025033876 1.1513926e-38
-0.062536836 -0.11991702 -0.0055339262 1.1884509e-38
-0.060775694 -0.12066682 -0.0084730312 1.1700841e-38
-0.058934685 -0.12066682 -0.0084730312 1.2251494e-38
-0.057093676 -0.12066682 -0.0084730312 1.1882345e-38
-0.055252668 -0.12066682 -0.0084730312 1.2342959e-38
-0.053411659 -0.12066682 -0.0084730312 1.1514633e-38
-0.05157065 -0.12066682 -0.0084730312 1.0411517e-38
-0.049729642 -0.12066682 -0.0084730312 1.2167905e-38
-0.047849983 -0.11991702 -0.0055339262 1.5216109e-38
-0.045979589 -0.11914389 -0.0025033876 1.9830922e-38
-0.044149049 -0.11914389 -0.0025033876 1.9097312e-38
-0.042318504 -0.11914389 -0.0025033876 1.7900924e-38
-0.04048796 -0.11914389 -0.0025033876 1.7901643e-38
-0.038644213 -0.11837523 0.00050974637 1.7164077e-38
-0.036818951 -0.11837523 0.00050974637 1.8729961e-38
-0.034993693 -0.11837523 0.00050974637 1.9189869e-38
-0.033171061 -0.11761098 0.0035054758 2.0754695e-38
-0.031351052 -0.11761098 0.0035054758 2.112206e-38
-0.029531047 -0.11761098 0.0035054758 2.1029879e-38
-0.027711041 -0.11761098 0.0035054758 2.038416e-38
-0.025891034 -0.11761098 0.0035054758 1.964624e-38
-0.024071027 -0.11761098 0.0035054758 1.8540245e-38
-0.022251021 -0.11761098 0.0035054758 1.8909012e-38
-0.020431014 -0.11761098 0.0035054758 2.047669e-38
-0.018611006 -0.11761098 0.0035054758 2.194859e-38
-0.016791001 -0.11761098 0.0035054758 2.2040435e-38
-0.014970994 -0.11761098 0.0035054758 2.2775147e-38
-0.013150986 -0.11761098 0.0035054758 2.2040459e-38
-0.011330981 -0.11761098 0.0035054758 2.2132293e-38
-0.0095109735 -0.11761098 0.0035054758 1.982847e-38
-0.0077909362 -0.11660783 0.0074377134 2.065929e-38
-0.0059778243 -0.11660783 0.0074377134 2.2407778e-38
-0.0041647125 -0.11660783 0.0074377134 2.2591472e-38
-0.0024455339 -0.11582683 0.010499127 2.2866995e-38
-0.00063779205 -0.11582683 0.010499127 2.2407819e-38
0.0010694824 -0.11507715 0.013437755 2.2958838e-38
0.0028720759 -0.11507715 0.013437755 2.2958831e-38
0.0046746656 -0.11507715 0.013437755 2.2040449e-38
0.0064772591 -0.11507715 0.013437755 2.1673083e-38
0.0082798526 -0.11507715 0.013437755 2.0108979e-38
0.010082442 -0.11507715 0.013437755 2.0295165e-38
0.011885036 -0.11507715 0.013437755 1.9097708e-38
0.013687629 -0.11507715 0.013437755 1.8820418e-38
0.015490219 -0.11507715 0.013437755 1.8542402e-38
0.017292812 -0.11507715 0.013437755 1.7711563e-38
0.019095402 -0.11507715 0.013437755 1.7986707e-38
0.020897996 -0.11507715 0.013437755 1.8999766e-38
0.022700589 -0.11507715 0.013437755 1.9092317e-38
0.024503179 -0.11507715 0.013437755 1.9553661e-38
0.026305772 -0.11507715 0.013437755 2.1581246e-38
0.027925327 -0.11430521 0.016463645 2.1854949e-38
0.029722616 -0.11430521 0.016463645 2.2956992e-38
0.031519905 -0.11430521 0.016463645 2.3509118e-38
0.033317186 -0.11430521 0.016463645 1.4651505e-38
0.035114475 -0.11430521 0.016463645 1.1515044e-38
0.036911763 -0.11430521 0.016463645 1.308164e-38
0.084274918 -0.12399365 -0.021513812 2.3509469e-38
0.085459381 -0.12246101 -0.015506022 2.3509869e-38
0.087312713 -0.12246101 -0.015506022 2.3509886e-38
0.088818774 -0.12170117 -0.012527578 2.3509886e-38
0.090666905 -0.12170117 -0.012527578 2.3509886e-38
0.092515007 -0.12170117 -0.012527578 2.3509527e-38
0.094363138 -0.12170117 -0.012527578 2.3509527e-38
0.095710069 -0.12066682 -0.0084730312 2.3509527e-38
0.097551078 -0.12066682 -0.0084730312 2.3509527e-38
0.099392086 -0.12066682 -0.0084730312 2.3509168e-38
0.10123309 -0.12066682 -0.0084730312 2.3508809e-38
0.1030741 -0.12066682 -0.0084730312 2.3507372e-38
0.10491511 -0.12066682 -0.0084730312 8.2943725e-39
-0.075503767 -0.12250783 -0.0084730312 1.169941e-38
-0.073437721 -0.12097444 -0.0025033876 1.2899029e-38
-0.07160718 -0.12097444 -0.0025033876 1.225366e-38
-0.069776639 -0.12097444 -0.0025033876 1.179124e-38
-0.067946091 -0.12097444 -0.0025033876 1.2435885e-38
-0.066115558 -0.12097444 -0.0025033876 1.2712109e-38
-0.06428501 -0.12097444 -0.0025033876 1.1698317e-38
-0.062536836 -0.12175287 -0.0055339262 1.1424973e-38
-0.060775694 -0.12250783 -0.0084730312 1.1332777e-38
-0.058934685 -0.12250783 -0.0084730312 1.188379e-38
-0.057182539 -0.1235493 -0.012527578 1.1790513e-38
-0.055252668 -0.12250783 -0.0084730312 1.2343321e-38
-0.053411659 -0.12250783 -0.0084730312 1.1423161e-38
-0.051638186 -0.1235493 -0.012527578 1.0504435e-38
-0.049729642 -0.12250783 -0.0084730312 1.235302e-38
-0.047849983 -0.12175287 -0.0055339262 1.4202683e-38
-0.045979589 -0.12097444 -0.0025033876 1.8264322e-38
-0.044149049 -0.12097444 -0.0025033876 1.7438518e-38
-0.042318504 -0.12097444 -0.0025033876 1.6611272e-38
-0.040469471 -0.12020047 0.00050974637 1.6704187e-38
-0.038644213 -0.12020047 0.00050974637 1.5505644e-38
-0.036811076 -0.11943097 0.0035054758 1.6057378e-38
-0.034991067 -0.11943097 0.0035054758 1.6056662e-38
-0.033171061 -0.11943097 0.0035054758 1.9558665e-38
-0.031351052 -0.11943097 0.0035054758 2.0479197e-38
-0.029531047 -0.11943097 0.0035054758 2.0294823e-38
-0.027711041 -0.11943097 0.0035054758 1.9280323e-38
-0.025891034 -0.11943097 0.0035054758 1.863388e-38
-0.024071027 -0.11943097 0.0035054758 1.7896669e-38
-0.022251021 -0.11943097 0.0035054758 1.8266154e-38
-0.020431014 -0.11943097 0.0035054758 1.9465052e-38
-0.018611006 -0.11943097 0.0035054758 2.0017509e-38
-0.016791001 -0.11943097 0.0035054758 2.0938396e-38
-0.014970994 -0.11943097 0.0035054758 2.1489429e-38
-0.013150986 -0.11943097 0.0035054758 2.010722e-38
-0.011330981 -0.11943097 0.0035054758 2.0291612e-38
-0.0095109735 -0.11943097 0.0035054758 1.9554396e-38
-0.0077909362 -0.11842094 0.0074377134 2.0200467e-38
-0.0059778243 -0.11842094 0.0074377134 2.0845828e-38
-0.0041647125 -0.11842094 0.0074377134 2.0752556e-38
-0.0023516007 -0.11842094 0.0074377134 2.167308e-38
-0.00053848699 -0.11842094 0.0074377134 2.1119195e-38
0.0011699535 -0.11763458 0.010499127 2.1303589e-38
0.002977699 -0.11763458 0.010499127 2.1764564e-38
0.0046746656 -0.11687975 0.013437755 2.167308e-38
0.0064772591 -0.11687975 0.013437755 2.1029493e-38
0.0082798526 -0.11687975 0.013437755 1.8726394e-38
0.010082442 -0.11687975 0.013437755 1.9650145e-38
0.011885036 -0.11687975 0.013437755 1.7346693e-38
0.013687629 -0.11687975 0.013437755 1.6609134e-38
0.015490219 -0.11687975 0.013437755 1.6977559e-38
0.017292812 -0.11687975 0.013437755 1.6976119e-38
0.019095402 -0.11687975 0.013437755 1.7343812e-38
0.020897996 -0.11687975 0.013437755 1.8817852e-38
0.022700589 -0.11687975 0.013437755 1.9647257e-38
0.024503179 -0.11687975 0.013437755 1.8264697e-38
0.026305772 -0.11687975 0.013437755 2.0107534e-38
0.027925327 -0.1161025 0.016463645 2.0749305e-38
0.029722616 -0.1161025 0.016463645 2.3417956e-38
0.031519905 -0.1161025 0.016463645 2.3509825e-38
0.033317186 -0.1161025 0.016463645 1.2254767e-38
0.035114475 -0.1161025 0.016463645 8.8417197e-39
0.036911763 -0.1161025 0.016463645 1.3727362e-38
0.083939537 -0.12508373 -0.018501393 2.3505508e-38
0.085459381 -0.12431435 -0.015506022 2.3509869e-38
0.086970657 -0.1235493 -0.012527578 2.341805e-38
0.088818774 -0.1235493 -0.012527578 2.3509886e-38
0.090666905 -0.1235493 -0.012527578 2.3509886e-38
0.092515007 -0.1235493 -0.012527578 2.3509886e-38
0.094363138 -0.1235493 -0.012527578 2.3509886e-38
0.095710069 -0.12250783 -0.0084730312 2.3509527e-38
0.097551078 -0.12250783 -0.0084730312 2.3509527e-38
0.099392086 -0.12250783 -0.0084730312 2.3509527e-38
