# .PCD v0.7 - Point Cloud Data file format
VERSION 0.7
FIELDS x y z rgb
SIZE 4 4 4 4
TYPE F F F F
COUNT 1 1 1 1
WIDTH 938
HEIGHT 1
VIEWPOINT 0 0 0 1 0 0 0
POINTS 938
DATA ascii
-0.013856474 -0.10718934 0.013950787 1.808607e-38
-0.012095995 -0.10718934 0.013950787 1.9283897e-38
-0.010335516 -0.10718934 0.013950787 2.0386665e-38
-0.008577669 -0.10795029 0.010947309 2.0754731e-38
-0.0068093631 -0.10869022 0.008026801 1.8357633e-38
-0.0050305035 -0.10946019 0.0049876794 2.0200819e-38
-0.0032543074 -0.10946019 0.0049876794 2.0108976e-38
-0.0014781132 -0.10946019 0.0049876794 1.9371408e-38
0.00029808283 -0.10946019 0.0049876794 2.0201895e-38
0.002074278 -0.10946019 0.0049876794 2.1305734e-38
0.0038504731 -0.10946019 0.0049876794 2.084655e-38
0.0056266682 -0.10946019 0.0049876794 1.9924235e-38
0.0074484302 -0.11023484 0.0019301996 2.0292663e-38
0.009229986 -0.11023484 0.0019301996 2.1213906e-38
0.011066277 -0.1109881 -0.0010428801 2.0936244e-38
0.012913346 -0.11174576 -0.0040334836 1.8630632e-38
0.014705358 -0.11174576 -0.0040334836 1.7155493e-38
0.016568575 -0.11250792 -0.00704173 1.5680359e-38
0.018365862 -0.11250792 -0.00704173 1.6877824e-38
0.020245383 -0.11327456 -0.010067619 2.2407785e-38
0.022047974 -0.11327456 -0.010067619 2.3326184e-38
0.023850568 -0.11327456 -0.010067619 2.3418045e-38
0.025748476 -0.11401908 -0.013006248 2.3234379e-38
0.027556222 -0.11401908 -0.013006248 2.2958873e-38
0.029363967 -0.11401908 -0.013006248 2.1486224e-38
0.031171713 -0.11401908 -0.013006248 1.6417223e-38
0.032979455 -0.11401908 -0.013006248 1.7431692e-38
0.034913342 -0.11479472 -0.016067661 1.7983052e-38
0.036594946 -0.11401908 -0.013006248 1.6965668e-38
0.038402691 -0.11401908 -0.013006248 1.1153753e-38
0.040210433 -0.11401908 -0.013006248 1.0137447e-38
0.04216579 -0.11479472 -0.016067661 1.1887365e-38
-0.034655247 -0.10588033 0.02598276 9.8608925e-39
-0.03291586 -0.10588033 0.02598276 1.0419461e-38
-0.031176478 -0.10588033 0.02598276 1.1439724e-38
-0.029437091 -0.10588033 0.02598276 1.7806969e-38
-0.027758803 -0.10665329 0.022952877 1.6796396e-38
-0.026014108 -0.10665329 0.022952877 1.6796752e-38
-0.024269409 -0.10665329 0.022952877 1.8269017e-38
-0.022568677 -0.10740583 0.020003103 1.9465419e-38
-0.020818807 -0.10740583 0.020003103 2.0385602e-38
-0.019103888 -0.10818814 0.016936503 1.9926066e-38
-0.017348643 -0.10818814 0.016936503 2.0111883e-38
-0.015593398 -0.10818814 0.016936503 1.7902766e-38
-0.013856474 -0.10894983 0.013950787 1.5968082e-38
-0.012095995 -0.10894983 0.013950787 1.6519105e-38
-0.010343414 -0.10971604 0.010947309 1.6975432e-38
-0.0085802283 -0.11046107 0.008026801 1.7066193e-38
-0.0068066977 -0.11123641 0.0049876794 1.8633497e-38
-0.0050305035 -0.11123641 0.0049876794 2.0293368e-38
-0.0032543074 -0.11123641 0.0049876794 2.038556e-38
-0.0014781132 -0.11123641 0.0049876794 1.946504e-38
0.00029808283 -0.11123641 0.0049876794 2.0386997e-38
0.002074278 -0.11123641 0.0049876794 2.1397561e-38
0.0038504731 -0.11123641 0.0049876794 2.0571033e-38
0.0056266682 -0.11123641 0.0049876794 1.9279944e-38
0.0074484302 -0.11201639 0.0019301996 1.9555098e-38
0.009229986 -0.11201639 0.0019301996 2.0569255e-38
0.011011543 -0.11201639 0.0019301996 2.0291951e-38
0.012853045 -0.11277486 -0.0010428801 1.780159e-38
0.014705358 -0.11353777 -0.0040334836 1.6418291e-38
0.016568575 -0.11430521 -0.00704173 1.595695e-38
0.018365862 -0.11430521 -0.00704173 1.7799779e-38
0.020163149 -0.11430521 -0.00704173 2.3050637e-38
0.022047974 -0.11507715 -0.010067619 2.3050666e-38
0.023850568 -0.11507715 -0.010067619 2.2682623e-38
0.025653157 -0.11507715 -0.010067619 2.2683359e-38
0.027556222 -0.11582683 -0.013006248 2.286703e-38
0.029363967 -0.11582683 -0.013006248 2.2683328e-38
0.031171713 -0.11582683 -0.013006248 1.6140636e-38
0.032979455 -0.11582683 -0.013006248 1.5771815e-38
0.0347872 -0.11582683 -0.013006248 1.7337684e-38
0.036594946 -0.11582683 -0.013006248 1.7242257e-38
0.038271304 -0.11507715 -0.010067619 1.1154835e-38
0.039933302 -0.11430521 -0.00704173 1.0138167e-38
0.04173059 -0.11430521 -0.00704173 1.179625e-38
-0.034737587 -0.10839801 0.022952877 9.1233274e-39
-0.03291586 -0.10761972 0.02598276 9.6818962e-39
-0.031176478 -0.10761972 0.02598276 1.005679e-38
-0.029503498 -0.10839801 0.022952877 1.6238923e-38
-0.027818281 -0.10915567 0.020003103 1.596592e-38
-0.026068412 -0.10915567 0.020003103 1.7441769e-38
-0.024318542 -0.10915567 0.020003103 1.9651598e-38
-0.022568677 -0.10915567 0.020003103 2.0387022e-38
-0.020859133 -0.10994337 0.016936503 2.1030257e-38
-0.019103888 -0.10994337 0.016936503 1.9371816e-38
-0.017348643 -0.10994337 0.016936503 1.8822579e-38
-0.015593398 -0.10994337 0.016936503 1.7533982e-38
-0.013856474 -0.11071031 0.013950787 1.6520535e-38
-0.012095995 -0.11071031 0.013950787 1.6887524e-38
-0.010351095 -0.11223195 0.008026801 1.6791035e-38
-0.0085828938 -0.1130126 0.0049876794 1.6789959e-38
-0.0068066977 -0.1130126 0.0049876794 1.7896653e-38
-0.0050305035 -0.1130126 0.0049876794 1.937249e-38
-0.0032543074 -0.1130126 0.0049876794 1.9188096e-38
-0.0014781132 -0.1130126 0.0049876794 1.8450888e-38
0.00029808283 -0.1130126 0.0049876794 1.946504e-38
0.002074278 -0.1130126 0.0049876794 2.0571032e-38
0.0038504731 -0.1130126 0.0049876794 2.0018223e-38
0.0056266682 -0.1130126 0.0049876794 1.8911522e-38
0.0074028634 -0.1130126 0.0049876794 1.9095201e-38
0.009229986 -0.11379795 0.0019301996 2.0661093e-38
0.011011543 -0.11379795 0.0019301996 2.0475986e-38
0.012853045 -0.11456163 -0.0010428801 1.7525006e-38
0.014705358 -0.11532979 -0.0040334836 1.5772924e-38
0.016568575 -0.1161025 -0.00704173 1.558853e-38
0.018365862 -0.1161025 -0.00704173 1.6878903e-38
0.020163149 -0.1161025 -0.00704173 2.1118474e-38
0.022047974 -0.11687975 -0.010067619 2.3142495e-38
0.023850568 -0.11687975 -0.010067619 2.3142514e-38
0.025653157 -0.11687975 -0.010067619 2.2499673e-38
0.027556222 -0.11763458 -0.013006248 2.1855018e-38
0.029363967 -0.11763458 -0.013006248 2.1210702e-38
0.031171713 -0.11763458 -0.013006248 1.6418294e-38
0.032979455 -0.11763458 -0.013006248 1.6140953e-38
0.0347872 -0.11763458 -0.013006248 1.8536228e-38
0.036594946 -0.11763458 -0.013006248 1.7149706e-38
0.038271304 -0.11687975 -0.010067619 1.152254e-38
0.039933302 -0.1161025 -0.00704173 1.0505879e-38
0.04173059 -0.1161025 -0.00704173 1.2071407e-38
-0.036482286 -0.11014269 0.022952877 1.1055833e-38
-0.034737587 -0.11014269 0.022952877 9.0307688e-39
-0.032992888 -0.11014269 0.022952877 9.4964259e-39
-0.031248193 -0.11014269 0.022952877 9.4110602e-39
-0.029503498 -0.11014269 0.022952877 1.5408807e-38
-0.027818281 -0.11090554 0.020003103 1.5965922e-38
-0.026068412 -0.11090554 0.020003103 1.8731791e-38
-0.024318542 -0.11090554 0.020003103 2.1213906e-38
-0.022568677 -0.11090554 0.020003103 2.16731e-38
-0.020859133 -0.11169861 0.016936503 2.1213934e-38
-0.019103888 -0.11169861 0.016936503 1.8265111e-38
-0.017348643 -0.11169861 0.016936503 1.7255256e-38
-0.015593398 -0.11169861 0.016936503 1.6888613e-38
-0.013856474 -0.11247079 0.013950787 1.6981869e-38
-0.012095995 -0.11247079 0.013950787 1.7717639e-38
-0.010351095 -0.11400281 0.008026801 1.7713346e-38
-0.0085828938 -0.11478879 0.0049876794 1.8080693e-38
-0.0068066977 -0.11478879 0.0049876794 1.8911162e-38
-0.0050305035 -0.11478879 0.0049876794 2.0202251e-38
-0.0032543074 -0.11478879 0.0049876794 1.9649077e-38
-0.0014781132 -0.11478879 0.0049876794 1.8359054e-38
0.00029808283 -0.11478879 0.0049876794 1.9281011e-38
0.002074278 -0.11478879 0.0049876794 2.0662873e-38
0.0038504731 -0.11478879 0.0049876794 2.057104e-38
0.0056266682 -0.11478879 0.0049876794 1.983348e-38
0.0074028634 -0.11478879 0.0049876794 1.8818977e-38
0.009229986 -0.1155795 0.0019301996 2.0385588e-38
0.011011543 -0.1155795 0.0019301996 2.0661099e-38
0.012853045 -0.1163484 -0.0010428801 1.7525729e-38
0.014705358 -0.1171218 -0.0040334836 1.5681093e-38
0.016568575 -0.11789979 -0.00704173 1.5404142e-38
0.018365862 -0.11789979 -0.00704173 1.5404136e-38
0.020163149 -0.11789979 -0.00704173 1.7431727e-38
0.022047974 -0.11868234 -0.010067619 1.9090542e-38
0.023850568 -0.11868234 -0.010067619 2.2132296e-38
0.025748476 -0.11944233 -0.013006248 2.0195848e-38
0.027556222 -0.11944233 -0.013006248 1.6324348e-38
0.029363967 -0.11944233 -0.013006248 1.6141369e-38
0.031171713 -0.11944233 -0.013006248 1.595731e-38
0.032979455 -0.11944233 -0.013006248 1.6418255e-38
0.0347872 -0.11944233 -0.013006248 1.8167444e-38
0.036594946 -0.11944233 -0.013006248 1.6780926e-38
0.038271304 -0.11868234 -0.010067619 1.1337795e-38
0.040073898 -0.11868234 -0.010067619 1.0505525e-38
-0.03639463 -0.11109848 0.02598276 1.0410463e-38
-0.034655247 -0.11109848 0.02598276 9.3995514e-39
-0.03291586 -0.11109848 0.02598276 9.496063e-39
-0.031176478 -0.11109848 0.02598276 9.3174297e-39
-0.029503498 -0.11188738 0.022952877 1.5684676e-38
-0.027818281 -0.11265542 0.020003103 1.6610218e-38
-0.026068412 -0.11265542 0.020003103 1.9100219e-38
-0.024318542 -0.11265542 0.020003103 2.1305747e-38
-0.022568677 -0.11265542 0.020003103 2.1673106e-38
-0.020859133 -0.11345388 0.016936503 2.1673121e-38
-0.019103888 -0.11345388 0.016936503 1.81722e-38
-0.017348643 -0.11345388 0.016936503 1.6701366e-38
-0.015593398 -0.11345388 0.016936503 1.651911e-38
-0.013856474 -0.11423124 0.013950787 1.6613084e-38
-0.012095995 -0.11423124 0.013950787 1.7348851e-38
-0.010351095 -0.11577369 0.008026801 1.7620783e-38
-0.0085828938 -0.11656497 0.0049876794 1.8081047e-38
-0.0068066977 -0.11656497 0.0049876794 1.909555e-38
-0.0050305035 -0.11656497 0.0049876794 2.0479198e-38
-0.0032543074 -0.11656497 0.0049876794 2.0110774e-38
-0.0014781132 -0.11656497 0.0049876794 1.8728556e-38
0.00027410407 -0.11577369 0.008026801 1.928173e-38
0.0020449702 -0.11577369 0.008026801 2.0295531e-38
0.0038504731 -0.11656497 0.0049876794 2.0479208e-38
0.0056266682 -0.11656497 0.0049876794 1.9833845e-38
0.0074028634 -0.11656497 0.0049876794 1.863495e-38
0.009229986 -0.11736105 0.0019301996 1.9740585e-38
0.011011543 -0.11736105 0.0019301996 2.0016454e-38
0.012853045 -0.11813517 -0.0010428801 1.73417e-38
0.014705358 -0.11891381 -0.0040334836 1.5774012e-38
0.01649737 -0.11891381 -0.0040334836 1.5865482e-38
0.018365862 -0.11969708 -0.00704173 1.5220467e-38
0.020163149 -0.11969708 -0.00704173 1.5772922e-38
0.022047974 -0.12048493 -0.010067619 1.4758415e-38
0.023850568 -0.12048493 -0.010067619 1.9829545e-38
0.025748476 -0.12125005 -0.013006248 1.8907612e-38
0.027660891 -0.12204717 -0.016067661 1.4297828e-38
0.029474005 -0.12204717 -0.016067661 1.402194e-38
0.031287115 -0.12204717 -0.016067661 1.6234968e-38
0.033100229 -0.12204717 -0.016067661 1.6418252e-38
0.034913342 -0.12204717 -0.016067661 1.7430597e-38
0.036594946 -0.12125005 -0.013006248 1.6504339e-38
0.038402691 -0.12125005 -0.013006248 1.1337798e-38
-0.03639463 -0.11283787 0.02598276 9.9498427e-39
-0.034655247 -0.11283787 0.02598276 9.8594477e-39
-0.03291586 -0.11283787 0.02598276 9.2187572e-39
-0.031176478 -0.11283787 0.02598276 9.4092652e-39
-0.029503498 -0.11363207 0.022952877 1.6882503e-38
-0.027818281 -0.11440529 0.020003103 1.7807685e-38
-0.026068412 -0.11440529 0.020003103 1.8915115e-38
-0.024318542 -0.11440529 0.020003103 2.0479218e-38
-0.022568677 -0.11440529 0.020003103 2.103025e-38
-0.020859133 -0.11520912 0.016936503 2.1581287e-38
-0.019103888 -0.11520912 0.016936503 1.8172205e-38
-0.017348643 -0.11520912 0.016936503 1.6793562e-38
-0.015593398 -0.11520912 0.016936503 1.651911e-38
-0.013856474 -0.11599173 0.013950787 1.642797e-38
-0.012095995 -0.11599173 0.013950787 1.6703836e-38
-0.010343414 -0.11677901 0.010947309 1.6883571e-38
-0.0085828938 -0.11834116 0.0049876794 1.7343836e-38
-0.0068093631 -0.11754455 0.008026801 1.7713335e-38
-0.0050384961 -0.11754455 0.008026801 1.9742355e-38
-0.0032676291 -0.11754455 0.008026801 2.0018939e-38
-0.0014781132 -0.11834116 0.0049876794 1.8821474e-38
0.00027410407 -0.11754455 0.008026801 1.9282453e-38
0.0020449702 -0.11754455 0.008026801 2.0295534e-38
0.0038504731 -0.11834116 0.0049876794 2.0387375e-38
0.0056266682 -0.11834116 0.0049876794 1.9927123e-38
0.0074028634 -0.11834116 0.0049876794 1.9464714e-38
0.009229986 -0.11914261 0.0019301996 1.9740946e-38
0.011011543 -0.11914261 0.0019301996 1.9648035e-38
0.012853045 -0.11992194 -0.0010428801 1.7065838e-38
0.014639813 -0.11992194 -0.0010428801 1.5497788e-38
0.01649737 -0.12070583 -0.0040334836 1.5866205e-38
0.018289382 -0.12070583 -0.0040334836 1.568109e-38
0.020163149 -0.12149437 -0.00704173 1.5865836e-38
0.021960435 -0.12149437 -0.00704173 1.65112e-38
0.023850568 -0.12228753 -0.010067619 2.010756e-38
0.025748476 -0.1230578 -0.013006248 1.9554049e-38
0.027556222 -0.1230578 -0.013006248 1.5866224e-38
0.029474005 -0.12386028 -0.016067661 1.4576185e-38
0.031287115 -0.12386028 -0.016067661 1.6420435e-38
0.033100229 -0.12386028 -0.016067661 1.6142741e-38
0.034913342 -0.12386028 -0.016067661 1.7983771e-38
0.036726452 -0.12386028 -0.016067661 1.6504339e-38
0.038539566 -0.12386028 -0.016067661 1.1521832e-38
-0.034655247 -0.11457725 0.02598276 9.9512832e-39
-0.03291586 -0.11457725 0.02598276 8.8492545e-39
-0.031176478 -0.11457725 0.02598276 9.5014608e-39
-0.029503498 -0.11537679 0.022952877 1.8633141e-38
-0.027818281 -0.11615516 0.020003103 1.9558686e-38
-0.026068412 -0.11615516 0.020003103 1.9282821e-38
-0.024318542 -0.11615516 0.020003103 2.0017522e-38
-0.022568677 -0.11615516 0.020003103 2.1029177e-38
-0.020859133 -0.11696436 0.016936503 2.0751889e-38
-0.019103888 -0.11696436 0.016936503 1.8448075e-38
-0.017348643 -0.11696436 0.016936503 1.7991027e-38
-0.015593398 -0.11696436 0.016936503 1.7441067e-38
-0.013856474 -0.11775221 0.013950787 1.6888947e-38
-0.012095995 -0.11775221 0.013950787 1.6887865e-38
-0.010343414 -0.11854477 0.010947309 1.6607337e-38
-0.0085828938 -0.12011738 0.0049876794 1.6790659e-38
-0.0068093631 -0.11931543 0.008026801 1.7990638e-38
-0.0050384961 -0.11931543 0.008026801 2.002002e-38
-0.0032676291 -0.11931543 0.008026801 2.0295528e-38
-0.001496762 -0.11931543 0.008026801 1.8821474e-38
0.00027410407 -0.11931543 0.008026801 1.8637086e-38
0.0020449702 -0.11931543 0.008026801 1.9467212e-38
0.0038504731 -0.12011738 0.0049876794 1.9743445e-38
0.0056266682 -0.12011738 0.0049876794 1.9743093e-38
0.0074028634 -0.12011738 0.0049876794 1.9742024e-38
0.009229986 -0.12092416 0.0019301996 1.9648753e-38
0.011011543 -0.12092416 0.0019301996 1.9832429e-38
0.012853045 -0.12170871 -0.0010428801 1.7250232e-38
0.014639813 -0.12170871 -0.0010428801 1.5221202e-38
0.01649737 -0.12249784 -0.0040334836 1.5498144e-38
0.018289382 -0.12249784 -0.0040334836 1.5774009e-38
0.020163149 -0.12329166 -0.00704173 1.6235339e-38
0.021960435 -0.12329166 -0.00704173 1.7895212e-38
0.023850568 -0.12409012 -0.010067619 1.9278511e-38
0.025748476 -0.12486555 -0.013006248 1.8448775e-38
0.027556222 -0.12486555 -0.013006248 1.5590714e-38
0.029474005 -0.1256734 -0.016067661 1.3655305e-38
0.031287115 -0.1256734 -0.016067661 1.5867258e-38
0.033100229 -0.1256734 -0.016067661 1.5497372e-38
0.034913342 -0.1256734 -0.016067661 1.7522793e-38
0.036726452 -0.1256734 -0.016067661 1.6504341e-38
0.038539566 -0.1256734 -0.016067661 1.1613311e-38
-0.034655247 -0.11631663 0.02598276 9.950207e-39
-0.03291586 -0.11631663 0.02598276 8.5719515e-39
-0.031176478 -0.11631663 0.02598276 9.8691671e-39
-0.029503498 -0.11712147 0.022952877 2.001536e-38
-0.027758803 -0.11712147 0.022952877 2.1122066e-38
-0.026068412 -0.11790501 0.020003103 1.9927473e-38
-0.024318542 -0.11790501 0.020003103 2.0293393e-38
-0.022568677 -0.11790501 0.020003103 2.1581274e-38
-0.020859133 -0.11871959 0.016936503 2.2499662e-38
-0.019103888 -0.11871959 0.016936503 2.0845161e-38
-0.017348643 -0.11871959 0.016936503 2.1122091e-38
-0.015616955 -0.11951269 0.013950787 2.057105e-38
-0.013856474 -0.11951269 0.013950787 1.9468988e-38
-0.012095995 -0.11951269 0.013950787 1.882397e-38
-0.010343414 -0.1203105 0.010947309 1.799027e-38
-0.0085828938 -0.12189357 0.0049876794 1.7804809e-38
-0.0068093631 -0.12108628 0.008026801 1.8451616e-38
-0.0050384961 -0.12108628 0.008026801 2.002002e-38
-0.0032676291 -0.12108628 0.008026801 1.9374651e-38
-0.001496762 -0.12108628 0.008026801 1.6609142e-38
0.00027410407 -0.12108628 0.008026801 1.5502798e-38
0.0020449702 -0.12108628 0.008026801 1.5963421e-38
0.0038504731 -0.12189357 0.0049876794 1.6516601e-38
0.0056266682 -0.12189357 0.0049876794 1.6885031e-38
0.0074028634 -0.12189357 0.0049876794 1.8727873e-38
0.009229986 -0.12270571 0.0019301996 1.872752e-38
0.011066277 -0.12349547 -0.0010428801 1.9556205e-38
0.012853045 -0.12349547 -0.0010428801 1.7435342e-38
0.014705358 -0.12428986 -0.0040334836 1.512973e-38
0.01649737 -0.12428986 -0.0040334836 1.5497788e-38
0.018289382 -0.12428986 -0.0040334836 1.6142792e-38
0.020163149 -0.12508895 -0.00704173 1.70651e-38
0.021960435 -0.12508895 -0.00704173 1.6328602e-38
0.023850568 -0.12589271 -0.010067619 1.7527873e-38
0.025748476 -0.1266733 -0.013006248 1.7435339e-38
0.027556222 -0.1266733 -0.013006248 1.5314843e-38
0.029474005 -0.12748651 -0.016067661 1.3563828e-38
0.031287115 -0.12748651 -0.016067661 1.6789934e-38
0.033100229 -0.12748651 -0.016067661 1.6235656e-38
0.034913342 -0.12748651 -0.016067661 1.7338402e-38
0.036726452 -0.12748651 -0.016067661 1.6412145e-38
0.038539566 -0.12748651 -0.016067661 1.1521116e-38
0.040535383 -0.12853102 -0.019999899 1.0871799e-38
-0.034655247 -0.11805601 0.02598276 9.6729013e-39
-0.03291586 -0.11805601 0.02598276 9.8616113e-39
-0.031176478 -0.11805601 0.02598276 9.4989469e-39
-0.029503498 -0.11886616 0.022952877 1.9922444e-38
-0.027758803 -0.11886616 0.022952877 2.0571043e-38
-0.026068412 -0.11965488 0.020003103 2.0295177e-38
-0.024318542 -0.11965488 0.020003103 2.0477784e-38
-0.022568677 -0.11965488 0.020003103 2.1856784e-38
-0.020859133 -0.12047486 0.016936503 2.1764246e-38
-0.019103888 -0.12047486 0.016936503 2.1856799e-38
-0.017348643 -0.12047486 0.016936503 2.1305764e-38
-0.015616955 -0.12127317 0.013950787 2.0479213e-38
-0.013856474 -0.12127317 0.013950787 1.9928172e-38
-0.012095995 -0.12127317 0.013950787 1.9560456e-38
-0.010343414 -0.12207626 0.010947309 1.8727475e-38
-0.0085828938 -0.12366976 0.0049876794 1.7711893e-38
-0.0068119224 -0.12207626 0.010947309 1.8543814e-38
-0.0050461777 -0.12207626 0.010947309 1.8821121e-38
-0.003280431 -0.12207626 0.010947309 1.882184e-38
-0.001496762 -0.12285714 0.008026801 1.7715493e-38
0.00027410407 -0.12285714 0.008026801 1.5963778e-38
0.0020449702 -0.12285714 0.008026801 1.4950351e-38
0.0038504731 -0.12366976 0.0049876794 1.5595367e-38
0.0056266682 -0.12366976 0.0049876794 1.6701363e-38
0.0074028634 -0.12366976 0.0049876794 1.9189214e-38
0.009229986 -0.1244873 0.0019301996 1.8727523e-38
0.011066277 -0.12528224 -0.0010428801 1.8726444e-38
0.012853045 -0.12528224 -0.0010428801 1.7803769e-38
0.014639813 -0.12528224 -0.0010428801 1.4853143e-38
0.01649737 -0.12608187 -0.0040334836 1.6696331e-38
0.018289382 -0.12608187 -0.0040334836 1.6419734e-38
0.020163149 -0.12688623 -0.00704173 1.6143862e-38
0.021960435 -0.12688623 -0.00704173 1.5223334e-38
0.023850568 -0.12769531 -0.010067619 1.73442e-38
0.025748476 -0.12848105 -0.013006248 1.6144964e-38
0.027556222 -0.12848105 -0.013006248 1.4946423e-38
0.029474005 -0.1292996 -0.016067661 1.4854211e-38
0.031287115 -0.1292996 -0.016067661 1.4669437e-38
0.033100229 -0.1292996 -0.016067661 1.5959069e-38
0.034913342 -0.1292996 -0.016067661 1.7614989e-38
0.036726452 -0.1292996 -0.016067661 1.6873123e-38
0.038539566 -0.1292996 -0.016067661 1.1613667e-38
0.040535383 -0.13035102 -0.019999899 1.0963992e-38
-0.034655247 -0.1197954 0.02598276 9.8572953e-39
-0.03291586 -0.1197954 0.02598276 9.3999171e-39
-0.031176478 -0.1197954 0.02598276 9.2212824e-39
-0.029437091 -0.1197954 0.02598276 2.0382706e-38
-0.027758803 -0.12061088 0.022952877 2.1030226e-38
-0.026068412 -0.12140475 0.020003103 1.983348e-38
-0.024318542 -0.12140475 0.020003103 1.9554749e-38
-0.022568677 -0.12140475 0.020003103 2.1212129e-38
-0.020818807 -0.12140475 0.020003103 2.1395461e-38
-0.019103888 -0.1222301 0.016936503 2.0936278e-38
-0.017348643 -0.1222301 0.016936503 2.0018612e-38
-0.015616955 -0.12303366 0.013950787 1.9375737e-38
-0.013856474 -0.12303366 0.013950787 1.9284595e-38
-0.012095995 -0.12303366 0.013950787 1.9191676e-38
-0.010343414 -0.12384202 0.010947309 1.8450531e-38
-0.008577669 -0.12384202 0.010947309 1.743495e-38
-0.0068119224 -0.12384202 0.010947309 1.8359423e-38
-0.0050461777 -0.12384202 0.010947309 1.9097708e-38
-0.003280431 -0.12384202 0.010947309 1.9559405e-38
-0.0015146844 -0.12384202 0.010947309 1.8637452e-38
0.00027410407 -0.12462802 0.008026801 1.6885377e-38
0.0020449702 -0.12462802 0.008026801 1.5687916e-38
0.0038504731 -0.12544595 0.0049876794 1.6148542e-38
0.0056266682 -0.12544595 0.0049876794 1.7070148e-38
0.0074028634 -0.12544595 0.0049876794 1.7990674e-38
0.009229986 -0.12626885 0.0019301996 1.7989958e-38
0.011066277 -0.12706901 -0.0010428801 1.8634251e-38
0.012853045 -0.12706901 -0.0010428801 1.798816e-38
0.014639813 -0.12706901 -0.0010428801 1.5406317e-38
0.016426582 -0.12706901 -0.0010428801 1.6973274e-38
0.018289382 -0.12787388 -0.0040334836 1.651193e-38
0.020163149 -0.12868352 -0.00704173 1.6512642e-38
0.021960435 -0.12868352 -0.00704173 1.6145293e-38
0.023850568 -0.1294979 -0.010067619 1.8727498e-38
0.025653157 -0.1294979 -0.010067619 1.8910835e-38
0.027556222 -0.13028879 -0.013006248 1.8634971e-38
0.029474005 -0.13111271 -0.016067661 1.8542039e-38
0.031287115 -0.13111271 -0.016067661 1.6789936e-38
0.033100229 -0.13111271 -0.016067661 1.6235658e-38
0.034913342 -0.13111271 -0.016067661 1.6877425e-38
0.036726452 -0.13111271 -0.016067661 1.7795079e-38
0.038715377 -0.13217102 -0.019999899 1.2259035e-38
0.040674575 -0.13297729 -0.022995628 1.1424607e-38
0.042645115 -0.13378824 -0.026008762 1.2712469e-38
-0.034655247 -0.12153481 0.02598276 1.0778536e-38
-0.03291586 -0.12153481 0.02598276 9.4913953e-39
-0.031176478 -0.12153481 0.02598276 8.9439794e-39
-0.029437091 -0.12153481 0.02598276 2.0566378e-38
-0.027758803 -0.12235557 0.022952877 2.1397574e-38
-0.026014108 -0.12235557 0.022952877 1.983348e-38
-0.024269409 -0.12235557 0.022952877 1.9646581e-38
-0.022568677 -0.12315463 0.020003103 2.1672385e-38
-0.020818807 -0.12315463 0.020003103 2.1948272e-38
-0.019103888 -0.12398534 0.016936503 2.0935916e-38
-0.017348643 -0.12398534 0.016936503 1.9464358e-38
-0.015593398 -0.12398534 0.016936503 1.8453781e-38
-0.013856474 -0.12479414 0.013950787 1.8547032e-38
-0.012095995 -0.12479414 0.013950787 1.8729982e-38
-0.010335516 -0.12479414 0.013950787 1.8357262e-38
-0.008577669 -0.12560774 0.010947309 1.7342758e-38
-0.0068145562 -0.12479414 0.013950787 1.8543458e-38
-0.0050540753 -0.12479414 0.013950787 1.9650885e-38
-0.0032935962 -0.12479414 0.013950787 2.0479211e-38
-0.0015146844 -0.12560774 0.010947309 1.9559408e-38
0.00027410407 -0.12639888 0.008026801 1.7807334e-38
0.0020449702 -0.12639888 0.008026801 1.6608796e-38
0.0038504731 -0.12722217 0.0049876794 1.6885031e-38
0.0056266682 -0.12722217 0.0049876794 1.7622243e-38
0.0074484302 -0.1280504 0.0019301996 1.7805564e-38
0.009229986 -0.1280504 0.0019301996 1.7989958e-38
0.011066277 -0.12885578 -0.0010428801 1.881864e-38
0.012853045 -0.12885578 -0.0010428801 1.789632e-38
0.014639813 -0.12885578 -0.0010428801 1.5591064e-38
0.016426582 -0.12885578 -0.0010428801 1.6604489e-38
0.018289382 -0.1296659 -0.0040334836 1.6511926e-38
0.020163149 -0.13048081 -0.00704173 1.6973976e-38
0.021960435 -0.13048081 -0.00704173 1.6606271e-38
0.023850568 -0.13130049 -0.010067619 1.8358715e-38
0.025653157 -0.13130049 -0.010067619 1.7896683e-38
0.027556222 -0.13209651 -0.013006248 1.7897406e-38
0.029363967 -0.13209651 -0.013006248 1.7988865e-38
0.031171713 -0.13209651 -0.013006248 1.6328602e-38
0.033100229 -0.13292582 -0.016067661 1.6327498e-38
0.034913342 -0.13292582 -0.016067661 1.761499e-38
0.036726452 -0.13292582 -0.016067661 1.7518492e-38
0.038715377 -0.13399105 -0.019999899 1.2074644e-38
0.040674575 -0.13480256 -0.022995628 1.1608995e-38
0.042499833 -0.13480256 -0.022995628 1.3542583e-38
-0.034655247 -0.12327419 0.02598276 1.1422469e-38
-0.03291586 -0.12327419 0.02598276 9.9509413e-39
-0.031176478 -0.12327419 0.02598276 8.8507048e-39
-0.029437091 -0.12327419 0.02598276 2.0012126e-38
-0.027758803 -0.12410025 0.022952877 2.1213897e-38
-0.026014108 -0.12410025 0.022952877 2.0386292e-38
-0.024269409 -0.12410025 0.022952877 2.0751849e-38
-0.022568677 -0.1249045 0.020003103 2.2499632e-38
-0.020818807 -0.1249045 0.020003103 2.1856075e-38
-0.019103888 -0.12574057 0.016936503 2.0567131e-38
-0.017348643 -0.12574057 0.016936503 1.8818989e-38
-0.015593398 -0.12574057 0.016936503 1.7899887e-38
-0.013856474 -0.12655462 0.013950787 1.7809469e-38
-0.012095995 -0.12655462 0.013950787 1.8269006e-38
-0.010335516 -0.12655462 0.013950787 1.85413e-38
-0.0085750353 -0.12655462 0.013950787 1.8171803e-38
-0.0068145562 -0.12655462 0.013950787 1.9095915e-38
-0.0050540753 -0.12655462 0.013950787 2.0111863e-38
-0.0032935962 -0.12655462 0.013950787 2.0754721e-38
-0.0015146844 -0.1273735 0.010947309 1.9743082e-38
0.00027410407 -0.12816976 0.008026801 1.7806618e-38
0.0020449702 -0.12816976 0.008026801 1.6793187e-38
0.0038504731 -0.12899835 0.0049876794 1.7161618e-38
0.0056266682 -0.12899835 0.0049876794 1.7806634e-38
0.0074484302 -0.12983195 0.0019301996 1.8911911e-38
0.009229986 -0.12983195 0.0019301996 1.9187422e-38
0.011066277 -0.13064255 -0.0010428801 1.9555486e-38
0.012853045 -0.13064255 -0.0010428801 1.7711207e-38
0.014705358 -0.13145791 -0.0040334836 1.5682179e-38
0.01649737 -0.13145791 -0.0040334836 1.5959116e-38
0.018289382 -0.13145791 -0.0040334836 1.6143499e-38
0.020163149 -0.1322781 -0.00704173 1.7158366e-38
0.021960435 -0.1322781 -0.00704173 1.6053092e-38
0.023850568 -0.13310309 -0.010067619 1.7805179e-38
0.025653157 -0.13310309 -0.010067619 1.7804485e-38
0.027556222 -0.13390426 -0.013006248 1.8634251e-38
0.029363967 -0.13390426 -0.013006248 1.872643e-38
0.031171713 -0.13390426 -0.013006248 1.6512994e-38
0.033100229 -0.13473894 -0.016067661 1.6050911e-38
0.034913342 -0.13473894 -0.016067661 1.7246208e-38
0.036726452 -0.13473894 -0.016067661 1.7057514e-38
0.038715377 -0.13581105 -0.019999899 1.1982449e-38
0.040674575 -0.13662781 -0.022995628 1.2070692e-38
0.042499833 -0.13662781 -0.022995628 1.4464896e-38
-0.032992888 -0.12584494 0.022952877 1.0134616e-38
-0.031248193 -0.12584494 0.022952877 8.8507076e-39
-0.029503498 -0.12584494 0.022952877 1.927456e-38
-0.027758803 -0.12584494 0.022952877 2.0661437e-38
-0.026014108 -0.12584494 0.022952877 2.0846544e-38
-0.024269409 -0.12584494 0.022952877 2.1120984e-38
-0.022568677 -0.12665437 0.020003103 2.2224116e-38
-0.020818807 -0.12665437 0.020003103 2.1025948e-38
-0.019068938 -0.12665437 0.020003103 1.9828484e-38
-0.017348643 -0.12749584 0.016936503 1.8081779e-38
-0.015593398 -0.12749584 0.016936503 1.7162322e-38
-0.013856474 -0.12831511 0.013950787 1.7071548e-38
-0.012095995 -0.12831511 0.013950787 1.789987e-38
-0.010335516 -0.12831511 0.013950787 1.9001924e-38
-0.0085750353 -0.12831511 0.013950787 1.9462189e-38
-0.0068145562 -0.12831511 0.013950787 1.9372504e-38
-0.0050540753 -0.12831511 0.013950787 2.0202981e-38
-0.0032935962 -0.12831511 0.013950787 2.0479209e-38
-0.0015146844 -0.12913923 0.010947309 1.8913321e-38
0.00027410407 -0.12994061 0.008026801 1.7253444e-38
0.0020449702 -0.12994061 0.008026801 1.6884667e-38
0.0038504731 -0.13077454 0.0049876794 1.762188e-38
0.0056266682 -0.13077454 0.0049876794 1.8359091e-38
0.0074484302 -0.13161351 0.0019301996 1.9648398e-38
0.009229986 -0.13161351 0.0019301996 1.9832792e-38
0.011066277 -0.13242932 -0.0010428801 2.0201211e-38
0.012853045 -0.13242932 -0.0010428801 1.7803403e-38
0.014705358 -0.13324992 -0.0040334836 1.6235706e-38
0.01649737 -0.13324992 -0.0040334836 1.5682165e-38
0.018289382 -0.13324992 -0.0040334836 1.5773992e-38
0.020163149 -0.13407536 -0.00704173 1.6973609e-38
0.021960435 -0.13407536 -0.00704173 1.7527496e-38
0.023850568 -0.13490568 -0.010067619 1.8911878e-38
0.025653157 -0.13490568 -0.010067619 1.8358012e-38
0.027455751 -0.13490568 -0.010067619 1.8634246e-38
0.029363967 -0.13571201 -0.013006248 1.8265805e-38
0.031171713 -0.13571201 -0.013006248 1.586798e-38
0.032979455 -0.13571201 -0.013006248 1.5498093e-38
0.0347872 -0.13571201 -0.013006248 1.6785229e-38
0.036726452 -0.13655205 -0.016067661 1.7518492e-38
0.038715377 -0.13763104 -0.019999899 1.2627819e-38
0.040674575 -0.13845308 -0.022995628 1.2715706e-38
0.042499833 -0.13845308 -0.022995628 1.4557814e-38
-0.03291586 -0.12675296 0.02598276 1.0594517e-38
-0.031176478 -0.12675296 0.02598276 9.4953609e-39
-0.029503498 -0.12758966 0.022952877 1.9827015e-38
-0.027758803 -0.12758966 0.022952877 2.1121336e-38
-0.026014108 -0.12758966 0.022952877 2.0938378e-38
-0.024269409 -0.12758966 0.022952877 2.093623e-38
-0.022524714 -0.12758966 0.022952877 2.148798e-38
-0.020818807 -0.12840421 0.020003103 2.176351e-38
-0.019068938 -0.12840421 0.020003103 2.0382014e-38
-0.017348643 -0.12925108 0.016936503 1.8449843e-38
-0.015593398 -0.12925108 0.016936503 1.7346713e-38
-0.013856474 -0.13007559 0.013950787 1.7255219e-38
-0.012095995 -0.13007559 0.013950787 1.7715124e-38
-0.010335516 -0.13007559 0.013950787 1.9094125e-38
-0.0085750353 -0.13007559 0.013950787 2.0015008e-38
-0.0068145562 -0.13007559 0.013950787 1.9556179e-38
-0.0050540753 -0.13007559 0.013950787 2.001859e-38
-0.0032935962 -0.13007559 0.013950787 1.9834198e-38
-0.0015331162 -0.13007559 0.013950787 1.8359071e-38
0.00025106128 -0.13090499 0.010947309 1.7069055e-38
0.0020449702 -0.1317115 0.008026801 1.7161254e-38
0.0038504731 -0.13255073 0.0049876794 1.8082858e-38
0.0056266682 -0.13255073 0.0049876794 1.8727873e-38
0.0074484302 -0.13339506 0.0019301996 1.8634246e-38
0.009229986 -0.13339506 0.0019301996 1.9279255e-38
0.011011543 -0.13339506 0.0019301996 2.0292688e-38
0.012853045 -0.13421609 -0.0010428801 1.8079267e-38
0.014705358 -0.13504194 -0.0040334836 1.7249495e-38
0.01649737 -0.13504194 -0.0040334836 1.5774717e-38
0.018365862 -0.13587265 -0.00704173 1.5497403e-38
0.020163149 -0.13587265 -0.00704173 1.6605179e-38
0.021960435 -0.13587265 -0.00704173 1.8265413e-38
0.023850568 -0.13670824 -0.010067619 1.9649077e-38
0.025653157 -0.13670824 -0.010067619 1.8357647e-38
0.027455751 -0.13670824 -0.010067619 1.7528251e-38
0.029363967 -0.13751976 -0.013006248 1.6882869e-38
0.031171713 -0.13751976 -0.013006248 1.5130412e-38
0.032979455 -0.13751976 -0.013006248 1.5590289e-38
0.0347872 -0.13751976 -0.013006248 1.7246208e-38
0.036726452 -0.13836516 -0.016067661 1.724155e-38
0.038715377 -0.13945107 -0.019999899 1.3088797e-38
0.040535383 -0.13945107 -0.019999899 1.3176684e-38
0.042499833 -0.14027832 -0.022995628 1.4465621e-38
-0.034737587 -0.12933435 0.022952877 1.1328484e-38
-0.03291586 -0.12849234 0.02598276 1.059452e-38
-0.031176478 -0.12849234 0.02598276 9.5875566e-39
-0.029503498 -0.12933435 0.022952877 2.0287994e-38
-0.027758803 -0.12933435 0.022952877 2.1305724e-38
-0.026014108 -0.12933435 0.022952877 2.0569236e-38
-0.024269409 -0.12933435 0.022952877 2.0567083e-38
-0.022524714 -0.12933435 0.022952877 2.1763844e-38
-0.020780016 -0.12933435 0.022952877 2.2775147e-38
-0.019068938 -0.13015409 0.020003103 2.084299e-38
-0.01731907 -0.13015409 0.020003103 1.8634232e-38
-0.015593398 -0.13100632 0.016936503 1.7531104e-38
-0.013838153 -0.13100632 0.016936503 1.7623646e-38
-0.012082908 -0.13100632 0.016936503 1.8359417e-38
-0.010335516 -0.13183604 0.013950787 1.955403e-38
-0.0085750353 -0.13183604 0.013950787 2.0199405e-38
-0.0068145562 -0.13183604 0.013950787 1.9924606e-38
-0.0050540753 -0.13183604 0.013950787 2.0386656e-38
-0.0032935962 -0.13183604 0.013950787 1.9926397e-38
-0.0015331162 -0.13183604 0.013950787 1.8543462e-38
0.00025106128 -0.13267075 0.010947309 1.762115e-38
0.0020449702 -0.13348235 0.008026801 1.7805544e-38
0.0038504731 -0.13432692 0.0049876794 1.8266171e-38
0.0056266682 -0.13432692 0.0049876794 1.8450207e-38
0.0074484302 -0.13517661 0.0019301996 1.7619731e-38
0.009229986 -0.13517661 0.0019301996 1.8265103e-38
0.011011543 -0.13517661 0.0019301996 1.9462924e-38
0.012853045 -0.13600285 -0.0010428801 1.7433896e-38
0.014705358 -0.13683395 -0.0040334836 1.7526081e-38
0.016568575 -0.13766994 -0.00704173 1.5958026e-38
0.018365862 -0.13766994 -0.00704173 1.5589232e-38
0.020163149 -0.13766994 -0.00704173 1.6788846e-38
0.021960435 -0.13766994 -0.00704173 1.6883189e-38
0.023850568 -0.13851084 -0.010067619 1.9372842e-38
0.025653157 -0.13851084 -0.010067619 1.918776e-38
0.027455751 -0.13851084 -0.010067619 1.8542039e-38
0.029363967 -0.13932751 -0.013006248 1.780446e-38
0.031171713 -0.13932751 -0.013006248 1.596017e-38
0.032979455 -0.13932751 -0.013006248 1.5959069e-38
0.0347872 -0.13932751 -0.013006248 1.7154012e-38
0.036726452 -0.14017828 -0.016067661 1.6503985e-38
0.038539566 -0.14017828 -0.016067661 1.3457224e-38
0.04035268 -0.14017828 -0.016067661 1.4467426e-38
-0.034737587 -0.13107903 0.022952877 1.1238077e-38
-0.032992888 -0.13107903 0.022952877 9.7661843e-39
-0.031248193 -0.13107903 0.022952877 8.6659506e-39
-0.029503498 -0.13107903 0.022952877 2.0010686e-38
-0.027758803 -0.13107903 0.022952877 2.0843678e-38
-0.026014108 -0.13107903 0.022952877 1.9738047e-38
-0.024269409 -0.13107903 0.022952877 2.0013553e-38
-0.022524714 -0.13107903 0.022952877 2.2040427e-38
-0.020780016 -0.13107903 0.022952877 2.1856409e-38
-0.019068938 -0.13190396 0.020003103 2.0013217e-38
-0.01731907 -0.13190396 0.020003103 1.7711559e-38
-0.015569203 -0.13190396 0.020003103 1.7344563e-38
-0.013838153 -0.13276155 0.016936503 1.7899518e-38
-0.012082908 -0.13276155 0.016936503 1.8912591e-38
-0.010335516 -0.13359652 0.013950787 2.0108277e-38
-0.0085750353 -0.13359652 0.013950787 2.0661096e-38
-0.0068145562 -0.13359652 0.013950787 2.0661451e-38
-0.0050540753 -0.13359652 0.013950787 2.0938396e-38
-0.0032935962 -0.13359652 0.013950787 2.0478496e-38
-0.0015331162 -0.13359652 0.013950787 1.9095561e-38
0.00025106128 -0.13443647 0.010947309 1.8173608e-38
0.0020449702 -0.13525321 0.008026801 1.8173609e-38
0.0038504731 -0.13610314 0.0049876794 1.8173253e-38
0.0056266682 -0.13610314 0.0049876794 1.7804474e-38
0.0074484302 -0.13695817 0.0019301996 1.7342777e-38
0.009229986 -0.13695817 0.0019301996 1.7803755e-38
0.011011543 -0.13695817 0.0019301996 1.8817184e-38
0.012853045 -0.13778962 -0.0010428801 1.6511929e-38
0.014705358 -0.13862596 -0.0040334836 1.7248765e-38
0.016568575 -0.13946722 -0.00704173 1.5681794e-38
0.018365862 -0.13946722 -0.00704173 1.5589232e-38
0.020163149 -0.13946722 -0.00704173 1.7065433e-38
0.021960435 -0.13946722 -0.00704173 1.7251971e-38
0.023850568 -0.14031343 -0.010067619 1.9373195e-38
0.025653157 -0.14031343 -0.010067619 1.789809e-38
0.027455751 -0.14031343 -0.010067619 1.6053827e-38
0.029363967 -0.14113526 -0.013006248 1.494783e-38
0.031171713 -0.14113526 -0.013006248 1.4209532e-38
0.032979455 -0.14113526 -0.013006248 1.5774324e-38
0.0347872 -0.14113526 -0.013006248 1.7798665e-38
0.036594946 -0.14113526 -0.013006248 1.6870964e-38
0.038402691 -0.14113526 -0.013006248 1.502202e-38
0.040210433 -0.14113526 -0.013006248 1.6769787e-38
-0.034901094 -0.13451682 0.016936503 1.0228216e-38
-0.033067886 -0.13365383 0.020003103 9.5857237e-39
-0.031318016 -0.13365383 0.020003103 1.0141784e-38
-0.029503498 -0.13282375 0.022952877 1.8903257e-38
-0.027758803 -0.13282375 0.022952877 2.2866975e-38
-0.026014108 -0.13282375 0.022952877 2.0013217e-38
-0.024269409 -0.13282375 0.022952877 1.9276353e-38
-0.022524714 -0.13282375 0.022952877 2.1489397e-38
-0.020780016 -0.13282375 0.022952877 2.1212813e-38
-0.019035321 -0.13282375 0.022952877 2.0013918e-38
-0.01731907 -0.13365383 0.020003103 1.8539884e-38
-0.015569203 -0.13365383 0.020003103 1.8356208e-38
-0.013838153 -0.13451682 0.016936503 1.8726771e-38
-0.012082908 -0.13451682 0.016936503 1.9281013e-38
-0.010335516 -0.13535701 0.013950787 1.9742357e-38
-0.0085750353 -0.13535701 0.013950787 2.0294458e-38
-0.0068145562 -0.13535701 0.013950787 2.0938038e-38
-0.0050540753 -0.13535701 0.013950787 1.9646581e-38
-0.0032935962 -0.13535701 0.013950787 1.9277443e-38
-0.0015146844 -0.13620223 0.010947309 1.890866e-38
0.00025106128 -0.13620223 0.010947309 1.7617922e-38
0.002074278 -0.13787933 0.0049876794 1.7894864e-38
0.0038504731 -0.13787933 0.0049876794 1.8909015e-38
0.0056266682 -0.13787933 0.0049876794 1.854023e-38
0.0074484302 -0.13873972 0.0019301996 1.8539504e-38
0.009229986 -0.13873972 0.0019301996 1.7525706e-38
0.011011543 -0.13873972 0.0019301996 1.8539856e-38
0.012853045 -0.13957639 -0.0010428801 1.7987038e-38
0.014705358 -0.14041798 -0.0040334836 1.7433145e-38
0.016568575 -0.14126451 -0.00704173 1.5589232e-38
0.018365862 -0.14126451 -0.00704173 1.6142409e-38
0.020163149 -0.14126451 -0.00704173 1.6050927e-38
0.021960435 -0.14126451 -0.00704173 1.6328941e-38
0.023850568 -0.14211603 -0.010067619 1.8819665e-38
0.025653157 -0.14211603 -0.010067619 1.7899521e-38
0.027455751 -0.14211603 -0.010067619 1.5134739e-38
0.029363967 -0.14294298 -0.013006248 1.4490089e-38
0.031171713 -0.14294298 -0.013006248 1.4303535e-38
0.032863528 -0.14211603 -0.010067619 1.5312997e-38
0.034666121 -0.14211603 -0.010067619 1.8164577e-38
0.036468711 -0.14211603 -0.010067619 1.7880787e-38
0.038271304 -0.14211603 -0.010067619 1.5938919e-38
0.040073898 -0.14211603 -0.010067619 1.7317538e-38
-0.033067886 -0.13540371 0.020003103 9.3105647e-39
-0.031318016 -0.13540371 0.020003103 9.5889635e-39
-0.029503498 -0.13456844 0.022952877 1.8256809e-38
-0.027758803 -0.13456844 0.022952877 2.0010706e-38
-0.026014108 -0.13456844 0.022952877 1.7154081e-38
-0.024269409 -0.13456844 0.022952877 1.7340966e-38
-0.022524714 -0.13456844 0.022952877 2.1397564e-38
-0.020780016 -0.13456844 0.022952877 2.1948577e-38
-0.019035321 -0.13456844 0.022952877 2.019938e-38
-0.01731907 -0.13540371 0.020003103 1.8446962e-38
-0.015569203 -0.13540371 0.020003103 1.8078903e-38
-0.013838153 -0.13627206 0.016936503 1.9186671e-38
-0.012082908 -0.13627206 0.016936503 1.9926027e-38
-0.010335516 -0.13711749 0.013950787 1.9742352e-38
-0.0085750353 -0.13711749 0.013950787 1.9096985e-38
-0.0068145562 -0.13711749 0.013950787 1.9186318e-38
-0.0050540753 -0.13711749 0.013950787 1.9369995e-38
-0.003280431 -0.13796796 0.010947309 1.8539878e-38
-0.0015146844 -0.13796796 0.010947309 1.6695965e-38
0.00027410407 -0.13879494 0.008026801 1.6419378e-38
0.002074278 -0.13965552 0.0049876794 1.8355843e-38
0.0038504731 -0.13965552 0.0049876794 1.9462186e-38
0.0056668743 -0.14052127 0.0019301996 1.8632778e-38
0.0074484302 -0.14052127 0.0019301996 1.5681791e-38
0.009229986 -0.14052127 0.0019301996 1.5682144e-38
0.011011543 -0.14052127 0.0019301996 1.7341664e-38
0.012853045 -0.14136316 -0.0010428801 1.7249468e-38
0.014705358 -0.14220999 -0.0040334836 1.7433142e-38
0.016568575 -0.1430618 -0.00704173 1.6234602e-38
0.018365862 -0.1430618 -0.00704173 1.6234252e-38
0.020163149 -0.1430618 -0.00704173 1.485203e-38
0.022047974 -0.14391862 -0.010067619 1.5129325e-38
0.023850568 -0.14391862 -0.010067619 1.64215e-38
0.025653157 -0.14391862 -0.010067619 1.5871214e-38
0.027455751 -0.14391862 -0.010067619 1.4766672e-38
0.029363967 -0.14475073 -0.013006248 1.4858871e-38
0.031060934 -0.14391862 -0.010067619 1.448793e-38
0.032863528 -0.14391862 -0.010067619 1.4666913e-38
0.034666121 -0.14391862 -0.010067619 1.6227033e-38
0.036468711 -0.14391862 -0.010067619 1.7878625e-38
0.038271304 -0.14391862 -0.010067619 1.7872503e-38
0.040073898 -0.14391862 -0.010067619 2.0172714e-38
0.043377556 -0.14220999 -0.0040334836 2.2478344e-38
-0.034655247 -0.13544987 0.02598276 1.0690619e-38
-0.03291586 -0.13544987 0.02598276 1.0139605e-38
-0.031176478 -0.13544987 0.02598276 9.6808032e-39
-0.029503498 -0.13631313 0.022952877 1.8809982e-38
-0.027758803 -0.13631313 0.022952877 1.8996903e-38
-0.026014108 -0.13631313 0.022952877 1.6602333e-38
-0.024269409 -0.13631313 0.022952877 1.6419733e-38
-0.022524714 -0.13631313 0.022952877 2.0938388e-38
-0.020780016 -0.13631313 0.022952877 2.167308e-38
-0.019035321 -0.13631313 0.022952877 2.0107907e-38
-0.01731907 -0.13715358 0.020003103 1.9001564e-38
-0.015569203 -0.13715358 0.020003103 1.9462186e-38
-0.013838153 -0.1380273 0.016936503 2.0753641e-38
-0.012082908 -0.1380273 0.016936503 2.12139e-38
-0.010335516 -0.13887797 0.013950787 2.0662872e-38
-0.0085750353 -0.13887797 0.013950787 1.9926027e-38
-0.0068119224 -0.13973372 0.010947309 1.8357631e-38
-0.0050461777 -0.13973372 0.010947309 1.8726419e-38
-0.003280431 -0.13973372 0.010947309 1.7619715e-38
-0.001496762 -0.14056583 0.008026801 1.605239e-38
0.00029808283 -0.1414317 0.0049876794 1.6604486e-38
0.002074278 -0.1414317 0.0049876794 1.7895582e-38
0.0038504731 -0.1414317 0.0049876794 1.8356557e-38
0.0056668743 -0.14230286 0.0019301996 1.8264715e-38
0.0074484302 -0.14230286 0.0019301996 1.5498482e-38
0.009229986 -0.14230286 0.0019301996 1.605165e-38
0.011011543 -0.14230286 0.0019301996 1.743494e-38
0.012853045 -0.14314993 -0.0010428801 1.6420432e-38
0.014705358 -0.14400201 -0.0040334836 1.6880337e-38
0.016568575 -0.14485909 -0.00704173 1.6419362e-38
0.018365862 -0.14485909 -0.00704173 1.6050227e-38
0.020163149 -0.14485909 -0.00704173 1.356094e-38
0.021960435 -0.14485909 -0.00704173 1.2824078e-38
0.023850568 -0.14572121 -0.010067619 1.2456372e-38
0.025653157 -0.14572121 -0.010067619 1.2366701e-38
0.027455751 -0.14572121 -0.010067619 1.3382298e-38
0.029258344 -0.14572121 -0.010067619 1.4304257e-38
0.031060934 -0.14572121 -0.010067619 1.4393573e-38
0.032863528 -0.14572121 -0.010067619 1.4388886e-38
0.034666121 -0.14572121 -0.010067619 1.5119607e-38
0.036468711 -0.14572121 -0.010067619 1.6955952e-38
0.038136017 -0.14485909 -0.00704173 2.0822764e-38
0.039793529 -0.14400201 -0.0040334836 2.247833e-38
0.041585542 -0.14400201 -0.0040334836 2.3493933e-38
0.043377556 -0.14400201 -0.0040334836 2.1926259e-38
0.044861104 -0.14230286 0.0019301996 1.2709948e-38
0.046642661 -0.14230286 0.0019301996 1.0777457e-38
-0.034655247 -0.13718925 0.02598276 1.0874292e-38
-0.032839298 -0.13632594 0.028994285 1.0599863e-38
-0.031105194 -0.13632594 0.028994285 9.7722827e-39
-0.029437091 -0.13718925 0.02598276 1.9086567e-38
-0.027697708 -0.13718925 0.02598276 1.9090522e-38
-0.026014108 -0.13805781 0.022952877 1.7618273e-38
-0.024218943 -0.13718925 0.02598276 1.5868e-38
-0.02247956 -0.13718925 0.02598276 1.8081414e-38
-0.020780016 -0.13805781 0.022952877 1.6144585e-38
-0.019035321 -0.13805781 0.022952877 1.5038591e-38
-0.017290626 -0.13805781 0.022952877 1.5406646e-38
-0.015569203 -0.13890342 0.020003103 1.7250559e-38
-0.013819333 -0.13890342 0.020003103 1.8263999e-38
-0.012082908 -0.13978253 0.016936503 1.7434598e-38
-0.010335516 -0.14063846 0.013950787 1.6882855e-38
-0.0085750353 -0.14063846 0.013950787 1.7528222e-38
-0.0068119224 -0.14149947 0.010947309 1.8266152e-38
-0.0050461777 -0.14149947 0.010947309 1.7437112e-38
-0.0032676291 -0.14233668 0.008026801 1.6515159e-38
-0.001496762 -0.14233668 0.008026801 1.7159453e-38
0.00029808283 -0.14320792 0.0049876794 1.7343847e-38
0.002074278 -0.14320792 0.0049876794 1.5314825e-38
0.0038504731 -0.14320792 0.0049876794 1.448542e-38
0.0056668743 -0.14408441 0.0019301996 1.6605914e-38
0.0074484302 -0.14408441 0.0019301996 1.5867627e-38
0.009229986 -0.14408441 0.0019301996 1.6512994e-38
0.011011543 -0.14408441 0.0019301996 1.7158e-38
0.012853045 -0.1449367 -0.0010428801 1.4668721e-38
0.014705358 -0.14579402 -0.0040334836 1.4668366e-38
0.016568575 -0.14665638 -0.00704173 1.5313383e-38
0.018365862 -0.14665638 -0.00704173 1.5773286e-38
0.020163149 -0.14665638 -0.00704173 1.3192163e-38
0.021960435 -0.14665638 -0.00704173 1.2177994e-38
0.023757722 -0.14665638 -0.00704173 1.0334796e-38
0.025653157 -0.14752381 -0.010067619 1.0060376e-38
0.027455751 -0.14752381 -0.010067619 1.1721338e-38
0.029258344 -0.14752381 -0.010067619 1.2457828e-38
0.031060934 -0.14752381 -0.010067619 1.273261e-38
0.032863528 -0.14752381 -0.010067619 1.3925391e-38
0.034666121 -0.14752381 -0.010067619 1.5394755e-38
0.036468711 -0.14752381 -0.010067619 1.7139266e-38
0.038136017 -0.14665638 -0.00704173 2.3219497e-38
0.039654575 -0.1449367 -0.0010428801 2.3494291e-38
0.041297995 -0.14408441 0.0019301996 2.3493579e-38
0.043079548 -0.14408441 0.0019301996 2.0913917e-38
0.044861104 -0.14408441 0.0019301996 1.1328467e-38
0.046642661 -0.14408441 0.0019301996 9.6725607e-39
0.048424218 -0.14408441 0.0019301996 1.0506298e-38
-0.034655247 -0.13892864 0.02598276 1.0411875e-38
-0.032839298 -0.13806005 0.028994285 1.0599503e-38
-0.031105194 -0.13806005 0.028994285 9.4956959e-39
-0.029437091 -0.13892864 0.02598276 1.7520674e-38
-0.027697708 -0.13892864 0.02598276 1.7524622e-38
-0.026014108 -0.13980253 0.022952877 1.7988124e-38
-0.024218943 -0.13892864 0.02598276 1.6237867e-38
-0.02247956 -0.13892864 0.02598276 1.6514822e-38
-0.020780016 -0.13980253 0.022952877 1.6238591e-38
-0.019035321 -0.13980253 0.022952877 1.4117719e-38
-0.017290626 -0.13980253 0.022952877 1.4393923e-38
-0.015569203 -0.1406533 0.020003103 1.7435658e-38
-0.013819333 -0.1406533 0.020003103 1.8171803e-38
-0.012082908 -0.14153777 0.016936503 1.6235339e-38
-0.010335516 -0.14239894 0.013950787 1.5866908e-38
-0.0085750353 -0.14239894 0.013950787 1.743495e-38
-0.0068119224 -0.1432652 0.010947309 1.7621858e-38
-0.0050461777 -0.1432652 0.010947309 1.6055255e-38
-0.0032676291 -0.14410757 0.008026801 1.5409531e-38
-0.001496762 -0.14410757 0.008026801 1.6975781e-38
0.00029808283 -0.14498411 0.0049876794 1.6791392e-38
0.002074278 -0.14498411 0.0049876794 1.3379435e-38
0.0038504731 -0.14498411 0.0049876794 1.2088694e-38
0.0056668743 -0.14586596 0.0019301996 1.4762723e-38
0.0074484302 -0.14586596 0.0019301996 1.6144936e-38
0.009229986 -0.14586596 0.0019301996 1.6698467e-38
0.011066277 -0.14672346 -0.0010428801 1.706617e-38
0.012853045 -0.14672346 -0.0010428801 1.393152e-38
0.014705358 -0.14758603 -0.0040334836 1.3838255e-38
0.01649737 -0.14758603 -0.0040334836 1.4944248e-38
0.018365862 -0.14845367 -0.00704173 1.6326109e-38
0.020163149 -0.14845367 -0.00704173 1.4389635e-38
0.021960435 -0.14845367 -0.00704173 1.2453868e-38
0.023757722 -0.14845367 -0.00704173 1.0426277e-38
0.025653157 -0.1493264 -0.010067619 9.8745481e-39
0.027455751 -0.1493264 -0.010067619 1.0796867e-38
0.031060934 -0.1493264 -0.010067619 1.0332286e-38
0.032863528 -0.1493264 -0.010067619 1.2539938e-38
0.034666121 -0.1493264 -0.010067619 1.5392597e-38
0.036468711 -0.1493264 -0.010067619 1.7046357e-38
0.038136017 -0.14845367 -0.00704173 2.2389385e-38
0.039654575 -0.14672346 -0.0010428801 2.2478709e-38
0.041297995 -0.14586596 0.0019301996 2.0912474e-38
0.043079548 -0.14586596 0.0019301996 1.8518284e-38
0.044861104 -0.14586596 0.0019301996 1.0409045e-38
0.046642661 -0.14586596 0.0019301996 9.1219219e-39
0.048424218 -0.14586596 0.0019301996 1.0415912e-38
-0.034655247 -0.14066802 0.02598276 1.0134569e-38
-0.03291586 -0.14066802 0.02598276 1.0967208e-38
-0.031176478 -0.14066802 0.02598276 1.0416926e-38
-0.029437091 -0.14066802 0.02598276 1.6414321e-38
-0.027758803 -0.14154722 0.022952877 1.6418626e-38
-0.026014108 -0.14154722 0.022952877 1.79892e-38
-0.024269409 -0.14154722 0.022952877 1.8635678e-38
-0.022524714 -0.14154722 0.022952877 1.8821161e-38
-0.020780016 -0.14154722 0.022952877 1.8452375e-38
-0.019035321 -0.14154722 0.022952877 1.4856009e-38
-0.01731907 -0.14240317 0.020003103 1.3933663e-38
-0.015569203 -0.14240317 0.020003103 1.7066869e-38
-0.013819333 -0.14240317 0.020003103 1.8539504e-38
-0.012082908 -0.14329304 0.016936503 1.6602685e-38
-0.010335516 -0.14415942 0.013950787 1.5865114e-38
-0.0085750353 -0.14415942 0.013950787 1.7065453e-38
-0.0068119224 -0.14503096 0.010947309 1.7159806e-38
-0.0050384961 -0.14587842 0.008026801 1.6055257e-38
-0.0032676291 -0.14587842 0.008026801 1.5409534e-38
-0.0014781132 -0.1467603 0.0049876794 1.5869436e-38
0.00029808283 -0.1467603 0.0049876794 1.5776883e-38
0.0021037618 -0.14764751 0.0019301996 1.4393589e-38
0.0038853176 -0.14764751 0.0019301996 1.3471631e-38
0.0056668743 -0.14764751 0.0019301996 1.4301029e-38
0.0074484302 -0.14764751 0.0019301996 1.5037512e-38
0.0092795081 -0.14851023 -0.0010428801 1.5221903e-38
0.011066277 -0.14851023 -0.0010428801 1.549813e-38
0.012853045 -0.14851023 -0.0010428801 1.2731905e-38
