# .PCD v0.7 - Point Cloud Data file format
VERSION 0.7
FIELDS x y z rgb
SIZE 4 4 4 4
TYPE F F F F
COUNT 1 1 1 1
WIDTH 932
HEIGHT 1
VIEWPOINT 0 0 0 1 0 0 0
POINTS 932
DATA ascii
-0.019225299 -0.097010851 -0.038436785 2.341804e-38
-0.017597046 -0.095450163 -0.031400219 2.3234369e-38
-0.015678864 -0.095450163 -0.031400219 2.3234369e-38
-0.013760678 -0.095450163 -0.031400219 2.3234369e-38
-0.011842497 -0.095450163 -0.031400219 2.3234372e-38
-0.0063026212 -0.094559789 -0.027385846 2.3050704e-38
-0.0043914765 -0.094559789 -0.027385846 2.3142541e-38
-0.0022515804 -0.095450163 -0.031400219 2.3142541e-38
-0.00015191734 -0.096135467 -0.034490004 2.3050701e-38
0.0020104274 -0.097010851 -0.038436785 2.2867023e-38
0.0039409474 -0.097010851 -0.038436785 2.2683342e-38
0.0061258823 -0.097892582 -0.042412177 2.2958846e-38
0.0080633685 -0.097892582 -0.042412177 2.2867008e-38
0.010000862 -0.097892582 -0.042412177 2.2775172e-38
0.011938356 -0.097892582 -0.042412177 2.1672776e-38
0.013875842 -0.097892582 -0.042412177 1.8168988e-38
0.015813336 -0.097892582 -0.042412177 1.1900052e-38
-0.034561425 -0.099830076 -0.042412177 2.350988e-38
-0.032623935 -0.099830076 -0.042412177 2.3509523e-38
-0.030686446 -0.099830076 -0.042412177 2.3509883e-38
-0.028748952 -0.099830076 -0.042412177 2.3509883e-38
-0.026947383 -0.098941371 -0.038436785 2.3509883e-38
-0.025016859 -0.098941371 -0.038436785 2.3509879e-38
-0.023086339 -0.098941371 -0.038436785 2.341804e-38
-0.021155819 -0.098941371 -0.038436785 2.3234361e-38
-0.019225299 -0.098941371 -0.038436785 2.3050327e-38
-0.017597046 -0.097368345 -0.031400219 2.2958852e-38
-0.015858345 -0.096470937 -0.027385846 2.3234367e-38
-0.014083475 -0.095815286 -0.02445294 2.3234372e-38
-0.012177471 -0.095815286 -0.02445294 2.30507e-38
-0.010271467 -0.095815286 -0.02445294 2.3234376e-38
-0.0085223764 -0.095137119 -0.021419302 2.3234376e-38
-0.0066216923 -0.095137119 -0.021419302 2.3234372e-38
-0.0047210082 -0.095137119 -0.021419302 2.2958863e-38
-0.0026474595 -0.095815286 -0.02445294 2.3142538e-38
-0.0005691871 -0.096470937 -0.027385846 2.2407127e-38
0.0015847832 -0.097368345 -0.031400219 2.2867026e-38
0.0036952868 -0.098059073 -0.034490004 2.3142527e-38
0.0056188852 -0.098059073 -0.034490004 2.2498948e-38
0.0078019872 -0.098941371 -0.038436785 2.2037967e-38
0.0097325072 -0.098941371 -0.038436785 2.268334e-38
0.011389688 -0.098059073 -0.034490004 2.2958853e-38
0.013313293 -0.098059073 -0.034490004 2.2223803e-38
0.015236892 -0.098059073 -0.034490004 2.2316007e-38
0.01716049 -0.098059073 -0.034490004 1.8538863e-38
-0.032623935 -0.10176755 -0.042412177 2.341805e-38
-0.030686446 -0.10176755 -0.042412177 2.341805e-38
-0.028748952 -0.10176755 -0.042412177 2.3417691e-38
-0.02708232 -0.099982664 -0.034490004 2.3417691e-38
-0.025158722 -0.099982664 -0.034490004 2.3233662e-38
-0.023086339 -0.10087189 -0.038436785 2.3234015e-38
-0.021155819 -0.10087189 -0.038436785 2.3418038e-38
-0.019225299 -0.10087189 -0.038436785 2.3234362e-38
-0.017769489 -0.098382086 -0.027385846 2.3234364e-38
-0.015989475 -0.097721294 -0.02445294 2.3234372e-38
-0.014224425 -0.097037792 -0.021419302 2.341805e-38
-0.012323745 -0.097037792 -0.021419302 2.3417691e-38
-0.010620017 -0.096149758 -0.017477766 2.3417691e-38
-0.0087262467 -0.096149758 -0.017477766 2.3417691e-38
-0.006832473 -0.096149758 -0.017477766 2.3418047e-38
-0.0047210082 -0.097037792 -0.021419302 2.3234372e-38
-0.0028203279 -0.097037792 -0.021419302 2.2958866e-38
-0.00091964006 -0.097037792 -0.021419302 2.286703e-38
0.0009810403 -0.097037792 -0.021419302 2.3142538e-38
0.0032531023 -0.098382086 -0.027385846 2.3234372e-38
0.0051642433 -0.098382086 -0.027385846 2.350988e-38
0.007339336 -0.099286526 -0.031400219 2.350988e-38
0.0094660893 -0.099982664 -0.034490004 2.3509521e-38
0.011389688 -0.099982664 -0.034490004 2.350988e-38
0.013093881 -0.099286526 -0.031400219 2.3048905e-38
0.015012071 -0.099286526 -0.031400219 2.3142538e-38
0.016930252 -0.099286526 -0.031400219 2.2224176e-38
0.018848438 -0.099286526 -0.031400219 1.7709819e-38
-0.032623935 -0.10370506 -0.042412177 2.268192e-38
-0.030686446 -0.10370506 -0.042412177 2.341805e-38
-0.029979713 -0.095089734 -0.0044686943 2.3141109e-38
-0.02810875 -0.095089734 -0.0044686943 2.3233303e-38
-0.026237786 -0.095089734 -0.0044686943 2.341805e-38
-0.024366822 -0.095089734 -0.0044686943 2.3049626e-38
-0.022495862 -0.095089734 -0.0044686943 2.2865584e-38
-0.020624898 -0.095089734 -0.0044686943 2.3234367e-38
-0.018753935 -0.095089734 -0.0044686943 2.3234372e-38
-0.016751554 -0.095757127 -0.0074080378 2.3234379e-38
-0.014875434 -0.095757127 -0.0074080378 2.3417691e-38
-0.012851316 -0.096454084 -0.010477558 2.3417333e-38
-0.010969818 -0.096454084 -0.010477558 2.3417333e-38
-0.0090883188 -0.096454084 -0.010477558 2.3417691e-38
-0.00720682 -0.096454084 -0.010477558 2.3509883e-38
-0.0049386993 -0.098043531 -0.017477766 2.3234372e-38
-0.0030449294 -0.098043531 -0.017477766 2.2958866e-38
-0.0011511594 -0.098043531 -0.017477766 2.2867032e-38
0.00074261427 -0.098043531 -0.017477766 2.3142541e-38
0.0028817207 -0.09893848 -0.021419302 2.341805e-38
0.0049765483 -0.099627286 -0.02445294 2.3509168e-38
0.0070753917 -0.10029322 -0.027385846 2.3509168e-38
0.0092575178 -0.10120471 -0.031400219 2.3508451e-38
0.0111757 -0.10120471 -0.031400219 2.3508451e-38
0.013093881 -0.10120471 -0.031400219 2.3508809e-38
0.015012071 -0.10120471 -0.031400219 2.3048907e-38
0.016930252 -0.10120471 -0.031400219 2.2683356e-38
0.018848438 -0.10120471 -0.031400219 2.1764631e-38
0.02076662 -0.10120471 -0.031400219 1.5868061e-38
-0.03020858 -0.095346272 0.0025870651 2.3509879e-38
-0.028349988 -0.095346272 0.0025870651 2.3418042e-38
-0.026599057 -0.094660893 0.0055824369 2.3509879e-38
-0.024745718 -0.094660893 0.0055824369 2.3418045e-38
-0.022892378 -0.094660893 0.0055824369 2.2865232e-38
-0.021039039 -0.094660893 0.0055824369 2.341805e-38
-0.019185696 -0.094660893 0.0055824369 2.341805e-38
-0.017063748 -0.09603554 -0.00042535365 2.3417691e-38
-0.015012007 -0.096960694 -0.0044686943 2.3417691e-38
-0.013141043 -0.096960694 -0.0044686943 2.3417691e-38
-0.011123203 -0.097633243 -0.0074080378 2.341805e-38
-0.0092470869 -0.097633243 -0.0074080378 2.341805e-38
-0.0073709674 -0.097633243 -0.0074080378 2.3418047e-38
-0.0053253211 -0.098335579 -0.010477558 2.3234374e-38
-0.0034438223 -0.098335579 -0.010477558 2.2958867e-38
-0.0015623271 -0.098335579 -0.010477558 2.295887e-38
0.0005614534 -0.099252045 -0.014482871 2.3142541e-38
0.0024499744 -0.099252045 -0.014482871 2.341805e-38
0.0045301616 -0.099937305 -0.017477766 2.3509527e-38
0.0068825483 -0.10153329 -0.02445294 2.3509168e-38
0.0087885559 -0.10153329 -0.02445294 2.3508451e-38
0.0111757 -0.1031229 -0.031400219 2.3508451e-38
0.013093881 -0.1031229 -0.031400219 2.3508451e-38
0.015012071 -0.1031229 -0.031400219 2.3139308e-38
0.016930252 -0.1031229 -0.031400219 2.341805e-38
0.018848438 -0.1031229 -0.031400219 2.295887e-38
0.021007691 -0.10382988 -0.034490004 2.1395134e-38
0.022684801 -0.1031229 -0.031400219 1.6971901e-38
0.024602983 -0.1031229 -0.031400219 1.1073894e-38
0.026521165 -0.1031229 -0.031400219 3.2354678e-39
-0.030305739 -0.09651424 0.0055824369 2.350986e-38
-0.0284524 -0.09651424 0.0055824369 2.2865567e-38
-0.026599057 -0.09651424 0.0055824369 2.3418028e-38
-0.024857994 -0.09582752 0.008560881 2.3049256e-38
-0.023009878 -0.09582752 0.008560881 2.304891e-38
-0.021161757 -0.09582752 0.008560881 2.3141109e-38
-0.019313641 -0.09582752 0.008560881 2.3509168e-38
-0.017332356 -0.09651424 0.0055824369 2.3417691e-38
-0.01533984 -0.097204864 0.0025870651 2.341805e-38
-0.013335999 -0.097899407 -0.00042535365 2.341805e-38
-0.01127008 -0.098831654 -0.0044686943 2.3418045e-38
-0.0093991198 -0.098831654 -0.0044686943 2.3418045e-38
-0.007528156 -0.098831654 -0.0044686943 2.3418047e-38
-0.0054948516 -0.099509358 -0.0074080378 2.3234376e-38
-0.0036187358 -0.099509358 -0.0074080378 2.3142544e-38
-0.0015623271 -0.10021709 -0.010477558 2.3142544e-38
0.00031917542 -0.10021709 -0.010477558 2.3234379e-38
0.0022006705 -0.10021709 -0.010477558 2.341805e-38
0.0043384954 -0.10114056 -0.014482871 2.3509527e-38
0.0064239353 -0.10183108 -0.017477766 2.3509168e-38
0.0085837767 -0.10273984 -0.021419302 2.3508809e-38
0.010484457 -0.10273984 -0.021419302 2.3508809e-38
0.012600556 -0.10343929 -0.02445294 2.3508809e-38
0.014506564 -0.10343929 -0.02445294 2.3508809e-38
0.016412564 -0.10343929 -0.02445294 2.3509527e-38
0.018318564 -0.10343929 -0.02445294 2.341805e-38
0.020453397 -0.1041155 -0.027385846 2.2405696e-38
0.022364546 -0.1041155 -0.027385846 2.1761406e-38
0.024602983 -0.10504107 -0.031400219 1.6230747e-38
0.026521165 -0.10504107 -0.031400219 4.8910403e-39
0.028439347 -0.10504107 -0.031400219 2.6761844e-39
-0.030305739 -0.098367572 0.0055824369 2.3509846e-38
-0.0284524 -0.098367572 0.0055824369 2.3509846e-38
-0.026706114 -0.097675636 0.008560881 2.3509849e-38
-0.024857994 -0.097675636 0.008560881 2.3509869e-38
-0.023009878 -0.097675636 0.008560881 2.3509527e-38
-0.021161757 -0.097675636 0.008560881 2.3416974e-38
-0.019313641 -0.097675636 0.008560881 2.3508451e-38
-0.017465524 -0.097675636 0.008560881 2.3509168e-38
-0.015479017 -0.098367572 0.0055824369 2.3509886e-38
-0.013625678 -0.098367572 0.0055824369 2.3509879e-38
-0.011622656 -0.099063456 0.0025870651 2.3418038e-38
-0.0096082538 -0.099763289 -0.00042535365 2.341804e-38
-0.007528156 -0.10070263 -0.0044686943 2.3418047e-38
-0.0056571923 -0.10070263 -0.0044686943 2.341805e-38
-0.0037862286 -0.10070263 -0.0044686943 2.3234379e-38
-0.0017426163 -0.10138547 -0.0074080378 2.3234379e-38
0.0001334995 -0.10138547 -0.0074080378 2.341805e-38
0.0020096153 -0.10138547 -0.0074080378 2.341805e-38
0.0038857311 -0.10138547 -0.0074080378 2.3509527e-38
0.0059636682 -0.10209858 -0.010477558 2.3509527e-38
0.008317709 -0.10372485 -0.017477766 2.3509527e-38
0.010211483 -0.10372485 -0.017477766 2.3509168e-38
0.012385137 -0.10464053 -0.021419302 2.3508808e-38
0.014285825 -0.10464053 -0.021419302 2.3508809e-38
0.016412564 -0.10534529 -0.02445294 2.3509168e-38
0.018318564 -0.10534529 -0.02445294 2.3508809e-38
0.020453397 -0.10602666 -0.027385846 2.295492e-38
0.022364546 -0.10602666 -0.027385846 2.3509527e-38
0.024275694 -0.10602666 -0.027385846 2.1112086e-38
0.026521165 -0.10695927 -0.031400219 1.1063478e-38
0.028702099 -0.10767709 -0.034490004 4.9792773e-39
0.03062569 -0.10767709 -0.034490004 2.7669395e-39
-0.030305739 -0.10022092 0.0055824369 2.2403485e-38
-0.028554231 -0.099523753 0.008560881 2.2496399e-38
-0.026706114 -0.099523753 0.008560881 2.2864114e-38
-0.025010839 -0.098574698 0.012615427 2.3509862e-38
-0.02316983 -0.098574698 0.012615427 2.3509168e-38
-0.021328822 -0.098574698 0.012615427 2.2954568e-38
-0.019487809 -0.098574698 0.012615427 2.3508451e-38
-0.017465524 -0.099523753 0.008560881 2.3509168e-38
-0.015617404 -0.099523753 0.008560881 2.350988e-38
-0.013769288 -0.099523753 0.008560881 2.3509873e-38
-0.011772335 -0.10022092 0.0055824369 2.3418035e-38
-0.0097640641 -0.10092205 0.0025870651 2.341804e-38
-0.0077443793 -0.10162716 -0.00042535365 2.341805e-38
-0.0058805048 -0.10162716 -0.00042535365 2.3417691e-38
-0.0037862286 -0.10257359 -0.0044686943 2.3509527e-38
-0.0019152686 -0.10257359 -0.0044686943 2.3509527e-38
-4.4301152e-05 -0.10257359 -0.0044686943 2.3509527e-38
0.0018266588 -0.10257359 -0.0044686943 2.3509886e-38
0.0038857311 -0.1032616 -0.0074080378 2.3509886e-38
0.0057618469 -0.1032616 -0.0074080378 2.3509883e-38
0.0081155375 -0.1049176 -0.014482871 2.350988e-38
0.010211483 -0.10561861 -0.017477766 2.3509879e-38
0.012105249 -0.10561861 -0.017477766 2.3509879e-38
0.014285825 -0.1065412 -0.021419302 2.3416245e-38
0.016186506 -0.1065412 -0.021419302 2.3509161e-38
0.018318564 -0.1072513 -0.02445294 2.3509165e-38
0.020453397 -0.1079378 -0.027385846 2.3508448e-38
0.022364546 -0.1079378 -0.027385846 2.3508809e-38
0.024275694 -0.1079378 -0.027385846 2.3321904e-38
0.026521165 -0.10887744 -0.031400219 1.6961838e-38
0.028439347 -0.10887744 -0.031400219 8.7582177e-39
0.030357528 -0.10887744 -0.031400219 4.0573126e-39
-0.028554231 -0.10137187 0.008560881 2.0559575e-38
-0.026706114 -0.10137187 0.008560881 2.1203514e-38
-0.025010839 -0.10041572 0.012615427 2.1849257e-38
-0.02316983 -0.10041572 0.012615427 2.3415881e-38
-0.021328822 -0.10041572 0.012615427 2.3509168e-38
-0.019487809 -0.10041572 0.012615427 2.3509168e-38
-0.017646801 -0.10041572 0.012615427 2.3509527e-38
-0.015805792 -0.10041572 0.012615427 2.3509876e-38
-0.013964783 -0.10041572 0.012615427 2.350987e-38
-0.012123775 -0.10041572 0.012615427 2.3418038e-38
-0.010073051 -0.10137187 0.008560881 2.3418047e-38
-0.0080656558 -0.10207425 0.0055824369 2.3234379e-38
-0.00604688 -0.10278064 0.0025870651 2.3417333e-38
-0.0040166304 -0.10349102 -0.00042535365 2.3509168e-38
-0.0021527559 -0.10349102 -0.00042535365 2.3508809e-38
-4.4301152e-05 -0.10444455 -0.0044686943 2.3509168e-38
0.0018266588 -0.10444455 -0.0044686943 2.3509886e-38
0.0036976263 -0.10444455 -0.0044686943 2.3418045e-38
0.0057618469 -0.10513772 -0.0074080378 2.3234369e-38
0.0078451708 -0.10586159 -0.010477558 2.3234367e-38
0.010004066 -0.10680611 -0.014482871 2.3234362e-38
0.012105249 -0.1075124 -0.017477766 2.3234362e-38
0.013999023 -0.1075124 -0.017477766 2.3418033e-38
0.016186506 -0.1084419 -0.021419302 2.3233999e-38
0.018318564 -0.10915731 -0.02445294 2.350987e-38
0.02022456 -0.10915731 -0.02445294 2.3509156e-38
0.022130568 -0.10915731 -0.02445294 2.350952e-38
0.024275694 -0.10984896 -0.027385846 2.3414806e-38
0.026186842 -0.10984896 -0.027385846 1.9358197e-38
0.028439347 -0.11079563 -0.031400219 1.2353477e-38
0.03062569 -0.11152427 -0.034490004 5.4395253e-39
0.032549296 -0.11152427 -0.034490004 4.1487893e-39
-0.028554231 -0.10322 0.008560881 1.4657264e-38
-0.026851848 -0.10225673 0.012615427 1.3919346e-38
-0.025010839 -0.10225673 0.012615427 1.4748753e-38
-0.02316983 -0.10225673 0.012615427 1.7975604e-38
-0.021328822 -0.10225673 0.012615427 2.3323317e-38
-0.019614067 -0.10155846 0.015554532 2.3509869e-38
-0.01777821 -0.10155846 0.015554532 2.3509869e-38
-0.015942354 -0.10155846 0.015554532 2.3509869e-38
-0.013964783 -0.10225673 0.012615427 2.350987e-38
-0.012123775 -0.10225673 0.012615427 2.350988e-38
-0.010282766 -0.10225673 0.012615427 2.341805e-38
-0.0082249343 -0.10322 0.008560881 2.323402e-38
-0.0062123165 -0.1039276 0.0055824369 2.3417333e-38
-0.0043589771 -0.1039276 0.0055824369 2.3508809e-38
-0.002329696 -0.10463922 0.0025870651 2.3508809e-38
-0.00047110766 -0.10463922 0.0025870651 2.3509168e-38
0.0015749931 -0.10535492 -0.00042535365 2.3509883e-38
0.0036976263 -0.10631551 -0.0044686943 2.3234369e-38
0.0055685863 -0.10631551 -0.0044686943 2.3142527e-38
0.0076379627 -0.10701384 -0.0074080378 2.2867015e-38
0.010004066 -0.10869466 -0.014482871 2.2775175e-38
0.011892587 -0.10869466 -0.014482871 2.2683331e-38
0.013999023 -0.10940616 -0.017477766 2.2867005e-38
0.015892796 -0.10940616 -0.017477766 2.268333e-38
0.018087193 -0.11034258 -0.021419302 2.2130515e-38
0.02022456 -0.11106332 -0.02445294 2.2589698e-38
0.022130568 -0.11106332 -0.02445294 2.350986e-38
0.024036575 -0.11106332 -0.02445294 2.350986e-38
0.026186842 -0.11176009 -0.027385846 1.9360697e-38
0.028439347 -0.1127138 -0.031400219 1.4566524e-38
0.03062569 -0.11344786 -0.034490004 6.4540318e-39
0.032549296 -0.11344786 -0.034490004 4.9778269e-39
-0.026851848 -0.10409774 0.012615427 1.6499756e-38
-0.025010839 -0.10409774 0.012615427 1.5117176e-38
-0.023285776 -0.10339431 0.015554532 1.6684849e-38
-0.02144992 -0.10339431 0.015554532 2.3323649e-38
-0.019614067 -0.10339431 0.015554532 2.3509844e-38
-0.01777821 -0.10339431 0.015554532 2.3509846e-38
-0.015942354 -0.10339431 0.015554532 2.3509497e-38
-0.014106497 -0.10339431 0.015554532 2.3509873e-38
-0.012270641 -0.10339431 0.015554532 2.2680128e-38
-0.010282766 -0.10409774 0.012615427 2.3417691e-38
-0.0084417574 -0.10409774 0.012615427 2.2957438e-38
-0.0066007487 -0.10409774 0.012615427 2.3048556e-38
-0.0045286976 -0.1050681 0.008560881 2.3508451e-38
-0.002505634 -0.10578094 0.0055824369 2.3508809e-38
-0.00047110766 -0.10649781 0.0025870651 2.3416248e-38
0.0015749931 -0.10721879 -0.00042535365 2.2957061e-38
0.0034388676 -0.10721879 -0.00042535365 2.2867013e-38
0.0055685863 -0.10818647 -0.0044686943 2.2867011e-38
0.0076379627 -0.10888995 -0.0074080378 2.2591496e-38
0.0097266659 -0.10962458 -0.010477558 2.1856798e-38
0.011892587 -0.11058317 -0.014482871 2.2224141e-38
0.013781108 -0.11058317 -0.014482871 2.1764955e-38
0.015892796 -0.11129995 -0.017477766 2.158128e-38
0.018087193 -0.11224325 -0.021419302 2.0107223e-38
0.02022456 -0.11296929 -0.02445294 2.148836e-38
0.022130568 -0.11296929 -0.02445294 2.2224131e-38
0.024036575 -0.11296929 -0.02445294 2.2132293e-38
0.026186842 -0.11367123 -0.027385846 1.9272436e-38
0.028439347 -0.114632 -0.031400219 1.7149427e-38
0.03062569 -0.11537148 -0.034490004 8.0206302e-39
0.032898758 -0.11631607 -0.038436785 3.7785635e-39
0.034829278 -0.11631607 -0.038436785 3.686735e-39
-0.023285776 -0.10523017 0.015554532 2.3509837e-38
-0.02144992 -0.10523017 0.015554532 2.3509825e-38
-0.019744247 -0.10449956 0.018585071 2.2494226e-38
-0.017913703 -0.10449956 0.018585071 2.3048486e-38
-0.016083162 -0.10449956 0.018585071 2.3509851e-38
-0.014252622 -0.10449956 0.018585071 2.350987e-38
-0.012422077 -0.10449956 0.018585071 2.3141106e-38
-0.010434788 -0.10523017 0.015554532 2.3234379e-38
-0.0084417574 -0.10593875 0.012615427 2.3142544e-38
-0.0066007487 -0.10593875 0.012615427 2.3417691e-38
-0.0047597401 -0.10593875 0.012615427 2.3139664e-38
-0.0029187314 -0.10593875 0.012615427 2.3509517e-38
-0.00083246082 -0.10691623 0.008560881 2.350987e-38
0.0012010485 -0.10763429 0.0055824369 2.3234357e-38
0.0032460764 -0.1083564 0.0025870651 2.2958843e-38
0.0053027347 -0.10908265 -0.00042535365 2.2224145e-38
0.0076379627 -0.11076607 -0.0074080378 2.0016468e-38
0.0097266659 -0.11150609 -0.010477558 1.8174349e-38
0.011608168 -0.11150609 -0.010477558 1.835981e-38
0.013781108 -0.11247168 -0.014482871 1.7346735e-38
0.015669629 -0.11247168 -0.014482871 1.762224e-38
0.01778657 -0.11319371 -0.017477766 1.6238943e-38
0.01998787 -0.11414395 -0.021419302 1.6791038e-38
0.022130568 -0.1148753 -0.02445294 1.6790319e-38
0.024036575 -0.1148753 -0.02445294 1.7343133e-38
0.026186842 -0.11558239 -0.027385846 1.6417588e-38
0.028097976 -0.11558239 -0.027385846 1.5951589e-38
0.03062569 -0.11729507 -0.034490004 9.2191636e-39
0.032898758 -0.11824657 -0.038436785 5.9916117e-39
0.034829278 -0.11824657 -0.038436785 4.700524e-39
-0.019873682 -0.10559841 0.021598205 1.6778799e-38
-0.018048421 -0.10559841 0.021598205 1.9821622e-38
-0.016223162 -0.10559841 0.021598205 2.3509841e-38
-0.014397904 -0.10559841 0.021598205 2.350986e-38
-0.012422077 -0.10633011 0.018585071 2.3509879e-38
-0.010591537 -0.10633011 0.018585071 2.2681567e-38
-0.0085989311 -0.10706602 0.015554532 2.3142544e-38
-0.0067630745 -0.10706602 0.015554532 2.2036551e-38
-0.004927218 -0.10706602 0.015554532 2.3509869e-38
-0.0029187314 -0.10777976 0.012615427 2.350986e-38
-0.001077719 -0.10777976 0.012615427 2.3418021e-38
0.0010156557 -0.10876434 0.008560881 2.259149e-38
0.0030543879 -0.10948761 0.0055824369 2.1856791e-38
0.0051046684 -0.11021499 0.0025870651 2.0568922e-38
0.0074395537 -0.11192839 -0.0044686943 1.8819713e-38
0.0095140859 -0.11264218 -0.0074080378 1.7346733e-38
0.011608168 -0.11338757 -0.010477558 1.7439641e-38
0.013781108 -0.1143602 -0.014482871 1.6610954e-38
0.015669629 -0.1143602 -0.014482871 1.6887538e-38
0.01778657 -0.11508749 -0.017477766 1.5412405e-38
0.01998787 -0.11604463 -0.021419302 1.5135457e-38
0.021888558 -0.11604463 -0.021419302 1.467376e-38
0.023789246 -0.11604463 -0.021419302 1.6240365e-38
0.025942568 -0.11678131 -0.02445294 1.6697036e-38
0.028097976 -0.11749353 -0.027385846 1.4569719e-38
0.030357528 -0.11846836 -0.031400219 1.0601368e-38
0.032898758 -0.12017711 -0.038436785 8.3879708e-39
0.034829278 -0.12017711 -0.038436785 5.5302804e-39
-0.020002369 -0.10669093 0.024593934 1.696247e-38
-0.01818236 -0.10669093 0.024593934 1.9175888e-38
-0.016223162 -0.10742365 0.021598205 2.2126527e-38
-0.014397904 -0.10742365 0.021598205 2.3509844e-38
-0.012572642 -0.10742365 0.021598205 2.350986e-38
-0.010591537 -0.10816063 0.018585071 2.2774819e-38
-0.0085989311 -0.10890187 0.015554532 2.3142528e-38
-0.0067630745 -0.10890187 0.015554532 2.2958853e-38
-0.004927218 -0.10890187 0.015554532 2.3234341e-38
-0.0030913614 -0.10890187 0.015554532 2.2591473e-38
-0.0012555048 -0.10890187 0.015554532 2.1118141e-38
0.00076328963 -0.10962076 0.012615427 1.9644803e-38
0.0028637722 -0.11061247 0.008560881 1.8725359e-38
0.0047118962 -0.11061247 0.008560881 1.8634597e-38
0.0071666092 -0.11281042 -0.00042535365 1.8360161e-38
0.0095140859 -0.1145183 -0.0074080378 1.7900977e-38
0.011608168 -0.11526908 -0.010477558 1.7717299e-38
0.013781108 -0.11624874 -0.014482871 1.698081e-38
0.015669629 -0.11624874 -0.014482871 1.6981165e-38
0.01778657 -0.11698125 -0.017477766 1.4952858e-38
0.01968034 -0.11698125 -0.017477766 1.4767744e-38
0.021888558 -0.11794533 -0.021419302 1.4767022e-38
0.023789246 -0.11794533 -0.021419302 1.6242152e-38
0.025942568 -0.11868732 -0.02445294 1.63304e-38
0.027848575 -0.11868732 -0.02445294 1.4201644e-38
0.030357528 -0.12038656 -0.031400219 1.1154531e-38
0.032549296 -0.12114228 -0.034490004 9.4943086e-39
0.034472901 -0.12114228 -0.034490004 6.4515109e-39
-0.020002369 -0.10851096 0.024593934 1.7237986e-38
-0.01818236 -0.10851096 0.024593934 1.7792954e-38
-0.016362354 -0.10851096 0.024593934 1.8347209e-38
-0.014542349 -0.10851096 0.024593934 2.3509821e-38
-0.012572642 -0.10924892 0.021598205 2.3234322e-38
-0.010747384 -0.10924892 0.021598205 2.3142496e-38
-0.0087609924 -0.10999118 0.018585071 2.277516e-38
-0.0069304518 -0.10999118 0.018585071 2.2866992e-38
-0.004927218 -0.11073773 0.015554532 2.0843695e-38
-0.0030913614 -0.11073773 0.015554532 2.0476342e-38
-0.0012555048 -0.11073773 0.015554532 1.9739137e-38
0.00058034807 -0.11073773 0.015554532 1.8634587e-38
0.0026042983 -0.11146177 0.012615427 1.8174327e-38
0.004445307 -0.11146177 0.012615427 1.7991375e-38
0.0069632605 -0.11393218 0.0025870651 1.7715864e-38
0.0093105137 -0.11567034 -0.0044686943 1.7347798e-38
0.011608168 -0.11715056 -0.010477558 1.76251e-38
0.013489664 -0.11715056 -0.010477558 1.7256675e-38
0.015371166 -0.11715056 -0.010477558 1.6703499e-38
0.01755815 -0.11813726 -0.014482871 1.3937267e-38
0.01968034 -0.11887501 -0.017477766 1.3752873e-38
0.021574114 -0.11887501 -0.017477766 1.4582271e-38
0.023789246 -0.119846 -0.021419302 1.541203e-38
0.025689919 -0.119846 -0.021419302 1.3932948e-38
0.027590606 -0.119846 -0.021419302 1.4385668e-38
0.030357528 -0.12230472 -0.031400219 1.0693904e-38
0.032549296 -0.12306587 -0.034490004 9.0336821e-39
0.034472901 -0.12306587 -0.034490004 6.7284523e-39
-0.01818236 -0.11033095 0.024593934 1.456503e-38
-0.016362354 -0.11033095 0.024593934 1.3921808e-38
-0.014542349 -0.11033095 0.024593934 2.2498157e-38
-0.012722339 -0.11033095 0.024593934 2.2591437e-38
-0.010747384 -0.11107419 0.021598205 2.2683285e-38
-0.0087609924 -0.11182173 0.018585071 2.0473831e-38
-0.0069304518 -0.11182173 0.018585071 1.9646225e-38
-0.0050999075 -0.11182173 0.018585071 1.8727131e-38
-0.0032693669 -0.11182173 0.018585071 1.8821474e-38
-0.0012555048 -0.11257361 0.015554532 1.8913673e-38
0.00058034807 -0.11257361 0.015554532 1.8729642e-38
0.0026042983 -0.11330278 0.012615427 1.8729645e-38
0.004445307 -0.11330278 0.012615427 1.8730368e-38
0.0067610666 -0.11504765 0.0055824369 1.8638173e-38
0.0090304837 -0.11653815 -0.00042535365 1.8177914e-38
0.011181474 -0.1175413 -0.0044686943 1.7716936e-38
0.013266318 -0.11827053 -0.0074080378 1.7532543e-38
0.015371166 -0.11903207 -0.010477558 1.6979007e-38
0.017252661 -0.11903207 -0.010477558 1.3752157e-38
0.019446675 -0.12002577 -0.014482871 1.3935469e-38
0.021574114 -0.1207688 -0.017477766 1.4673387e-38
0.023467887 -0.1207688 -0.017477766 1.4949255e-38
0.025689919 -0.12174667 -0.021419302 1.2548572e-38
0.027590606 -0.12174667 -0.021419302 1.3739572e-38
0.029491294 -0.12174667 -0.021419302 9.6793837e-39
-0.018358171 -0.11116849 0.028526172 1.2905155e-38
-0.016545057 -0.11116849 0.028526172 1.0603113e-38
-0.014542349 -0.11215095 0.024593934 1.8258214e-38
-0.012722339 -0.11215095 0.024593934 2.0104641e-38
-0.010747384 -0.11289944 0.021598205 2.1212073e-38
-0.0089221261 -0.11289944 0.021598205 2.0843664e-38
-0.007096868 -0.11289944 0.021598205 1.9924588e-38
-0.0052716061 -0.11289944 0.021598205 1.8361561e-38
-0.003446348 -0.11289944 0.021598205 1.8271878e-38
-0.0014388263 -0.11365227 0.018585071 1.8179685e-38
0.00058034807 -0.11440946 0.015554532 1.7902025e-38
0.0024162084 -0.11440946 0.015554532 1.7809835e-38
0.004445307 -0.11514379 0.012615427 1.826974e-38
0.0065600127 -0.1161568 0.008560881 1.8361585e-38
0.0088218525 -0.11764936 0.0025870651 1.8452703e-38
0.010894358 -0.11840202 -0.00042535365 1.6793185e-38
0.013052441 -0.11941226 -0.0044686943 1.6793185e-38
0.015142433 -0.12014665 -0.0074080378 1.6885017e-38
0.017252661 -0.12091358 -0.010477558 1.4486851e-38
0.019446675 -0.12191428 -0.014482871 1.4393936e-38
0.021574114 -0.12266256 -0.017477766 1.4486485e-38
0.023467887 -0.12266256 -0.017477766 1.4670157e-38
0.025689919 -0.12364738 -0.021419302 1.2731168e-38
0.027590606 -0.12364738 -0.021419302 1.3001644e-38
0.029491294 -0.12364738 -0.021419302 9.6797354e-39
-0.018358171 -0.1129816 0.028526172 1.1151282e-38
-0.016545057 -0.1129816 0.028526172 9.49497e-39
-0.014731947 -0.1129816 0.028526172 1.6228471e-38
-0.012918834 -0.1129816 0.028526172 1.9366351e-38
-0.011105724 -0.1129816 0.028526172 2.0106077e-38
-0.0090823285 -0.11397095 0.024593934 2.0476669e-38
-0.0072623193 -0.11397095 0.024593934 1.8359406e-38
-0.0054423138 -0.11397095 0.024593934 1.8455907e-38
-0.003446348 -0.11472471 0.021598205 1.827331e-38
-0.0014388263 -0.11548282 0.018585071 1.7811979e-38
0.00058034807 -0.11624531 0.015554532 1.7165179e-38
0.0024162084 -0.11624531 0.015554532 1.6518739e-38
0.004445307 -0.1169848 0.012615427 1.6333634e-38
0.0065600127 -0.11800493 0.008560881 1.6147812e-38
0.0088218525 -0.11950795 0.0025870651 1.5779033e-38
0.010894358 -0.12026589 -0.00042535365 1.6054904e-38
0.013052441 -0.12128322 -0.0044686943 1.6422607e-38
0.014923401 -0.12128322 -0.0044686943 1.73442e-38
0.017252661 -0.12279506 -0.010477558 1.5592481e-38
0.019446675 -0.12380283 -0.014482871 1.5223337e-38
0.021574114 -0.12455635 -0.017477766 1.467016e-38
0.023467887 -0.12455635 -0.017477766 1.531445e-38
0.025689919 -0.12554805 -0.021419302 1.4114105e-38
0.027848575 -0.12631132 -0.02445294 1.3093842e-38
0.029754583 -0.12631132 -0.02445294 1.0878281e-38
-0.016687304 -0.11401908 0.031587586 1.0412624e-38
-0.014879558 -0.11401908 0.031587586 1.3089886e-38
-0.013071813 -0.11401908 0.031587586 1.715116e-38
-0.011105724 -0.11479472 0.028526172 1.7893756e-38
-0.00929261 -0.11479472 0.028526172 1.7160144e-38
-0.0072623193 -0.11579098 0.024593934 1.7439245e-38
-0.0054423138 -0.11579098 0.024593934 1.8639945e-38
-0.0036223084 -0.11579098 0.024593934 1.8548469e-38
-0.0016210899 -0.11654995 0.021598205 1.7349573e-38
0.00039172173 -0.11731337 0.018585071 1.6887524e-38
0.0026042983 -0.11882581 0.012615427 1.7255958e-38
0.004445307 -0.11882581 0.012615427 1.6056343e-38
0.0065600127 -0.11985306 0.008560881 1.513331e-38
0.0088218525 -0.12136655 0.0025870651 1.6055266e-38
0.010680445 -0.12136655 0.0025870651 1.5409534e-38
0.012758233 -0.12212978 -0.00042535365 1.6515159e-38
0.014923401 -0.12315418 -0.0044686943 1.918811e-38
0.017018549 -0.12389888 -0.0074080378 1.7620783e-38
0.019446675 -0.12569134 -0.014482871 1.467016e-38
0.021574114 -0.12645011 -0.017477766 1.5131138e-38
0.023789246 -0.12744872 -0.021419302 1.5038943e-38
0.025942568 -0.12821732 -0.02445294 1.4205948e-38
0.027848575 -0.12821732 -0.02445294 1.3186046e-38
0.029754583 -0.12821732 -0.02445294 1.0694257e-38
-0.018626433 -0.11507715 0.034526214 1.1239159e-38
-0.016823839 -0.11507715 0.034526214 1.0964007e-38
-0.01502125 -0.11507715 0.034526214 1.1797001e-38
-0.013071813 -0.11582683 0.031587586 1.4937399e-38
-0.011105724 -0.11660783 0.028526172 1.7155839e-38
-0.00929261 -0.11660783 0.028526172 1.6331105e-38
-0.0072623193 -0.11761098 0.024593934 1.5227992e-38
-0.0054423138 -0.11761098 0.024593934 1.5965557e-38
-0.0036223084 -0.11761098 0.024593934 1.7164466e-38
-0.0016210899 -0.11837523 0.021598205 1.7071915e-38
0.00039172173 -0.11914389 0.018585071 1.5965218e-38
0.0024162084 -0.11991702 0.015554532 1.5226582e-38
0.004445307 -0.12066682 0.012615427 1.430463e-38
0.0065600127 -0.12170117 0.008560881 1.5133314e-38
0.008614406 -0.12246101 0.0055824369 1.7438202e-38
0.010680445 -0.12322514 0.0025870651 1.6331493e-38
0.012758233 -0.12399365 -0.00042535365 1.6976137e-38
0.014923401 -0.12502514 -0.0044686943 1.8819328e-38
0.017018549 -0.12577499 -0.0074080378 1.7067609e-38
0.019446675 -0.12757985 -0.014482871 1.4301377e-38
0.021574114 -0.1283439 -0.017477766 1.4024791e-38
0.023789246 -0.12934943 -0.021419302 1.3656011e-38
0.025942568 -0.13012333 -0.02445294 1.3653135e-38
0.027848575 -0.13012333 -0.02445294 1.3278968e-38
0.029754583 -0.13012333 -0.02445294 1.0693901e-38
-0.01902993 -0.11456163 0.043550953 1.1791254e-38
-0.017243162 -0.11456163 0.043550953 1.1240594e-38
-0.01502125 -0.11687975 0.034526214 1.0045284e-38
-0.013071813 -0.11763458 0.031587586 1.2079334e-38
-0.011264071 -0.11763458 0.031587586 1.6417554e-38
-0.00929261 -0.11842094 0.028526172 1.5500988e-38
-0.0072623193 -0.11943097 0.024593934 1.3475919e-38
-0.0054423138 -0.11943097 0.024593934 1.4029097e-38
-0.0036223084 -0.11943097 0.024593934 1.6242155e-38
-0.0014388263 -0.12097444 0.018585071 1.7347789e-38
0.00039172173 -0.12097444 0.018585071 1.6517674e-38
0.0024162084 -0.12175287 0.015554532 1.531878e-38
0.004445307 -0.12250783 0.012615427 1.4673412e-38
0.0065600127 -0.1235493 0.008560881 1.5870877e-38
0.008614406 -0.12431435 0.0055824369 1.7806985e-38
0.010680445 -0.12508373 0.0025870651 1.725345e-38
0.012758233 -0.12585752 -0.00042535365 1.7530031e-38
0.014622107 -0.12585752 -0.00042535365 1.8082482e-38
0.016794369 -0.1268961 -0.0044686943 1.5685395e-38
0.019134168 -0.12843956 -0.010477558 1.3748567e-38
0.021574114 -0.13023765 -0.017477766 1.3564175e-38
0.024036575 -0.13202934 -0.02445294 1.3379786e-38
0.025942568 -0.13202934 -0.02445294 1.4575095e-38
0.028097976 -0.13278268 -0.027385846 1.3463359e-38
0.030009124 -0.13278268 -0.027385846 1.0878293e-38
0.031920273 -0.13278268 -0.027385846 9.5875706e-39
-0.019162856 -0.1155795 0.046524033 1.1699058e-38
-0.017381299 -0.1155795 0.046524033 1.133279e-38
-0.01502125 -0.11868234 0.034526214 9.215523e-39
-0.013218656 -0.11868234 0.034526214 1.0143227e-38
-0.011264071 -0.11944233 0.031587586 1.5956223e-38
-0.00929261 -0.12023406 0.028526172 1.5408794e-38
-0.0072623193 -0.121251 0.024593934 1.3659235e-38
-0.0054423138 -0.121251 0.024593934 1.3844355e-38
-0.0036223084 -0.121251 0.024593934 1.5504239e-38
-0.0014388263 -0.12280498 0.018585071 1.6886459e-38
0.00039172173 -0.12280498 0.018585071 1.7070495e-38
0.0024162084 -0.12358873 0.015554532 1.6886106e-38
0.004445307 -0.12434883 0.012615427 1.6332934e-38
0.0065600127 -0.1253974 0.008560881 1.5963072e-38
0.008614406 -0.12616767 0.0055824369 1.5686484e-38
0.010680445 -0.12694232 0.0025870651 1.4948556e-38
0.012758233 -0.12772138 -0.00042535365 1.5962708e-38
0.014622107 -0.12772138 -0.00042535365 1.6238572e-38
0.016794369 -0.12876706 -0.0044686943 1.374929e-38
0.018894661 -0.12952723 -0.0074080378 1.2826615e-38
0.021888558 -0.13315077 -0.021419302 1.3287237e-38
0.024036575 -0.13393532 -0.02445294 1.2641867e-38
0.026186842 -0.13469382 -0.027385846 1.3652785e-38
0.028097976 -0.13469382 -0.027385846 1.3371163e-38
0.030009124 -0.13469382 -0.027385846 1.0970488e-38
0.031920273 -0.13469382 -0.027385846 1.0140742e-38
-0.019162856 -0.11736105 0.046524033 1.0869298e-38
-0.017381299 -0.11736105 0.046524033 1.0871093e-38
-0.01502125 -0.12048493 0.034526214 9.0311346e-39
-0.013218656 -0.12048493 0.034526214 9.3134696e-39
-0.011264071 -0.12125005 0.031587586 1.5955867e-38
-0.00929261 -0.12204717 0.028526172 1.5776505e-38
-0.0074794963 -0.12204717 0.028526172 1.5041819e-38
-0.0056663863 -0.12204717 0.028526172 1.4673764e-38
-0.0036223084 -0.123071 0.024593934 1.4857802e-38
-0.0014388263 -0.12463553 0.018585071 1.5410976e-38
0.00039172173 -0.12463553 0.018585071 1.6056345e-38
0.0024162084 -0.12542458 0.015554532 1.6516245e-38
0.004445307 -0.12618984 0.012615427 1.6424049e-38
0.0065600127 -0.12724553 0.008560881 1.5409897e-38
0.008614406 -0.12802102 0.0055824369 1.4119514e-38
0.010467745 -0.12802102 0.0055824369 1.3657817e-38
0.012539037 -0.12880091 0.0025870651 1.5040752e-38
0.014622107 -0.12958528 -0.00042535365 1.5408455e-38
0.016794369 -0.13063805 -0.0044686943 1.2919176e-38
0.018894661 -0.13140334 -0.0074080378 1.2642589e-38
0.021888558 -0.13505147 -0.021419302 1.3840775e-38
0.024036575 -0.13584132 -0.02445294 1.2825907e-38
0.026186842 -0.13660498 -0.027385846 1.2730833e-38
0.028097976 -0.13660498 -0.027385846 1.3186773e-38
0.029754583 -0.13584132 -0.02445294 1.0786097e-38
0.031660575 -0.13584132 -0.02445294 1.0048546e-38
0.033566583 -0.13584132 -0.02445294 7.7440307e-39
-0.013218656 -0.12228753 0.034526214 9.1276462e-39
-0.011416066 -0.12228753 0.034526214 1.6416849e-38
-0.00929261 -0.12386028 0.028526172 1.6421522e-38
-0.0074794963 -0.12386028 0.028526172 1.6792466e-38
-0.0056663863 -0.12386028 0.028526172 1.6608444e-38
-0.0036223084 -0.124891 0.024593934 1.5226233e-38
-0.0014388263 -0.12646608 0.018585071 1.4949643e-38
0.00039172173 -0.12646608 0.018585071 1.5226586e-38
0.0024162084 -0.12726043 0.015554532 1.5225506e-38
0.004445307 -0.12803085 0.012615427 1.5410253e-38
0.0065600127 -0.12909363 0.008560881 1.5779035e-38
0.008614406 -0.12987436 0.0055824369 1.5410253e-38
0.010467745 -0.12987436 0.0055824369 1.5317338e-38
0.012539037 -0.13065951 0.0025870651 1.4948559e-38
0.014622107 -0.13144915 -0.00042535365 1.4301753e-38
0.016794369 -0.13250901 -0.0044686943 1.1628083e-38
0.019134168 -0.13408406 -0.010477558 1.1443694e-38
0.021888558 -0.13695215 -0.021419302 1.3563838e-38
0.024036575 -0.13774733 -0.02445294 1.3470925e-38
0.026186842 -0.13851611 -0.027385846 1.3191458e-38
0.028097976 -0.13851611 -0.027385846 1.3094581e-38
0.029491294 -0.13695215 -0.021419302 1.0325119e-38
0.031391967 -0.13695215 -0.021419302 9.3109809e-39
0.033292655 -0.13695215 -0.021419302 7.0064657e-39
-0.013218656 -0.12409012 0.034526214 9.035452e-39
-0.011416066 -0.12409012 0.034526214 1.7245539e-38
-0.00929261 -0.1256734 0.028526172 1.7434604e-38
-0.0074794963 -0.1256734 0.028526172 1.7898462e-38
-0.0054423138 -0.126711 0.024593934 1.7806636e-38
-0.003446348 -0.1275015 0.021598205 1.5778332e-38
-0.0014388263 -0.1282966 0.018585071 1.5501744e-38
0.00058034807 -0.12909628 0.015554532 1.6055268e-38
0.0024162084 -0.12909628 0.015554532 1.5501733e-38
0.004445307 -0.12987186 0.012615427 1.5317336e-38
0.0065600127 -0.13094176 0.008560881 1.5962705e-38
0.008614406 -0.13172771 0.0055824369 1.5962705e-38
0.010680445 -0.1325181 0.0025870651 1.5592846e-38
0.012539037 -0.1325181 0.0025870651 1.310321e-38
0.014622107 -0.13331302 -0.00042535365 1.2364932e-38
0.016794369 -0.13437997 -0.0044686943 1.1166391e-38
0.019134168 -0.13596557 -0.010477558 1.1073841e-38
0.021888558 -0.13885282 -0.021419302 1.2917756e-38
0.024036575 -0.13965334 -0.02445294 1.3102148e-38
0.025942568 -0.13965334 -0.02445294 1.2822321e-38
0.028097976 -0.14042725 -0.027385846 1.2817638e-38
0.029491294 -0.13885282 -0.021419302 9.9563391e-39
0.031391967 -0.13885282 -0.021419302 9.0343968e-39
0.033292655 -0.13885282 -0.021419302 7.0064657e-39
-0.013071813 -0.1266733 0.031587586 9.1265756e-39
-0.011264071 -0.1266733 0.031587586 1.7890555e-38
-0.00929261 -0.12748651 0.028526172 1.8079619e-38
-0.0074794963 -0.12748651 0.028526172 1.8542402e-38
-0.0054423138 -0.12853102 0.024593934 1.7621173e-38
-0.003446348 -0.12932678 0.021598205 1.5040414e-38
-0.0012555048 -0.13093217 0.015554532 1.5132961e-38
0.00058034807 -0.13093217 0.015554532 1.6608442e-38
0.0026042983 -0.13171287 0.012615427 1.6147099e-38
0.004445307 -0.13171287 0.012615427 1.5317692e-38
0.0065600127 -0.13278987 0.008560881 1.4948909e-38
0.008614406 -0.13358103 0.0055824369 1.4394659e-38
0.010680445 -0.13437669 0.0025870651 1.4578697e-38
0.012758233 -0.13517688 -0.00042535365 1.1719559e-38
0.014923401 -0.13625093 -0.0044686943 1.2917751e-38
0.017018549 -0.13703169 -0.0074080378 1.4576559e-38
0.019134168 -0.13784705 -0.010477558 1.448401e-38
0.021574114 -0.13970654 -0.017477766 1.4852793e-38
0.023467887 -0.13970654 -0.017477766 1.3562055e-38
0.025942568 -0.14155935 -0.02445294 1.2453544e-38
0.027848575 -0.14155935 -0.02445294 1.2541055e-38
0.029491294 -0.14075352 -0.021419302 9.7723094e-39
0.031391967 -0.14075352 -0.021419302 9.3109851e-39
0.033292655 -0.14075352 -0.021419302 7.7440335e-39
-0.013071813 -0.12848105 0.031587586 8.3890134e-39
-0.011264071 -0.12848105 0.031587586 1.7612892e-38
-0.0094563253 -0.12848105 0.031587586 1.9738427e-38
-0.0074794963 -0.1292996 0.028526172 1.8081425e-38
-0.0054423138 -0.13035102 0.024593934 1.8266545e-38
-0.003446348 -0.13115202 0.021598205 1.5501392e-38
-0.0012555048 -0.13276802 0.015554532 1.5869807e-38
0.00058034807 -0.13276802 0.015554532 1.6515527e-38
0.0026042983 -0.13355388 0.012615427 1.6330767e-38
0.004445307 -0.13355388 0.012615427 1.5316613e-38
0.0065600127 -0.134638 0.008560881 1.3749287e-38
0.008614406 -0.13543437 0.0055824369 1.3840766e-38
0.010467745 -0.13543437 0.0055824369 1.3286885e-38
0.012758233 -0.13704078 -0.00042535365 1.2917391e-38
0.014923401 -0.13812189 -0.0044686943 1.3931192e-38
0.017018549 -0.13890781 -0.0074080378 1.6972215e-38
0.019134168 -0.13972856 -0.010477558 1.8170761e-38
0.021574114 -0.1416003 -0.017477766 1.7525394e-38
0.023467887 -0.1416003 -0.017477766 1.503539e-38
0.025689919 -0.1426542 -0.021419302 1.0607839e-38
0.027848575 -0.14346536 -0.02445294 1.1618746e-38
0.029491294 -0.1426542 -0.021419302 1.0786467e-38
0.031391967 -0.1426542 -0.021419302 9.7716073e-39
0.033292655 -0.1426542 -0.021419302 8.6656339e-39
-0.01502125 -0.1294979 0.034526214 9.9505784e-39
-0.013218656 -0.1294979 0.034526214 7.8351207e-39
-0.011264071 -0.13028879 0.031587586 1.6506545e-38
-0.0094563253 -0.13028879 0.031587586 1.8631722e-38
-0.0074794963 -0.13111271 0.028526172 1.7528251e-38
-0.0056663863 -0.13111271 0.028526172 1.7805564e-38
-0.0036223084 -0.13217102 0.024593934 1.4948215e-38
-0.0012555048 -0.13460387 0.015554532 1.467162e-38
0.00076328963 -0.13539489 0.012615427 1.4303189e-38
0.0026042983 -0.13539489 0.012615427 1.3380504e-38
0.004445307 -0.13539489 0.012615427 1.2734415e-38
0.0065600127 -0.13648613 0.008560881 1.2457829e-38
0.008614406 -0.13728772 0.0055824369 1.3655659e-38
0.010467745 -0.13728772 0.0055824369 1.3377644e-38
0.013052441 -0.13999285 -0.0044686943 1.7617936e-38
0.014923401 -0.13999285 -0.0044686943 2.1212497e-38
0.017018549 -0.14078392 -0.0074080378 2.2591491e-38
0.019446675 -0.14268802 -0.014482871 2.2775164e-38
0.021574114 -0.14349405 -0.017477766 2.1764598e-38
0.023467887 -0.14349405 -0.017477766 1.8998007e-38
0.025689919 -0.14455487 -0.021419302 1.2635067e-38
0.027848575 -0.14537133 -0.02445294 1.0326575e-38
0.029754583 -0.14537133 -0.02445294 8.850007e-39
0.03227571 -0.1472411 -0.031400219 7.6518337e-39
-0.01502125 -0.13130049 0.034526214 9.9505784e-39
-0.013218656 -0.13130049 0.034526214 7.8354767e-39
-0.011416066 -0.13130049 0.034526214 1.6321791e-38
-0.009613473 -0.13130049 0.034526214 1.8538805e-38
-0.0076485798 -0.13209651 0.031587586 1.7988868e-38
-0.0056663863 -0.13292582 0.028526172 1.7713721e-38
-0.0036223084 -0.13399105 0.024593934 1.4579787e-38
-0.0014388263 -0.13561879 0.018585071 1.4395028e-38
0.00076328963 -0.13723589 0.012615427 1.4303184e-38
0.0028637722 -0.13833423 0.008560881 1.3196468e-38
0.0047118962 -0.13833423 0.008560881 1.2089401e-38
0.0065600127 -0.13833423 0.008560881 1.1811741e-38
0.008614406 -0.13914107 0.0055824369 1.3470192e-38
0.010680445 -0.13995247 0.0025870651 1.4759508e-38
0.013052441 -0.14186381 -0.0044686943 2.0566405e-38
0.015142433 -0.14266007 -0.0074080378 2.2315978e-38
0.017018549 -0.14266007 -0.0074080378 2.2591493e-38
0.019446675 -0.14457656 -0.014482871 2.1946479e-38
0.021574114 -0.14538784 -0.017477766 2.1946474e-38
0.023467887 -0.14538784 -0.017477766 1.9917808e-38
0.025689919 -0.14645557 -0.021419302 1.1342892e-38
0.027848575 -0.14727734 -0.02445294 1.0234383e-38
0.029754583 -0.14727734 -0.02445294 8.1120916e-39
-0.01502125 -0.13310309 0.034526214 1.0226442e-38
-0.013218656 -0.13310309 0.034526214 8.7563512e-39
-0.011416066 -0.13310309 0.034526214 1.6875318e-38
-0.009613473 -0.13310309 0.034526214 1.8907937e-38
-0.0076485798 -0.13390426 0.031587586 1.8634587e-38
-0.0056663863 -0.13473894 0.028526172 1.8543834e-38
-0.0036223084 -0.13581105 0.024593934 1.4211355e-38
-0.0014388263 -0.13744931 0.018585071 1.375001e-38
0.00076328963 -0.1390769 0.012615427 1.504038e-38
0.0028637722 -0.14018236 0.008560881 1.4394289e-38
0.0047118962 -0.14018236 0.008560881 1.2549658e-38
0.0065600127 -0.14018236 0.008560881 1.2364194e-38
0.008614406 -0.14099441 0.0055824369 1.4759857e-38
0.010680445 -0.14181106 0.0025870651 1.7062607e-38
0.013052441 -0.14373477 -0.0044686943 2.2591486e-38
0.015142433 -0.14453618 -0.0074080378 2.3142514e-38
0.017252661 -0.14537306 -0.010477558 2.2682974e-38
0.019446675 -0.14646508 -0.014482871 2.1852489e-38
0.021574114 -0.1472816 -0.017477766 2.1852123e-38
0.023467887 -0.1472816 -0.017477766 1.9731978e-38
0.025942568 -0.14918335 -0.02445294 1.0142911e-38
0.028097976 -0.14998297 -0.027385846 9.8645302e-39
0.030009124 -0.14998297 -0.027385846 7.5585661e-39
-0.016687304 -0.13571201 0.031587586 1.0961129e-38
-0.01502125 -0.13490568 0.034526214 1.0226441e-38
-0.013218656 -0.13490568 0.034526214 9.4942707e-39
-0.011416066 -0.13490568 0.034526214 1.7335929e-38
-0.0094563253 -0.13571201 0.031587586 1.8631339e-38
-0.0074794963 -0.13655205 0.028526172 1.8357631e-38
-0.0056663863 -0.13655205 0.028526172 1.8359794e-38
-0.0036223084 -0.13763104 0.024593934 1.3381946e-38
-0.0016210899 -0.13845308 0.021598205 1.2920601e-38
0.00058034807 -0.14011143 0.015554532 1.4579396e-38
0.0026042983 -0.14091791 0.012615427 1.3472686e-38
0.0047118962 -0.14203046 0.008560881 1.1627701e-38
0.0065600127 -0.14203046 0.008560881 1.3193239e-38
0.008614406 -0.14284773 0.0055824369 1.7985631e-38
0.010680445 -0.14366965 0.0025870651 1.8813253e-38
0.013052441 -0.14560573 -0.0044686943 2.2775162e-38
0.015142433 -0.1464123 -0.0074080378 2.2958484e-38
0.017018549 -0.1464123 -0.0074080378 2.2035093e-38
0.019446675 -0.14835359 -0.014482871 2.0006064e-38
0.021335188 -0.14835359 -0.014482871 1.9175936e-38
0.023467887 -0.14917539 -0.017477766 1.7793709e-38
0.025361661 -0.14917539 -0.017477766 1.0970153e-38
0.027255435 -0.14917539 -0.017477766 9.310283e-39
-0.016687304 -0.13751976 0.031587586 1.1237713e-38
-0.01502125 -0.13670824 0.034526214 1.0687416e-38
-0.013218656 -0.13670824 0.034526214 1.0232189e-38
-0.011264071 -0.13751976 0.031587586 1.7244087e-38
-0.0094563253 -0.13751976 0.031587586 1.7617536e-38
-0.0074794963 -0.13836516 0.028526172 1.7344186e-38
-0.0054423138 -0.13945107 0.024593934 1.6516233e-38
-0.0036223084 -0.13945107 0.024593934 1.3013516e-38
-0.0016210899 -0.14027832 0.021598205 1.3658519e-38
0.00058034807 -0.14194728 0.015554532 1.4948534e-38
0.0026042983 -0.14275892 0.012615427 1.3011706e-38
0.0047118962 -0.14387859 0.008560881 1.1442587e-38
0.0065600127 -0.14387859 0.008560881 1.429851e-38
0.008614406 -0.14470108 0.0055824369 2.0197608e-38
0.010680445 -0.14552824 0.0025870651 2.0194395e-38
0.013052441 -0.14747669 -0.0044686943 1.9547243e-38
0.015142433 -0.14828841 -0.0074080378 1.8439466e-38
0.017018549 -0.14828841 -0.0074080378 1.7793019e-38
-0.016823839 -0.13851084 0.034526214 1.1882362e-38
-0.01502125 -0.13851084 0.034526214 1.114875e-38
-0.013218656 -0.13851084 0.034526214 1.0416576e-38
-0.011264071 -0.13932751 0.031587586 1.6506873e-38
-0.0094563253 -0.13932751 0.031587586 1.6142758e-38
-0.0074794963 -0.14017828 0.028526172 1.6145995e-38
-0.0054423138 -0.14127107 0.024593934 1.4764867e-38
-0.0036223084 -0.14127107 0.024593934 1.2645086e-38
-0.0016210899 -0.1421036 0.021598205 1.3658874e-38
0.00058034807 -0.14378314 0.015554532 1.3934379e-38
0.0026042983 -0.14459993 0.012615427 1.2273778e-38
0.0047118962 -0.1457267 0.008560881 1.2087238e-38
0.0067610666 -0.14655443 0.0055824369 1.5127552e-38
0.008614406 -0.14655443 0.0055824369 2.0012501e-38
0.010680445 -0.14738683 0.0025870651 1.9455753e-38
0.013052441 -0.14934768 -0.0044686943 1.548992e-38
-0.016823839 -0.14031343 0.034526214 1.1881641e-38
-0.01502125 -0.14031343 0.034526214 1.105619e-38
-0.013218656 -0.14031343 0.034526214 1.0047784e-38
-0.011264071 -0.14113526 0.031587586 1.5676388e-38
-0.0094563253 -0.14113526 0.031587586 1.4943852e-38
-0.0074794963 -0.14199139 0.028526172 1.5039645e-38
-0.0054423138 -0.14309107 0.024593934 1.4856339e-38
-0.0036223084 -0.14309107 0.024593934 1.2367778e-38
-0.0016210899 -0.14392884 0.021598205 1.1813884e-38
0.00058034807 -0.14561899 0.015554532 1.0798651e-38
0.0026042983 -0.14644094 0.012615427 1.0243681e-38
0.0047118962 -0.14757483 0.008560881 1.2362035e-38
0.0067610666 -0.14840777 0.0055824369 1.5678932e-38
0.008614406 -0.14840777 0.0055824369 1.936426e-38
0.010680445 -0.14924543 0.0025870651 1.7150146e-38
-0.01502125 -0.14211603 0.034526214 1.1147294e-38
-0.013218656 -0.14211603 0.034526214 9.124384e-39
-0.011264071 -0.14294298 0.031587586 1.5213612e-38
-0.00929261 -0.14380451 0.028526172 1.4297406e-38
-0.0072623193 -0.14491107 0.024593934 1.5037852e-38
-0.0054423138 -0.14491107 0.024593934 1.4854902e-38
-0.003446348 -0.14575411 0.021598205 1.2457818e-38
-0.0016210899 -0.14575411 0.021598205 1.2640777e-38
0.00039172173 -0.14660202 0.018585071 9.0437112e-39
0.0026042983 -0.14828195 0.012615427 1.0332661e-38
0.0047118962 -0.14942293 0.008560881 1.3834304e-38
-0.016964436 -0.1430618 0.037552103 1.3263841e-38
-0.015167147 -0.1430618 0.037552103 1.2529508e-38
-0.013218656 -0.14391862 0.034526214 1.0967578e-38
-0.011264071 -0.14475073 0.031587586 1.6043372e-38
-0.00929261 -0.14561762 0.028526172 1.4480724e-38
-0.0072623193 -0.14673109 0.024593934 1.457652e-38
-0.0054423138 -0.14673109 0.024593934 1.439285e-38
-0.003446348 -0.14757936 0.021598205 1.2640777e-38
-0.0016210899 -0.14757936 0.021598205 1.3007766e-38
0.00039172173 -0.14843257 0.018585071 8.7660566e-39
-0.016964436 -0.14485909 0.037552103 1.3079449e-38
-0.015167147 -0.14485909 0.037552103 1.2713901e-38
-0.013218656 -0.14572121 0.034526214 1.1151973e-38
-0.011264071 -0.14655848 0.031587586 1.4660086e-38
-0.00929261 -0.14743073 0.028526172 1.2820852e-38
-0.0072623193 -0.14855109 0.024593934 1.2823732e-38
-0.0054423138 -0.14855109 0.024593934 1.4207387e-38
-0.003446348 -0.14940463 0.021598205 1.1718109e-38
-0.0016210899 -0.14940463 0.021598205 1.2454242e-38
-0.01502125 -0.14752381 0.034526214 1.2805021e-38
-0.013218656 -0.14752381 0.034526214 1.179591e-38
-0.011264071 -0.14836623 0.031587586 1.4475343e-38
-0.01502125 -0.1493264 0.034526214 1.2896863e-38
-0.013218656 -0.1493264 0.034526214 1.1795559e-38
-0.063712291 -0.14415942 0.058544621 1.4279443e-38
-0.061959665 -0.14329304 0.061530337 1.6493935e-38
-0.06020442 -0.14329304 0.061530337 1.5848569e-38
-0.058449175 -0.14329304 0.061530337 1.3266017e-38
-0.065475404 -0.14679669 0.055541143 1.3630123e-38
-0.063712291 -0.1459199 0.058544621 1.3357475e-38
-0.061959665 -0.14504828 0.061530337 1.5110987e-38
-0.06020442 -0.14504828 0.061530337 1.5202478e-38
-0.058449175 -0.14504828 0.061530337 1.3634802e-38
-0.056718126 -0.14415304 0.064596936 1.3080201e-38
-0.05496826 -0.14415304 0.064596936 1.3264592e-38
-0.065475404 -0.14856245 0.055541143 1.4461316e-38
-0.063712291 -0.14768039 0.058544621 1.3265283e-38
-0.061959665 -0.14680351 0.061530337 1.4557463e-38
-0.06020442 -0.14680351 0.061530337 1.5385442e-38
-0.058449175 -0.14680351 0.061530337 1.4555332e-38
-0.056718126 -0.14590292 0.064596936 1.3724865e-38
-0.05496826 -0.14590292 0.064596936 1.3817061e-38
-0.053218391 -0.14590292 0.064596936 1.4185833e-38
