# .PCD v0.7 - Point Cloud Data file format
VERSION 0.7
FIELDS x y z rgb
SIZE 4 4 4 4
TYPE F F F F
COUNT 1 1 1 1
WIDTH 916
HEIGHT 1
VIEWPOINT 0 0 0 1 0 0 0
POINTS 916
DATA ascii
-0.020698082 -0.073052257 0.0011386238 1.0520278e-38
-0.018774481 -0.073052257 0.0011386238 1.0520278e-38
-0.016902346 -0.072431967 0.0042284094 9.1373432e-39
-0.014984163 -0.072431967 0.0042284094 8.9533079e-39
-0.013146924 -0.071626052 0.0082427822 7.3859794e-39
-0.011235779 -0.071626052 0.0082427822 8.2160946e-39
-0.0093940552 -0.071037248 0.011175688 1.01522e-38
-0.0074880533 -0.071037248 0.011175688 1.0705374e-38
-0.0055820514 -0.071037248 0.011175688 1.3562382e-38
-0.0036760475 -0.071037248 0.011175688 1.5495664e-38
-0.0017700475 -0.071037248 0.011175688 9.8713784e-39
3.7552789e-05 -0.070428237 0.014209326 9.6883954e-39
0.0019382369 -0.070428237 0.014209326 1.153303e-38
0.0036972482 -0.069636941 0.018150862 1.0978819e-38
0.0055910219 -0.069636941 0.018150862 7.2917014e-39
0.0074847955 -0.069636941 0.018150862 6.2803689e-39
0.0093785655 -0.069636941 0.018150862 1.2919515e-38
0.011272339 -0.069636941 0.018150862 1.6146023e-38
0.013342338 -0.070428237 0.014209326 1.3933325e-38
0.015243022 -0.070428237 0.014209326 1.1352538e-38
0.017289976 -0.071037248 0.011175688 1.0154697e-38
0.019195979 -0.071037248 0.011175688 8.6792027e-39
0.021253681 -0.071626052 0.0082427822 8.2182217e-39
0.023164826 -0.071626052 0.0082427822 1.0061411e-38
0.025297685 -0.072431967 0.0042284094 1.0429841e-38
0.027215866 -0.072431967 0.0042284094 1.116741e-38
0.029134048 -0.072431967 0.0042284094 1.1720602e-38
0.03105223 -0.072431967 0.0042284094 1.1166737e-38
0.033162735 -0.073052257 0.0011386238 1.0520667e-38
0.035086334 -0.073052257 0.0011386238 1.3009244e-38
0.03700994 -0.073052257 0.0011386238 2.1581304e-38
0.039199956 -0.073844612 -0.0028081574 2.0011494e-38
0.041130476 -0.073844612 -0.0028081574 1.6598818e-38
0.043343291 -0.074642688 -0.0067835487 1.2080126e-38
0.045501314 -0.075251147 -0.0098143257 1.0761972e-42
0.04744412 -0.075251147 -0.0098143257 2.7550649e-40
-0.049984671 -0.081637636 -0.031757418 7.1945129e-39
-0.047958881 -0.080846712 -0.027851764 4.983959e-39
-0.045955472 -0.080238104 -0.024846498 4.8027683e-39
-0.043986313 -0.080238104 -0.024846498 8.3998006e-39
-0.042017151 -0.080238104 -0.024846498 9.4153594e-39
-0.040030532 -0.079431683 -0.020864312 1.135074e-38
-0.038057633 -0.078606024 -0.016787235 1.1902852e-38
-0.036100019 -0.078009307 -0.013840619 1.2271279e-38
-0.034153685 -0.077193946 -0.0098143257 1.3194304e-38
-0.032210879 -0.077193946 -0.0098143257 1.3470888e-38
-0.030281359 -0.076580182 -0.0067835487 1.300991e-38
-0.028343868 -0.076580182 -0.0067835487 1.1719174e-38
-0.026406378 -0.076580182 -0.0067835487 1.0705022e-38
-0.024468888 -0.076580182 -0.0067835487 1.0244047e-38
-0.022576701 -0.075775132 -0.0028081574 9.5064816e-39
-0.020646181 -0.075775132 -0.0028081574 8.7689166e-39
-0.018774481 -0.074975863 0.0011386238 9.5986773e-39
-0.016902346 -0.074350148 0.0042284094 9.6908729e-39
-0.014984163 -0.074350148 0.0042284094 1.1811372e-38
-0.013146924 -0.073537201 0.0082427822 1.2272351e-38
-0.011235779 -0.073537201 0.0082427822 1.0889416e-38
-0.0093246344 -0.073537201 0.0082427822 8.8611094e-39
-0.0074880533 -0.072943255 0.011175688 9.5986745e-39
-0.0055820514 -0.072943255 0.011175688 1.4668017e-38
-0.0036760475 -0.072943255 0.011175688 1.6693486e-38
-0.0017700475 -0.072943255 0.011175688 1.5125453e-38
3.7552789e-05 -0.07232891 0.014209326 1.6878227e-38
0.0019382369 -0.07232891 0.014209326 1.8723221e-38
0.0036972482 -0.071530715 0.018150862 1.8629969e-38
0.0055910219 -0.071530715 0.018150862 1.5864812e-38
0.0074847955 -0.071530715 0.018150862 1.3653875e-38
0.0093785655 -0.071530715 0.018150862 1.5407371e-38
0.011272339 -0.071530715 0.018150862 1.5960902e-38
0.013342338 -0.07232891 0.014209326 1.4301731e-38
0.015243022 -0.07232891 0.014209326 1.1444015e-38
0.017289976 -0.072943255 0.011175688 1.2458149e-38
0.019342536 -0.073537201 0.0082427822 1.328861e-38
0.021253681 -0.073537201 0.0082427822 1.3933615e-38
0.023164826 -0.073537201 0.0082427822 1.6791325e-38
0.025297685 -0.074350148 0.0042284094 1.7344147e-38
0.027215866 -0.074350148 0.0042284094 1.5224018e-38
0.029134048 -0.074350148 0.0042284094 1.6238191e-38
0.03105223 -0.074350148 0.0042284094 1.5499569e-38
0.032970421 -0.074350148 0.0042284094 1.3194692e-38
0.035086334 -0.074975863 0.0011386238 1.4115578e-38
0.03700994 -0.074975863 0.0011386238 2.1212863e-38
0.039199956 -0.075775132 -0.0028081574 2.0840514e-38
0.041130476 -0.075775132 -0.0028081574 1.7888463e-38
0.043343291 -0.076580182 -0.0067835487 1.4199184e-38
0.045501314 -0.077193946 -0.0098143257 2.7586522e-40
0.04744412 -0.077193946 -0.0098143257 1.0123471e-39
0.049386919 -0.077193946 -0.0098143257 2.0261431e-39
-0.048003398 -0.083618924 -0.031757418 3.1407625e-39
-0.045955472 -0.082207277 -0.024846498 3.7893325e-39
-0.043986313 -0.082207277 -0.024846498 8.308321e-39
-0.042017151 -0.082207277 -0.024846498 9.5082725e-39
-0.040030532 -0.081393853 -0.020864312 1.1444371e-38
-0.038057633 -0.080561057 -0.016787235 1.1903568e-38
-0.0361026 -0.080561057 -0.016787235 1.1718825e-38
-0.034150153 -0.079959169 -0.013840619 1.1257491e-38
-0.032210879 -0.079136744 -0.0098143257 1.2087252e-38
-0.030268075 -0.079136744 -0.0098143257 1.2363839e-38
-0.028343868 -0.078517675 -0.0067835487 1.1442238e-38
-0.026406378 -0.078517675 -0.0067835487 1.0612477e-38
-0.024468888 -0.078517675 -0.0067835487 1.0151499e-38
-0.022576701 -0.077705652 -0.0028081574 9.6905212e-39
-0.020646181 -0.077705652 -0.0028081574 9.0451518e-39
-0.018715661 -0.077705652 -0.0028081574 9.5983256e-39
-0.016850881 -0.076899469 0.0011386238 9.505774e-39
-0.014984163 -0.07626833 0.0042284094 1.1626273e-38
-0.013065981 -0.07626833 0.0042284094 1.429995e-38
-0.011235779 -0.075448349 0.0082427822 1.4853126e-38
-0.0093246344 -0.075448349 0.0082427822 1.2640431e-38
-0.0074880533 -0.074849263 0.011175688 1.1349335e-38
-0.0055820514 -0.074849263 0.011175688 1.3469121e-38
-0.0036760475 -0.074849263 0.011175688 1.50343e-38
-0.0017700475 -0.074849263 0.011175688 1.6508711e-38
3.7552789e-05 -0.074229598 0.014209326 1.6416869e-38
0.0018034782 -0.073424488 0.018150862 1.6970761e-38
0.0036972482 -0.073424488 0.018150862 1.7431752e-38
0.0055910219 -0.073424488 0.018150862 1.7709415e-38
0.0074847955 -0.073424488 0.018150862 1.8171101e-38
0.0093785655 -0.073424488 0.018150862 1.6143859e-38
0.011272339 -0.073424488 0.018150862 1.4393202e-38
0.013342338 -0.074229598 0.014209326 1.1627683e-38
0.015243022 -0.074229598 0.014209326 8.3082874e-39
0.017289976 -0.074849263 0.011175688 1.1165985e-38
0.019342536 -0.075448349 0.0082427822 1.420985e-38
0.021253681 -0.075448349 0.0082427822 1.4577907e-38
0.023379499 -0.07626833 0.0042284094 1.5591351e-38
0.025297685 -0.07626833 0.0042284094 1.522222e-38
0.027215866 -0.07626833 0.0042284094 1.6330015e-38
0.029134048 -0.07626833 0.0042284094 1.6238191e-38
0.03105223 -0.07626833 0.0042284094 1.4208827e-38
0.032970421 -0.07626833 0.0042284094 1.1166021e-38
0.035086334 -0.076899469 0.0011386238 1.1810668e-38
0.03700994 -0.076899469 0.0011386238 1.844661e-38
0.039199956 -0.077705652 -0.0028081574 2.0655385e-38
0.041130476 -0.077705652 -0.0028081574 1.9639089e-38
0.043558508 -0.079136744 -0.0098143257 1.5765065e-38
0.045501314 -0.079136744 -0.0098143257 8.2759566e-40
0.04744412 -0.079136744 -0.0098143257 9.187221e-40
-0.048003398 -0.085600197 -0.031757418 1.9432955e-39
-0.045955472 -0.084176436 -0.024846498 4.0659165e-39
-0.043986313 -0.084176436 -0.024846498 8.3090371e-39
-0.042017151 -0.084176436 -0.024846498 9.4167929e-39
-0.040030532 -0.083356038 -0.020864312 1.2274849e-38
-0.038057633 -0.082516089 -0.016787235 1.2550014e-38
-0.0361026 -0.082516089 -0.016787235 1.0889063e-38
-0.034150153 -0.081909031 -0.013840619 9.1373474e-39
-0.032210879 -0.081079558 -0.0098143257 9.3213827e-39
-0.030268075 -0.081079558 -0.0098143257 9.0451518e-39
-0.028343868 -0.080455169 -0.0067835487 8.2153897e-39
-0.026406378 -0.080455169 -0.0067835487 7.6622159e-39
-0.024468888 -0.080455169 -0.0067835487 8.2153869e-39
-0.022576701 -0.079636171 -0.0028081574 9.3217345e-39
-0.020646181 -0.079636171 -0.0028081574 1.0151851e-38
-0.018715661 -0.079636171 -0.0028081574 1.0059299e-38
-0.016850881 -0.07882306 0.0011386238 1.0243694e-38
-0.014984163 -0.078186512 0.0042284094 1.0428086e-38
-0.013065981 -0.078186512 0.0042284094 1.190286e-38
-0.011235779 -0.077359483 0.0082427822 1.4299952e-38
-0.0093246344 -0.077359483 0.0082427822 1.4299595e-38
-0.0074880533 -0.076755255 0.011175688 1.1625925e-38
-0.0055820514 -0.076755255 0.011175688 9.689452e-39
-0.0036760475 -0.076755255 0.011175688 9.2270179e-39
-0.0017700475 -0.076755255 0.011175688 1.3376174e-38
-9.0295449e-05 -0.075318262 0.018150862 1.5127538e-38
0.0018034782 -0.075318262 0.018150862 1.6695227e-38
0.0036972482 -0.075318262 0.018150862 1.7340961e-38
0.0055910219 -0.075318262 0.018150862 1.7434238e-38
0.0074847955 -0.075318262 0.018150862 1.6604126e-38
0.0093785655 -0.075318262 0.018150862 1.098126e-38
0.011272339 -0.075318262 0.018150862 9.9681604e-39
0.013342338 -0.076130286 0.014209326 9.0465573e-39
0.015520247 -0.077359483 0.0082427822 8.4004858e-39
0.017431391 -0.077359483 0.0082427822 1.135038e-38
0.019342536 -0.077359483 0.0082427822 1.3748518e-38
0.021461317 -0.078186512 0.0042284094 1.3195698e-38
0.023379499 -0.078186512 0.0042284094 1.3654897e-38
0.025297685 -0.078186512 0.0042284094 1.4577223e-38
0.027215866 -0.078186512 0.0042284094 1.2549639e-38
0.029134048 -0.078186512 0.0042284094 1.1628412e-38
0.03105223 -0.078186512 0.0042284094 9.5994032e-39
0.032970421 -0.078186512 0.0042284094 8.1231955e-39
0.035086334 -0.07882306 0.0011386238 9.50576e-39
0.03700994 -0.07882306 0.0011386238 1.5127905e-38
0.039199956 -0.079636171 -0.0028081574 1.8627418e-38
0.041130476 -0.079636171 -0.0028081574 1.8901147e-38
0.043558508 -0.081079558 -0.0098143257 1.6132404e-38
0.045501314 -0.081079558 -0.0098143257 6.4284847e-40
-0.048049666 -0.08842507 -0.035817686 9.2986102e-40
-0.045955472 -0.086145595 -0.024846498 3.8822427e-39
-0.043986313 -0.086145595 -0.024846498 8.402669e-39
-0.042017151 -0.086145595 -0.024846498 8.7724997e-39
-0.040030532 -0.085318208 -0.020864312 1.1169218e-38
-0.038057633 -0.084471121 -0.016787235 1.1074881e-38
-0.0361026 -0.084471121 -0.016787235 8.8618325e-39
-0.034150153 -0.083858907 -0.013840619 9.8752614e-39
-0.032210879 -0.083022356 -0.0098143257 9.6908673e-39
-0.030268075 -0.083022356 -0.0098143257 9.3224421e-39
-0.028343868 -0.082392648 -0.0067835487 8.4926786e-39
-0.026406378 -0.082392648 -0.0067835487 7.6632711e-39
-0.024507223 -0.081566691 -0.0028081574 7.6632697e-39
-0.022576701 -0.081566691 -0.0028081574 8.9540085e-39
-0.020646181 -0.081566691 -0.0028081574 1.0336943e-38
-0.018774481 -0.080746666 0.0011386238 1.0797923e-38
-0.016902346 -0.080104694 0.0042284094 1.1442936e-38
-0.014984163 -0.080104694 0.0042284094 1.0520983e-38
-0.013146924 -0.079270631 0.0082427822 1.0520628e-38
-0.011235779 -0.079270631 0.0082427822 1.2548937e-38
-0.0093246344 -0.079270631 0.0082427822 1.3747127e-38
-0.0074880533 -0.078661263 0.011175688 1.2456034e-38
-0.0055820514 -0.078661263 0.011175688 1.0243681e-38
-0.0037638117 -0.078030959 0.014209326 9.5982751e-39
-0.0018631276 -0.078030959 0.014209326 1.1349622e-38
-9.0295449e-05 -0.077212036 0.018150862 1.3285384e-38
0.0018034782 -0.077212036 0.018150862 1.4022958e-38
0.0036972482 -0.077212036 0.018150862 1.3838932e-38
0.0055910219 -0.077212036 0.018150862 1.4208445e-38
0.0074847955 -0.077212036 0.018150862 1.3193951e-38
0.0093785655 -0.077212036 0.018150862 9.5997535e-39
0.011272339 -0.077212036 0.018150862 9.6930057e-39
0.013342338 -0.078030959 0.014209326 1.0246174e-38
0.015383972 -0.078661263 0.011175688 1.1167431e-38
0.017431391 -0.079270631 0.0082427822 1.162733e-38
0.019342536 -0.079270631 0.0082427822 1.1628388e-38
0.021461317 -0.080104694 0.0042284094 1.0429843e-38
0.023379499 -0.080104694 0.0042284094 9.8752502e-39
0.025297685 -0.080104694 0.0042284094 1.2088311e-38
0.027215866 -0.080104694 0.0042284094 1.1720607e-38
0.029134048 -0.080104694 0.0042284094 1.0614621e-38
0.031239135 -0.080746666 0.0011386238 9.3228163e-39
0.033162735 -0.080746666 0.0011386238 8.9533079e-39
0.035086334 -0.080746666 0.0011386238 1.0058917e-38
0.03700994 -0.080746666 0.0011386238 1.3468366e-38
0.039199956 -0.081566691 -0.0028081574 1.8350448e-38
0.041405804 -0.082392648 -0.0067835487 2.0282985e-38
0.043558508 -0.083022356 -0.0098143257 1.7422777e-38
0.045501314 -0.083022356 -0.0098143257 1.5637146e-39
-0.048049666 -0.090413481 -0.035817686 3.7668724e-40
-0.045955472 -0.088114753 -0.024846498 3.3301452e-39
-0.043986313 -0.088114753 -0.024846498 8.956203e-39
-0.042017151 -0.088114753 -0.024846498 8.5881085e-39
-0.040030532 -0.087280393 -0.020864312 8.9565224e-39
-0.038057633 -0.086426154 -0.016787235 8.4019264e-39
-0.0361026 -0.086426154 -0.016787235 7.202314e-39
-0.034150153 -0.085808769 -0.013840619 8.4923269e-39
-0.032210879 -0.084965169 -0.0098143257 9.6908673e-39
-0.030268075 -0.084965169 -0.0098143257 1.1627333e-38
-0.028343868 -0.084330142 -0.0067835487 1.3194656e-38
-0.026406378 -0.084330142 -0.0067835487 1.3102813e-38
-0.024507223 -0.083497211 -0.0028081574 1.2273051e-38
-0.022576701 -0.083497211 -0.0028081574 1.2457442e-38
-0.020646181 -0.083497211 -0.0028081574 1.3379399e-38
-0.018774481 -0.082670271 0.0011386238 1.3010616e-38
-0.016902346 -0.08202289 0.0042284094 1.2734031e-38
-0.014984163 -0.08202289 0.0042284094 1.0705377e-38
-0.013146924 -0.08118178 0.0082427822 1.0244044e-38
-0.011235779 -0.08118178 0.0082427822 1.1442234e-38
-0.0093246344 -0.08118178 0.0082427822 1.1903216e-38
-0.0074880533 -0.080567271 0.011175688 1.1441885e-38
-0.0055820514 -0.080567271 0.011175688 1.0520268e-38
-0.0037638117 -0.079931647 0.014209326 1.0336911e-38
-0.0018631276 -0.079931647 0.014209326 9.1379976e-39
-9.0295449e-05 -0.079105809 0.018150862 1.1442905e-38
0.0018034782 -0.079105809 0.018150862 1.1443278e-38
0.0036972482 -0.079105809 0.018150862 1.0428776e-38
0.0055910219 -0.079105809 0.018150862 1.0429866e-38
0.0074847955 -0.079105809 0.018150862 8.9540309e-39
0.0093785655 -0.079105809 0.018150862 8.3093776e-39
0.011272339 -0.079105809 0.018150862 9.4171447e-39
0.013342338 -0.079931647 0.014209326 9.4174978e-39
0.015383972 -0.080567271 0.011175688 1.0246188e-38
0.017431391 -0.08118178 0.0082427822 9.7855671e-39
0.019342536 -0.08118178 0.0082427822 1.1353243e-38
0.021461317 -0.08202289 0.0042284094 1.2275199e-38
0.023379499 -0.08202289 0.0042284094 1.0891197e-38
0.025297685 -0.08202289 0.0042284094 1.2458173e-38
0.027215866 -0.08202289 0.0042284094 1.2274141e-38
0.029134048 -0.08202289 0.0042284094 1.0799016e-38
0.03105223 -0.08202289 0.0042284094 9.2306206e-39
0.033162735 -0.082670271 0.0011386238 8.0313488e-39
0.035086334 -0.082670271 0.0011386238 7.4777868e-39
0.03700994 -0.082670271 0.0011386238 9.689047e-39
0.039199956 -0.083497211 -0.0028081574 1.6415043e-38
0.041405804 -0.084330142 -0.0067835487 2.0744668e-38
0.043558508 -0.084965169 -0.0098143257 1.7515327e-38
0.045501314 -0.084965169 -0.0098143257 1.3793261e-39
0.04744412 -0.084965169 -0.0098143257 7.3469658e-40
-0.048094817 -0.093238786 -0.039778892 3.7668724e-40
-0.046022117 -0.091544032 -0.031757418 4.2521043e-39
-0.043986313 -0.090083912 -0.024846498 7.3888772e-39
-0.042017151 -0.090083912 -0.024846498 7.4817609e-39
-0.040030532 -0.089242578 -0.020864312 9.9703184e-39
-0.038057633 -0.088381186 -0.016787235 7.940951e-39
-0.0361026 -0.088381186 -0.016787235 7.6636565e-39
-0.034150153 -0.087758631 -0.013840619 7.2941607e-39
-0.032210879 -0.086907968 -0.0098143257 9.0458776e-39
-0.030268075 -0.086907968 -0.0098143257 1.1535157e-38
-0.028343868 -0.086267635 -0.0067835487 1.3379067e-38
-0.026406378 -0.086267635 -0.0067835487 1.4301377e-38
-0.024507223 -0.085427731 -0.0028081574 1.4209179e-38
-0.022576701 -0.085427731 -0.0028081574 1.3564166e-38
-0.020646181 -0.085427731 -0.0028081574 1.2918796e-38
-0.018774481 -0.084593862 0.0011386238 1.356381e-38
-0.016902346 -0.083941072 0.0042284094 1.2088682e-38
-0.014984163 -0.083941072 0.0042284094 1.1166374e-38
-0.013146924 -0.083092928 0.0082427822 1.1166021e-38
-0.011235779 -0.083092928 0.0082427822 1.1811395e-38
-0.0093246344 -0.083092928 0.0082427822 1.2917389e-38
-0.0074880533 -0.082473263 0.011175688 1.2640448e-38
-0.0055820514 -0.082473263 0.011175688 1.1257497e-38
-0.0037638117 -0.081832334 0.014209326 1.0705007e-38
-0.0018631276 -0.081832334 0.014209326 1.1074495e-38
3.7552789e-05 -0.081832334 0.014209326 1.199611e-38
0.0019382369 -0.081832334 0.014209326 1.1351115e-38
0.0036972482 -0.080999583 0.018150862 1.2641507e-38
0.0055910219 -0.080999583 0.018150862 1.0982713e-38
0.0074847955 -0.080999583 0.018150862 1.0613928e-38
0.0093785655 -0.080999583 0.018150862 1.0154383e-38
0.011272339 -0.080999583 0.018150862 9.7866685e-39
0.013342338 -0.081832334 0.014209326 8.127852e-39
0.015383972 -0.082473263 0.011175688 7.6675759e-39
0.017289976 -0.082473263 0.011175688 1.0065014e-38
0.019342536 -0.083092928 0.0082427822 1.1355037e-38
0.021461317 -0.083941072 0.0042284094 1.0432723e-38
0.023379499 -0.083941072 0.0042284094 1.0617114e-38
0.025297685 -0.083941072 0.0042284094 1.1353609e-38
0.027215866 -0.083941072 0.0042284094 1.1536932e-38
0.029134048 -0.083941072 0.0042284094 9.7845077e-39
0.03105223 -0.083941072 0.0042284094 7.9402462e-39
0.033162735 -0.084593862 0.0011386238 7.5714496e-39
0.035086334 -0.084593862 0.0011386238 6.0041043e-39
0.03700994 -0.084593862 0.0011386238 7.661448e-39
0.039199956 -0.085427731 -0.0028081574 1.1160957e-38
0.041405804 -0.086267635 -0.0067835487 1.8349007e-38
0.043558508 -0.086907968 -0.0098143257 1.7791911e-38
0.045501314 -0.086907968 -0.0098143257 1.748103e-39
-0.050090156 -0.095234126 -0.039778892 1.2957821e-39
-0.048094817 -0.095234126 -0.039778892 1.0010035e-40
-0.046022117 -0.093525305 -0.031757418 4.4364955e-39
-0.043986313 -0.092053071 -0.024846498 8.4030306e-39
-0.042017151 -0.092053071 -0.024846498 9.5100676e-39
-0.040030532 -0.091204748 -0.020864312 1.3473754e-38
-0.038057633 -0.090336218 -0.016787235 1.3103553e-38
-0.0361026 -0.090336218 -0.016787235 1.3471984e-38
-0.034150153 -0.089708492 -0.013840619 1.384005e-38
-0.032210879 -0.088850766 -0.0098143257 1.3471268e-38
-0.030268075 -0.088850766 -0.0098143257 1.27337e-38
-0.028343868 -0.088205129 -0.0067835487 1.1903937e-38
-0.026406378 -0.088205129 -0.0067835487 1.1258924e-38
-0.024507223 -0.087358251 -0.0028081574 1.0797944e-38
-0.022576701 -0.087358251 -0.0028081574 1.0521354e-38
-0.020646181 -0.087358251 -0.0028081574 1.0336963e-38
-0.018774481 -0.086517468 0.0011386238 9.691596e-39
-0.016902346 -0.085859254 0.0042284094 9.138425e-39
-0.014984163 -0.085859254 0.0042284094 9.6912443e-39
-0.013146924 -0.085004061 0.0082427822 1.0520652e-38
-0.011235779 -0.085004061 0.0082427822 1.0151873e-38
-0.0093246344 -0.085004061 0.0082427822 1.0335912e-38
-0.0074880533 -0.084379271 0.011175688 1.2179826e-38
-0.0055820514 -0.084379271 0.011175688 1.4023734e-38
-0.0036760475 -0.084379271 0.011175688 1.4208107e-38
-0.0017700475 -0.084379271 0.011175688 1.3931519e-38
3.7552789e-05 -0.083733007 0.014209326 1.3655307e-38
0.0019382369 -0.083733007 0.014209326 1.3470574e-38
0.0036972482 -0.082893357 0.018150862 1.457694e-38
0.0055910219 -0.082893357 0.018150862 1.3932294e-38
0.0074847955 -0.082893357 0.018150862 1.4025554e-38
0.0093785655 -0.082893357 0.018150862 1.4396123e-38
0.011272339 -0.082893357 0.018150862 1.2644404e-38
0.013342338 -0.083733007 0.014209326 9.1423865e-39
0.015383972 -0.084379271 0.011175688 8.3136656e-39
0.017289976 -0.084379271 0.011175688 1.0988046e-38
0.019342536 -0.085004061 0.0082427822 1.1724907e-38
0.021461317 -0.085859254 0.0042284094 9.8809969e-39
0.023379499 -0.085859254 0.0042284094 8.2218259e-39
0.025297685 -0.085859254 0.0042284094 7.0222065e-39
0.027215866 -0.085859254 0.0042284094 7.4806847e-39
0.029134048 -0.085859254 0.0042284094 7.4796197e-39
0.03105223 -0.085859254 0.0042284094 7.8476946e-39
0.033162735 -0.086517468 0.0011386238 9.230615e-39
0.035338916 -0.087358251 -0.0028081574 9.2316534e-39
0.037269436 -0.087358251 -0.0028081574 1.0797533e-38
0.039199956 -0.087358251 -0.0028081574 1.1808473e-38
0.041405804 -0.088205129 -0.0067835487 1.6045906e-38
0.043343291 -0.088205129 -0.0067835487 1.5212226e-38
-0.050090156 -0.097229466 -0.039778892 3.7382579e-40
-0.048094817 -0.097229466 -0.039778892 7.5445909e-42
-0.045955472 -0.094022244 -0.024846498 4.5276122e-39
-0.043986313 -0.094022244 -0.024846498 8.4023145e-39
-0.041992713 -0.093166932 -0.020864312 9.5100704e-39
-0.040030532 -0.093166932 -0.020864312 1.3658148e-38
-0.038057633 -0.092291236 -0.016787235 1.3932958e-38
-0.036100019 -0.091658354 -0.013840619 1.4393221e-38
-0.034153685 -0.09079358 -0.0098143257 1.3932592e-38
-0.032210879 -0.09079358 -0.0098143257 1.2918793e-38
-0.030268075 -0.09079358 -0.0098143257 1.172025e-38
-0.028343868 -0.090142623 -0.0067835487 1.0890847e-38
-0.026406378 -0.090142623 -0.0067835487 1.033767e-38
-0.024507223 -0.089288771 -0.0028081574 9.9688877e-39
-0.022576701 -0.089288771 -0.0028081574 9.5079068e-39
-0.020646181 -0.089288771 -0.0028081574 9.2313199e-39
-0.018774481 -0.088441074 0.0011386238 8.0327795e-39
-0.016902346 -0.087777436 0.0042284094 8.1249751e-39
-0.014984163 -0.087777436 0.0042284094 8.5855987e-39
-0.013146924 -0.08691521 0.0082427822 8.6777972e-39
-0.011235779 -0.08691521 0.0082427822 7.939879e-39
-0.0093246344 -0.08691521 0.0082427822 7.6632949e-39
-0.0074880533 -0.086285278 0.011175688 9.045872e-39
-0.0055820514 -0.086285278 0.011175688 1.0889434e-38
-0.0036760475 -0.086285278 0.011175688 1.2547532e-38
-0.0017700475 -0.086285278 0.011175688 1.2915612e-38
3.7552789e-05 -0.085633695 0.014209326 1.2454652e-38
0.0019382369 -0.085633695 0.014209326 1.3100037e-38
0.003838921 -0.085633695 0.014209326 1.3007148e-38
0.0057396051 -0.085633695 0.014209326 1.2916387e-38
0.0074847955 -0.084787115 0.018150862 1.3103271e-38
0.0093785655 -0.084787115 0.018150862 1.5132643e-38
0.011272339 -0.084787115 0.018150862 1.4395081e-38
0.013342338 -0.085633695 0.014209326 9.5104824e-39
0.015383972 -0.086285278 0.011175688 8.8672093e-39
0.017289976 -0.086285278 0.011175688 1.0804021e-38
0.019342536 -0.08691521 0.0082427822 1.0065402e-38
0.021461317 -0.087777436 0.0042284094 8.5899175e-39
0.023379499 -0.087777436 0.0042284094 8.4987813e-39
0.025297685 -0.087777436 0.0042284094 8.6813719e-39
0.027215866 -0.087777436 0.0042284094 9.8777739e-39
0.029134048 -0.087777436 0.0042284094 1.0982698e-38
0.03105223 -0.087777436 0.0042284094 1.1535887e-38
0.033162735 -0.088441074 0.0011386238 1.1443677e-38
0.035338916 -0.089288771 -0.0028081574 1.0984093e-38
0.037269436 -0.089288771 -0.0028081574 1.1905678e-38
0.039468311 -0.090142623 -0.0067835487 1.1533678e-38
0.041615702 -0.09079358 -0.0098143257 1.3558417e-38
0.043558508 -0.09079358 -0.0098143257 1.3093879e-38
-0.050130732 -0.099893004 -0.042864744 4.3230058e-42
-0.04792463 -0.095991403 -0.024846498 7.5459922e-42
-0.045955472 -0.095991403 -0.024846498 4.0666354e-39
-0.043986313 -0.095991403 -0.024846498 7.7569479e-39
-0.041992713 -0.095129102 -0.020864312 7.9423901e-39
-0.040030532 -0.095129102 -0.020864312 1.0891926e-38
-0.038057633 -0.094246268 -0.016787235 1.0981983e-38
-0.036100019 -0.093608215 -0.013840619 1.0613201e-38
-0.034153685 -0.092736378 -0.0098143257 9.7837888e-39
-0.032210879 -0.092736378 -0.0098143257 9.6923036e-39
-0.030268075 -0.092736378 -0.0098143257 1.0061086e-38
-0.028343868 -0.092080101 -0.0067835487 1.1351822e-38
-0.026406378 -0.092080101 -0.0067835487 1.2826952e-38
-0.024468888 -0.092080101 -0.0067835487 1.3656713e-38
-0.022531396 -0.092080101 -0.0067835487 1.4025495e-38
-0.020646181 -0.091219291 -0.0028081574 1.4117691e-38
-0.018715661 -0.091219291 -0.0028081574 1.4209889e-38
-0.016902346 -0.089695618 0.0042284094 1.4394281e-38
-0.014984163 -0.089695618 0.0042284094 1.3287933e-38
-0.013065981 -0.089695618 0.0042284094 1.2089033e-38
-0.011235779 -0.088826358 0.0082427822 1.2273427e-38
-0.0093246344 -0.088826358 0.0082427822 1.2641853e-38
-0.0074134897 -0.088826358 0.0082427822 1.1627701e-38
-0.0055820514 -0.088191271 0.011175688 1.0336261e-38
-0.0036760475 -0.088191271 0.011175688 1.1717066e-38
-0.0017700475 -0.088191271 0.011175688 1.3652121e-38
3.7552789e-05 -0.087534383 0.014209326 1.4389706e-38
0.0019382369 -0.087534383 0.014209326 1.5864496e-38
0.003838921 -0.087534383 0.014209326 1.4296836e-38
0.0057396051 -0.087534383 0.014209326 1.3560347e-38
0.0076402891 -0.087534383 0.014209326 1.3378803e-38
0.0095409695 -0.087534383 0.014209326 1.6237934e-38
0.011441654 -0.087534383 0.014209326 1.6329779e-38
0.013342338 -0.087534383 0.014209326 9.8782097e-39
0.015243022 -0.087534383 0.014209326 8.9587001e-39
0.017143702 -0.087534383 0.014209326 1.0527445e-38
0.019342536 -0.088826358 0.0082427822 1.0064343e-38
0.021253681 -0.088826358 0.0082427822 1.0801911e-38
0.023164826 -0.088826358 0.0082427822 1.3200054e-38
0.025297685 -0.089695618 0.0042284094 1.5227989e-38
0.027215866 -0.089695618 0.0042284094 1.5132926e-38
0.029134048 -0.089695618 0.0042284094 1.6698828e-38
0.031239135 -0.090364665 0.0011386238 1.6421902e-38
0.033162735 -0.090364665 0.0011386238 1.2919176e-38
0.035338916 -0.091219291 -0.0028081574 1.0432003e-38
0.037269436 -0.091219291 -0.0028081574 1.0339795e-38
0.039468311 -0.092080101 -0.0067835487 9.7841195e-39
0.041615702 -0.092736378 -0.0098143257 1.079506e-38
0.043558508 -0.092736378 -0.0098143257 1.0883339e-38
0.045794278 -0.093608215 -0.013840619 1.660931e-39
-0.050130732 -0.10189377 -0.042864744 2.5251398e-42
-0.048129983 -0.10189377 -0.042864744 5.7495276e-42
-0.046022117 -0.09946914 -0.031757418 3.5127484e-39
-0.043986313 -0.097960562 -0.024846498 7.755513e-39
-0.041992713 -0.097091287 -0.020864312 7.8491211e-39
-0.040030532 -0.097091287 -0.020864312 1.0061811e-38
-0.038057633 -0.096201301 -0.016787235 1.0520652e-38
-0.036100019 -0.095558092 -0.013840619 1.0151871e-38
-0.034153685 -0.094679192 -0.0098143257 8.5848939e-39
-0.032210879 -0.094679192 -0.0098143257 7.9405979e-39
-0.030268075 -0.094679192 -0.0098143257 8.1249891e-39
-0.028325269 -0.094679192 -0.0098143257 9.415372e-39
-0.026406378 -0.094017595 -0.0067835487 1.135148e-38
-0.024468888 -0.094017595 -0.0067835487 1.3195393e-38
-0.022576701 -0.093149811 -0.0028081574 1.4854916e-38
-0.020646181 -0.093149811 -0.0028081574 1.6053459e-38
-0.018774481 -0.092288271 0.0011386238 1.4578332e-38
-0.016902346 -0.091613799 0.0042284094 1.4947111e-38
-0.014984163 -0.091613799 0.0042284094 1.4025155e-38
-0.013065981 -0.091613799 0.0042284094 1.3379786e-38
-0.011235779 -0.090737507 0.0082427822 1.4486133e-38
-0.0093246344 -0.090737507 0.0082427822 1.5039305e-38
-0.0074134897 -0.090737507 0.0082427822 1.4209545e-38
-0.0055820514 -0.090097278 0.011175688 1.3839696e-38
-0.0036760475 -0.090097278 0.011175688 1.3468067e-38
-0.0017700475 -0.090097278 0.011175688 1.5495317e-38
0.00013595633 -0.090097278 0.011175688 1.6600608e-38
0.0019382369 -0.089435071 0.014209326 1.8259795e-38
0.003838921 -0.089435071 0.014209326 1.650846e-38
0.0057396051 -0.089435071 0.014209326 1.5587223e-38
0.0076402891 -0.089435071 0.014209326 1.4575204e-38
0.0095409695 -0.089435071 0.014209326 1.651238e-38
0.011441654 -0.089435071 0.014209326 1.6974085e-38
0.013342338 -0.089435071 0.014209326 9.4158092e-39
0.015243022 -0.089435071 0.014209326 8.5888498e-39
0.017143702 -0.089435071 0.014209326 1.0987358e-38
0.019342536 -0.090737507 0.0082427822 1.1999389e-38
0.021253681 -0.090737507 0.0082427822 1.3381969e-38
0.023164826 -0.090737507 0.0082427822 1.4304979e-38
0.025297685 -0.091613799 0.0042284094 1.5226564e-38
0.027215866 -0.091613799 0.0042284094 1.4487201e-38
0.029134048 -0.091613799 0.0042284094 1.5961985e-38
0.03105223 -0.091613799 0.0042284094 1.5592869e-38
0.033162735 -0.092288271 0.0011386238 1.1352938e-38
0.035338916 -0.093149811 -0.0028081574 9.3267441e-39
0.037269436 -0.093149811 -0.0028081574 9.0508593e-39
0.039468311 -0.094017595 -0.0067835487 8.4033431e-39
0.041615702 -0.094679192 -0.0098143257 8.4012103e-39
0.043558508 -0.094679192 -0.0098143257 8.6731547e-39
0.045794278 -0.095558092 -0.013840619 1.386142e-39
0.04774414 -0.095558092 -0.013840619 2.1208484e-39
-0.054464355 -0.10828196 -0.062803686 7.1886611e-43
-0.052369177 -0.10740392 -0.058813397 1.084605e-42
-0.050234869 -0.10563703 -0.050783698 1.0888089e-42
-0.048129983 -0.10389452 -0.042864744 2.1523944e-42
-0.04606127 -0.10234386 -0.035817686 2.3138492e-39
-0.043986313 -0.09992972 -0.024846498 7.5711259e-39
-0.042017151 -0.09992972 -0.024846498 8.1253521e-39
-0.040030532 -0.099053472 -0.020864312 1.0245489e-38
-0.038057633 -0.098156333 -0.016787235 1.1625922e-38
-0.036100019 -0.097507954 -0.013840619 1.1902511e-38
-0.034153685 -0.09662199 -0.0098143257 9.7834399e-39
-0.032210879 -0.09662199 -0.0098143257 8.7700026e-39
-0.030268075 -0.09662199 -0.0098143257 7.8480463e-39
-0.028343868 -0.095955089 -0.0067835487 7.5714608e-39
-0.026406378 -0.095955089 -0.0067835487 7.6636593e-39
-0.024468888 -0.095955089 -0.0067835487 8.2164771e-39
-0.022576701 -0.095080331 -0.0028081574 9.69161e-39
-0.020646181 -0.095080331 -0.0028081574 1.1074544e-38
-0.018774481 -0.094211861 0.0011386238 1.1074544e-38
-0.016902346 -0.093531981 0.0042284094 1.1904305e-38
-0.014984163 -0.093531981 0.0042284094 1.2273085e-38
-0.013065981 -0.093531981 0.0042284094 1.3195397e-38
-0.011147797 -0.093531981 0.0042284094 1.3932959e-38
-0.0093246344 -0.09264864 0.0082427822 1.3287588e-38
-0.0074134897 -0.09264864 0.0082427822 1.485527e-38
-0.005502345 -0.09264864 0.0082427822 1.9094845e-38
-0.0036760475 -0.092003286 0.011175688 1.8906528e-38
-0.0017700475 -0.092003286 0.011175688 1.9734519e-38
0.00013595633 -0.092003286 0.011175688 1.94576e-38
0.0019382369 -0.091335744 0.014209326 1.9826404e-38
0.003838921 -0.091335744 0.014209326 1.954948e-38
0.005853964 -0.092003286 0.011175688 1.8813354e-38
0.0077599641 -0.092003286 0.011175688 1.7708423e-38
0.0095409695 -0.091335744 0.014209326 1.8170831e-38
0.011441654 -0.091335744 0.014209326 1.5497879e-38
0.013342338 -0.091335744 0.014209326 9.8753482e-39
0.015243022 -0.091335744 0.014209326 1.0708273e-38
0.017289976 -0.092003286 0.011175688 1.310606e-38
0.019342536 -0.09264864 0.0082427822 1.347344e-38
0.021253681 -0.09264864 0.0082427822 1.2919912e-38
0.023164826 -0.09264864 0.0082427822 1.070827e-38
0.025297685 -0.093531981 0.0042284094 1.0523868e-38
0.027215866 -0.093531981 0.0042284094 1.1536941e-38
0.029134048 -0.093531981 0.0042284094 1.1905377e-38
0.03105223 -0.093531981 0.0042284094 1.1443714e-38
0.033162735 -0.094211861 0.0011386238 7.8502337e-39
0.035086334 -0.094211861 0.0011386238 8.0370927e-39
0.037269436 -0.095080331 -0.0028081574 8.6835215e-39
0.039468311 -0.095955089 -0.0067835487 8.3136684e-39
0.041615702 -0.09662199 -0.0098143257 8.3104496e-39
0.043558508 -0.09662199 -0.0098143257 8.0299419e-39
0.045501314 -0.09662199 -0.0098143257 1.9411039e-39
-0.054464355 -0.11031766 -0.062803686 0
-0.052369177 -0.10943262 -0.058813397 7.2447131e-43
-0.050234869 -0.10765167 -0.050783698 1.0888089e-42
-0.048129983 -0.10589527 -0.042864744 1.7964646e-42
-0.04606127 -0.10433225 -0.035817686 1.576287e-39
-0.044040836 -0.10343169 -0.031757418 7.6629656e-39
-0.042017151 -0.10189888 -0.024846498 8.3090259e-39
-0.040030532 -0.10101564 -0.020864312 9.5075677e-39
-0.038057633 -0.10011137 -0.016787235 1.0888362e-38
-0.036100019 -0.099457815 -0.013840619 1.134934e-38
-0.034150153 -0.099457815 -0.013840619 1.0705748e-38
-0.032210879 -0.098564804 -0.0098143257 1.0245839e-38
-0.030268075 -0.098564804 -0.0098143257 1.006145e-38
-0.028343868 -0.097892582 -0.0067835487 9.5079208e-39
-0.026406378 -0.097892582 -0.0067835487 8.3090245e-39
-0.024468888 -0.097892582 -0.0067835487 7.3870696e-39
-0.022576701 -0.097010851 -0.0028081574 7.7558549e-39
-0.020646181 -0.097010851 -0.0028081574 8.8618465e-39
-0.018715661 -0.097010851 -0.0028081574 9.3228247e-39
-0.016850881 -0.096135467 0.0011386238 1.0152941e-38
-0.014984163 -0.095450163 0.0042284094 1.0521721e-38
-0.013065981 -0.095450163 0.0042284094 1.1444032e-38
-0.011147797 -0.095450163 0.0042284094 1.162842e-38
-0.0092296135 -0.095450163 0.0042284094 9.9692521e-39
-0.0074134897 -0.094559789 0.0082427822 1.1997555e-38
-0.005502345 -0.094559789 0.0082427822 1.7895931e-38
-0.0035912003 -0.094559789 0.0082427822 1.9090555e-38
-0.0017700475 -0.093909279 0.011175688 1.9272098e-38
3.7552789e-05 -0.093236431 0.014209326 1.8165424e-38
0.0019382369 -0.093236431 0.014209326 1.641337e-38
0.003838921 -0.093236431 0.014209326 1.6597775e-38
0.0057396051 -0.093236431 0.014209326 1.604604e-38
0.0076402891 -0.093236431 0.014209326 1.6140018e-38
0.0095409695 -0.093236431 0.014209326 1.6325477e-38
0.011441654 -0.093236431 0.014209326 1.5312039e-38
0.013342338 -0.093236431 0.014209326 1.0981682e-38
0.015243022 -0.093236431 0.014209326 1.1999001e-38
0.017143702 -0.093236431 0.014209326 1.3013853e-38
0.019342536 -0.094559789 0.0082427822 1.3104641e-38
0.021253681 -0.094559789 0.0082427822 1.2274885e-38
0.023164826 -0.094559789 0.0082427822 9.5100704e-39
0.025297685 -0.095450163 0.0042284094 1.0246907e-38
0.027215866 -0.095450163 0.0042284094 1.1167794e-38
0.029134048 -0.095450163 0.0042284094 1.0705759e-38
0.03105223 -0.095450163 0.0042284094 1.0153338e-38
0.033162735 -0.096135467 0.0011386238 7.1130344e-39
0.035086334 -0.096135467 0.0011386238 7.7619519e-39
0.037269436 -0.097010851 -0.0028081574 8.0395954e-39
0.039199956 -0.097010851 -0.0028081574 8.0381633e-39
0.041405804 -0.097892582 -0.0067835487 8.4040844e-39
0.043558508 -0.098564804 -0.0098143257 7.6629572e-39
0.045501314 -0.098564804 -0.0098143257 2.2191243e-39
-0.052369177 -0.11146136 -0.058813397 1.0818024e-42
-0.050234869 -0.1096663 -0.050783698 2.1664074e-42
-0.048129983 -0.10789602 -0.042864744 2.1523944e-42
-0.046099469 -0.10720618 -0.039778892 1.6692015e-39
-0.044072874 -0.10632066 -0.035817686 8.1246696e-39
-0.042017151 -0.10386805 -0.024846498 8.5870603e-39
-0.040030532 -0.10297783 -0.020864312 8.7707229e-39
-0.038057633 -0.1020664 -0.016787235 9.4146686e-39
-0.036100019 -0.10140768 -0.013840619 9.5994144e-39
-0.034150153 -0.10140768 -0.013840619 9.6919491e-39
-0.032210879 -0.1005076 -0.0098143257 1.0153279e-38
-0.030268075 -0.1005076 -0.0098143257 1.0890489e-38
-0.028325269 -0.1005076 -0.0098143257 1.1167079e-38
-0.026406378 -0.099830076 -0.0067835487 1.0152927e-38
-0.024468888 -0.099830076 -0.0067835487 9.1391411e-39
-0.022576701 -0.098941371 -0.0028081574 9.7841559e-39
-0.020646181 -0.098941371 -0.0028081574 1.1166737e-38
-0.018715661 -0.098941371 -0.0028081574 1.1351129e-38
-0.016850881 -0.098059073 0.0011386238 1.2088694e-38
-0.014984163 -0.097368345 0.0042284094 1.1259285e-38
-0.013065981 -0.097368345 0.0042284094 1.1075249e-38
-0.011147797 -0.097368345 0.0042284094 1.1536227e-38
-0.0092296135 -0.097368345 0.0042284094 1.0153646e-38
-0.0074134897 -0.096470937 0.0082427822 1.0614257e-38
-0.005502345 -0.096470937 0.0082427822 1.4208103e-38
-0.0035912003 -0.096470937 0.0082427822 1.5587477e-38
-0.0016800556 -0.096470937 0.0082427822 1.5954132e-38
3.7552789e-05 -0.095137119 0.014209326 1.5215163e-38
0.0019382369 -0.095137119 0.014209326 1.1711388e-38
0.003838921 -0.095137119 0.014209326 1.1434455e-38
0.0057396051 -0.095137119 0.014209326 1.0789449e-38
0.0076402891 -0.095137119 0.014209326 1.2358201e-38
0.0095409695 -0.095137119 0.014209326 1.3189387e-38
0.011441654 -0.095137119 0.014209326 1.5495703e-38
0.013342338 -0.095137119 0.014209326 9.9657208e-39
0.015243022 -0.095137119 0.014209326 8.678865e-39
0.017143702 -0.095137119 0.014209326 8.8639569e-39
0.019342536 -0.096470937 0.0082427822 1.0891571e-38
0.021253681 -0.096470937 0.0082427822 1.2274155e-38
0.023164826 -0.096470937 0.0082427822 1.0154361e-38
0.025297685 -0.097368345 0.0042284094 1.1353257e-38
0.027215866 -0.097368345 0.0042284094 1.1352187e-38
0.029134048 -0.097368345 0.0042284094 1.1444043e-38
0.03105223 -0.097368345 0.0042284094 1.2181998e-38
0.033162735 -0.098059073 0.0011386238 9.3257268e-39
0.035086334 -0.098059073 0.0011386238 9.2360058e-39
0.03700994 -0.098059073 0.0011386238 7.5782613e-39
0.039199956 -0.098941371 -0.0028081574 7.2080397e-39
0.041405804 -0.099830076 -0.0067835487 7.7587135e-39
0.043558508 -0.1005076 -0.0098143257 6.1878271e-39
0.045501314 -0.1005076 -0.0098143257 9.2911693e-40
0.04744412 -0.1005076 -0.0098143257 1.2935989e-39
-0.048094817 -0.10920154 -0.039778892 3.5873241e-42
-0.046099469 -0.10920154 -0.039778892 2.223097e-39
-0.044040836 -0.10739426 -0.031757418 9.1409866e-39
-0.042017151 -0.10583721 -0.024846498 8.3119238e-39
-0.040030532 -0.10494001 -0.020864312 8.4977387e-39
-0.038057633 -0.10402142 -0.016787235 7.4828651e-39
-0.036100019 -0.10335754 -0.013840619 8.1271443e-39
-0.034150153 -0.10335754 -0.013840619 9.7834203e-39
-0.032210879 -0.1024504 -0.0098143257 9.5053914e-39
-0.030268075 -0.1024504 -0.0098143257 8.952589e-39
-0.028325269 -0.1024504 -0.0098143257 9.7823497e-39
-0.026406378 -0.10176755 -0.0067835487 1.0797569e-38
-0.024468888 -0.10176755 -0.0067835487 1.061426e-38
-0.022576701 -0.10087189 -0.0028081574 1.1166372e-38
-0.020646181 -0.10087189 -0.0028081574 1.2825543e-38
-0.018715661 -0.10087189 -0.0028081574 1.2457124e-38
-0.016850881 -0.099982664 0.0011386238 1.2365285e-38
-0.014984163 -0.099286526 0.0042284094 1.125857e-38
-0.013065981 -0.099286526 0.0042284094 1.1719545e-38
-0.011147797 -0.099286526 0.0042284094 1.1811391e-38
-0.0092296135 -0.099286526 0.0042284094 1.1350766e-38
-0.0074134897 -0.098382086 0.0082427822 1.0336237e-38
-0.005502345 -0.098382086 0.0082427822 1.411591e-38
-0.0035912003 -0.098382086 0.0082427822 1.5496e-38
-0.0017700475 -0.097721294 0.011175688 1.7061916e-38
3.7552789e-05 -0.097037792 0.014209326 1.8259407e-38
0.0019382369 -0.097037792 0.014209326 1.1988686e-38
0.003838921 -0.097037792 0.014209326 1.4476906e-38
0.0057396051 -0.097037792 0.014209326 1.3370564e-38
0.0077599641 -0.097721294 0.011175688 1.5029719e-38
0.0095409695 -0.097037792 0.014209326 1.5215175e-38
0.011441654 -0.097037792 0.014209326 1.632258e-38
0.013342338 -0.097037792 0.014209326 1.1346486e-38
0.015243022 -0.097037792 0.014209326 9.2302297e-39
0.017289976 -0.097721294 0.011175688 9.5093123e-39
0.019342536 -0.098382086 0.0082427822 1.0799364e-38
0.021253681 -0.098382086 0.0082427822 1.1629142e-38
0.023164826 -0.098382086 0.0082427822 1.0984496e-38
0.025297685 -0.099286526 0.0042284094 1.1353278e-38
0.027215866 -0.099286526 0.0042284094 1.0800104e-38
0.029134048 -0.099286526 0.0042284094 1.1352926e-38
0.03105223 -0.099286526 0.0042284094 1.0430986e-38
0.033162735 -0.099982664 0.0011386238 9.1405984e-39
0.035086334 -0.099982664 0.0011386238 8.6817488e-39
0.03700994 -0.099982664 0.0011386238 8.4973366e-39
0.039199956 -0.10087189 -0.0028081574 8.1278324e-39
0.041405804 -0.10176755 -0.0067835487 8.3108013e-39
0.043558508 -0.1024504 -0.0098143257 6.2782263e-39
0.045501314 -0.1024504 -0.0098143257 3.7451663e-40
0.04774414 -0.10335754 -0.013840619 8.3299487e-40
0.049694002 -0.10335754 -0.013840619 2.3052537e-39
0.051643863 -0.10335754 -0.013840619 1.9357411e-39
-0.048094817 -0.11119686 -0.039778892 2.8698593e-42
-0.046099469 -0.11119686 -0.039778892 1.7621188e-39
-0.044040836 -0.10937552 -0.031757418 8.8636836e-39
-0.042017151 -0.10780637 -0.024846498 8.8654619e-39
-0.040030532 -0.1069022 -0.020864312 1.0525687e-38
-0.038068354 -0.1069022 -0.020864312 1.0157609e-38
-0.0361026 -0.10597645 -0.016787235 1.0893365e-38
-0.034150153 -0.10530742 -0.013840619 1.1719526e-38
-0.032210879 -0.1043932 -0.0098143257 1.1717731e-38
-0.030268075 -0.1043932 -0.0098143257 1.1256406e-38
-0.028325269 -0.1043932 -0.0098143257 1.1441874e-38
-0.026406378 -0.10370506 -0.0067835487 1.2549286e-38
-0.024468888 -0.10370506 -0.0067835487 1.2919148e-38
-0.022576701 -0.10280241 -0.0028081574 1.3747849e-38
-0.020646181 -0.10280241 -0.0028081574 1.5314829e-38
-0.018774481 -0.10190627 0.0011386238 1.3379086e-38
-0.016850881 -0.10190627 0.0011386238 1.2457127e-38
-0.014984163 -0.10120471 0.0042284094 1.1166374e-38
-0.013065981 -0.10120471 0.0042284094 1.0889785e-38
-0.011147797 -0.10120471 0.0042284094 1.0980552e-38
-0.0092296135 -0.10120471 0.0042284094 1.0888711e-38
-0.0074134897 -0.10029322 0.0082427822 9.1376935e-39
-0.005502345 -0.10029322 0.0082427822 1.3101758e-38
-0.0035912003 -0.10029322 0.0082427822 1.5865507e-38
-0.0017700475 -0.099627286 0.011175688 1.6324722e-38
3.7552789e-05 -0.09893848 0.014209326 1.6507337e-38
0.0019382369 -0.09893848 0.014209326 1.0974898e-38
0.003838921 -0.09893848 0.014209326 1.226386e-38
0.0057396051 -0.09893848 0.014209326 1.0788734e-38
0.0077599641 -0.099627286 0.011175688 1.263228e-38
0.0096659679 -0.099627286 0.011175688 1.4845677e-38
0.011571968 -0.099627286 0.011175688 1.5216232e-38
0.013477972 -0.099627286 0.011175688 1.0148299e-38
0.015383972 -0.099627286 0.011175688 8.3086251e-39
0.017289976 -0.099627286 0.011175688 9.3245525e-39
0.019342536 -0.10029322 0.0082427822 1.0614962e-38
0.021253681 -0.10029322 0.0082427822 1.1168514e-38
0.023164826 -0.10029322 0.0082427822 1.0431319e-38
0.025297685 -0.10120471 0.0042284094 1.0984496e-38
0.027215866 -0.10120471 0.0042284094 1.1077053e-38
0.029134048 -0.10120471 0.0042284094 1.1906819e-38
0.03105223 -0.10120471 0.0042284094 1.1076351e-38
0.032970421 -0.10120471 0.0042284094 9.1405942e-39
0.034888603 -0.10120471 0.0042284094 8.3115244e-39
0.03700994 -0.10190627 0.0011386238 8.3111474e-39
0.039199956 -0.10280241 -0.0028081574 8.7721172e-39
0.041130476 -0.10280241 -0.0028081574 9.7848496e-39
0.043343291 -0.10370506 -0.0067835487 7.2001826e-39
0.045501314 -0.1043932 -0.0098143257 5.5890509e-40
0.04774414 -0.10530742 -0.013840619 4.6421795e-40
0.049694002 -0.10530742 -0.013840619 1.9372012e-39
-0.048094817 -0.11319222 -0.039778892 2.8698593e-42
-0.046099469 -0.11319222 -0.039778892 1.8528753e-39
-0.044072874 -0.11228584 -0.035817686 8.7696901e-39
-0.042017151 -0.10977553 -0.024846498 9.5083103e-39
-0.040030532 -0.10886435 -0.020864312 1.209121e-38
-0.038068354 -0.10886435 -0.020864312 1.2091193e-38
-0.0361026 -0.10793148 -0.016787235 1.2366337e-38
-0.034150153 -0.10725726 -0.013840619 1.1995398e-38
-0.032210879 -0.10633601 -0.0098143257 1.2823726e-38
-0.030268075 -0.10633601 -0.0098143257 1.2915573e-38
-0.028325269 -0.10633601 -0.0098143257 1.2732258e-38
-0.026406378 -0.10564254 -0.0067835487 1.3102463e-38
-0.024507223 -0.10473295 -0.0028081574 1.2550011e-38
-0.022576701 -0.10473295 -0.0028081574 1.2180526e-38
-0.020698082 -0.10382988 0.0011386238 1.2457124e-38
-0.018774481 -0.10382988 0.0011386238 1.245713e-38
-0.016902346 -0.1031229 0.0042284094 1.1442972e-38
-0.014984163 -0.1031229 0.0042284094 1.0797589e-38
-0.013065981 -0.1031229 0.0042284094 9.4150119e-39
-0.011147797 -0.1031229 0.0042284094 9.1369943e-39
-0.0093246344 -0.10220437 0.0082427822 9.8749124e-39
-0.0074134897 -0.10220437 0.0082427822 8.676707e-39
-0.005502345 -0.10220437 0.0082427822 1.4115547e-38
-0.0035912003 -0.10220437 0.0082427822 1.5219433e-38
-0.0017700475 -0.10153329 0.011175688 1.6047435e-38
0.00013595633 -0.10153329 0.011175688 1.5124422e-38
0.0020419564 -0.10153329 0.011175688 1.0513941e-38
0.0039479602 -0.10153329 0.011175688 1.152631e-38
0.005853964 -0.10153329 0.011175688 1.1434118e-38
0.0077599641 -0.10153329 0.011175688 1.1803972e-38
0.0096659679 -0.10153329 0.011175688 1.3464551e-38
0.011571968 -0.10153329 0.011175688 1.5494264e-38
0.013477972 -0.10153329 0.011175688 1.0241573e-38
0.015383972 -0.10153329 0.011175688 8.4015368e-39
0.017289976 -0.10153329 0.011175688 9.4178187e-39
0.019195979 -0.10153329 0.011175688 1.0523831e-38
0.021253681 -0.10220437 0.0082427822 1.0430934e-38
0.023164826 -0.10220437 0.0082427822 9.4171447e-39
0.02507597 -0.10220437 0.0082427822 1.0062165e-38
0.027215866 -0.1031229 0.0042284094 1.08923e-38
0.029134048 -0.1031229 0.0042284094 1.2090854e-38
0.03105223 -0.1031229 0.0042284094 1.1536613e-38
0.032970421 -0.1031229 0.0042284094 9.2320724e-39
0.034888603 -0.1031229 0.0042284094 7.9416657e-39
0.03700994 -0.10382988 0.0011386238 7.6657808e-39
0.038933538 -0.10382988 0.0011386238 8.6795656e-39
0.041130476 -0.10473295 -0.0028081574 1.0153632e-38
0.043343291 -0.10564254 -0.0067835487 8.9518996e-39
0.045501314 -0.10633601 -0.0098143257 1.0198776e-39
0.04744412 -0.10633601 -0.0098143257 9.5435432e-41
-0.046099469 -0.11518754 -0.039778892 1.9443507e-39
-0.044040836 -0.1133381 -0.031757418 8.5838569e-39
-0.042017151 -0.11174469 -0.024846498 8.953696e-39
-0.040030532 -0.11082654 -0.020864312 1.1535157e-38
-0.038068354 -0.11082654 -0.020864312 1.1167076e-38
-0.0361026 -0.10988651 -0.016787235 1.0889765e-38
-0.034150153 -0.10920714 -0.013840619 1.1995042e-38
-0.032210879 -0.10827883 -0.0098143257 1.3193235e-38
-0.030268075 -0.10827883 -0.0098143257 1.3561668e-38
-0.028325269 -0.10827883 -0.0098143257 1.3193602e-38
-0.026406378 -0.10758002 -0.0067835487 1.2918796e-38
-0.024507223 -0.10666345 -0.0028081574 1.1997559e-38
-0.022576701 -0.10666345 -0.0028081574 1.0982346e-38
-0.020698082 -0.10575347 0.0011386238 1.0797606e-38
-0.018774481 -0.10575347 0.0011386238 1.0982e-38
-0.016902346 -0.10504107 0.0042284094 1.0797603e-38
-0.014984163 -0.10504107 0.0042284094 1.1166729e-38
-0.013065981 -0.10504107 0.0042284094 9.4150063e-39
-0.011147797 -0.10504107 0.0042284094 8.6763693e-39
-0.0093246344 -0.1041155 0.0082427822 9.9671039e-39
-0.0074134897 -0.1041155 0.0082427822 9.7830503e-39
-0.005502345 -0.1041155 0.0082427822 1.6512633e-38
-0.0036760475 -0.10343929 0.011175688 1.7984951e-38
-0.0017700475 -0.10343929 0.011175688 2.0011498e-38
0.00013595633 -0.10343929 0.011175688 1.8074333e-38
0.0020419564 -0.10343929 0.011175688 1.3372017e-38
0.0039479602 -0.10343929 0.011175688 1.4201074e-38
0.005853964 -0.10343929 0.011175688 1.6506688e-38
0.0077599641 -0.10343929 0.011175688 1.5769833e-38
0.0096659679 -0.10343929 0.011175688 1.5586859e-38
0.011571968 -0.10343929 0.011175688 1.4204615e-38
0.013477972 -0.10343929 0.011175688 8.8604466e-39
0.015383972 -0.10343929 0.011175688 7.5732181e-39
0.017289976 -0.10343929 0.011175688 9.5107304e-39
0.019195979 -0.10343929 0.011175688 1.1169555e-38
0.021253681 -0.1041155 0.0082427822 1.1445435e-38
0.023164826 -0.1041155 0.0082427822 1.0984458e-38
0.02507597 -0.1041155 0.0082427822 1.1906067e-38
0.027215866 -0.10504107 0.0042284094 1.1906449e-38
0.029134048 -0.10504107 0.0042284094 1.2827702e-38
0.03105223 -0.10504107 0.0042284094 1.2274178e-38
0.032970421 -0.10504107 0.0042284094 1.0430616e-38
0.034888603 -0.10504107 0.0042284094 9.4167971e-39
0.036806785 -0.10504107 0.0042284094 8.864324e-39
0.038933538 -0.10575347 0.0011386238 9.4174866e-39
0.040857136 -0.10575347 0.0011386238 1.061461e-38
0.043558508 -0.10827883 -0.0098143257 1.0703255e-38
0.045501314 -0.10827883 -0.0098143257 1.6652456e-39
0.04744412 -0.10827883 -0.0098143257 3.239802e-42
-0.04606127 -0.11626263 -0.035817686 1.9436276e-39
-0.043986313 -0.11371385 -0.024846498 8.1214368e-39
-0.042017151 -0.11371385 -0.024846498 7.9381022e-39
-0.040030532 -0.11278872 -0.020864312 1.0242976e-38
-0.038068354 -0.11278872 -0.020864312 1.0150405e-38
-0.0361026 -0.11184154 -0.016787235 9.9663696e-39
-0.034150153 -0.11115701 -0.013840619 1.098089e-38
-0.032210879 -0.11022164 -0.0098143257 1.1903216e-38
-0.030268075 -0.11022164 -0.0098143257 1.1810313e-38
-0.028325269 -0.11022164 -0.0098143257 1.1073826e-38
-0.026406378 -0.10951753 -0.0067835487 1.1074528e-38
-0.024507223 -0.10859399 -0.0028081574 1.0890855e-38
-0.022576701 -0.10859399 -0.0028081574 1.0797958e-38
-0.020698082 -0.10767709 0.0011386238 1.1259303e-38
-0.018774481 -0.10767709 0.0011386238 1.0797969e-38
-0.016902346 -0.10695927 0.0042284094 1.1350777e-38
-0.015058067 -0.10602666 0.0082427822 1.1996487e-38
-0.013146924 -0.10602666 0.0082427822 1.135147e-38
-0.011235779 -0.10602666 0.0082427822 1.116565e-38
-0.0093246344 -0.10602666 0.0082427822 1.2272348e-38
-0.0074134897 -0.10602666 0.0082427822 1.1719512e-38
-0.005502345 -0.10602666 0.0082427822 1.7342389e-38
-0.0036760475 -0.10534529 0.011175688 1.7431777e-38
-0.0017700475 -0.10534529 0.011175688 1.9918946e-38
