# .PCD v0.7 - Point Cloud Data file format
VERSION 0.7
FIELDS x y z rgb
SIZE 4 4 4 4
TYPE F F F F
COUNT 1 1 1 1
WIDTH 939
HEIGHT 1
VIEWPOINT 0 0 0 1 0 0 0
POINTS 939
DATA ascii
-0.047060002 -0.12508373 -0.025640029 1.3842183e-38
-0.045130506 -0.12431435 -0.022644658 1.4671948e-38
-0.043277167 -0.12431435 -0.022644658 1.6054529e-38
-0.041363772 -0.1235493 -0.019666214 1.9003719e-38
-0.039515652 -0.1235493 -0.019666214 2.0570696e-38
-0.037667535 -0.1235493 -0.019666214 1.7987794e-38
-0.035819415 -0.1235493 -0.019666214 1.5313771e-38
-0.033917982 -0.12250783 -0.015611667 1.6697072e-38
-0.032043476 -0.12175287 -0.012672562 1.9094159e-38
-0.030207619 -0.12175287 -0.012672562 1.9648049e-38
-0.028347854 -0.12097444 -0.0096420236 1.9557284e-38
-0.026498821 -0.12020047 -0.0066288896 1.9005178e-38
-0.024673562 -0.12020047 -0.0066288896 1.4857799e-38
-0.022840424 -0.11943097 -0.0036331601 1.2645812e-38
-0.021020416 -0.11943097 -0.0036331601 1.5134738e-38
-0.019203857 -0.11842094 0.00029907748 1.4856725e-38
-0.017390745 -0.11842094 0.00029907748 1.439503e-38
-0.015577632 -0.11842094 0.00029907748 1.3750013e-38
-0.01376452 -0.11842094 0.00029907748 1.3657091e-38
-0.011998747 -0.11687975 0.0062991194 1.3380507e-38
-0.010196156 -0.11687975 0.0062991194 1.3287237e-38
-0.0083935633 -0.11687975 0.0062991194 1.3195044e-38
-0.0065909722 -0.11687975 0.0062991194 1.3194326e-38
-0.0047883797 -0.11687975 0.0062991194 1.4761303e-38
-0.0030361894 -0.1161025 0.0093250088 1.448436e-38
-0.0012389026 -0.1161025 0.0093250088 1.3563123e-38
0.00049772905 -0.11532979 0.012333255 1.3471279e-38
0.0022897408 -0.11532979 0.012333255 1.513222e-38
0.0040817526 -0.11532979 0.012333255 1.6976835e-38
0.0057977349 -0.11456163 0.015323859 1.5964111e-38
0.007420613 -0.1130126 0.021354418 1.411804e-38
0.0091968076 -0.1130126 0.021354418 1.6510096e-38
0.010973004 -0.1130126 0.021354418 1.641395e-38
0.0127492 -0.1130126 0.021354418 1.4382415e-38
0.014525392 -0.1130126 0.021354418 9.8615945e-39
0.016301587 -0.1130126 0.021354418 1.114838e-38
0.018077783 -0.1130126 0.021354418 1.2252573e-38
0.019974597 -0.11379795 0.018296938 1.2435522e-38
0.021878652 -0.11456163 0.015323859 1.2527718e-38
0.06703335 -0.11071031 0.030317526 2.350988e-38
0.068529457 -0.10994337 0.033303242 2.3509527e-38
0.070284709 -0.10994337 0.033303242 2.3509527e-38
0.072039947 -0.10994337 0.033303242 2.3509527e-38
0.073795199 -0.10994337 0.033303242 2.3509527e-38
0.075550437 -0.10994337 0.033303242 2.3509527e-38
0.077305689 -0.10994337 0.033303242 2.3509883e-38
0.079060927 -0.10994337 0.033303242 2.3418043e-38
0.081117183 -0.11071031 0.030317526 2.3234369e-38
0.082877666 -0.11071031 0.030317526 2.194507e-38
0.084638149 -0.11071031 0.030317526 2.2867034e-38
0.086717218 -0.11148177 0.027314048 2.2591531e-38
0.088482961 -0.11148177 0.027314048 2.084127e-38
0.090248719 -0.11148177 0.027314048 2.2316024e-38
0.092014462 -0.11148177 0.027314048 1.3465268e-38
0.093780205 -0.11148177 0.027314048 4.6137514e-39
0.095545948 -0.11148177 0.027314048 4.2446017e-39
-0.054494366 -0.12694232 -0.025640029 1.2819394e-38
-0.052543867 -0.12616767 -0.022644658 1.4482146e-38
-0.050690528 -0.12616767 -0.022644658 1.4669775e-38
-0.048837189 -0.12616767 -0.022644658 1.4209887e-38
-0.047060002 -0.12694232 -0.025640029 1.4118058e-38
-0.045130506 -0.12616767 -0.022644658 1.4302094e-38
-0.043277167 -0.12616767 -0.022644658 1.5223337e-38
-0.041363772 -0.1253974 -0.019666214 1.7712267e-38
-0.039515652 -0.1253974 -0.019666214 1.9739143e-38
-0.037667535 -0.1253974 -0.019666214 1.8078914e-38
-0.035819415 -0.1253974 -0.019666214 1.5496368e-38
-0.033917982 -0.12434883 -0.015611667 1.6510886e-38
-0.032043476 -0.12358873 -0.012672562 1.9276756e-38
-0.030207619 -0.12358873 -0.012672562 1.9093443e-38
-0.028347854 -0.12280498 -0.0096420236 1.8817209e-38
-0.026498821 -0.12202574 -0.0066288896 1.9094864e-38
-0.024673562 -0.12202574 -0.0066288896 1.6053476e-38
-0.022840424 -0.121251 -0.0036331601 1.4947477e-38
-0.021020416 -0.121251 -0.0036331601 1.8543831e-38
-0.019203857 -0.12023406 0.00029907748 1.8634251e-38
-0.017390745 -0.12023406 0.00029907748 1.6421556e-38
-0.015577632 -0.12023406 0.00029907748 1.4854211e-38
-0.013783307 -0.11944233 0.0033604912 1.4854565e-38
-0.011998747 -0.11868234 0.0062991194 1.5407024e-38
-0.010196156 -0.11868234 0.0062991194 1.5775807e-38
-0.0083935633 -0.11868234 0.0062991194 1.7158737e-38
-0.0065909722 -0.11868234 0.0062991194 1.8818258e-38
-0.0047883797 -0.11868234 0.0062991194 1.8817907e-38
-0.0030361894 -0.11789979 0.0093250088 1.8909751e-38
-0.0012389026 -0.11789979 0.0093250088 1.7249879e-38
0.00049772905 -0.1171218 0.012333255 1.4853865e-38
0.0022241962 -0.1163484 0.015323859 1.5316615e-38
0.0040109647 -0.1163484 0.015323859 1.7437461e-38
0.0057977349 -0.1163484 0.015323859 1.6793168e-38
0.007420613 -0.11478879 0.021354418 1.467051e-38
0.0091968076 -0.11478879 0.021354418 1.6601941e-38
0.010973004 -0.11478879 0.021354418 1.6506148e-38
0.012650621 -0.11400281 0.02439354 1.4474613e-38
0.014421486 -0.11400281 0.02439354 9.7694017e-39
0.016301587 -0.11478879 0.021354418 1.0963992e-38
0.018077783 -0.11478879 0.021354418 1.2160377e-38
0.019853979 -0.11478879 0.021354418 1.2435166e-38
0.021756154 -0.1155795 0.018296938 1.2619194e-38
0.065272868 -0.11247079 0.030317526 2.3509873e-38
0.06703335 -0.11247079 0.030317526 2.3509883e-38
0.068529457 -0.11169861 0.033303242 2.3509527e-38
0.070284709 -0.11169861 0.033303242 2.3509527e-38
0.072039947 -0.11169861 0.033303242 2.3509168e-38
0.073795199 -0.11169861 0.033303242 2.3509527e-38
0.075550437 -0.11169861 0.033303242 2.3509524e-38
0.077007279 -0.11090554 0.036369842 2.350988e-38
0.078757137 -0.11090554 0.036369842 2.2864149e-38
0.081117183 -0.11247079 0.030317526 2.3509879e-38
0.082877666 -0.11247079 0.030317526 2.3418043e-38
0.084638149 -0.11247079 0.030317526 2.2774113e-38
0.086398616 -0.11247079 0.030317526 2.295887e-38
0.088482961 -0.11324753 0.027314048 2.2130907e-38
0.090248719 -0.11324753 0.027314048 2.2591531e-38
0.092014462 -0.11324753 0.027314048 2.176249e-38
0.093780205 -0.11324753 0.027314048 1.1435861e-38
0.095545948 -0.11324753 0.027314048 5.3505863e-39
0.09731169 -0.11324753 0.027314048 6.0870696e-39
-0.056594197 -0.13063805 -0.032695789 8.2978603e-39
-0.054494366 -0.12880091 -0.025640029 1.2174027e-38
-0.052543867 -0.12802102 -0.022644658 1.3560913e-38
-0.050690528 -0.12802102 -0.022644658 1.4116246e-38
-0.048837189 -0.12802102 -0.022644658 1.3564163e-38
-0.047060002 -0.12880091 -0.025640029 1.4946747e-38
-0.04520141 -0.12880091 -0.025640029 1.5407728e-38
-0.043277167 -0.12802102 -0.022644658 1.6420446e-38
-0.041363772 -0.12724553 -0.019666214 1.8448756e-38
-0.039515652 -0.12724553 -0.019666214 2.0107209e-38
-0.037667535 -0.12724553 -0.019666214 1.8815043e-38
-0.035819415 -0.12724553 -0.019666214 1.5587485e-38
-0.033917982 -0.12618984 -0.015611667 1.5494938e-38
-0.032043476 -0.12542458 -0.012672562 1.909057e-38
-0.030207619 -0.12542458 -0.012672562 1.8999453e-38
-0.028347854 -0.12463553 -0.0096420236 1.8262243e-38
-0.026498821 -0.12385099 -0.0066288896 1.9000876e-38
-0.024673562 -0.12385099 -0.0066288896 1.7065838e-38
-0.022840424 -0.123071 -0.0036331601 1.6052394e-38
-0.021020416 -0.123071 -0.0036331601 1.8817911e-38
-0.019200411 -0.123071 -0.0036331601 2.18568e-38
-0.017390745 -0.12204717 0.00029907748 1.9923203e-38
-0.015577632 -0.12204717 0.00029907748 1.7342779e-38
-0.01380134 -0.12048493 0.0062991194 1.5314829e-38
-0.011998747 -0.12048493 0.0062991194 1.4852067e-38
-0.010196156 -0.12048493 0.0062991194 1.6142806e-38
-0.0083935633 -0.12048493 0.0062991194 1.9001575e-38
-0.0065909722 -0.12048493 0.0062991194 2.1581256e-38
-0.0048334752 -0.11969708 0.0093250088 2.0384156e-38
-0.0030361894 -0.11969708 0.0093250088 2.1397603e-38
-0.0012389026 -0.11969708 0.0093250088 1.9923205e-38
0.00049772905 -0.11891381 0.012333255 1.6236091e-38
0.0022241962 -0.11813517 0.015323859 1.4947477e-38
0.0040109647 -0.11813517 0.015323859 1.6515505e-38
0.0057977349 -0.11813517 0.015323859 1.6424035e-38
0.007420613 -0.11656497 0.021354418 1.4947466e-38
0.0091968076 -0.11656497 0.021354418 1.650975e-38
0.010973004 -0.11656497 0.021354418 1.6690182e-38
0.012650621 -0.11577369 0.02439354 1.4751203e-38
0.014421486 -0.11577369 0.02439354 9.7694045e-39
0.016301587 -0.11656497 0.021354418 1.0779603e-38
0.017963219 -0.11577369 0.02439354 1.1975989e-38
0.019734085 -0.11577369 0.02439354 1.234261e-38
0.021756154 -0.11736105 0.018296938 1.2434803e-38
0.063762531 -0.11501329 0.027314048 2.3509846e-38
0.065272868 -0.11423124 0.030317526 2.3509517e-38
0.06703335 -0.11423124 0.030317526 2.3509527e-38
0.068793818 -0.11423124 0.030317526 2.3509527e-38
0.070284709 -0.11345388 0.033303242 2.3509527e-38
0.072039947 -0.11345388 0.033303242 2.3509165e-38
0.073795199 -0.11345388 0.033303242 2.3509521e-38
0.075550437 -0.11345388 0.033303242 2.3509521e-38
0.077007279 -0.11265542 0.036369842 2.3509521e-38
0.078757137 -0.11265542 0.036369842 2.3416245e-38
0.08081618 -0.11345388 0.033303242 2.3139658e-38
0.082877666 -0.11423124 0.030317526 2.3509879e-38
0.084638149 -0.11423124 0.030317526 2.3509876e-38
0.086398616 -0.11423124 0.030317526 2.2588631e-38
0.088159099 -0.11423124 0.030317526 2.3418031e-38
0.089919582 -0.11423124 0.030317526 2.2775169e-38
0.092014462 -0.11501329 0.027314048 2.2037967e-38
0.093780205 -0.11501329 0.027314048 1.7520758e-38
0.095545948 -0.11501329 0.027314048 6.1803414e-39
0.09731169 -0.11501329 0.027314048 5.7182842e-39
-0.056455955 -0.13144915 -0.028652448 8.2056647e-39
-0.054397207 -0.12987436 -0.022644658 1.1713049e-38
-0.052543867 -0.12987436 -0.022644658 1.3007739e-38
-0.050690528 -0.12987436 -0.022644658 1.3747467e-38
-0.048918594 -0.13065951 -0.025640029 1.4486122e-38
-0.047060002 -0.13065951 -0.025640029 1.6329684e-38
-0.04520141 -0.13065951 -0.025640029 1.605274e-38
-0.043342818 -0.13065951 -0.025640029 1.6420446e-38
-0.041423824 -0.12987436 -0.022644658 1.8079973e-38
-0.039570484 -0.12987436 -0.022644658 1.9646225e-38
-0.037667535 -0.12909363 -0.019666214 1.8907233e-38
-0.035819415 -0.12909363 -0.019666214 1.5218338e-38
-0.033917982 -0.12803085 -0.015611667 1.6969706e-38
-0.032076973 -0.12803085 -0.015611667 2.1302902e-38
-0.030207619 -0.12726043 -0.012672562 2.2315979e-38
-0.028347854 -0.12646608 -0.0096420236 2.1580204e-38
-0.026498821 -0.12567626 -0.0066288896 2.1948621e-38
-0.024673562 -0.12567626 -0.0066288896 2.0106855e-38
-0.022840424 -0.124891 -0.0036331601 1.8171098e-38
-0.021020416 -0.124891 -0.0036331601 1.8909028e-38
-0.019203857 -0.12386028 0.00029907748 1.9737733e-38
-0.017390745 -0.12386028 0.00029907748 2.1489084e-38
-0.01559105 -0.1230578 0.0033604912 2.1489418e-38
-0.01380134 -0.12228753 0.0062991194 1.8909015e-38
-0.011998747 -0.12228753 0.0062991194 1.6418681e-38
-0.010196156 -0.12228753 0.0062991194 1.6049545e-38
-0.0083935633 -0.12228753 0.0062991194 1.7063676e-38
-0.0065909722 -0.12228753 0.0062991194 1.7433533e-38
-0.0048334752 -0.12149437 0.0093250088 1.8539529e-38
-0.0030361894 -0.12149437 0.0093250088 2.0936629e-38
-0.0012942846 -0.12070583 0.012333255 2.1213237e-38
0.00049772905 -0.12070583 0.012333255 1.8540988e-38
0.0022241962 -0.11992194 0.015323859 1.6698828e-38
0.0040109647 -0.11992194 0.015323859 1.6515856e-38
0.0057221488 -0.11914261 0.018296938 1.5502432e-38
0.0075037037 -0.11914261 0.018296938 1.3933311e-38
0.0092852609 -0.11914261 0.018296938 1.6233163e-38
0.010973004 -0.11834116 0.021354418 1.6782381e-38
0.0127492 -0.11834116 0.021354418 1.5027434e-38
0.014525392 -0.11834116 0.021354418 9.8612442e-39
0.016192351 -0.11754455 0.02439354 1.0594855e-38
0.017963219 -0.11754455 0.02439354 1.1699044e-38
0.019734085 -0.11754455 0.02439354 1.2250059e-38
0.061996773 -0.11677901 0.027314048 1.917158e-38
0.063762531 -0.11677901 0.027314048 2.3506598e-38
0.065272868 -0.11599173 0.030317526 2.350952e-38
0.06703335 -0.11599173 0.030317526 2.3509168e-38
0.068793818 -0.11599173 0.030317526 2.3509527e-38
0.070284709 -0.11520912 0.033303242 2.3509883e-38
0.072039947 -0.11520912 0.033303242 2.3509521e-38
0.073795199 -0.11520912 0.033303242 2.3509879e-38
0.075550437 -0.11520912 0.033303242 2.3509521e-38
0.077007279 -0.11440529 0.036369842 2.3509165e-38
0.078757137 -0.11440529 0.036369842 2.3509168e-38
0.08081618 -0.11520912 0.033303242 2.3138945e-38
0.082877666 -0.11599173 0.030317526 2.2309898e-38
0.084638149 -0.11599173 0.030317526 2.3509153e-38
0.086398616 -0.11599173 0.030317526 2.092802e-38
0.088159099 -0.11599173 0.030317526 2.1206032e-38
0.089919582 -0.11599173 0.030317526 2.0561369e-38
0.092014462 -0.11677901 0.027314048 2.0746127e-38
0.093780205 -0.11677901 0.027314048 1.917919e-38
0.095545948 -0.11677901 0.027314048 5.9030314e-39
0.09731169 -0.11677901 0.027314048 5.9023126e-39
-0.056455955 -0.13331302 -0.028652448 8.3896986e-39
-0.054397207 -0.13172771 -0.022644658 1.152866e-38
-0.052543867 -0.13172771 -0.022644658 1.2731154e-38
-0.050690528 -0.13172771 -0.022644658 1.3563075e-38
-0.048837189 -0.13172771 -0.022644658 1.5408078e-38
-0.047060002 -0.1325181 -0.025640029 1.7989922e-38
-0.04520141 -0.1325181 -0.025640029 1.7620783e-38
-0.043342818 -0.1325181 -0.025640029 1.7067249e-38
-0.041423824 -0.13172771 -0.022644658 1.7711541e-38
-0.039570484 -0.13172771 -0.022644658 1.8816817e-38
-0.037667535 -0.13094176 -0.019666214 1.890794e-38
-0.035819415 -0.13094176 -0.019666214 1.5404155e-38
-0.033917982 -0.12987186 -0.015611667 1.6877859e-38
-0.032076973 -0.12987186 -0.015611667 2.047349e-38
-0.030207619 -0.12909628 -0.012672562 2.1856425e-38
-0.028347854 -0.1282966 -0.0096420236 2.0935186e-38
-0.026498821 -0.1275015 -0.0066288896 2.0382365e-38
-0.024673562 -0.1275015 -0.0066288896 1.8908309e-38
-0.022840424 -0.126711 -0.0036331601 1.7802313e-38
-0.021020416 -0.126711 -0.0036331601 1.8447685e-38
-0.019203857 -0.1256734 0.00029907748 1.7893806e-38
-0.017390745 -0.1256734 0.00029907748 2.0013936e-38
-0.01559105 -0.12486555 0.0033604912 2.1948585e-38
-0.01380134 -0.12409012 0.0062991194 2.2040425e-38
-0.011998747 -0.12409012 0.0062991194 1.9828484e-38
-0.010196156 -0.12409012 0.0062991194 1.7431049e-38
-0.0083935633 -0.12409012 0.0062991194 1.6509077e-38
-0.0065909722 -0.12409012 0.0062991194 1.6602345e-38
-0.0048334752 -0.12329166 0.0093250088 1.6601991e-38
-0.0030361894 -0.12329166 0.0093250088 1.8446277e-38
-0.0012942846 -0.12249784 0.012333255 1.946009e-38
0.00049772905 -0.12249784 0.012333255 1.8264044e-38
0.0022241962 -0.12170871 0.015323859 1.7437098e-38
0.0040109647 -0.12170871 0.015323859 1.6977893e-38
0.0057221488 -0.12092416 0.018296938 1.5687524e-38
0.0075037037 -0.12092416 0.018296938 1.4394275e-38
0.0092852609 -0.12092416 0.018296938 1.577218e-38
0.010973004 -0.12011738 0.021354418 1.6782381e-38
0.0127492 -0.12011738 0.021354418 1.5304021e-38
0.014525392 -0.12011738 0.021354418 1.0045635e-38
0.016192351 -0.11931543 0.02439354 1.0502659e-38
0.017963219 -0.11931543 0.02439354 1.1606849e-38
0.019734085 -0.11931543 0.02439354 1.2250059e-38
0.060464017 -0.11931543 0.02439354 1.3362522e-38
0.061996773 -0.11854477 0.027314048 1.5114604e-38
0.063762531 -0.11854477 0.027314048 2.3045256e-38
0.065272868 -0.11775221 0.030317526 2.3509521e-38
0.06703335 -0.11775221 0.030317526 2.3509168e-38
0.068529457 -0.11696436 0.033303242 2.3509527e-38
0.070284709 -0.11696436 0.033303242 2.3509886e-38
0.072039947 -0.11696436 0.033303242 2.3509879e-38
0.073507532 -0.11615516 0.036369842 2.3509879e-38
0.075257406 -0.11615516 0.036369842 2.3509883e-38
0.077007279 -0.11615516 0.036369842 2.3509527e-38
0.078757137 -0.11615516 0.036369842 2.3047117e-38
0.081117183 -0.11775221 0.030317526 2.3509168e-38
0.082877666 -0.11775221 0.030317526 2.3507728e-38
0.084638149 -0.11775221 0.030317526 1.9912803e-38
0.086398616 -0.11775221 0.030317526 1.9360327e-38
0.088159099 -0.11775221 0.030317526 2.1666637e-38
0.090248719 -0.11854477 0.027314048 2.1944282e-38
0.092014462 -0.11854477 0.027314048 2.1760618e-38
0.093780205 -0.11854477 0.027314048 1.8901874e-38
0.095545948 -0.11854477 0.027314048 5.7179199e-39
0.09731169 -0.11854477 0.027314048 6.5476806e-39
-0.056455955 -0.13517688 -0.028652448 8.5740899e-39
-0.054397207 -0.13358103 -0.022644658 1.16205e-38
-0.052543867 -0.13358103 -0.022644658 1.2914469e-38
-0.050690528 -0.13358103 -0.022644658 1.3562719e-38
-0.048837189 -0.13358103 -0.022644658 1.4394645e-38
-0.047060002 -0.13437669 -0.025640029 1.8821477e-38
-0.04520141 -0.13437669 -0.025640029 2.020333e-38
-0.043342818 -0.13437669 -0.025640029 1.9741992e-38
-0.041423824 -0.13358103 -0.022644658 1.9188099e-38
-0.039570484 -0.13358103 -0.022644658 1.9371058e-38
-0.037667535 -0.13278987 -0.019666214 1.9462539e-38
-0.035819415 -0.13278987 -0.019666214 1.6235342e-38
-0.033917982 -0.13171287 -0.015611667 1.752465e-38
-0.032043476 -0.13093217 -0.012672562 1.9645153e-38
-0.030207619 -0.13093217 -0.012672562 2.0382363e-38
-0.028347854 -0.13012715 -0.0096420236 1.9276371e-38
-0.026498821 -0.12932678 -0.0066288896 1.8262218e-38
-0.024673562 -0.12932678 -0.0066288896 1.7617922e-38
-0.022848302 -0.12932678 -0.0066288896 1.8540232e-38
-0.021020416 -0.12853102 -0.0036331601 2.0291949e-38
-0.019200411 -0.12853102 -0.0036331601 2.0474913e-38
-0.017390745 -0.12748651 0.00029907748 1.8262567e-38
-0.015577632 -0.12748651 0.00029907748 1.8447646e-38
-0.013783307 -0.1266733 0.0033604912 2.0659989e-38
-0.011998747 -0.12589271 0.0062991194 2.0381293e-38
-0.010196156 -0.12589271 0.0062991194 1.7891308e-38
-0.0083935633 -0.12589271 0.0062991194 1.8260794e-38
-0.006630762 -0.12508895 0.0093250088 2.1027016e-38
-0.0048334752 -0.12508895 0.0093250088 2.0474208e-38
-0.0030361894 -0.12508895 0.0093250088 1.9921764e-38
-0.0012942846 -0.12428986 0.012333255 1.8538489e-38
0.00049772905 -0.12428986 0.012333255 1.6788549e-38
0.0022241962 -0.12349547 0.015323859 1.6146708e-38
0.0040109647 -0.12349547 0.015323859 1.6241031e-38
0.0057221488 -0.12270571 0.018296938 1.5688229e-38
0.0075037037 -0.12270571 0.018296938 1.5132548e-38
0.0092852609 -0.12270571 0.018296938 1.5311558e-38
0.010973004 -0.12189357 0.021354418 1.6597992e-38
0.0127492 -0.12189357 0.021354418 1.5488412e-38
0.014525392 -0.12189357 0.021354418 1.0137831e-38
0.016192351 -0.12108628 0.02439354 1.0410466e-38
0.017963219 -0.12108628 0.02439354 1.1514653e-38
0.019734085 -0.12108628 0.02439354 1.2342254e-38
0.06023103 -0.1203105 0.027314048 1.262351e-38
0.061996773 -0.1203105 0.027314048 1.5206433e-38
0.063762531 -0.1203105 0.027314048 2.3508386e-38
0.065272868 -0.11951269 0.030317526 2.3509521e-38
0.066774219 -0.11871959 0.033303242 2.323402e-38
0.068529457 -0.11871959 0.033303242 2.341805e-38
0.070007801 -0.11790501 0.036369842 2.341805e-38
0.071757674 -0.11790501 0.036369842 2.3418045e-38
0.073507532 -0.11790501 0.036369842 2.3418045e-38
0.075257406 -0.11790501 0.036369842 2.3509886e-38
0.076720223 -0.11712147 0.039319616 2.3509527e-38
0.078464925 -0.11712147 0.039319616 2.3509168e-38
0.08081618 -0.11871959 0.033303242 2.2679057e-38
0.082571417 -0.11871959 0.033303242 2.3509168e-38
0.084638149 -0.11951269 0.030317526 1.9083402e-38
0.086398616 -0.11951269 0.030317526 1.9268847e-38
0.088159099 -0.11951269 0.030317526 2.2496748e-38
0.090248719 -0.1203105 0.027314048 2.175988e-38
0.092014462 -0.1203105 0.027314048 2.0470228e-38
0.093780205 -0.1203105 0.027314048 1.9547598e-38
0.095545948 -0.1203105 0.027314048 6.4558409e-39
0.09731169 -0.1203105 0.027314048 7.6533051e-39
-0.056455955 -0.13704078 -0.028652448 8.0198399e-39
-0.054494366 -0.13623528 -0.025640029 1.1527227e-38
-0.052635774 -0.13623528 -0.025640029 1.3374731e-38
-0.050777186 -0.13623528 -0.025640029 1.3286133e-38
-0.048918594 -0.13623528 -0.025640029 1.3842186e-38
-0.047060002 -0.13623528 -0.025640029 1.670169e-38
-0.04520141 -0.13623528 -0.025640029 1.7438892e-38
-0.043342818 -0.13623528 -0.025640029 1.762328e-38
-0.041423824 -0.13543437 -0.022644658 1.8544516e-38
-0.039570484 -0.13543437 -0.022644658 1.891258e-38
-0.037667535 -0.134638 -0.019666214 1.8727475e-38
-0.035819415 -0.134638 -0.019666214 1.7250915e-38
-0.033917982 -0.13355388 -0.015611667 1.7526429e-38
-0.032043476 -0.13276802 -0.012672562 1.8540586e-38
-0.030207619 -0.13276802 -0.012672562 1.8448034e-38
-0.028347854 -0.13195769 -0.0096420236 1.8264364e-38
-0.026498821 -0.13115202 -0.0066288896 1.807997e-38
-0.024673562 -0.13115202 -0.0066288896 1.6790305e-38
-0.022848302 -0.13115202 -0.0066288896 1.7712619e-38
-0.021023043 -0.13115202 -0.0066288896 2.1030224e-38
-0.019200411 -0.13035102 -0.0036331601 2.1764924e-38
-0.017380403 -0.13035102 -0.0036331601 1.8631338e-38
-0.015577632 -0.1292996 0.00029907748 1.5866876e-38
-0.013783307 -0.12848105 0.0033604912 1.8079219e-38
-0.011998747 -0.12769531 0.0062991194 2.0473476e-38
-0.010196156 -0.12769531 0.0062991194 1.7153729e-38
-0.0084280483 -0.12688623 0.0093250088 1.6233195e-38
-0.006630762 -0.12688623 0.0093250088 2.1396503e-38
-0.0048334752 -0.12688623 0.0093250088 2.0567108e-38
-0.0030862964 -0.12608187 0.012333255 2.0844069e-38
-0.0012942846 -0.12608187 0.012333255 2.0843729e-38
0.00043742781 -0.12528224 0.015323859 1.5129735e-38
0.0022241962 -0.12528224 0.015323859 1.3934721e-38
0.0039405921 -0.1244873 0.018296938 1.5319424e-38
0.0057221488 -0.1244873 0.018296938 1.5780773e-38
0.0075037037 -0.1244873 0.018296938 1.3842161e-38
0.0092852609 -0.1244873 0.018296938 1.5220439e-38
0.010973004 -0.12366976 0.021354418 1.7244438e-38
0.0127492 -0.12366976 0.021354418 1.4197673e-38
0.014525392 -0.12366976 0.021354418 1.0045635e-38
0.016192351 -0.12285714 0.02439354 1.0133879e-38
0.017963219 -0.12285714 0.02439354 1.1699044e-38
0.019261621 -0.11965488 0.036369842 1.2157863e-38
0.021011487 -0.11965488 0.036369842 1.3171292e-38
0.022893086 -0.12047486 0.033303242 1.15132e-38
0.025046684 -0.12285714 0.02439354 1.1882697e-38
0.06023103 -0.12207626 0.027314048 1.1701188e-38
0.061996773 -0.12207626 0.027314048 1.4467779e-38
0.063762531 -0.12207626 0.027314048 2.3509824e-38
0.065272868 -0.12127317 0.030317526 2.3509876e-38
0.066774219 -0.12047486 0.033303242 2.3142544e-38
0.068529457 -0.12047486 0.033303242 2.3050349e-38
0.070007801 -0.11965488 0.036369842 2.3050347e-38
0.071486145 -0.11886616 0.039319616 2.3234374e-38
0.073230833 -0.11886616 0.039319616 2.3234376e-38
0.074975535 -0.11886616 0.039319616 2.3233662e-38
0.076720223 -0.11886616 0.039319616 2.3417691e-38
0.078464925 -0.11886616 0.039319616 2.332478e-38
0.08081618 -0.12047486 0.033303242 2.3509168e-38
0.082571417 -0.12047486 0.033303242 2.3509527e-38
0.084638149 -0.12127317 0.030317526 2.0098636e-38
0.086398616 -0.12127317 0.030317526 2.0191883e-38
0.088159099 -0.12127317 0.030317526 2.1668067e-38
0.090248719 -0.12207626 0.027314048 1.8349357e-38
0.092014462 -0.12207626 0.027314048 1.9640466e-38
0.093780205 -0.12207626 0.027314048 1.8349052e-38
0.095545948 -0.12207626 0.027314048 6.9157372e-39
0.09731169 -0.12207626 0.027314048 7.929529e-39
-0.056455955 -0.13890465 -0.028652448 9.0332758e-39
-0.054494366 -0.13809387 -0.025640029 1.1526511e-38
-0.052635774 -0.13809387 -0.025640029 1.2728285e-38
-0.050777186 -0.13809387 -0.025640029 1.2455296e-38
-0.048918594 -0.13809387 -0.025640029 1.2735838e-38
-0.047060002 -0.13809387 -0.025640029 1.4490071e-38
-0.04520141 -0.13809387 -0.025640029 1.3936174e-38
-0.043342818 -0.13809387 -0.025640029 1.2829462e-38
-0.041423824 -0.13728772 -0.022644658 1.2644348e-38
-0.039570484 -0.13728772 -0.022644658 1.2552152e-38
-0.037667535 -0.13648613 -0.019666214 1.3196086e-38
-0.035819415 -0.13648613 -0.019666214 1.2366327e-38
-0.033917982 -0.13539489 -0.015611667 1.3286854e-38
-0.032043476 -0.13460387 -0.012672562 1.411626e-38
-0.030207619 -0.13460387 -0.012672562 1.4946024e-38
-0.028347854 -0.13378824 -0.0096420236 1.6421877e-38
-0.026517311 -0.13378824 -0.0096420236 1.7897007e-38
-0.024673562 -0.13297729 -0.0066288896 1.6791376e-38
-0.022848302 -0.13297729 -0.0066288896 1.577758e-38
-0.021023043 -0.13297729 -0.0066288896 1.6790657e-38
-0.019200411 -0.13217102 -0.0036331601 1.7249847e-38
-0.017380403 -0.13217102 -0.0036331601 1.7525343e-38
-0.015577632 -0.13111271 0.00029907748 1.6973221e-38
-0.013783307 -0.13028879 0.0033604912 1.789518e-38
-0.011998747 -0.1294979 0.0062991194 1.7616118e-38
-0.010196156 -0.1294979 0.0062991194 1.3559159e-38
-0.0084280483 -0.12868352 0.0093250088 1.356058e-38
-0.006630762 -0.12868352 0.0093250088 1.93689e-38
-0.0048783082 -0.12787388 0.012333255 2.1489405e-38
-0.0030862964 -0.12787388 0.012333255 2.0199402e-38
-0.0012942846 -0.12787388 0.012333255 1.9737723e-38
0.00043742781 -0.12706901 0.015323859 1.5498867e-38
0.0022241962 -0.12706901 0.015323859 1.4948508e-38
0.0039405921 -0.12626885 0.018296938 1.5779683e-38
0.0057221488 -0.12626885 0.018296938 1.605664e-38
0.0075037037 -0.12626885 0.018296938 1.4764117e-38
0.0092852609 -0.12626885 0.018296938 1.5220436e-38
0.010973004 -0.12544595 0.021354418 1.7244438e-38
0.0127492 -0.12544595 0.021354418 1.4382064e-38
0.014525392 -0.12544595 0.021354418 1.0322222e-38
0.016192351 -0.12462802 0.02439354 1.0594855e-38
0.017963219 -0.12462802 0.02439354 1.2067827e-38
0.019261621 -0.12140475 0.036369842 1.2618841e-38
0.021011487 -0.12140475 0.036369842 1.3447879e-38
0.022893086 -0.1222301 0.033303242 1.2249686e-38
0.025046684 -0.12462802 0.02439354 1.2067088e-38
0.061751902 -0.12303366 0.030317526 1.4559607e-38
0.063512385 -0.12303366 0.030317526 2.3509816e-38
0.065272868 -0.12303366 0.030317526 2.3509867e-38
0.066774219 -0.1222301 0.033303242 2.3234379e-38
0.068529457 -0.1222301 0.033303242 2.3050347e-38
0.070007801 -0.12140475 0.036369842 2.2866671e-38
0.071486145 -0.12061088 0.039319616 2.3142538e-38
0.073230833 -0.12061088 0.039319616 2.3142544e-38
0.074975535 -0.12061088 0.039319616 2.3142185e-38
0.076720223 -0.12061088 0.039319616 2.3234379e-38
0.078464925 -0.12061088 0.039319616 2.3141826e-38
0.08081618 -0.1222301 0.033303242 2.3048914e-38
0.082571417 -0.1222301 0.033303242 2.3049273e-38
0.084638149 -0.12303366 0.030317526 2.0468498e-38
0.086398616 -0.12303366 0.030317526 2.1391145e-38
0.088159099 -0.12303366 0.030317526 2.2314158e-38
0.089919582 -0.12303366 0.030317526 1.8534835e-38
0.091680065 -0.12303366 0.030317526 1.881107e-38
0.093440548 -0.12303366 0.030317526 1.7979551e-38
0.095545948 -0.12384202 0.027314048 7.4685481e-39
0.09731169 -0.12384202 0.027314048 7.7451378e-39
-0.058681138 -0.14349155 -0.038704652 1.0872512e-38
-0.056455955 -0.14076851 -0.028652448 9.1247511e-39
-0.054494366 -0.13995247 -0.025640029 1.0880421e-38
-0.052635774 -0.13995247 -0.025640029 1.162122e-38
-0.050777186 -0.13995247 -0.025640029 1.1624818e-38
-0.048918594 -0.13995247 -0.025640029 1.1167795e-38
-0.047060002 -0.13995247 -0.025640029 1.310606e-38
-0.04520141 -0.13995247 -0.025640029 1.2921659e-38
-0.043342818 -0.13995247 -0.025640029 1.2276285e-38
-0.041484222 -0.13995247 -0.025640029 1.2459951e-38
-0.039570484 -0.13914107 -0.022644658 1.2644698e-38
-0.037667535 -0.13833423 -0.019666214 1.3841806e-38
-0.035819415 -0.13833423 -0.019666214 1.3841809e-38
-0.033917982 -0.13723589 -0.015611667 1.2089739e-38
-0.032043476 -0.13643973 -0.012672562 1.2458167e-38
-0.030178396 -0.13561879 -0.0096420236 1.3380129e-38
-0.028347854 -0.13561879 -0.0096420236 1.5500271e-38
-0.026498821 -0.13480256 -0.0066288896 1.7252707e-38
-0.024673562 -0.13480256 -0.0066288896 1.6515859e-38
-0.022848302 -0.13480256 -0.0066288896 1.5225118e-38
-0.021023043 -0.13480256 -0.0066288896 1.5316601e-38
-0.019200411 -0.13399105 -0.0036331601 1.4760928e-38
-0.017380403 -0.13399105 -0.0036331601 1.6050579e-38
-0.015577632 -0.13292582 0.00029907748 1.605163e-38
-0.013783307 -0.13209651 0.0033604912 1.6604801e-38
-0.011998747 -0.13130049 0.0062991194 1.6787778e-38
-0.010196156 -0.13130049 0.0062991194 1.4021554e-38
-0.0084280483 -0.13048081 0.0093250088 1.3469438e-38
-0.006630762 -0.13048081 0.0093250088 1.6880672e-38
-0.0048783082 -0.1296659 0.012333255 2.0476669e-38
-0.0030862964 -0.1296659 0.012333255 2.010826e-38
-0.0012942846 -0.1296659 0.012333255 2.0107206e-38
0.00043742781 -0.12885578 0.015323859 1.6052746e-38
0.0022241962 -0.12885578 0.015323859 1.476376e-38
0.0039405921 -0.1280504 0.018296938 1.5594943e-38
0.0057221488 -0.1280504 0.018296938 1.5318367e-38
0.0075037037 -0.1280504 0.018296938 1.3841809e-38
0.0092852609 -0.1280504 0.018296938 1.5220439e-38
0.010973004 -0.12722217 0.021354418 1.7244435e-38
0.0127492 -0.12722217 0.021354418 1.4659367e-38
0.014525392 -0.12722217 0.021354418 1.0414418e-38
0.016192351 -0.12639888 0.02439354 1.0963637e-38
0.017853126 -0.12560774 0.027314048 1.2251139e-38
0.019261621 -0.12315463 0.036369842 1.2802512e-38
0.021011487 -0.12315463 0.036369842 1.3355683e-38
0.023275819 -0.12639888 0.02439354 1.2710664e-38
0.025046684 -0.12639888 0.02439354 1.2342956e-38
0.026817553 -0.12639888 0.02439354 1.2344028e-38
0.028588418 -0.12639888 0.02439354 1.2530216e-38
0.06023103 -0.12560774 0.027314048 1.3267424e-38
0.061751902 -0.12479414 0.030317526 1.4650358e-38
0.063512385 -0.12479414 0.030317526 2.3508727e-38
0.065018967 -0.12398534 0.033303242 2.3509135e-38
0.066774219 -0.12398534 0.033303242 2.3418043e-38
0.068529457 -0.12398534 0.033303242 2.3234367e-38
0.070007801 -0.12315463 0.036369842 2.2774111e-38
0.071486145 -0.12235557 0.039319616 2.3234374e-38
0.073230833 -0.12235557 0.039319616 2.3142542e-38
0.074975535 -0.12235557 0.039319616 2.2774125e-38
0.076720223 -0.12235557 0.039319616 2.3142544e-38
0.078464925 -0.12235557 0.039319616 2.3142544e-38
0.08081618 -0.12398534 0.033303242 2.3234379e-38
0.082571417 -0.12398534 0.033303242 2.2865958e-38
0.08432667 -0.12398534 0.033303242 2.0100791e-38
0.086398616 -0.12479414 0.030317526 2.0838334e-38
0.088159099 -0.12479414 0.030317526 2.176135e-38
0.089919582 -0.12479414 0.030317526 1.9549357e-38
0.091680065 -0.12479414 0.030317526 1.9363892e-38
0.093440548 -0.12479414 0.030317526 1.8532727e-38
0.095201015 -0.12479414 0.030317526 8.4819811e-39
0.096961498 -0.12479414 0.030317526 8.4819839e-39
-0.058681138 -0.14537306 -0.038704652 1.1517163e-38
-0.056455955 -0.14263238 -0.028652448 9.7694017e-39
-0.054494366 -0.14181106 -0.025640029 1.1339964e-38
-0.052635774 -0.14181106 -0.025640029 1.2449186e-38
-0.050777186 -0.14181106 -0.025640029 1.291412e-38
-0.048918594 -0.14181106 -0.025640029 1.1535506e-38
-0.047136586 -0.14263238 -0.028652448 1.3105345e-38
-0.04520141 -0.14181106 -0.025640029 1.3012423e-38
-0.043342818 -0.14181106 -0.025640029 1.2828383e-38
-0.041484222 -0.14181106 -0.025640029 1.2828017e-38
-0.039570484 -0.14099441 -0.022644658 1.2366673e-38
-0.037667535 -0.14018236 -0.019666214 1.3012043e-38
-0.035819415 -0.14018236 -0.019666214 1.3195714e-38
-0.033917982 -0.1390769 -0.015611667 1.3010969e-38
-0.032043476 -0.13827558 -0.012672562 1.3010616e-38
-0.030178396 -0.13744931 -0.0096420236 1.3379044e-38
-0.028347854 -0.13744931 -0.0096420236 1.4025495e-38
-0.026498821 -0.13662781 -0.0066288896 1.4486837e-38
-0.024673562 -0.13662781 -0.0066288896 1.4303164e-38
-0.022848302 -0.13662781 -0.0066288896 1.4856335e-38
-0.021023043 -0.13662781 -0.0066288896 1.6146362e-38
-0.019200411 -0.13581105 -0.0036331601 1.5682884e-38
-0.017380403 -0.13581105 -0.0036331601 1.6051664e-38
-0.015577632 -0.13473894 0.00029907748 1.5222594e-38
-0.013783307 -0.13390426 0.0033604912 1.5499533e-38
-0.011998747 -0.13310309 0.0062991194 1.7157629e-38
-0.010196156 -0.13310309 0.0062991194 1.6327868e-38
-0.0084280483 -0.1322781 0.0093250088 1.4761244e-38
-0.006630762 -0.1322781 0.0093250088 1.522222e-38
-0.0048334752 -0.1322781 0.0093250088 1.7895543e-38
-0.0030862964 -0.13145791 0.012333255 2.0477394e-38
-0.0012942846 -0.13145791 0.012333255 2.1764926e-38
0.00043742781 -0.13064255 0.015323859 1.752715e-38
0.0022241962 -0.13064255 0.015323859 1.5132192e-38
0.0040109647 -0.13064255 0.015323859 1.6700585e-38
0.0057977349 -0.13064255 0.015323859 1.6147416e-38
0.0075037037 -0.12983195 0.018296938 1.3748181e-38
0.0092852609 -0.12983195 0.018296938 1.521936e-38
0.010973004 -0.12899835 0.021354418 1.6967847e-38
0.0127492 -0.12899835 0.021354418 1.4751563e-38
0.014525392 -0.12899835 0.021354418 1.0230383e-38
0.016192351 -0.12816976 0.02439354 1.105619e-38
0.017739903 -0.12655462 0.030317526 1.1882714e-38
0.019500382 -0.12655462 0.030317526 1.2525925e-38
0.021260865 -0.12655462 0.030317526 1.2893986e-38
0.023275819 -0.12816976 0.02439354 1.2710664e-38
0.025046684 -0.12816976 0.02439354 1.2435152e-38
0.026817553 -0.12816976 0.02439354 1.2344028e-38
0.028588418 -0.12816976 0.02439354 1.2621333e-38
0.06023103 -0.1273735 0.027314048 1.3635482e-38
0.061751902 -0.12655462 0.030317526 1.4465243e-38
0.063512385 -0.12655462 0.030317526 2.3505474e-38
0.065018967 -0.12574057 0.033303242 2.3509838e-38
0.066774219 -0.12574057 0.033303242 2.350986e-38
0.068529457 -0.12574057 0.033303242 2.3509866e-38
0.070007801 -0.1249045 0.036369842 2.350987e-38
0.071486145 -0.12410025 0.039319616 2.3509879e-38
0.073230833 -0.12410025 0.039319616 2.3418047e-38
0.074975535 -0.12410025 0.039319616 2.3234379e-38
0.076720223 -0.12410025 0.039319616 2.3234379e-38
0.078464925 -0.12410025 0.039319616 2.3142185e-38
0.08050701 -0.1249045 0.036369842 2.3142544e-38
0.082256883 -0.1249045 0.036369842 2.3142538e-38
0.08432667 -0.12574057 0.033303242 1.93643e-38
0.086081907 -0.12574057 0.033303242 1.8811112e-38
0.088159099 -0.12655462 0.030317526 1.9549023e-38
0.089592397 -0.12574057 0.033303242 1.973304e-38
0.09134765 -0.12574057 0.033303242 1.8257198e-38
0.093102887 -0.12574057 0.033303242 1.7978839e-38
0.094858125 -0.12574057 0.033303242 8.8507637e-39
0.096613377 -0.12574057 0.033303242 9.4961359e-39
-0.058825102 -0.14835359 -0.042709965 1.1516803e-38
-0.056594197 -0.14560573 -0.032695789 9.7676066e-39
-0.054494366 -0.14366965 -0.025640029 1.0970103e-38
-0.052635774 -0.14366965 -0.025640029 1.1434318e-38
-0.050777186 -0.14366965 -0.025640029 1.162123e-38
-0.048918594 -0.14366965 -0.025640029 1.2086891e-38
-0.047136586 -0.14449625 -0.028652448 1.3102483e-38
-0.04520141 -0.14366965 -0.025640029 1.2917364e-38
-0.043342818 -0.14366965 -0.025640029 1.3286854e-38
-0.041484222 -0.14366965 -0.025640029 1.3563071e-38
-0.039570484 -0.14284773 -0.022644658 1.2641468e-38
-0.037667535 -0.14203046 -0.019666214 1.2733661e-38
-0.035819415 -0.14203046 -0.019666214 1.2641465e-38
-0.033917982 -0.14091791 -0.015611667 1.3379036e-38
-0.032043476 -0.14011143 -0.012672562 1.3470877e-38
-0.030178396 -0.13927986 -0.0096420236 1.4115893e-38
-0.028347854 -0.13927986 -0.0096420236 1.4393202e-38
-0.026498821 -0.13845308 -0.0066288896 1.3656358e-38
-0.024673562 -0.13845308 -0.0066288896 1.338049e-38
-0.022848302 -0.13845308 -0.0066288896 1.4486838e-38
-0.021023043 -0.13845308 -0.0066288896 1.5685028e-38
-0.019200411 -0.13763104 -0.0036331601 1.5038594e-38
-0.017380403 -0.13763104 -0.0036331601 1.568396e-38
-0.015577632 -0.13655205 0.00029907748 1.5038571e-38
-0.01376452 -0.13655205 0.00029907748 1.4301356e-38
-0.011975562 -0.13571201 0.0033604912 1.5314792e-38
-0.010196156 -0.13490568 0.0062991194 1.5499181e-38
-0.0084280483 -0.13407536 0.0093250088 1.4946359e-38
-0.006630762 -0.13407536 0.0093250088 1.513075e-38
-0.0048334752 -0.13407536 0.0093250088 1.4485032e-38
-0.0030862964 -0.13324992 0.012333255 1.7250193e-38
-0.0012942846 -0.13324992 0.012333255 1.8909728e-38
0.00049772905 -0.13324992 0.012333255 1.6236411e-38
0.0022241962 -0.13242932 0.015323859 1.4578669e-38
0.0040109647 -0.13242932 0.015323859 1.6884631e-38
0.0057977349 -0.13242932 0.015323859 1.5962674e-38
0.0075037037 -0.13161351 0.018296938 1.3563791e-38
0.0092852609 -0.13161351 0.018296938 1.4850577e-38
0.010973004 -0.13077454 0.021354418 1.659942e-38
0.0127492 -0.13077454 0.021354418 1.4751919e-38
0.014421486 -0.12994061 0.02439354 1.0045989e-38
0.016192351 -0.12994061 0.02439354 1.1240581e-38
0.017739903 -0.12831511 0.030317526 1.1790518e-38
0.019500382 -0.12831511 0.030317526 1.2618121e-38
0.021260865 -0.12831511 0.030317526 1.2802146e-38
0.023275819 -0.12994061 0.02439354 1.2710664e-38
0.025046684 -0.12994061 0.02439354 1.2619543e-38
0.026817553 -0.12994061 0.02439354 1.2712811e-38
0.028588418 -0.12994061 0.02439354 1.2621333e-38
0.061751902 -0.12831511 0.030317526 1.446488e-38
0.063512385 -0.12831511 0.030317526 2.2857217e-38
0.065018967 -0.12749584 0.033303242 2.3507296e-38
0.066774219 -0.12749584 0.033303242 2.3509838e-38
0.068529457 -0.12749584 0.033303242 2.3509848e-38
0.070007801 -0.12665437 0.036369842 2.3508057e-38
0.071486145 -0.12584494 0.039319616 2.3416953e-38
0.072946623 -0.12501357 0.042349499 2.3325127e-38
0.074686006 -0.12501357 0.042349499 2.3233299e-38
0.076425388 -0.12501357 0.042349499 2.341805e-38
0.078164771 -0.12501357 0.042349499 2.249645e-38
0.08050701 -0.12665437 0.036369842 2.3234372e-38
0.082256883 -0.12665437 0.036369842 2.3234364e-38
0.084006742 -0.12665437 0.036369842 1.9271738e-38
0.086081907 -0.12749584 0.033303242 1.8349055e-38
0.08783716 -0.12749584 0.033303242 1.8810383e-38
0.089592397 -0.12749584 0.033303242 1.9547947e-38
0.09134765 -0.12749584 0.033303242 1.5306233e-38
0.093102887 -0.12749584 0.033303242 1.4014073e-38
0.094858125 -0.12749584 0.033303242 8.2965137e-39
0.096613377 -0.12749584 0.033303242 9.5872553e-39
-0.079377621 -0.14913605 -0.038704652 1.0594894e-38
-0.077331975 -0.14828841 -0.035635132 1.2251527e-38
-0.075455859 -0.14828841 -0.035635132 1.243627e-38
-0.071703628 -0.14828841 -0.035635132 1.2436964e-38
-0.069827512 -0.14828841 -0.035635132 1.234404e-38
-0.067951389 -0.14828841 -0.035635132 1.2250764e-38
-0.066207126 -0.14913605 -0.038704652 1.2803214e-38
-0.064325631 -0.14913605 -0.038704652 1.2893615e-38
-0.056594197 -0.14747669 -0.032695789 9.3059096e-39
-0.05459208 -0.14636014 -0.028652448 9.7708436e-39
-0.052635774 -0.14552824 -0.025640029 9.0354338e-39
-0.050777186 -0.14552824 -0.025640029 7.7482991e-39
-0.048918594 -0.14552824 -0.025640029 7.2898531e-39
-0.047136586 -0.14636014 -0.028652448 8.7671412e-39
-0.04520141 -0.14552824 -0.025640029 1.0057511e-38
-0.043342818 -0.14552824 -0.025640029 1.2362751e-38
-0.041423824 -0.14470108 -0.022644658 1.3745672e-38
-0.039570484 -0.14470108 -0.022644658 1.2824067e-38
-0.037667535 -0.14387859 -0.019666214 1.2731869e-38
-0.035758991 -0.14275892 -0.015611667 1.2639673e-38
-0.033879332 -0.14194728 -0.012672562 1.3285045e-38
-0.032043476 -0.14194728 -0.012672562 1.3745669e-38
-0.030178396 -0.14111041 -0.0096420236 1.5497751e-38
-0.028347854 -0.14111041 -0.0096420236 1.6328237e-38
-0.026498821 -0.14027832 -0.0066288896 1.5222611e-38
-0.024673562 -0.14027832 -0.0066288896 1.3840397e-38
-0.022848302 -0.14027832 -0.0066288896 1.3287223e-38
-0.021023043 -0.14027832 -0.0066288896 1.2642575e-38
-0.019200411 -0.13945107 -0.0036331601 1.2273438e-38
-0.017380403 -0.13945107 -0.0036331601 1.282661e-38
-0.015577632 -0.13836516 0.00029907748 1.2366338e-38
-0.01376452 -0.13836516 0.00029907748 1.2089387e-38
-0.011975562 -0.13751976 0.0033604912 1.3103536e-38
-0.010196156 -0.13670824 0.0062991194 1.4393196e-38
-0.0083935633 -0.13670824 0.0062991194 1.5130045e-38
-0.006630762 -0.13587265 0.0093250088 1.5591027e-38
-0.0048334752 -0.13587265 0.0093250088 1.3931156e-38
-0.0030361894 -0.13587265 0.0093250088 1.3469826e-38
-0.0012942846 -0.13504194 0.012333255 1.3562387e-38
0.00049772905 -0.13504194 0.012333255 1.3746776e-38
0.0022241962 -0.13421609 0.015323859 1.3840397e-38
0.0040109647 -0.13421609 0.015323859 1.6145995e-38
0.0057977349 -0.13421609 0.015323859 1.457974e-38
0.0075037037 -0.13339506 0.018296938 1.3287203e-38
0.0092852609 -0.13339506 0.018296938 1.4758379e-38
0.010973004 -0.13255073 0.021354418 1.6322833e-38
0.0127492 -0.13255073 0.021354418 1.4844112e-38
0.014421486 -0.1317115 0.02439354 9.9537929e-39
0.016087379 -0.13090499 0.027314048 1.1701557e-38
0.017739903 -0.13007559 0.030317526 1.1882714e-38
0.019500382 -0.13007559 0.030317526 1.3079096e-38
0.021260865 -0.13007559 0.030317526 1.3170929e-38
0.023021344 -0.13007559 0.030317526 1.2895055e-38
0.024781823 -0.13007559 0.030317526 1.289613e-38
0.026542302 -0.13007559 0.030317526 1.2988679e-38
0.063762531 -0.13090499 0.027314048 2.0827465e-38
0.065018967 -0.12925108 0.033303242 2.2674998e-38
0.066774219 -0.12925108 0.033303242 2.3506936e-38
0.068529457 -0.12925108 0.033303242 2.350767e-38
0.070007801 -0.12840421 0.036369842 2.322966e-38
0.071486145 -0.12758966 0.039319616 2.3230755e-38
0.072946623 -0.12675296 0.042349499 2.3231846e-38
0.074686006 -0.12675296 0.042349499 2.3231854e-38
0.076425388 -0.12675296 0.042349499 2.350952e-38
0.078164771 -0.12675296 0.042349499 2.3509873e-38
0.08050701 -0.12840421 0.036369842 2.3418033e-38
0.082256883 -0.12840421 0.036369842 2.3418025e-38
0.084006742 -0.12840421 0.036369842 2.0100772e-38
0.086081907 -0.12925108 0.033303242 1.9639794e-38
0.08783716 -0.12925108 0.033303242 1.9916378e-38
0.089592397 -0.12925108 0.033303242 2.1022728e-38
0.09134765 -0.12925108 0.033303242 1.4014787e-38
0.093440548 -0.13007559 0.030317526 9.4032158e-39
0.095201015 -0.13007559 0.030317526 8.0199268e-39
-0.05459208 -0.14822401 -0.028652448 1.050733e-38
-0.052728206 -0.14822401 -0.028652448 8.7581308e-39
-0.050777186 -0.14738683 -0.025640029 6.4557652e-39
-0.048918594 -0.14738683 -0.025640029 6.4583016e-39
-0.047136586 -0.14822401 -0.028652448 7.9345176e-39
-0.04520141 -0.14738683 -0.025640029 9.2248851e-39
-0.043342818 -0.14738683 -0.025640029 1.162232e-38
-0.041423824 -0.14655443 -0.022644658 1.2821568e-38
-0.039570484 -0.14655443 -0.022644658 1.190032e-38
-0.037667535 -0.1457267 -0.019666214 1.2452772e-38
-0.035758991 -0.14459993 -0.015611667 1.3098497e-38
-0.033879332 -0.14378314 -0.012672562 1.2084708e-38
-0.032043476 -0.14378314 -0.012672562 1.3190703e-38
-0.030178396 -0.14294095 -0.0096420236 1.5957296e-38
-0.028347854 -0.14294095 -0.0096420236 1.7340596e-38
-0.026498821 -0.1421036 -0.0066288896 1.5866188e-38
-0.024673562 -0.1421036 -0.0066288896 1.4207388e-38
-0.022848302 -0.1421036 -0.0066288896 1.3469823e-38
-0.021023043 -0.1421036 -0.0066288896 1.2088685e-38
-0.019197784 -0.1421036 -0.0066288896 1.2643291e-38
-0.017380403 -0.14127107 -0.0036331601 1.2458897e-38
-0.015560395 -0.14127107 -0.0036331601 1.1998275e-38
-0.01376452 -0.14017828 0.00029907748 1.2089752e-38
-0.011975562 -0.13932751 0.0033604912 1.2826598e-38
-0.010196156 -0.13851084 0.0062991194 1.3379418e-38
-0.0083935633 -0.13851084 0.0062991194 1.3746773e-38
-0.0065909722 -0.13851084 0.0062991194 1.4023011e-38
-0.0048334752 -0.13766994 0.0093250088 1.4575114e-38
-0.0030361894 -0.13766994 0.0093250088 1.2546813e-38
-0.0012389026 -0.13766994 0.0093250088 1.1625573e-38
0.00049772905 -0.13683395 0.012333255 1.2916663e-38
0.0022241962 -0.13600285 0.015323859 1.393224e-38
0.0040109647 -0.13600285 0.015323859 1.6883563e-38
0.0057977349 -0.13600285 0.015323859 1.5225104e-38
0.0075037037 -0.13517661 0.018296938 1.4302061e-38
0.0092852609 -0.13517661 0.018296938 1.503532e-38
0.010973004 -0.13432692 0.021354418 1.6507222e-38
0.0127492 -0.13432692 0.021354418 1.5121056e-38
0.014421486 -0.13348235 0.02439354 9.8615945e-39
0.016087379 -0.13267075 0.027314048 1.1793752e-38
0.017739903 -0.13183604 0.030317526 1.1698323e-38
0.019500382 -0.13183604 0.030317526 1.3079096e-38
0.021260865 -0.13183604 0.030317526 1.2986538e-38
0.023021344 -0.13183604 0.030317526 1.2987251e-38
0.024781823 -0.13183604 0.030317526 1.2711739e-38
0.026542302 -0.13183604 0.030317526 1.2619896e-38
0.063762531 -0.13267075 0.027314048 1.7784285e-38
0.065018967 -0.13100632 0.033303242 2.1013664e-38
0.066774219 -0.13100632 0.033303242 2.2305858e-38
0.068529457 -0.13100632 0.033303242 2.2582824e-38
0.070007801 -0.13015409 0.036369842 2.202931e-38
0.071486145 -0.12933435 0.039319616 2.1937854e-38
0.073230833 -0.12933435 0.039319616 2.1938946e-38
0.074686006 -0.12849234 0.042349499 2.1847832e-38
0.076425388 -0.12849234 0.042349499 2.2033302e-38
0.078164771 -0.12849234 0.042349499 2.2771579e-38
0.08050701 -0.13015409 0.036369842 2.277301e-38
0.082256883 -0.13015409 0.036369842 2.305031e-38
0.084638149 -0.13183604 0.030317526 2.1852123e-38
0.086081907 -0.13100632 0.033303242 2.1667376e-38
0.08783716 -0.13100632 0.033303242 2.0100056e-38
0.089592397 -0.13100632 0.033303242 2.0837266e-38
0.091680065 -0.13183604 0.030317526 1.2354915e-38
0.093440548 -0.13183604 0.030317526 7.7436958e-39
0.095201015 -0.13183604 0.030317526 9.0337186e-39
-0.043342818 -0.14924543 -0.025640029 6.3664577e-39
-0.041423824 -0.14840777 -0.022644658 7.1965672e-39
-0.039570484 -0.14840777 -0.022644658 7.4724269e-39
-0.037667535 -0.14757483 -0.019666214 9.8698664e-39
-0.035819415 -0.14757483 -0.019666214 1.226695e-38
-0.033879332 -0.14561899 -0.012672562 1.2174757e-38
-0.032043476 -0.14561899 -0.012672562 1.3834281e-38
-0.030178396 -0.1447715 -0.0096420236 1.7154047e-38
-0.028347854 -0.1447715 -0.0096420236 1.8537344e-38
-0.026498821 -0.14392884 -0.0066288896 1.6694512e-38
-0.024673562 -0.14392884 -0.0066288896 1.586547e-38
-0.022848302 -0.14392884 -0.0066288896 1.6787071e-38
-0.021023043 -0.14392884 -0.0066288896 1.6696669e-38
-0.019197784 -0.14392884 -0.0066288896 1.6513344e-38
-0.017380403 -0.14309107 -0.0036331601 1.6238193e-38
-0.015560395 -0.14309107 -0.0036331601 1.6143845e-38
-0.01376452 -0.14199139 0.00029907748 1.5220813e-38
-0.011975562 -0.14113526 0.0033604912 1.3651332e-38
-0.010196156 -0.14031343 0.0062991194 1.2266248e-38
-0.0083935633 -0.14031343 0.0062991194 1.2080073e-38
-0.0065909722 -0.14031343 0.0062991194 1.2724011e-38
-0.0048334752 -0.13946722 0.0093250088 1.3644178e-38
-0.0030361894 -0.13946722 0.0093250088 1.2723301e-38
-0.0012389026 -0.13946722 0.0093250088 1.2078642e-38
0.00049772905 -0.13862596 0.012333255 1.2633963e-38
0.0022241962 -0.13778962 0.015323859 1.3558782e-38
0.0040109647 -0.13778962 0.015323859 1.7617533e-38
0.0057977349 -0.13778962 0.015323859 1.6237098e-38
0.0075037037 -0.13695817 0.018296938 1.4761242e-38
0.0092852609 -0.13695817 0.018296938 1.5863639e-38
0.010973004 -0.13610314 0.021354418 1.7334819e-38
0.0127492 -0.13610314 0.021354418 1.5672785e-38
0.014421486 -0.13525321 0.02439354 1.0044901e-38
0.016087379 -0.13443647 0.027314048 1.1976699e-38
0.017739903 -0.13359652 0.030317526 1.142137e-38
0.019500382 -0.13359652 0.030317526 1.2618115e-38
0.021260865 -0.13359652 0.030317526 1.2433361e-38
0.023021344 -0.13359652 0.030317526 1.3078728e-38
0.065272868 -0.13359652 0.030317526 1.6497169e-38
0.066774219 -0.13276155 0.033303242 1.7973393e-38
0.068529457 -0.13276155 0.033303242 1.8434029e-38
0.070284709 -0.13276155 0.033303242 1.7696478e-38
0.071757674 -0.13190396 0.036369842 1.7512466e-38
0.073230833 -0.13107903 0.039319616 1.7329163e-38
0.074975535 -0.13107903 0.039319616 1.7237329e-38
0.076425388 -0.13023172 0.042349499 1.7239125e-38
0.078164771 -0.13023172 0.042349499 1.7608261e-38
0.08050701 -0.13190396 0.036369842 1.9084106e-38
0.082256883 -0.13190396 0.036369842 2.2312029e-38
0.084638149 -0.13359652 0.030317526 2.3509856e-38
0.086398616 -0.13359652 0.030317526 2.3141793e-38
0.088159099 -0.13359652 0.030317526 1.8624571e-38
0.089919582 -0.13359652 0.030317526 1.816288e-38
0.09134765 -0.13276155 0.033303242 8.9429621e-39
0.093102887 -0.13276155 0.033303242 8.2965193e-39
-0.037667535 -0.14942293 -0.019666214 7.2869678e-39
-0.035819415 -0.14942293 -0.019666214 1.1619799e-38
-0.033917982 -0.14828195 -0.015611667 1.2449557e-38
-0.032043476 -0.14745484 -0.012672562 1.2910535e-38
-0.030178396 -0.14660202 -0.0096420236 1.3832492e-38
-0.028347854 -0.14660202 -0.0096420236 1.4294187e-38
-0.026498821 -0.14575411 -0.0066288896 1.5677842e-38
-0.024673562 -0.14575411 -0.0066288896 1.5771115e-38
-0.022848302 -0.14575411 -0.0066288896 1.530978e-38
-0.021023043 -0.14575411 -0.0066288896 1.7339157e-38
-0.019200411 -0.14491107 -0.0036331601 1.6233883e-38
-0.017380403 -0.14491107 -0.0036331601 1.7247312e-38
-0.015560395 -0.14491107 -0.0036331601 1.7521388e-38
-0.01376452 -0.14380451 0.00029907748 1.6504004e-38
-0.011951407 -0.14380451 0.00029907748 1.5762132e-38
-0.010167818 -0.14294298 0.0033604912 1.6034767e-38
-0.0083935633 -0.14211603 0.0062991194 1.6951698e-38
-0.0065909722 -0.14211603 0.0062991194 1.7410164e-38
-0.0047883797 -0.14211603 0.0062991194 1.7224336e-38
-0.002985788 -0.14211603 0.0062991194 1.657968e-38
-0.0012389026 -0.14126451 0.0093250088 1.3724485e-38
0.00049772905 -0.14041798 0.012333255 1.3452206e-38
