# .PCD v0.7 - Point Cloud Data file format
VERSION 0.7
FIELDS x y z rgb
SIZE 4 4 4 4
TYPE F F F F
COUNT 1 1 1 1
WIDTH 938
HEIGHT 1
VIEWPOINT 0 0 0 1 0 0 0
POINTS 938
DATA ascii
0.012361612 -0.11660783 0.010061204 1.7620783e-38
0.014174724 -0.11660783 0.010061204 1.7529297e-38
0.015987836 -0.11660783 0.010061204 1.9557596e-38
0.017782161 -0.11582683 0.013122618 1.992638e-38
0.01956672 -0.11507715 0.016061246 1.9464697e-38
0.021369312 -0.11507715 0.016061246 1.9741284e-38
0.023171905 -0.11507715 0.016061246 1.9466119e-38
0.024974495 -0.11507715 0.016061246 1.9742706e-38
0.026777089 -0.11507715 0.016061246 1.9281027e-38
0.02857968 -0.11507715 0.016061246 1.8174324e-38
0.030382274 -0.11507715 0.016061246 1.7345265e-38
0.032123853 -0.11430521 0.019087136 1.8451613e-38
0.033921137 -0.11430521 0.019087136 1.9926397e-38
0.035718426 -0.11430521 0.019087136 1.9557258e-38
0.037515715 -0.11430521 0.019087136 1.872893e-38
0.039313 -0.11430521 0.019087136 1.9098075e-38
0.041110285 -0.11430521 0.019087136 1.8821865e-38
0.042907573 -0.11430521 0.019087136 1.7898481e-38
0.044704862 -0.11430521 0.019087136 2.0385251e-38
0.046502147 -0.11430521 0.019087136 2.1948267e-38
0.048191309 -0.11353777 0.022095382 2.0285149e-38
0.049870584 -0.11277486 0.025085986 1.1522961e-38
0.051657353 -0.11277486 0.025085986 1.0689236e-38
0.053321622 -0.11201639 0.028059065 1.1793052e-38
0.055103175 -0.11201639 0.028059065 1.1975986e-38
-0.086704068 -0.13202934 -0.042917907 9.678009e-39
-0.08479806 -0.13202934 -0.042917907 2.0003189e-38
-0.082892053 -0.13202934 -0.042917907 2.34137e-38
-0.08098606 -0.13202934 -0.042917907 2.350986e-38
-0.079080053 -0.13202934 -0.042917907 2.3417323e-38
-0.077174045 -0.13202934 -0.042917907 2.350988e-38
-0.075268053 -0.13202934 -0.042917907 2.3233282e-38
-0.073362045 -0.13202934 -0.042917907 2.3509869e-38
-0.071456037 -0.13202934 -0.042917907 2.3508074e-38
-0.069550045 -0.13202934 -0.042917907 2.3508071e-38
-0.067644037 -0.13202934 -0.042917907 2.3044199e-38
-0.065522619 -0.1312501 -0.039884269 1.6497921e-38
-0.063621931 -0.1312501 -0.039884269 1.5484086e-38
-0.049693651 -0.12843956 -0.028942525 9.9494741e-39
-0.047642626 -0.12765111 -0.025873005 1.0134566e-38
-0.045609318 -0.1268961 -0.022933662 1.0411153e-38
-0.04352922 -0.12585752 -0.018890321 1.059412e-38
-0.041514821 -0.12508373 -0.015877903 1.0224985e-38
-0.039656229 -0.12508373 -0.015877903 1.0040231e-38
-0.037797637 -0.12508373 -0.015877903 1.0224632e-38
-0.035805121 -0.12431435 -0.012882531 1.0407966e-38
-0.033523411 -0.12175287 -0.0029104352 1.0133175e-38
-0.031687558 -0.12175287 -0.0029104352 9.675411e-39
-0.029732145 -0.12097444 0.00012010336 1.5670638e-38
-0.027901605 -0.12097444 0.00012010336 1.7424168e-38
-0.02607106 -0.12097444 0.00012010336 1.8072771e-38
-0.024137501 -0.12020047 0.0031332374 1.5863659e-38
-0.022312243 -0.12020047 0.0031332374 1.6695935e-38
-0.020395063 -0.11943097 0.0061289668 1.798848e-38
-0.018575057 -0.11943097 0.0061289668 1.651407e-38
-0.016755048 -0.11943097 0.0061289668 1.7160511e-38
-0.015011206 -0.12020047 0.0031332374 1.8450897e-38
-0.013185944 -0.12020047 0.0031332374 1.7528239e-38
-0.011360683 -0.12020047 0.0031332374 1.6698123e-38
-0.0095354244 -0.12020047 0.0031332374 1.596091e-38
-0.0077101663 -0.12020047 0.0031332374 1.5223697e-38
-0.0058849081 -0.12020047 0.0031332374 1.4486488e-38
-0.00405965 -0.12020047 0.0031332374 1.5869068e-38
-0.0022343881 -0.12020047 0.0031332374 1.6881799e-38
-0.00040913001 -0.12020047 0.0031332374 1.9555476e-38
0.0014161281 -0.12020047 0.0031332374 1.9463632e-38
0.00324139 -0.12020047 0.0031332374 1.9187394e-38
0.0050666481 -0.12020047 0.0031332374 2.0293368e-38
0.0069050379 -0.11943097 0.0061289668 2.1213889e-38
0.0087250452 -0.11943097 0.0061289668 2.1305738e-38
0.010545053 -0.11943097 0.0061289668 1.9371788e-38
0.012365058 -0.11943097 0.0061289668 1.7159805e-38
0.014174724 -0.11842094 0.010061204 1.725271e-38
0.015987836 -0.11842094 0.010061204 1.9741987e-38
0.017782161 -0.11763458 0.013122618 2.0571032e-38
0.01956672 -0.11687975 0.016061246 1.9925675e-38
0.021369312 -0.11687975 0.016061246 1.93725e-38
0.023171905 -0.11687975 0.016061246 1.8451965e-38
0.024974495 -0.11687975 0.016061246 1.8544163e-38
0.026777089 -0.11687975 0.016061246 1.9096636e-38
0.02857968 -0.11687975 0.016061246 1.7160172e-38
0.030382274 -0.11687975 0.016061246 1.5870135e-38
0.032184865 -0.11687975 0.016061246 1.7345265e-38
0.033987455 -0.11687975 0.016061246 1.9557614e-38
0.035790049 -0.11687975 0.016061246 1.9372867e-38
0.037515715 -0.1161025 0.019087136 1.8727851e-38
0.039313 -0.1161025 0.019087136 1.9189555e-38
0.041110285 -0.1161025 0.019087136 1.8083223e-38
0.042907573 -0.1161025 0.019087136 1.6884329e-38
0.044704862 -0.1161025 0.019087136 1.9463294e-38
0.046502147 -0.1161025 0.019087136 2.1395447e-38
0.048191309 -0.11532979 0.022095382 2.0101111e-38
0.049870584 -0.11456163 0.025085986 1.1338925e-38
0.051657353 -0.11456163 0.025085986 1.022861e-38
0.053444121 -0.11456163 0.025085986 1.1055839e-38
-0.08479806 -0.13393532 -0.042917907 1.6869257e-38
-0.082892053 -0.13393532 -0.042917907 2.0464519e-38
-0.08098606 -0.13393532 -0.042917907 2.1940368e-38
-0.079080053 -0.13393532 -0.042917907 2.2310604e-38
-0.077174045 -0.13393532 -0.042917907 2.2311326e-38
-0.075268053 -0.13393532 -0.042917907 2.2218759e-38
-0.073125355 -0.13315077 -0.039884269 2.2678298e-38
-0.071224667 -0.13315077 -0.039884269 2.2123336e-38
-0.069323979 -0.13315077 -0.039884269 2.2122613e-38
-0.067423306 -0.13315077 -0.039884269 2.1291762e-38
-0.065522619 -0.13315077 -0.039884269 1.6589401e-38
-0.063621931 -0.13315077 -0.039884269 1.7603872e-38
-0.057219647 -0.13032107 -0.028942525 1.2901157e-38
-0.049693651 -0.13032107 -0.028942525 9.7650829e-39
-0.047812156 -0.13032107 -0.028942525 1.022641e-38
-0.045609318 -0.12876706 -0.022933662 1.0502997e-38
-0.04352922 -0.12772138 -0.018890321 1.0685966e-38
-0.041514821 -0.12694232 -0.015877903 1.0409024e-38
-0.039656229 -0.12694232 -0.015877903 1.0408663e-38
-0.037797637 -0.12694232 -0.015877903 1.0501223e-38
-0.035805121 -0.12616767 -0.012882531 1.0500163e-38
-0.033523411 -0.12358873 -0.0029104352 1.0040982e-38
-0.031687558 -0.12358873 -0.0029104352 9.3066285e-39
-0.029732145 -0.12280498 0.00012010336 1.7791138e-38
-0.027901605 -0.12280498 0.00012010336 1.9084046e-38
-0.02607106 -0.12280498 0.00012010336 1.825716e-38
-0.024137501 -0.12202574 0.0031332374 1.6232796e-38
-0.022312243 -0.12202574 0.0031332374 1.6142755e-38
-0.020395063 -0.121251 0.0061289668 1.595981e-38
-0.018575057 -0.121251 0.0061289668 1.4854902e-38
-0.016755048 -0.121251 0.0061289668 1.6147077e-38
-0.015011206 -0.12202574 0.0031332374 1.87282e-38
-0.013185944 -0.12202574 0.0031332374 1.7804823e-38
-0.011360683 -0.12202574 0.0031332374 1.6790673e-38
-0.0095354244 -0.12202574 0.0031332374 1.5223698e-38
-0.0077101663 -0.12202574 0.0031332374 1.550064e-38
-0.0058849081 -0.12202574 0.0031332374 1.4394289e-38
-0.00405965 -0.12202574 0.0031332374 1.5408088e-38
-0.0022343881 -0.12202574 0.0031332374 1.5959842e-38
-0.00040913001 -0.12202574 0.0031332374 1.881791e-38
0.0014161281 -0.12202574 0.0031332374 1.844948e-38
0.00324139 -0.12202574 0.0031332374 1.8265438e-38
0.0050666481 -0.12202574 0.0031332374 1.9740194e-38
0.0068919063 -0.12202574 0.0031332374 2.0477762e-38
0.0087250452 -0.121251 0.0061289668 2.0661448e-38
0.010545053 -0.121251 0.0061289668 1.9371788e-38
0.012365058 -0.121251 0.0061289668 1.7712619e-38
0.014174724 -0.12023406 0.010061204 1.7713685e-38
0.015987836 -0.12023406 0.010061204 2.0203322e-38
0.017782161 -0.11944233 0.013122618 2.1122052e-38
0.01956672 -0.11868234 0.016061246 1.9925674e-38
0.021369312 -0.11868234 0.016061246 1.8911522e-38
0.023171905 -0.11868234 0.016061246 1.7806595e-38
0.024974495 -0.11868234 0.016061246 1.8267576e-38
0.026777089 -0.11868234 0.016061246 1.9281027e-38
0.02857968 -0.11868234 0.016061246 1.7805541e-38
0.030382274 -0.11868234 0.016061246 1.6884287e-38
0.032123853 -0.11789979 0.019087136 1.8359417e-38
0.033921137 -0.11789979 0.019087136 1.9742006e-38
0.035718426 -0.11789979 0.019087136 1.9188479e-38
0.037515715 -0.11789979 0.019087136 1.9096633e-38
0.039313 -0.11789979 0.019087136 2.0387381e-38
0.041110285 -0.11789979 0.019087136 1.9742388e-38
0.042907573 -0.11789979 0.019087136 1.8173993e-38
0.044704862 -0.11789979 0.019087136 2.0292336e-38
0.046502147 -0.11789979 0.019087136 2.2040456e-38
0.048191309 -0.1171218 0.022095382 2.0746479e-38
0.049983319 -0.1171218 0.022095382 1.1892093e-38
0.051775333 -0.1171218 0.022095382 1.0689583e-38
0.053567342 -0.1171218 0.022095382 1.1424615e-38
-0.08479806 -0.13584132 -0.042917907 1.4287776e-38
-0.082892053 -0.13584132 -0.042917907 1.7514256e-38
-0.08098606 -0.13584132 -0.042917907 1.9451083e-38
-0.079080053 -0.13584132 -0.042917907 2.1019497e-38
-0.077174045 -0.13584132 -0.042917907 2.1111692e-38
-0.075268053 -0.13584132 -0.042917907 2.1295712e-38
-0.073125355 -0.13505147 -0.039884269 2.1294996e-38
-0.071224667 -0.13505147 -0.039884269 2.0555284e-38
-0.069323979 -0.13505147 -0.039884269 2.046237e-38
-0.067136504 -0.1340252 -0.035942733 2.0276894e-38
-0.065030061 -0.13324542 -0.032947838 1.797126e-38
-0.063141547 -0.13324542 -0.032947838 1.7695716e-38
-0.060982652 -0.13220255 -0.028942525 1.7419107e-38
-0.059101142 -0.13220255 -0.028942525 1.7141798e-38
-0.057219647 -0.13220255 -0.028942525 1.3729847e-38
-0.054964133 -0.13063805 -0.022933662 1.2713914e-38
-0.051575147 -0.13220255 -0.028942525 9.2108357e-39
-0.049693651 -0.13220255 -0.028942525 1.0040591e-38
-0.047812156 -0.13220255 -0.028942525 1.0042024e-38
-0.045609318 -0.13063805 -0.022933662 1.0133865e-38
-0.04352922 -0.12958528 -0.018890321 1.0316832e-38
-0.041514821 -0.12880091 -0.015877903 1.0316478e-38
-0.039656229 -0.12880091 -0.015877903 1.0684895e-38
-0.037797637 -0.12880091 -0.015877903 1.0685261e-38
-0.035805121 -0.12802102 -0.012882531 1.0315775e-38
-0.033649668 -0.12618984 -0.0058495402 9.3956137e-39
-0.031687558 -0.12542458 -0.0029104352 8.7534547e-39
-0.029851701 -0.12542458 -0.0029104352 2.0372612e-38
-0.027901605 -0.12463553 0.00012010336 2.065137e-38
-0.02607106 -0.12463553 0.00012010336 1.7703984e-38
-0.024137501 -0.12385099 0.0031332374 1.6692692e-38
-0.022312243 -0.12385099 0.0031332374 1.5682131e-38
-0.020395063 -0.123071 0.0061289668 1.4023698e-38
-0.018575057 -0.123071 0.0061289668 1.3933303e-38
-0.016755048 -0.123071 0.0061289668 1.411877e-38
-0.015011206 -0.12385099 0.0031332374 1.8176105e-38
-0.013185944 -0.12385099 0.0031332374 1.7898093e-38
-0.011360683 -0.12385099 0.0031332374 1.5869436e-38
-0.0095354244 -0.12385099 0.0031332374 1.4302461e-38
-0.0077101663 -0.12385099 0.0031332374 1.5777942e-38
-0.0058849081 -0.12385099 0.0031332374 1.4763428e-38
-0.00405965 -0.12385099 0.0031332374 1.4578683e-38
-0.0022343881 -0.12385099 0.0031332374 1.549922e-38
-0.00040913001 -0.12385099 0.0031332374 1.8356931e-38
0.0014161281 -0.12385099 0.0031332374 1.8172893e-38
0.00324139 -0.12385099 0.0031332374 1.8173242e-38
0.0050666481 -0.12385099 0.0031332374 1.9647998e-38
0.0069050379 -0.123071 0.0061289668 1.946361e-38
0.0087250452 -0.123071 0.0061289668 1.9647296e-38
0.010545053 -0.123071 0.0061289668 1.9740215e-38
0.012361612 -0.12204717 0.010061204 1.8173594e-38
0.014174724 -0.12204717 0.010061204 1.7437098e-38
0.015987836 -0.12204717 0.010061204 1.918917e-38
0.017782161 -0.12125005 0.013122618 1.9557596e-38
0.01956672 -0.12048493 0.016061246 1.8358348e-38
0.021369312 -0.12048493 0.016061246 1.7712979e-38
0.023171905 -0.12048493 0.016061246 1.7990626e-38
0.024974495 -0.12048493 0.016061246 1.9557596e-38
0.026777089 -0.12048493 0.016061246 1.94647e-38
0.02857968 -0.12048493 0.016061246 1.8357996e-38
0.030326566 -0.11969708 0.019087136 1.7713332e-38
0.032123853 -0.11969708 0.019087136 1.8912231e-38
0.033921137 -0.11969708 0.019087136 1.9925678e-38
0.035718426 -0.11969708 0.019087136 1.918776e-38
0.037515715 -0.11969708 0.019087136 1.9003722e-38
0.039313 -0.11969708 0.019087136 2.0294826e-38
0.041110285 -0.11969708 0.019087136 2.020265e-38
0.042907573 -0.11969708 0.019087136 1.8081799e-38
0.044704862 -0.11969708 0.019087136 1.9831358e-38
0.046399295 -0.11891381 0.022095382 2.1487641e-38
0.048191309 -0.11891381 0.022095382 2.0285854e-38
0.049983319 -0.11891381 0.022095382 1.1523665e-38
0.051775333 -0.11891381 0.022095382 1.0505543e-38
0.053567342 -0.11891381 0.022095382 1.1517166e-38
-0.08098606 -0.13774733 -0.042917907 1.6500821e-38
-0.079080053 -0.13774733 -0.042917907 1.5856893e-38
-0.077174045 -0.13774733 -0.042917907 1.5949089e-38
-0.075268053 -0.13774733 -0.042917907 1.6686285e-38
-0.073125355 -0.13695215 -0.039884269 1.6777763e-38
-0.071224667 -0.13695215 -0.039884269 1.6590869e-38
-0.069323979 -0.13695215 -0.039884269 1.6958939e-38
-0.067136504 -0.13591899 -0.035942733 1.7603582e-38
-0.064745642 -0.13408406 -0.028942525 1.7511011e-38
-0.062864147 -0.13408406 -0.028942525 1.7142554e-38
-0.060775436 -0.13327946 -0.025873005 1.806485e-38
-0.058706068 -0.13250901 -0.022933662 1.8524747e-38
-0.056835108 -0.13250901 -0.022933662 1.4928401e-38
-0.054964133 -0.13250901 -0.022933662 1.2899032e-38
-0.053456657 -0.13408406 -0.028942525 9.4877967e-39
-0.051575147 -0.13408406 -0.028942525 8.3817995e-39
-0.049518742 -0.13327946 -0.025873005 1.0226064e-38
-0.047642626 -0.13327946 -0.025873005 9.6728872e-39
-0.045609318 -0.13250901 -0.022933662 9.7650857e-39
-0.04352922 -0.13144915 -0.018890321 9.9476931e-39
-0.041514821 -0.13065951 -0.015877903 1.0039534e-38
-0.039656229 -0.13065951 -0.015877903 1.0500148e-38
-0.037797637 -0.13065951 -0.015877903 1.0684543e-38
-0.035671957 -0.12909363 -0.0099040866 9.9466365e-39
-0.03382384 -0.12909363 -0.0099040866 8.8424399e-39
-0.031687558 -0.12726043 -0.0029104352 9.3981052e-39
-0.029851701 -0.12726043 -0.0029104352 2.147896e-38
-0.027901605 -0.12646608 0.00012010336 2.1481128e-38
-0.02607106 -0.12646608 0.00012010336 1.8073122e-38
-0.024137501 -0.12567626 0.0031332374 1.7246222e-38
-0.022312243 -0.12567626 0.0031332374 1.6142391e-38
-0.020395063 -0.124891 0.0061289668 1.4483953e-38
-0.018575057 -0.124891 0.0061289668 1.4763063e-38
-0.016755048 -0.124891 0.0061289668 1.4303166e-38
-0.015011206 -0.12567626 0.0031332374 1.9005513e-38
-0.013185944 -0.12567626 0.0031332374 1.9095926e-38
-0.011360683 -0.12567626 0.0031332374 1.5776886e-38
-0.0095354244 -0.12567626 0.0031332374 1.4578694e-38
-0.0077101663 -0.12567626 0.0031332374 1.6054176e-38
-0.0058849081 -0.12567626 0.0031332374 1.5131854e-38
-0.00405965 -0.12567626 0.0031332374 1.3748567e-38
-0.0022343881 -0.12567626 0.0031332374 1.4761655e-38
-0.00040913001 -0.12567626 0.0031332374 1.817254e-38
0.0014161281 -0.12567626 0.0031332374 1.8080695e-38
0.00324139 -0.12567626 0.0031332374 1.8081044e-38
0.0050666481 -0.12567626 0.0031332374 1.9463607e-38
0.0069050379 -0.124891 0.0061289668 1.8818237e-38
0.0087250452 -0.124891 0.0061289668 1.8817533e-38
0.010545053 -0.124891 0.0061289668 1.9556179e-38
0.012361612 -0.12386028 0.010061204 1.8174313e-38
0.014174724 -0.12386028 0.010061204 1.697612e-38
0.015987836 -0.12386028 0.010061204 1.8451602e-38
0.017782161 -0.1230578 0.013122618 1.9188814e-38
0.019589905 -0.1230578 0.013122618 1.8173957e-38
0.021369312 -0.12228753 0.016061246 1.7436392e-38
0.023171905 -0.12228753 0.016061246 1.7529648e-38
0.024974495 -0.12228753 0.016061246 1.9096618e-38
0.026777089 -0.12228753 0.016061246 1.9188113e-38
0.02857968 -0.12228753 0.016061246 1.808141e-38
0.030326566 -0.12149437 0.019087136 1.7160158e-38
0.032123853 -0.12149437 0.019087136 1.8174666e-38
0.033921137 -0.12149437 0.019087136 1.9740931e-38
0.035718426 -0.12149437 0.019087136 1.9372151e-38
0.037515715 -0.12149437 0.019087136 1.8450548e-38
0.039313 -0.12149437 0.019087136 1.8634948e-38
0.041110285 -0.12149437 0.019087136 1.9096306e-38
0.042907573 -0.12149437 0.019087136 1.7158769e-38
0.044607282 -0.12070583 0.022095382 1.9092717e-38
0.046399295 -0.12070583 0.022095382 2.0934107e-38
0.048083816 -0.11992194 0.025085986 1.9824154e-38
0.049870584 -0.11992194 0.025085986 1.106304e-38
0.051657353 -0.11992194 0.025085986 1.0137835e-38
0.053444121 -0.11992194 0.025085986 1.1517879e-38
-0.08098606 -0.13965334 -0.042917907 1.2721516e-38
-0.079080053 -0.13965334 -0.042917907 1.3921141e-38
-0.077174045 -0.13965334 -0.042917907 1.3736747e-38
-0.075268053 -0.13965334 -0.042917907 1.4290275e-38
-0.073125355 -0.13885282 -0.039884269 1.4657981e-38
-0.071224667 -0.13885282 -0.039884269 1.4748757e-38
-0.069323979 -0.13885282 -0.039884269 1.5393055e-38
-0.067136504 -0.13781275 -0.035942733 1.6221737e-38
-0.064527683 -0.13515557 -0.025873005 1.7419545e-38
-0.062447987 -0.13437997 -0.022933662 1.7789016e-38
-0.060100742 -0.1325181 -0.015877903 1.8249979e-38
-0.05824215 -0.1325181 -0.015877903 1.8064864e-38
-0.056383558 -0.1325181 -0.015877903 1.4191932e-38
-0.054964133 -0.13437997 -0.022933662 1.2807569e-38
-0.053270973 -0.13515557 -0.025873005 9.3041356e-39
-0.051394857 -0.13515557 -0.025873005 7.9215472e-39
-0.049518742 -0.13515557 -0.025873005 9.8580072e-39
-0.047480285 -0.13437997 -0.022933662 9.5806916e-39
-0.045609318 -0.13437997 -0.022933662 9.7650857e-39
-0.04352922 -0.13331302 -0.018890321 1.0039889e-38
-0.041514821 -0.1325181 -0.015877903 1.0039534e-38
-0.039656229 -0.1325181 -0.015877903 1.0223917e-38
-0.037797637 -0.1325181 -0.015877903 1.031576e-38
-0.035671957 -0.13094176 -0.0099040866 9.9469924e-39
-0.03382384 -0.13094176 -0.0099040866 9.1190254e-39
-0.031687558 -0.12909628 -0.0029104352 9.7668877e-39
-0.029851701 -0.12909628 -0.0029104352 1.9819078e-38
-0.027901605 -0.1282966 0.00012010336 2.1203465e-38
-0.02607106 -0.1282966 0.00012010336 1.9639732e-38
-0.02424052 -0.1282966 0.00012010336 1.7798679e-38
-0.022312243 -0.1275015 0.0031332374 1.6511175e-38
-0.020486981 -0.1275015 0.0031332374 1.5682143e-38
-0.018661723 -0.1275015 0.0031332374 1.5130415e-38
-0.016836464 -0.1275015 0.0031332374 1.5039307e-38
-0.015011206 -0.1275015 0.0031332374 1.9188121e-38
-0.013185944 -0.1275015 0.0031332374 1.9464006e-38
-0.011360683 -0.1275015 0.0031332374 1.5407399e-38
-0.0095354244 -0.1275015 0.0031332374 1.5038605e-38
-0.0077101663 -0.1275015 0.0031332374 1.5592128e-38
-0.0058849081 -0.1275015 0.0031332374 1.5039305e-38
-0.00405965 -0.1275015 0.0031332374 1.3471984e-38
-0.0022343881 -0.1275015 0.0031332374 1.4208125e-38
-0.00040913001 -0.1275015 0.0031332374 1.8633518e-38
0.0014161281 -0.1275015 0.0031332374 1.863279e-38
0.00324139 -0.1275015 0.0031332374 1.8080324e-38
0.0050850324 -0.126711 0.0061289668 1.9463604e-38
0.0069050379 -0.126711 0.0061289668 1.9279213e-38
0.0087250452 -0.126711 0.0061289668 1.8910084e-38
0.010545053 -0.126711 0.0061289668 1.9187391e-38
0.012361612 -0.1256734 0.010061204 1.8174313e-38
0.014174724 -0.1256734 0.010061204 1.6239274e-38
0.015987836 -0.1256734 0.010061204 1.7714756e-38
0.017800948 -0.1256734 0.010061204 1.9281728e-38
0.019589905 -0.12486555 0.013122618 1.9188109e-38
0.021369312 -0.12409012 0.016061246 1.8450544e-38
0.023171905 -0.12409012 0.016061246 1.7621844e-38
0.024974495 -0.12409012 0.016061246 1.8451249e-38
0.026777089 -0.12409012 0.016061246 1.9095917e-38
0.02857968 -0.12409012 0.016061246 1.8357996e-38
0.030326566 -0.12329166 0.019087136 1.7528222e-38
0.032123853 -0.12329166 0.019087136 1.8173947e-38
0.033921137 -0.12329166 0.019087136 1.9832766e-38
0.035718426 -0.12329166 0.019087136 2.0016802e-38
0.037515715 -0.12329166 0.019087136 1.9095198e-38
0.039313 -0.12329166 0.019087136 1.8634587e-38
0.041110285 -0.12329166 0.019087136 1.9463655e-38
0.042907573 -0.12329166 0.019087136 1.7619393e-38
0.044607282 -0.12249784 0.022095382 2.0014676e-38
0.046297047 -0.12170871 0.025085986 2.2224128e-38
0.047976952 -0.12092416 0.028059065 2.1022697e-38
0.049758509 -0.12092416 0.028059065 1.1892798e-38
0.051540066 -0.12092416 0.028059065 1.0783202e-38
0.053321622 -0.12092416 0.028059065 1.2071053e-38
0.055103175 -0.12092416 0.028059065 1.1885211e-38
0.056884732 -0.12092416 0.028059065 1.2344027e-38
-0.079324313 -0.14233841 -0.045850813 1.1985393e-38
-0.077413164 -0.14233841 -0.045850813 1.1064513e-38
-0.075268053 -0.14155935 -0.042917907 1.1432571e-38
-0.073362045 -0.14155935 -0.042917907 1.1155988e-38
-0.071224667 -0.14075352 -0.039884269 1.1154567e-38
-0.069323979 -0.14075352 -0.039884269 1.1521922e-38
-0.064527683 -0.13703169 -0.025873005 1.2995966e-38
-0.062167965 -0.13517688 -0.018890321 1.3456558e-38
-0.060100742 -0.13437669 -0.015877903 1.2995203e-38
-0.05824215 -0.13437669 -0.015877903 1.1981407e-38
-0.056383558 -0.13437669 -0.015877903 9.3992137e-39
-0.055147089 -0.13703169 -0.025873005 1.0504492e-38
-0.053093173 -0.13625093 -0.022933662 9.1215548e-39
-0.051222213 -0.13625093 -0.022933662 8.292499e-39
-0.049120851 -0.13517688 -0.018890321 1.0504457e-38
-0.047256969 -0.13517688 -0.018890321 9.5814077e-39
-0.045393102 -0.13517688 -0.018890321 1.0133863e-38
-0.04352922 -0.13517688 -0.018890321 1.0409027e-38
-0.041514821 -0.13437669 -0.015877903 1.0132084e-38
-0.039656229 -0.13437669 -0.015877903 1.0131719e-38
-0.037797637 -0.13437669 -0.015877903 1.0223561e-38
-0.035671957 -0.13278987 -0.0099040866 1.0131381e-38
-0.03382384 -0.13278987 -0.0099040866 9.763676e-39
-0.031687558 -0.13093217 -0.0029104352 9.3059096e-39
-0.029851701 -0.13093217 -0.0029104352 1.6961014e-38
-0.028015845 -0.13093217 -0.0029104352 2.0004923e-38
-0.02607106 -0.13012715 0.00012010336 2.0653528e-38
-0.02424052 -0.13012715 0.00012010336 1.7706131e-38
-0.022312243 -0.12932678 0.0031332374 1.632571e-38
-0.020486981 -0.12932678 0.0031332374 1.5958015e-38
-0.018661723 -0.12932678 0.0031332374 1.4023716e-38
-0.016836464 -0.12932678 0.0031332374 1.3839343e-38
-0.015011206 -0.12932678 0.0031332374 1.7250595e-38
-0.013185944 -0.12932678 0.0031332374 1.7895618e-38
-0.011360683 -0.12932678 0.0031332374 1.4115598e-38
-0.0095354244 -0.12932678 0.0031332374 1.4577278e-38
-0.0077101663 -0.12932678 0.0031332374 1.4577627e-38
-0.0058849081 -0.12932678 0.0031332374 1.4854202e-38
-0.00405965 -0.12932678 0.0031332374 1.3655303e-38
-0.0022343881 -0.12932678 0.0031332374 1.4392519e-38
-0.00040913001 -0.12932678 0.0031332374 1.9555475e-38
0.0014161281 -0.12932678 0.0031332374 1.9462908e-38
0.0032650251 -0.12853102 0.0061289668 1.8356909e-38
0.0050850324 -0.12853102 0.0061289668 2.0017132e-38
0.0069050379 -0.12853102 0.0061289668 2.0385915e-38
0.0087250452 -0.12853102 0.0061289668 1.9832036e-38
0.010545053 -0.12853102 0.0061289668 1.9279944e-38
0.012361612 -0.12748651 0.010061204 1.8266506e-38
0.014174724 -0.12748651 0.010061204 1.5409513e-38
0.015987836 -0.12748651 0.010061204 1.6147074e-38
0.017800948 -0.12748651 0.010061204 1.7990989e-38
0.019589905 -0.1266733 0.013122618 1.9095915e-38
0.02139765 -0.1266733 0.013122618 1.9188109e-38
0.023171905 -0.12589271 0.016061246 1.8820387e-38
0.024974495 -0.12589271 0.016061246 1.9741987e-38
0.026777089 -0.12589271 0.016061246 1.9188113e-38
0.02857968 -0.12589271 0.016061246 1.9372148e-38
0.030382274 -0.12589271 0.016061246 1.8911156e-38
0.032123853 -0.12508895 0.019087136 1.9003708e-38
0.033921137 -0.12508895 0.019087136 2.0201546e-38
0.035718426 -0.12508895 0.019087136 2.0569975e-38
0.037515715 -0.12508895 0.019087136 2.0201546e-38
0.039313 -0.12508895 0.019087136 2.0017166e-38
0.041110285 -0.12508895 0.019087136 1.8910486e-38
0.042907573 -0.12508895 0.019087136 1.7434288e-38
0.044607282 -0.12428986 0.022095382 2.0198351e-38
0.046297047 -0.12349547 0.025085986 2.2407804e-38
0.047976952 -0.12270571 0.028059065 2.0930857e-38
0.049758509 -0.12270571 0.028059065 1.1247428e-38
0.051540066 -0.12270571 0.028059065 9.6768543e-39
0.053321622 -0.12270571 0.028059065 1.0780314e-38
0.055103175 -0.12270571 0.028059065 1.1884858e-38
0.056884732 -0.12270571 0.028059065 1.2343672e-38
-0.075502031 -0.14424954 -0.045850813 9.6826543e-39
-0.073362045 -0.14346536 -0.042917907 9.866691e-39
-0.071456037 -0.14346536 -0.042917907 1.2077968e-38
-0.062167965 -0.13704078 -0.018890321 1.0139688e-38
-0.060304083 -0.13704078 -0.018890321 8.8489378e-39
-0.054964133 -0.13812189 -0.022933662 9.5847091e-39
-0.053093173 -0.13812189 -0.022933662 9.031171e-39
-0.051222213 -0.13812189 -0.022933662 8.5708949e-39
-0.049120851 -0.13704078 -0.018890321 9.1233302e-39
-0.047256969 -0.13704078 -0.018890321 9.2133426e-39
-0.045393102 -0.13704078 -0.018890321 9.6732362e-39
-0.043373413 -0.13623528 -0.015877903 9.9484007e-39
-0.041514821 -0.13623528 -0.015877903 9.9480448e-39
-0.039656229 -0.13623528 -0.015877903 1.013207e-38
-0.037797637 -0.13623528 -0.015877903 1.0223914e-38
-0.035671957 -0.134638 -0.0099040866 1.0131735e-38
-0.03382384 -0.134638 -0.0099040866 9.7640319e-39
-0.031687558 -0.13276802 -0.0029104352 8.2910346e-39
-0.029851701 -0.13276802 -0.0029104352 1.6775907e-38
-0.028015845 -0.13276802 -0.0029104352 1.8529077e-38
-0.02607106 -0.13195769 0.00012010336 1.797878e-38
-0.02424052 -0.13195769 0.00012010336 1.7428829e-38
-0.022312243 -0.13115202 0.0031332374 1.7155119e-38
-0.020486981 -0.13115202 0.0031332374 1.5865469e-38
-0.018661723 -0.13115202 0.0031332374 1.6695965e-38
-0.016836464 -0.13115202 0.0031332374 1.6511236e-38
-0.015011206 -0.13115202 0.0031332374 1.8078939e-38
-0.013185944 -0.13115202 0.0031332374 1.7986394e-38
-0.011360683 -0.13115202 0.0031332374 1.5958088e-38
-0.0095354244 -0.13115202 0.0031332374 1.3192922e-38
-0.0077101663 -0.13115202 0.0031332374 1.4023388e-38
-0.0058849081 -0.13115202 0.0031332374 1.5037166e-38
-0.00405965 -0.13115202 0.0031332374 1.4483989e-38
-0.0022343881 -0.13115202 0.0031332374 1.4668029e-38
-0.00040913001 -0.13115202 0.0031332374 1.8540244e-38
0.0014450178 -0.13035102 0.0061289668 1.8264364e-38
0.0032650251 -0.13035102 0.0061289668 1.881824e-38
0.0050850324 -0.13035102 0.0061289668 2.0478464e-38
0.0069050379 -0.13035102 0.0061289668 1.9740897e-38
0.0087250452 -0.13035102 0.0061289668 1.9463604e-38
0.010545053 -0.13035102 0.0061289668 1.8726765e-38
0.012361612 -0.1292996 0.010061204 1.7160158e-38
0.014174724 -0.1292996 0.010061204 1.6146722e-38
0.015987836 -0.1292996 0.010061204 1.5962685e-38
0.017800948 -0.1292996 0.010061204 1.8359773e-38
0.019589905 -0.12848105 0.013122618 2.0386653e-38
0.02139765 -0.12848105 0.013122618 1.8911523e-38
0.023171905 -0.12769531 0.016061246 1.8082466e-38
0.024974495 -0.12769531 0.016061246 2.011077e-38
0.026777089 -0.12769531 0.016061246 2.0478133e-38
0.02857968 -0.12769531 0.016061246 1.9187397e-38
0.030382274 -0.12769531 0.016061246 1.8172868e-38
0.032123853 -0.12688623 0.019087136 1.8726042e-38
0.033921137 -0.12688623 0.019087136 1.992388e-38
0.035718426 -0.12688623 0.019087136 1.95551e-38
0.037515715 -0.12688623 0.019087136 1.9278867e-38
0.039313 -0.12688623 0.019087136 1.9924607e-38
0.041110285 -0.12688623 0.019087136 1.9739531e-38
0.042907573 -0.12688623 0.019087136 1.7618324e-38
0.044607282 -0.12608187 0.022095382 1.7616516e-38
0.046297047 -0.12528224 0.025085986 2.2499638e-38
0.047976952 -0.1244873 0.028059065 1.8994749e-38
0.049758509 -0.1244873 0.028059065 1.1524015e-38
0.051540066 -0.1244873 0.028059065 1.124418e-38
0.053321622 -0.1244873 0.028059065 1.1978863e-38
0.055103175 -0.1244873 0.028059065 1.2068895e-38
0.056884732 -0.1244873 0.028059065 1.2712461e-38
-0.050984718 -0.13890465 -0.018890321 8.6641808e-39
-0.049120851 -0.13890465 -0.018890321 8.6637954e-39
-0.047090597 -0.13809387 -0.015877903 9.3066144e-39
-0.045232005 -0.13809387 -0.015877903 1.0042373e-38
-0.043373413 -0.13809387 -0.015877903 1.0317178e-38
-0.041365139 -0.13728772 -0.012882531 1.0132789e-38
-0.0395118 -0.13728772 -0.012882531 9.9480322e-39
-0.03765846 -0.13728772 -0.012882531 9.9476819e-39
-0.035671957 -0.13648613 -0.0099040866 9.7629501e-39
-0.03382384 -0.13648613 -0.0099040866 9.3952438e-39
-0.031808652 -0.13539489 -0.0058495402 8.6598171e-39
-0.029851701 -0.13460387 -0.0029104352 1.5853948e-38
-0.027901605 -0.13378824 0.00012010336 1.8068099e-38
-0.02607106 -0.13378824 0.00012010336 1.8439402e-38
-0.024137501 -0.13297729 0.0031332374 1.7428473e-38
-0.022312243 -0.13297729 0.0031332374 1.7154044e-38
-0.020486981 -0.13297729 0.0031332374 1.8261841e-38
-0.018661723 -0.13297729 0.0031332374 2.139687e-38
-0.016836464 -0.13297729 0.0031332374 2.268333e-38
-0.015011206 -0.13297729 0.0031332374 2.2591514e-38
-0.013185944 -0.13297729 0.0031332374 2.2499687e-38
-0.011360683 -0.13297729 0.0031332374 2.1395486e-38
-0.0095354244 -0.13297729 0.0031332374 1.8077144e-38
-0.0077101663 -0.13297729 0.0031332374 1.3929043e-38
-0.0058849081 -0.13297729 0.0031332374 1.402194e-38
-0.00405965 -0.13297729 0.0031332374 1.3745708e-38
-0.0021949932 -0.13217102 0.0061289668 1.4943899e-38
-0.00037498772 -0.13217102 0.0061289668 1.9277809e-38
0.0014450178 -0.13217102 0.0061289668 1.9370709e-38
0.0032650251 -0.13217102 0.0061289668 1.9094824e-38
0.005109163 -0.13111271 0.010061204 2.0017484e-38
0.0069222748 -0.13111271 0.010061204 1.9372471e-38
0.0087353867 -0.13111271 0.010061204 1.9095176e-38
0.010548498 -0.13111271 0.010061204 1.854273e-38
0.012361612 -0.13111271 0.010061204 1.7621139e-38
0.014166672 -0.13028879 0.013122618 1.6054529e-38
0.015974417 -0.13028879 0.013122618 1.5870491e-38
0.017782161 -0.13028879 0.013122618 1.7990635e-38
0.019589905 -0.13028879 0.013122618 1.9556896e-38
0.02139765 -0.13028879 0.013122618 1.8450545e-38
0.023205396 -0.13028879 0.013122618 1.7713684e-38
0.025013139 -0.13028879 0.013122618 1.8727835e-38
0.026777089 -0.1294979 0.016061246 1.891081e-38
0.02857968 -0.1294979 0.016061246 1.8818614e-38
0.030326566 -0.12868352 0.019087136 1.8818237e-38
0.032123853 -0.12868352 0.019087136 1.9647995e-38
0.033921137 -0.12868352 0.019087136 2.0846192e-38
0.035718426 -0.12868352 0.019087136 2.0661445e-38
0.037515715 -0.12868352 0.019087136 2.0293017e-38
0.039313 -0.12868352 0.019087136 2.0753646e-38
0.041110285 -0.12868352 0.019087136 2.0016115e-38
0.042907573 -0.12868352 0.019087136 1.7617961e-38
0.044607282 -0.12787388 0.022095382 1.7892381e-38
0.046399295 -0.12787388 0.022095382 2.3050658e-38
0.047976952 -0.12626885 0.028059065 2.0469878e-38
0.049758509 -0.12626885 0.028059065 1.2630363e-38
0.051540066 -0.12626885 0.028059065 1.08754e-38
0.053321622 -0.12626885 0.028059065 1.0412257e-38
0.055103175 -0.12626885 0.028059065 1.2161093e-38
0.056884732 -0.12626885 0.028059065 1.2896497e-38
-0.050807782 -0.13995247 -0.015877903 8.7571065e-39
-0.048949189 -0.13995247 -0.015877903 8.5719655e-39
-0.047090597 -0.13995247 -0.015877903 9.3073333e-39
-0.045071818 -0.13914107 -0.012882531 1.0411153e-38
-0.043218486 -0.13914107 -0.012882531 1.0870706e-38
-0.041365139 -0.13914107 -0.012882531 1.0409373e-38
-0.0395118 -0.13914107 -0.012882531 9.9480308e-39
-0.037520073 -0.13833423 -0.0099040866 9.8558394e-39
-0.035671957 -0.13833423 -0.0099040866 9.7629473e-39
-0.03382384 -0.13833423 -0.0099040866 9.3956011e-39
-0.031808652 -0.13723589 -0.0058495402 9.8583575e-39
-0.029851701 -0.13643973 -0.0029104352 1.6038337e-38
-0.027901605 -0.13561879 0.00012010336 1.7699313e-38
-0.02607106 -0.13561879 0.00012010336 1.7701474e-38
-0.024137501 -0.13480256 0.0031332374 1.6136658e-38
-0.022312243 -0.13480256 0.0031332374 1.7337359e-38
-0.020486981 -0.13480256 0.0031332374 2.0380905e-38
-0.018661723 -0.13480256 0.0031332374 2.2958815e-38
-0.016836464 -0.13480256 0.0031332374 2.2775172e-38
-0.015011206 -0.13480256 0.0031332374 2.2958863e-38
-0.013185944 -0.13480256 0.0031332374 2.2867037e-38
-0.011360683 -0.13480256 0.0031332374 2.2867032e-38
-0.0095354244 -0.13480256 0.0031332374 2.1394393e-38
-0.0077101663 -0.13480256 0.0031332374 1.4388226e-38
-0.0058849081 -0.13480256 0.0031332374 1.5219407e-38
-0.0040150024 -0.13399105 0.0061289668 1.4482197e-38
-0.0021949932 -0.13399105 0.0061289668 1.4666234e-38
-0.00037498772 -0.13399105 0.0061289668 1.9000862e-38
0.0014450178 -0.13399105 0.0061289668 1.9646933e-38
0.0032650251 -0.13399105 0.0061289668 1.9002266e-38
0.005109163 -0.13292582 0.010061204 1.9188079e-38
0.0069222748 -0.13292582 0.010061204 1.8450512e-38
0.0087353867 -0.13292582 0.010061204 1.8265413e-38
0.010548498 -0.13292582 0.010061204 1.8450531e-38
0.012361612 -0.13292582 0.010061204 1.7712979e-38
0.014166672 -0.13209651 0.013122618 1.5593198e-38
0.015974417 -0.13209651 0.013122618 1.5501353e-38
0.017782161 -0.13209651 0.013122618 1.7345268e-38
0.019589905 -0.13209651 0.013122618 1.8634939e-38
0.02139765 -0.13209651 0.013122618 1.8542744e-38
0.023205396 -0.13209651 0.013122618 1.8266497e-38
0.025013139 -0.13209651 0.013122618 1.798991e-38
0.026777089 -0.13130049 0.016061246 1.807997e-38
0.02857968 -0.13130049 0.016061246 1.8633144e-38
0.030326566 -0.13048081 0.019087136 1.8818235e-38
0.032123853 -0.13048081 0.019087136 1.9463961e-38
0.033921137 -0.13048081 0.019087136 2.047669e-38
0.035718426 -0.13048081 0.019087136 2.0384495e-38
0.037515715 -0.13048081 0.019087136 2.0384847e-38
0.039313 -0.13048081 0.019087136 2.1213904e-38
0.041110285 -0.13048081 0.019087136 2.1122097e-38
0.042907573 -0.13048081 0.019087136 1.8539191e-38
0.044607282 -0.1296659 0.022095382 1.8629941e-38
0.046399295 -0.1296659 0.022095382 2.2866978e-38
0.047976952 -0.1280504 0.028059065 2.0562071e-38
0.049758509 -0.1280504 0.028059065 1.2722557e-38
0.051540066 -0.1280504 0.028059065 1.0783921e-38
0.053321622 -0.1280504 0.028059065 1.0873238e-38
0.054971837 -0.12722217 0.031116545 1.2161096e-38
0.056748033 -0.12722217 0.031116545 1.2896863e-38
-0.048949189 -0.14181106 -0.015877903 8.8492769e-39
-0.047090597 -0.14181106 -0.015877903 9.2151405e-39
-0.045071818 -0.14099441 -0.012882531 1.0504067e-38
-0.043218486 -0.14099441 -0.012882531 1.0963623e-38
-0.041216306 -0.14018236 -0.0099040866 1.0593765e-38
-0.03936819 -0.14018236 -0.0099040866 1.0132778e-38
-0.037520073 -0.14018236 -0.0099040866 1.0132426e-38
-0.035490677 -0.1390769 -0.0058495402 1.0132087e-38
-0.033649668 -0.1390769 -0.0058495402 9.8565793e-39
-0.031687558 -0.13827558 -0.0029104352 9.9509077e-39
-0.029851701 -0.13827558 -0.0029104352 1.612981e-38
-0.027901605 -0.13744931 0.00012010336 1.7053222e-38
-0.02607106 -0.13744931 0.00012010336 1.5396581e-38
-0.024137501 -0.13662781 0.0031332374 1.3739925e-38
-0.022312243 -0.13662781 0.0031332374 1.696893e-38
-0.020486981 -0.13662781 0.0031332374 2.0750044e-38
-0.018661723 -0.13662781 0.0031332374 2.295881e-38
-0.016836464 -0.13662781 0.0031332374 2.2314546e-38
-0.015011206 -0.13662781 0.0031332374 2.3234369e-38
-0.013185944 -0.13662781 0.0031332374 2.3234379e-38
-0.011360683 -0.13662781 0.0031332374 2.277483e-38
-0.0095354244 -0.13662781 0.0031332374 2.2775169e-38
-0.0077656358 -0.13744931 0.00012010336 1.4847762e-38
-0.0058849081 -0.13662781 0.0031332374 1.6416869e-38
-0.0040150024 -0.13581105 0.0061289668 1.4297443e-38
-0.0021949932 -0.13581105 0.0061289668 1.4481479e-38
-0.00037498772 -0.13581105 0.0061289668 1.7985628e-38
0.0014450178 -0.13581105 0.0061289668 1.909268e-38
0.0032650251 -0.13581105 0.0061289668 1.8817875e-38
0.005109163 -0.13473894 0.010061204 1.9188077e-38
0.0069222748 -0.13473894 0.010061204 1.8081726e-38
0.0087353867 -0.13473894 0.010061204 1.7712595e-38
0.010548498 -0.13473894 0.010061204 1.9188096e-38
0.012361612 -0.13473894 0.010061204 1.8450545e-38
0.014174724 -0.13473894 0.010061204 1.5961982e-38
0.015974417 -0.13390426 0.013122618 1.5685747e-38
0.017782161 -0.13390426 0.013122618 1.716088e-38
0.019589905 -0.13390426 0.013122618 1.7989214e-38
0.02139765 -0.13390426 0.013122618 1.881933e-38
0.023205396 -0.13390426 0.013122618 1.9003705e-38
0.025013139 -0.13390426 0.013122618 1.7897357e-38
0.026777089 -0.13310309 0.016061246 1.8633141e-38
0.02857968 -0.13310309 0.016061246 1.8264359e-38
0.030326566 -0.1322781 0.019087136 1.780444e-38
0.032123853 -0.1322781 0.019087136 1.8081024e-38
0.033921137 -0.1322781 0.019087136 1.8540937e-38
0.035718426 -0.1322781 0.019087136 1.8171799e-38
0.037515715 -0.1322781 0.019087136 1.9094105e-38
0.039313 -0.1322781 0.019087136 2.1305734e-38
0.041110285 -0.1322781 0.019087136 2.1397598e-38
0.042907573 -0.1322781 0.019087136 1.9184912e-38
0.044607282 -0.13145791 0.022095382 1.9829192e-38
0.046399295 -0.13145791 0.022095382 2.231595e-38
0.048083816 -0.13064255 0.025085986 2.0009249e-38
0.049758509 -0.12983195 0.028059065 1.2169736e-38
0.051540066 -0.12983195 0.028059065 1.0691724e-38
0.05319564 -0.12899835 0.031116545 1.1795192e-38
0.054971837 -0.12899835 0.031116545 1.1793036e-38
0.056748033 -0.12899835 0.031116545 1.2896863e-38
-0.048949189 -0.14366965 -0.015877903 9.2166273e-39
-0.047090597 -0.14366965 -0.015877903 9.1225903e-39
-0.045071818 -0.14284773 -0.012882531 1.0503713e-38
-0.043218486 -0.14284773 -0.012882531 1.1055824e-38
-0.041216306 -0.14203046 -0.0099040866 1.0685963e-38
-0.03936819 -0.14203046 -0.0099040866 1.0224618e-38
-0.037331685 -0.14091791 -0.0058495402 1.0316818e-38
-0.035490677 -0.14091791 -0.0058495402 1.0224283e-38
-0.033523411 -0.14011143 -0.0029104352 9.7643808e-39
-0.031687558 -0.14011143 -0.0029104352 9.1207841e-39
-0.029851701 -0.14011143 -0.0029104352 1.5208207e-38
-0.027901605 -0.13927986 0.00012010336 1.6408206e-38
-0.025962759 -0.13845308 0.0031332374 1.502815e-38
-0.024035078 -0.13763104 0.0061289668 1.3002712e-38
-0.022215068 -0.13763104 0.0061289668 1.577002e-38
-0.020395063 -0.13763104 0.0061289668 1.9736244e-38
-0.018575057 -0.13763104 0.0061289668 2.2683292e-38
-0.016836464 -0.13845308 0.0031332374 2.2681881e-38
-0.015011206 -0.13845308 0.0031332374 2.3509866e-38
-0.013185944 -0.13845308 0.0031332374 2.3325843e-38
-0.011360683 -0.13845308 0.0031332374 2.2957414e-38
-0.0095354244 -0.13845308 0.0031332374 2.3418015e-38
-0.0077656358 -0.13927986 0.00012010336 1.5307656e-38
-0.0058849081 -0.13845308 0.0031332374 1.6599817e-38
-0.0040150024 -0.13763104 0.0061289668 1.466478e-38
-0.0021949932 -0.13763104 0.0061289668 1.531052e-38
-0.00037498772 -0.13763104 0.0061289668 1.72477e-38
0.0014450178 -0.13763104 0.0061289668 1.8355113e-38
0.0032650251 -0.13763104 0.0061289668 1.8910069e-38
0.005109163 -0.13655205 0.010061204 1.9649058e-38
0.0069222748 -0.13655205 0.010061204 1.8173925e-38
0.0087353867 -0.13655205 0.010061204 1.7344535e-38
0.010548498 -0.13655205 0.010061204 2.0110055e-38
0.012361612 -0.13655205 0.010061204 1.9556896e-38
0.014174724 -0.13655205 0.010061204 1.6976137e-38
0.015974417 -0.13571201 0.013122618 1.6330763e-38
0.017782161 -0.13571201 0.013122618 1.7344915e-38
0.019589905 -0.13571201 0.013122618 1.7989217e-38
0.02139765 -0.13571201 0.013122618 1.8818975e-38
0.023205396 -0.13571201 0.013122618 1.9280292e-38
0.025013139 -0.13571201 0.013122618 1.8173944e-38
0.026777089 -0.13490568 0.016061246 1.9370706e-38
0.02857968 -0.13490568 0.016061246 1.7895576e-38
0.030326566 -0.13407536 0.019087136 1.6973961e-38
0.032123853 -0.13407536 0.019087136 1.7435292e-38
0.033921137 -0.13407536 0.019087136 1.780229e-38
0.035718426 -0.13407536 0.019087136 1.7064725e-38
0.037515715 -0.13407536 0.019087136 1.8540207e-38
0.039313 -0.13407536 0.019087136 2.1764912e-38
0.041110285 -0.13407536 0.019087136 2.1029882e-38
0.042907573 -0.13407536 0.019087136 1.9092703e-38
0.044607282 -0.13324992 0.022095382 1.9644789e-38
0.046399295 -0.13324992 0.022095382 2.0656776e-38
0.048083816 -0.13242932 0.025085986 1.9272034e-38
0.049758509 -0.13161351 0.028059065 1.2262284e-38
0.051540066 -0.13161351 0.028059065 1.0692077e-38
0.05319564 -0.13077454 0.031116545 1.1611156e-38
0.054971837 -0.13077454 0.031116545 1.1885229e-38
0.056748033 -0.13077454 0.031116545 1.317345e-38
-0.048949189 -0.14552824 -0.015877903 8.479065e-39
-0.047090597 -0.14552824 -0.015877903 9.2144328e-39
-0.045071818 -0.14470108 -0.012882531 1.0595558e-38
-0.043218486 -0.14470108 -0.012882531 1.1055471e-38
-0.041013703 -0.14275892 -0.0058495402 1.0317906e-38
-0.039172694 -0.14275892 -0.0058495402 1.0132426e-38
-0.037331685 -0.14275892 -0.0058495402 1.0316462e-38
-0.035490677 -0.14275892 -0.0058495402 1.0039892e-38
-0.033523411 -0.14194728 -0.0029104352 9.3033999e-39
-0.031687558 -0.14194728 -0.0029104352 9.7661507e-39
-0.029851701 -0.14194728 -0.0029104352 1.5208205e-38
-0.027901605 -0.14111041 0.00012010336 1.6961731e-38
-0.025962759 -0.14027832 0.0031332374 1.7240479e-38
-0.024035078 -0.13945107 0.0061289668 1.4754061e-38
-0.022215068 -0.13945107 0.0061289668 1.4479632e-38
-0.020395063 -0.13945107 0.0061289668 1.7708289e-38
-0.018575057 -0.13945107 0.0061289668 2.3142468e-38
-0.016836464 -0.14027832 0.0031332374 2.3142489e-38
-0.015087806 -0.14111041 0.00012010336 2.3416937e-38
-0.013257265 -0.14111041 0.00012010336 2.3509865e-38
-0.011426724 -0.14111041 0.00012010336 2.350986e-38
-0.0095961802 -0.14111041 0.00012010336 2.3509844e-38
-0.0077101663 -0.14027832 0.0031332374 1.5676069e-38
-0.0058849081 -0.14027832 0.0031332374 1.6322861e-38
-0.0040150024 -0.13945107 0.0061289668 1.6323937e-38
-0.0021949932 -0.13945107 0.0061289668 1.5955163e-38
-0.00037498772 -0.13945107 0.0061289668 1.6970391e-38
0.0014450178 -0.13945107 0.0061289668 1.7985968e-38
0.0032960512 -0.13836516 0.010061204 1.8264699e-38
0.005109163 -0.13836516 0.010061204 1.918736e-38
0.0069222748 -0.13836516 0.010061204 1.7712949e-38
0.0087353867 -0.13836516 0.010061204 1.6514777e-38
0.010548498 -0.13836516 0.010061204 1.9649443e-38
0.012361612 -0.13836516 0.010061204 1.8911889e-38
0.014174724 -0.13836516 0.010061204 1.7067976e-38
0.015974417 -0.13751976 0.013122618 1.6515156e-38
0.017782161 -0.13751976 0.013122618 1.7437112e-38
0.01956672 -0.13670824 0.016061246 1.8358001e-38
0.021369312 -0.13670824 0.016061246 1.8911173e-38
0.023171905 -0.13670824 0.016061246 1.9280295e-38
0.025013139 -0.13751976 0.013122618 1.9188096e-38
0.026777089 -0.13670824 0.016061246 1.9462902e-38
0.02857968 -0.13670824 0.016061246 1.7895932e-38
0.030326566 -0.13587265 0.019087136 1.6973958e-38
0.032123853 -0.13587265 0.019087136 1.7711879e-38
0.033921137 -0.13587265 0.019087136 1.835582e-38
0.035718426 -0.13587265 0.019087136 1.7710451e-38
0.037515715 -0.13587265 0.019087136 1.9093737e-38
0.039313 -0.13587265 0.019087136 2.2315925e-38
0.041110285 -0.13587265 0.019087136 2.2132272e-38
0.042907573 -0.13587265 0.019087136 1.8816821e-38
0.044607282 -0.13504194 0.022095382 1.7709027e-38
0.046399295 -0.13504194 0.022095382 1.6785267e-38
0.048083816 -0.13421609 0.025085986 1.7428473e-38
0.049870584 -0.13421609 0.025085986 1.2631416e-38
0.051657353 -0.13421609 0.025085986 1.1337441e-38
0.053321622 -0.13339506 0.028059065 1.1795545e-38
0.055103175 -0.13339506 0.028059065 1.2069976e-38
-0.047090597 -0.14738683 -0.015877903 9.3055579e-39
-0.045232005 -0.14738683 -0.015877903 1.0595206e-38
-0.043218486 -0.14655443 -0.012882531 1.1055117e-38
-0.041013703 -0.14459993 -0.0058495402 1.0317552e-38
-0.039172694 -0.14459993 -0.0058495402 1.0408657e-38
-0.037331685 -0.14459993 -0.0058495402 1.0777443e-38
-0.035490677 -0.14459993 -0.0058495402 1.0500151e-38
-0.033523411 -0.14378314 -0.0029104352 9.5792637e-39
-0.031687558 -0.14378314 -0.0029104352 1.013493e-38
-0.029732145 -0.14294095 0.00012010336 1.539295e-38
-0.027788017 -0.1421036 0.0031332374 1.6592943e-38
-0.025962759 -0.1421036 0.0031332374 1.7701809e-38
-0.024137501 -0.1421036 0.0031332374 1.604515e-38
-0.022312243 -0.1421036 0.0031332374 1.41112e-38
-0.020486981 -0.1421036 0.0031332374 1.5495582e-38
-0.018661723 -0.1421036 0.0031332374 2.102554e-38
-0.016836464 -0.1421036 0.0031332374 2.3509825e-38
-0.015087806 -0.14294095 0.00012010336 2.3509844e-38
-0.013257265 -0.14294095 0.00012010336 2.3509853e-38
-0.011426724 -0.14294095 0.00012010336 2.3232899e-38
-0.0095961802 -0.14294095 0.00012010336 2.2865536e-38
-0.0077101663 -0.1421036 0.0031332374 1.5307276e-38
-0.0058849081 -0.1421036 0.0031332374 1.5308341e-38
-0.0040150024 -0.14127107 0.0061289668 1.6784188e-38
-0.0021949932 -0.14127107 0.0061289668 1.5586735e-38
-0.00037498772 -0.14127107 0.0061289668 1.7062944e-38
0.0014450178 -0.14127107 0.0061289668 1.8078161e-38
0.0032960512 -0.14017828 0.010061204 1.7158352e-38
0.005109163 -0.14017828 0.010061204 1.7804426e-38
0.0069222748 -0.14017828 0.010061204 1.7251971e-38
0.0087353867 -0.14017828 0.010061204 1.5961249e-38
0.010548498 -0.14017828 0.010061204 1.8727131e-38
0.012361612 -0.14017828 0.010061204 1.7989936e-38
0.014166672 -0.13932751 0.013122618 1.6884667e-38
0.015974417 -0.13932751 0.013122618 1.6607351e-38
0.017764129 -0.13851084 0.016061246 1.7621506e-38
0.01956672 -0.13851084 0.016061246 1.8634232e-38
0.021369312 -0.13851084 0.016061246 1.8173608e-38
0.023171905 -0.13851084 0.016061246 1.8081751e-38
0.024974495 -0.13851084 0.016061246 1.9003705e-38
0.026777089 -0.13851084 0.016061246 1.9462902e-38
0.02857968 -0.13851084 0.016061246 1.8541302e-38
0.030326566 -0.13766994 0.019087136 1.7527132e-38
0.032123853 -0.13766994 0.019087136 1.7435289e-38
0.033921137 -0.13766994 0.019087136 1.8448013e-38
0.035718426 -0.13766994 0.019087136 1.8632407e-38
0.037515715 -0.13766994 0.019087136 1.9738385e-38
0.039313 -0.13766994 0.019087136 2.1489388e-38
0.041110285 -0.13766994 0.019087136 2.1764917e-38
0.042907573 -0.13766994 0.019087136 1.8540583e-38
0.044607282 -0.13683395 0.022095382 1.7064365e-38
0.046399295 -0.13683395 0.022095382 1.4757311e-38
0.048191309 -0.13683395 0.022095382 1.6415029e-38
0.049983319 -0.13683395 0.022095382 1.3092749e-38
0.051775333 -0.13683395 0.022095382 1.1983165e-38
0.053321622 -0.13517661 0.028059065 1.1980291e-38
0.055103175 -0.13517661 0.028059065 1.1977778e-38
-0.044912539 -0.14757483 -0.0099040866 1.0228236e-38
-0.043064423 -0.14757483 -0.0099040866 1.0779616e-38
-0.041216306 -0.14757483 -0.0099040866 1.0685614e-38
-0.039172694 -0.14644094 -0.0058495402 1.1053304e-38
-0.037331685 -0.14644094 -0.0058495402 1.1881982e-38
-0.035359271 -0.14561899 -0.0029104352 1.1605045e-38
-0.033523411 -0.14561899 -0.0029104352 1.0407934e-38
-0.031687558 -0.14561899 -0.0029104352 8.9360257e-39
-0.029732145 -0.1447715 0.00012010336 1.4378442e-38
-0.027788017 -0.14392884 0.0031332374 1.4473526e-38
-0.025962759 -0.14392884 0.0031332374 1.5398359e-38
-0.024137501 -0.14392884 0.0031332374 1.5493424e-38
-0.022312243 -0.14392884 0.0031332374 1.4297036e-38
-0.020486981 -0.14392884 0.0031332374 1.4113012e-38
-0.018661723 -0.14392884 0.0031332374 1.7431706e-38
-0.016836464 -0.14392884 0.0031332374 2.0285836e-38
-0.015087806 -0.1447715 0.00012010336 2.2681495e-38
-0.013257265 -0.1447715 0.00012010336 2.3142488e-38
-0.011426724 -0.1447715 0.00012010336 1.9086595e-38
-0.0095961802 -0.1447715 0.00012010336 1.8257902e-38
-0.0077656358 -0.1447715 0.00012010336 1.3925772e-38
-0.0058849081 -0.14392884 0.0031332374 1.4663686e-38
-0.0040150024 -0.14309107 0.0061289668 1.6324284e-38
-0.0021949932 -0.14309107 0.0061289668 1.5310499e-38
-0.00037498772 -0.14309107 0.0061289668 1.7707584e-38
0.0014450178 -0.14309107 0.0061289668 1.8907556e-38
0.0032650251 -0.14309107 0.0061289668 1.6880323e-38
0.005109163 -0.14199139 0.010061204 1.7341653e-38
0.0069222748 -0.14199139 0.010061204 1.7710797e-38
0.0087353867 -0.14199139 0.010061204 1.6696296e-38
0.010548498 -0.14199139 0.010061204 1.8909364e-38
0.012361612 -0.14199139 0.010061204 1.8265801e-38
0.014166672 -0.14113526 0.013122618 1.7805541e-38
0.015974417 -0.14113526 0.013122618 1.7252002e-38
0.017764129 -0.14031343 0.016061246 1.7989567e-38
0.01956672 -0.14031343 0.016061246 1.8726063e-38
0.021369312 -0.14031343 0.016061246 1.6974702e-38
0.023171905 -0.14031343 0.016061246 1.6144564e-38
0.024974495 -0.14031343 0.016061246 1.771189e-38
0.026777089 -0.14031343 0.016061246 1.9647649e-38
0.02857968 -0.14031343 0.016061246 1.9462539e-38
0.030326566 -0.13946722 0.019087136 1.7803721e-38
0.032123853 -0.13946722 0.019087136 1.6881042e-38
0.033921137 -0.13946722 0.019087136 1.7618255e-38
0.035718426 -0.13946722 0.019087136 1.8724603e-38
0.037515715 -0.13946722 0.019087136 1.9553996e-38
0.039313 -0.13946722 0.019087136 2.0107889e-38
0.041110285 -0.13946722 0.019087136 1.918702e-38
0.042907573 -0.13946722 0.019087136 1.7896284e-38
0.044704862 -0.13946722 0.019087136 1.8263625e-38
0.046502147 -0.13946722 0.019087136 1.5864376e-38
0.048191309 -0.13862596 0.022095382 1.7337698e-38
0.049983319 -0.13862596 0.022095382 1.3554441e-38
0.051775333 -0.13862596 0.022095382 1.1706223e-38
0.053444121 -0.13778962 0.025085986 1.1242368e-38
0.055230889 -0.13778962 0.025085986 1.1884858e-38
-0.04270269 -0.14745484 -0.0029104352 9.3066537e-39
-0.040866837 -0.14745484 -0.0029104352 1.0685611e-38
