# .PCD v0.7 - Point Cloud Data file format
VERSION 0.7
FIELDS x y z rgb
SIZE 4 4 4 4
TYPE F F F F
COUNT 1 1 1 1
WIDTH 924
HEIGHT 1
VIEWPOINT 0 0 0 1 0 0 0
POINTS 924
DATA ascii
0.0025881119 -0.085165098 -0.025435228 2.3509873e-38
0.0044669192 -0.084500432 -0.022365708 2.3507714e-38
0.0063430369 -0.084500432 -0.022365708 2.3507715e-38
0.0082191546 -0.084500432 -0.022365708 2.3508077e-38
0.01005242 -0.082988426 -0.015383024 2.3508441e-38
0.011916294 -0.082988426 -0.015383024 2.3509883e-38
0.013819159 -0.083863959 -0.019426364 2.3509886e-38
0.015690122 -0.083863959 -0.019426364 2.341805e-38
0.017428912 -0.08168751 -0.0093752332 2.3234379e-38
0.034195632 -0.082336128 -0.012370605 2.3418045e-38
0.036054224 -0.082336128 -0.012370605 2.3234374e-38
0.037912816 -0.082336128 -0.012370605 2.2498599e-38
-0.018672125 -0.093149811 -0.053394455 1.6968641e-38
-0.016741605 -0.093149811 -0.053394455 2.2683335e-38
-0.014745345 -0.092288271 -0.049447674 2.3142527e-38
-0.012821743 -0.092288271 -0.049447674 2.3234372e-38
-0.010857513 -0.091613799 -0.046357889 2.341805e-38
-0.0089393314 -0.091613799 -0.046357889 2.3325497e-38
-0.0069824327 -0.090737507 -0.042343516 2.3416615e-38
-0.0050712898 -0.090737507 -0.042343516 2.3416615e-38
-0.0031421464 -0.090097278 -0.03941061 2.3416974e-38
-0.0012055691 -0.088574663 -0.032435436 2.3509527e-38
0.00068820268 -0.088574663 -0.032435436 2.3509527e-38
0.0025881119 -0.087046593 -0.025435228 2.3509521e-38
0.0044643432 -0.085734919 -0.019426364 2.3508431e-38
0.0063246731 -0.084852293 -0.015383024 2.3508786e-38
0.0081885457 -0.084852293 -0.015383024 2.3509865e-38
0.010015552 -0.083540857 -0.0093752332 2.3509866e-38
0.011868892 -0.083540857 -0.0093752332 2.3418029e-38
0.013722233 -0.083540857 -0.0093752332 2.2867012e-38
0.015575573 -0.083540857 -0.0093752332 2.2498951e-38
0.017428912 -0.083540857 -0.0093752332 2.2223084e-38
0.019177439 -0.08200562 -0.0023422427 2.2038693e-38
0.028548954 -0.083540857 -0.0093752332 2.3509866e-38
0.030402295 -0.083540857 -0.0093752332 2.3509865e-38
0.032255635 -0.083540857 -0.0093752332 2.350987e-38
0.034108974 -0.083540857 -0.0093752332 2.2957065e-38
0.035962313 -0.083540857 -0.0093752332 2.3509883e-38
0.037587531 -0.08200562 -0.0023422427 2.3418043e-38
0.03942854 -0.08200562 -0.0023422427 2.2958856e-38
0.041269548 -0.08200562 -0.0023422427 2.231528e-38
-0.020516148 -0.094211861 -0.049447674 1.7337771e-38
-0.018592546 -0.094211861 -0.049447674 1.8721057e-38
-0.016668944 -0.094211861 -0.049447674 2.2315972e-38
-0.014693877 -0.093531981 -0.046357889 2.2958845e-38
-0.012775695 -0.093531981 -0.046357889 2.295886e-38
-0.010804722 -0.09264864 -0.042343516 2.3234379e-38
-0.0088935774 -0.09264864 -0.042343516 2.3417691e-38
-0.0069541503 -0.092003286 -0.03941061 2.3509168e-38
-0.0050242133 -0.091335744 -0.036376972 2.3509168e-38
-0.0030809641 -0.089809433 -0.029440541 2.3509527e-38
-0.0011748858 -0.088928089 -0.025435228 2.3509527e-38
0.00070661306 -0.088928089 -0.025435228 2.3416974e-38
0.0025969241 -0.086716175 -0.015383024 2.3508807e-38
0.0044581573 -0.086053312 -0.012370605 2.3509873e-38
0.0063088723 -0.085394189 -0.0093752332 2.3509866e-38
0.0081491563 -0.084738806 -0.0063967891 2.3233636e-38
0.0099972747 -0.084738806 -0.0063967891 2.2958484e-38
0.011845392 -0.084738806 -0.0063967891 2.2775168e-38
0.013654411 -0.083846629 -0.0023422427 2.295884e-38
0.01549542 -0.083846629 -0.0023422427 2.295884e-38
0.017336428 -0.083846629 -0.0023422427 2.2867005e-38
0.019177439 -0.083846629 -0.0023422427 2.2775169e-38
0.021018447 -0.083846629 -0.0023422427 2.2775172e-38
0.028548954 -0.085394189 -0.0093752332 2.3418035e-38
0.030402295 -0.085394189 -0.0093752332 2.3509873e-38
0.032255635 -0.085394189 -0.0093752332 2.3509518e-38
0.034108974 -0.085394189 -0.0093752332 2.2955993e-38
0.035870925 -0.084738806 -0.0063967891 2.3509527e-38
0.037587531 -0.083846629 -0.0023422427 2.3509883e-38
0.039224438 -0.082533047 0.0036274008 2.3418043e-38
0.041054979 -0.082533047 0.0036274008 2.2775181e-38
-0.018530244 -0.095450163 -0.046357889 2.1119195e-38
-0.016612062 -0.095450163 -0.046357889 2.26833e-38
-0.014627015 -0.094559789 -0.042343516 2.3142504e-38
-0.012715867 -0.094559789 -0.042343516 2.2867013e-38
-0.010766154 -0.093909279 -0.03941061 2.3234376e-38
-0.0088601541 -0.093909279 -0.03941061 2.3234379e-38
-0.0069248956 -0.093236431 -0.036376972 2.341805e-38
-0.0049694851 -0.091697961 -0.029440541 2.3418047e-38
-0.0030563846 -0.090809584 -0.025435228 2.350988e-38
-0.001130823 -0.088580042 -0.015383024 2.3418043e-38
0.00074097328 -0.087911904 -0.012370605 2.3416971e-38
0.0026048031 -0.086586922 -0.0063967891 2.3416971e-38
0.0044493657 -0.085687637 -0.0023422427 2.3509524e-38
0.0062903743 -0.085687637 -0.0023422427 2.3325127e-38
0.0081185009 -0.085035756 0.00059686229 2.3234004e-38
0.0099543566 -0.085035756 0.00059686229 2.3142525e-38
0.011766301 -0.084363595 0.0036274008 2.2958845e-38
0.013596844 -0.084363595 0.0036274008 2.2224147e-38
0.015427386 -0.084363595 0.0036274008 2.1948632e-38
0.017257929 -0.084363595 0.0036274008 2.1948633e-38
0.019088469 -0.084363595 0.0036274008 2.0844082e-38
0.020868825 -0.083695292 0.0066405348 2.0382751e-38
0.022749554 -0.084363595 0.0036274008 2.0934134e-38
0.024580097 -0.084363595 0.0036274008 2.2131608e-38
0.026630336 -0.086586922 -0.0063967891 2.2958866e-38
0.028478455 -0.086586922 -0.0063967891 2.3050707e-38
0.030326573 -0.086586922 -0.0063967891 2.2865602e-38
0.032174692 -0.086586922 -0.0063967891 2.3232944e-38
0.034022808 -0.086586922 -0.0063967891 2.3508809e-38
0.035746522 -0.085687637 -0.0023422427 2.3508451e-38
0.037587531 -0.085687637 -0.0023422427 2.2679406e-38
0.039224438 -0.084363595 0.0036274008 2.350988e-38
0.041054979 -0.084363595 0.0036274008 2.3234369e-38
-0.020602645 -0.098941371 -0.053394455 2.0105043e-38
-0.018530244 -0.097368345 -0.046357889 2.1303943e-38
-0.016612062 -0.097368345 -0.046357889 2.1118844e-38
-0.014627015 -0.096470937 -0.042343516 2.2958831e-38
-0.012672158 -0.095815286 -0.03941061 2.3142521e-38
-0.010726264 -0.095137119 -0.036376972 2.3234012e-38
-0.0087806601 -0.094255984 -0.032435436 2.3325497e-38
-0.0068580061 -0.093586475 -0.029440541 2.3325492e-38
-0.0049136635 -0.092004895 -0.022365708 2.3417324e-38
-0.0029946975 -0.090443924 -0.015383024 2.3325843e-38
-0.001104489 -0.089100882 -0.0093752332 2.3418039e-38
0.00075668469 -0.088435039 -0.0063967891 2.350988e-38
0.002608357 -0.087528646 -0.0023422427 2.3418047e-38
0.0044467896 -0.086871609 0.00059686229 2.3234018e-38
0.0062826443 -0.086871609 0.00059686229 2.3234379e-38
0.0081052165 -0.086194143 0.0036274008 2.3142544e-38
0.009935759 -0.086194143 0.0036274008 2.3142534e-38
0.011766301 -0.086194143 0.0036274008 2.0748659e-38
0.013596844 -0.086194143 0.0036274008 1.6324334e-38
0.015393047 -0.085520551 0.0066405348 1.2175884e-38
0.017218307 -0.085520551 0.0066405348 9.7795162e-39
0.019043565 -0.085520551 0.0066405348 9.0419512e-39
0.020868825 -0.085520551 0.0066405348 8.7646595e-39
0.022749554 -0.086194143 0.0036274008 1.3188633e-38
0.024580097 -0.086194143 0.0036274008 2.0839802e-38
0.026410639 -0.086194143 0.0036274008 2.3142541e-38
0.028241182 -0.086194143 0.0036274008 2.3234379e-38
0.030071724 -0.086194143 0.0036274008 2.2588296e-38
0.031902269 -0.086194143 0.0036274008 2.3509527e-38
0.033732809 -0.086194143 0.0036274008 2.3415898e-38
0.03556335 -0.086194143 0.0036274008 2.3509168e-38
0.037587531 -0.087528646 -0.0023422427 2.3416248e-38
-0.022533169 -0.10087189 -0.053394455 1.5308003e-38
-0.02044843 -0.099286526 -0.046357889 1.9181659e-38
-0.018449301 -0.098382086 -0.042343516 1.8722125e-38
-0.016538156 -0.098382086 -0.042343516 2.2866992e-38
-0.014578162 -0.097721294 -0.03941061 2.2958843e-38
-0.012626944 -0.097037792 -0.036376972 2.3142527e-38
-0.01067443 -0.096149758 -0.032435436 2.3509883e-38
-0.0087008793 -0.094572589 -0.025435228 2.3415898e-38
-0.0067897812 -0.093881011 -0.022365708 2.3507733e-38
-0.0048585702 -0.092307791 -0.015383024 2.3509168e-38
-0.0029578302 -0.090954214 -0.0093752332 2.3509524e-38
-0.0010914337 -0.090283155 -0.0063967891 2.3326206e-38
0.00076734833 -0.089369655 -0.0023422427 2.2406404e-38
0.002610933 -0.088707477 0.00059686229 2.286703e-38
0.0044441316 -0.088024676 0.0036274008 2.2130904e-38
0.0062746741 -0.088024676 0.0036274008 2.2775202e-38
0.0081052165 -0.088024676 0.0036274008 2.2867037e-38
0.009935759 -0.088024676 0.0036274008 2.2130191e-38
0.011742528 -0.087345809 0.0066405348 1.8627788e-38
0.013567788 -0.087345809 0.0066405348 1.134467e-38
0.015393047 -0.087345809 0.0066405348 9.5929516e-39
0.017218307 -0.087345809 0.0066405348 1.0606025e-38
0.019043565 -0.087345809 0.0066405348 9.6833535e-39
0.020868825 -0.087345809 0.0066405348 1.088084e-38
0.022749554 -0.088024676 0.0036274008 1.0878368e-38
0.024580097 -0.088024676 0.0036274008 2.1296126e-38
0.026410639 -0.088024676 0.0036274008 2.3508441e-38
0.028241182 -0.088024676 0.0036274008 2.2955975e-38
0.029995121 -0.087345809 0.0066405348 2.3509873e-38
0.031820379 -0.087345809 0.0066405348 2.3509873e-38
0.033645637 -0.087345809 0.0066405348 2.350987e-38
0.035470895 -0.087345809 0.0066405348 2.350987e-38
-0.022533169 -0.10280241 -0.053394455 1.429349e-38
-0.02044843 -0.10120471 -0.046357889 1.6876771e-38
-0.018449301 -0.10029322 -0.042343516 1.6601629e-38
-0.016484162 -0.099627286 -0.03941061 2.1303614e-38
-0.014527632 -0.09893848 -0.036376972 2.2591494e-38
-0.012568204 -0.098043531 -0.032435436 2.2958847e-38
-0.010582378 -0.096454084 -0.025435228 2.3509874e-38
-0.0086323973 -0.095089734 -0.019426364 2.3509165e-38
-0.0067224447 -0.094171658 -0.015383024 2.3508451e-38
-0.0048111696 -0.092807561 -0.0093752332 2.3508809e-38
-0.0029395521 -0.092131287 -0.0063967891 2.3509527e-38
-0.0010607783 -0.09054333 0.00059686229 2.3418045e-38
0.00078304857 -0.089855224 0.0036274008 2.2591518e-38
0.002613591 -0.089855224 0.0036274008 2.2591518e-38
0.0044414904 -0.089171067 0.0066405348 2.2591521e-38
0.0062667504 -0.089171067 0.0066405348 2.2591531e-38
0.0080920104 -0.089171067 0.0066405348 1.7243129e-38
0.0099172685 -0.089171067 0.0066405348 7.9313535e-39
0.011742528 -0.089171067 0.0066405348 6.7338305e-39
0.013567788 -0.089171067 0.0066405348 8.0248972e-39
0.015393047 -0.089171067 0.0066405348 1.0512747e-38
0.017218307 -0.089171067 0.0066405348 1.263217e-38
0.019043565 -0.089171067 0.0066405348 1.4475012e-38
0.020868825 -0.089171067 0.0066405348 1.5395192e-38
0.028241182 -0.089855224 0.0036274008 2.3509869e-38
0.029995121 -0.089171067 0.0066405348 2.3140002e-38
0.031820379 -0.089171067 0.0066405348 2.2586828e-38
0.033645637 -0.089171067 0.0066405348 2.2955971e-38
0.035470895 -0.089171067 0.0066405348 2.3509867e-38
-0.024564756 -0.10564254 -0.057369847 1.3645968e-38
-0.022439746 -0.10382988 -0.049447674 1.410946e-38
-0.02044843 -0.1031229 -0.046357889 1.5863694e-38
-0.018390162 -0.10153329 -0.03941061 1.5865131e-38
-0.016484162 -0.10153329 -0.03941061 2.0198327e-38
-0.014461977 -0.099937305 -0.032435436 2.1672388e-38
-0.012523571 -0.099252045 -0.029440541 2.2315608e-38
-0.010542015 -0.097633243 -0.022365708 2.3234343e-38
-0.0085863192 -0.09603554 -0.015383024 2.350986e-38
-0.0066933949 -0.095346272 -0.012370605 2.3507353e-38
-0.0047876704 -0.093979403 -0.0063967891 2.3507e-38
-0.0029146709 -0.093051672 -0.0023422427 2.3509524e-38
-0.0010474939 -0.091685757 0.0036274008 2.3509886e-38
0.00079097226 -0.090996325 0.0066405348 2.3142544e-38
0.0026162323 -0.090996325 0.0066405348 2.2499322e-38
0.0044414904 -0.090996325 0.0066405348 2.2775181e-38
0.0062667504 -0.090996325 0.0066405348 2.1485887e-38
0.0080788787 -0.090310872 0.0096362643 1.6872907e-38
0.0098988842 -0.090310872 0.0096362643 8.6674822e-39
0.011718892 -0.090310872 0.0096362643 9.0380009e-39
0.013538898 -0.090310872 0.0096362643 1.0236516e-38
0.015358905 -0.090310872 0.0096362643 1.0787903e-38
0.017218307 -0.090996325 0.0066405348 1.3460509e-38
-0.024564756 -0.10758002 -0.057369847 1.3370465e-38
-0.022439746 -0.10575347 -0.049447674 1.4479321e-38
-0.02044843 -0.10504107 -0.046357889 1.6510138e-38
-0.018390162 -0.10343929 -0.03941061 1.6787436e-38
-0.016484162 -0.10343929 -0.03941061 1.9185599e-38
-0.014461977 -0.10183108 -0.032435436 2.0014284e-38
-0.012418134 -0.099509358 -0.022365708 2.0842613e-38
-0.010503365 -0.098831654 -0.019426364 2.3417995e-38
-0.0085519869 -0.097204864 -0.012370605 2.3509844e-38
-0.006664509 -0.09651424 -0.0093752332 2.3509856e-38
-0.0047556795 -0.094892681 -0.0023422427 2.3509866e-38
-0.0028966349 -0.094215035 0.00059686229 2.3509876e-38
-0.0010474939 -0.093516305 0.0036274008 2.2956709e-38
0.00079097226 -0.092821583 0.0066405348 2.341805e-38
0.0026162323 -0.092821583 0.0066405348 2.3234372e-38
0.0044414904 -0.092821583 0.0066405348 2.323435e-38
0.0062667504 -0.092821583 0.0066405348 2.3234357e-38
0.0080788787 -0.092130885 0.0096362643 2.1758183e-38
0.0098988842 -0.092130885 0.0096362643 1.1247514e-38
0.011718892 -0.092130885 0.0096362643 8.7599763e-39
0.013538898 -0.092130885 0.0096362643 1.0880455e-38
0.015358905 -0.092130885 0.0096362643 9.5886468e-39
-0.024463689 -0.10859399 -0.053394455 1.2818019e-38
-0.022439746 -0.10767709 -0.049447674 1.3926511e-38
-0.020360446 -0.10602666 -0.042343516 1.6049873e-38
-0.018390162 -0.10534529 -0.03941061 1.6696669e-38
-0.016355751 -0.10372485 -0.032435436 1.7804086e-38
-0.014345376 -0.10209858 -0.025435228 1.8541288e-38
-0.012374325 -0.10070263 -0.019426364 2.0475604e-38
-0.010450194 -0.099763289 -0.015383024 2.019687e-38
-0.0085519869 -0.099063456 -0.012370605 2.2314507e-38
-0.006664509 -0.098367572 -0.0093752332 2.3417995e-38
-0.0047324896 -0.096050888 0.00059686229 2.3509851e-38
-0.0028780364 -0.095346853 0.0036274008 2.3324753e-38
-0.0010342877 -0.094646841 0.0066405348 2.3417679e-38
0.00079097226 -0.094646841 0.0066405348 2.3509883e-38
0.0026188586 -0.093950883 0.0096362643 2.2957417e-38
0.0044388641 -0.093950883 0.0096362643 2.2958106e-38
0.0062588714 -0.093950883 0.0096362643 2.3509846e-38
0.0080788787 -0.093950883 0.0096362643 2.3509876e-38
0.0098988842 -0.093950883 0.0096362643 1.521047e-38
0.011742528 -0.094646841 0.0066405348 1.0232234e-38
0.013567788 -0.094646841 0.0066405348 1.1615872e-38
0.015393047 -0.094646841 0.0066405348 1.207649e-38
-0.024463689 -0.11052449 -0.053394455 1.2819464e-38
-0.022439746 -0.10960068 -0.049447674 1.3098192e-38
-0.020360446 -0.1079378 -0.042343516 1.4390352e-38
-0.018328996 -0.1065412 -0.036376972 1.5683589e-38
-0.016226875 -0.10398008 -0.025435228 1.688356e-38
-0.01429425 -0.1032616 -0.022365708 1.8542354e-38
-0.012374325 -0.10257359 -0.019426364 2.1122035e-38
-0.010450194 -0.10162716 -0.015383024 2.1304999e-38
-0.0085178521 -0.10022092 -0.0093752332 2.286695e-38
-0.006635787 -0.099523753 -0.0063967891 2.2406702e-38
-0.0047324896 -0.097886756 0.00059686229 2.2774064e-38
-0.0028780364 -0.097177386 0.0036274008 2.3509846e-38
-0.0010342877 -0.096472099 0.0066405348 2.350986e-38
0.00079097226 -0.096472099 0.0066405348 2.2771582e-38
0.0026188586 -0.095770895 0.0096362643 1.5488478e-38
0.0044388641 -0.095770895 0.0096362643 2.1941785e-38
0.0062588714 -0.095770895 0.0096362643 2.2678987e-38
0.0080788787 -0.095770895 0.0096362643 2.3508774e-38
0.0098988842 -0.095770895 0.0096362643 1.6961804e-38
-0.026502246 -0.11339252 -0.057369847 1.1711694e-38
-0.024564756 -0.11339252 -0.057369847 1.3188968e-38
-0.022439746 -0.11152427 -0.049447674 1.3283305e-38
-0.020360446 -0.10984896 -0.042343516 1.3285083e-38
-0.018328996 -0.1084419 -0.036376972 1.5314806e-38
-0.016226875 -0.10586159 -0.025435228 1.7067948e-38
-0.01429425 -0.10513772 -0.022365708 1.8451235e-38
-0.012374325 -0.10444455 -0.019426364 2.0110036e-38
-0.010450194 -0.10349102 -0.015383024 1.9370321e-38
-0.0085178521 -0.10207425 -0.0093752332 2.0198651e-38
-0.006635787 -0.10137187 -0.0063967891 2.0287624e-38
-0.0047324896 -0.099722609 0.00059686229 2.2591091e-38
-0.0028780364 -0.099007934 0.0036274008 2.3509831e-38
-0.0010342877 -0.098297372 0.0066405348 2.3509838e-38
0.00079097226 -0.098297372 0.0066405348 2.2771197e-38
0.0026188586 -0.097590908 0.0096362643 1.5302985e-38
0.0044388641 -0.097590908 0.0096362643 1.4840911e-38
0.0062588714 -0.097590908 0.0096362643 2.3507659e-38
-0.026502246 -0.11533 -0.057369847 1.0329478e-38
-0.024564756 -0.11533 -0.057369847 1.3097491e-38
-0.022439746 -0.11344786 -0.049447674 1.3836478e-38
-0.020360446 -0.11176009 -0.042343516 1.3100336e-38
-0.018390162 -0.11106332 -0.03941061 1.5314453e-38
-0.016226875 -0.10774307 -0.025435228 1.7344541e-38
-0.01429425 -0.10701384 -0.022365708 1.7805869e-38
-0.012374325 -0.10631551 -0.019426364 1.7713672e-38
-0.010410579 -0.10463922 -0.012370605 1.8910422e-38
-0.0085178521 -0.1039276 -0.0093752332 2.0014977e-38
-0.0065683443 -0.10155846 0.00059686229 2.0934784e-38
-0.0047085788 -0.10083848 0.0036274008 2.3142458e-38
-0.0028595459 -0.10012263 0.0066405348 1.991633e-38
-0.0010211561 -0.099410906 0.0096362643 1.5857929e-38
0.00079885125 -0.099410906 0.0096362643 1.5856494e-38
0.0026223045 -0.098476708 0.013568502 1.2812959e-38
0.0044354182 -0.098476708 0.013568502 1.5946171e-38
-0.024564756 -0.11726747 -0.057369847 1.2544316e-38
-0.022439746 -0.11537148 -0.049447674 1.4297101e-38
-0.020360446 -0.11367123 -0.042343516 1.3930102e-38
-0.018328996 -0.11224325 -0.036376972 1.3377993e-38
-0.016170366 -0.10888995 -0.022365708 1.6145293e-38
-0.014245288 -0.10818647 -0.019426364 1.6053448e-38
-0.012314064 -0.10721879 -0.015383024 1.7436379e-38
-0.010410579 -0.10649781 -0.012370605 1.8542727e-38
-0.0084839072 -0.1050681 -0.0063967891 1.9094461e-38
-0.0065683443 -0.10339431 0.00059686229 1.9737673e-38
-0.0047085788 -0.10266902 0.0036274008 1.9366013e-38
-0.0028595459 -0.10194789 0.0066405348 1.9087269e-38
-0.0010211561 -0.10123092 0.0096362643 1.1525426e-38
0.00080919266 -0.10028981 0.013568502 1.0877896e-38
0.0026223045 -0.10028981 0.013568502 1.2996246e-38
0.0044354182 -0.10028981 0.013568502 1.6589734e-38
-0.024463689 -0.11824657 -0.053394455 1.337443e-38
-0.022439746 -0.11729507 -0.049447674 1.475736e-38
-0.020296169 -0.1148753 -0.03941061 1.4205611e-38
-0.018189134 -0.11247168 -0.029440541 1.3376923e-38
-0.016170366 -0.11076607 -0.022365708 1.6143865e-38
-0.014245288 -0.11005743 -0.019426364 1.5960547e-38
-0.012314064 -0.10908265 -0.015383024 1.7159805e-38
-0.010410579 -0.1083564 -0.012370605 1.7805174e-38
-0.0084839072 -0.10691623 -0.0063967891 1.734311e-38
-0.0065683443 -0.10523017 0.00059686229 1.6879971e-38
-0.004684804 -0.10377313 0.0066405348 1.5679622e-38
-0.0028411616 -0.10305093 0.0096362643 1.5584541e-38
-0.0010039192 -0.10210292 0.013568502 9.1283202e-39
0.00081724487 -0.10136487 0.016629916 9.771526e-39
0.0026249886 -0.10136487 0.016629916 1.2534529e-38
-0.024463689 -0.12017711 -0.053394455 1.3742491e-38
-0.022366611 -0.11846836 -0.046357889 1.4849193e-38
-0.020296169 -0.11678131 -0.03941061 1.4665155e-38
-0.018189134 -0.1143602 -0.029440541 1.3836109e-38
-0.016170366 -0.11264218 -0.022365708 1.6142794e-38
-0.01429425 -0.11264218 -0.022365708 1.614351e-38
-0.012374325 -0.11192839 -0.019426364 1.6606282e-38
-0.010410579 -0.11021499 -0.012370605 1.6698478e-38
-0.0084839072 -0.10876434 -0.0063967891 1.5960547e-38
-0.0065683443 -0.10706602 0.00059686229 1.5775068e-38
-0.004684804 -0.10559841 0.0066405348 1.5034615e-38
-0.0028411616 -0.10487093 0.0096362643 1.4939169e-38
-0.00099050067 -0.10317262 0.016629916 8.7591692e-39
0.00081724487 -0.10317262 0.016629916 9.0332407e-39
0.0026249886 -0.10317262 0.016629916 1.1335252e-38
-0.026394209 -0.12210761 -0.053394455 1.0790441e-38
-0.024463689 -0.12210761 -0.053394455 1.3280791e-38
-0.022366611 -0.12038656 -0.046357889 1.4478968e-38
-0.02022968 -0.11794533 -0.036376972 1.4848467e-38
-0.018189134 -0.11624874 -0.029440541 1.4204174e-38
-0.016226875 -0.11526908 -0.025435228 1.6601977e-38
-0.01429425 -0.1145183 -0.022365708 1.64201e-38
-0.012374325 -0.11379938 -0.019426364 1.6421176e-38
-0.010450194 -0.11281042 -0.015383024 1.6145668e-38
-0.0085178521 -0.11134095 -0.0093752332 1.5684326e-38
-0.0065683443 -0.10890187 0.00059686229 1.6236411e-38
-0.004684804 -0.10742365 0.0066405348 1.5772905e-38
-0.0028411616 -0.10669093 0.0096362643 1.5584541e-38
-0.00099050067 -0.10498036 0.016629916 9.0354015e-39
0.00082497299 -0.10426159 0.019568544 9.0321645e-39
0.0026275646 -0.10426159 0.019568544 1.0228185e-38
-0.026394209 -0.12403814 -0.053394455 1.0513131e-38
-0.024463689 -0.12403814 -0.053394455 1.3096037e-38
-0.022366611 -0.12230472 -0.046357889 1.3925071e-38
-0.02022968 -0.119846 -0.036376972 1.4478242e-38
-0.018189134 -0.11813726 -0.029440541 1.420273e-38
-0.016226875 -0.11715056 -0.025435228 1.6601615e-38
-0.01429425 -0.11639442 -0.022365708 1.7064748e-38
-0.012374325 -0.11567034 -0.019426364 1.6789959e-38
-0.010450194 -0.11467429 -0.015383024 1.6698842e-38
-0.0085178521 -0.1131943 -0.0093752332 1.5592492e-38
-0.0065966882 -0.11146177 -0.0023422427 1.5775803e-38
-0.0047085788 -0.10999118 0.0036274008 1.4942794e-38
-0.0028411616 -0.10851096 0.0096362643 1.4108705e-38
-0.00099050067 -0.10678811 0.016629916 8.20422e-39
0.00083293207 -0.1053188 0.022594433 8.9385368e-39
0.002630217 -0.1053188 0.022594433 1.0042726e-38
-0.035544187 -0.1224993 -0.03941061 1.1707392e-38
-0.033638179 -0.1224993 -0.03941061 1.1245332e-38
-0.031827316 -0.12322696 -0.042343516 1.1246765e-38
-0.030039342 -0.12422292 -0.046357889 1.179886e-38
-0.028210549 -0.12498946 -0.049447674 1.1155282e-38
-0.02628695 -0.12498946 -0.049447674 1.1341454e-38
-0.024363345 -0.12498946 -0.049447674 1.3923999e-38
-0.022366611 -0.12422292 -0.046357889 1.355557e-38
-0.02022968 -0.12174667 -0.036376972 1.4016903e-38
-0.018249521 -0.1207688 -0.032435436 1.3833225e-38
-0.016300613 -0.12002577 -0.029440541 1.6416497e-38
-0.014345376 -0.11903207 -0.025435228 1.780159e-38
-0.012374325 -0.1175413 -0.019426364 1.7250934e-38
-0.010450194 -0.11653815 -0.015383024 1.6883233e-38
-0.0085178521 -0.11504765 -0.0093752332 1.568469e-38
-0.0065966882 -0.11330278 -0.0023422427 1.6052391e-38
-0.0047085788 -0.11182173 0.0036274008 1.4943164e-38
-0.002817031 -0.10935538 0.013568502 1.364738e-38
-0.00097761862 -0.10786678 0.019568544 7.8347354e-39
0.00083293207 -0.10711606 0.022594433 9.1211484e-39
0.002630217 -0.10711606 0.022594433 9.8576302e-39
-0.037560746 -0.12513812 -0.042343516 1.2443162e-38
-0.035544187 -0.12440531 -0.03941061 1.2351679e-38
-0.033638179 -0.12440531 -0.03941061 1.1705949e-38
-0.031827316 -0.12513812 -0.042343516 1.1706665e-38
-0.030039342 -0.12614109 -0.046357889 1.216728e-38
-0.028210549 -0.12691309 -0.049447674 1.133931e-38
-0.02628695 -0.12691309 -0.049447674 1.1616962e-38
-0.024363345 -0.12691309 -0.049447674 1.4292422e-38
-0.02227159 -0.12513812 -0.042343516 1.3647403e-38
-0.02022968 -0.12364738 -0.036376972 1.4108733e-38
-0.018189134 -0.12191428 -0.029440541 1.3925056e-38
-0.016300613 -0.12191428 -0.029440541 1.641613e-38
-0.014345376 -0.12091358 -0.025435228 1.7894137e-38
-0.012374325 -0.11941226 -0.019426364 1.7065818e-38
-0.010450194 -0.11840202 -0.015383024 1.6606644e-38
-0.0085519869 -0.11764936 -0.012370605 1.568469e-38
-0.0065966882 -0.11514379 -0.0023422427 1.6789603e-38
-0.0047085788 -0.11365227 0.0036274008 1.5772573e-38
-0.002817031 -0.11116849 0.013568502 1.3923262e-38
-0.00097761862 -0.10966937 0.019568544 8.0184232e-39
0.00083293207 -0.10891335 0.022594433 9.3966801e-39
0.002630217 -0.10891335 0.022594433 1.0040242e-38
-0.037560746 -0.12704925 -0.042343516 1.2350963e-38
-0.035649605 -0.12704925 -0.042343516 1.2167288e-38
-0.033738457 -0.12704925 -0.042343516 1.1153494e-38
-0.031827316 -0.12704925 -0.042343516 1.1153491e-38
-0.030134147 -0.12883668 -0.049447674 1.1245684e-38
-0.028324729 -0.12982969 -0.053394455 1.0417354e-38
-0.026394209 -0.12982969 -0.053394455 1.0696085e-38
-0.024463689 -0.12982969 -0.053394455 1.3923999e-38
-0.02227159 -0.12704925 -0.042343516 1.355557e-38
-0.02022968 -0.12554805 -0.036376972 1.4477878e-38
-0.018189134 -0.12380283 -0.029440541 1.42942e-38
-0.016300613 -0.12380283 -0.029440541 1.6416493e-38
-0.014345376 -0.12279506 -0.025435228 1.761755e-38
-0.012374325 -0.12128322 -0.019426364 1.6328251e-38
-0.010450194 -0.12026589 -0.015383024 1.6790671e-38
-0.0085519869 -0.11950795 -0.012370605 1.5684323e-38
-0.0065966882 -0.1169848 -0.0023422427 1.6697039e-38
-0.0047085788 -0.11548282 0.0036274008 1.5402345e-38
-0.002817031 -0.1129816 0.013568502 1.3184976e-38
-0.00097761862 -0.11147197 0.019568544 7.6485645e-39
0.00083293207 -0.11071064 0.022594433 9.5803567e-39
0.002630217 -0.11071064 0.022594433 1.0500151e-38
-0.037560746 -0.12896039 -0.042343516 1.2167646e-38
-0.035649605 -0.12896039 -0.042343516 1.1430801e-38
-0.033738457 -0.12896039 -0.042343516 1.0877983e-38
-0.031827316 -0.12896039 -0.042343516 1.0693592e-38
-0.030255249 -0.13176022 -0.053394455 1.0509561e-38
-0.028324729 -0.13176022 -0.053394455 1.0050013e-38
-0.026394209 -0.13176022 -0.053394455 1.0421656e-38
-0.024463689 -0.13176022 -0.053394455 1.3188595e-38
-0.02227159 -0.12896039 -0.042343516 1.2727614e-38
-0.02022968 -0.12744872 -0.036376972 1.3649926e-38
-0.018249521 -0.12645011 -0.032435436 1.3835391e-38
-0.016300613 -0.12569134 -0.029440541 1.540415e-38
-0.014345376 -0.12467657 -0.025435228 1.5774365e-38
-0.012418134 -0.12389888 -0.022365708 1.5407373e-38
-0.010503365 -0.12315418 -0.019426364 1.5684315e-38
-0.0085863192 -0.12212978 -0.015383024 1.6052015e-38
-0.006635787 -0.11985306 -0.0063967891 1.6418996e-38
-0.0047324896 -0.11808117 0.00059686229 1.493991e-38
-0.002817031 -0.11479472 0.013568502 1.4197673e-38
-0.00099050067 -0.11401908 0.016629916 8.2013627e-39
0.00082497299 -0.11327456 0.019568544 9.0271689e-39
0.0026275646 -0.11327456 0.019568544 1.1144794e-38
-0.037560746 -0.13087155 -0.042343516 1.0508844e-38
-0.035649605 -0.13087155 -0.042343516 1.0417005e-38
-0.033738457 -0.13087155 -0.042343516 1.0140781e-38
-0.031957529 -0.13189565 -0.046357889 1.0048582e-38
-0.030377226 -0.1347049 -0.057369847 9.588686e-39
-0.028439736 -0.1347049 -0.057369847 9.1287757e-39
-0.026502246 -0.1347049 -0.057369847 8.6699415e-39
-0.024463689 -0.13369073 -0.053394455 1.3374065e-38
-0.022366611 -0.13189565 -0.046357889 1.3558457e-38
-0.02022968 -0.12934943 -0.036376972 1.2820892e-38
-0.018249521 -0.1283439 -0.032435436 1.236063e-38
-0.016300613 -0.12757985 -0.029440541 1.4851701e-38
-0.014345376 -0.12655805 -0.025435228 1.5682532e-38
-0.012418134 -0.12577499 -0.022365708 1.4577615e-38
-0.010503365 -0.12502514 -0.019426364 1.5592119e-38
-0.0085863192 -0.12399365 -0.015383024 1.6143845e-38
-0.006635787 -0.12170117 -0.0063967891 1.6510826e-38
-0.0047324896 -0.11991702 0.00059686229 1.503174e-38
-0.0027982444 -0.11582683 0.016629916 1.4473534e-38
-0.00097761862 -0.11507715 0.019568544 8.7534519e-39
0.00083293207 -0.11430521 0.022594433 9.7636535e-39
0.002630217 -0.11430521 0.022594433 1.1790161e-38
-0.037560746 -0.13278268 -0.042343516 8.7571289e-39
-0.035649605 -0.13278268 -0.042343516 9.12591e-39
-0.033738457 -0.13278268 -0.042343516 9.4032172e-39
-0.031957529 -0.13381381 -0.046357889 9.2188245e-39
-0.030255249 -0.13562126 -0.053394455 8.5741768e-39
-0.028324729 -0.13562126 -0.053394455 8.1142664e-39
-0.026394209 -0.13562126 -0.053394455 7.8401822e-39
-0.024463689 -0.13562126 -0.053394455 1.4202748e-38
-0.022366611 -0.13381381 -0.046357889 1.5585683e-38
-0.020296169 -0.13202934 -0.03941061 1.4572609e-38
-0.018249521 -0.13023765 -0.032435436 1.3098195e-38
-0.016300613 -0.1294684 -0.029440541 1.5127212e-38
-0.014345376 -0.12843956 -0.025435228 1.5774012e-38
-0.012418134 -0.12765111 -0.022365708 1.4853126e-38
-0.010542015 -0.12765111 -0.022365708 1.5407371e-38
-0.0085863192 -0.12585752 -0.015383024 1.6051655e-38
-0.0067224447 -0.12585752 -0.015383024 1.6418277e-38
-0.0045828037 -0.11687975 0.019568544 1.4663323e-38
-0.0027802121 -0.11687975 0.019568544 1.4197673e-38
-0.00097761862 -0.11687975 0.019568544 8.6623409e-39
0.00083293207 -0.1161025 0.022594433 9.9487693e-39
0.002630217 -0.1161025 0.022594433 1.2251145e-38
-0.039471895 -0.13469382 -0.042343516 8.2028761e-39
-0.037560746 -0.13469382 -0.042343516 7.927371e-39
-0.035793893 -0.13573201 -0.046357889 8.480542e-39
-0.034116291 -0.1375518 -0.053394455 8.7574918e-39
-0.032185771 -0.1375518 -0.053394455 8.5734565e-39
-0.030255249 -0.1375518 -0.053394455 8.0210058e-39
-0.028324729 -0.1375518 -0.053394455 7.8376823e-39
-0.026394209 -0.1375518 -0.053394455 8.5766683e-39
-0.024463689 -0.1375518 -0.053394455 1.4570815e-38
-0.022366611 -0.13573201 -0.046357889 1.7060094e-38
-0.020360446 -0.13469382 -0.042343516 1.7613985e-38
-0.018328996 -0.13315077 -0.036376972 1.5494559e-38
-0.016300613 -0.13135691 -0.029440541 1.5403436e-38
-0.014345376 -0.13032107 -0.025435228 1.5313034e-38
-0.012269171 -0.12694232 -0.012370605 1.5313747e-38
-0.010371191 -0.12616767 -0.0093752332 1.5407376e-38
-0.0084376987 -0.12434883 -0.0023422427 1.605202e-38
-0.0064432565 -0.12023406 0.013568502 1.6417925e-38
-0.0045828037 -0.11868234 0.019568544 1.447858e-38
-0.0027802121 -0.11868234 0.019568544 1.3828539e-38
-0.00097761862 -0.11868234 0.019568544 8.4772391e-39
0.00083293207 -0.11789979 0.022594433 9.7647438e-39
0.002630217 -0.11789979 0.022594433 1.1975282e-38
-0.039471895 -0.13660498 -0.042343516 8.2028789e-39
-0.037560746 -0.13660498 -0.042343516 8.2957976e-39
-0.035793893 -0.13765021 -0.046357889 8.6649361e-39
-0.034116291 -0.1394823 -0.053394455 8.5731034e-39
-0.032185771 -0.1394823 -0.053394455 8.2965137e-39
-0.030255249 -0.1394823 -0.053394455 8.1132042e-39
-0.028324729 -0.1394823 -0.053394455 8.2057488e-39
-0.026394209 -0.1394823 -0.053394455 9.0369304e-39
-0.024363345 -0.13845469 -0.049447674 1.5029995e-38
-0.022366611 -0.13765021 -0.046357889 1.7611829e-38
-0.020360446 -0.13660498 -0.042343516 1.8442304e-38
-0.018328996 -0.13505147 -0.036376972 1.604701e-38
-0.016170366 -0.13140334 -0.022365708 1.5402715e-38
-0.014177939 -0.12958528 -0.015383024 1.5035724e-38
-0.012269171 -0.12880091 -0.012370605 1.4852769e-38
-0.010371191 -0.12802102 -0.0093752332 1.5591767e-38
-0.0084376987 -0.12618984 -0.0023422427 1.6420449e-38
-0.0064432565 -0.12204717 0.013568502 1.687855e-38
-0.004605988 -0.12125005 0.016629916 1.4662618e-38
-0.0027802121 -0.12048493 0.019568544 1.3736709e-38
-0.00097761862 -0.12048493 0.019568544 8.2932122e-39
0.00083293207 -0.11969708 0.022594433 9.5807168e-39
0.002630217 -0.11969708 0.022594433 1.1606863e-38
0.016614083 -0.11188738 0.05258904 1.2343357e-38
0.018358778 -0.11188738 0.05258904 1.216147e-38
-0.026502246 -0.14245488 -0.057369847 9.2195237e-39
-0.024284793 -0.13956837 -0.046357889 1.5490255e-38
-0.02227159 -0.13851611 -0.042343516 1.7703304e-38
-0.020296169 -0.13774733 -0.03941061 1.7612181e-38
-0.018328996 -0.13695215 -0.036376972 1.5309082e-38
-0.016116252 -0.13250901 -0.019426364 1.5403071e-38
-0.014127763 -0.13065951 -0.012370605 1.5127917e-38
-0.012269171 -0.13065951 -0.012370605 1.4299233e-38
-0.010371191 -0.12987436 -0.0093752332 1.577508e-38
-0.0084042009 -0.12726043 0.00059686229 1.6788513e-38
-0.0065100659 -0.12567626 0.0066405348 1.7248055e-38
-0.0046301428 -0.12386028 0.013568502 1.4939927e-38
-0.0027802121 -0.12228753 0.019568544 1.392182e-38
-0.00097761862 -0.12228753 0.019568544 8.3861295e-39
0.00082497299 -0.12228753 0.019568544 9.6729125e-39
0.014834856 -0.11283787 0.055618923 1.2342989e-38
0.016574241 -0.11283787 0.055618923 1.2343712e-38
0.018313624 -0.11283787 0.055618923 1.1608291e-38
0.020053007 -0.11283787 0.055618923 1.1424967e-38
0.021792391 -0.11283787 0.055618923 1.1518235e-38
-0.024284793 -0.14148657 -0.046357889 1.5027834e-38
-0.02227159 -0.14042725 -0.042343516 1.7517471e-38
-0.020296169 -0.13965334 -0.03941061 1.7980597e-38
-0.018328996 -0.13885282 -0.036376972 1.5769336e-38
-0.016116252 -0.13437997 -0.019426364 1.5125757e-38
-0.01407787 -0.13172771 -0.0093752332 1.4666574e-38
-0.01218014 -0.13094176 -0.0063967891 1.4391782e-38
-0.010332024 -0.13094176 -0.0063967891 1.5221903e-38
-0.0084042009 -0.12909628 0.00059686229 1.6604121e-38
-0.0065100659 -0.1275015 0.0066405348 1.734025e-38
-0.0046611689 -0.126711 0.0096362643 1.5216514e-38
-0.0027982444 -0.12486555 0.016629916 1.4198407e-38
-0.00099050067 -0.12486555 0.016629916 8.7549092e-39
0.00081724487 -0.12486555 0.016629916 9.6739887e-39
0.014834856 -0.11457725 0.055618923 1.1697615e-38
0.016574241 -0.11457725 0.055618923 1.2436621e-38
0.018313624 -0.11457725 0.055618923 1.1332058e-38
0.020053007 -0.11457725 0.055618923 1.1056538e-38
0.021792391 -0.11457725 0.055618923 1.1057252e-38
-0.024284793 -0.14340474 -0.046357889 1.364418e-38
-0.02227159 -0.14233841 -0.042343516 1.6871378e-38
-0.02022968 -0.14075352 -0.036376972 1.9270256e-38
-0.018249521 -0.13970654 -0.032435436 1.6967512e-38
-0.016041813 -0.13517688 -0.015383024 1.4295631e-38
-0.01402826 -0.13278987 -0.0063967891 1.3559861e-38
-0.01218014 -0.13278987 -0.0063967891 1.475984e-38
-0.010240057 -0.13093217 0.00059686229 1.4668366e-38
-0.0084042009 -0.13093217 0.00059686229 1.6143499e-38
-0.0065100659 -0.12932678 0.0066405348 1.706366e-38
-0.0046611689 -0.12853102 0.0096362643 1.5124318e-38
-0.0028411616 -0.12853102 0.0096362643 1.4198406e-38
0.014834856 -0.11631663 0.055618923 1.2436256e-38
0.016574241 -0.11631663 0.055618923 1.0869652e-38
0.018313624 -0.11631663 0.055618923 1.123986e-38
0.020053007 -0.11631663 0.055618923 1.0872145e-38
-0.024284793 -0.14532293 -0.046357889 1.1800267e-38
-0.02227159 -0.14424954 -0.042343516 1.6226009e-38
-0.02022968 -0.1426542 -0.036376972 1.7702564e-38
-0.018249521 -0.1416003 -0.032435436 1.6506168e-38
-0.015986355 -0.13623528 -0.012370605 1.5032469e-38
-0.01402826 -0.134638 -0.0063967891 1.4482169e-38
-0.01218014 -0.134638 -0.0063967891 1.4944226e-38
-0.010240057 -0.13276802 0.00059686229 1.5406286e-38
-0.0083696637 -0.13195769 0.0036274008 1.7249122e-38
-0.0065100659 -0.13115202 0.0066405348 1.6878906e-38
-0.0046611689 -0.13035102 0.0096362643 1.6230663e-38
-0.0028411616 -0.13035102 0.0096362643 1.447499e-38
0.013066432 -0.11725079 0.058630448 1.1790866e-38
0.014800535 -0.11725079 0.058630448 1.1974558e-38
0.016534638 -0.11725079 0.058630448 1.2344063e-38
0.018268742 -0.11725079 0.058630448 1.1516447e-38
0.020002846 -0.11725079 0.058630448 1.1978493e-38
-0.024182735 -0.14616071 -0.042343516 1.0416261e-38
-0.02227159 -0.14616071 -0.042343516 1.3090639e-38
-0.020296169 -0.14537133 -0.03941061 1.3738152e-38
-0.018249521 -0.14349405 -0.032435436 1.3462989e-38
-0.015986355 -0.13809387 -0.012370605 1.346478e-38
-0.01402826 -0.13648613 -0.0063967891 1.411266e-38
-0.01218014 -0.13648613 -0.0063967891 1.4667273e-38
-0.010240057 -0.13460387 0.00059686229 1.4667639e-38
-0.0083696637 -0.13378824 0.0036274008 1.6327166e-38
-0.0064811762 -0.13217102 0.0096362643 1.6141338e-38
-0.0046611689 -0.13217102 0.0096362643 1.6138104e-38
-0.0028411616 -0.13217102 0.0096362643 1.4474624e-38
0.011332327 -0.11898489 0.058630448 1.1514982e-38
0.013066432 -0.11898489 0.058630448 1.1606475e-38
0.014800535 -0.11898489 0.058630448 1.1697615e-38
0.016534638 -0.11898489 0.058630448 1.1514304e-38
0.018268742 -0.11898489 0.058630448 1.0686689e-38
0.020002846 -0.11898489 0.058630448 1.0779951e-38
-0.024182735 -0.14807184 -0.042343516 9.0329745e-39
-0.02220217 -0.14727734 -0.03941061 1.0140026e-38
-0.020143295 -0.14538784 -0.032435436 1.0510229e-38
-0.018189134 -0.14457656 -0.029440541 1.134249e-38
-0.016116252 -0.14186381 -0.019426364 1.318819e-38
-0.01407787 -0.13914107 -0.0093752332 1.4665833e-38
-0.01218014 -0.13833423 -0.0063967891 1.5036056e-38
-0.010240057 -0.13643973 0.00059686229 1.4114465e-38
-0.0083696637 -0.13561879 0.0036274008 1.5773273e-38
-0.0064811762 -0.13399105 0.0096362643 1.6048064e-38
-0.0046611689 -0.13399105 0.0096362643 1.6322493e-38
-0.002817031 -0.13292582 0.013568502 1.493596e-38
-0.0010039192 -0.13292582 0.013568502 8.7552525e-39
0.011332327 -0.120719 0.058630448 1.1514266e-38
0.013066432 -0.120719 0.058630448 1.2712109e-38
0.014800535 -0.120719 0.058630448 1.2803248e-38
0.016534638 -0.120719 0.058630448 1.197385e-38
0.018268742 -0.120719 0.058630448 1.1976353e-38
0.020002846 -0.120719 0.058630448 1.0226064e-38
-0.024031049 -0.14835624 -0.036376972 8.2950605e-39
-0.022130361 -0.14835624 -0.036376972 8.9411306e-39
-0.020143295 -0.1472816 -0.032435436 9.4035297e-39
-0.018108374 -0.14537306 -0.025435228 1.106555e-38
-0.016116252 -0.14373477 -0.019426364 1.3741367e-38
-0.014127763 -0.14181106 -0.012370605 1.5034617e-38
-0.012224531 -0.14099441 -0.0093752332 1.4851304e-38
-0.010332024 -0.14018236 -0.0063967891 1.4205945e-38
-0.0083696637 -0.13744931 0.0036274008 1.5588882e-38
-0.0065100659 -0.13662781 0.0066405348 1.5863675e-38
-0.0046611689 -0.13581105 0.0096362643 1.6598363e-38
-0.002817031 -0.13473894 0.013568502 1.5304023e-38
-0.0010039192 -0.13473894 0.013568502 9.1233134e-39
0.011356088 -0.12327419 0.055618923 1.5938939e-38
0.013066432 -0.12245311 0.058630448 1.8427522e-38
0.014800535 -0.12245311 0.058630448 1.8703055e-38
0.016534638 -0.12245311 0.058630448 1.7320482e-38
0.018268742 -0.12245311 0.058630448 1.5847497e-38
0.020002846 -0.12245311 0.058630448 1.1423175e-38
0.021792391 -0.12327419 0.055618923 1.1608272e-38
-0.020143295 -0.14917539 -0.032435436 8.3897491e-39
-0.018108374 -0.14725454 -0.025435228 1.060422e-38
-0.016116252 -0.14560573 -0.019426364 1.3187841e-38
-0.014127763 -0.14366965 -0.012370605 1.4388175e-38
-0.012224531 -0.14284773 -0.0093752332 1.4113386e-38
-0.010200208 -0.13927986 0.0036274008 1.4298143e-38
-0.008335324 -0.13845308 0.0066405348 1.5772559e-38
-0.0065100659 -0.13845308 0.0066405348 1.5862603e-38
-0.0046611689 -0.13763104 0.0096362643 1.6229584e-38
-0.0027982444 -0.13571201 0.016629916 1.5118554e-38
-0.00099050067 -0.13571201 0.016629916 9.1222344e-39
0.00081724487 -0.13571201 0.016629916 9.9498287e-39
0.011356088 -0.12501357 0.055618923 1.6306282e-38
0.013095472 -0.12501357 0.055618923 1.9532074e-38
0.014834856 -0.12501357 0.055618923 2.0176751e-38
0.016534638 -0.12418722 0.058630448 1.8886739e-38
0.018268742 -0.12418722 0.058630448 1.8335349e-38
0.020002846 -0.12418722 0.058630448 1.2160744e-38
0.021792391 -0.12501357 0.055618923 1.1700115e-38
-0.017987216 -0.14747669 -0.019426364 9.3131291e-39
-0.016116252 -0.14747669 -0.019426364 1.1620162e-38
-0.014127763 -0.14552824 -0.012370605 1.355842e-38
-0.012224531 -0.14470108 -0.0093752332 1.4297424e-38
-0.010200208 -0.14111041 0.0036274008 1.4205233e-38
-0.008335324 -0.14027832 0.0066405348 1.5956597e-38
-0.0064811762 -0.13945107 0.0096362643 1.6046996e-38
-0.0046301428 -0.13836516 0.013568502 1.6043759e-38
-0.0027982444 -0.13751976 0.016629916 1.4749056e-38
-0.00097761862 -0.13670824 0.019568544 9.0300416e-39
0.00084084272 -0.13504194 0.02560268 1.0133141e-38
0.0026328545 -0.13504194 0.02560268 1.1975612e-38
0.0096352976 -0.12758966 0.05258904 1.2804268e-38
0.011356088 -0.12675296 0.055618923 1.5475446e-38
0.013095472 -0.12675296 0.055618923 1.8609043e-38
0.014834856 -0.12675296 0.055618923 1.9807256e-38
0.016534638 -0.12592132 0.058630448 1.9071134e-38
0.018268742 -0.12592132 0.058630448 1.6214853e-38
0.020053007 -0.12675296 0.055618923 1.1606498e-38
0.021792391 -0.12675296 0.055618923 1.0778161e-38
-0.017987216 -0.14934768 -0.019426364 7.9298443e-39
-0.016116252 -0.14934768 -0.019426364 9.0383331e-39
-0.014127763 -0.14738683 -0.012370605 1.1160982e-38
-0.012224531 -0.14655443 -0.0093752332 1.2914494e-38
-0.010200208 -0.14294095 0.0036274008 1.2637554e-38
-0.0083011817 -0.14127107 0.0096362643 1.5126482e-38
-0.0064811762 -0.14127107 0.0096362643 1.567714e-38
-0.0046301428 -0.14017828 0.013568502 1.5490588e-38
-0.0027982444 -0.13932751 0.016629916 1.4472472e-38
-0.00097761862 -0.13851084 0.019568544 9.4903037e-39
0.00084084272 -0.13683395 0.02560268 1.0593402e-38
0.0026328545 -0.13683395 0.02560268 1.1882697e-38
0.0078906026 -0.12933435 0.05258904 1.169792e-38
0.0096352976 -0.12933435 0.05258904 1.1789397e-38
0.011356088 -0.12849234 0.055618923 1.3447142e-38
0.013095472 -0.12849234 0.055618923 1.5566232e-38
0.014834856 -0.12849234 0.055618923 1.6395663e-38
0.016534638 -0.12765543 0.058630448 1.6119442e-38
0.018268742 -0.12765543 0.058630448 1.2710347e-38
0.020053007 -0.12849234 0.055618923 1.1237717e-38
0.021792391 -0.12849234 0.055618923 1.0224632e-38
-0.014127763 -0.14924543 -0.012370605 7.6568433e-39
-0.012269171 -0.14924543 -0.012370605 9.962453e-39
-0.010200208 -0.1447715 0.0036274008 1.0516347e-38
-0.0082563665 -0.14199139 0.013568502 1.3742474e-38
-0.0064432565 -0.14199139 0.013568502 1.4662266e-38
-0.0046301428 -0.14199139 0.013568502 1.4843775e-38
-0.0027982444 -0.14113526 0.016629916 1.4102963e-38
-0.00097761862 -0.14031343 0.019568544 9.673969e-39
0.00083293207 -0.13946722 0.022594433 1.06856e-38
0.002630217 -0.13946722 0.022594433 1.1697951e-38
0.0044275057 -0.13946722 0.022594433 1.1789434e-38
0.0078906026 -0.13107903 0.05258904 1.1697566e-38
0.0096167047 -0.13023172 0.055618923 1.1604651e-38
0.011356088 -0.13023172 0.055618923 1.21564e-38
0.013095472 -0.13023172 0.055618923 1.2708519e-38
0.014834856 -0.13023172 0.055618923 1.2616347e-38
0.016574241 -0.13023172 0.055618923 1.1879871e-38
0.018313624 -0.13023172 0.055618923 1.1051179e-38
0.020053007 -0.13023172 0.055618923 1.2342984e-38
0.021792391 -0.13023172 0.055618923 1.0869638e-38
-0.010121187 -0.14491107 0.0096362643 1.0053229e-38
-0.0082563665 -0.14380451 0.013568502 1.3556289e-38
-0.0064432565 -0.14380451 0.013568502 1.4384592e-38
-0.004605988 -0.14294298 0.016629916 1.4659367e-38
-0.0027982444 -0.14294298 0.016629916 1.3365383e-38
-0.00097761862 -0.14211603 0.019568544 1.1148732e-38
0.00083293207 -0.14126451 0.022594433 1.1974904e-38
0.002630217 -0.14126451 0.022594433 1.2157864e-38
0.0061459057 -0.13282375 0.05258904 1.1603969e-38
0.0078906026 -0.13282375 0.05258904 1.178906e-38
0.0096167047 -0.13197111 0.055618923 1.2065995e-38
0.011356088 -0.13197111 0.055618923 1.1420626e-38
0.013095472 -0.13197111 0.055618923 1.1881252e-38
0.014834856 -0.13197111 0.055618923 1.2527002e-38
0.016574241 -0.13197111 0.055618923 1.1789445e-38
0.018313624 -0.13197111 0.055618923 1.1974555e-38
0.020053007 -0.13197111 0.055618923 9.9466057e-39
0.021792391 -0.13197111 0.055618923 1.1146575e-38
0.033875674 -0.13112362 0.058630448 1.18827e-38
0.035609782 -0.13112362 0.058630448 1.1052596e-38
-0.010121187 -0.14673109 0.0096362643 9.0376492e-39
-0.0082563665 -0.14561762 0.013568502 1.1895696e-38
-0.0064432565 -0.14561762 0.013568502 1.3646664e-38
-0.004605988 -0.14475073 0.016629916 1.5304371e-38
-0.0027982444 -0.14475073 0.016629916 1.4379169e-38
-0.00097761862 -0.14391862 0.019568544 1.1241284e-38
0.00082497299 -0.14391862 0.019568544 1.1329537e-38
0.0026275646 -0.14391862 0.019568544 1.2065316e-38
0.0061617289 -0.13627206 0.046572667 1.2341182e-38
0.0078906026 -0.13456844 0.05258904 1.2527352e-38
0.0096167047 -0.13371049 0.055618923 1.2619895e-38
0.011356088 -0.13371049 0.055618923 1.2067072e-38
0.013095472 -0.13371049 0.055618923 1.2620967e-38
0.014834856 -0.13371049 0.055618923 1.3450026e-38
0.016574241 -0.13371049 0.055618923 1.28965e-38
0.018313624 -0.13371049 0.055618923 1.1697604e-38
0.020053007 -0.13371049 0.055618923 1.2067105e-38
0.021792391 -0.13371049 0.055618923 1.1422083e-38
0.033875674 -0.13285773 0.058630448 1.0501558e-38
0.035609782 -0.13285773 0.058630448 1.1790513e-38
-0.010121187 -0.14855109 0.0096362643 6.5490931e-39
-0.0083011817 -0.14855109 0.0096362643 8.5770172e-39
-0.0064811762 -0.14855109 0.0096362643 1.0972999e-38
-0.0046301428 -0.14743073 0.013568502 1.4198389e-38
-0.002817031 -0.14743073 0.013568502 1.4379535e-38
-0.0010039192 -0.14743073 0.013568502 1.1241646e-38
0.00080919266 -0.14743073 0.013568502 1.0961837e-38
0.0061617289 -0.1380273 0.046572667 1.1974558e-38
0.0078906026 -0.13631313 0.05258904 1.2435516e-38
0.0096167047 -0.13544987 0.055618923 1.2344027e-38
0.011332327 -0.13459183 0.058630448 1.1975598e-38
0.013066432 -0.13459183 0.058630448 1.2712809e-38
0.014834856 -0.13544987 0.055618923 1.3357475e-38
0.016574241 -0.13544987 0.055618923 1.2803953e-38
0.018313624 -0.13544987 0.055618923 1.1881643e-38
0.020053007 -0.13544987 0.055618923 1.4462402e-38
0.021792391 -0.13544987 0.055618923 1.2250415e-38
0.023531776 -0.13544987 0.055618923 1.2342605e-38
0.025271159 -0.13544987 0.055618923 1.3079449e-38
0.027010543 -0.13544987 0.055618923 1.4369835e-38
0.028749926 -0.13544987 0.055618923 1.4369486e-38
0.030407468 -0.13459183 0.058630448 1.1235908e-38
0.03214157 -0.13459183 0.058630448 1.1330242e-38
0.033875674 -0.13459183 0.058630448 1.1331318e-38
-0.002817031 -0.14924385 0.013568502 1.2812576e-38
-0.0010039192 -0.14924385 0.013568502 1.1334567e-38
0.0061695818 -0.14063846 0.043586951 1.1791243e-38
0.0078906026 -0.13805781 0.05258904 1.1976335e-38
0.0096167047 -0.13718925 0.055618923 1.1975963e-38
0.011269415 -0.1340401 0.066604182 1.1883765e-38
0.012989538 -0.1340401 0.066604182 1.2344391e-38
0.014834856 -0.13718925 0.055618923 1.2527362e-38
0.016574241 -0.13718925 0.055618923 1.2065316e-38
0.018268742 -0.13632594 0.058630448 1.4001072e-38
0.020002846 -0.13632594 0.058630448 2.073063e-38
0.02173695 -0.13632594 0.058630448 2.2390503e-38
0.023471054 -0.13632594 0.058630448 1.6858401e-38
0.025271159 -0.13718925 0.055618923 1.3908138e-38
0.027010543 -0.13718925 0.055618923 1.2155346e-38
0.028673364 -0.13632594 0.058630448 1.3353182e-38
0.030407468 -0.13632594 0.058630448 1.344753e-38
0.03214157 -0.13632594 0.058630448 1.0869264e-38
0.033875674 -0.13632594 0.058630448 1.2161082e-38
0.035707459 -0.13718925 0.055618923 1.4648225e-38
0.011269415 -0.13576023 0.066604182 1.2436941e-38
0.012989538 -0.13576023 0.066604182 1.243659e-38
0.014834856 -0.13892864 0.055618923 1.2342975e-38
0.016574241 -0.13892864 0.055618923 1.2434102e-38
0.018268742 -0.13806005 0.058630448 1.4553173e-38
0.020002846 -0.13806005 0.058630448 2.2112495e-38
0.02173695 -0.13806005 0.058630448 2.3507304e-38
0.023471054 -0.13806005 0.058630448 1.6396348e-38
0.025205156 -0.13806005 0.058630448 1.418365e-38
0.027010543 -0.13892864 0.055618923 1.2891839e-38
0.028621763 -0.13747464 0.060660105 1.2983683e-38
0.030352307 -0.13747464 0.060660105 1.2524858e-38
0.03214157 -0.13806005 0.058630448 1.0868548e-38
0.033875674 -0.13806005 0.058630448 1.4281581e-38
0.035707459 -0.13892864 0.055618923 1.6399948e-38
0.011269415 -0.13748036 0.066604182 1.2160355e-38
0.012989538 -0.13748036 0.066604182 1.1974893e-38
0.014709661 -0.13748036 0.066604182 1.2434451e-38
0.016534638 -0.13979416 0.058630448 1.4092548e-38
0.018268742 -0.13979416 0.058630448 1.6764794e-38
0.020002846 -0.13979416 0.058630448 2.1928106e-38
0.02173695 -0.13979416 0.058630448 2.3504067e-38
0.023471054 -0.13979416 0.058630448 1.2708167e-38
0.025205156 -0.13979416 0.058630448 1.1970958e-38
0.026891218 -0.13920517 0.060660105 1.3353536e-38
0.028621763 -0.13920517 0.060660105 1.289149e-38
0.030352307 -0.13920517 0.060660105 1.1141923e-38
0.032082852 -0.13920517 0.060660105 1.18827e-38
0.033875674 -0.13979416 0.058630448 1.7784659e-38
0.035707459 -0.14066802 0.055618923 1.9534245e-38
0.016574241 -0.1424074 0.055618923 1.7318676e-38
0.018268742 -0.14152823 0.058630448 1.9622859e-38
0.020002846 -0.14152823 0.058630448 2.2850062e-38
0.02173695 -0.14152823 0.058630448 2.3499024e-38
0.023471054 -0.14152823 0.058630448 1.4368767e-38
0.025205156 -0.14152823 0.058630448 1.1234113e-38
0.026891218 -0.14093573 0.060660105 1.1510703e-38
0.028621763 -0.14093573 0.060660105 1.215572e-38
0.030352307 -0.14093573 0.060660105 1.353937e-38
0.032082852 -0.14093573 0.060660105 1.1882343e-38
0.016574241 -0.14414679 0.055618923 2.0822107e-38
0.018268742 -0.14326234 0.058630448 1.7041736e-38
0.020002846 -0.14326234 0.058630448 1.5658801e-38
0.02173695 -0.14326234 0.058630448 1.4276935e-38
0.023471054 -0.14326234 0.058630448 1.3355331e-38
0.025205156 -0.14326234 0.058630448 1.3079819e-38
0.026891218 -0.14266627 0.060660105 1.2526647e-38
0.028621763 -0.14266627 0.060660105 1.1420668e-38
0.030352307 -0.14266627 0.060660105 1.2711404e-38
0.032082852 -0.14266627 0.060660105 1.1883064e-38
0.018268742 -0.14499645 0.058630448 1.6027934e-38
0.020002846 -0.14499645 0.058630448 1.3631567e-38
0.02173695 -0.14499645 0.058630448 1.3172016e-38
0.023471054 -0.14499645 0.058630448 1.4279435e-38
0.025205156 -0.14499645 0.058630448 1.3726977e-38
