# .PCD v0.7 - Point Cloud Data file format
VERSION 0.7
FIELDS x y z rgb
SIZE 4 4 4 4
TYPE F F F F
COUNT 1 1 1 1
WIDTH 927
HEIGHT 1
VIEWPOINT 0 0 0 1 0 0 0
POINTS 927
DATA ascii
0.0038764104 -0.087528646 -0.027831435 1.7622942e-38
0.005792141 -0.086871609 -0.02489233 1.614817e-38
0.007699728 -0.086194143 -0.021861792 1.5594641e-38
0.0096619651 -0.084850863 -0.015852928 1.6424405e-38
0.011682238 -0.0826305 -0.0059206486 1.6975781e-38
0.01359592 -0.081281558 0.00011348724 1.6605568e-38
0.015437745 -0.080613017 0.0031040907 1.7432102e-38
0.017224513 -0.080613017 0.0031040907 1.8996921e-38
-0.019039445 -0.093218774 -0.044915557 1.7888484e-38
-0.016980611 -0.092307791 -0.040872216 2.2591172e-38
-0.014982052 -0.091629088 -0.037859797 2.2499695e-38
-0.01312346 -0.091629088 -0.037859797 2.0194839e-38
-0.011264868 -0.091629088 -0.037859797 1.9365086e-38
-0.0092881061 -0.090954214 -0.034864426 1.936544e-38
-0.0073224902 -0.090283155 -0.031885982 2.0565409e-38
-0.0053286366 -0.089369655 -0.027831435 1.7985349e-38
-0.0033871382 -0.088707477 -0.02489233 1.4854267e-38
-0.0015512854 -0.088707477 -0.02489233 1.4580529e-38
0.0002845712 -0.088707477 -0.02489233 1.4399349e-38
0.0021204278 -0.088707477 -0.02489233 1.5875184e-38
0.0039562806 -0.088707477 -0.02489233 1.7900607e-38
0.0058691874 -0.088024676 -0.021861792 1.6056699e-38
0.0080770552 -0.084433094 -0.0059206486 1.4489031e-38
0.0098796487 -0.084433094 -0.0059206486 1.6609535e-38
0.011743251 -0.083751351 -0.0028947592 1.7622965e-38
0.01359592 -0.083073571 0.00011348724 1.6790333e-38
0.015437745 -0.082399786 0.0031040907 1.807677e-38
0.017224513 -0.082399786 0.0031040907 1.9271361e-38
-0.018844485 -0.094171658 -0.040872216 1.3372685e-38
-0.016980611 -0.094171658 -0.040872216 1.6969408e-38
-0.014982052 -0.09348768 -0.037859797 1.7799537e-38
-0.012994789 -0.092807561 -0.034864426 1.7153093e-38
-0.011141442 -0.092807561 -0.034864426 1.2542947e-38
-0.0091706067 -0.092131287 -0.031885982 1.1620619e-38
-0.0071696453 -0.091210663 -0.027831435 1.770623e-38
-0.0052229948 -0.09054333 -0.02489233 2.084338e-38
-0.0033871382 -0.09054333 -0.02489233 1.7250965e-38
-0.0014529824 -0.089855224 -0.021861792 1.5133683e-38
0.00047001243 -0.089171067 -0.018848658 1.4584089e-38
0.0022952706 -0.089171067 -0.018848658 1.4400406e-38
0.0042019449 -0.088490874 -0.015852928 1.5688984e-38
0.0061997548 -0.086902916 -0.0088592768 1.6517321e-38
0.0081486776 -0.085548624 -0.0028947592 1.6425153e-38
0.010011896 -0.084865585 0.00011348724 1.587163e-38
0.011803906 -0.084865585 0.00011348724 1.5226614e-38
0.01359592 -0.084865585 0.00011348724 1.5499971e-38
0.015437745 -0.084186554 0.0031040907 1.4849218e-38
0.017224513 -0.084186554 0.0031040907 1.2540011e-38
-0.020910405 -0.096960694 -0.044915557 1.3189685e-38
-0.018844485 -0.09603554 -0.040872216 1.236281e-38
-0.016980611 -0.09603554 -0.040872216 1.3193298e-38
-0.014982052 -0.095346272 -0.037859797 1.3008556e-38
-0.012994789 -0.094660893 -0.034864426 1.3192587e-38
-0.011018731 -0.093979403 -0.031885982 1.0609309e-38
-0.0090106539 -0.093051672 -0.027831435 1.2268822e-38
-0.0070588514 -0.092379183 -0.02489233 1.7063342e-38
-0.0051140673 -0.091685757 -0.021861792 2.0291615e-38
-0.0031805076 -0.090996325 -0.018848658 1.9463995e-38
-0.0013552494 -0.090996325 -0.018848658 1.5963427e-38
0.00056193024 -0.090310872 -0.015852928 1.4306412e-38
0.0023819357 -0.090310872 -0.015852928 1.6889322e-38
0.0043920055 -0.088710666 -0.0088592768 1.7532531e-38
0.0062744617 -0.088038266 -0.0059206486 1.6977579e-38
0.0082198828 -0.086657599 0.00011348724 1.7069455e-38
0.010011896 -0.086657599 0.00011348724 1.5502147e-38
0.011803906 -0.086657599 0.00011348724 1.3197254e-38
0.013650976 -0.085973322 0.0031040907 1.2734118e-38
0.015437745 -0.085973322 0.0031040907 1.1715297e-38
0.017224513 -0.085973322 0.0031040907 1.0235485e-38
-0.026523292 -0.098831654 -0.044915557 1.0881544e-38
-0.024652325 -0.098831654 -0.044915557 1.7061151e-38
-0.022572227 -0.097899407 -0.040872216 1.7063312e-38
-0.02070836 -0.097899407 -0.040872216 1.5405592e-38
-0.018844485 -0.097899407 -0.040872216 1.5038969e-38
-0.016840644 -0.097204864 -0.037859797 1.3012107e-38
-0.014848128 -0.09651424 -0.034864426 1.1168197e-38
-0.012866847 -0.09582752 -0.031885982 1.1536261e-38
-0.010730565 -0.094215035 -0.02489233 1.5775818e-38
-0.008894708 -0.094215035 -0.02489233 1.9093419e-38
-0.0069446117 -0.093516305 -0.021861792 1.9739143e-38
-0.0050057657 -0.092821583 -0.018848658 1.9001929e-38
-0.0030780844 -0.092130885 -0.015852928 1.8727135e-38
-0.0011305287 -0.091224253 -0.011920691 1.6608429e-38
0.00077651814 -0.0905184 -0.0088592768 1.6057048e-38
0.0025842637 -0.0905184 -0.0088592768 1.9836348e-38
0.0044718683 -0.089840859 -0.0059206486 1.7438895e-38
0.006351389 -0.089143202 -0.0028947592 1.4486499e-38
0.0082198828 -0.088449612 0.00011348724 1.3195094e-38
0.010011896 -0.088449612 0.00011348724 1.0245218e-38
0.011803906 -0.088449612 0.00011348724 6.9265328e-39
0.013650976 -0.087760091 0.0031040907 6.7406968e-39
0.015437745 -0.087760091 0.0031040907 7.7505328e-39
-0.026685633 -0.10138547 -0.0478549 1.1805292e-38
-0.024652325 -0.10070263 -0.044915557 1.6694881e-38
-0.022572227 -0.099763289 -0.040872216 1.6696317e-38
-0.02070836 -0.099763289 -0.040872216 1.5223701e-38
-0.018844485 -0.099763289 -0.040872216 1.577903e-38
-0.016840644 -0.099063456 -0.037859797 1.3475217e-38
-0.014848128 -0.098367572 -0.034864426 1.2277029e-38
-0.012866847 -0.097675636 -0.031885982 1.3382295e-38
-0.010730565 -0.096050888 -0.02489233 1.7529659e-38
-0.008894708 -0.096050888 -0.02489233 1.6975767e-38
-0.0068310238 -0.094646841 -0.018848658 1.7711893e-38
-0.0047567524 -0.093037367 -0.011920691 1.7895928e-38
-0.0028389692 -0.092326149 -0.0088592768 1.6238205e-38
-0.00093590468 -0.091643453 -0.0059206486 1.6515154e-38
0.00086668506 -0.091643453 -0.0059206486 1.7991363e-38
0.0026692785 -0.091643453 -0.0059206486 1.7899521e-38
0.0045541041 -0.09094049 -0.0028947592 1.9187372e-38
0.006351389 -0.09094049 -0.0028947592 1.7434601e-38
0.0082198828 -0.090241626 0.00011348724 1.5128338e-38
0.010011896 -0.090241626 0.00011348724 1.0795535e-38
0.011803906 -0.090241626 0.00011348724 7.0162271e-39
0.013650976 -0.089546859 0.0031040907 7.1073354e-39
0.015437745 -0.089546859 0.0031040907 8.7643288e-39
-0.030853413 -0.1049176 -0.054929733 1.143152e-38
-0.028736658 -0.10398008 -0.05092442 1.2354901e-38
-0.026685633 -0.1032616 -0.0478549 1.1713097e-38
-0.024652325 -0.10257359 -0.044915557 1.4850965e-38
-0.022781365 -0.10257359 -0.044915557 1.4576174e-38
-0.02070836 -0.10162716 -0.040872216 1.3656371e-38
-0.018844485 -0.10162716 -0.040872216 1.5594627e-38
-0.016840644 -0.10092205 -0.037859797 1.4305682e-38
-0.014848128 -0.10022092 -0.034864426 1.4766658e-38
-0.012566417 -0.097886756 -0.02489233 1.5781165e-38
-0.0106057 -0.097177386 -0.021861792 1.5594976e-38
-0.0086562857 -0.096472099 -0.018848658 1.3012423e-38
-0.0067180954 -0.095770895 -0.015852928 1.2457815e-38
-0.0046467148 -0.094133899 -0.0088592768 1.6237483e-38
-0.0027384982 -0.093446046 -0.0059206486 1.8265435e-38
-0.00083775818 -0.092737779 -0.0028947592 1.7804823e-38
0.00095953047 -0.092737779 -0.0028947592 1.8266522e-38
0.0027568191 -0.092737779 -0.0028947592 1.8449826e-38
0.0045541041 -0.092737779 -0.0028947592 2.0198647e-38
0.006351389 -0.092737779 -0.0028947592 2.0565297e-38
0.0082198828 -0.09203364 0.00011348724 1.8996607e-38
0.010011896 -0.09203364 0.00011348724 1.7522227e-38
0.011743251 -0.092737779 -0.0028947592 1.3651438e-38
-0.030618154 -0.10586159 -0.05092442 1.1062734e-38
-0.028561749 -0.10513772 -0.0478549 1.2078314e-38
-0.026523292 -0.10444455 -0.044915557 1.1803856e-38
-0.024652325 -0.10444455 -0.044915557 1.3373323e-38
-0.022572227 -0.10349102 -0.040872216 1.3098532e-38
-0.02070836 -0.10349102 -0.040872216 1.2640065e-38
-0.018699236 -0.10278064 -0.037859797 1.5224053e-38
-0.016840644 -0.10278064 -0.037859797 1.4857062e-38
-0.014848128 -0.10207425 -0.034864426 1.6056322e-38
-0.012566417 -0.099722609 -0.02489233 1.6148517e-38
-0.010481544 -0.098297372 -0.018848658 1.5502429e-38
-0.0085381046 -0.097590908 -0.015852928 1.3012071e-38
-0.0064544603 -0.095941633 -0.0088592768 1.1260003e-38
-0.0045410916 -0.09524864 -0.0059206486 1.6421888e-38
-0.0026350431 -0.094535068 -0.0028947592 2.0201197e-38
-0.00083775818 -0.094535068 -0.0028947592 1.7711562e-38
0.001051832 -0.093825653 0.00011348724 1.6789973e-38
0.0028438456 -0.093825653 0.00011348724 1.8631353e-38
0.0046358556 -0.093825653 0.00011348724 2.0009582e-38
0.0064278692 -0.093825653 0.00011348724 2.3049184e-38
0.0081486776 -0.094535068 -0.0028947592 2.2310977e-38
0.0099459663 -0.094535068 -0.0028947592 2.323402e-38
0.011743251 -0.094535068 -0.0028947592 2.0931292e-38
-0.032741942 -0.10869466 -0.054929733 1.1431873e-38
-0.030618154 -0.10774307 -0.05092442 1.0970895e-38
-0.028561749 -0.10701384 -0.0478549 1.2261982e-38
-0.026523292 -0.10631551 -0.044915557 1.3461579e-38
-0.024652325 -0.10631551 -0.044915557 1.3647754e-38
-0.022572227 -0.10535492 -0.040872216 1.281871e-38
-0.02070836 -0.10535492 -0.040872216 1.1806712e-38
-0.018699236 -0.10463922 -0.037859797 1.4206312e-38
-0.016701467 -0.1039276 -0.034864426 1.4116632e-38
-0.014714964 -0.10322 -0.031885982 1.5869066e-38
-0.012436233 -0.10083848 -0.021861792 1.4948908e-38
-0.010481544 -0.10012263 -0.018848658 1.5041105e-38
-0.0083829761 -0.098476708 -0.011920691 1.0707554e-38
-0.0063436814 -0.097051233 -0.0059206486 1.1720275e-38
-0.0044323318 -0.096332356 -0.0028947592 1.6975432e-38
-0.0026350431 -0.096332356 -0.0028947592 1.5868014e-38
-0.00074017793 -0.095617667 0.00011348724 1.291704e-38
0.001051832 -0.095617667 0.00011348724 1.3745367e-38
0.0028438456 -0.095617667 0.00011348724 1.2636126e-38
0.0047171339 -0.094907165 0.0031040907 1.7147563e-38
0.0065039024 -0.094907165 0.0031040907 2.3508728e-38
0.0081486776 -0.096332356 -0.0028947592 2.3505924e-38
0.0099459663 -0.096332356 -0.0028947592 2.3508092e-38
0.011682238 -0.097051233 -0.0059206486 2.2771233e-38
-0.034630455 -0.11058317 -0.054929733 1.1247479e-38
-0.032741942 -0.11058317 -0.054929733 1.1339674e-38
-0.030618154 -0.10962458 -0.05092442 1.0694305e-38
-0.028561749 -0.10888995 -0.0478549 1.161625e-38
-0.026523292 -0.10818647 -0.044915557 1.3643447e-38
-0.024436109 -0.10721879 -0.040872216 1.419697e-38
-0.022572227 -0.10721879 -0.040872216 1.3460123e-38
-0.020557828 -0.10649781 -0.037859797 1.3554477e-38
-0.018699236 -0.10649781 -0.037859797 1.3187852e-38
-0.016701467 -0.10578094 -0.034864426 1.4942088e-38
-0.014402278 -0.10339431 -0.02489233 1.4759857e-38
-0.012306802 -0.10194789 -0.018848658 1.4669103e-38
-0.01019609 -0.10028981 -0.011920691 1.3748229e-38
-0.0082622021 -0.099557132 -0.0088592768 1.2089788e-38
-0.0062296167 -0.098129645 -0.0028947592 1.255041e-38
-0.0043242052 -0.09740968 0.00011348724 1.4762029e-38
-0.0025321916 -0.09740968 0.00011348724 1.4208139e-38
-0.0006431751 -0.096693933 0.0031040907 1.3376942e-38
0.0012348182 -0.095982388 0.0060771704 1.263866e-38
0.003016375 -0.095982388 0.0060771704 1.0144686e-38
0.0047979318 -0.095982388 0.0060771704 1.2994807e-38
0.0065794885 -0.095982388 0.0060771704 2.2855081e-38
-0.034630455 -0.11247168 -0.054929733 1.0141131e-38
-0.032741942 -0.11247168 -0.054929733 1.1063087e-38
-0.030618154 -0.11150609 -0.05092442 1.1708457e-38
-0.028561749 -0.11076607 -0.0478549 1.3366885e-38
-0.026523292 -0.11005743 -0.044915557 1.391859e-38
-0.024436109 -0.10908265 -0.040872216 1.4378834e-38
-0.022572227 -0.10908265 -0.040872216 1.3919298e-38
-0.020557828 -0.1083564 -0.037859797 1.5304035e-38
-0.018699236 -0.1083564 -0.037859797 1.5397674e-38
-0.016701467 -0.10763429 -0.034864426 1.5953727e-38
-0.014402278 -0.10523017 -0.02489233 1.4297087e-38
-0.012178116 -0.10305093 -0.015852928 1.3469488e-38
-0.010069944 -0.10136487 -0.0088592768 1.4393247e-38
-0.0080269016 -0.099926919 -0.0028947592 1.1536264e-38
-0.0061162151 -0.099201679 0.00011348724 9.9689382e-39
-0.004216712 -0.098480701 0.0031040907 1.1074207e-38
-0.0023282915 -0.097763941 0.0060771704 1.1073128e-38
-0.00054673851 -0.097763941 0.0060771704 1.1163525e-38
0.0013286322 -0.09702684 0.0091346502 1.1162086e-38
0.0031048283 -0.09702684 0.0091346502 8.8525055e-39
0.0047979318 -0.097763941 0.0060771704 9.3963032e-39
0.0065794885 -0.097763941 0.0060771704 1.8887792e-38
-0.034381159 -0.11338757 -0.05092442 1.0048935e-38
-0.032499664 -0.11338757 -0.05092442 1.1247479e-38
-0.030618154 -0.11338757 -0.05092442 1.1800652e-38
-0.028561749 -0.11264218 -0.0478549 1.3182851e-38
-0.026523292 -0.11192839 -0.044915557 1.4102613e-38
-0.024436109 -0.11094652 -0.040872216 1.4286271e-38
-0.022572227 -0.11094652 -0.040872216 1.3456874e-38
-0.020557828 -0.11021499 -0.037859797 1.4473188e-38
-0.018554807 -0.10948761 -0.034864426 1.539623e-38
-0.01656308 -0.10876434 -0.031885982 1.733558e-38
-0.014402278 -0.10706602 -0.02489233 1.6323951e-38
-0.012178116 -0.10487093 -0.015852928 1.5036092e-38
-0.010069944 -0.10317262 -0.0088592768 1.5038972e-38
-0.0080269016 -0.10172421 -0.0028947592 1.1536977e-38
-0.0061162151 -0.10099369 0.00011348724 8.6789126e-39
-0.004216712 -0.10026747 0.0031040907 9.2306445e-39
-0.0023282915 -0.099545494 0.0060771704 1.0058247e-38
-0.00044756383 -0.098803028 0.0091346502 1.0978044e-38
0.0013286322 -0.098803028 0.0091346502 1.0976602e-38
0.0031048283 -0.098803028 0.0091346502 8.6659492e-39
0.0047979318 -0.099545494 0.0060771704 1.0593048e-38
0.0065794885 -0.099545494 0.0060771704 1.7503419e-38
-0.034381159 -0.11526908 -0.05092442 1.1155286e-38
-0.032499664 -0.11526908 -0.05092442 1.2077239e-38
-0.030618154 -0.11526908 -0.05092442 1.1524066e-38
-0.028561749 -0.1145183 -0.0478549 1.1892112e-38
-0.026523292 -0.11379938 -0.044915557 1.2628203e-38
-0.024652325 -0.11379938 -0.044915557 1.3642337e-38
-0.022572227 -0.11281042 -0.040872216 1.2444517e-38
-0.020557828 -0.11207359 -0.037859797 1.2629272e-38
-0.018554807 -0.11134095 -0.034864426 1.4014012e-38
-0.016238131 -0.10890187 -0.02489233 1.807314e-38
-0.014266782 -0.10816063 -0.021861792 1.8261136e-38
-0.012178116 -0.10669093 -0.015852928 1.7065114e-38
-0.009948872 -0.10426159 -0.0059206486 1.4302482e-38
-0.0079082288 -0.10278571 0.00011348724 1.1629527e-38
-0.0060034804 -0.10205424 0.0031040907 8.955854e-39
-0.0041098483 -0.10132705 0.0060771704 9.5075859e-39
-0.0023282915 -0.10132705 0.0060771704 1.0703249e-38
-0.00044756383 -0.10057923 0.0091346502 1.1622325e-38
0.0013286322 -0.10057923 0.0091346502 1.1435056e-38
0.0031048283 -0.10057923 0.0091346502 9.1258413e-39
0.0047979318 -0.10132705 0.0060771704 1.0777443e-38
0.0065794885 -0.10132705 0.0060771704 1.4921941e-38
-0.034630455 -0.11813726 -0.054929733 1.1616264e-38
-0.032741942 -0.11813726 -0.054929733 1.1892851e-38
-0.030618154 -0.11715056 -0.05092442 1.1247481e-38
-0.028561749 -0.11639442 -0.0478549 1.2169421e-38
-0.026685633 -0.11639442 -0.0478549 1.10634e-38
-0.024652325 -0.11567034 -0.044915557 1.2078257e-38
-0.022572227 -0.11467429 -0.040872216 1.1893865e-38
-0.020557828 -0.11393218 -0.037859797 1.2816904e-38
-0.018411197 -0.11246057 -0.031885982 1.3279321e-38
-0.016238131 -0.11073773 -0.02489233 1.5955155e-38
-0.014266782 -0.10999118 -0.021861792 1.6142067e-38
-0.012009196 -0.10754226 -0.011920691 1.5776523e-38
-0.009948872 -0.10606419 -0.0059206486 1.3381595e-38
-0.0079082288 -0.10457774 0.00011348724 1.1262174e-38
-0.0060034804 -0.10384102 0.0031040907 8.8640087e-39
-0.0041098483 -0.1031086 0.0060771704 9.2306332e-39
-0.0022237562 -0.10235542 0.0091346502 1.0056438e-38
-0.0003489852 -0.10160676 0.012173772 1.0237232e-38
0.0014218837 -0.10160676 0.012173772 1.0509863e-38
0.0031048283 -0.10235542 0.0091346502 9.215523e-39
0.0048810244 -0.10235542 0.0091346502 1.0778884e-38
-0.032741942 -0.12002577 -0.054929733 9.9567427e-39
-0.030618154 -0.11903207 -0.05092442 1.0417721e-38
-0.028561749 -0.11827053 -0.0478549 1.2631844e-38
-0.026685633 -0.11827053 -0.0478549 1.1803856e-38
-0.024652325 -0.1175413 -0.044915557 1.1804921e-38
-0.022572227 -0.11653815 -0.040872216 1.1804918e-38
-0.020408146 -0.11504765 -0.034864426 1.3464439e-38
-0.018411197 -0.1143087 -0.031885982 1.2543561e-38
-0.016097322 -0.11182173 -0.021861792 1.2269488e-38
-0.013998128 -0.11033095 -0.015852928 1.2087254e-38
-0.012009196 -0.10935538 -0.011920691 1.3196839e-38
-0.009948872 -0.10786678 -0.0059206486 1.3659256e-38
-0.0077902488 -0.10562779 0.0031040907 1.1816063e-38
-0.005891405 -0.10489015 0.0060771704 9.3249855e-39
-0.0041098483 -0.10489015 0.0060771704 9.1384376e-39
-0.0022237562 -0.10413162 0.0091346502 9.3170779e-39
-0.0003489852 -0.10337763 0.012173772 8.4830041e-39
0.0014218837 -0.10337763 0.012173772 9.2166161e-39
0.0031048283 -0.10413162 0.0091346502 9.5825147e-39
0.0048810244 -0.10413162 0.0091346502 9.6736173e-39
-0.032741942 -0.12191428 -0.054929733 8.8500392e-39
-0.030853413 -0.12191428 -0.054929733 9.7719955e-39
-0.028736658 -0.12091358 -0.05092442 1.198684e-38
-0.026685633 -0.12014665 -0.0478549 1.1898947e-38
-0.024652325 -0.11941226 -0.044915557 1.2362071e-38
-0.02241642 -0.11764936 -0.037859797 1.2637935e-38
-0.020259313 -0.1161568 -0.031885982 1.3191103e-38
-0.018411197 -0.1161568 -0.031885982 1.1348622e-38
-0.015957318 -0.11289944 -0.018848658 1.1349335e-38
-0.013998128 -0.11215095 -0.015852928 1.0983065e-38
-0.011877693 -0.11040358 -0.0088592768 1.18157e-38
-0.009948872 -0.10966937 -0.0059206486 1.3107517e-38
-0.0077902488 -0.10741456 0.0031040907 1.2093365e-38
-0.005891405 -0.10667174 0.0060771704 1.052353e-38
-0.0041098483 -0.10667174 0.0060771704 1.0981278e-38
-0.0022237562 -0.10590781 0.0091346502 1.0607105e-38
-0.0003489852 -0.10514848 0.012173772 8.5730529e-39
0.0014218837 -0.10514848 0.012173772 8.9371663e-39
0.0031048283 -0.10590781 0.0091346502 9.9502294e-39
0.0048810244 -0.10590781 0.0091346502 9.6757823e-39
-0.034630455 -0.12380283 -0.054929733 8.5734523e-39
-0.032741942 -0.12380283 -0.054929733 9.403213e-39
-0.030853413 -0.12380283 -0.054929733 1.0141134e-38
-0.028736658 -0.12279506 -0.05092442 1.1249635e-38
-0.026685633 -0.12202276 -0.0478549 1.0423818e-38
-0.024652325 -0.12128322 -0.044915557 1.3284392e-38
-0.02241642 -0.11950795 -0.037859797 1.4205985e-38
-0.020259313 -0.11800493 -0.031885982 1.3376939e-38
-0.017927863 -0.11548282 -0.021861792 1.1534816e-38
-0.015957318 -0.11472471 -0.018848658 1.29199e-38
-0.013998128 -0.11397095 -0.015852928 1.2091931e-38
-0.011877693 -0.11221133 -0.0088592768 1.0987015e-38
-0.009948872 -0.11147197 -0.0059206486 1.1172485e-38
-0.0079082288 -0.10995375 0.00011348724 1.1171406e-38
-0.005891405 -0.10845329 0.0060771704 1.0984863e-38
-0.0041098483 -0.10845329 0.0060771704 1.2916663e-38
-0.0022237562 -0.107684 0.0091346502 1.263433e-38
-0.0003489852 -0.10691936 0.012173772 9.1262295e-39
0.0014218837 -0.10691936 0.012173772 8.4761896e-39
-0.034630455 -0.12569134 -0.054929733 8.4823357e-39
-0.032741942 -0.12569134 -0.054929733 8.4823329e-39
-0.030853413 -0.12569134 -0.054929733 9.681232e-39
-0.028736658 -0.12467657 -0.05092442 1.1894639e-38
-0.026855163 -0.12467657 -0.05092442 1.1804946e-38
-0.024809517 -0.12389888 -0.0478549 1.3650649e-38
-0.022261493 -0.12060766 -0.034864426 1.5403085e-38
-0.020259313 -0.11985306 -0.031885982 1.4206697e-38
-0.017927863 -0.11731337 -0.021861792 1.2180905e-38
-0.015957318 -0.11654995 -0.018848658 1.1907188e-38
-0.013998128 -0.11579098 -0.015852928 1.2185564e-38
-0.011877693 -0.11401908 -0.0088592768 1.12654e-38
-0.009948872 -0.11327456 -0.0059206486 1.0159407e-38
-0.0079082288 -0.11174576 0.00011348724 1.0987367e-38
-0.0060034804 -0.1109881 0.0031040907 1.2459626e-38
-0.0041098483 -0.11023484 0.0060771704 1.2824817e-38
-0.0023282915 -0.11023484 0.0060771704 1.3188931e-38
-0.0003489852 -0.10869022 0.012173772 9.2202132e-39
0.0014218837 -0.10869022 0.012173772 8.1106356e-39
-0.032741942 -0.12757985 -0.054929733 8.6667241e-39
-0.030853413 -0.12757985 -0.054929733 9.5890363e-39
-0.028964899 -0.12757985 -0.054929733 1.1894276e-38
-0.026855163 -0.12655805 -0.05092442 1.2541065e-38
-0.024809517 -0.12577499 -0.0478549 1.5123612e-38
-0.022261493 -0.12246101 -0.034864426 1.5587111e-38
-0.020259313 -0.12170117 -0.031885982 1.2916314e-38
-0.018073983 -0.11991702 -0.02489233 1.0890166e-38
-0.015957318 -0.11837523 -0.018848658 1.1722802e-38
-0.013998128 -0.11761098 -0.015852928 1.2278484e-38
-0.012009196 -0.11660783 -0.011920691 1.1172132e-38
-0.010069944 -0.11582683 -0.0088592768 1.043492e-38
-0.0080269016 -0.11430521 -0.0028947592 1.080226e-38
-0.0061162151 -0.11353777 0.00011348724 1.1997924e-38
-0.004216712 -0.11277486 0.0031040907 1.2823732e-38
-0.0023282915 -0.11201639 0.0060771704 1.374246e-38
-0.00044756383 -0.11123641 0.0091346502 9.9588474e-39
0.0013286322 -0.11123641 0.0091346502 8.1117076e-39
-0.030853413 -0.1294684 -0.054929733 9.4968407e-39
-0.028964899 -0.1294684 -0.054929733 1.1802078e-38
-0.026855163 -0.12843956 -0.05092442 1.1896046e-38
-0.024809517 -0.12765111 -0.0478549 1.4478594e-38
-0.022572227 -0.12585752 -0.040872216 1.5587107e-38
-0.020408146 -0.12431435 -0.034864426 1.4114136e-38
-0.018073983 -0.12175287 -0.02489233 1.2641167e-38
-0.015957318 -0.12020047 -0.018848658 1.3011388e-38
-0.01382231 -0.11842094 -0.011920691 1.328977e-38
-0.011877693 -0.11763458 -0.0088592768 1.2645474e-38
-0.010069944 -0.11763458 -0.0088592768 1.2460717e-38
-0.0080269016 -0.1161025 -0.0028947592 1.2090491e-38
-0.0061162151 -0.11532979 0.00011348724 1.254823e-38
-0.004216712 -0.11456163 0.0031040907 1.2914491e-38
-0.0021198504 -0.11223195 0.012173772 1.4201996e-38
-0.0003489852 -0.11223195 0.012173772 1.0694969e-38
0.0013286322 -0.1130126 0.0091346502 8.2046109e-39
-0.031029321 -0.13213144 -0.057924628 9.2198979e-39
-0.028964899 -0.13135691 -0.054929733 1.1433295e-38
-0.026855163 -0.13032107 -0.05092442 1.1158835e-38
-0.024652325 -0.12876706 -0.044915557 1.2543917e-38
-0.022572227 -0.12772138 -0.040872216 1.4296721e-38
-0.020557828 -0.12694232 -0.037859797 1.5219763e-38
-0.018073983 -0.12358873 -0.02489233 1.4667678e-38
-0.015957318 -0.12202574 -0.018848658 1.319399e-38
-0.01382231 -0.12023406 -0.011920691 1.3195429e-38
-0.011751458 -0.11868234 -0.0059206486 1.4670915e-38
-0.009948872 -0.11868234 -0.0059206486 1.5499947e-38
-0.0080269016 -0.11789979 -0.0028947592 1.4853495e-38
-0.0061162151 -0.1171218 0.00011348724 1.4574741e-38
-0.004216712 -0.1163484 0.0031040907 1.3834653e-38
-0.0021198504 -0.11400281 0.012173772 1.429275e-38
-0.0003489852 -0.11400281 0.012173772 1.0418374e-38
-0.030618154 -0.13220255 -0.05092442 9.2198979e-39
-0.028736658 -0.13220255 -0.05092442 1.1065589e-38
-0.026685633 -0.13140334 -0.0478549 1.1528331e-38
-0.024652325 -0.13063805 -0.044915557 1.2636824e-38
-0.02241642 -0.12880091 -0.037859797 1.3651349e-38
-0.020408146 -0.12802102 -0.034864426 1.4482198e-38
-0.017927863 -0.12463553 -0.021861792 1.4390375e-38
-0.015818126 -0.123071 -0.015852928 1.3284395e-38
-0.01382231 -0.12204717 -0.011920691 1.3746096e-38
-0.011751458 -0.12048493 -0.0059206486 1.6235375e-38
-0.009948872 -0.12048493 -0.0059206486 1.7341354e-38
-0.0080269016 -0.11969708 -0.0028947592 1.7524298e-38
-0.0061162151 -0.11891381 0.00011348724 1.7338098e-38
-0.004216712 -0.11813517 0.0031040907 1.567677e-38
-0.0023282915 -0.11736105 0.0060771704 1.4660812e-38
-0.00054673851 -0.11736105 0.0060771704 9.9573901e-39
-0.030618154 -0.13408406 -0.05092442 9.7730745e-39
-0.028736658 -0.13408406 -0.05092442 1.1710601e-38
-0.026523292 -0.13250901 -0.044915557 1.1345738e-38
-0.024436109 -0.13144915 -0.040872216 1.4113752e-38
-0.02241642 -0.13065951 -0.037859797 1.5311589e-38
-0.020408146 -0.12987436 -0.034864426 1.4850981e-38
-0.017927863 -0.12646608 -0.021861792 1.5312333e-38
-0.015818126 -0.124891 -0.015852928 1.5680765e-38
-0.01382231 -0.12386028 -0.011920691 1.6141386e-38
-0.011751458 -0.12228753 -0.0059206486 1.7708712e-38
-0.009948872 -0.12228753 -0.0059206486 1.7339202e-38
-0.0080269016 -0.12149437 -0.0028947592 1.8260428e-38
-0.0062296167 -0.12149437 -0.0028947592 1.862812e-38
-0.0043242052 -0.12070583 0.00011348724 1.6782758e-38
-0.0021198504 -0.11754455 0.012173772 1.5029594e-38
-0.0003489852 -0.11754455 0.012173772 1.0049586e-38
-0.02839426 -0.13437997 -0.044915557 1.2080105e-38
-0.026523292 -0.13437997 -0.044915557 1.0517422e-38
-0.024436109 -0.13331302 -0.040872216 1.3746057e-38
-0.02241642 -0.1325181 -0.037859797 1.4667661e-38
-0.020408146 -0.13172771 -0.034864426 1.4114139e-38
-0.018073983 -0.12909628 -0.02489233 1.4943551e-38
-0.015957318 -0.1275015 -0.018848658 1.5404176e-38
-0.01382231 -0.1256734 -0.011920691 1.5772961e-38
-0.011751458 -0.12409012 -0.0059206486 1.74314e-38
-0.009948872 -0.12409012 -0.0059206486 1.7154446e-38
-0.0080269016 -0.12329166 -0.0028947592 1.7983118e-38
-0.0062296167 -0.12329166 -0.0028947592 1.8074224e-38
-0.0043242052 -0.12249784 0.00011348724 1.6045193e-38
-0.0021198504 -0.11931543 0.012173772 1.4660813e-38
-0.0003489852 -0.11931543 0.012173772 1.0050307e-38
-0.026299976 -0.13517688 -0.040872216 1.0333039e-38
-0.024436109 -0.13517688 -0.040872216 1.171812e-38
-0.022261493 -0.13358103 -0.034864426 1.1441182e-38
-0.020259313 -0.13278987 -0.031885982 1.0795462e-38
-0.018073983 -0.13093217 -0.02489233 1.1440477e-38
-0.015957318 -0.12932678 -0.018848658 1.1163174e-38
-0.01382231 -0.12748651 -0.011920691 1.208513e-38
-0.011751458 -0.12589271 -0.0059206486 1.558784e-38
-0.009948872 -0.12589271 -0.0059206486 1.7431384e-38
-0.0080269016 -0.12508895 -0.0028947592 1.733918e-38
-0.0062296167 -0.12508895 -0.0028947592 1.6692364e-38
-0.0043242052 -0.12428986 0.00011348724 1.4478583e-38
-0.0021198504 -0.12108628 0.012173772 1.3647024e-38
-0.0003489852 -0.12108628 0.012173772 9.6822493e-39
-0.026299976 -0.13704078 -0.040872216 1.042453e-38
-0.024275012 -0.13623528 -0.037859797 1.0980932e-38
-0.022261493 -0.13543437 -0.034864426 1.0796185e-38
-0.020259313 -0.134638 -0.031885982 1.0058621e-38
-0.018073983 -0.13276802 -0.02489233 1.0611795e-38
-0.015957318 -0.13115202 -0.018848658 1.0334486e-38
-0.01382231 -0.1292996 -0.011920691 1.0887655e-38
-0.011751458 -0.12769531 -0.0059206486 1.4944254e-38
-0.009824194 -0.12688623 -0.0028947592 1.6787441e-38
-0.0080269016 -0.12688623 -0.0028947592 1.6602682e-38
-0.0061162151 -0.12608187 0.00011348724 1.6877827e-38
-0.0043242052 -0.12608187 0.00011348724 1.318928e-38
-0.0020199977 -0.12207626 0.01509428 1.2542119e-38
3.9488077e-05 -0.11965488 0.024150074 1.0052121e-38
0.0017893538 -0.11965488 0.024150074 7.7461551e-39
0.009190388 -0.11511876 0.041114986 1.1053675e-38
0.010910511 -0.11511876 0.041114986 1.0960755e-38
-0.026299976 -0.13890465 -0.040872216 1.0331622e-38
-0.024275012 -0.13809387 -0.037859797 1.2639026e-38
-0.022261493 -0.13728772 -0.034864426 1.3837569e-38
-0.020259313 -0.13648613 -0.031885982 1.3653175e-38
-0.018073983 -0.13460387 -0.02489233 1.2640099e-38
-0.015957318 -0.13297729 -0.018848658 9.7823861e-39
-0.01382231 -0.13111271 -0.011920691 1.0059325e-38
-0.011751458 -0.1294979 -0.0059206486 1.5590334e-38
-0.009824194 -0.12868352 -0.0028947592 1.6972904e-38
-0.0080269016 -0.12868352 -0.0028947592 1.6972178e-38
-0.0061162151 -0.12787388 0.00011348724 1.6971098e-38
-0.0043242052 -0.12787388 0.00011348724 1.3373672e-38
-0.0020199977 -0.12384202 0.01509428 1.2450642e-38
0.00013516843 -0.12061088 0.027099848 1.0052125e-38
0.0018798634 -0.12061088 0.027099848 8.3911728e-39
0.0037993416 -0.11898489 0.033141255 9.7712304e-39
0.0055334419 -0.11898489 0.033141255 1.096473e-38
0.007470265 -0.11683889 0.041114986 1.0961845e-38
0.009190388 -0.11683889 0.041114986 1.0961831e-38
0.010910511 -0.11683889 0.041114986 1.132989e-38
0.012630634 -0.11683889 0.041114986 1.1421018e-38
0.017999597 -0.11307193 0.055111349 1.1792682e-38
0.019695178 -0.11307193 0.055111349 1.1518233e-38
0.021390762 -0.11307193 0.055111349 1.0412959e-38
0.023086343 -0.11307193 0.055111349 1.0598075e-38
0.024781926 -0.11307193 0.055111349 1.0596648e-38
0.026459269 -0.11387186 0.052139163 1.06867e-38
-0.026299976 -0.14076851 -0.040872216 1.0974843e-38
-0.024275012 -0.13995247 -0.037859797 1.5125795e-38
-0.02210743 -0.13833423 -0.031885982 1.7246655e-38
-0.02005671 -0.13723589 -0.027831435 1.7709066e-38
-0.017927863 -0.13561879 -0.021861792 1.6234649e-38
-0.015957318 -0.13480256 -0.018848658 1.0796538e-38
-0.01382231 -0.13292582 -0.011920691 9.5983438e-39
-0.011751458 -0.13130049 -0.0059206486 1.4761651e-38
-0.009824194 -0.13048081 -0.0028947592 1.5959824e-38
-0.0080269016 -0.13048081 -0.0028947592 1.6420082e-38
-0.0061162151 -0.1296659 0.00011348724 1.6603031e-38
-0.0043242052 -0.1296659 0.00011348724 1.3282195e-38
-0.0019173101 -0.12479414 0.018097758 1.2081862e-38
0.00013516843 -0.12235557 0.027099848 8.9454214e-39
0.0018798634 -0.12235557 0.027099848 7.4685004e-39
0.0037993416 -0.120719 0.033141255 8.8481979e-39
0.0055334419 -0.120719 0.033141255 1.0780339e-38
0.007470265 -0.11855899 0.041114986 1.1054394e-38
0.0092623457 -0.11773549 0.044155002 1.123877e-38
0.010977138 -0.11773549 0.044155002 1.1791945e-38
0.01269193 -0.11773549 0.044155002 1.1974555e-38
0.014553711 -0.11557265 0.052139163 1.1605424e-38
0.016304012 -0.11476754 0.055111349 1.1237367e-38
0.017999597 -0.11476754 0.055111349 1.0962569e-38
0.019695178 -0.11476754 0.055111349 1.1149452e-38
0.021390762 -0.11476754 0.055111349 1.1150524e-38
0.023086343 -0.11476754 0.055111349 1.0689194e-38
0.024781926 -0.11476754 0.055111349 1.105655e-38
0.026459269 -0.11557265 0.052139163 1.0778181e-38
0.028160064 -0.11557265 0.052139163 1.0315405e-38
0.034984238 -0.11773549 0.044155002 1.1421753e-38
0.036699031 -0.11773549 0.044155002 1.114552e-38
-0.026299976 -0.14263238 -0.040872216 1.1341468e-38
-0.024275012 -0.14181106 -0.037859797 1.6874275e-38
-0.02210743 -0.14018236 -0.031885982 1.8996214e-38
-0.02005671 -0.1390769 -0.027831435 1.9827771e-38
-0.017927863 -0.13744931 -0.021861792 1.8998723e-38
-0.015957318 -0.13662781 -0.018848658 1.2823766e-38
-0.01382231 -0.13473894 -0.011920691 9.5061523e-39
-0.011877693 -0.13390426 -0.0088592768 1.1995783e-38
-0.009948872 -0.13310309 -0.0059206486 1.4207751e-38
-0.0080269016 -0.1322781 -0.0028947592 1.5498127e-38
-0.0061162151 -0.13145791 0.00011348724 1.6510838e-38
-0.0043242052 -0.13145791 0.00011348724 1.4480019e-38
-0.0019173101 -0.12655462 0.018097758 1.3464078e-38
0.00013516843 -0.12410025 0.027099848 9.7744618e-39
0.0018798634 -0.12410025 0.027099848 8.2049865e-39
0.0037993416 -0.12245311 0.033141255 9.0322262e-39
0.0055334419 -0.12245311 0.033141255 9.8583799e-39
0.0075475499 -0.11945029 0.044155002 1.087108e-38
0.0092623457 -0.11945029 0.044155002 1.1239488e-38
0.010977138 -0.11945029 0.044155002 1.1423161e-38
0.01275095 -0.11865224 0.047082067 1.1790161e-38
0.014553711 -0.11727346 0.052139163 1.1422108e-38
0.016304012 -0.11646311 0.055111349 1.1237367e-38
0.017999597 -0.11646311 0.055111349 1.1239159e-38
0.019695178 -0.11646311 0.055111349 1.0042398e-38
0.021390762 -0.11646311 0.055111349 1.1334569e-38
0.023086343 -0.11646311 0.055111349 1.0227869e-38
0.024781926 -0.11646311 0.055111349 1.0410829e-38
0.026459269 -0.11727346 0.052139163 1.0409401e-38
0.028160064 -0.11727346 0.052139163 1.0592348e-38
0.029847557 -0.11865224 0.047082067 1.234297e-38
0.031554654 -0.11945029 0.044155002 1.1328456e-38
0.03327211 -0.12027912 0.041114986 1.1328467e-38
0.034984238 -0.11945029 0.044155002 1.1974558e-38
0.036699031 -0.11945029 0.044155002 1.1790164e-38
0.038413823 -0.11945029 0.044155002 1.2621001e-38
0.040152602 -0.12027912 0.041114986 1.1330979e-38
0.041872725 -0.12027912 0.041114986 1.0224632e-38
-0.026299976 -0.14449625 -0.040872216 1.0693215e-38
-0.024275012 -0.14366965 -0.037859797 1.7608239e-38
-0.022261493 -0.14284773 -0.034864426 1.9914569e-38
-0.02005671 -0.14091791 -0.027831435 2.0470259e-38
-0.017927863 -0.13927986 -0.021861792 1.9643017e-38
-0.015957318 -0.13845308 -0.018848658 1.4573333e-38
-0.01382231 -0.13655205 -0.011920691 1.0518875e-38
-0.011877693 -0.13571201 -0.0088592768 9.7816602e-39
-0.009948872 -0.13490568 -0.0059206486 1.0980555e-38
-0.0080269016 -0.13407536 -0.0028947592 1.2824103e-38
-0.0061162151 -0.13324992 0.00011348724 1.4297073e-38
-0.004216712 -0.13242932 0.0031040907 1.3833576e-38
-0.0018152259 -0.12749584 0.021083474 1.3923617e-38
0.00013516843 -0.12584494 0.027099848 1.0602059e-38
0.0018798634 -0.12584494 0.027099848 9.5861146e-39
0.0037993416 -0.12418722 0.033141255 1.0137128e-38
0.0055334419 -0.12418722 0.033141255 1.059522e-38
0.0075475499 -0.12116508 0.044155002 1.1332058e-38
0.0092623457 -0.12116508 0.044155002 1.059412e-38
0.010977138 -0.12116508 0.044155002 1.0040226e-38
0.01275095 -0.12036191 0.047082067 1.1329535e-38
0.014498658 -0.1197948 0.049148738 1.2067827e-38
0.016254507 -0.11897425 0.052139163 1.1883087e-38
0.017955299 -0.11897425 0.052139163 1.1700137e-38
0.019656092 -0.11897425 0.052139163 1.1885608e-38
0.021356888 -0.11897425 0.052139163 1.2163273e-38
0.023057681 -0.11897425 0.052139163 1.0411203e-38
0.024758477 -0.11897425 0.052139163 1.068707e-38
0.026440918 -0.1197948 0.049148738 1.0685988e-38
0.028146956 -0.1197948 0.049148738 1.0315757e-38
0.029847557 -0.12036191 0.047082067 1.1882345e-38
0.031554654 -0.12116508 0.044155002 1.1236612e-38
0.03327211 -0.12199925 0.041114986 1.1512844e-38
0.034992233 -0.12199925 0.041114986 1.2435522e-38
0.036699031 -0.12116508 0.044155002 1.1513929e-38
0.038413823 -0.12116508 0.044155002 1.1791594e-38
0.040152602 -0.12199925 0.041114986 1.123914e-38
0.041872725 -0.12199925 0.041114986 1.0870003e-38
0.043592848 -0.12199925 0.041114986 1.2253663e-38
0.045312971 -0.12199925 0.041114986 1.1332071e-38
-0.028163858 -0.14636014 -0.040872216 7.2823505e-39
-0.026299976 -0.14636014 -0.040872216 9.7687333e-39
-0.024275012 -0.14552824 -0.037859797 1.7881221e-38
-0.022261493 -0.14470108 -0.034864426 2.0465219e-38
-0.02005671 -0.14275892 -0.027831435 2.0743969e-38
-0.017927863 -0.14111041 -0.021861792 1.9640142e-38
-0.015957318 -0.14027832 -0.018848658 1.6047031e-38
-0.013998128 -0.13945107 -0.015852928 1.3190401e-38
-0.012009196 -0.13836516 -0.011920691 1.0057542e-38
-0.009948872 -0.13670824 -0.0059206486 9.5043573e-39
-0.0080269016 -0.13587265 -0.0028947592 1.1070956e-38
-0.0060034804 -0.13421609 0.0031040907 1.171452e-38
-0.004216712 -0.13421609 0.0031040907 1.1804556e-38
-0.0018152259 -0.12925108 0.021083474 1.2815469e-38
0.00013516843 -0.12758966 0.027099848 1.0047082e-38
0.0018798634 -0.12758966 0.027099848 9.7686996e-39
0.0037122145 -0.12675296 0.030129731 1.013604e-38
0.0055334419 -0.12592132 0.033141255 1.0595576e-38
0.0073949322 -0.12453763 0.03815192 1.1147667e-38
0.009120252 -0.12453763 0.03815192 1.0040594e-38
0.010977138 -0.12287988 0.044155002 9.8558366e-39
0.01269193 -0.12287988 0.044155002 1.1791223e-38
0.014460608 -0.12207155 0.047082067 1.1791945e-38
0.016254507 -0.12067504 0.052139163 1.0500858e-38
0.017955299 -0.12067504 0.052139163 1.0040613e-38
0.019656092 -0.12067504 0.052139163 1.0594167e-38
0.021356888 -0.12067504 0.052139163 1.004172e-38
0.023028843 -0.12150083 0.049148738 9.6729405e-39
0.024734881 -0.12150083 0.049148738 1.1147343e-38
0.026428236 -0.12207155 0.047082067 1.1331355e-38
0.028137896 -0.12207155 0.047082067 1.0408663e-38
0.029847557 -0.12207155 0.047082067 1.1145132e-38
0.031554654 -0.12287988 0.044155002 1.1790136e-38
0.03327211 -0.12371938 0.041114986 1.1513552e-38
0.034992233 -0.12371938 0.041114986 1.2250761e-38
0.036699031 -0.12287988 0.044155002 1.1329526e-38
0.038413823 -0.12287988 0.044155002 1.1422083e-38
0.040152602 -0.12371938 0.041114986 1.1975983e-38
0.041872725 -0.12371938 0.041114986 1.1147668e-38
0.043592848 -0.12371938 0.041114986 1.06867e-38
0.045312971 -0.12371938 0.041114986 1.0502676e-38
-0.028163858 -0.14822401 -0.040872216 7.0050406e-39
-0.026299976 -0.14822401 -0.040872216 9.3981445e-39
-0.024275012 -0.14738683 -0.037859797 1.6864899e-38
-0.022261493 -0.14655443 -0.034864426 1.954038e-38
-0.020259313 -0.1457267 -0.031885982 2.0464142e-38
-0.018073983 -0.14378314 -0.02489233 1.9453595e-38
-0.015957318 -0.1421036 -0.018848658 1.7428175e-38
-0.013998128 -0.14127107 -0.015852928 1.5955203e-38
-0.012009196 -0.14017828 -0.011920691 1.1347216e-38
-0.009948872 -0.13851084 -0.0059206486 1.0701117e-38
-0.0080269016 -0.13766994 -0.0028947592 1.1530869e-38
-0.0060034804 -0.13600285 0.0031040907 1.1160277e-38
-0.0041098483 -0.13517661 0.0060771704 1.1618369e-38
-0.0018152259 -0.13100632 0.021083474 1.2998778e-38
0.00013516843 -0.12933435 0.027099848 1.0414419e-38
0.0018798634 -0.12933435 0.027099848 1.0504456e-38
0.0037122145 -0.12849234 0.030129731 1.0503016e-38
0.0054515973 -0.12849234 0.030129731 9.9494853e-39
0.0073191449 -0.12709136 0.035170913 1.068669e-38
0.0090496913 -0.12709136 0.035170913 1.0501219e-38
0.010845572 -0.12626295 0.03815192 1.1146578e-38
0.01269193 -0.12459467 0.044155002 1.2436941e-38
0.014406726 -0.12459467 0.044155002 1.1055083e-38
0.016254507 -0.12237583 0.052139163 1.0685596e-38
0.017955299 -0.12237583 0.052139163 1.2806839e-38
0.019656092 -0.12237583 0.052139163 1.0870407e-38
0.021299254 -0.12378122 0.047082067 1.0962623e-38
0.023008915 -0.12378122 0.047082067 1.1515797e-38
0.024718575 -0.12378122 0.047082067 1.0777855e-38
0.026428236 -0.12378122 0.047082067 1.0409399e-38
0.028137896 -0.12378122 0.047082067 1.1238774e-38
0.029839858 -0.12459467 0.044155002 1.169794e-38
0.031554654 -0.12459467 0.044155002 1.2619169e-38
0.033269443 -0.12459467 0.044155002 1.1697213e-38
0.034984238 -0.12459467 0.044155002 1.2067077e-38
0.036699031 -0.12459467 0.044155002 1.1698658e-38
0.038413823 -0.12459467 0.044155002 1.1422435e-38
0.040128618 -0.12459467 0.044155002 1.2252926e-38
0.041872725 -0.12543948 0.041114986 1.1055473e-38
0.043626618 -0.12626295 0.03815192 1.0963291e-38
-0.024275012 -0.14924543 -0.037859797 1.501991e-38
-0.022261493 -0.14840777 -0.034864426 1.7142575e-38
-0.020259313 -0.14757483 -0.031885982 1.9080845e-38
-0.018073983 -0.14561899 -0.02489233 1.917521e-38
-0.016097322 -0.1447715 -0.021861792 1.8347973e-38
-0.013998128 -0.14309107 -0.015852928 1.7428177e-38
-0.012009196 -0.14199139 -0.011920691 1.1806036e-38
-0.009948872 -0.14031343 -0.0059206486 1.0331252e-38
-0.0080269016 -0.13946722 -0.0028947592 1.1160642e-38
-0.0060034804 -0.13778962 0.0031040907 1.0329438e-38
-0.0041098483 -0.13695817 0.0060771704 1.1064479e-38
-0.0018152259 -0.13276155 0.021083474 1.3181377e-38
0.00023344904 -0.13023172 0.030129731 1.0597016e-38
0.0019728318 -0.13023172 0.030129731 1.0687408e-38
0.0037993416 -0.12938951 0.033141255 1.031718e-38
0.0055334419 -0.12938951 0.033141255 1.0132792e-38
0.0073191449 -0.12882192 0.035170913 1.1054745e-38
0.0090496913 -0.12882192 0.035170913 1.1330969e-38
0.010845572 -0.12798826 0.03815192 1.206853e-38
0.01269193 -0.12630944 0.044155002 1.2528783e-38
0.014406726 -0.12630944 0.044155002 1.1239123e-38
0.016121514 -0.12630944 0.044155002 1.4005003e-38
0.017879933 -0.12549089 0.047082067 2.0366524e-38
0.019589592 -0.12549089 0.047082067 2.1564027e-38
0.021299254 -0.12549089 0.047082067 2.1840275e-38
0.023028843 -0.12491293 0.049148738 1.9996364e-38
0.024734881 -0.12491293 0.049148738 1.2805445e-38
0.026428236 -0.12549089 0.047082067 9.578556e-39
0.028137896 -0.12549089 0.047082067 1.1699749e-38
0.029839858 -0.12630944 0.044155002 1.1790136e-38
0.031554654 -0.12630944 0.044155002 1.1421708e-38
0.033269443 -0.12630944 0.044155002 1.2159273e-38
0.034984238 -0.12630944 0.044155002 1.2252187e-38
0.036699031 -0.12630944 0.044155002 1.206816e-38
0.038413823 -0.12630944 0.044155002 1.0777791e-38
0.040128618 -0.12630944 0.044155002 1.123986e-38
0.041872725 -0.12715961 0.041114986 1.1055839e-38
-0.018411197 -0.14942293 -0.031885982 1.7146179e-38
-0.016238131 -0.14745484 -0.02489233 1.9820937e-38
-0.01413206 -0.14575411 -0.018848658 1.8716028e-38
-0.012009196 -0.14380451 -0.011920691 1.3555221e-38
-0.009948872 -0.14211603 -0.0059206486 1.125175e-38
-0.0080269016 -0.14126451 -0.0028947592 1.0606732e-38
-0.0060034804 -0.13957639 0.0031040907 1.0881881e-38
-0.004216712 -0.13957639 0.0031040907 1.1985356e-38
-0.0018152259 -0.13451682 0.021083474 1.2349834e-38
0.00023344904 -0.13197111 0.030129731 1.1241684e-38
0.0019728318 -0.13197111 0.030129731 1.0594144e-38
0.0037993416 -0.13112362 0.033141255 1.0777443e-38
0.0055334419 -0.13112362 0.033141255 1.0222821e-38
0.0073191449 -0.13055246 0.035170913 1.188305e-38
0.0090496913 -0.13055246 0.035170913 1.1422427e-38
0.010845572 -0.12971358 0.03815192 1.1698659e-38
0.01269193 -0.12802424 0.044155002 1.2989061e-38
0.014608428 -0.12494104 0.055111349 1.1698695e-38
0.016354747 -0.12408386 0.058157325 1.3819558e-38
0.01807373 -0.12354116 0.060085773 2.0826077e-38
0.019760594 -0.12354116 0.060085773 2.0457315e-38
0.021425474 -0.12408386 0.058157325 2.1102696e-38
0.023028843 -0.12661897 0.049148738 2.119418e-38
0.024734881 -0.12661897 0.049148738 1.2527416e-38
0.026440918 -0.12661897 0.049148738 1.114552e-38
0.028137896 -0.12720053 0.047082067 1.0961108e-38
0.029839858 -0.12802424 0.044155002 1.2158929e-38
0.031554654 -0.12802424 0.044155002 1.1790504e-38
0.033269443 -0.12802424 0.044155002 1.1792299e-38
0.034984238 -0.12802424 0.044155002 1.1056176e-38
0.036699031 -0.12802424 0.044155002 1.114802e-38
0.038413823 -0.12802424 0.044155002 1.216218e-38
0.040152602 -0.12887974 0.041114986 1.2992311e-38
0.041872725 -0.12887974 0.041114986 1.2070726e-38
-0.014266782 -0.14843257 -0.021861792 1.7423845e-38
-0.012009196 -0.14561762 -0.011920691 1.539769e-38
-0.009824194 -0.1430618 -0.0028947592 1.2449208e-38
-0.0079082288 -0.14220999 0.00011348724 1.1158824e-38
-0.0060034804 -0.14136316 0.0031040907 1.0973357e-38
-0.004216712 -0.14136316 0.0031040907 1.198464e-38
-0.0024299435 -0.14136316 0.0031040907 1.1981051e-38
-0.00054673851 -0.14052127 0.0060771704 1.0595599e-38
0.0012348182 -0.14052127 0.0060771704 9.7640263e-39
0.0037122145 -0.13371049 0.030129731 1.0315031e-38
0.0055334419 -0.13285773 0.033141255 1.0683438e-38
0.0072675459 -0.13285773 0.033141255 1.1973805e-38
0.0090496913 -0.13228302 0.035170913 1.1513175e-38
0.010845572 -0.1314389 0.03815192 1.1329875e-38
0.012630634 -0.13059987 0.041114986 1.1974555e-38
0.014608428 -0.12663661 0.055111349 1.0776386e-38
0.016354747 -0.1257741 0.058157325 1.2251516e-38
0.01807373 -0.12522803 0.060085773 1.7046052e-38
0.019760594 -0.12522803 0.060085773 1.7137896e-38
0.021425474 -0.1257741 0.058157325 1.6677645e-38
0.023057681 -0.12747823 0.052139163 1.6030847e-38
0.024758477 -0.12747823 0.052139163 1.0222872e-38
0.026440918 -0.128325 0.049148738 1.05927e-38
0.028137896 -0.1289102 0.047082067 1.1514282e-38
0.029839858 -0.12973903 0.044155002 1.1974541e-38
0.031554654 -0.12973903 0.044155002 1.1422086e-38
0.033269443 -0.12973903 0.044155002 1.1332406e-38
0.034984238 -0.12973903 0.044155002 1.1978497e-38
0.036699031 -0.12973903 0.044155002 1.2900103e-38
-0.012009196 -0.14743073 -0.011920691 1.5766473e-38
-0.0097002387 -0.14400201 0.00011348724 1.2356308e-38
-0.0077902488 -0.14314993 0.0031040907 1.0604946e-38
-0.005891405 -0.14230286 0.0060771704 1.0327636e-38
-0.0041098483 -0.14230286 0.0060771704 1.1984996e-38
-0.0023282915 -0.14230286 0.0060771704 1.2534933e-38
-0.00044756383 -0.1414317 0.0091346502 1.1241314e-38
0.0013286322 -0.1414317 0.0091346502 1.0870731e-38
0.0037122145 -0.13544987 0.030129731 1.1974555e-38
0.0054515973 -0.13544987 0.030129731 1.1235181e-38
0.0072675459 -0.13459183 0.033141255 1.1696867e-38
0.0090496913 -0.13401355 0.035170913 1.1512824e-38
0.010780238 -0.13401355 0.035170913 1.1236961e-38
0.012510784 -0.13401355 0.035170913 1.1236973e-38
0.014553711 -0.12917902 0.052139163 1.0316464e-38
0.016304012 -0.12833218 0.055111349 1.0869635e-38
0.017999597 -0.12833218 0.055111349 1.2898661e-38
0.019695178 -0.12833218 0.055111349 1.2345133e-38
0.021390762 -0.12833218 0.055111349 1.280576e-38
0.023057681 -0.12917902 0.052139163 1.3081996e-38
0.024758477 -0.12917902 0.052139163 1.123808e-38
0.026459269 -0.12917902 0.052139163 1.1238421e-38
0.028125066 -0.13145383 0.044155002 1.1515358e-38
0.029831864 -0.13231997 0.041114986 1.0776717e-38
0.031551987 -0.13231997 0.041114986 1.0777796e-38
0.033269443 -0.13145383 0.044155002 1.1884858e-38
0.034984238 -0.13145383 0.044155002 1.3084842e-38
0.036699031 -0.13145383 0.044155002 1.3729858e-38
-0.01382231 -0.14924385 -0.011920691 1.3460509e-38
-0.012009196 -0.14924385 -0.011920691 1.2723661e-38
-0.0095770173 -0.1449367 0.0031040907 1.2908777e-38
-0.0077902488 -0.1449367 0.0031040907 1.0696436e-38
-0.005891405 -0.14408441 0.0060771704 1.0326925e-38
-0.0041098483 -0.14408441 0.0060771704 1.2077192e-38
-0.0023282915 -0.14408441 0.0060771704 1.2627477e-38
-0.00025425106 -0.14149947 0.01509428 1.0965435e-38
0.0015114918 -0.14149947 0.01509428 1.0501946e-38
0.0036245584 -0.13805781 0.027099848 1.1790167e-38
0.0054515973 -0.13718925 0.030129731 1.1419223e-38
0.0072675459 -0.13632594 0.033141255 1.1695443e-38
0.0090496913 -0.13574408 0.035170913 1.2064576e-38
0.010780238 -0.13574408 0.035170913 1.1881258e-38
0.012510784 -0.13574408 0.035170913 1.1052934e-38
0.014406726 -0.13316862 0.044155002 1.0961457e-38
0.016304012 -0.13002776 0.055111349 1.1422791e-38
0.017999597 -0.13002776 0.055111349 1.1331316e-38
0.019695178 -0.13002776 0.055111349 1.206853e-38
0.021390762 -0.13002776 0.055111349 1.2253286e-38
0.023057681 -0.1308798 0.052139163 1.1423175e-38
0.024758477 -0.1308798 0.052139163 1.1515372e-38
0.026459269 -0.1308798 0.052139163 1.0685247e-38
0.028111741 -0.1340401 0.041114986 1.1054027e-38
0.029831864 -0.1340401 0.041114986 1.0777443e-38
0.031554654 -0.13316862 0.044155002 1.2713548e-38
0.033269443 -0.13316862 0.044155002 1.2530227e-38
0.034984238 -0.13316862 0.044155002 1.4190828e-38
-0.011363782 -0.14672346 0.0031040907 1.1709157e-38
-0.0095770173 -0.14672346 0.0031040907 1.1894279e-38
-0.0076729618 -0.14586596 0.0060771704 1.0050363e-38
-0.005891405 -0.14586596 0.0060771704 1.0142184e-38
-0.0041098483 -0.14586596 0.0060771704 1.2353779e-38
-0.0022237562 -0.14498411 0.0091346502 1.2904416e-38
-0.00025425106 -0.1432652 0.01509428 1.1242374e-38
0.0015114918 -0.1432652 0.01509428 1.0594139e-38
0.0036245584 -0.13980253 0.027099848 1.1882008e-38
0.0054515973 -0.13892864 0.030129731 1.160291e-38
0.0072675459 -0.13806005 0.033141255 1.1971329e-38
0.0090496913 -0.13747464 0.035170913 1.2709246e-38
0.010780238 -0.13747464 0.035170913 1.2341531e-38
0.012510784 -0.13747464 0.035170913 1.1421353e-38
0.014460608 -0.13403918 0.047082067 1.1791206e-38
0.016304012 -0.13172336 0.055111349 1.2252903e-38
0.017999597 -0.13172336 0.055111349 1.1331667e-38
0.019695178 -0.13172336 0.055111349 1.1700098e-38
0.021390762 -0.13172336 0.055111349 1.1976688e-38
0.023086343 -0.13172336 0.055111349 1.0409729e-38
0.024781926 -0.13172336 0.055111349 1.1515726e-38
0.026459269 -0.13258059 0.052139163 1.0316476e-38
0.029839858 -0.13488342 0.044155002 1.0132087e-38
0.031554654 -0.13488342 0.044155002 1.2160741e-38
0.033269443 -0.13488342 0.044155002 1.2713901e-38
-0.0076729618 -0.14764751 0.0060771704 1.0142209e-38
-0.0057761483 -0.1467603 0.0091346502 1.1064144e-38
-0.0039999522 -0.1467603 0.0091346502 1.3459773e-38
-0.0022237562 -0.1467603 0.0091346502 1.4010764e-38
-0.0003489852 -0.14587842 0.012173772 1.2257239e-38
0.0015114918 -0.14503096 0.01509428 1.133242e-38
0.0036245584 -0.14154722 0.027099848 1.225079e-38
0.0054515973 -0.14066802 0.030129731 1.1694754e-38
0.0072675459 -0.13979416 0.033141255 1.2430524e-38
0.0090496913 -0.13920517 0.035170913 1.2800382e-38
0.010780238 -0.13920517 0.035170913 1.2524858e-38
0.012510784 -0.13920517 0.035170913 1.1881255e-38
0.014498658 -0.13514914 0.049148738 1.2251466e-38
0.016304012 -0.13341893 0.055111349 1.2436579e-38
0.01804499 -0.13253506 0.058157325 1.1607181e-38
0.019735232 -0.13253506 0.058157325 1.2620978e-38
0.021390762 -0.13341893 0.055111349 1.3635856e-38
0.023086343 -0.13341893 0.055111349 1.2345119e-38
0.024781926 -0.13341893 0.055111349 1.3082696e-38
0.026477508 -0.13341893 0.055111349 1.142212e-38
-0.0057761483 -0.14853649 0.0091346502 1.0971595e-38
-0.0039999522 -0.14853649 0.0091346502 1.318355e-38
-0.0021198504 -0.14764927 0.012173772 1.355051e-38
-0.0003489852 -0.14764927 0.012173772 1.1704791e-38
0.0015114918 -0.14679669 0.01509428 1.0594855e-38
0.0036245584 -0.14329191 0.027099848 1.0776739e-38
0.0054515973 -0.1424074 0.030129731 1.1694756e-38
