# .PCD v0.7 - Point Cloud Data file format
VERSION 0.7
FIELDS x y z rgb
SIZE 4 4 4 4
TYPE F F F F
COUNT 1 1 1 1
WIDTH 940
HEIGHT 1
VIEWPOINT 0 0 0 1 0 0 0
POINTS 940
DATA ascii
0.0034021214 -0.11401908 0.0041428208 1.5591351e-38
0.0052098669 -0.11401908 0.0041428208 1.5685736e-38
0.0070176125 -0.11401908 0.0041428208 1.6609145e-38
0.0088065695 -0.11479472 0.0010814071 1.66113e-38
0.010602444 -0.11579098 -0.0028508306 1.578297e-38
0.012422452 -0.11579098 -0.0028508306 1.5322343e-38
0.014242459 -0.11579098 -0.0028508306 1.5782247e-38
0.016062465 -0.11579098 -0.0028508306 1.5501007e-38
0.017890351 -0.11654995 -0.00584656 1.9463279e-38
0.019715611 -0.11654995 -0.00584656 1.918634e-38
0.021540869 -0.11654995 -0.00584656 1.909558e-38
0.023389902 -0.11731337 -0.008859694 1.8084295e-38
0.025249667 -0.11808117 -0.011890233 1.8454148e-38
0.027085524 -0.11808117 -0.011890233 2.1948602e-38
0.028960031 -0.11882581 -0.014829338 2.1948597e-38
0.030861465 -0.11985306 -0.018883884 2.268329e-38
0.032709584 -0.11985306 -0.018883884 2.2683285e-38
0.0345577 -0.11985306 -0.018883884 2.2407774e-38
0.036405817 -0.11985306 -0.018883884 2.0479192e-38
0.038319215 -0.12060766 -0.021862328 1.7807653e-38
0.040172555 -0.12060766 -0.021862328 1.4579e-38
0.042025894 -0.12060766 -0.021862328 1.4111908e-38
0.043960638 -0.12136655 -0.0248577 1.1062985e-38
0.04590638 -0.12212978 -0.027870119 1.1149434e-38
0.047770254 -0.12212978 -0.027870119 1.1884844e-38
-0.026714105 -0.11201639 0.019079268 1.0776361e-38
-0.024932548 -0.11201639 0.019079268 1.031611e-38
-0.023150992 -0.11201639 0.019079268 1.0133879e-38
-0.021369435 -0.11201639 0.019079268 1.4193721e-38
-0.019587878 -0.11201639 0.019079268 1.7515993e-38
-0.017806325 -0.11201639 0.019079268 1.9087623e-38
-0.016024768 -0.11201639 0.019079268 1.7524602e-38
-0.014154758 -0.11123641 0.022136748 1.7434562e-38
-0.012378562 -0.11123641 0.022136748 1.8265769e-38
-0.010680098 -0.11201639 0.019079268 1.734489e-38
-0.0088985451 -0.11201639 0.019079268 1.5408045e-38
-0.0072476901 -0.11353777 0.013115585 1.5867588e-38
-0.0054556802 -0.11353777 0.013115585 1.641899e-38
-0.0036636665 -0.11353777 0.013115585 1.6972164e-38
-0.0019217618 -0.11430521 0.010107338 1.5591005e-38
-0.00016957149 -0.11507715 0.007081449 1.7068278e-38
0.001633022 -0.11507715 0.007081449 1.8454075e-38
0.0034356117 -0.11507715 0.007081449 1.790307e-38
0.0052098669 -0.11582683 0.0041428208 1.7256661e-38
0.0070176125 -0.11582683 0.0041428208 1.7164125e-38
0.0088253561 -0.11582683 0.0041428208 1.5781191e-38
0.010619681 -0.11660783 0.0010814071 1.4122024e-38
0.012422452 -0.11761098 -0.0028508306 1.5504587e-38
0.014242459 -0.11761098 -0.0028508306 1.7807325e-38
0.016062465 -0.11761098 -0.0028508306 1.7066546e-38
0.017890351 -0.11837523 -0.00584656 2.1305048e-38
0.019715611 -0.11837523 -0.00584656 2.2315978e-38
0.02155936 -0.11914389 -0.008859694 2.2499656e-38
0.023389902 -0.11914389 -0.008859694 2.0846582e-38
0.025249667 -0.11991702 -0.011890233 1.909701e-38
0.027085524 -0.11991702 -0.011890233 2.1397585e-38
0.028921381 -0.11991702 -0.011890233 2.148798e-38
0.030801039 -0.12066682 -0.014829338 2.2219801e-38
0.032642048 -0.12066682 -0.014829338 1.9823075e-38
0.0345577 -0.12170117 -0.018883884 1.863027e-38
0.036405817 -0.12170117 -0.018883884 1.7528575e-38
0.038319215 -0.12246101 -0.021862328 1.6149571e-38
0.040172555 -0.12246101 -0.021862328 1.4580075e-38
0.042025894 -0.12246101 -0.021862328 1.5309009e-38
0.043879233 -0.12246101 -0.021862328 1.1706915e-38
0.04581923 -0.12322514 -0.0248577 1.0781373e-38
0.047677822 -0.12322514 -0.0248577 1.1793364e-38
-0.026714105 -0.11379795 0.019079268 1.0684165e-38
-0.024932548 -0.11379795 0.019079268 1.031611e-38
-0.023150992 -0.11379795 0.019079268 1.0041684e-38
-0.021259539 -0.1130126 0.022136748 1.3640548e-38
-0.019483343 -0.1130126 0.022136748 1.6686232e-38
-0.017806325 -0.11379795 0.019079268 1.8534452e-38
-0.015930954 -0.1130126 0.022136748 1.7248018e-38
-0.014154758 -0.1130126 0.022136748 1.7434913e-38
-0.012378562 -0.1130126 0.022136748 1.7345944e-38
-0.010680098 -0.11379795 0.019079268 1.6424701e-38
-0.0088985451 -0.11379795 0.019079268 1.476374e-38
-0.0072476901 -0.11532979 0.013115585 1.6790269e-38
-0.0054556802 -0.11532979 0.013115585 1.8446595e-38
-0.0037190504 -0.1161025 0.010107338 1.7985268e-38
-0.0019217618 -0.1161025 0.010107338 1.5681794e-38
-0.00016957149 -0.11687975 0.007081449 1.6514406e-38
0.001633022 -0.11687975 0.007081449 1.8268616e-38
0.0034356117 -0.11687975 0.007081449 1.8547006e-38
0.0052098669 -0.11763458 0.0041428208 1.7163748e-38
0.0070176125 -0.11763458 0.0041428208 1.7532194e-38
0.0088253561 -0.11763458 0.0041428208 1.6793922e-38
0.010619681 -0.11842094 0.0010814071 1.4949294e-38
0.012422452 -0.11943097 -0.0028508306 1.6607742e-38
0.014242459 -0.11943097 -0.0028508306 1.7989958e-38
0.016062465 -0.11943097 -0.0028508306 1.826475e-38
0.017890351 -0.12020047 -0.00584656 2.1764958e-38
0.019715611 -0.12020047 -0.00584656 2.2867005e-38
0.02155936 -0.12097444 -0.008859694 2.2958838e-38
0.023413813 -0.12175287 -0.011890233 2.1305049e-38
0.025249667 -0.12175287 -0.011890233 1.936929e-38
0.027085524 -0.12175287 -0.011890233 2.1489065e-38
0.028921381 -0.12175287 -0.011890233 2.2499625e-38
0.030801039 -0.12250783 -0.014829338 2.222161e-38
0.032642048 -0.12250783 -0.014829338 1.7890572e-38
0.0345577 -0.1235493 -0.018883884 1.5776533e-38
0.036405817 -0.1235493 -0.018883884 1.5136176e-38
0.038253937 -0.1235493 -0.018883884 1.4585851e-38
0.040172555 -0.12431435 -0.021862328 1.4766635e-38
0.042025894 -0.12431435 -0.021862328 1.5955469e-38
0.043879233 -0.12431435 -0.021862328 1.0969718e-38
0.045732576 -0.12431435 -0.021862328 1.0781017e-38
0.047585916 -0.12431435 -0.021862328 1.2069954e-38
0.049634129 -0.12585752 -0.027870119 1.3452519e-38
-0.026714105 -0.1155795 0.019079268 1.0684165e-38
-0.024811931 -0.11478879 0.022136748 1.0500501e-38
-0.023035735 -0.11478879 0.022136748 9.9494881e-39
-0.021259539 -0.11478879 0.022136748 1.3087374e-38
-0.019483343 -0.11478879 0.022136748 1.594867e-38
-0.017806325 -0.1155795 0.019079268 1.8073474e-38
-0.015930954 -0.11478879 0.022136748 1.7155822e-38
-0.014154758 -0.11478879 0.022136748 1.7251603e-38
-0.012378562 -0.11478879 0.022136748 1.7899836e-38
-0.010680098 -0.1155795 0.019079268 1.6333227e-38
-0.0088985451 -0.1155795 0.019079268 1.5778263e-38
-0.0072476901 -0.1171218 0.013115585 1.964835e-38
-0.0054556802 -0.1171218 0.013115585 2.0935539e-38
-0.0036636665 -0.1171218 0.013115585 2.0749724e-38
-0.0019217618 -0.11789979 0.010107338 1.8170022e-38
-0.00016957149 -0.11868234 0.007081449 1.5775066e-38
0.001633022 -0.11868234 0.007081449 1.6146694e-38
0.0034356117 -0.11868234 0.007081449 1.808424e-38
0.0052382052 -0.11868234 0.007081449 1.707012e-38
0.0070176125 -0.11944233 0.0041428208 1.882186e-38
0.0088253561 -0.11944233 0.0041428208 2.093842e-38
0.010602444 -0.121251 -0.0028508306 2.0202297e-38
0.012422452 -0.121251 -0.0028508306 2.0293418e-38
0.014242459 -0.121251 -0.0028508306 1.8910486e-38
0.016065091 -0.12202574 -0.00584656 1.9001963e-38
0.017890351 -0.12202574 -0.00584656 2.1764962e-38
0.019715611 -0.12202574 -0.00584656 2.2775169e-38
0.02155936 -0.12280498 -0.008859694 2.2405662e-38
0.023413813 -0.12358873 -0.011890233 2.0378784e-38
0.025249667 -0.12358873 -0.011890233 1.9457895e-38
0.027085524 -0.12358873 -0.011890233 2.194753e-38
0.028960031 -0.12434883 -0.014829338 2.2958815e-38
0.030801039 -0.12434883 -0.014829338 2.1208544e-38
0.032642048 -0.12434883 -0.014829338 1.7340284e-38
0.034483057 -0.12434883 -0.014829338 1.5687941e-38
0.036324065 -0.12434883 -0.014829338 1.4126348e-38
0.038253937 -0.1253974 -0.018883884 1.329836e-38
0.040172555 -0.12616767 -0.021862328 1.4953191e-38
0.041950174 -0.1253974 -0.018883884 1.6600851e-38
0.04379829 -0.1253974 -0.018883884 1.0231801e-38
0.045646407 -0.1253974 -0.018883884 1.1149804e-38
0.047494527 -0.1253974 -0.018883884 1.2438381e-38
0.049634129 -0.12772138 -0.027870119 1.345252e-38
-0.083715096 -0.11265542 0.037152171 2.3509886e-38
-0.081965223 -0.11265542 0.037152171 2.3232944e-38
-0.080508396 -0.11345388 0.034085572 2.3509527e-38
-0.078465492 -0.11265542 0.037152171 2.3509527e-38
-0.076715618 -0.11265542 0.037152171 2.3324055e-38
-0.026588123 -0.11656497 0.022136748 1.0776361e-38
-0.024811931 -0.11656497 0.022136748 1.0684892e-38
-0.023035735 -0.11656497 0.022136748 9.8572925e-39
-0.021259539 -0.11656497 0.022136748 1.25342e-38
-0.019483343 -0.11656497 0.022136748 1.5395496e-38
-0.01770715 -0.11656497 0.022136748 1.7980921e-38
-0.015930954 -0.11656497 0.022136748 1.7339496e-38
-0.014154758 -0.11656497 0.022136748 1.7250896e-38
-0.012378562 -0.11656497 0.022136748 1.7714753e-38
-0.010680098 -0.11736105 0.019079268 1.5594976e-38
-0.0088985451 -0.11736105 0.019079268 1.6607692e-38
-0.0072476901 -0.11891381 0.013115585 2.2132273e-38
-0.0054556802 -0.11891381 0.013115585 2.2591493e-38
-0.0036636665 -0.11891381 0.013115585 2.2867012e-38
-0.0019217618 -0.11969708 0.010107338 2.1579841e-38
-0.00016957149 -0.12048493 0.007081449 1.5496702e-38
0.001633022 -0.12048493 0.007081449 1.4761981e-38
0.0034356117 -0.12048493 0.007081449 1.8451602e-38
0.0052382052 -0.12048493 0.007081449 1.8451267e-38
0.0070176125 -0.12125005 0.0041428208 1.8820423e-38
0.0088253561 -0.12125005 0.0041428208 2.0846572e-38
0.010602444 -0.123071 -0.0028508306 2.1213918e-38
0.012422452 -0.123071 -0.0028508306 2.1122074e-38
0.014242459 -0.123071 -0.0028508306 1.9739866e-38
0.016065091 -0.12385099 -0.00584656 2.0108664e-38
0.017898275 -0.12463553 -0.008859694 2.249966e-38
0.019728817 -0.12463553 -0.008859694 2.3234351e-38
0.021577958 -0.12542458 -0.011890233 2.1573389e-38
0.023413813 -0.12542458 -0.011890233 1.9823097e-38
0.025278011 -0.12618984 -0.014829338 2.0284783e-38
0.027119022 -0.12618984 -0.014829338 2.2037215e-38
0.028960031 -0.12618984 -0.014829338 2.2314523e-38
0.030801039 -0.12618984 -0.014829338 2.0010366e-38
0.032642048 -0.12618984 -0.014829338 1.8079292e-38
0.034483057 -0.12618984 -0.014829338 1.6981564e-38
0.036324065 -0.12618984 -0.014829338 1.3852287e-38
0.038253937 -0.12724553 -0.018883884 1.2286015e-38
0.040102057 -0.12724553 -0.018883884 1.476989e-38
0.041950174 -0.12724553 -0.018883884 1.7154755e-38
0.04379829 -0.12724553 -0.018883884 1.0508037e-38
0.045646407 -0.12724553 -0.018883884 1.1333123e-38
0.047494527 -0.12724553 -0.018883884 1.2345467e-38
-0.081965223 -0.11440529 0.037152171 2.2864164e-38
-0.08021535 -0.11440529 0.037152171 2.3509527e-38
-0.078465492 -0.11440529 0.037152171 2.2495018e-38
-0.076715618 -0.11440529 0.037152171 2.323258e-38
-0.075242653 -0.11520912 0.034085572 2.3509527e-38
-0.026588123 -0.11834116 0.022136748 1.0868559e-38
-0.024692036 -0.11754455 0.025175869 1.068525e-38
-0.022921171 -0.11754455 0.025175869 9.764378e-39
-0.021150302 -0.11754455 0.025175869 1.2164338e-38
-0.019483343 -0.11834116 0.022136748 1.5026713e-38
-0.01770715 -0.11834116 0.022136748 1.8073119e-38
-0.015930954 -0.11834116 0.022136748 1.7523532e-38
-0.014154758 -0.11834116 0.022136748 1.7158705e-38
-0.012378562 -0.11834116 0.022136748 1.6609134e-38
-0.010680098 -0.11914261 0.019079268 1.467411e-38
-0.0089689158 -0.11992194 0.016106188 1.6054527e-38
-0.0072476901 -0.12070583 0.013115585 2.1673099e-38
-0.0054556802 -0.12070583 0.013115585 2.2132317e-38
-0.0036636665 -0.12070583 0.013115585 2.286702e-38
-0.0019217618 -0.12149437 0.010107338 2.185572e-38
-0.00016957149 -0.12228753 0.007081449 1.4758429e-38
0.001633022 -0.12228753 0.007081449 1.5498126e-38
0.0034356117 -0.12228753 0.007081449 2.0017504e-38
0.0052382052 -0.12228753 0.007081449 2.0662535e-38
0.0070407968 -0.12228753 0.007081449 1.7711924e-38
0.0088253561 -0.1230578 0.0041428208 1.7158385e-38
0.010619681 -0.12386028 0.0010814071 1.752752e-38
0.012422452 -0.124891 -0.0028508306 1.8263994e-38
0.014242459 -0.124891 -0.0028508306 2.001536e-38
0.016065091 -0.12567626 -0.00584656 2.1581277e-38
0.017898275 -0.12646608 -0.008859694 2.2591493e-38
0.019728817 -0.12646608 -0.008859694 2.2866285e-38
0.021577958 -0.12726043 -0.011890233 2.0282649e-38
0.023413813 -0.12726043 -0.011890233 1.8992615e-38
0.025278011 -0.12803085 -0.014829338 2.0469173e-38
0.027119022 -0.12803085 -0.014829338 2.2313439e-38
0.028960031 -0.12803085 -0.014829338 2.2682584e-38
0.030801039 -0.12803085 -0.014829338 2.2591483e-38
0.032642048 -0.12803085 -0.014829338 2.1856799e-38
0.034483057 -0.12803085 -0.014829338 2.0020072e-38
0.036324065 -0.12803085 -0.014829338 1.5326701e-38
0.038253937 -0.12909363 -0.018883884 1.2839191e-38
0.040102057 -0.12909363 -0.018883884 1.5046121e-38
0.041950174 -0.12909363 -0.018883884 1.7338789e-38
0.04379829 -0.12909363 -0.018883884 1.1153049e-38
0.045646407 -0.12909363 -0.018883884 1.1148733e-38
-0.081678182 -0.11537679 0.040101945 2.3417333e-38
-0.08021535 -0.11615516 0.037152171 2.2864519e-38
-0.078465492 -0.11615516 0.037152171 2.31411e-38
-0.076715618 -0.11615516 0.037152171 2.3509883e-38
-0.074965745 -0.11615516 0.037152171 2.3509886e-38
-0.073215887 -0.11615516 0.037152171 2.3509527e-38
-0.071732163 -0.11696436 0.034085572 2.3047838e-38
-0.026462901 -0.11931543 0.025175869 1.086784e-38
-0.024692036 -0.11931543 0.025175869 1.0593054e-38
-0.022921171 -0.11931543 0.025175869 9.4877911e-39
-0.021150302 -0.11931543 0.025175869 1.170336e-38
-0.019379437 -0.11931543 0.025175869 1.4749771e-38
-0.01770715 -0.12011738 0.022136748 1.8256792e-38
-0.015930954 -0.12011738 0.022136748 1.7615733e-38
-0.014154758 -0.12011738 0.022136748 1.6882118e-38
-0.012378562 -0.12011738 0.022136748 1.6609844e-38
-0.010680098 -0.12092416 0.019079268 1.5874077e-38
-0.0089689158 -0.12170871 0.016106188 1.5687172e-38
-0.0072476901 -0.12249784 0.013115585 2.1213904e-38
-0.0054556802 -0.12249784 0.013115585 2.2499656e-38
-0.0036636665 -0.12249784 0.013115585 2.2591507e-38
-0.0019217618 -0.12329166 0.010107338 2.1762808e-38
-0.00012447685 -0.12329166 0.010107338 1.7338838e-38
0.001633022 -0.12409012 0.007081449 1.8447314e-38
0.0034356117 -0.12409012 0.007081449 2.1673087e-38
0.0052382052 -0.12409012 0.007081449 2.2499641e-38
0.0070407968 -0.12409012 0.007081449 1.9278183e-38
0.0088253561 -0.12486555 0.0041428208 1.8448049e-38
0.010619681 -0.1256734 0.0010814071 1.8724625e-38
0.012432793 -0.1256734 0.0010814071 1.7710098e-38
0.014242459 -0.126711 -0.0028508306 2.1120981e-38
0.016065091 -0.1275015 -0.00584656 2.2132287e-38
0.017898275 -0.1282966 -0.008859694 2.2775157e-38
0.019742101 -0.12909628 -0.011890233 2.2590407e-38
0.021577958 -0.12909628 -0.011890233 2.0007489e-38
0.023437003 -0.12987186 -0.014829338 1.8718175e-38
0.025278011 -0.12987186 -0.014829338 2.0102179e-38
0.027119022 -0.12987186 -0.014829338 2.1853531e-38
0.028960031 -0.12987186 -0.014829338 2.3142476e-38
0.030801039 -0.12987186 -0.014829338 2.3326166e-38
0.032642048 -0.12987186 -0.014829338 2.2499643e-38
0.034483057 -0.12987186 -0.014829338 2.0111174e-38
0.036405817 -0.13094176 -0.018883884 1.5783357e-38
0.038253937 -0.13094176 -0.018883884 1.4218167e-38
0.040102057 -0.13094176 -0.018883884 1.5412743e-38
0.041950174 -0.13094176 -0.018883884 1.6784174e-38
0.04379829 -0.13094176 -0.018883884 1.1244885e-38
0.045646407 -0.13094176 -0.018883884 1.1332406e-38
-0.081678182 -0.11712147 0.040101945 2.3509527e-38
-0.08021535 -0.11790501 0.037152171 2.3509883e-38
-0.078465492 -0.11790501 0.037152171 2.323365e-38
-0.076715618 -0.11790501 0.037152171 2.3509879e-38
-0.074965745 -0.11790501 0.037152171 2.2587927e-38
-0.073215887 -0.11790501 0.037152171 2.2403185e-38
-0.071732163 -0.11871959 0.034085572 2.3509168e-38
-0.069976926 -0.11871959 0.034085572 1.7423182e-38
-0.028364319 -0.12189357 0.022136748 1.0868556e-38
-0.026462901 -0.12108628 0.025175869 1.0775645e-38
-0.024692036 -0.12108628 0.025175869 1.0683813e-38
-0.022921171 -0.12108628 0.025175869 9.2112042e-39
-0.021150302 -0.12108628 0.025175869 1.1426773e-38
-0.019379437 -0.12108628 0.025175869 1.474941e-38
-0.017608572 -0.12108628 0.025175869 1.8256795e-38
-0.015930954 -0.12189357 0.022136748 1.7615375e-38
-0.014154758 -0.12189357 0.022136748 1.6697727e-38
-0.012378562 -0.12189357 0.022136748 1.5689316e-38
-0.010680098 -0.12270571 0.019079268 1.633612e-38
-0.0089689158 -0.12349547 0.016106188 1.4950678e-38
-0.0072476901 -0.12428986 0.013115585 2.0202262e-38
-0.0054556802 -0.12428986 0.013115585 2.2591501e-38
-0.0036636665 -0.12428986 0.013115585 2.240784e-38
-0.0018716566 -0.12428986 0.013115585 2.185501e-38
-0.00012447685 -0.12508895 0.010107338 2.0841554e-38
0.0016728118 -0.12508895 0.010107338 1.946075e-38
0.0034356117 -0.12589271 0.007081449 2.1028789e-38
0.0052382052 -0.12589271 0.007081449 2.2591469e-38
0.0070407968 -0.12589271 0.007081449 2.1305758e-38
0.0088433884 -0.12589271 0.007081449 2.2499626e-38
0.0106331 -0.1266733 0.0041428208 2.2499617e-38
0.012440845 -0.1266733 0.0041428208 1.8540211e-38
0.014245905 -0.12748651 0.0010814071 2.1213529e-38
0.016062465 -0.12853102 -0.0028508306 2.2040436e-38
0.017898275 -0.13012715 -0.008859694 2.2499632e-38
0.019742101 -0.13093217 -0.011890233 2.3234331e-38
0.021595994 -0.13171287 -0.014829338 2.176207e-38
0.023437003 -0.13171287 -0.014829338 1.9920301e-38
0.025278011 -0.13171287 -0.014829338 1.973626e-38
0.027119022 -0.13171287 -0.014829338 2.0380545e-38
0.028960031 -0.13171287 -0.014829338 2.1853163e-38
0.030801039 -0.13171287 -0.014829338 1.9359223e-38
0.032642048 -0.13171287 -0.014829338 1.8530544e-38
0.034483057 -0.13171287 -0.014829338 1.6417586e-38
0.036324065 -0.13171287 -0.014829338 1.4210268e-38
0.038165078 -0.13171287 -0.014829338 1.4582266e-38
0.040102057 -0.13278987 -0.018883884 1.5593892e-38
0.041950174 -0.13278987 -0.018883884 1.613736e-38
0.04379829 -0.13278987 -0.018883884 1.1060489e-38
0.045646407 -0.13278987 -0.018883884 1.1608993e-38
0.047494527 -0.13278987 -0.018883884 1.3450026e-38
0.049342643 -0.13278987 -0.018883884 1.3911709e-38
-0.081678182 -0.11886616 0.040101945 2.3509527e-38
-0.079933479 -0.11886616 0.040101945 2.3232932e-38
-0.078188792 -0.11886616 0.040101945 2.3418036e-38
-0.076444089 -0.11886616 0.040101945 2.3509873e-38
-0.074965745 -0.11965488 0.037152171 2.3233652e-38
-0.073215887 -0.11965488 0.037152171 2.3325138e-38
-0.071466014 -0.11965488 0.037152171 2.3509168e-38
-0.069716141 -0.11965488 0.037152171 1.7054399e-38
-0.030004632 -0.12285714 0.025175869 1.1146222e-38
-0.02823377 -0.12285714 0.025175869 1.1145146e-38
-0.026462901 -0.12285714 0.025175869 1.1697604e-38
-0.024576824 -0.12207626 0.028096378 1.0038444e-38
-0.022811078 -0.12207626 0.028096378 9.026813e-39
-0.021150302 -0.12285714 0.025175869 1.1242382e-38
-0.019379437 -0.12285714 0.025175869 1.4657215e-38
-0.017608572 -0.12285714 0.025175869 1.8902167e-38
-0.015930954 -0.12366976 0.022136748 1.7798693e-38
-0.014154758 -0.12366976 0.022136748 1.6421137e-38
-0.012378562 -0.12366976 0.022136748 1.5874412e-38
-0.010680098 -0.1244873 0.019079268 1.606024e-38
-0.0089689158 -0.12528224 0.016106188 1.5135066e-38
-0.0072476901 -0.12608187 0.013115585 1.9648738e-38
-0.0054556802 -0.12608187 0.013115585 2.1303286e-38
-0.0036636665 -0.12608187 0.013115585 2.0010052e-38
-0.0018716566 -0.12608187 0.013115585 1.8074283e-38
-0.00012447685 -0.12688623 0.010107338 1.9643017e-38
0.0016728118 -0.12688623 0.010107338 1.9553294e-38
0.0034356117 -0.12769531 0.007081449 1.7802642e-38
0.0052382052 -0.12769531 0.007081449 1.8448742e-38
0.0070407968 -0.12769531 0.007081449 2.22241e-38
0.0088433884 -0.12769531 0.007081449 2.2591441e-38
0.0106331 -0.12848105 0.0041428208 1.9739829e-38
0.012440845 -0.12848105 0.0041428208 1.7710802e-38
0.014245905 -0.1292996 0.0010814071 1.9369608e-38
0.016062465 -0.13035102 -0.0028508306 2.2132258e-38
0.017898275 -0.13195769 -0.008859694 2.2591451e-38
0.019742101 -0.13276802 -0.011890233 2.231595e-38
0.021595994 -0.13355388 -0.014829338 2.1212475e-38
0.023437003 -0.13355388 -0.014829338 1.8542744e-38
0.025278011 -0.13355388 -0.014829338 1.7805527e-38
0.027119022 -0.13355388 -0.014829338 1.8631685e-38
0.028960031 -0.13355388 -0.014829338 1.6966775e-38
0.030801039 -0.13355388 -0.014829338 1.8065589e-38
0.032642048 -0.13355388 -0.014829338 1.6036209e-38
0.034483057 -0.13355388 -0.014829338 1.428952e-38
0.036324065 -0.13355388 -0.014829338 1.4755516e-38
0.038165078 -0.13355388 -0.014829338 1.5774324e-38
0.040006086 -0.13355388 -0.014829338 1.7065053e-38
0.041950174 -0.134638 -0.018883884 1.5951879e-38
0.04379829 -0.134638 -0.018883884 1.2074276e-38
0.045646407 -0.134638 -0.018883884 1.1516077e-38
0.047494527 -0.134638 -0.018883884 1.2435874e-38
0.049342643 -0.134638 -0.018883884 1.3173425e-38
-0.081678182 -0.12061088 0.040101945 2.350988e-38
-0.079933479 -0.12061088 0.040101945 2.3417679e-38
-0.078188792 -0.12061088 0.040101945 2.350987e-38
-0.076444089 -0.12061088 0.040101945 2.3509873e-38
-0.074965745 -0.12140475 0.037152171 2.3418042e-38
-0.073215887 -0.12140475 0.037152171 2.3141106e-38
-0.071466014 -0.12140475 0.037152171 2.3417691e-38
-0.069716141 -0.12140475 0.037152171 1.7976709e-38
-0.067966282 -0.12140475 0.037152171 1.3826063e-38
-0.030004632 -0.12462802 0.025175869 1.1052953e-38
-0.02823377 -0.12462802 0.025175869 1.0868562e-38
-0.026462901 -0.12462802 0.025175869 1.1421018e-38
-0.024576824 -0.12384202 0.028096378 1.0038447e-38
-0.022811078 -0.12384202 0.028096378 9.3948752e-39
-0.021150302 -0.12462802 0.025175869 1.1426057e-38
-0.019379437 -0.12462802 0.025175869 1.4656857e-38
-0.017608572 -0.12462802 0.025175869 1.8901811e-38
-0.015837703 -0.12462802 0.025175869 1.7982729e-38
-0.014066838 -0.12462802 0.025175869 1.6697371e-38
-0.012378562 -0.12544595 0.022136748 1.541344e-38
-0.010680098 -0.12626885 0.019079268 1.6059885e-38
-0.0088985451 -0.12626885 0.019079268 1.6886789e-38
-0.0071821474 -0.12706901 0.016106188 2.0662891e-38
-0.0053953789 -0.12706901 0.016106188 2.1578798e-38
-0.0036636665 -0.12787388 0.013115585 2.2314226e-38
-0.0018716566 -0.12787388 0.013115585 2.2222007e-38
-0.00012447685 -0.12868352 0.010107338 2.1486926e-38
0.0016728118 -0.12868352 0.010107338 1.8539139e-38
0.0034356117 -0.1294979 0.007081449 1.7342014e-38
0.0052382052 -0.1294979 0.007081449 1.5222962e-38
0.0070407968 -0.1294979 0.007081449 1.4577593e-38
0.0088433884 -0.1294979 0.007081449 1.5592094e-38
0.0106331 -0.13028879 0.0041428208 1.6237816e-38
0.012432793 -0.13111271 0.0010814071 1.6329646e-38
0.014242459 -0.13217102 -0.0028508306 1.6881744e-38
0.016062465 -0.13217102 -0.0028508306 1.7801916e-38
0.017898275 -0.13378824 -0.008859694 1.8169994e-38
0.019742101 -0.13460387 -0.011890233 1.7340963e-38
0.021595994 -0.13539489 -0.014829338 1.5961263e-38
0.023437003 -0.13539489 -0.014829338 1.4306763e-38
0.025278011 -0.13539489 -0.014829338 1.5320547e-38
0.027119022 -0.13539489 -0.014829338 1.6698441e-38
0.028960031 -0.13539489 -0.014829338 1.4754426e-38
0.030801039 -0.13539489 -0.014829338 1.4375593e-38
0.032642048 -0.13539489 -0.014829338 1.4463837e-38
0.034483057 -0.13539489 -0.014829338 1.3914971e-38
0.036324065 -0.13539489 -0.014829338 1.5579873e-38
0.038165078 -0.13539489 -0.014829338 1.6415006e-38
0.040006086 -0.13539489 -0.014829338 1.6692667e-38
0.041950174 -0.13648613 -0.018883884 1.6503248e-38
0.04379829 -0.13648613 -0.018883884 1.2903312e-38
0.045646407 -0.13648613 -0.018883884 1.2621705e-38
0.047494527 -0.13648613 -0.018883884 1.3264915e-38
-0.079933479 -0.12235557 0.040101945 2.3509876e-38
-0.078188792 -0.12235557 0.040101945 2.350987e-38
-0.076444089 -0.12235557 0.040101945 2.3509873e-38
-0.074965745 -0.12315463 0.037152171 2.3509879e-38
-0.073215887 -0.12315463 0.037152171 2.2864516e-38
-0.071466014 -0.12315463 0.037152171 2.3417691e-38
-0.069716141 -0.12315463 0.037152171 1.9544386e-38
-0.067966282 -0.12315463 0.037152171 1.3918244e-38
-0.031639811 -0.12560774 0.028096378 1.0869641e-38
-0.02987406 -0.12560774 0.028096378 1.1052599e-38
-0.02823377 -0.12639888 0.025175869 1.0959684e-38
-0.026462901 -0.12639888 0.025175869 1.1235911e-38
-0.024576824 -0.12560774 0.028096378 1.0222838e-38
-0.022811078 -0.12560774 0.028096378 9.8558534e-39
-0.021150302 -0.12639888 0.025175869 1.1610449e-38
-0.019379437 -0.12639888 0.025175869 1.4564662e-38
-0.017608572 -0.12639888 0.025175869 1.9085482e-38
-0.015837703 -0.12639888 0.025175869 1.8167123e-38
-0.014066838 -0.12639888 0.025175869 1.688141e-38
-0.012378562 -0.12722217 0.022136748 1.6242144e-38
-0.010680098 -0.1280504 0.019079268 1.5966992e-38
-0.0088985451 -0.1280504 0.019079268 1.7808037e-38
-0.0071821474 -0.12885578 0.016106188 2.2040448e-38
-0.0053953789 -0.12885578 0.016106188 2.2499671e-38
-0.0036636665 -0.1296659 0.013115585 2.2958867e-38
-0.0018716566 -0.1296659 0.013115585 2.3142518e-38
-0.00012447685 -0.13048081 0.010107338 2.065752e-38
0.0016728118 -0.13048081 0.010107338 1.8539142e-38
0.0034356117 -0.13130049 0.007081449 1.7619327e-38
0.0052382052 -0.13130049 0.007081449 1.5592469e-38
0.0070407968 -0.13130049 0.007081449 1.4118054e-38
0.0088433884 -0.13130049 0.007081449 1.3934365e-38
0.0106331 -0.13209651 0.0041428208 1.4119815e-38
0.012440845 -0.13209651 0.0041428208 1.5318342e-38
0.014245905 -0.13292582 0.0010814071 1.7161178e-38
0.016062465 -0.13399105 -0.0028508306 1.651188e-38
0.017890351 -0.13480256 -0.00584656 1.6511538e-38
0.019742101 -0.13643973 -0.011890233 1.4854904e-38
0.021595994 -0.13723589 -0.014829338 1.3475567e-38
0.023437003 -0.13723589 -0.014829338 1.2835219e-38
0.025278011 -0.13723589 -0.014829338 1.5231215e-38
0.027119022 -0.13723589 -0.014829338 1.6792782e-38
0.028960031 -0.13723589 -0.014829338 1.4478546e-38
0.030801039 -0.13723589 -0.014829338 1.5572684e-38
0.032642048 -0.13723589 -0.014829338 1.5936798e-38
0.034483057 -0.13723589 -0.014829338 1.4556016e-38
0.036324065 -0.13723589 -0.014829338 1.705032e-38
0.038165078 -0.13723589 -0.014829338 1.7242243e-38
0.040006086 -0.13723589 -0.014829338 1.6413916e-38
0.041950174 -0.13833423 -0.018883884 1.6687274e-38
0.04379829 -0.13833423 -0.018883884 1.2810753e-38
0.045646407 -0.13833423 -0.018883884 1.3174878e-38
-0.079933479 -0.12410025 0.040101945 2.3509876e-38
-0.078188792 -0.12410025 0.040101945 2.3509876e-38
-0.076444089 -0.12410025 0.040101945 2.3417679e-38
-0.074699402 -0.12410025 0.040101945 2.350988e-38
-0.072954699 -0.12410025 0.040101945 2.2956709e-38
-0.071209997 -0.12410025 0.040101945 2.3509527e-38
-0.069465309 -0.12410025 0.040101945 2.0835475e-38
-0.067966282 -0.1249045 0.037152171 1.4470689e-38
-0.066216409 -0.1249045 0.037152171 9.3066313e-39
-0.064466536 -0.1249045 0.037152171 1.050373e-38
-0.031500254 -0.12655462 0.031099856 1.1053678e-38
-0.029739778 -0.12655462 0.031099856 1.1236637e-38
-0.02810831 -0.1273735 0.028096378 1.1236277e-38
-0.026342567 -0.1273735 0.028096378 1.1235558e-38
-0.024458334 -0.12655462 0.031099856 1.0775296e-38
-0.022697855 -0.12655462 0.031099856 1.0316476e-38
-0.021045331 -0.1273735 0.028096378 1.179484e-38
-0.019379437 -0.12816976 0.025175869 1.4563586e-38
-0.017608572 -0.12816976 0.025175869 1.8992929e-38
-0.015930954 -0.12899835 0.022136748 1.8074929e-38
-0.014154758 -0.12899835 0.022136748 1.6972533e-38
-0.012378562 -0.12899835 0.022136748 1.6056322e-38
-0.010680098 -0.12983195 0.019079268 1.4767376e-38
-0.0088985451 -0.12983195 0.019079268 1.6424737e-38
-0.0071821474 -0.13064255 0.016106188 2.1305737e-38
-0.0053953789 -0.13064255 0.016106188 2.2591484e-38
-0.0036636665 -0.13145791 0.013115585 2.0564271e-38
-0.0018716566 -0.13145791 0.013115585 1.8443397e-38
-0.00012447685 -0.1322781 0.010107338 1.5586755e-38
0.0016728118 -0.1322781 0.010107338 1.5312662e-38
0.0034356117 -0.13310309 0.007081449 1.5037512e-38
0.0052382052 -0.13310309 0.007081449 1.4301043e-38
0.0070407968 -0.13310309 0.007081449 1.420956e-38
0.0088433884 -0.13310309 0.007081449 1.4027299e-38
0.0106331 -0.13390426 0.0041428208 1.3475536e-38
0.012440845 -0.13390426 0.0041428208 1.4029761e-38
0.014245905 -0.13473894 0.0010814071 1.6148819e-38
0.016059019 -0.13473894 0.0010814071 1.586902e-38
0.01787213 -0.13473894 0.0010814071 1.5314788e-38
0.019728817 -0.13744931 -0.008859694 1.3842186e-38
0.021577958 -0.13827558 -0.011890233 1.3292246e-38
0.023437003 -0.1390769 -0.014829338 1.3112879e-38
0.025278011 -0.1390769 -0.014829338 1.4864226e-38
0.027119022 -0.1390769 -0.014829338 1.6424354e-38
0.028960031 -0.1390769 -0.014829338 1.4386348e-38
0.030801039 -0.1390769 -0.014829338 1.5941466e-38
0.032642048 -0.1390769 -0.014829338 1.5752404e-38
0.034483057 -0.1390769 -0.014829338 1.2896852e-38
0.036405817 -0.14018236 -0.018883884 1.6036524e-38
0.038253937 -0.14018236 -0.018883884 1.7148966e-38
0.040102057 -0.14018236 -0.018883884 1.6321002e-38
0.041950174 -0.14018236 -0.018883884 1.7700347e-38
0.04379829 -0.14018236 -0.018883884 1.3455044e-38
0.045646407 -0.14018236 -0.018883884 1.3358549e-38
-0.079643965 -0.12501357 0.043131828 2.3509521e-38
-0.077904582 -0.12501357 0.043131828 2.3509161e-38
-0.076165199 -0.12501357 0.043131828 2.3232936e-38
-0.074699402 -0.12584494 0.040101945 2.3509883e-38
-0.072954699 -0.12584494 0.040101945 2.31411e-38
-0.071209997 -0.12584494 0.040101945 2.3509886e-38
-0.069465309 -0.12584494 0.040101945 2.0927307e-38
-0.067966282 -0.12665437 0.037152171 1.4193738e-38
-0.066216409 -0.12665437 0.037152171 8.8442084e-39
-0.064466536 -0.12665437 0.037152171 9.9494741e-39
-0.062955946 -0.12749584 0.034085572 1.059412e-38
-0.031500254 -0.12831511 0.031099856 1.114552e-38
-0.029739778 -0.12831511 0.031099856 1.1421032e-38
-0.02810831 -0.12913923 0.028096378 1.1420313e-38
-0.026342567 -0.12913923 0.028096378 1.141995e-38
-0.024458334 -0.12831511 0.031099856 1.1236277e-38
-0.022697855 -0.12831511 0.031099856 1.0777454e-38
-0.021045331 -0.12913923 0.028096378 1.179484e-38
-0.019379437 -0.12994061 0.025175869 1.447139e-38
-0.017608572 -0.12994061 0.025175869 1.8900736e-38
-0.015930954 -0.13077454 0.022136748 1.7982017e-38
-0.014154758 -0.13077454 0.022136748 1.6511554e-38
-0.012378562 -0.13077454 0.022136748 1.5687178e-38
-0.010680098 -0.13161351 0.019079268 1.5689319e-38
-0.0089689158 -0.13242932 0.016106188 1.5964092e-38
-0.0071821474 -0.13242932 0.016106188 1.8358313e-38
-0.0054556802 -0.13324992 0.013115585 2.0290861e-38
-0.0036636665 -0.13324992 0.013115585 1.7983473e-38
-0.0019217618 -0.13407536 0.010107338 1.6231756e-38
-0.00012447685 -0.13407536 0.010107338 1.5402715e-38
0.0016728118 -0.13407536 0.010107338 1.6049524e-38
0.0034700967 -0.13407536 0.010107338 1.5959144e-38
0.0052382052 -0.13490568 0.007081449 1.4575882e-38
0.0070407968 -0.13490568 0.007081449 1.2918159e-38
0.0088433884 -0.13490568 0.007081449 1.3197229e-38
0.0106331 -0.13571201 0.0041428208 1.4213502e-38
0.012440845 -0.13571201 0.0041428208 1.4676237e-38
0.014245905 -0.13655205 0.0010814071 1.5136123e-38
0.016059019 -0.13655205 0.0010814071 1.4856673e-38
0.01787213 -0.13655205 0.0010814071 1.3842175e-38
0.019728817 -0.13927986 -0.008859694 1.31057e-38
0.021577958 -0.14011143 -0.011890233 1.3753943e-38
0.023413813 -0.14011143 -0.011890233 1.3388747e-38
0.025278011 -0.14091791 -0.014829338 1.394083e-38
0.027119022 -0.14091791 -0.014829338 1.504142e-38
0.028960031 -0.14091791 -0.014829338 1.3742058e-38
0.030801039 -0.14091791 -0.014829338 1.5389732e-38
0.032642048 -0.14091791 -0.014829338 1.5570533e-38
0.034483057 -0.14091791 -0.014829338 1.3084123e-38
0.036405817 -0.14203046 -0.018883884 1.6039405e-38
0.038253937 -0.14203046 -0.018883884 1.6690872e-38
0.040102057 -0.14203046 -0.018883884 1.5769631e-38
0.041950174 -0.14203046 -0.018883884 1.7332289e-38
0.04379829 -0.14203046 -0.018883884 1.3270299e-38
0.045646407 -0.14203046 -0.018883884 1.3727331e-38
-0.079643965 -0.12675296 0.043131828 2.3509168e-38
-0.077904582 -0.12675296 0.043131828 2.3508809e-38
-0.076165199 -0.12675296 0.043131828 2.3508091e-38
-0.074699402 -0.12758966 0.040101945 2.3509527e-38
-0.072686419 -0.12675296 0.043131828 2.3509883e-38
-0.070947036 -0.12675296 0.043131828 2.3509883e-38
-0.069465309 -0.12758966 0.040101945 1.9174864e-38
-0.067720607 -0.12758966 0.040101945 1.419194e-38
-0.066216409 -0.12840421 0.037152171 9.0275206e-39
-0.064466536 -0.12840421 0.037152171 1.0224982e-38
-0.062716678 -0.12840421 0.037152171 1.0685597e-38
-0.031639811 -0.13090499 0.028096378 1.1145166e-38
-0.02987406 -0.13090499 0.028096378 1.1512512e-38
-0.02810831 -0.13090499 0.028096378 1.1328121e-38
-0.026462901 -0.1317115 0.025175869 1.1603986e-38
-0.024576824 -0.13090499 0.028096378 1.1604702e-38
-0.022811078 -0.13090499 0.028096378 1.1054043e-38
-0.021150302 -0.1317115 0.025175869 1.1794843e-38
-0.019379437 -0.1317115 0.025175869 1.4286999e-38
-0.017608572 -0.1317115 0.025175869 1.8900736e-38
-0.015930954 -0.13255073 0.022136748 1.7797626e-38
-0.014154758 -0.13255073 0.022136748 1.604986e-38
-0.012378562 -0.13255073 0.022136748 1.6055957e-38
-0.010680098 -0.13339506 0.019079268 1.7532508e-38
-0.0089689158 -0.13421609 0.016106188 1.5779334e-38
-0.0071821474 -0.13421609 0.016106188 1.3932912e-38
-0.0054556802 -0.13504194 0.013115585 1.58651e-38
-0.0036636665 -0.13504194 0.013115585 1.6600889e-38
-0.0019217618 -0.13587265 0.010107338 1.9366402e-38
-0.00012447685 -0.13587265 0.010107338 2.1395433e-38
0.0016728118 -0.13587265 0.010107338 2.176495e-38
0.0034700967 -0.13587265 0.010107338 2.1213953e-38
0.0052382052 -0.13670824 0.007081449 1.9554471e-38
0.0070407968 -0.13670824 0.007081449 1.6882956e-38
0.0088433884 -0.13670824 0.007081449 1.4672387e-38
0.0106331 -0.13751976 0.0041428208 1.2923149e-38
0.012440845 -0.13751976 0.0041428208 1.3201849e-38
0.014245905 -0.13836516 0.0010814071 1.5229773e-38
0.016059019 -0.13836516 0.0010814071 1.4951754e-38
0.01787213 -0.13836516 0.0010814071 1.3843975e-38
0.019715611 -0.14027832 -0.00584656 1.3291532e-38
0.02155936 -0.14111041 -0.008859694 1.4582988e-38
0.023413813 -0.14194728 -0.011890233 1.3755734e-38
0.025278011 -0.14275892 -0.014829338 1.3293665e-38
0.027119022 -0.14275892 -0.014829338 1.4118748e-38
0.028960031 -0.14275892 -0.014829338 1.3189247e-38
0.030801039 -0.14275892 -0.014829338 1.4285546e-38
0.032642048 -0.14275892 -0.014829338 1.5850363e-38
0.034483057 -0.14275892 -0.014829338 1.5024553e-38
0.036405817 -0.14387859 -0.018883884 1.6689095e-38
0.038253937 -0.14387859 -0.018883884 1.5955832e-38
0.040102057 -0.14387859 -0.018883884 1.484912e-38
0.041950174 -0.14387859 -0.018883884 1.6041919e-38
0.04379829 -0.14387859 -0.018883884 1.2809325e-38
-0.079643965 -0.12849234 0.043131828 2.3508451e-38
-0.077904582 -0.12849234 0.043131828 2.3508092e-38
-0.076165199 -0.12849234 0.043131828 2.3508809e-38
-0.074425802 -0.12849234 0.043131828 2.3509168e-38
-0.072686419 -0.12849234 0.043131828 2.3509527e-38
-0.070947036 -0.12849234 0.043131828 2.3325129e-38
-0.069465309 -0.12933435 0.040101945 1.6316079e-38
-0.067720607 -0.12933435 0.040101945 1.3730602e-38
-0.066216409 -0.13015409 0.037152171 9.3030285e-39
-0.064466536 -0.13015409 0.037152171 1.0869635e-38
-0.062716678 -0.13015409 0.037152171 1.1145499e-38
-0.06120069 -0.13100632 0.034085572 1.1236257e-38
-0.031639811 -0.13267075 0.028096378 1.1237367e-38
-0.02987406 -0.13267075 0.028096378 1.1512156e-38
-0.02823377 -0.13348235 0.025175869 1.1327765e-38
-0.026462901 -0.13348235 0.025175869 1.1696184e-38
-0.024692036 -0.13348235 0.025175869 1.16969e-38
-0.022921171 -0.13348235 0.025175869 1.1054043e-38
-0.021150302 -0.13348235 0.025175869 1.1610451e-38
-0.019483343 -0.13432692 0.022136748 1.4286999e-38
-0.01770715 -0.13432692 0.022136748 1.8992932e-38
-0.015930954 -0.13432692 0.022136748 1.7705074e-38
-0.014154758 -0.13432692 0.022136748 1.5588882e-38
-0.012378562 -0.13432692 0.022136748 1.5778296e-38
-0.010755684 -0.13600285 0.016106188 1.6518006e-38
-0.0090397038 -0.13683395 0.013115585 1.6239607e-38
-0.0072476901 -0.13683395 0.013115585 1.4669775e-38
-0.0054556802 -0.13683395 0.013115585 1.6048435e-38
-0.0037190504 -0.13766994 0.010107338 1.7798014e-38
-0.0019217618 -0.13766994 0.010107338 2.231596e-38
-0.00012447685 -0.13766994 0.010107338 2.2958824e-38
0.0016728118 -0.13766994 0.010107338 2.2591483e-38
0.0034700967 -0.13766994 0.010107338 2.2224159e-38
0.0052382052 -0.13851084 0.007081449 2.1673176e-38
0.0070407968 -0.13851084 0.007081449 2.0571139e-38
0.0088433884 -0.13851084 0.007081449 1.7438979e-38
0.0106331 -0.13932751 0.0041428208 1.32923e-38
0.012440845 -0.13932751 0.0041428208 1.1911847e-38
0.014245905 -0.14017828 0.0010814071 1.3848654e-38
0.016059019 -0.14017828 0.0010814071 1.4123799e-38
0.01787213 -0.14017828 0.0010814071 1.3385161e-38
0.019702479 -0.14127107 -0.0028508306 1.3106787e-38
0.021540869 -0.1421036 -0.00584656 1.3936545e-38
0.023389902 -0.14294095 -0.008859694 1.3476635e-38
0.025278011 -0.14459993 -0.014829338 1.356774e-38
0.027119022 -0.14459993 -0.014829338 1.4761965e-38
0.028960031 -0.14459993 -0.014829338 1.3557676e-38
0.030801039 -0.14459993 -0.014829338 1.3089886e-38
0.032642048 -0.14459993 -0.014829338 1.4379194e-38
0.0345577 -0.1457267 -0.018883884 1.4199834e-38
0.036405817 -0.1457267 -0.018883884 1.4296333e-38
0.038253937 -0.1457267 -0.018883884 1.3102093e-38
0.040102057 -0.1457267 -0.018883884 1.3837853e-38
0.041950174 -0.1457267 -0.018883884 1.5396918e-38
0.04379829 -0.1457267 -0.018883884 1.3362146e-38
-0.077622086 -0.12938951 0.046143353 2.3509168e-38
-0.076165199 -0.13023172 0.043131828 2.3509168e-38
-0.074425802 -0.13023172 0.043131828 2.3509527e-38
-0.072686419 -0.13023172 0.043131828 2.3509879e-38
-0.070947036 -0.13023172 0.043131828 2.2955619e-38
-0.069465309 -0.13107903 0.040101945 1.4011539e-38
-0.067720607 -0.13107903 0.040101945 1.2532053e-38
-0.066216409 -0.13190396 0.037152171 8.7498519e-39
-0.064466536 -0.13190396 0.037152171 1.0777796e-38
-0.062716678 -0.13190396 0.037152171 1.1145499e-38
-0.06120069 -0.13276155 0.034085572 1.1144061e-38
-0.031639811 -0.13443647 0.028096378 1.1605068e-38
-0.02987406 -0.13443647 0.028096378 1.1604352e-38
-0.02823377 -0.13525321 0.025175869 1.141996e-38
-0.026462901 -0.13525321 0.025175869 1.1512512e-38
-0.024692036 -0.13525321 0.025175869 1.1513225e-38
-0.022921171 -0.13525321 0.025175869 1.0961848e-38
-0.021150302 -0.13525321 0.025175869 1.1518256e-38
-0.019483343 -0.13610314 0.022136748 1.4011494e-38
-0.01770715 -0.13610314 0.022136748 1.8901459e-38
-0.015930954 -0.13610314 0.022136748 1.7705796e-38
-0.014154758 -0.13610314 0.022136748 1.5404139e-38
-0.012378562 -0.13610314 0.022136748 1.6145293e-38
-0.010755684 -0.13778962 0.016106188 1.6238921e-38
-0.0090397038 -0.13862596 0.013115585 1.9832392e-38
-0.0072476901 -0.13862596 0.013115585 2.231594e-38
-0.0054556802 -0.13862596 0.013115585 2.2958824e-38
-0.0037190504 -0.13946722 0.010107338 2.2130865e-38
-0.0019217618 -0.13946722 0.010107338 2.3142509e-38
-0.00012447685 -0.13946722 0.010107338 2.259149e-38
0.0016728118 -0.13946722 0.010107338 2.1948632e-38
0.0034700967 -0.13946722 0.010107338 2.2315998e-38
0.0052382052 -0.14031343 0.007081449 2.2132343e-38
0.0070407968 -0.14031343 0.007081449 2.158133e-38
0.0088433884 -0.14031343 0.007081449 2.167316e-38
0.0106331 -0.14113526 0.0041428208 2.1122122e-38
0.012432793 -0.14199139 0.0010814071 1.7992113e-38
0.014245905 -0.14199139 0.0010814071 1.5319496e-38
0.016059019 -0.14199139 0.0010814071 1.35692e-38
0.017882472 -0.14309107 -0.0028508306 1.3108577e-38
0.019702479 -0.14309107 -0.0028508306 1.2922396e-38
0.021540869 -0.14392884 -0.00584656 1.3843273e-38
0.023389902 -0.1447715 -0.008859694 1.39369e-38
0.025249667 -0.14561899 -0.011890233 1.5502781e-38
0.027119022 -0.14644094 -0.014829338 1.7251617e-38
0.028960031 -0.14644094 -0.014829338 1.5588145e-38
0.030801039 -0.14644094 -0.014829338 1.6874226e-38
0.032642048 -0.14644094 -0.014829338 1.6228142e-38
0.0345577 -0.14757483 -0.018883884 1.466441e-38
0.036405817 -0.14757483 -0.018883884 1.2823366e-38
0.038253937 -0.14757483 -0.018883884 1.1994671e-38
0.040102057 -0.14757483 -0.018883884 1.3744227e-38
0.042025894 -0.14840777 -0.021862328 1.4935943e-38
0.043879233 -0.14840777 -0.021862328 1.3177752e-38
-0.077622086 -0.13112362 0.046143353 2.31411e-38
-0.076165199 -0.13197111 0.043131828 2.3325127e-38
-0.074425802 -0.13197111 0.043131828 2.3140366e-38
-0.072686419 -0.13197111 0.043131828 2.3324753e-38
-0.070947036 -0.13197111 0.043131828 2.1020215e-38
-0.069465309 -0.13282375 0.040101945 1.3919332e-38
-0.067720607 -0.13282375 0.040101945 1.1979587e-38
-0.066216409 -0.13365383 0.037152171 1.0317532e-38
-0.064466536 -0.13365383 0.037152171 1.0040945e-38
-0.062716678 -0.13365383 0.037152171 1.0869988e-38
-0.06120069 -0.13451682 0.034085572 1.0776717e-38
-0.031775501 -0.13702409 0.025175869 1.1512509e-38
-0.030004632 -0.13702409 0.025175869 1.1512512e-38
-0.028364319 -0.13787933 0.022136748 1.1789096e-38
-0.026462901 -0.13702409 0.025175869 1.1143724e-38
-0.024692036 -0.13702409 0.025175869 1.0592346e-38
-0.022921171 -0.13702409 0.025175869 1.0779252e-38
-0.021150302 -0.13702409 0.025175869 1.1150912e-38
-0.019483343 -0.13787933 0.022136748 1.3643074e-38
-0.01770715 -0.13787933 0.022136748 1.8533041e-38
-0.015930954 -0.13787933 0.022136748 1.6784564e-38
-0.014154758 -0.13787933 0.022136748 1.5864768e-38
-0.012461655 -0.13873972 0.019079268 1.6602696e-38
-0.010755684 -0.13957639 0.016106188 2.0106858e-38
-0.0090397038 -0.14041798 0.013115585 2.1672402e-38
-0.0072476901 -0.14041798 0.013115585 2.2775168e-38
-0.0054556802 -0.14041798 0.013115585 2.2958843e-38
-0.0037190504 -0.14126451 0.010107338 2.3050682e-38
-0.0019217618 -0.14126451 0.010107338 2.3142527e-38
-0.00012447685 -0.14126451 0.010107338 2.3142528e-38
0.0016728118 -0.14126451 0.010107338 2.2958853e-38
0.0034356117 -0.14211603 0.007081449 2.295885e-38
0.0052382052 -0.14211603 0.007081449 2.231563e-38
0.0070407968 -0.14211603 0.007081449 2.2867018e-38
0.0088253561 -0.14294298 0.0041428208 2.286703e-38
0.010619681 -0.14380451 0.0010814071 2.2315293e-38
0.012432793 -0.14380451 0.0010814071 2.1024543e-38
0.014245905 -0.14380451 0.0010814071 1.5955916e-38
0.016062465 -0.14491107 -0.0028508306 1.3840411e-38
0.017882472 -0.14491107 -0.0028508306 1.2828756e-38
0.019702479 -0.14491107 -0.0028508306 1.2737282e-38
0.021540869 -0.14575411 -0.00584656 1.2460339e-38
0.023389902 -0.14660202 -0.008859694 1.3752157e-38
0.025249667 -0.14745484 -0.011890233 1.5872656e-38
0.027119022 -0.14828195 -0.014829338 1.5502795e-38
0.028960031 -0.14828195 -0.014829338 1.5224053e-38
0.030861465 -0.14942293 -0.018883884 1.5682518e-38
0.032709584 -0.14942293 -0.018883884 1.5312297e-38
0.0345577 -0.14942293 -0.018883884 1.3744251e-38
0.036405817 -0.14942293 -0.018883884 1.1531186e-38
0.038253937 -0.14942293 -0.018883884 1.1529742e-38
-0.079643965 -0.13371049 0.043131828 1.9914975e-38
-0.077904582 -0.13371049 0.043131828 1.8900456e-38
-0.076165199 -0.13371049 0.043131828 1.86235e-38
-0.074425802 -0.13371049 0.043131828 1.8253993e-38
-0.072686419 -0.13371049 0.043131828 1.7885563e-38
-0.070947036 -0.13371049 0.043131828 1.6041284e-38
-0.069465309 -0.13456844 0.040101945 1.0876151e-38
-0.067720607 -0.13456844 0.040101945 1.1610803e-38
-0.066216409 -0.13540371 0.037152171 1.0594116e-38
-0.031916711 -0.13965552 0.022136748 1.1328472e-38
-0.030140515 -0.13965552 0.022136748 1.1143724e-38
-0.028364319 -0.13965552 0.022136748 1.1236277e-38
-0.026588123 -0.13965552 0.022136748 1.0867491e-38
-0.024811931 -0.13965552 0.022136748 1.0961482e-38
-0.022921171 -0.13879494 0.025175869 1.1055836e-38
-0.021150302 -0.13879494 0.025175869 1.133566e-38
-0.019483343 -0.13965552 0.022136748 1.4288443e-38
-0.01770715 -0.13965552 0.022136748 1.8625239e-38
-0.015930954 -0.13965552 0.022136748 1.6046646e-38
-0.014243212 -0.14052127 0.019079268 1.5310168e-38
-0.012461655 -0.14052127 0.019079268 1.7706905e-38
-0.010831717 -0.14220999 0.013115585 2.130183e-38
-0.0090397038 -0.14220999 0.013115585 2.2683345e-38
-0.0072476901 -0.14220999 0.013115585 2.2867023e-38
-0.0054556802 -0.14220999 0.013115585 2.2683349e-38
-0.0037190504 -0.1430618 0.010107338 2.2682991e-38
-0.0019217618 -0.1430618 0.010107338 2.3142537e-38
-0.00012447685 -0.1430618 0.010107338 2.3234372e-38
0.0016728118 -0.1430618 0.010107338 2.1944701e-38
0.0034356117 -0.14391862 0.007081449 2.2037607e-38
0.0052382052 -0.14391862 0.007081449 2.2866641e-38
0.0070407968 -0.14391862 0.007081449 2.2589699e-38
0.0088253561 -0.14475073 0.0041428208 2.3049256e-38
0.010619681 -0.14561762 0.0010814071 2.3509886e-38
0.012432793 -0.14561762 0.0010814071 2.3509527e-38
0.014242459 -0.14673109 -0.0028508306 1.5675753e-38
0.016062465 -0.14673109 -0.0028508306 1.3008496e-38
0.017882472 -0.14673109 -0.0028508306 1.1813163e-38
0.019715611 -0.14757936 -0.00584656 1.2182666e-38
0.021540869 -0.14757936 -0.00584656 1.0984846e-38
0.023389902 -0.14843257 -0.008859694 1.0893016e-38
-0.079643965 -0.13544987 0.043131828 1.8993016e-38
-0.077904582 -0.13544987 0.043131828 1.7609717e-38
-0.076165199 -0.13544987 0.043131828 1.6963979e-38
-0.074425802 -0.13544987 0.043131828 1.6686668e-38
-0.072954699 -0.13631313 0.040101945 1.5856899e-38
-0.071209997 -0.13631313 0.040101945 1.4565434e-38
-0.069465309 -0.13631313 0.040101945 1.1890303e-38
-0.067966282 -0.13715358 0.037152171 1.0595574e-38
-0.066216409 -0.13715358 0.037152171 1.0409009e-38
-0.030277219 -0.14230286 0.019079268 1.1235911e-38
-0.028495658 -0.14230286 0.019079268 1.1235911e-38
-0.026714105 -0.14230286 0.019079268 1.1235908e-38
-0.024932548 -0.14230286 0.019079268 1.1606127e-38
-0.023035735 -0.1414317 0.022136748 1.0962197e-38
-0.021259539 -0.1414317 0.022136748 1.0780688e-38
-0.019483343 -0.1414317 0.022136748 1.4011138e-38
-0.01770715 -0.1414317 0.022136748 1.8440129e-38
-0.015930954 -0.1414317 0.022136748 1.6967523e-38
-0.014243212 -0.14230286 0.019079268 1.835155e-38
-0.012461655 -0.14230286 0.019079268 2.0379154e-38
-0.010831717 -0.14400201 0.013115585 2.2867011e-38
-0.0090397038 -0.14400201 0.013115585 2.3142524e-38
-0.0072476901 -0.14400201 0.013115585 2.3142531e-38
-0.0054556802 -0.14400201 0.013115585 2.3142544e-38
-0.0037190504 -0.14485909 0.010107338 2.3234379e-38
-0.0019217618 -0.14485909 0.010107338 2.3234374e-38
-0.00012447685 -0.14485909 0.010107338 2.1667394e-38
0.0016728118 -0.14485909 0.010107338 2.0930181e-38
0.0034356117 -0.14572121 0.007081449 2.0653591e-38
0.0052382052 -0.14572121 0.007081449 2.3509866e-38
0.0070407968 -0.14572121 0.007081449 2.3509866e-38
0.0088253561 -0.14655848 0.0041428208 2.350986e-38
0.010619681 -0.14743073 0.0010814071 2.3049964e-38
0.012432793 -0.14743073 0.0010814071 2.350988e-38
0.014242459 -0.14855109 -0.0028508306 1.6137084e-38
0.016062465 -0.14855109 -0.0028508306 1.2822661e-38
0.017882472 -0.14855109 -0.0028508306 1.0336591e-38
0.019715611 -0.14940463 -0.00584656 1.0798651e-38
-0.077904582 -0.13718925 0.043131828 1.0417739e-38
-0.076165199 -0.13718925 0.043131828 9.8638394e-39
-0.074425802 -0.13718925 0.043131828 1.0048222e-38
-0.072954699 -0.13805781 0.040101945 9.2188133e-39
-0.071209997 -0.13805781 0.040101945 8.2961311e-39
-0.069716141 -0.13890342 0.037152171 8.109565e-39
-0.067966282 -0.13890342 0.037152171 9.4885128e-39
-0.030277219 -0.14408441 0.019079268 1.1328102e-38
-0.028495658 -0.14408441 0.019079268 1.1236263e-38
-0.026714105 -0.14408441 0.019079268 1.1144064e-38
-0.024932548 -0.14408441 0.019079268 1.1513566e-38
-0.023035735 -0.14320792 0.022136748 1.0685247e-38
-0.021259539 -0.14320792 0.022136748 1.0687769e-38
-0.019587878 -0.14408441 0.019079268 1.3641635e-38
-0.017806325 -0.14408441 0.019079268 1.7516378e-38
-0.016024768 -0.14408441 0.019079268 1.7427424e-38
-0.014243212 -0.14408441 0.019079268 2.2037582e-38
-0.012461655 -0.14408441 0.019079268 2.2128724e-38
-0.010831717 -0.14579402 0.013115585 2.3142524e-38
-0.0090397038 -0.14579402 0.013115585 2.3234357e-38
-0.0072476901 -0.14579402 0.013115585 2.3234364e-38
-0.0054556802 -0.14579402 0.013115585 2.3141467e-38
-0.0037190504 -0.14665638 0.010107338 2.3417691e-38
-0.0019217618 -0.14665638 0.010107338 2.2865229e-38
-0.00016957149 -0.14752381 0.007081449 1.8163959e-38
0.001633022 -0.14752381 0.007081449 1.7702969e-38
0.0034356117 -0.14752381 0.007081449 2.0468838e-38
0.0052098669 -0.14836623 0.0041428208 2.3509866e-38
0.0070176125 -0.14836623 0.0041428208 2.3049961e-38
0.0088065695 -0.14924385 0.0010814071 2.2497492e-38
-0.077622086 -0.13806005 0.046143353 8.2965193e-39
-0.075887978 -0.13806005 0.046143353 8.1117623e-39
-0.074425802 -0.13892864 0.043131828 8.7574834e-39
-0.072954699 -0.13980253 0.040101945 8.5723663e-39
