# .PCD v0.7 - Point Cloud Data file format
VERSION 0.7
FIELDS x y z rgb
SIZE 4 4 4 4
TYPE F F F F
COUNT 1 1 1 1
WIDTH 940
HEIGHT 1
VIEWPOINT 0 0 0 1 0 0 0
POINTS 940
DATA ascii
-0.024210835 -0.10966937 -0.013794445 2.0385912e-38
-0.022347232 -0.10891335 -0.010768555 2.2499643e-38
-0.020494564 -0.10816176 -0.0077603087 2.2499656e-38
-0.018652739 -0.10741456 -0.0047697052 2.1948618e-38
-0.016821662 -0.10667174 -0.0017966256 2.2039723e-38
-0.014999898 -0.10590781 0.0012608543 2.2775133e-38
-0.013223702 -0.10590781 0.0012608543 2.120422e-38
-0.01144751 -0.10590781 0.0012608543 2.0369803e-38
-0.0096713137 -0.10590781 0.0012608543 1.3452587e-38
-0.0078764688 -0.10514848 0.0042999759 1.5295356e-38
-0.0061056018 -0.10514848 0.0042999759 2.3221636e-38
-0.0043347348 -0.10514848 0.0042999759 2.3504722e-38
-0.0025638677 -0.10514848 0.0042999759 2.35015e-38
-0.047947213 -0.12380283 -0.062803529 1.0052477e-38
-0.045893654 -0.12279506 -0.058798216 1.0424133e-38
-0.043891057 -0.12202276 -0.055728696 1.1810302e-38
-0.041904144 -0.12128322 -0.052789353 1.2918806e-38
-0.039887853 -0.12026589 -0.048746012 1.2552537e-38
-0.037818566 -0.11875431 -0.042738222 1.2461418e-38
-0.035737105 -0.1169848 -0.035705231 1.2923109e-38
-0.033712924 -0.11548282 -0.029735588 1.3384445e-38
-0.031882383 -0.11548282 -0.029735588 1.3383723e-38
-0.029969955 -0.11472471 -0.026722454 1.3841467e-38
-0.028068533 -0.11397095 -0.023726724 1.2642914e-38
-0.026013428 -0.11147197 -0.013794445 1.4672282e-38
-0.024210835 -0.11147197 -0.013794445 1.743852e-38
-0.022347232 -0.11071064 -0.010768555 1.6883231e-38
-0.020439507 -0.10920133 -0.0047697052 1.6421188e-38
-0.018603215 -0.10845329 -0.0017966256 1.9461834e-38
-0.016821662 -0.10845329 -0.0017966256 2.2958798e-38
-0.014999898 -0.107684 0.0012608543 2.3509814e-38
-0.013223702 -0.107684 0.0012608543 1.4750149e-38
-0.011418201 -0.10691936 0.0042999759 1.2439877e-38
-0.009647334 -0.10691936 0.0042999759 9.2097735e-39
-0.0078764688 -0.10691936 0.0042999759 1.1790841e-38
-0.0061056018 -0.10691936 0.0042999759 1.5384653e-38
-0.0043347348 -0.10691936 0.0042999759 1.5383222e-38
-0.0025560576 -0.10467763 0.013209678 1.796436e-38
-0.00080081262 -0.10467763 0.013209678 1.5939322e-38
0.00094636716 -0.10390608 0.016276278 1.57571e-38
-0.048075855 -0.12645011 -0.065798424 1.0973354e-38
-0.045893654 -0.12467657 -0.058798216 1.0423063e-38
-0.043615595 -0.12212978 -0.048746012 1.2361695e-38
-0.04175172 -0.12212978 -0.048746012 1.1350425e-38
-0.039887853 -0.12212978 -0.048746012 1.135294e-38
-0.037818566 -0.12060766 -0.042738222 1.2368166e-38
-0.035737105 -0.11882581 -0.035705231 1.2369236e-38
-0.033712924 -0.11731337 -0.029735588 1.2922762e-38
-0.031882383 -0.11731337 -0.029735588 1.3383374e-38
-0.029969955 -0.11654995 -0.026722454 1.3566324e-38
-0.027968565 -0.11479472 -0.019794486 1.3197896e-38
-0.026013428 -0.11327456 -0.013794445 1.3198609e-38
-0.024144517 -0.11250792 -0.010768555 1.1539813e-38
-0.022286577 -0.11174576 -0.0077603087 1.3014959e-38
-0.020439507 -0.1109881 -0.0047697052 1.6700636e-38
-0.018603215 -0.11023484 -0.0017966256 1.8726416e-38
-0.016776094 -0.10946019 0.0012608543 2.194859e-38
-0.014999898 -0.10946019 0.0012608543 2.3509809e-38
-0.013189068 -0.10869022 0.0042999759 1.1614407e-38
-0.011418201 -0.10869022 0.0042999759 1.1794845e-38
-0.009647334 -0.10869022 0.0042999759 1.0410103e-38
-0.0078401137 -0.10718934 0.010223962 9.3955731e-39
-0.0060796347 -0.10718934 0.010223962 1.1424229e-38
-0.0043191556 -0.10718934 0.010223962 1.2438381e-38
-0.0025560576 -0.1064329 0.013209678 1.2254362e-38
-0.00080081262 -0.1064329 0.013209678 1.3544769e-38
0.00094636716 -0.10565595 0.016276278 1.391356e-38
0.0026962347 -0.10565595 0.016276278 1.4744748e-38
0.0044461032 -0.10565595 0.016276278 1.3730951e-38
0.0062201666 -0.1064329 0.013209678 1.4745819e-38
0.0079754116 -0.1064329 0.013209678 1.668265e-38
0.016492287 -0.10286374 0.027297117 1.5761769e-38
0.018102979 -0.10135777 0.03324119 1.4932005e-38
0.019823102 -0.10135777 0.03324119 1.5392983e-38
-0.048075855 -0.1283439 -0.065798424 1.1157026e-38
-0.045893654 -0.12655805 -0.058798216 1.1344666e-38
-0.043615595 -0.12399365 -0.048746012 1.2545734e-38
-0.04175172 -0.12399365 -0.048746012 1.1350078e-38
-0.039779574 -0.12322514 -0.045733593 1.162846e-38
-0.037818566 -0.12246101 -0.042738222 1.209123e-38
-0.035868615 -0.12170117 -0.039759777 1.126254e-38
-0.033712924 -0.11914389 -0.029735588 1.2368517e-38
-0.031882383 -0.11914389 -0.029735588 1.4028391e-38
-0.029888539 -0.11761098 -0.023726724 1.3751078e-38
-0.027816022 -0.11507715 -0.013794445 1.467339e-38
-0.025941806 -0.11430521 -0.010768555 1.4213851e-38
-0.024144517 -0.11430521 -0.010768555 1.1448345e-38
-0.022226276 -0.11277486 -0.0047697052 1.2463579e-38
-0.020384775 -0.11201639 -0.0017966256 1.7163761e-38
-0.018603215 -0.11201639 -0.0017966256 1.9003719e-38
-0.016776094 -0.11123641 0.0012608543 2.0290142e-38
-0.014959933 -0.11046107 0.0042999759 1.9270595e-38
-0.013189068 -0.11046107 0.0042999759 8.5712242e-39
-0.011390038 -0.10971604 0.0072204843 9.9502028e-39
-0.0096005946 -0.10894983 0.010223962 1.0225708e-38
-0.0078217927 -0.10818814 0.013209678 9.7654458e-39
-0.006053105 -0.10740583 0.016276278 1.1425683e-38
-0.0043032374 -0.10740583 0.016276278 1.1888459e-38
-0.0025560576 -0.10818814 0.013209678 1.1795913e-38
-0.00080350041 -0.10740583 0.016276278 1.2439507e-38
0.00094636716 -0.10740583 0.016276278 1.0411208e-38
0.0026962347 -0.10740583 0.016276278 1.2163271e-38
0.0044461032 -0.10740583 0.016276278 1.2532771e-38
0.0062201666 -0.10818814 0.013209678 1.2624966e-38
0.0079458393 -0.10740583 0.016276278 1.1334955e-38
0.0096957078 -0.10740583 0.016276278 1.161084e-38
0.011366944 -0.10588033 0.022255935 1.2348772e-38
0.013106328 -0.10588033 0.022255935 1.1610485e-38
0.014795549 -0.10511206 0.025267459 1.1979619e-38
0.016492287 -0.10459428 0.027297117 1.3178144e-38
0.018102979 -0.1030779 0.03324119 1.2809711e-38
0.019823102 -0.1030779 0.03324119 1.3270326e-38
-0.048075855 -0.13023765 -0.065798424 1.134142e-38
-0.045893654 -0.12843956 -0.058798216 1.2265902e-38
-0.043615595 -0.12585752 -0.048746012 1.2913798e-38
-0.04175172 -0.12585752 -0.048746012 1.1995084e-38
-0.039779574 -0.12508373 -0.045733593 1.2641532e-38
-0.037716739 -0.1235493 -0.039759777 1.2551129e-38
-0.035737105 -0.12250783 -0.035705231 1.0708644e-38
-0.033712924 -0.12097444 -0.029735588 1.1906819e-38
-0.031882383 -0.12097444 -0.029735588 1.4212062e-38
-0.029888539 -0.11943097 -0.023726724 1.2920601e-38
-0.027816022 -0.11687975 -0.013794445 1.4027665e-38
-0.025941806 -0.1161025 -0.010768555 1.3845071e-38
-0.024078587 -0.11532979 -0.0077603087 1.1540543e-38
-0.022226276 -0.11456163 -0.0047697052 1.2924557e-38
-0.020384775 -0.11379795 -0.0017966256 1.7716932e-38
-0.01855229 -0.1130126 0.0012608543 1.9741283e-38
-0.016776094 -0.1130126 0.0012608543 1.9921358e-38
-0.014959933 -0.11223195 0.0042999759 1.5859355e-38
-0.013189068 -0.11223195 0.0042999759 7.1882898e-39
-0.011361076 -0.11071031 0.010223962 9.0282465e-39
-0.0095770378 -0.10994337 0.013209678 1.087108e-38
-0.0078217927 -0.10994337 0.013209678 1.0595209e-38
-0.006053105 -0.10915567 0.016276278 1.1333493e-38
-0.0043032374 -0.10915567 0.016276278 1.1427128e-38
-0.0025560576 -0.10994337 0.013209678 1.1518969e-38
-0.00080350041 -0.10915567 0.016276278 1.2438781e-38
0.00094636716 -0.10915567 0.016276278 1.0963651e-38
0.0026962347 -0.10915567 0.016276278 1.2807916e-38
0.0044461032 -0.10915567 0.016276278 1.1794843e-38
0.0062201666 -0.10994337 0.013209678 1.0965449e-38
0.0079458393 -0.10915567 0.016276278 1.1703388e-38
0.0096620899 -0.10839801 0.019226052 1.2993068e-38
0.011366944 -0.10761972 0.022255935 1.2531739e-38
0.013106328 -0.10761972 0.022255935 1.2347348e-38
0.014795549 -0.10684617 0.025267459 1.0688534e-38
0.016492287 -0.10632484 0.027297117 1.1610114e-38
0.018222831 -0.10632484 0.027297117 1.1610819e-38
0.019953376 -0.10632484 0.027297117 1.1610451e-38
-0.048075855 -0.13213144 -0.065798424 1.161693e-38
-0.045893654 -0.13032107 -0.058798216 1.217299e-38
-0.043615595 -0.12772138 -0.048746012 1.3558807e-38
-0.04175172 -0.12772138 -0.048746012 1.3007794e-38
-0.039779574 -0.12694232 -0.045733593 1.3194343e-38
-0.037716739 -0.1253974 -0.039759777 1.3287252e-38
-0.035737105 -0.12434883 -0.035705231 1.144477e-38
-0.033620469 -0.12202574 -0.026722454 1.1906097e-38
-0.031795211 -0.12202574 -0.026722454 1.3289386e-38
-0.029888539 -0.121251 -0.023726724 1.3565973e-38
-0.027816022 -0.11868234 -0.013794445 1.3474496e-38
-0.025941806 -0.11789979 -0.010768555 1.2646175e-38
-0.024078587 -0.1171218 -0.0077603087 1.098737e-38
-0.022166329 -0.1155795 -0.0017966256 1.1356152e-38
-0.020328486 -0.11478879 0.0012608543 1.3844355e-38
-0.01855229 -0.11478879 0.0012608543 1.5131138e-38
-0.016730802 -0.11400281 0.0042999759 1.4666563e-38
-0.014959933 -0.11400281 0.0042999759 1.4014722e-38
-0.013189068 -0.11400281 0.0042999759 7.5570723e-39
-0.011361076 -0.11247079 0.010223962 9.0282465e-39
-0.0095770378 -0.11169861 0.013209678 1.151645e-38
-0.0078217927 -0.11169861 0.013209678 1.0963277e-38
-0.006053105 -0.11090554 0.016276278 1.0687769e-38
-0.0043032374 -0.11090554 0.016276278 1.0965798e-38
-0.0025560576 -0.11169861 0.013209678 1.1611167e-38
-0.00080350041 -0.11090554 0.016276278 1.1885959e-38
0.00094636716 -0.11090554 0.016276278 1.2254382e-38
0.0026962347 -0.11090554 0.016276278 1.3268528e-38
0.0044461032 -0.11090554 0.016276278 1.2808272e-38
0.0061959717 -0.11090554 0.016276278 1.2163276e-38
0.0079173939 -0.11014269 0.019226052 1.9169804e-38
0.0096275592 -0.1093591 0.022255935 2.2026813e-38
0.011366944 -0.1093591 0.022255935 2.0460217e-38
0.013106328 -0.1093591 0.022255935 1.7602153e-38
0.014795549 -0.10858028 0.025267459 1.2070764e-38
0.016529653 -0.10858028 0.025267459 1.0964395e-38
0.018263757 -0.10858028 0.025267459 1.1426076e-38
0.019997859 -0.10858028 0.025267459 1.1425706e-38
-0.048075855 -0.1340252 -0.065798424 1.1708409e-38
-0.045767181 -0.13140334 -0.055728696 1.1895684e-38
-0.043615595 -0.12958528 -0.048746012 1.429529e-38
-0.04175172 -0.12958528 -0.048746012 1.3559886e-38
-0.039779574 -0.12880091 -0.045733593 1.2456412e-38
-0.037818566 -0.12802102 -0.042738222 1.2733714e-38
-0.035737105 -0.12618984 -0.035705231 1.2273806e-38
-0.033620469 -0.12385099 -0.026722454 1.2458548e-38
-0.031795211 -0.12385099 -0.026722454 1.2366351e-38
-0.029888539 -0.123071 -0.023726724 1.1813179e-38
-0.027816022 -0.12048493 -0.013794445 1.2182684e-38
-0.025941806 -0.11969708 -0.010768555 1.1631306e-38
-0.024078587 -0.11891381 -0.0077603087 1.0342003e-38
-0.022166329 -0.11736105 -0.0017966256 1.0526392e-38
-0.020328486 -0.11656497 0.0012608543 1.3198986e-38
-0.01855229 -0.11656497 0.0012608543 1.4762356e-38
-0.016730802 -0.11577369 0.0042999759 1.3007039e-38
-0.014959933 -0.11577369 0.0042999759 1.0880068e-38
-0.013087528 -0.11345388 0.013209678 7.4648739e-39
-0.011332283 -0.11345388 0.013209678 8.7516596e-39
-0.0095770378 -0.11345388 0.013209678 1.2069625e-38
-0.0078029726 -0.11265542 0.016276278 1.1423902e-38
-0.006053105 -0.11265542 0.016276278 1.06867e-38
-0.0043113027 -0.11345388 0.013209678 1.1149119e-38
-0.0025533698 -0.11265542 0.016276278 1.1979237e-38
-0.00080350041 -0.11265542 0.016276278 1.1516811e-38
0.00094636716 -0.11265542 0.016276278 1.206962e-38
0.0026962347 -0.11265542 0.016276278 1.1608642e-38
0.0044461032 -0.11265542 0.016276278 1.3176332e-38
0.0061959717 -0.11265542 0.016276278 1.253098e-38
0.0079173939 -0.11188738 0.019226052 2.2764717e-38
0.0096275592 -0.11109848 0.022255935 2.3507714e-38
0.011366944 -0.11109848 0.022255935 2.3506649e-38
0.013106328 -0.11109848 0.022255935 2.32243e-38
0.014795549 -0.11031438 0.025267459 1.4005087e-38
0.016529653 -0.11031438 0.025267459 1.0503065e-38
0.018263757 -0.11031438 0.025267459 1.1241334e-38
0.019997859 -0.11031438 0.025267459 1.1517907e-38
-0.047643296 -0.13327946 -0.055728696 1.170769e-38
-0.045767181 -0.13327946 -0.055728696 1.1986801e-38
-0.043615595 -0.13144915 -0.048746012 1.5215807e-38
-0.04175172 -0.13144915 -0.048746012 1.3743914e-38
-0.039779574 -0.13065951 -0.045733593 1.144082e-38
-0.037818566 -0.12987436 -0.042738222 1.171812e-38
-0.035737105 -0.12803085 -0.035705231 1.2457116e-38
-0.033712924 -0.12646608 -0.029735588 1.3010641e-38
-0.031795211 -0.12567626 -0.026722454 1.199685e-38
-0.029888539 -0.124891 -0.023726724 1.3195041e-38
-0.027816022 -0.12228753 -0.013794445 1.4948556e-38
-0.025941806 -0.12149437 -0.010768555 1.3936199e-38
-0.024013044 -0.11992194 -0.0047697052 1.0802264e-38
-0.022166329 -0.11914261 -0.0017966256 9.6037192e-39
-0.020328486 -0.11834116 0.0012608543 1.2553616e-38
-0.01855229 -0.11834116 0.0012608543 1.3840397e-38
-0.016730802 -0.11754455 0.0042999759 9.5947214e-39
-0.014959933 -0.11754455 0.0042999759 8.4829789e-39
-0.013087528 -0.11520912 0.013209678 8.0176875e-39
-0.011332283 -0.11520912 0.013209678 9.0278864e-39
-0.0095770378 -0.11520912 0.013209678 1.30827e-38
-0.0078029726 -0.11440529 0.016276278 1.24377e-38
-0.006053105 -0.11440529 0.016276278 1.1332074e-38
-0.0043113027 -0.11520912 0.013209678 1.1148768e-38
-0.0025533698 -0.11440529 0.016276278 1.1424629e-38
-0.00080350041 -0.11440529 0.016276278 1.068669e-38
0.00094636716 -0.11440529 0.016276278 1.2990854e-38
0.0026962347 -0.11440529 0.016276278 1.2253286e-38
0.0044461032 -0.11440529 0.016276278 1.2807186e-38
0.0061959717 -0.11440529 0.016276278 1.2346226e-38
0.0079173939 -0.11363207 0.019226052 2.3503e-38
0.0096275592 -0.11283787 0.022255935 2.3507711e-38
0.011366944 -0.11283787 0.022255935 2.3507365e-38
0.013106328 -0.11283787 0.022255935 2.3507009e-38
0.014795549 -0.11204849 0.025267459 1.6033391e-38
0.016529653 -0.11204849 0.025267459 1.1609057e-38
0.018263757 -0.11204849 0.025267459 1.1886347e-38
0.019997859 -0.11204849 0.025267459 1.1978529e-38
0.021803247 -0.11283787 0.022255935 1.2532056e-38
-0.045479469 -0.13331302 -0.048746012 1.2078278e-38
-0.043615595 -0.13331302 -0.048746012 1.5676424e-38
-0.04175172 -0.13331302 -0.048746012 1.4480039e-38
-0.039779574 -0.1325181 -0.045733593 1.1624129e-38
-0.037818566 -0.13172771 -0.042738222 1.1348975e-38
-0.035737105 -0.12987186 -0.035705231 1.2363839e-38
-0.033712924 -0.1282966 -0.029735588 1.3101758e-38
-0.031795211 -0.1275015 -0.026722454 1.2088328e-38
-0.029888539 -0.126711 -0.023726724 1.116674e-38
-0.027816022 -0.12409012 -0.013794445 1.3840775e-38
-0.025941806 -0.12329166 -0.010768555 1.3105006e-38
-0.024013044 -0.12170871 -0.0047697052 1.0248734e-38
-0.022166329 -0.12092416 -0.0017966256 9.142741e-39
-0.020328486 -0.12011738 0.0012608543 1.2552537e-38
-0.018501667 -0.11931543 0.0042999759 1.439285e-38
-0.016730802 -0.11931543 0.0042999759 9.4106861e-39
-0.014959933 -0.11931543 0.0042999759 7.9298051e-39
-0.013121555 -0.11775221 0.010223962 9.0318394e-39
-0.011332283 -0.11696436 0.013209678 9.1197247e-39
-0.0095770378 -0.11696436 0.013209678 1.3266736e-38
-0.0077848714 -0.11537679 0.019226052 1.3266384e-38
-0.0060401764 -0.11537679 0.019226052 1.2160762e-38
-0.0043032374 -0.11615516 0.016276278 1.1239889e-38
-0.0025533698 -0.11615516 0.016276278 1.0041701e-38
-0.00080350041 -0.11615516 0.016276278 9.5792637e-39
0.00094636716 -0.11615516 0.016276278 1.2437317e-38
0.0026962347 -0.11615516 0.016276278 1.2621705e-38
0.0044461032 -0.11615516 0.016276278 1.1515721e-38
0.0061959717 -0.11615516 0.016276278 1.188488e-38
0.0079173939 -0.11537679 0.019226052 2.0919712e-38
0.0096275592 -0.11457725 0.022255935 2.3503379e-38
0.011366944 -0.11457725 0.022255935 2.3505554e-38
0.013106328 -0.11457725 0.022255935 2.3224288e-38
0.014795549 -0.1137826 0.025267459 1.6125575e-38
0.016529653 -0.1137826 0.025267459 1.3083823e-38
0.018263757 -0.1137826 0.025267459 1.2807938e-38
0.019997859 -0.1137826 0.025267459 1.2255116e-38
0.021731963 -0.1137826 0.025267459 1.2439863e-38
0.023466067 -0.1137826 0.025267459 1.2530628e-38
-0.047343343 -0.13517688 -0.048746012 1.1614064e-38
-0.045479469 -0.13517688 -0.048746012 1.2077557e-38
-0.043615595 -0.13517688 -0.048746012 1.5952292e-38
-0.041638166 -0.13437669 -0.045733593 1.5309078e-38
-0.039779574 -0.13437669 -0.045733593 1.2637918e-38
-0.037818566 -0.13358103 -0.042738222 1.2085459e-38
-0.035737105 -0.13171287 -0.035705231 1.2363478e-38
-0.033712924 -0.13012715 -0.029735588 1.2917367e-38
-0.031795211 -0.12932678 -0.026722454 1.2364194e-38
-0.029888539 -0.12853102 -0.023726724 1.2825544e-38
-0.027816022 -0.12589271 -0.013794445 1.4301759e-38
-0.025941806 -0.12508895 -0.010768555 1.3565986e-38
-0.024013044 -0.12349547 -0.0047697052 1.1907539e-38
-0.022166329 -0.12270571 -0.0017966256 1.0248371e-38
-0.020328486 -0.12189357 0.0012608543 1.2091559e-38
-0.018501667 -0.12108628 0.0042999759 1.4024068e-38
-0.016730802 -0.12108628 0.0042999759 9.963141e-39
-0.014959933 -0.12108628 0.0042999759 7.8368906e-39
-0.013121555 -0.11951269 0.010223962 9.3084263e-39
-0.011361076 -0.11951269 0.010223962 8.3821596e-39
-0.0096005946 -0.11951269 0.010223962 1.2529174e-38
-0.0077848714 -0.11712147 0.019226052 1.29898e-38
-0.0060401764 -0.11712147 0.019226052 1.2345155e-38
-0.0043032374 -0.11790501 0.016276278 1.1331732e-38
-0.0025533698 -0.11790501 0.016276278 9.4874534e-39
-0.00080350041 -0.11790501 0.016276278 1.0407952e-38
0.00094636716 -0.11790501 0.016276278 9.9466001e-39
0.0026962347 -0.11790501 0.016276278 1.0131702e-38
0.0044280011 -0.11712147 0.019226052 8.5650977e-39
0.0061487919 -0.11631663 0.022255935 8.2888794e-39
0.0078881755 -0.11631663 0.022255935 1.0501591e-38
0.0095932381 -0.11551671 0.025267459 1.4281276e-38
0.011327342 -0.11551671 0.025267459 1.8430092e-38
0.013061445 -0.11551671 0.025267459 1.7876565e-38
0.014795549 -0.11551671 0.025267459 1.3636997e-38
0.016529653 -0.11551671 0.025267459 1.2715745e-38
0.018263757 -0.11551671 0.025267459 1.2623178e-38
0.019997859 -0.11551671 0.025267459 1.1977806e-38
0.021731963 -0.11551671 0.025267459 1.2438787e-38
0.023466067 -0.11551671 0.025267459 1.2438435e-38
-0.047343343 -0.13704078 -0.048746012 1.0231132e-38
-0.045479469 -0.13704078 -0.048746012 1.1892809e-38
-0.043615595 -0.13704078 -0.048746012 1.4477159e-38
-0.041638166 -0.13623528 -0.045733593 1.4295282e-38
-0.039779574 -0.13623528 -0.045733593 1.2269133e-38
-0.037716739 -0.134638 -0.039759777 1.2546793e-38
-0.035641767 -0.13276802 -0.032766126 1.3101043e-38
-0.033620469 -0.13115202 -0.026722454 1.2825171e-38
-0.031795211 -0.13115202 -0.026722454 1.2732621e-38
-0.029888539 -0.13035102 -0.023726724 1.1811395e-38
-0.027816022 -0.12769531 -0.013794445 1.4024456e-38
-0.025941806 -0.12688623 -0.010768555 1.4118444e-38
-0.024078587 -0.12608187 -0.0077603087 1.1446564e-38
-0.022226276 -0.12528224 -0.0047697052 9.6952001e-39
-0.020328486 -0.12366976 0.0012608543 1.2551821e-38
-0.01855229 -0.12366976 0.0012608543 1.4392131e-38
-0.016730802 -0.12285714 0.0042999759 1.0147176e-38
-0.014959933 -0.12285714 0.0042999759 8.1134803e-39
-0.013121555 -0.12127317 0.010223962 9.2155146e-39
-0.011332283 -0.12047486 0.013209678 1.0686334e-38
-0.0095770378 -0.12047486 0.013209678 1.1883085e-38
-0.0077848714 -0.11886616 0.019226052 1.2435907e-38
-0.0060401764 -0.11886616 0.019226052 1.2067492e-38
-0.0043032374 -0.11965488 0.016276278 1.0870393e-38
-0.0025507826 -0.11886616 0.019226052 1.0040627e-38
-0.00080608763 -0.11886616 0.019226052 9.6703915e-39
0.00093860924 -0.11886616 0.019226052 1.0130997e-38
0.0026833061 -0.11886616 0.019226052 1.0039506e-38
0.0044094082 -0.11805601 0.022255935 9.6717998e-39
0.006125031 -0.11725079 0.025267459 9.118989e-39
0.007859135 -0.11725079 0.025267459 8.19776e-39
0.0095932381 -0.11725079 0.025267459 9.3959626e-39
0.011300652 -0.11670811 0.027297117 1.2070004e-38
0.013031197 -0.11670811 0.027297117 1.3175997e-38
0.014761742 -0.11670811 0.027297117 1.3360386e-38
0.016492287 -0.11670811 0.027297117 1.1424985e-38
0.018222831 -0.11670811 0.027297117 1.2254026e-38
-0.045479469 -0.13890465 -0.048746012 1.1247079e-38
-0.043615595 -0.13890465 -0.048746012 1.3278616e-38
-0.041638166 -0.13809387 -0.045733593 1.263576e-38
-0.039779574 -0.13809387 -0.045733593 1.0702165e-38
-0.037716739 -0.13648613 -0.039759777 1.1164579e-38
-0.035641767 -0.13460387 -0.032766126 1.2456034e-38
-0.033620469 -0.13297729 -0.026722454 1.2825173e-38
-0.031795211 -0.13297729 -0.026722454 1.301029e-38
-0.029888539 -0.13217102 -0.023726724 1.2825191e-38
-0.027816022 -0.1294979 -0.013794445 1.2733717e-38
-0.025941806 -0.12868352 -0.010768555 1.1997947e-38
-0.024078587 -0.12787388 -0.0077603087 1.1353291e-38
-0.022226276 -0.12706901 -0.0047697052 1.0432409e-38
-0.020384775 -0.12626885 -0.0017966256 1.1998649e-38
-0.01855229 -0.12544595 0.0012608543 1.30092e-38
-0.016687276 -0.12384202 0.0072204843 9.7773176e-39
-0.014921529 -0.12384202 0.0072204843 8.5737396e-39
-0.013155783 -0.12384202 0.0072204843 9.3077103e-39
-0.011332283 -0.1222301 0.013209678 1.0133161e-38
-0.0095770378 -0.1222301 0.013209678 1.0868933e-38
-0.0077848714 -0.12061088 0.019226052 1.1237364e-38
-0.0060401764 -0.12061088 0.019226052 1.1053337e-38
-0.0043032374 -0.12140475 0.016276278 1.0317217e-38
-0.0025507826 -0.12061088 0.019226052 9.9477127e-39
-0.00080608763 -0.12061088 0.019226052 9.8544269e-39
0.00093064085 -0.1197954 0.022255935 1.013064e-38
0.0026700255 -0.1197954 0.022255935 9.9469532e-39
0.0044094082 -0.1197954 0.022255935 1.0040577e-38
0.006125031 -0.11898489 0.025267459 9.9490986e-39
0.007859135 -0.11898489 0.025267459 9.395929e-39
0.0095701069 -0.11843865 0.027297117 9.9494769e-39
0.011300652 -0.11843865 0.027297117 1.1977789e-38
0.013031197 -0.11843865 0.027297117 1.1977795e-38
0.014761742 -0.11843865 0.027297117 1.2807553e-38
0.016492287 -0.11843865 0.027297117 1.1517166e-38
0.018263757 -0.11898489 0.025267459 1.4374511e-38
-0.047343343 -0.14076851 -0.048746012 1.0323331e-38
-0.045479469 -0.14076851 -0.048746012 1.0232927e-38
-0.043615595 -0.14076851 -0.048746012 1.171129e-38
-0.04175172 -0.14076851 -0.048746012 1.088476e-38
-0.039779574 -0.13995247 -0.045733593 9.3195905e-39
-0.037818566 -0.13914107 -0.042738222 1.0058951e-38
-0.035641767 -0.13643973 -0.032766126 1.1166374e-38
-0.033620469 -0.13480256 -0.026722454 1.1442961e-38
-0.031795211 -0.13480256 -0.026722454 1.1996138e-38
-0.029888539 -0.13399105 -0.023726724 1.2087626e-38
-0.027816022 -0.13130049 -0.013794445 1.1718846e-38
-0.026013428 -0.13130049 -0.013794445 1.0707208e-38
-0.024144517 -0.13048081 -0.010768555 1.0707921e-38
-0.022226276 -0.12885578 -0.0047697052 1.061608e-38
-0.020384775 -0.1280504 -0.0017966256 1.1813181e-38
-0.01855229 -0.12722217 0.0012608543 1.2638983e-38
-0.016687276 -0.12560774 0.0072204843 9.869516e-39
-0.014921529 -0.12560774 0.0072204843 9.0347205e-39
-0.013121555 -0.12479414 0.010223962 9.7672521e-39
-0.01130271 -0.12315463 0.016276278 1.0316832e-38
-0.009552842 -0.12315463 0.016276278 1.0775659e-38
-0.0077848714 -0.12235557 0.019226052 1.0867859e-38
-0.0060401764 -0.12235557 0.019226052 1.0591995e-38
-0.0042954795 -0.12235557 0.019226052 1.0040264e-38
-0.0025507826 -0.12235557 0.019226052 9.6714803e-39
-0.00080608763 -0.12235557 0.019226052 1.0038818e-38
0.00093064085 -0.12153481 0.022255935 1.0130642e-38
0.0026700255 -0.12153481 0.022255935 9.9469532e-39
0.004390927 -0.120719 0.025267459 1.0317521e-38
0.006125031 -0.120719 0.025267459 1.0871408e-38
0.007859135 -0.120719 0.025267459 1.041043e-38
0.0095701069 -0.12016918 0.027297117 1.0410804e-38
0.011300652 -0.12016918 0.027297117 1.1793384e-38
0.013031197 -0.12016918 0.027297117 1.0779235e-38
0.014712088 -0.11936165 0.030278124 1.2254365e-38
0.016437406 -0.11936165 0.030278124 1.1517152e-38
0.018263757 -0.120719 0.025267459 1.3913162e-38
0.036472179 -0.11476754 0.047237553 2.3509873e-38
0.038042255 -0.1139424 0.050283529 2.3509507e-38
0.039732493 -0.1139424 0.050283529 2.3509862e-38
0.04142274 -0.1139424 0.050283529 2.3509866e-38
0.043023378 -0.11341999 0.052211978 2.3509876e-38
0.044710241 -0.11341999 0.052211978 2.2864869e-38
0.046397097 -0.11341999 0.052211978 2.3509527e-38
-0.047343343 -0.14263238 -0.048746012 9.6776054e-39
-0.045479469 -0.14263238 -0.048746012 9.3113312e-39
-0.043615595 -0.14263238 -0.048746012 1.0697138e-38
-0.04175172 -0.14263238 -0.048746012 1.0147195e-38
-0.039671913 -0.14099441 -0.042738222 9.1351992e-39
-0.037716739 -0.14018236 -0.039759777 9.6912471e-39
-0.035641767 -0.13827558 -0.032766126 1.0060746e-38
-0.033620469 -0.13662781 -0.026722454 9.6919631e-39
-0.031795211 -0.13662781 -0.026722454 9.9681969e-39
-0.029888539 -0.13581105 -0.023726724 1.0797243e-38
-0.027816022 -0.13310309 -0.013794445 1.2179821e-38
-0.025941806 -0.1322781 -0.010768555 1.1536966e-38
-0.024144517 -0.1322781 -0.010768555 1.0431334e-38
-0.022286577 -0.13145791 -0.0077603087 1.0062551e-38
-0.020384775 -0.12983195 -0.0017966256 1.1812826e-38
-0.01855229 -0.12899835 0.0012608543 1.2915573e-38
-0.016687276 -0.1273735 0.0072204843 1.0237584e-38
-0.014921529 -0.1273735 0.0072204843 8.8492545e-39
-0.013121555 -0.12655462 0.010223962 9.5828636e-39
-0.01130271 -0.1249045 0.016276278 1.0316476e-38
-0.009552842 -0.1249045 0.016276278 1.0776015e-38
-0.0077848714 -0.12410025 0.019226052 1.0867854e-38
-0.0060401764 -0.12410025 0.019226052 1.0407957e-38
-0.0042954795 -0.12410025 0.019226052 9.5796378e-39
-0.0025481265 -0.12327419 0.022255935 9.2108553e-39
-0.00081138313 -0.12245311 0.025267459 9.9466225e-39
0.00092272088 -0.12245311 0.025267459 9.9473301e-39
0.002656823 -0.12245311 0.025267459 9.7636395e-39
0.004390927 -0.12245311 0.025267459 1.0317521e-38
0.0061090169 -0.12189974 0.027297117 1.0871405e-38
0.0078395624 -0.12189974 0.027297117 1.041043e-38
0.0095701069 -0.12189974 0.027297117 1.0318606e-38
0.011300652 -0.12189974 0.027297117 1.1517154e-38
0.013031197 -0.12189974 0.027297117 1.1055819e-38
0.014712088 -0.12108697 0.030278124 1.1792662e-38
0.016437406 -0.12108697 0.030278124 1.1516426e-38
0.030045232 -0.11945029 0.036281206 1.8989738e-38
0.031760022 -0.11945029 0.036281206 2.3137852e-38
0.034776591 -0.11646311 0.047237553 2.3507733e-38
0.036472179 -0.11646311 0.047237553 2.2495018e-38
0.038042255 -0.11563264 0.050283529 2.3509879e-38
0.039649658 -0.11510687 0.052211978 2.3509869e-38
0.041336514 -0.11510687 0.052211978 2.3509866e-38
0.043023378 -0.11510687 0.052211978 2.3418038e-38
0.044710241 -0.11510687 0.052211978 2.3418045e-38
0.046397097 -0.11510687 0.052211978 2.3509886e-38
0.048083961 -0.11510687 0.052211978 2.3509886e-38
0.049873948 -0.11563264 0.050283529 2.3509886e-38
-0.047343343 -0.14449625 -0.048746012 9.493217e-39
-0.045479469 -0.14449625 -0.048746012 8.9425515e-39
-0.043615595 -0.14449625 -0.048746012 1.0052488e-38
-0.04175172 -0.14449625 -0.048746012 9.6869367e-39
-0.039671913 -0.14284773 -0.042738222 9.2284738e-39
-0.037578113 -0.14091791 -0.035705231 9.8759984e-39
-0.035543464 -0.13927986 -0.029735588 9.5090138e-39
-0.033620469 -0.13845308 -0.026722454 8.7714488e-39
-0.031795211 -0.13845308 -0.026722454 9.5079376e-39
-0.029888539 -0.13763104 -0.023726724 1.042846e-38
-0.027816022 -0.13490568 -0.013794445 1.1995786e-38
-0.025941806 -0.13407536 -0.010768555 1.12593e-38
-0.024078587 -0.13324992 -0.0077603087 1.0154031e-38
-0.022226276 -0.13242932 -0.0047697052 1.0154029e-38
-0.020328486 -0.13077454 0.0012608543 1.1719914e-38
-0.01855229 -0.13077454 0.0012608543 1.2638273e-38
-0.016687276 -0.12913923 0.0072204843 1.0329426e-38
-0.014921529 -0.12913923 0.0072204843 8.480116e-39
-0.013121555 -0.12831511 0.010223962 9.213365e-39
-0.011332283 -0.12749584 0.013209678 9.9469742e-39
-0.009552842 -0.12665437 0.016276278 1.0314315e-38
-0.0077848714 -0.12584494 0.019226052 1.040651e-38
-0.0060401764 -0.12584494 0.019226052 1.0130642e-38
-0.0042954795 -0.12584494 0.019226052 9.4877939e-39
-0.0025481265 -0.12501357 0.022255935 9.3034027e-39
-0.00081138313 -0.12418722 0.025267459 9.7633046e-39
0.00091738254 -0.12363027 0.027297117 1.0131719e-38
0.002647927 -0.12363027 0.027297117 9.9480308e-39
0.0043601785 -0.12281232 0.030278124 9.9490986e-39
0.0060854964 -0.12281232 0.030278124 1.0226041e-38
0.0078108152 -0.12281232 0.030278124 9.856903e-39
0.0095361331 -0.12281232 0.030278124 1.0133141e-38
0.011222487 -0.12199925 0.03324119 1.1423528e-38
0.01294261 -0.12199925 0.03324119 1.2068897e-38
0.014712088 -0.12281232 0.030278124 1.105438e-38
0.016437406 -0.12281232 0.030278124 1.1791218e-38
0.018222831 -0.12363027 0.027297117 1.3081593e-38
0.019953376 -0.12363027 0.027297117 1.6122977e-38
0.030045232 -0.12116508 0.036281206 2.212512e-38
0.031487048 -0.11897425 0.044265367 2.3509161e-38
0.03308101 -0.11815868 0.047237553 2.3508809e-38
0.03466177 -0.11732288 0.050283529 2.3508809e-38
0.036352009 -0.11732288 0.050283529 2.3508809e-38
0.037962794 -0.11679374 0.052211978 2.3509886e-38
0.039649658 -0.11679374 0.052211978 2.3509873e-38
0.041336514 -0.11679374 0.052211978 2.2773741e-38
0.043023378 -0.11679374 0.052211978 2.2865584e-38
0.044710241 -0.11679374 0.052211978 2.3418047e-38
0.046397097 -0.11679374 0.052211978 2.3509886e-38
0.048083961 -0.11679374 0.052211978 2.304891e-38
0.049770825 -0.11679374 0.052211978 2.2679406e-38
0.051291175 -0.11596648 0.05522678 2.2957428e-38
0.052972749 -0.11596648 0.05522678 2.295887e-38
-0.043615595 -0.14636014 -0.048746012 9.6837053e-39
-0.041638166 -0.14552824 -0.045733593 9.3181541e-39
-0.039564855 -0.14387859 -0.039759777 9.0448014e-39
-0.037578113 -0.14275892 -0.035705231 9.7845217e-39
-0.035543464 -0.14111041 -0.029735588 9.2327898e-39
-0.033620469 -0.14027832 -0.026722454 9.0483986e-39
-0.031795211 -0.14027832 -0.026722454 1.0430616e-38
-0.029888539 -0.13945107 -0.023726724 9.6908925e-39
-0.027816022 -0.13670824 -0.013794445 1.0059678e-38
-0.025941806 -0.13587265 -0.010768555 8.8622137e-39
-0.024078587 -0.13504194 -0.0077603087 9.2320752e-39
-0.022226276 -0.13421609 -0.0047697052 1.0522814e-38
-0.020328486 -0.13255073 0.0012608543 1.1443328e-38
-0.01855229 -0.13255073 0.0012608543 1.1900353e-38
-0.016687276 -0.13090499 0.0072204843 1.0606015e-38
-0.014921529 -0.13090499 0.0072204843 9.0325751e-39
-0.013121555 -0.13007559 0.010223962 9.4899547e-39
-0.011332283 -0.12925108 0.013209678 9.8547786e-39
-0.009552842 -0.12840421 0.016276278 9.9455323e-39
-0.0078029726 -0.12840421 0.016276278 1.0038084e-38
-0.0060401764 -0.12758966 0.019226052 1.0223193e-38
-0.0042954795 -0.12758966 0.019226052 1.0133515e-38
-0.0025481265 -0.12675296 0.022255935 1.0410102e-38
-0.00081138313 -0.12592132 0.025267459 9.763655e-39
0.00091738254 -0.12536083 0.027297117 1.0316464e-38
0.002647927 -0.12536083 0.027297117 1.0133141e-38
0.0043601785 -0.12453763 0.030278124 9.9491e-39
0.0060854964 -0.12453763 0.030278124 9.9491e-39
0.0077822413 -0.12371938 0.03324119 9.5799643e-39
0.0095023643 -0.12371938 0.03324119 9.9484007e-39
0.011222487 -0.12371938 0.03324119 1.1330983e-38
0.01294261 -0.12371938 0.03324119 1.1699047e-38
0.014712088 -0.12453763 0.030278124 1.0684168e-38
0.016437406 -0.12453763 0.030278124 1.1698306e-38
0.018162725 -0.12453763 0.030278124 1.1605744e-38
0.019888043 -0.12453763 0.030278124 1.1789057e-38
0.021613361 -0.12453763 0.030278124 1.5015193e-38
0.030045232 -0.12287988 0.036281206 2.350986e-38
0.031385429 -0.11985429 0.047237553 2.3509524e-38
0.032971531 -0.11901312 0.050283529 2.3047838e-38
0.03466177 -0.11901312 0.050283529 2.3508809e-38
0.036275938 -0.11848058 0.052211978 2.3509527e-38
0.037962794 -0.11848058 0.052211978 2.3233299e-38
0.039520152 -0.11764805 0.05522678 2.3418045e-38
0.041201726 -0.11764805 0.05522678 2.3418043e-38
0.042883299 -0.11764805 0.05522678 2.341805e-38
0.044564873 -0.11764805 0.05522678 2.3509886e-38
0.046246447 -0.11764805 0.05522678 2.3509527e-38
0.047928028 -0.11764805 0.05522678 2.3509527e-38
0.049609601 -0.11764805 0.05522678 2.3509879e-38
0.051291175 -0.11764805 0.05522678 2.3418045e-38
0.052972749 -0.11764805 0.05522678 2.1209316e-38
-0.041638166 -0.14738683 -0.045733593 8.9500905e-39
-0.039564855 -0.1457267 -0.039759777 8.7689348e-39
-0.037578113 -0.14459993 -0.035705231 9.1402341e-39
-0.035641767 -0.14378314 -0.032766126 8.3119125e-39
-0.033620469 -0.1421036 -0.026722454 8.1278828e-39
-0.031795211 -0.1421036 -0.026722454 1.0154748e-38
-0.029888539 -0.14127107 -0.023726724 9.6908925e-39
-0.027816022 -0.13851084 -0.013794445 1.0980552e-38
-0.025941806 -0.13766994 -0.010768555 9.4153846e-39
-0.024078587 -0.13683395 -0.0077603087 9.2320752e-39
-0.022226276 -0.13600285 -0.0047697052 1.0522814e-38
-0.020384775 -0.13517661 -0.0017966256 1.1535168e-38
-0.01855229 -0.13432692 0.0012608543 1.1808161e-38
-0.016730802 -0.13348235 0.0042999759 1.0513463e-38
-0.014921529 -0.13267075 0.0072204843 9.309162e-39
-0.013121555 -0.13183604 0.010223962 9.8587373e-39
-0.011332283 -0.13100632 0.013209678 1.0223561e-38
-0.009552842 -0.13015409 0.016276278 1.0406866e-38
-0.0078029726 -0.13015409 0.016276278 1.0406865e-38
-0.006053105 -0.13015409 0.016276278 1.0684165e-38
-0.0043032374 -0.13015409 0.016276278 1.0870354e-38
-0.0025533698 -0.13015409 0.016276278 1.1055824e-38
-0.00081138313 -0.12765543 0.025267459 1.0040596e-38
0.00091738254 -0.12709136 0.027297117 1.0593767e-38
0.002647927 -0.12709136 0.027297117 1.0501921e-38
0.0043601785 -0.12626295 0.030278124 1.0317885e-38
0.0060854964 -0.12626295 0.030278124 1.0226413e-38
0.0077822413 -0.12543948 0.03324119 9.8572813e-39
0.0095023643 -0.12543948 0.03324119 1.0224283e-38
0.011222487 -0.12543948 0.03324119 1.1330279e-38
0.01294261 -0.12543948 0.03324119 1.1145168e-38
0.014662733 -0.12543948 0.03324119 1.1144797e-38
0.016382856 -0.12543948 0.03324119 1.1421367e-38
0.018162725 -0.12626295 0.030278124 9.8540275e-39
0.019888043 -0.12626295 0.030278124 9.3916144e-39
0.021613361 -0.12626295 0.030278124 1.0220292e-38
0.031215353 -0.12016745 0.052211978 2.3509521e-38
0.03279385 -0.11932962 0.05522678 2.3324778e-38
0.034475423 -0.11932962 0.05522678 2.2955999e-38
0.036156997 -0.11932962 0.05522678 2.3141103e-38
0.037838578 -0.11932962 0.05522678 2.3509886e-38
0.039520152 -0.11932962 0.05522678 2.2772321e-38
0.041201726 -0.11932962 0.05522678 2.3509527e-38
0.042883299 -0.11932962 0.05522678 2.3509168e-38
0.044564873 -0.11932962 0.05522678 2.3508809e-38
0.046096742 -0.11849703 0.058222748 2.3231151e-38
0.047773063 -0.11849703 0.058222748 2.3231857e-38
0.049609601 -0.11932962 0.05522678 2.3416589e-38
0.051291175 -0.11932962 0.05522678 2.2865217e-38
0.052972749 -0.11932962 0.05522678 2.2591531e-38
0.054654323 -0.11932962 0.05522678 2.028989e-38
-0.039564855 -0.14757483 -0.039759777 9.3195947e-39
-0.03747762 -0.14561899 -0.032766126 9.1377187e-39
-0.035641767 -0.14561899 -0.032766126 7.7558633e-39
-0.033712924 -0.1447715 -0.029735588 7.2037713e-39
-0.031882383 -0.1447715 -0.029735588 9.1388006e-39
-0.029888539 -0.14309107 -0.023726724 1.1533013e-38
-0.027816022 -0.14031343 -0.013794445 1.4759863e-38
-0.025941806 -0.13946722 -0.010768555 1.3470564e-38
-0.024078587 -0.13862596 -0.0077603087 1.0705777e-38
-0.022286577 -0.13862596 -0.0077603087 1.0521386e-38
-0.020439507 -0.13778962 -0.0047697052 1.1811043e-38
-0.018603215 -0.13695817 -0.0017966256 1.2084745e-38
-0.016687276 -0.13443647 0.0072204843 1.005284e-38
-0.014921529 -0.13443647 0.0072204843 8.6648632e-39
-0.013121555 -0.13359652 0.010223962 9.5825007e-39
-0.011332283 -0.13276155 0.013209678 1.0408308e-38
-0.0095770378 -0.13276155 0.013209678 1.0775649e-38
-0.0078029726 -0.13190396 0.016276278 1.0867124e-38
-0.006053105 -0.13190396 0.016276278 1.086784e-38
-0.0043032374 -0.13190396 0.016276278 1.06856e-38
0.002647927 -0.12882192 0.027297117 1.0777796e-38
0.0043784715 -0.12882192 0.027297117 1.0686316e-38
0.0060854964 -0.12798826 0.030278124 1.096255e-38
0.0077822413 -0.12715961 0.03324119 1.0685611e-38
0.0095023643 -0.12715961 0.03324119 1.0592714e-38
0.011222487 -0.12715961 0.03324119 1.1513596e-38
0.01294261 -0.12715961 0.03324119 1.1789463e-38
0.014662733 -0.12715961 0.03324119 1.188201e-38
0.016382856 -0.12715961 0.03324119 1.1328821e-38
0.018162725 -0.12798826 0.030278124 1.0499048e-38
0.019888043 -0.12798826 0.030278124 1.2803211e-38
0.021613361 -0.12798826 0.030278124 1.1973088e-38
0.031215353 -0.12185432 0.052211978 2.3509158e-38
0.03279385 -0.12101121 0.05522678 2.3324052e-38
0.034475423 -0.12101121 0.05522678 2.3509527e-38
0.036156997 -0.12101121 0.05522678 2.3509527e-38
0.037838578 -0.12101121 0.05522678 2.3141106e-38
0.039391451 -0.12017335 0.058222748 2.3509527e-38
0.041067779 -0.12017335 0.058222748 2.3509168e-38
0.0427441 -0.12017335 0.058222748 2.314075e-38
0.044420421 -0.12017335 0.058222748 2.3325497e-38
0.046096742 -0.12017335 0.058222748 2.3509883e-38
0.047773063 -0.12017335 0.058222748 2.3509863e-38
0.049609601 -0.12101121 0.05522678 2.3418004e-38
0.051291175 -0.12101121 0.05522678 2.2958831e-38
0.052972749 -0.12101121 0.05522678 2.2499687e-38
0.054654323 -0.12101121 0.05522678 2.1765008e-38
0.056518264 -0.12185432 0.052211978 2.2591528e-38
-0.039564855 -0.14942293 -0.039759777 9.9599376e-39
-0.03747762 -0.14745484 -0.032766126 8.9475822e-39
-0.035543464 -0.14660202 -0.029735588 8.5795157e-39
-0.033620469 -0.14575411 -0.026722454 6.9217894e-39
-0.031795211 -0.14575411 -0.026722454 1.0794009e-38
-0.029888539 -0.14491107 -0.023726724 1.2635774e-38
-0.027968565 -0.14380451 -0.019794486 1.6600555e-38
-0.025941806 -0.14126451 -0.010768555 1.5772604e-38
-0.024078587 -0.14041798 -0.0077603087 1.2915981e-38
-0.022286577 -0.14041798 -0.0077603087 1.2363881e-38
-0.020439507 -0.13957639 -0.0047697052 1.0427758e-38
-0.01855229 -0.13787933 0.0012608543 1.1624121e-38
-0.016642513 -0.13535701 0.010223962 1.0606715e-38
-0.014882034 -0.13535701 0.010223962 8.6655638e-39
-0.013087528 -0.13451682 0.013209678 9.3988129e-39
-0.011332283 -0.13451682 0.013209678 1.040866e-38
-0.0095770378 -0.13451682 0.013209678 1.1143715e-38
-0.0078029726 -0.13365383 0.016276278 1.1327028e-38
-0.006053105 -0.13365383 0.016276278 1.0866047e-38
-0.0043032374 -0.13365383 0.016276278 1.0499414e-38
0.002647927 -0.13055246 0.027297117 1.0776012e-38
0.0043784715 -0.13055246 0.027297117 1.05927e-38
0.0060854964 -0.12971358 0.030278124 1.0684895e-38
0.0077822413 -0.12887974 0.03324119 1.0776738e-38
0.0095023643 -0.12887974 0.03324119 1.0960774e-38
0.011222487 -0.12887974 0.03324119 1.1236288e-38
0.01294261 -0.12887974 0.03324119 1.1051898e-38
0.014712088 -0.12971358 0.030278124 1.1420679e-38
0.016437406 -0.12971358 0.030278124 1.1605421e-38
0.018162725 -0.12971358 0.030278124 1.1605054e-38
0.019888043 -0.12971358 0.030278124 1.1697601e-38
0.021613361 -0.12971358 0.030278124 1.1790147e-38
0.029528491 -0.12354116 0.052211978 2.3415881e-38
0.031215353 -0.12354116 0.052211978 2.350916e-38
0.03279385 -0.12269278 0.05522678 2.3509521e-38
0.034475423 -0.12269278 0.05522678 2.3416251e-38
0.036156997 -0.12269278 0.05522678 2.3509168e-38
0.03771513 -0.12184967 0.058222748 2.3232227e-38
0.039391451 -0.12184967 0.058222748 2.3509168e-38
0.041067779 -0.12184967 0.058222748 2.3234379e-38
0.042647593 -0.12126519 0.060299791 2.3050708e-38
0.04432027 -0.12126519 0.060299791 2.2039058e-38
0.046096742 -0.12184967 0.058222748 2.0473504e-38
0.047773063 -0.12184967 0.058222748 1.8170744e-38
0.049449384 -0.12184967 0.058222748 1.7711537e-38
0.051125705 -0.12184967 0.058222748 1.9278867e-38
0.052972749 -0.12269278 0.05522678 2.2407812e-38
0.054831408 -0.12354116 0.052211978 2.295885e-38
0.056154676 -0.12184967 0.058222748 2.3142521e-38
0.057830997 -0.12184967 0.058222748 2.3050683e-38
-0.03747762 -0.14929073 -0.032766126 7.4688606e-39
-0.035543464 -0.14843257 -0.029735588 7.3780985e-39
-0.033620469 -0.14757936 -0.026722454 7.5639246e-39
-0.031795211 -0.14757936 -0.026722454 1.2819076e-38
-0.029888539 -0.14673109 -0.023726724 1.6505466e-38
-0.027968565 -0.14561762 -0.019794486 1.9916715e-38
-0.026013428 -0.14391862 -0.013794445 1.954939e-38
-0.024144517 -0.1430618 -0.010768555 1.7430698e-38
-0.022286577 -0.14220999 -0.0077603087 1.604884e-38
-0.020494564 -0.14220999 -0.0077603087 1.1808546e-38
-0.01855229 -0.13965552 0.0012608543 1.1621969e-38
-0.016642513 -0.13711749 0.010223962 1.0145021e-38
-0.014882034 -0.13711749 0.010223962 8.7581126e-39
-0.013087528 -0.13627206 0.013209678 9.3991632e-39
-0.011332283 -0.13627206 0.013209678 1.0040228e-38
-0.0095770378 -0.13627206 0.013209678 1.0683089e-38
0.0095361331 -0.1314389 0.030278124 1.1236638e-38
0.011261452 -0.1314389 0.030278124 1.1328837e-38
0.01298677 -0.1314389 0.030278124 1.1328481e-38
0.014712088 -0.1314389 0.030278124 1.1512872e-38
0.016437406 -0.1314389 0.030278124 1.1605424e-38
0.018102979 -0.13059987 0.03324119 1.1513224e-38
0.019823102 -0.13059987 0.03324119 1.160577e-38
0.021613361 -0.1314389 0.030278124 1.1790513e-38
0.027994262 -0.12663661 0.047237553 2.350952e-38
0.029528491 -0.12522803 0.052211978 2.3509157e-38
0.031215353 -0.12522803 0.052211978 2.3509517e-38
0.03279385 -0.12437434 0.05522678 2.3509521e-38
0.034475423 -0.12437434 0.05522678 2.3047466e-38
0.036038809 -0.12352599 0.058222748 2.3509168e-38
0.03771513 -0.12352599 0.058222748 2.3508809e-38
0.039391451 -0.12352599 0.058222748 2.2957079e-38
0.040974908 -0.12293784 0.060299791 2.3234379e-38
0.042647593 -0.12293784 0.060299791 2.2130537e-38
0.04432027 -0.12293784 0.060299791 2.0012176e-38
0.045992956 -0.12293784 0.060299791 1.8816482e-38
0.047665633 -0.12293784 0.060299791 1.8449476e-38
0.049449384 -0.12352599 0.058222748 1.8083186e-38
0.051125705 -0.12352599 0.058222748 1.8173591e-38
0.052972749 -0.12437434 0.05522678 2.074971e-38
0.054831408 -0.12522803 0.052211978 2.22227e-38
0.056154676 -0.12352599 0.058222748 2.3418018e-38
0.057830997 -0.12352599 0.058222748 2.3326187e-38
0.059507318 -0.12352599 0.058222748 2.2219482e-38
-0.033620469 -0.14940463 -0.026722454 7.0096803e-39
-0.031795211 -0.14940463 -0.026722454 1.2080429e-38
-0.029888539 -0.14855109 -0.023726724 1.7057178e-38
-0.027968565 -0.14743073 -0.019794486 1.9914888e-38
-0.026013428 -0.14572121 -0.013794445 2.0377333e-38
-0.024144517 -0.14485909 -0.010768555 2.0101125e-38
-0.022347232 -0.14485909 -0.010768555 1.8534889e-38
-0.020494564 -0.14400201 -0.0077603087 1.3003147e-38
-0.018603215 -0.14230286 -0.0017966256 1.1711669e-38
-0.016730802 -0.14056583 0.0042999759 1.0050327e-38
-0.014882034 -0.13887797 0.010223962 9.3098627e-39
-0.013121555 -0.13887797 0.010223962 9.4910029e-39
-0.011361076 -0.13887797 0.010223962 9.7647087e-39
0.0095701069 -0.13401355 0.027297117 1.1144794e-38
0.011261452 -0.13316421 0.030278124 1.1236993e-38
0.01298677 -0.13316421 0.030278124 1.1328834e-38
0.014712088 -0.13316421 0.030278124 1.1328834e-38
0.016382856 -0.13231997 0.03324119 1.1328832e-38
0.018102979 -0.13231997 0.03324119 1.1329186e-38
0.019823102 -0.13231997 0.03324119 1.169832e-38
0.021543225 -0.13231997 0.03324119 1.1883061e-38
0.027841629 -0.1269149 0.052211978 2.3509873e-38
0.029528491 -0.1269149 0.052211978 2.3508437e-38
0.031215353 -0.1269149 0.052211978 2.3509876e-38
0.03279385 -0.12605591 0.05522678 2.3509521e-38
0.034362487 -0.12520231 0.058222748 2.3140737e-38
0.036038809 -0.12520231 0.058222748 2.3325847e-38
0.03771513 -0.12520231 0.058222748 2.3418043e-38
0.039391451 -0.12520231 0.058222748 2.3418038e-38
0.040974908 -0.12461053 0.060299791 2.1576276e-38
0.042647593 -0.12461053 0.060299791 2.0287684e-38
0.04432027 -0.12461053 0.060299791 2.0657533e-38
0.045992956 -0.12461053 0.060299791 2.0289817e-38
0.047665633 -0.12461053 0.060299791 1.8723917e-38
0.049338311 -0.12461053 0.060299791 1.8447682e-38
0.051125705 -0.12520231 0.058222748 1.9552954e-38
0.052972749 -0.12605591 0.05522678 1.9089115e-38
0.054831408 -0.1269149 0.052211978 2.093196e-38
0.056154676 -0.12520231 0.058222748 2.3418015e-38
0.057830997 -0.12520231 0.058222748 2.3326184e-38
0.059507318 -0.12520231 0.058222748 2.3509863e-38
-0.027968565 -0.14924385 -0.019794486 1.8621253e-38
-0.026013428 -0.14752381 -0.013794445 1.9913099e-38
-0.024210835 -0.14752381 -0.013794445 2.0467377e-38
-0.022347232 -0.14665638 -0.010768555 1.9730551e-38
-0.020494564 -0.14579402 -0.0077603087 1.5120774e-38
-0.018603215 -0.14408441 -0.0017966256 1.3829305e-38
-0.016776094 -0.14320792 0.0012608543 1.1338925e-38
-0.014921529 -0.14149947 0.0072204843 9.8616113e-39
-0.013155783 -0.14149947 0.0072204843 9.7672381e-39
0.0095701069 -0.13574408 0.027297117 1.0960755e-38
0.011261452 -0.13488953 0.030278124 1.1052953e-38
0.01298677 -0.13488953 0.030278124 1.0960403e-38
0.014712088 -0.13488953 0.030278124 1.0960406e-38
0.016382856 -0.1340401 0.03324119 1.0960403e-38
0.018102979 -0.1340401 0.03324119 1.1144792e-38
0.019823102 -0.1340401 0.03324119 1.1606121e-38
0.021543225 -0.1340401 0.03324119 1.1883419e-38
0.027841629 -0.12860174 0.052211978 2.3509859e-38
0.029528491 -0.12860174 0.052211978 2.3324393e-38
0.031215353 -0.12860174 0.052211978 2.2955619e-38
0.03279385 -0.12773751 0.05522678 2.3509879e-38
0.034362487 -0.12687863 0.058222748 2.350988e-38
0.036038809 -0.12687863 0.058222748 2.3234369e-38
0.03771513 -0.12687863 0.058222748 2.3234364e-38
0.039391451 -0.12687863 0.058222748 2.3234357e-38
0.040974908 -0.12628321 0.060299791 2.0286958e-38
0.042647593 -0.12628321 0.060299791 2.0010723e-38
0.04432027 -0.12628321 0.060299791 2.2407806e-38
0.045992956 -0.12628321 0.060299791 2.2683314e-38
0.047665633 -0.12628321 0.060299791 2.0565325e-38
0.049338311 -0.12628321 0.060299791 2.0012151e-38
0.051125705 -0.12687863 0.058222748 2.1210337e-38
0.052802026 -0.12687863 0.058222748 1.8719978e-38
0.054654323 -0.12773751 0.05522678 1.9917806e-38
0.056154676 -0.12687863 0.058222748 2.2774795e-38
0.057830997 -0.12687863 0.058222748 2.2866638e-38
0.059507318 -0.12687863 0.058222748 2.350986e-38
0.061183639 -0.12687863 0.058222748 7.5603822e-39
-0.024210835 -0.1493264 -0.013794445 1.9911309e-38
-0.022347232 -0.14845367 -0.010768555 1.9911694e-38
-0.020549947 -0.14845367 -0.010768555 1.6777413e-38
-0.018652739 -0.14672346 -0.0047697052 1.5301927e-38
-0.016821662 -0.14586596 -0.0017966256 1.1060194e-38
-0.014921529 -0.1432652 0.0072204843 1.004458e-38
-0.013155783 -0.1432652 0.0072204843 9.8590876e-39
-0.011390038 -0.1432652 0.0072204843 9.8576274e-39
0.01298677 -0.13661484 0.030278124 1.0960758e-38
0.014712088 -0.13661484 0.030278124 1.0960758e-38
0.016382856 -0.13576023 0.03324119 1.0868562e-38
0.018102979 -0.13576023 0.03324119 1.0960755e-38
0.019823102 -0.13576023 0.03324119 1.1422083e-38
0.027841629 -0.13028862 0.052211978 2.3509112e-38
0.029528491 -0.13028862 0.052211978 2.3509851e-38
0.031215353 -0.13028862 0.052211978 2.332439e-38
0.03279385 -0.12941907 0.05522678 2.3509874e-38
0.034475423 -0.12941907 0.05522678 2.350988e-38
0.036038809 -0.12855496 0.058222748 2.2958503e-38
0.03771513 -0.12855496 0.058222748 2.3142528e-38
0.039391451 -0.12855496 0.058222748 2.2314909e-38
0.040974908 -0.1279559 0.060299791 2.0655735e-38
0.042647593 -0.1279559 0.060299791 2.0932674e-38
0.04432027 -0.1279559 0.060299791 2.2499636e-38
0.045992956 -0.1279559 0.060299791 2.3142495e-38
0.047665633 -0.1279559 0.060299791 2.3234334e-38
0.049338311 -0.1279559 0.060299791 2.3050667e-38
0.051010996 -0.1279559 0.060299791 2.22227e-38
0.052802026 -0.12855496 0.058222748 2.0563175e-38
0.054478355 -0.12855496 0.058222748 1.9641219e-38
0.056154676 -0.12855496 0.058222748 2.1668448e-38
0.057701714 -0.1279559 0.060299791 2.2497855e-38
0.059374392 -0.1279559 0.060299791 2.3509859e-38
0.06104707 -0.1279559 0.060299791 7.652575e-39
-0.018652739 -0.14851023 -0.0047697052 1.6590861e-38
-0.016776094 -0.1467603 0.0012608543 1.087365e-38
-0.014921529 -0.14503096 0.0072204843 1.013571e-38
-0.013121555 -0.14415942 0.010223962 9.9498553e-39
-0.011361076 -0.14415942 0.010223962 9.7650801e-39
0.016382856 -0.13748036 0.03324119 1.1145146e-38
0.018102979 -0.13748036 0.03324119 1.1052948e-38
0.029528491 -0.13197549 0.052211978 2.3509831e-38
0.031215353 -0.13197549 0.052211978 2.3509848e-38
0.03279385 -0.13110064 0.05522678 2.3509866e-38
0.034362487 -0.13023128 0.058222748 2.3509876e-38
0.036038809 -0.13023128 0.058222748 2.3418043e-38
0.03771513 -0.13023128 0.058222748 2.3142534e-38
0.03930223 -0.12962858 0.060299791 2.2867013e-38
0.040974908 -0.12962858 0.060299791 1.9642309e-38
0.042647593 -0.12962858 0.060299791 1.9549742e-38
0.04432027 -0.12962858 0.060299791 2.1670595e-38
0.045992956 -0.12962858 0.060299791 2.2683313e-38
0.047665633 -0.12962858 0.060299791 2.3326171e-38
0.049338311 -0.12962858 0.060299791 2.3509848e-38
