# .PCD v0.7 - Point Cloud Data file format
VERSION 0.7
FIELDS x y z rgb
SIZE 4 4 4 4
TYPE F F F F
COUNT 1 1 1 1
WIDTH 926
HEIGHT 1
VIEWPOINT 0 0 0 1 0 0 0
POINTS 926
DATA ascii
-0.0019284114 -0.090443924 -0.011662196 2.3325856e-38
-6.4536929e-05 -0.090443924 -0.011662196 2.3233662e-38
0.0017993376 -0.090443924 -0.011662196 2.3233662e-38
0.0036869794 -0.089770496 -0.0086497776 2.3141467e-38
0.0055455714 -0.089770496 -0.0086497776 2.3141466e-38
0.0074041635 -0.089770496 -0.0086497776 2.3234018e-38
0.0092706326 -0.089100882 -0.0056544058 2.3326213e-38
0.011126585 -0.088435039 -0.0026759617 2.341769e-38
0.012971148 -0.087528646 0.0013785847 2.3508809e-38
0.014812157 -0.087528646 0.0013785847 2.3509168e-38
0.016640283 -0.086871609 0.0043176897 2.3509168e-38
0.018457541 -0.086194143 0.0073482282 2.3509527e-38
0.020288084 -0.086194143 0.0073482282 2.3509527e-38
0.022089571 -0.085520551 0.010361362 2.3509886e-38
0.023914829 -0.085520551 0.010361362 2.3509883e-38
0.025740087 -0.085520551 0.010361362 2.3509886e-38
0.027565347 -0.085520551 0.010361362 2.3509886e-38
0.029390607 -0.085520551 0.010361362 2.3325494e-38
0.031160714 -0.084850863 0.013357092 2.3418045e-38
0.032980721 -0.084850863 0.013357092 2.3418038e-38
0.034800727 -0.084850863 0.013357092 2.1484433e-38
0.036691643 -0.085520551 0.010361362 1.650623e-38
0.038593508 -0.086194143 0.0073482282 1.2726939e-38
0.040424049 -0.086194143 0.0073482282 1.2081195e-38
0.042427294 -0.087528646 0.0013785847 1.364848e-38
0.044576004 -0.089770496 -0.0086497776 2.1576227e-38
-0.030559238 -0.096149758 -0.028714608 2.3509076e-38
-0.028665464 -0.096149758 -0.028714608 2.3509799e-38
-0.026771691 -0.096149758 -0.028714608 2.3509811e-38
-0.024877921 -0.096149758 -0.028714608 2.2772625e-38
-0.022984147 -0.096149758 -0.028714608 2.2405294e-38
-0.020998482 -0.095475003 -0.025719713 2.3142509e-38
-0.019109961 -0.095475003 -0.025719713 2.2867011e-38
-0.01722144 -0.095475003 -0.025719713 2.3234379e-38
-0.015231088 -0.094572589 -0.021714401 2.3417691e-38
-0.013349589 -0.094572589 -0.021714401 2.341805e-38
-0.011400815 -0.093881011 -0.018644881 2.3418047e-38
-0.0094654337 -0.093218774 -0.015705537 2.341804e-38
-0.0075200312 -0.092307791 -0.011662196 2.314253e-38
-0.0056561567 -0.092307791 -0.011662196 2.3326201e-38
-0.0037922822 -0.092307791 -0.011662196 2.3142535e-38
-0.0019284114 -0.092307791 -0.011662196 2.3142539e-38
-6.4536929e-05 -0.092307791 -0.011662196 2.3142544e-38
0.0017993376 -0.092307791 -0.011662196 2.3050349e-38
0.0036869794 -0.091629088 -0.0086497776 2.3050349e-38
0.0055455714 -0.091629088 -0.0086497776 2.3050347e-38
0.0074172933 -0.090954214 -0.0056544058 2.3050703e-38
0.0092784669 -0.090283155 -0.0026759617 2.3142535e-38
0.011130139 -0.089369655 0.0013785847 2.3326206e-38
0.012968572 -0.088707477 0.0043176897 2.3509527e-38
0.014804427 -0.088707477 0.0043176897 2.3509168e-38
0.016626999 -0.088024676 0.0073482282 2.3509876e-38
0.018457541 -0.088024676 0.0073482282 2.3509873e-38
0.020264309 -0.087345809 0.010361362 2.3509876e-38
0.022089571 -0.087345809 0.010361362 2.341804e-38
0.023914829 -0.087345809 0.010361362 2.3509873e-38
0.025700694 -0.086670861 0.013357092 2.350988e-38
0.027520701 -0.086670861 0.013357092 2.314075e-38
0.029340707 -0.086670861 0.013357092 2.3509527e-38
0.031160714 -0.086670861 0.013357092 2.2404257e-38
0.032980721 -0.086670861 0.013357092 2.3234362e-38
0.034800727 -0.086670861 0.013357092 2.176316e-38
0.036691643 -0.087345809 0.010361362 1.9644823e-38
0.038593508 -0.088024676 0.0073482282 1.2913499e-38
0.040424049 -0.088024676 0.0073482282 1.2636898e-38
0.042427294 -0.089369655 0.0013785847 1.3833574e-38
0.044576004 -0.091629088 -0.0086497776 1.5675683e-38
-0.030441087 -0.097363517 -0.025719713 2.2217953e-38
-0.028552566 -0.097363517 -0.025719713 2.3140261e-38
-0.026664045 -0.097363517 -0.025719713 2.314207e-38
-0.024775524 -0.097363517 -0.025719713 2.2682202e-38
-0.022887003 -0.097363517 -0.025719713 2.2591461e-38
-0.020998482 -0.097363517 -0.025719713 2.2866977e-38
-0.018994085 -0.096454084 -0.021714401 2.2040463e-38
-0.017112587 -0.096454084 -0.021714401 2.2681917e-38
-0.015231088 -0.096454084 -0.021714401 2.3325497e-38
-0.013207357 -0.095089734 -0.015705537 2.341805e-38
-0.011336397 -0.095089734 -0.015705537 2.3326206e-38
-0.0093839057 -0.094171658 -0.011662196 2.3050327e-38
-0.0074645728 -0.09348768 -0.0086497776 2.2958849e-38
-0.0056059808 -0.09348768 -0.0086497776 2.3418033e-38
-0.0037473887 -0.09348768 -0.0086497776 2.3234367e-38
-0.0018887967 -0.09348768 -0.0086497776 2.3234374e-38
3.9301813e-06 -0.092807561 -0.0056544058 2.3234379e-38
0.0018572733 -0.092807561 -0.0056544058 2.3234379e-38
0.0037341118 -0.092131287 -0.0026759617 2.3234379e-38
0.0055822302 -0.092131287 -0.0026759617 2.3234379e-38
0.0074303485 -0.092131287 -0.0026759617 2.3234376e-38
0.0092891306 -0.091210663 0.0013785847 2.3234372e-38
0.011132715 -0.09054333 0.0043176897 2.3418043e-38
0.012965914 -0.089855224 0.0073482282 2.3509168e-38
0.014796456 -0.089855224 0.0073482282 2.3509168e-38
0.016613793 -0.089171067 0.010361362 2.3509873e-38
0.018439051 -0.089171067 0.010361362 2.3509869e-38
0.020264309 -0.089171067 0.010361362 2.3418038e-38
0.022060681 -0.088490874 0.013357092 2.341804e-38
0.023880687 -0.088490874 0.013357092 2.3418038e-38
0.025700694 -0.088490874 0.013357092 2.350988e-38
0.027520701 -0.088490874 0.013357092 2.3416615e-38
0.029275209 -0.087598026 0.017289329 2.3508809e-38
0.031088322 -0.087598026 0.017289329 2.2956715e-38
0.032901436 -0.087598026 0.017289329 2.1760667e-38
0.034800727 -0.088490874 0.013357092 1.9735928e-38
0.036691643 -0.089171067 0.010361362 2.2315982e-38
0.038593508 -0.089855224 0.0073482282 1.8538521e-38
0.040424049 -0.089855224 0.0073482282 1.6785716e-38
0.042427294 -0.091210663 0.0013785847 1.3095308e-38
-0.030441087 -0.099252045 -0.025719713 2.2033919e-38
-0.028552566 -0.099252045 -0.025719713 2.2589237e-38
-0.026664045 -0.099252045 -0.025719713 2.203679e-38
-0.024775524 -0.099252045 -0.025719713 2.12085e-38
-0.022887003 -0.099252045 -0.025719713 2.0473104e-38
-0.020998482 -0.099252045 -0.025719713 2.1213177e-38
-0.018994085 -0.098335579 -0.021714401 2.2499629e-38
-0.017112587 -0.098335579 -0.021714401 2.323436e-38
-0.01515305 -0.097633243 -0.018644881 2.3509883e-38
-0.013207357 -0.096960694 -0.015705537 2.3509876e-38
-0.01124778 -0.09603554 -0.011662196 2.3233999e-38
-0.0093839057 -0.09603554 -0.011662196 2.3418023e-38
-0.0074645728 -0.095346272 -0.0086497776 2.3418023e-38
-0.0056059808 -0.095346272 -0.0086497776 2.3509863e-38
-0.0037473887 -0.095346272 -0.0086497776 2.3050328e-38
-0.0018494092 -0.094660893 -0.0056544058 2.3418043e-38
3.9301813e-06 -0.094660893 -0.0056544058 2.341805e-38
0.0018859953 -0.093979403 -0.0026759617 2.3509527e-38
0.0037341118 -0.093979403 -0.0026759617 2.3509527e-38
0.0056071114 -0.093051672 0.0013785847 2.3509527e-38
0.0074481219 -0.093051672 0.0013785847 2.3509527e-38
0.0092891306 -0.093051672 0.0013785847 2.3509886e-38
0.011132715 -0.092379183 0.0043176897 2.3509527e-38
0.012965914 -0.091685757 0.0073482282 2.3508809e-38
0.014796456 -0.091685757 0.0073482282 2.3509168e-38
0.016613793 -0.090996325 0.010361362 2.3509876e-38
0.018439051 -0.090996325 0.010361362 2.350987e-38
0.020264309 -0.090996325 0.010361362 2.3418045e-38
0.022060681 -0.090310872 0.013357092 2.3418047e-38
0.023880687 -0.090310872 0.013357092 2.3418047e-38
0.025648985 -0.089411139 0.017289329 2.3509886e-38
0.027462099 -0.089411139 0.017289329 2.3046762e-38
0.029275209 -0.089411139 0.017289329 2.3508809e-38
0.031088322 -0.089411139 0.017289329 2.3323702e-38
0.032901436 -0.089411139 0.017289329 2.0375939e-38
-0.032453004 -0.10183108 -0.028714608 1.2721806e-38
-0.030441087 -0.10114056 -0.025719713 2.2403415e-38
-0.028552566 -0.10114056 -0.025719713 2.2313366e-38
-0.026664045 -0.10114056 -0.025719713 2.1577604e-38
-0.024775524 -0.10114056 -0.025719713 2.0933696e-38
-0.022887003 -0.10114056 -0.025719713 1.8723168e-38
-0.020998482 -0.10114056 -0.025719713 1.8449088e-38
-0.018994085 -0.10021709 -0.021714401 2.1305733e-38
-0.017112587 -0.10021709 -0.021714401 2.3050667e-38
-0.01515305 -0.099509358 -0.018644881 2.3509866e-38
-0.013207357 -0.098831654 -0.015705537 2.350986e-38
-0.01124778 -0.097899407 -0.011662196 2.3326182e-38
-0.0093839057 -0.097899407 -0.011662196 2.3050666e-38
-0.0074094273 -0.09651424 -0.0056544058 2.323434e-38
-0.0055560879 -0.09651424 -0.0056544058 2.3142509e-38
-0.0037027486 -0.09651424 -0.0056544058 2.2865573e-38
-0.0018102415 -0.09582752 -0.0026759617 2.3418039e-38
3.7875026e-05 -0.09582752 -0.0026759617 2.3509883e-38
0.0018859953 -0.09582752 -0.0026759617 2.3509527e-38
0.0037661027 -0.094892681 0.0013785847 2.3509168e-38
0.0056071114 -0.094892681 0.0013785847 2.3508809e-38
0.007461004 -0.094215035 0.0043176897 2.3509168e-38
0.0092968605 -0.094215035 0.0043176897 2.3509168e-38
0.011135373 -0.093516305 0.0073482282 2.3508809e-38
0.012965914 -0.093516305 0.0073482282 2.3508809e-38
0.014788533 -0.092821583 0.010361362 2.3509168e-38
0.016613793 -0.092821583 0.010361362 2.3509876e-38
0.018439051 -0.092821583 0.010361362 2.3418035e-38
0.020264309 -0.092821583 0.010361362 2.3234379e-38
0.022060681 -0.092130885 0.013357092 2.3234379e-38
0.023880687 -0.092130885 0.013357092 2.341805e-38
0.025648985 -0.091224253 0.017289329 2.3509168e-38
0.027462099 -0.091224253 0.017289329 2.3508092e-38
0.029224217 -0.0905184 0.020350743 2.3508451e-38
0.031031961 -0.0905184 0.020350743 2.3508809e-38
0.032901436 -0.091224253 0.017289329 2.2494646e-38
-0.032453004 -0.10372485 -0.028714608 1.3920704e-38
-0.030441087 -0.10302909 -0.025719713 2.0837168e-38
-0.028552566 -0.10302909 -0.025719713 2.0378697e-38
-0.026664045 -0.10302909 -0.025719713 2.0934387e-38
-0.024775524 -0.10302909 -0.025719713 2.0843648e-38
-0.022887003 -0.10302909 -0.025719713 1.7802993e-38
-0.020875584 -0.10209858 -0.021714401 1.6054499e-38
-0.018994085 -0.10209858 -0.021714401 1.9740899e-38
-0.01702917 -0.10138547 -0.018644881 2.2131922e-38
-0.015078325 -0.10070263 -0.015705537 2.31425e-38
-0.013111655 -0.099763289 -0.011662196 2.3509844e-38
-0.01124778 -0.099763289 -0.011662196 2.2866624e-38
-0.0093231648 -0.099063456 -0.0086497776 2.1945023e-38
-0.0074094273 -0.098367572 -0.0056544058 2.2036863e-38
-0.0055064783 -0.097675636 -0.0026759617 2.314214e-38
-0.003658358 -0.097675636 -0.0026759617 2.3509859e-38
-0.0018102415 -0.097675636 -0.0026759617 2.3509867e-38
8.4083527e-05 -0.096733689 0.0013785847 2.3509879e-38
0.0019250941 -0.096733689 0.0013785847 2.3509527e-38
0.0037892926 -0.096050888 0.0043176897 2.3509168e-38
0.0056251474 -0.096050888 0.0043176897 2.3508451e-38
0.007461004 -0.096050888 0.0043176897 2.3508451e-38
0.0093048308 -0.095346853 0.0073482282 2.3508809e-38
0.011135373 -0.095346853 0.0073482282 2.3508451e-38
0.012963273 -0.094646841 0.010361362 2.3508451e-38
0.014788533 -0.094646841 0.010361362 2.3417691e-38
0.016613793 -0.094646841 0.010361362 2.3234367e-38
0.018420666 -0.093950883 0.013357092 2.3142527e-38
0.020240674 -0.093950883 0.013357092 2.3142544e-38
0.022060681 -0.093950883 0.013357092 2.3142544e-38
0.023835873 -0.093037367 0.017289329 2.3417691e-38
0.025608728 -0.092326149 0.020350743 2.3509168e-38
0.027416471 -0.092326149 0.020350743 2.3509168e-38
0.029175268 -0.091643453 0.023289371 2.350773e-38
0.030977862 -0.091643453 0.023289371 2.350701e-38
-0.03464641 -0.1072513 -0.035689782 1.143069e-38
-0.032453004 -0.10561861 -0.028714608 1.3091303e-38
-0.030441087 -0.1049176 -0.025719713 1.8809227e-38
-0.028552566 -0.1049176 -0.025719713 1.8719897e-38
-0.026664045 -0.1049176 -0.025719713 1.8630939e-38
-0.024775524 -0.1049176 -0.025719713 1.7433846e-38
-0.022887003 -0.1049176 -0.025719713 1.4854882e-38
-0.020781402 -0.1032616 -0.018644881 1.5318001e-38
-0.018905286 -0.1032616 -0.018644881 2.1122032e-38
-0.01702917 -0.1032616 -0.018644881 2.2958798e-38
-0.015078325 -0.10257359 -0.015705537 2.2223401e-38
-0.013111655 -0.10162716 -0.011662196 2.1116331e-38
-0.011181761 -0.10092205 -0.0086497776 2.1392917e-38
-0.0092627667 -0.10022092 -0.0056544058 2.2314874e-38
-0.0073545948 -0.099523753 -0.0026759617 2.2958811e-38
-0.0055064783 -0.099523753 -0.0026759617 2.3326164e-38
-0.003658358 -0.099523753 -0.0026759617 2.3509848e-38
-0.0017569251 -0.098574698 0.0013785847 2.3509858e-38
8.4083527e-05 -0.098574698 0.0013785847 2.3509869e-38
0.0019534379 -0.097886756 0.0043176897 2.3509876e-38
0.0037892926 -0.097886756 0.0043176897 2.3509521e-38
0.0056437459 -0.097177386 0.0073482282 2.3509527e-38
0.0074742883 -0.097177386 0.0073482282 2.3509168e-38
0.0093048308 -0.097177386 0.0073482282 2.3509168e-38
0.011138014 -0.096472099 0.010361362 2.3508809e-38
0.012963273 -0.096472099 0.010361362 2.3509168e-38
0.014780654 -0.095770895 0.013357092 2.3234379e-38
0.016600661 -0.095770895 0.013357092 2.3142524e-38
0.018420666 -0.095770895 0.013357092 2.2958847e-38
0.020240674 -0.095770895 0.013357092 2.295887e-38
0.022060681 -0.095770895 0.013357092 2.3142544e-38
0.023835873 -0.094850481 0.017289329 2.341805e-38
0.025608728 -0.094133899 0.020350743 2.3509527e-38
0.027416471 -0.094133899 0.020350743 2.3509514e-38
0.029175268 -0.093446046 0.023289371 2.3414076e-38
0.030977862 -0.093446046 0.023289371 2.350664e-38
-0.036552418 -0.10915731 -0.035689782 1.0783889e-38
-0.03464641 -0.10915731 -0.035689782 1.0047394e-38
-0.032615412 -0.1084419 -0.032656144 1.2445935e-38
-0.030441087 -0.10680611 -0.025719713 1.7334464e-38
-0.028552566 -0.10680611 -0.025719713 1.7153659e-38
-0.026664045 -0.10680611 -0.025719713 1.6234937e-38
-0.024775524 -0.10680611 -0.025719713 1.4485027e-38
-0.022757083 -0.10586159 -0.021714401 1.3473387e-38
-0.020781402 -0.10513772 -0.018644881 1.4858821e-38
-0.018905286 -0.10513772 -0.018644881 2.0571008e-38
-0.016949285 -0.10444455 -0.015705537 2.2499607e-38
-0.015078325 -0.10444455 -0.015705537 1.9551869e-38
-0.013111655 -0.10349102 -0.011662196 1.8076019e-38
-0.011181761 -0.10278064 -0.0086497776 2.0104323e-38
-0.0092627667 -0.10207425 -0.0056544058 2.2958801e-38
-0.0073545948 -0.10137187 -0.0026759617 2.3234315e-38
-0.0055064783 -0.10137187 -0.0026759617 2.2958808e-38
-0.003658358 -0.10137187 -0.0026759617 2.2406719e-38
-0.0017569251 -0.10041572 0.0013785847 2.3142496e-38
8.4083527e-05 -0.10041572 0.0013785847 2.3234343e-38
0.0019534379 -0.099722609 0.0043176897 2.3509859e-38
0.0037892926 -0.099722609 0.0043176897 2.3509866e-38
0.0056437459 -0.099007934 0.0073482282 2.350987e-38
0.0074874945 -0.098297372 0.010361362 2.3509869e-38
0.0093127545 -0.098297372 0.010361362 2.3509149e-38
0.011138014 -0.098297372 0.010361362 2.3232932e-38
0.012960646 -0.097590908 0.013357092 2.3142544e-38
0.014780654 -0.097590908 0.013357092 2.2867033e-38
0.016600661 -0.097590908 0.013357092 2.2775165e-38
0.018420666 -0.097590908 0.013357092 2.2775162e-38
0.020209648 -0.096663594 0.017289329 2.2775188e-38
0.022022761 -0.096663594 0.017289329 2.2867036e-38
0.023767494 -0.09524864 0.023289371 2.3142539e-38
0.025570083 -0.09524864 0.023289371 2.3509872e-38
0.027416471 -0.095941633 0.020350743 2.3509856e-38
-0.036552418 -0.11106332 -0.035689782 9.8608462e-39
-0.0345161 -0.11034258 -0.032656144 1.133777e-38
-0.032615412 -0.11034258 -0.032656144 1.2998756e-38
-0.030559238 -0.10940616 -0.028714608 1.6136648e-38
-0.028552566 -0.10869466 -0.025719713 1.5311192e-38
-0.026664045 -0.10869466 -0.025719713 1.5405545e-38
-0.024638582 -0.10774307 -0.021714401 1.5224039e-38
-0.022757083 -0.10774307 -0.021714401 1.5502058e-38
-0.020691212 -0.10631551 -0.015705537 1.4489688e-38
-0.018820249 -0.10631551 -0.015705537 1.6055936e-38
-0.016949285 -0.10631551 -0.015705537 1.7066518e-38
-0.014975529 -0.10535492 -0.011662196 1.5958026e-38
-0.013111655 -0.10535492 -0.011662196 1.6695591e-38
-0.011181761 -0.10463922 -0.0086497776 1.9921722e-38
-0.0092627667 -0.1039276 -0.0056544058 2.2040431e-38
-0.0073545948 -0.10322 -0.0026759617 2.2040432e-38
-0.0055064783 -0.10322 -0.0026759617 2.19486e-38
-0.0035979338 -0.10225673 0.0013785847 2.2958808e-38
-0.0017569251 -0.10225673 0.0013785847 2.2407794e-38
0.00011758134 -0.10155846 0.0043176897 2.2591472e-38
0.0019534379 -0.10155846 0.0043176897 2.2683313e-38
0.0038132034 -0.10083848 0.0073482282 2.3050663e-38
0.0056622364 -0.10012263 0.010361362 2.31425e-38
0.0074874945 -0.10012263 0.010361362 2.295847e-38
0.0093127545 -0.10012263 0.010361362 2.2866275e-38
0.011140641 -0.099410906 0.013357092 2.2681893e-38
0.012960646 -0.099410906 0.013357092 2.295886e-38
0.014780654 -0.099410906 0.013357092 2.2683344e-38
0.016600661 -0.099410906 0.013357092 2.2591476e-38
0.018396536 -0.098476708 0.017289329 2.2407805e-38
0.020209648 -0.098476708 0.017289329 2.2407832e-38
0.0219649 -0.097051233 0.023289371 2.2683351e-38
0.023733009 -0.096332356 0.026315261 2.2958853e-38
0.025530294 -0.096332356 0.026315261 2.3418018e-38
-0.03641678 -0.11224325 -0.032656144 9.5824601e-39
-0.0345161 -0.11224325 -0.032656144 1.1151945e-38
-0.032453004 -0.11129995 -0.028714608 1.3367189e-38
-0.030441087 -0.11058317 -0.025719713 1.5583488e-38
-0.028552566 -0.11058317 -0.025719713 1.4573639e-38
-0.026520081 -0.10962458 -0.021714401 1.4208093e-38
-0.024638582 -0.10962458 -0.021714401 1.3287944e-38
-0.022657517 -0.10888995 -0.018644881 1.5133652e-38
-0.020691212 -0.10818647 -0.015705537 1.5687888e-38
-0.018820249 -0.10818647 -0.015705537 1.4673375e-38
-0.016949285 -0.10818647 -0.015705537 1.6054164e-38
-0.014975529 -0.10721879 -0.011662196 1.6237483e-38
-0.013040353 -0.10649781 -0.0086497776 1.5592116e-38
-0.01111611 -0.10578094 -0.0056544058 1.9278865e-38
-0.009202715 -0.1050681 -0.0026759617 2.1122062e-38
-0.0073545948 -0.1050681 -0.0026759617 1.9739129e-38
-0.0054389425 -0.10409774 0.0013785847 2.0660729e-38
-0.0035979338 -0.10409774 0.0013785847 2.1489414e-38
-0.0017182752 -0.10339431 0.0043176897 2.1581252e-38
0.00011758134 -0.10339431 0.0043176897 2.2224112e-38
0.001982661 -0.10266902 0.0073482282 2.176457e-38
0.0038132034 -0.10266902 0.0073482282 2.240779e-38
0.0056622364 -0.10194789 0.010361362 2.2591462e-38
0.0074874945 -0.10194789 0.010361362 2.1209962e-38
0.0093127545 -0.10194789 0.010361362 2.1578748e-38
0.011140641 -0.10123092 0.013357092 2.2223767e-38
0.012960646 -0.10123092 0.013357092 2.2775168e-38
0.014770312 -0.10028981 0.017289329 2.2315981e-38
0.016583424 -0.10028981 0.017289329 2.1305748e-38
0.018359717 -0.098853827 0.023289371 2.185677e-38
0.020162309 -0.098853827 0.023289371 2.2499656e-38
0.0219649 -0.098853827 0.023289371 2.1579499e-38
0.023733009 -0.098129645 0.026315261 2.3142504e-38
0.025530294 -0.098129645 0.026315261 2.323432e-38
-0.03641678 -0.11414395 -0.032656144 9.7664912e-39
-0.0345161 -0.11414395 -0.032656144 1.1151232e-38
-0.032453004 -0.11319371 -0.028714608 1.2813664e-38
-0.030441087 -0.11247168 -0.025719713 1.5030685e-38
-0.02840158 -0.11150609 -0.021714401 1.4389976e-38
-0.026520081 -0.11150609 -0.021714401 1.4485046e-38
-0.024638582 -0.11150609 -0.021714401 1.3656375e-38
-0.022657517 -0.11076607 -0.018644881 1.522514e-38
-0.020567149 -0.10908265 -0.011662196 1.5410239e-38
-0.018703278 -0.10908265 -0.011662196 1.4027299e-38
-0.016839404 -0.10908265 -0.011662196 1.6055603e-38
-0.014898945 -0.1083564 -0.0086497776 1.6423665e-38
-0.012969449 -0.10763429 -0.0056544058 1.5501356e-38
-0.01111611 -0.10763429 -0.0056544058 1.84509e-38
-0.009202715 -0.10691623 -0.0026759617 1.983348e-38
-0.0073545948 -0.10691623 -0.0026759617 1.8634936e-38
-0.0054389425 -0.10593875 0.0013785847 2.0017152e-38
-0.0035979338 -0.10593875 0.0013785847 2.0570326e-38
-0.0017182752 -0.10523017 0.0043176897 1.9647649e-38
0.00011758134 -0.10523017 0.0043176897 2.047669e-38
0.001982661 -0.10449956 0.0073482282 2.0199382e-38
0.0038132034 -0.10449956 0.0073482282 2.1397567e-38
0.0056622364 -0.10377313 0.010361362 2.2224099e-38
0.0075006261 -0.10305093 0.013357092 2.1396852e-38
0.0093206335 -0.10305093 0.013357092 2.1581246e-38
0.011140641 -0.10305093 0.013357092 2.1764929e-38
0.012960646 -0.10305093 0.013357092 2.1213205e-38
0.014770312 -0.10210292 0.017289329 2.1029527e-38
0.016570006 -0.10136487 0.020350743 2.0201901e-38
0.018359717 -0.10065642 0.023289371 2.0385935e-38
0.020162309 -0.10065642 0.023289371 2.0938057e-38
0.0219649 -0.10065642 0.023289371 2.001431e-38
0.023767494 -0.10065642 0.023289371 2.0657868e-38
-0.036240552 -0.11508749 -0.028714608 1.013384e-38
-0.034346778 -0.11508749 -0.028714608 1.1243076e-38
-0.032453004 -0.11508749 -0.028714608 1.2167941e-38
-0.030441087 -0.1143602 -0.025719713 1.4569711e-38
-0.02840158 -0.11338757 -0.021714401 1.4297424e-38
-0.026520081 -0.11338757 -0.021714401 1.4853475e-38
-0.024638582 -0.11338757 -0.021714401 1.4209196e-38
-0.022562176 -0.11192839 -0.015705537 1.5500299e-38
-0.020567149 -0.11094652 -0.011662196 1.5223348e-38
-0.018703278 -0.11094652 -0.011662196 1.34727e-38
-0.016757537 -0.11021499 -0.0086497776 1.6147801e-38
-0.014898945 -0.11021499 -0.0086497776 1.6516581e-38
-0.012969449 -0.10948761 -0.0056544058 1.559463e-38
-0.011050832 -0.10876434 -0.0026759617 1.7898445e-38
-0.009202715 -0.10876434 -0.0026759617 1.854346e-38
-0.0073545948 -0.10876434 -0.0026759617 1.7529308e-38
-0.0054389425 -0.10777976 0.0013785847 1.9280306e-38
-0.0035979338 -0.10777976 0.0013785847 1.9464696e-38
-0.0017182752 -0.10706602 0.0043176897 1.8911156e-38
0.00011758134 -0.10706602 0.0043176897 1.9833466e-38
0.001982661 -0.10633011 0.0073482282 1.9740548e-38
0.0038132034 -0.10633011 0.0073482282 2.1122048e-38
0.0056622364 -0.10559841 0.010361362 2.2315929e-38
0.0075006261 -0.10487093 0.013357092 2.1764907e-38
0.0093206335 -0.10487093 0.013357092 2.1764909e-38
0.011140641 -0.10487093 0.013357092 2.1305734e-38
0.0129572 -0.10391603 0.017289329 1.9648375e-38
0.01476226 -0.10317262 0.020350743 1.9003722e-38
0.016557124 -0.10245901 0.023289371 1.9004427e-38
0.018341146 -0.10172421 0.026315261 1.9465049e-38
0.020138435 -0.10172421 0.026315261 1.9648386e-38
0.02193572 -0.10172421 0.026315261 1.8910105e-38
-0.036240552 -0.11698125 -0.028714608 1.0317518e-38
-0.034346778 -0.11698125 -0.028714608 1.1702622e-38
-0.032453004 -0.11698125 -0.028714608 1.2352337e-38
-0.030441087 -0.11624874 -0.025719713 1.4661906e-38
-0.02840158 -0.11526908 -0.021714401 1.4574367e-38
-0.026520081 -0.11526908 -0.021714401 1.5499198e-38
-0.024533637 -0.1145183 -0.018644881 1.5038238e-38
-0.022431023 -0.11281042 -0.011662196 1.6052757e-38
-0.020567149 -0.11281042 -0.011662196 1.5498867e-38
-0.018703278 -0.11281042 -0.011662196 1.3563109e-38
-0.016757537 -0.11207359 -0.0086497776 1.5316964e-38
-0.014898945 -0.11207359 -0.0086497776 1.5779016e-38
-0.012969449 -0.11134095 -0.0056544058 1.5685747e-38
-0.011050832 -0.11061247 -0.0026759617 1.7529306e-38
-0.009202715 -0.11061247 -0.0026759617 1.7529311e-38
-0.0073545948 -0.11061247 -0.0026759617 1.6422963e-38
-0.0054389425 -0.10962076 0.0013785847 1.7990286e-38
-0.0035979338 -0.10962076 0.0013785847 1.7621139e-38
-0.0017182752 -0.10890187 0.0043176897 1.6883927e-38
0.00011758134 -0.10890187 0.0043176897 1.8267213e-38
0.001982661 -0.10816063 0.0073482282 1.8450883e-38
0.0038369782 -0.10742365 0.010361362 1.9834173e-38
0.0056622364 -0.10742365 0.010361362 2.0846534e-38
0.0075006261 -0.10669093 0.013357092 2.0202603e-38
0.0093309749 -0.10572915 0.017289329 2.0293722e-38
0.011144087 -0.10572915 0.017289329 1.9833466e-38
0.0129572 -0.10572915 0.017289329 1.9004071e-38
0.01476226 -0.10498036 0.020350743 1.7068681e-38
0.016557124 -0.10426159 0.023289371 1.8175382e-38
0.018341146 -0.10352151 0.026315261 2.002002e-38
0.020138435 -0.10352151 0.026315261 1.9925686e-38
0.02193572 -0.10352151 0.026315261 1.8634586e-38
-0.035927575 -0.11715056 -0.021714401 1.0592674e-38
-0.034046073 -0.11715056 -0.021714401 1.1887017e-38
-0.032164577 -0.11715056 -0.021714401 1.290551e-38
-0.030283082 -0.11715056 -0.021714401 1.493849e-38
-0.02840158 -0.11715056 -0.021714401 1.4759109e-38
-0.026409753 -0.11639442 -0.018644881 1.586761e-38
-0.024533637 -0.11639442 -0.018644881 1.5683237e-38
-0.022431023 -0.11467429 -0.011662196 1.678888e-38
-0.020474717 -0.11393218 -0.0086497776 1.614244e-38
-0.018616129 -0.11393218 -0.0086497776 1.4206686e-38
-0.016757537 -0.11393218 -0.0086497776 1.4024788e-38
-0.014822792 -0.1131943 -0.0056544058 1.4763425e-38
-0.012969449 -0.1131943 -0.0056544058 1.5408444e-38
-0.011050832 -0.11246057 -0.0026759617 1.7805179e-38
-0.009202715 -0.11246057 -0.0026759617 1.7343847e-38
-0.0073545948 -0.11246057 -0.0026759617 1.5960913e-38
-0.0054389425 -0.11146177 0.0013785847 1.7251649e-38
-0.0035979338 -0.11146177 0.0013785847 1.6237131e-38
-0.0017182752 -0.11073773 0.0043176897 1.5869056e-38
0.00011758134 -0.11073773 0.0043176897 1.7436737e-38
0.001982661 -0.10999118 0.0073482282 1.7897709e-38
0.0038369782 -0.10924892 0.010361362 1.9280999e-38
0.0056806207 -0.10851096 0.013357092 1.9649426e-38
0.0075006261 -0.10851096 0.013357092 1.8543084e-38
0.0093309749 -0.10754226 0.017289329 1.8819314e-38
0.011144087 -0.10754226 0.017289329 1.9280292e-38
0.012954516 -0.10678811 0.020350743 1.863564e-38
0.014754532 -0.10606419 0.023289371 1.5686099e-38
0.016543861 -0.1053188 0.026315261 1.7622931e-38
0.018341146 -0.1053188 0.026315261 2.1213909e-38
0.020114698 -0.10457774 0.029323507 2.0203355e-38
0.021906711 -0.10457774 0.029323507 1.7436759e-38
0.02366464 -0.10384102 0.032314111 1.7988463e-38
0.025451411 -0.10384102 0.032314111 1.273078e-38
-0.035927575 -0.11903207 -0.021714401 1.0500484e-38
-0.034046073 -0.11903207 -0.021714401 1.2162532e-38
-0.032164577 -0.11903207 -0.021714401 1.2812596e-38
-0.030283082 -0.11903207 -0.021714401 1.4477867e-38
-0.028285868 -0.11827053 -0.018644881 1.4114088e-38
-0.026409753 -0.11827053 -0.018644881 1.5315144e-38
-0.02443314 -0.1175413 -0.015705537 1.5314806e-38
-0.022431023 -0.11653815 -0.011662196 1.6511929e-38
-0.020474717 -0.11579077 -0.0086497776 1.5956609e-38
-0.018616129 -0.11579077 -0.0086497776 1.4113051e-38
-0.016676132 -0.11504765 -0.0056544058 1.3838957e-38
-0.014822792 -0.11504765 -0.0056544058 1.4392844e-38
-0.012969449 -0.11504765 -0.0056544058 1.5775429e-38
-0.011050832 -0.1143087 -0.0026759617 1.9094119e-38
-0.009202715 -0.1143087 -0.0026759617 1.863279e-38
-0.0073545948 -0.1143087 -0.0026759617 1.6973271e-38
-0.0054389425 -0.11330278 0.0013785847 1.8171811e-38
-0.0035979338 -0.11330278 0.0013785847 1.6789229e-38
-0.0017182752 -0.11257361 0.0043176897 1.7158363e-38
0.00011758134 -0.11257361 0.0043176897 1.826614e-38
0.001982661 -0.11182173 0.0073482282 1.8726394e-38
0.0038369782 -0.11107419 0.010361362 1.9649429e-38
0.0056806207 -0.11033095 0.013357092 1.9371766e-38
0.0075006261 -0.11033095 0.013357092 1.6975404e-38
0.0093309749 -0.10935538 0.017289329 1.7619341e-38
0.011144087 -0.10935538 0.017289329 1.8818961e-38
0.012954516 -0.10859586 0.020350743 1.7990987e-38
0.014754532 -0.10786678 0.023289371 1.5134001e-38
0.016543861 -0.10711606 0.026315261 1.7346713e-38
0.018341146 -0.10711606 0.026315261 2.112208e-38
0.020114698 -0.10636975 0.029323507 1.9650544e-38
0.021906711 -0.10636975 0.029323507 1.5870509e-38
0.02366464 -0.10562779 0.032314111 1.6053428e-38
0.025451411 -0.10562779 0.032314111 1.1164532e-38
0.027238179 -0.10562779 0.032314111 9.2230396e-39
-0.035927575 -0.12091358 -0.021714401 1.0591607e-38
-0.034046073 -0.12091358 -0.021714401 1.2439122e-38
-0.032164577 -0.12091358 -0.021714401 1.2628203e-38
-0.030283082 -0.12091358 -0.021714401 1.4016883e-38
-0.028285868 -0.12014665 -0.018644881 1.3561263e-38
-0.026409753 -0.12014665 -0.018644881 1.494671e-38
-0.02443314 -0.11941226 -0.015705537 1.5130045e-38
-0.022431023 -0.11840202 -0.011662196 1.6419004e-38
-0.020474717 -0.11764936 -0.0086497776 1.5679658e-38
-0.018616129 -0.11764936 -0.0086497776 1.3743547e-38
-0.016676132 -0.11690097 -0.0056544058 1.4298496e-38
-0.014822792 -0.11690097 -0.0056544058 1.4114817e-38
-0.012898948 -0.1161568 -0.0026759617 1.5590677e-38
-0.011050832 -0.1161568 -0.0026759617 1.9738773e-38
-0.009202715 -0.1161568 -0.0026759617 1.9461834e-38
-0.0073545948 -0.1161568 -0.0026759617 1.7894511e-38
-0.0055064783 -0.1161568 -0.0026759617 1.9277443e-38
-0.0035979338 -0.11514379 0.0013785847 1.7987059e-38
-0.0017182752 -0.11440946 0.0043176897 1.7803018e-38
0.00011758134 -0.11440946 0.0043176897 1.8265066e-38
0.001982661 -0.11365227 0.0073482282 1.835654e-38
0.0038369782 -0.11289944 0.010361362 1.9463604e-38
0.0056622364 -0.11289944 0.010361362 1.8725326e-38
0.0075006261 -0.11215095 0.013357092 1.5775431e-38
0.0093309749 -0.11116849 0.017289329 1.6512282e-38
0.011144087 -0.11116849 0.017289329 1.8357988e-38
0.012954516 -0.11040358 0.020350743 1.7990987e-38
0.014754532 -0.10966937 0.023289371 1.6332547e-38
0.016543861 -0.10891335 0.026315261 1.7438557e-38
0.018341146 -0.10891335 0.026315261 1.9282844e-38
0.020114698 -0.10816176 0.029323507 1.8544921e-38
0.021906711 -0.10816176 0.029323507 1.6423686e-38
0.02366464 -0.10741456 0.032314111 1.6330012e-38
0.025451411 -0.10741456 0.032314111 1.0242575e-38
0.027238179 -0.10741456 0.032314111 1.0421231e-38
-0.035927575 -0.12279506 -0.021714401 1.0591972e-38
-0.034046073 -0.12279506 -0.021714401 1.2715706e-38
-0.032164577 -0.12279506 -0.021714401 1.3089532e-38
-0.030283082 -0.12279506 -0.021714401 1.4569332e-38
-0.028285868 -0.12202276 -0.018644881 1.3929696e-38
-0.026409753 -0.12202276 -0.018644881 1.5499533e-38
-0.02443314 -0.12128322 -0.015705537 1.5683575e-38
-0.022431023 -0.12026589 -0.011662196 1.6880337e-38
-0.020474717 -0.11950795 -0.0086497776 1.6048438e-38
-0.018616129 -0.11950795 -0.0086497776 1.411233e-38
-0.016676132 -0.11875431 -0.0056544058 1.3929358e-38
-0.014822792 -0.11875431 -0.0056544058 1.3285061e-38
-0.012898948 -0.11800493 -0.0026759617 1.4852036e-38
-0.011050832 -0.11800493 -0.0026759617 1.946111e-38
-0.009202715 -0.11800493 -0.0026759617 1.9368562e-38
-0.0073545948 -0.11800493 -0.0026759617 1.7893435e-38
-0.0055064783 -0.11800493 -0.0026759617 1.9645152e-38
-0.0035979338 -0.1169848 0.0013785847 1.8631353e-38
-0.0017182752 -0.11624531 0.0043176897 1.8355118e-38
0.00011758134 -0.11624531 0.0043176897 1.835547e-38
0.001982661 -0.11548282 0.0073482282 1.8355467e-38
0.0038369782 -0.11472471 0.010361362 2.0016065e-38
0.0056622364 -0.11472471 0.010361362 1.9555089e-38
0.0075006261 -0.11397095 0.013357092 1.6788866e-38
0.0093309749 -0.1129816 0.017289329 1.7802665e-38
0.011144087 -0.1129816 0.017289329 2.0201543e-38
0.01295194 -0.11147197 0.023289371 1.8359769e-38
0.014754532 -0.11147197 0.023289371 1.7623646e-38
0.016543861 -0.11071064 0.026315261 1.7715141e-38
0.018341146 -0.11071064 0.026315261 1.7715512e-38
0.020114698 -0.10995375 0.029323507 1.8175414e-38
0.021906711 -0.10995375 0.029323507 1.8451267e-38
0.02366464 -0.10920133 0.032314111 1.8357245e-38
0.025451411 -0.10920133 0.032314111 1.1162741e-38
0.027238179 -0.10920133 0.032314111 9.5907571e-39
-0.03610665 -0.12569134 -0.025719713 9.7632906e-39
-0.034218136 -0.12569134 -0.025719713 1.3915321e-38
-0.032164577 -0.12467657 -0.021714401 1.2629258e-38
-0.030283082 -0.12467657 -0.021714401 1.4200903e-38
-0.028285868 -0.12389888 -0.018644881 1.3927919e-38
-0.026409753 -0.12389888 -0.018644881 1.3376903e-38
-0.02443314 -0.12315418 -0.015705537 1.300955e-38
-0.022431023 -0.12212978 -0.011662196 1.6695943e-38
-0.020474717 -0.12136655 -0.0086497776 1.6417939e-38
-0.018616129 -0.12136655 -0.0086497776 1.3744269e-38
-0.016757537 -0.12136655 -0.0086497776 1.3285432e-38
-0.014822792 -0.12060766 -0.0056544058 1.3193954e-38
-0.012898948 -0.11985306 -0.0026759617 1.429995e-38
-0.011050832 -0.11985306 -0.0026759617 1.9554386e-38
-0.009202715 -0.11985306 -0.0026759617 1.9091978e-38
-0.0073545948 -0.11985306 -0.0026759617 1.8538806e-38
-0.0055064783 -0.11985306 -0.0026759617 1.973663e-38
-0.0035979338 -0.11882581 0.0013785847 1.8630281e-38
-0.0017182752 -0.11808117 0.0043176897 1.8630632e-38
0.00011758134 -0.11808117 0.0043176897 1.8446595e-38
0.001982661 -0.11731337 0.0073482282 1.8631338e-38
0.0038369782 -0.11654995 0.010361362 1.872425e-38
0.0056622364 -0.11654995 0.010361362 1.8172155e-38
0.0075006261 -0.11579098 0.013357092 1.7526429e-38
0.0093309749 -0.11479472 0.017289329 1.7895932e-38
0.011146771 -0.11401908 0.020350743 1.8634572e-38
0.01295194 -0.11327456 0.023289371 1.7714404e-38
0.014754532 -0.11327456 0.023289371 1.7808037e-38
0.016543861 -0.11250792 0.026315261 1.7992077e-38
0.018341146 -0.11250792 0.026315261 1.8545256e-38
0.020138435 -0.11250792 0.026315261 1.872785e-38
0.02193572 -0.11250792 0.026315261 1.9186667e-38
0.023698725 -0.11174576 0.029323507 2.0289768e-38
0.025490735 -0.11174576 0.029323507 1.1988205e-38
-0.03610665 -0.12757985 -0.025719713 1.0593051e-38
-0.034046073 -0.12655805 -0.021714401 1.4560686e-38
-0.032164577 -0.12655805 -0.021714401 1.4473523e-38
-0.030283082 -0.12655805 -0.021714401 1.4016149e-38
-0.028285868 -0.12577499 -0.018644881 1.2636112e-38
-0.026409753 -0.12577499 -0.018644881 1.1900705e-38
-0.024294898 -0.12399365 -0.011662196 1.2454947e-38
-0.022431023 -0.12399365 -0.011662196 1.6327886e-38
-0.020474717 -0.12322514 -0.0086497776 1.5219759e-38
-0.018616129 -0.12322514 -0.0086497776 1.2269502e-38
-0.016757537 -0.12322514 -0.0086497776 1.2640425e-38
-0.014822792 -0.12246101 -0.0056544058 1.2364915e-38
-0.012969449 -0.12246101 -0.0056544058 1.2640428e-38
-0.011050832 -0.12170117 -0.0026759617 1.7434249e-38
-0.009202715 -0.12170117 -0.0026759617 1.7433536e-38
-0.0073545948 -0.12170117 -0.0026759617 1.7248067e-38
-0.0055064783 -0.12170117 -0.0026759617 1.82615e-38
-0.0035979338 -0.12066682 0.0013785847 1.7799802e-38
-0.0017182752 -0.11991702 0.0043176897 1.8168937e-38
0.0001521185 -0.11914389 0.0073482282 1.8262204e-38
0.001982661 -0.11914389 0.0073482282 1.8631339e-38
0.0038369782 -0.11837523 0.010361362 1.8539858e-38
0.0056806207 -0.11761098 0.013357092 1.7711177e-38
0.0075006261 -0.11761098 0.013357092 1.6882132e-38
0.0093309749 -0.11660783 0.017289329 1.6881776e-38
0.011146771 -0.11582683 0.020350743 1.6975048e-38
0.01295194 -0.11507715 0.023289371 1.568682e-38
0.014754532 -0.11507715 0.023289371 1.7439255e-38
0.016543861 -0.11430521 0.026315261 1.7715843e-38
0.018341146 -0.11430521 0.026315261 1.716195e-38
0.020138435 -0.11430521 0.026315261 1.725271e-38
0.02193572 -0.11430521 0.026315261 1.9369616e-38
0.023698725 -0.11353777 0.029323507 2.1025184e-38
0.025490735 -0.11353777 0.029323507 1.1986416e-38
-0.03610665 -0.1294684 -0.025719713 1.0316462e-38
-0.034046073 -0.12843956 -0.021714401 1.3546534e-38
-0.032038104 -0.12765111 -0.018644881 1.4380248e-38
-0.030161981 -0.12765111 -0.018644881 1.5030301e-38
-0.028175067 -0.1268961 -0.015705537 1.5678562e-38
-0.026158772 -0.12585752 -0.011662196 1.3744618e-38
-0.024294898 -0.12585752 -0.011662196 1.2546788e-38
-0.022333309 -0.12508373 -0.0086497776 1.5866556e-38
-0.020474717 -0.12508373 -0.0086497776 1.4943176e-38
-0.018616129 -0.12508373 -0.0086497776 1.3653158e-38
-0.016757537 -0.12508373 -0.0086497776 1.3010287e-38
-0.014822792 -0.12431435 -0.0056544058 1.3102837e-38
-0.012969449 -0.12431435 -0.0056544058 1.2456034e-38
-0.011050832 -0.1235493 -0.0026759617 1.6696681e-38
-0.009202715 -0.1235493 -0.0026759617 1.7617924e-38
-0.0073545948 -0.1235493 -0.0026759617 1.7616848e-38
-0.0055064783 -0.1235493 -0.0026759617 1.8538086e-38
-0.0035979338 -0.12250783 0.0013785847 1.8815026e-38
-0.0017182752 -0.12175287 0.0043176897 1.7155859e-38
0.0001521185 -0.12097444 0.0073482282 1.798597e-38
0.001982661 -0.12097444 0.0073482282 1.8539139e-38
0.0038369782 -0.12020047 0.010361362 1.835582e-38
0.0056806207 -0.11943097 0.013357092 1.7711171e-38
0.0075006261 -0.11943097 0.013357092 1.7343107e-38
0.0093309749 -0.11842094 0.017289329 1.7066523e-38
0.011146771 -0.11763458 0.020350743 1.660734e-38
0.01295194 -0.11687975 0.023289371 1.5133646e-38
0.014754532 -0.11687975 0.023289371 1.7070474e-38
0.016543861 -0.1161025 0.026315261 1.7899518e-38
0.018341146 -0.1161025 0.026315261 1.7529657e-38
0.020138435 -0.1161025 0.026315261 1.7436026e-38
0.02193572 -0.1161025 0.026315261 1.9093029e-38
0.023698725 -0.11532979 0.029323507 2.0656402e-38
0.025490735 -0.11532979 0.029323507 1.1709829e-38
-0.03610665 -0.13135691 -0.025719713 9.6714453e-39
-0.034046073 -0.13032107 -0.021714401 1.2255796e-38
-0.032038104 -0.12952723 -0.018644881 1.4472444e-38
-0.030161981 -0.12952723 -0.018644881 1.4568242e-38
-0.028175067 -0.12876706 -0.015705537 1.4755882e-38
-0.026158772 -0.12772138 -0.011662196 1.2546072e-38
-0.024294898 -0.12772138 -0.011662196 1.2546438e-38
-0.022333309 -0.12694232 -0.0086497776 1.7064751e-38
-0.020474717 -0.12694232 -0.0086497776 1.5035022e-38
-0.018616129 -0.12694232 -0.0086497776 1.2270226e-38
-0.016757537 -0.12694232 -0.0086497776 1.2641504e-38
-0.014822792 -0.12616767 -0.0056544058 1.3195749e-38
-0.012969449 -0.12616767 -0.0056544058 1.2088331e-38
-0.011050832 -0.1253974 -0.0026759617 1.6236061e-38
-0.009202715 -0.1253974 -0.0026759617 1.7341338e-38
-0.0073545948 -0.1253974 -0.0026759617 1.6695968e-38
-0.0055064783 -0.1253974 -0.0026759617 1.7432454e-38
-0.0035979338 -0.12434883 0.0013785847 1.8078177e-38
-0.0017182752 -0.12358873 0.0043176897 1.6879269e-38
0.0001521185 -0.12280498 0.0073482282 1.7617905e-38
0.0020117164 -0.12202574 0.010361362 1.8078877e-38
0.0038369782 -0.12202574 0.010361362 1.7527136e-38
0.0056622364 -0.12202574 0.010361362 1.7250909e-38
0.0075006261 -0.121251 0.013357092 1.7251988e-38
0.0093309749 -0.12023406 0.017289329 1.7251988e-38
0.011146771 -0.11944233 0.020350743 1.6699536e-38
0.01295194 -0.11868234 0.023289371 1.6239997e-38
0.014754532 -0.11868234 0.023289371 1.7069757e-38
0.016543861 -0.11789979 0.026315261 1.8083909e-38
0.018341146 -0.11789979 0.026315261 1.9373572e-38
0.020138435 -0.11789979 0.026315261 1.9187743e-38
0.02193572 -0.11789979 0.026315261 1.8908638e-38
0.023698725 -0.1171218 0.029323507 1.9550054e-38
0.025490735 -0.1171218 0.029323507 1.1248851e-38
-0.03610665 -0.13324542 -0.025719713 9.8558352e-39
-0.034046073 -0.13220255 -0.021714401 1.2993001e-38
-0.032038104 -0.13140334 -0.018644881 1.3089149e-38
-0.030161981 -0.13140334 -0.018644881 1.5121772e-38
-0.028175067 -0.13063805 -0.015705537 1.5954778e-38
-0.026304103 -0.13063805 -0.015705537 1.3099601e-38
-0.024294898 -0.12958528 -0.011662196 1.1716328e-38
-0.022431023 -0.12958528 -0.011662196 1.5681111e-38
-0.020474717 -0.12880091 -0.0086497776 1.5126863e-38
-0.018616129 -0.12880091 -0.0086497776 1.3192185e-38
-0.016757537 -0.12880091 -0.0086497776 1.2457113e-38
-0.014898945 -0.12880091 -0.0086497776 1.3287944e-38
-0.012969449 -0.12802102 -0.0056544058 1.2457113e-38
-0.01111611 -0.12802102 -0.0056544058 1.6328976e-38
-0.009202715 -0.12724553 -0.0026759617 1.7065467e-38
-0.0073545948 -0.12724553 -0.0026759617 1.5958403e-38
-0.0054389425 -0.12618984 0.0013785847 1.6050596e-38
-0.0035541318 -0.12542458 0.0043176897 1.6511929e-38
-0.0016784258 -0.12463553 0.0073482282 1.6972181e-38
0.0001521185 -0.12463553 0.0073482282 1.7250198e-38
0.0020117164 -0.12385099 0.010361362 1.7157997e-38
0.0038369782 -0.12385099 0.010361362 1.632931e-38
0.0056806207 -0.123071 0.013357092 1.6052723e-38
0.0075006261 -0.123071 0.013357092 1.6330389e-38
0.0093309749 -0.12204717 0.017289329 1.651478e-38
0.011146771 -0.12125005 0.020350743 1.6238555e-38
0.01295194 -0.12048493 0.023289371 1.6792094e-38
0.014754532 -0.12048493 0.023289371 1.7160877e-38
0.016557124 -0.12048493 0.023289371 1.7990638e-38
0.018341146 -0.11969708 0.026315261 1.9465052e-38
0.020138435 -0.11969708 0.026315261 1.9739841e-38
0.02193572 -0.11969708 0.026315261 1.9276704e-38
0.023698725 -0.11891381 0.029323507 1.9457496e-38
0.025490735 -0.11891381 0.029323507 1.0695674e-38
-0.03610665 -0.13513394 -0.025719713 1.0131699e-38
-0.034218136 -0.13513394 -0.025719713 1.3546174e-38
-0.032164577 -0.13408406 -0.021714401 1.4748671e-38
-0.030283082 -0.13408406 -0.021714401 1.5029576e-38
-0.028285868 -0.13327946 -0.018644881 1.4203413e-38
-0.026409753 -0.13327946 -0.018644881 1.5035708e-38
-0.024294898 -0.13144915 -0.011662196 1.6786736e-38
-0.022431023 -0.13144915 -0.011662196 1.9829566e-38
-0.020474717 -0.13065951 -0.0086497776 1.6786031e-38
-0.018616129 -0.13065951 -0.0086497776 1.107133e-38
-0.016757537 -0.13065951 -0.0086497776 1.2180529e-38
-0.014898945 -0.13065951 -0.0086497776 1.2734415e-38
-0.012969449 -0.12987436 -0.0056544058 1.2549312e-38
-0.01111611 -0.12987436 -0.0056544058 1.6974347e-38
-0.009202715 -0.12909363 -0.0026759617 1.7618643e-38
-0.0073545948 -0.12909363 -0.0026759617 1.6696687e-38
-0.0053899847 -0.12726043 0.0043176897 1.6881075e-38
-0.0035541318 -0.12726043 0.0043176897 1.6697039e-38
-0.0016784258 -0.12646608 0.0073482282 1.6512282e-38
0.0001521185 -0.12646608 0.0073482282 1.6512994e-38
0.0020117164 -0.12567626 0.010361362 1.6328955e-38
0.0038369782 -0.12567626 0.010361362 1.5777215e-38
0.0056806207 -0.124891 0.013357092 1.5777215e-38
0.0075006261 -0.124891 0.013357092 1.6238553e-38
0.0093309749 -0.12386028 0.017289329 1.6699533e-38
0.011146771 -0.1230578 0.020350743 1.6883927e-38
0.01295194 -0.12228753 0.023289371 1.5962337e-38
0.014754532 -0.12228753 0.023289371 1.7068684e-38
0.016557124 -0.12228753 0.023289371 1.7437467e-38
0.018341146 -0.12149437 0.026315261 1.780553e-38
0.020138435 -0.12149437 0.026315261 1.8449102e-38
0.02193572 -0.12149437 0.026315261 1.9553291e-38
0.023698725 -0.12070583 0.029323507 2.0102865e-38
0.025490735 -0.12070583 0.029323507 1.0418368e-38
0.027327582 -0.12149437 0.026315261 9.2162279e-39
-0.03610665 -0.13702248 -0.025719713 1.031609e-38
-0.034218136 -0.13702248 -0.025719713 1.2624218e-38
-0.032164577 -0.13596557 -0.021714401 1.2259033e-38
-0.030283082 -0.13596557 -0.021714401 1.4107617e-38
-0.028285868 -0.13515557 -0.018644881 1.4479997e-38
-0.026409753 -0.13515557 -0.018644881 1.8630975e-38
-0.024294898 -0.13331302 -0.011662196 1.9552252e-38
-0.022431023 -0.13331302 -0.011662196 1.9460432e-38
-0.020474717 -0.1325181 -0.0086497776 1.7892024e-38
-0.018616129 -0.1325181 -0.0086497776 1.3560615e-38
-0.016839404 -0.13331302 -0.011662196 1.1718117e-38
-0.014975529 -0.13331302 -0.011662196 1.1074179e-38
-0.013040353 -0.1325181 -0.0086497776 1.1073826e-38
-0.01111611 -0.13172771 -0.0056544058 1.6144589e-38
-0.009202715 -0.13094176 -0.0026759617 1.6789606e-38
-0.0073545948 -0.13094176 -0.0026759617 1.669741e-38
-0.0053899847 -0.12909628 0.0043176897 1.7250581e-38
-0.0035089664 -0.1282966 0.0073482282 1.6144587e-38
-0.0016784258 -0.1282966 0.0073482282 1.5959471e-38
0.00018645823 -0.1275015 0.010361362 1.5684315e-38
0.0020117164 -0.1275015 0.010361362 1.5960896e-38
0.0038369782 -0.1275015 0.010361362 1.6330751e-38
0.0056622364 -0.1275015 0.010361362 1.6699533e-38
0.0075006261 -0.126711 0.013357092 1.6883927e-38
0.0093309749 -0.1256734 0.017289329 1.7344549e-38
0.011146771 -0.12486555 0.020350743 1.7714054e-38
0.01295194 -0.12409012 0.023289371 1.6145653e-38
0.014754532 -0.12409012 0.023289371 1.7252001e-38
0.016557124 -0.12409012 0.023289371 1.7620783e-38
0.018341146 -0.12329166 0.026315261 1.789701e-38
0.020138435 -0.12329166 0.026315261 1.8356546e-38
0.02193572 -0.12329166 0.026315261 1.9276344e-38
0.023698725 -0.12249784 0.029323507 1.9917755e-38
0.025490735 -0.12249784 0.029323507 1.0510564e-38
0.027327582 -0.12329166 0.026315261 9.1240323e-39
-0.036240552 -0.13970654 -0.028714608 1.096146e-38
-0.034218136 -0.13891099 -0.025719713 1.1793738e-38
-0.032164577 -0.13784705 -0.021714401 1.2904402e-38
-0.030283082 -0.13784705 -0.021714401 1.3922507e-38
-0.02840158 -0.13784705 -0.021714401 1.3373286e-38
-0.026409753 -0.13703169 -0.018644881 1.9552928e-38
-0.02443314 -0.13625093 -0.015705537 2.0935186e-38
-0.022431023 -0.13517688 -0.011662196 1.9921054e-38
-0.020567149 -0.13517688 -0.011662196 2.05657e-38
-0.018703278 -0.13517688 -0.011662196 1.7893811e-38
-0.016839404 -0.13517688 -0.011662196 1.3101057e-38
-0.014975529 -0.13517688 -0.011662196 1.1350412e-38
-0.013040353 -0.13437669 -0.0086497776 1.0889439e-38
-0.01111611 -0.13358103 -0.0056544058 1.6144233e-38
-0.009202715 -0.13278987 -0.0026759617 1.6605216e-38
-0.007225845 -0.13093217 0.0043176897 1.6881803e-38
-0.005339507 -0.13012715 0.0073482282 1.7434975e-38
-0.0035089664 -0.13012715 0.0073482282 1.549922e-38
-0.0016784258 -0.13012715 0.0073482282 1.5960194e-38
0.00018645823 -0.12932678 0.010361362 1.5592483e-38
0.0020117164 -0.12932678 0.010361362 1.6053813e-38
0.0038369782 -0.12932678 0.010361362 1.6975767e-38
0.0056806207 -0.12853102 0.013357092 1.7252354e-38
0.0075006261 -0.12853102 0.013357092 1.6883574e-38
0.0093206335 -0.12853102 0.013357092 1.6791741e-38
0.011144087 -0.12748651 0.017289329 1.7252721e-38
0.01295194 -0.12589271 0.023289371 1.7252002e-38
0.014754532 -0.12589271 0.023289371 1.7528589e-38
0.016557124 -0.12589271 0.023289371 1.8265435e-38
0.018341146 -0.12508895 0.026315261 1.9648727e-38
0.020138435 -0.12508895 0.026315261 1.9462894e-38
0.02193572 -0.12508895 0.026315261 1.8538779e-38
0.023698725 -0.12428986 0.029323507 1.8903603e-38
0.025490735 -0.12428986 0.029323507 1.0786791e-38
0.027327582 -0.12508895 0.026315261 9.215865e-39
-0.036240552 -0.1416003 -0.028714608 1.0223895e-38
-0.034218136 -0.14079951 -0.025719713 1.1978133e-38
-0.032164577 -0.13972856 -0.021714401 1.2443064e-38
-0.030283082 -0.13972856 -0.021714401 1.4106179e-38
-0.02840158 -0.13972856 -0.021714401 1.1898155e-38
-0.026409753 -0.13890781 -0.018644881 1.8445502e-38
-0.02443314 -0.13812189 -0.015705537 2.1579837e-38
-0.022431023 -0.13704078 -0.011662196 2.0750091e-38
-0.020567149 -0.13704078 -0.011662196 2.1118871e-38
-0.018703278 -0.13704078 -0.011662196 1.8538101e-38
-0.016839404 -0.13704078 -0.011662196 1.6972558e-38
-0.014975529 -0.13704078 -0.011662196 1.1625922e-38
-0.013040353 -0.13623528 -0.0086497776 1.1718123e-38
-0.011181761 -0.13623528 -0.0086497776 1.5682179e-38
-0.009202715 -0.134638 -0.0026759617 1.6512664e-38
-0.007225845 -0.13276802 0.0043176897 1.6697056e-38
-0.005339507 -0.13195769 0.0073482282 1.7250945e-38
-0.0035089664 -0.13195769 0.0073482282 1.6237148e-38
-0.0016784258 -0.13195769 0.0073482282 1.5223349e-38
0.00018645823 -0.13115202 0.010361362 1.5038954e-38
0.0020117164 -0.13115202 0.010361362 1.6053462e-38
0.0038369782 -0.13115202 0.010361362 1.6791743e-38
0.0056806207 -0.13035102 0.013357092 1.6330765e-38
0.0075006261 -0.13035102 0.013357092 1.6146373e-38
0.0093206335 -0.13035102 0.013357092 1.6606998e-38
0.011144087 -0.1292996 0.017289329 1.6698475e-38
0.01295194 -0.12769531 0.023289371 1.8449829e-38
0.014754532 -0.12769531 0.023289371 1.8173239e-38
0.016543861 -0.12688623 0.026315261 1.9278867e-38
0.018341146 -0.12688623 0.026315261 1.85413e-38
0.020138435 -0.12688623 0.026315261 1.7986685e-38
0.02193572 -0.12688623 0.026315261 2.0197222e-38
0.023698725 -0.12608187 0.029323507 2.0746795e-38
0.025490735 -0.12608187 0.029323507 1.032581e-38
0.027327582 -0.12688623 0.026315261 9.4002562e-39
-0.036240552 -0.14349405 -0.028714608 1.1422083e-38
-0.034218136 -0.14268802 -0.025719713 1.3913162e-38
-0.032164577 -0.14161004 -0.021714401 1.3824922e-38
-0.030283082 -0.14161004 -0.021714401 1.3276419e-38
-0.02840158 -0.14161004 -0.021714401 1.162085e-38
-0.026409753 -0.14078392 -0.018644881 1.7892328e-38
-0.02443314 -0.13999285 -0.015705537 2.0381647e-38
-0.022431023 -0.13890465 -0.011662196 1.9551903e-38
-0.020567149 -0.13890465 -0.011662196 1.9367509e-38
-0.018703278 -0.13890465 -0.011662196 1.7431752e-38
-0.016839404 -0.13890465 -0.011662196 1.7155867e-38
-0.014975529 -0.13890465 -0.011662196 1.208654e-38
-0.013040353 -0.13809387 -0.0086497776 1.2270578e-38
-0.011181761 -0.13809387 -0.0086497776 1.5774375e-38
-0.0092627667 -0.13728772 -0.0056544058 1.6419748e-38
-0.0073545948 -0.13648613 -0.0026759617 1.6051686e-38
-0.0053899847 -0.13460387 0.0043176897 1.6236433e-38
-0.0035089664 -0.13378824 0.0073482282 1.5130803e-38
-0.0016784258 -0.13378824 0.0073482282 1.5591776e-38
0.00018645823 -0.13297729 0.010361362 1.5038957e-38
0.0020117164 -0.13297729 0.010361362 1.5685042e-38
0.0038369782 -0.13297729 0.010361362 1.669955e-38
0.0056806207 -0.13217102 0.013357092 1.6330411e-38
0.0075006261 -0.13217102 0.013357092 1.5869436e-38
0.0093309749 -0.13111271 0.017289329 1.6145666e-38
0.011146771 -0.13028879 0.020350743 1.6329697e-38
0.01295194 -0.1294979 0.023289371 1.7895579e-38
0.014754532 -0.1294979 0.023289371 1.7711185e-38
