# .PCD v0.7 - Point Cloud Data file format
VERSION 0.7
FIELDS x y z rgb
SIZE 4 4 4 4
TYPE F F F F
COUNT 1 1 1 1
WIDTH 936
HEIGHT 1
VIEWPOINT 0 0 0 1 0 0 0
POINTS 936
DATA ascii
-0.01469091 -0.088707477 -0.0041611381 2.3320403e-38
-0.012855055 -0.088707477 -0.0041611381 2.0094972e-38
-0.011019199 -0.088707477 -0.0041611381 2.2677891e-38
-0.0092391362 -0.088024676 -0.0011305995 2.1756323e-38
-0.0074085938 -0.088024676 -0.0011305995 2.0466323e-38
-0.0055780513 -0.088024676 -0.0011305995 2.1666311e-38
-0.0036757765 -0.088707477 -0.0041611381 2.3141456e-38
-0.0018399199 -0.088707477 -0.0041611381 2.3141826e-38
7.5810589e-05 -0.089369655 -0.0071002431 2.1944377e-38
0.0019168193 -0.089369655 -0.0071002431 2.2775202e-38
0.0037578298 -0.089369655 -0.0071002431 2.2040518e-38
0.0055988384 -0.089369655 -0.0071002431 2.0290262e-38
0.0075784726 -0.090283155 -0.011154789 1.4944751e-38
0.0094265891 -0.090283155 -0.011154789 1.3103005e-38
0.011274709 -0.090283155 -0.011154789 1.1536031e-38
0.013477332 -0.092307791 -0.020141024 1.1165789e-38
0.015507805 -0.093218774 -0.024184365 2.066047e-38
0.017636891 -0.094572589 -0.030193228 2.2499677e-38
0.019697469 -0.095475003 -0.034198541 1.6047384e-38
0.02158599 -0.095475003 -0.034198541 1.6415781e-38
0.02380896 -0.097037792 -0.041134972 1.8629188e-38
0.025861237 -0.097721294 -0.04416861 1.8354762e-38
0.027767237 -0.097721294 -0.04416861 1.8726067e-38
0.029830083 -0.098382086 -0.047101516 1.5870175e-38
0.031741228 -0.098382086 -0.047101516 1.3194706e-38
0.033652373 -0.098382086 -0.047101516 1.4387126e-38
0.035799306 -0.099286526 -0.051115889 1.5950496e-38
0.037904393 -0.099982664 -0.054205675 1.4473573e-38
0.040321093 -0.10176755 -0.062127847 1.4841637e-38
0.042452548 -0.1024504 -0.06515862 1.5578833e-38
0.04466008 -0.10335754 -0.069184914 1.5302246e-38
0.04680885 -0.10402142 -0.072131529 1.3457982e-38
0.049046244 -0.10494001 -0.076208606 8.8489392e-39
0.051008422 -0.10494001 -0.076208606 8.203602e-39
0.052970599 -0.10494001 -0.076208606 7.2827415e-39
-0.0092946077 -0.089171067 0.0018825345 1.3641669e-38
-0.0074693477 -0.089171067 0.0018825345 1.8159992e-38
-0.0056440895 -0.089171067 0.0018825345 2.30478e-38
-0.0037475089 -0.089855224 -0.0011305995 2.2955619e-38
-0.0019169664 -0.089855224 -0.0011305995 2.0927703e-38
-8.6423941e-05 -0.089855224 -0.0011305995 2.0467818e-38
0.0018317914 -0.09054333 -0.0041611381 1.7611193e-38
0.003667648 -0.09054333 -0.0041611381 1.79825e-38
0.0055035045 -0.09054333 -0.0041611381 1.8630405e-38
0.0073393574 -0.09054333 -0.0041611381 1.4944751e-38
0.0092808558 -0.091210663 -0.0071002431 1.3103721e-38
0.011121864 -0.091210663 -0.0071002431 1.2090643e-38
0.013122826 -0.092131287 -0.011154789 1.2089181e-38
0.015093665 -0.092807561 -0.014133234 2.0385322e-38
0.017205082 -0.094171658 -0.020141024 2.1764983e-38
0.019381151 -0.095757127 -0.027123708 1.6508362e-38
0.021399889 -0.096454084 -0.030193228 1.6967879e-38
0.023474511 -0.097363517 -0.034198541 1.7706872e-38
0.025512688 -0.098043531 -0.037193436 1.7984901e-38
0.027610328 -0.09893848 -0.041134972 1.7434249e-38
0.029673241 -0.099627286 -0.04416861 1.4855304e-38
0.031579241 -0.099627286 -0.04416861 1.2180551e-38
0.033485245 -0.099627286 -0.04416861 1.3834667e-38
0.035563517 -0.10029322 -0.047101516 1.6043762e-38
0.037717488 -0.10120471 -0.051115889 1.5211854e-38
0.040073652 -0.10280241 -0.058152456 1.5210775e-38
0.042452548 -0.1043932 -0.06515862 1.567066e-38
0.044395346 -0.1043932 -0.06515862 1.5577743e-38
0.04680885 -0.10597645 -0.072131529 1.4102261e-38
0.049046244 -0.1069022 -0.076208606 9.9541965e-39
0.051008422 -0.1069022 -0.076208606 8.9397223e-39
-0.0092946077 -0.090996325 0.0018825345 1.2351654e-38
-0.0074693477 -0.090996325 0.0018825345 1.6039493e-38
-0.0056440895 -0.090996325 0.0018825345 2.0651071e-38
-0.0038188295 -0.090996325 0.0018825345 2.065108e-38
-0.0019935695 -0.090996325 0.0018825345 1.8253296e-38
-0.00016831141 -0.090996325 0.0018825345 1.7516465e-38
0.0017441185 -0.091685757 -0.0011305995 1.973025e-38
0.0034822067 -0.090996325 0.0018825345 2.0008643e-38
0.0053074686 -0.090996325 0.0018825345 2.0750516e-38
0.0072357459 -0.091685757 -0.0011305995 1.6513135e-38
0.009175214 -0.092379183 -0.0041611381 1.3014377e-38
0.011011071 -0.092379183 -0.0041611381 1.1541394e-38
0.012962873 -0.093051672 -0.0071002431 1.1172589e-38
0.014970946 -0.093979403 -0.011154789 1.7072005e-38
0.01707568 -0.095346272 -0.017128605 2.103028e-38
0.019249734 -0.096960694 -0.024184365 1.7527535e-38
0.021120697 -0.096960694 -0.024184365 1.7617197e-38
0.023281388 -0.098335579 -0.030193228 1.6510484e-38
0.025363032 -0.099252045 -0.034198541 1.7801228e-38
0.027406458 -0.099937305 -0.037193436 1.623499e-38
0.029511012 -0.10083917 -0.041134972 1.4208139e-38
0.031411696 -0.10083917 -0.041134972 1.1901807e-38
0.033485245 -0.10153329 -0.04416861 1.3281127e-38
0.035391245 -0.10153329 -0.04416861 1.6044116e-38
0.037474658 -0.10220437 -0.047101516 1.6594424e-38
0.040073652 -0.10473295 -0.058152456 1.6039809e-38
0.042258587 -0.10564254 -0.062127847 1.622311e-38
0.044196073 -0.10564254 -0.062127847 1.5669933e-38
0.046338152 -0.10633601 -0.06515862 1.4287004e-38
0.049046244 -0.10886435 -0.076208606 1.0507366e-38
0.051008422 -0.10886435 -0.076208606 9.5854462e-39
-0.0074693477 -0.092821583 0.0018825345 1.4564726e-38
-0.0056440895 -0.092821583 0.0018825345 1.6040208e-38
-0.0038188295 -0.092821583 0.0018825345 1.9544724e-38
-0.0019935695 -0.092821583 0.0018825345 1.9636212e-38
-0.00016831141 -0.092821583 0.0018825345 1.8622075e-38
0.0016569486 -0.092821583 0.0018825345 1.982064e-38
0.0034822067 -0.092821583 0.0018825345 1.8624624e-38
0.0053074686 -0.092821583 0.0018825345 1.8444909e-38
0.0071327267 -0.092821583 0.0018825345 1.4946863e-38
0.0090662865 -0.093516305 -0.0011305995 1.2555524e-38
0.010896831 -0.093516305 -0.0011305995 1.311156e-38
0.012846927 -0.094215035 -0.0041611381 1.375763e-38
0.014803882 -0.094892681 -0.0071002431 1.7352877e-38
0.016819064 -0.09582752 -0.011154789 1.9377206e-38
0.019068956 -0.097899407 -0.020141024 1.8638185e-38
0.021120697 -0.098831654 -0.024184365 1.9095917e-38
0.023133386 -0.099509358 -0.027123708 1.5498127e-38
0.025162887 -0.10021709 -0.030193228 1.5404502e-38
0.027406458 -0.10183108 -0.037193436 1.1993991e-38
0.029300231 -0.10183108 -0.037193436 1.1440828e-38
0.031411696 -0.10273984 -0.041134972 1.0518509e-38
0.033312377 -0.10273984 -0.041134972 1.0975512e-38
0.035391245 -0.10343929 -0.04416861 1.3739576e-38
0.037474658 -0.1041155 -0.047101516 1.5396232e-38
0.039635677 -0.10504107 -0.051115889 1.4196249e-38
0.042004172 -0.10666345 -0.058152456 1.4748333e-38
0.044196073 -0.10758002 -0.062127847 1.437883e-38
0.046133567 -0.10758002 -0.062127847 1.3088095e-38
0.04807106 -0.10758002 -0.062127847 9.3084572e-39
-0.0038188295 -0.094646841 0.0018825345 1.8990458e-38
-0.0020697312 -0.093950883 0.0048782639 2.0188646e-38
-0.00024972577 -0.093950883 0.0048782639 2.0003552e-38
0.0015702816 -0.093950883 0.0048782639 2.2215558e-38
0.0033902889 -0.093950883 0.0048782639 1.9361099e-38
0.0052102944 -0.093950883 0.0048782639 1.7614409e-38
0.0070303036 -0.093950883 0.0048782639 1.4394022e-38
0.0089579849 -0.094646841 0.0018825345 1.3110103e-38
0.010783243 -0.094646841 0.0018825345 1.4035998e-38
0.012727371 -0.095346853 -0.0011305995 1.3577519e-38
0.014682784 -0.096050888 -0.0041611381 1.4774966e-38
0.016644895 -0.096733689 -0.0071002431 1.7814892e-38
0.018934272 -0.099063456 -0.017128605 1.937718e-38
0.020792864 -0.099063456 -0.017128605 2.0203701e-38
0.022991661 -0.10070263 -0.024184365 1.5960544e-38
0.025009502 -0.10138547 -0.027123708 1.4852407e-38
0.027251553 -0.10302909 -0.034198541 1.1070956e-38
0.029300231 -0.10372485 -0.037193436 1.1717052e-38
0.031411696 -0.10464053 -0.041134972 1.2176587e-38
0.033312377 -0.10464053 -0.041134972 1.2082213e-38
0.035213064 -0.10464053 -0.041134972 1.4016159e-38
0.037474658 -0.10602666 -0.047101516 1.5488782e-38
0.039635677 -0.10695927 -0.051115889 1.2905862e-38
0.041553859 -0.10695927 -0.051115889 1.3826009e-38
0.043934692 -0.10859399 -0.058152456 1.4010038e-38
0.046133567 -0.10951753 -0.062127847 1.2995535e-38
0.04807106 -0.10951753 -0.062127847 9.4921239e-39
-0.0020697312 -0.095770895 0.0048782639 1.7975215e-38
-0.00035658944 -0.094850481 0.0088105015 2.0279399e-38
0.0014565224 -0.094850481 0.0088105015 2.0095043e-38
0.0033902889 -0.095770895 0.0048782639 1.7978151e-38
0.0052102944 -0.095770895 0.0048782639 1.6876821e-38
0.0070303036 -0.095770895 0.0048782639 1.5868768e-38
0.0089579849 -0.096472099 0.0018825345 1.6428755e-38
0.010783243 -0.096472099 0.0018825345 1.7447564e-38
0.012727371 -0.097177386 -0.0011305995 1.6435555e-38
0.014682784 -0.097886756 -0.0041611381 1.6343351e-38
0.016644895 -0.098574698 -0.0071002431 1.6708894e-38
0.01866718 -0.099523753 -0.011154789 1.7351386e-38
0.020653687 -0.10022092 -0.014133234 1.7531826e-38
0.022796705 -0.10162716 -0.020141024 1.6606279e-38
0.025009502 -0.1032616 -0.027123708 1.8171811e-38
0.027251553 -0.1049176 -0.034198541 1.6511577e-38
0.029300231 -0.10561861 -0.037193436 1.7063674e-38
0.031194005 -0.10561861 -0.037193436 1.5864766e-38
0.033312377 -0.1065412 -0.041134972 1.6876381e-38
0.035213064 -0.1065412 -0.041134972 1.7612141e-38
0.037297253 -0.1072513 -0.04416861 1.8162449e-38
0.039385807 -0.1079378 -0.047101516 1.3182446e-38
0.041296948 -0.1079378 -0.047101516 1.3641615e-38
0.043208096 -0.1079378 -0.047101516 1.3917839e-38
0.045119237 -0.1079378 -0.047101516 1.3087728e-38
0.047030386 -0.1079378 -0.047101516 9.8605407e-39
-0.0022475338 -0.095941633 0.011871915 1.6498992e-38
-0.00043978821 -0.095941633 0.011871915 2.1847066e-38
0.0013679555 -0.095941633 0.011871915 1.9912429e-38
0.0032696342 -0.096663594 0.0088105015 1.8993e-38
0.0052102944 -0.097590908 0.0048782639 1.8075702e-38
0.0070303036 -0.097590908 0.0048782639 1.7435708e-38
0.0088503091 -0.097590908 0.0048782639 1.7718026e-38
0.010783243 -0.098297372 0.0018825345 1.7536859e-38
0.012727371 -0.099007934 -0.0011305995 1.6247913e-38
0.014682784 -0.099722609 -0.0041611381 1.6708528e-38
0.016644895 -0.10041572 -0.0071002431 1.6060647e-38
0.01866718 -0.10137187 -0.011154789 1.6610949e-38
0.020653687 -0.10207425 -0.014133234 1.660808e-38
0.022796705 -0.10349102 -0.020141024 1.7896667e-38
0.025009502 -0.10513772 -0.027123708 1.9554749e-38
0.027044386 -0.10586159 -0.030193228 1.8632792e-38
0.029140074 -0.10680611 -0.034198541 1.8632429e-38
0.031194005 -0.1075124 -0.037193436 1.6603401e-38
0.033087775 -0.1075124 -0.037193436 1.7983805e-38
0.034981545 -0.1075124 -0.037193436 1.8718489e-38
0.037113745 -0.1084419 -0.041134972 1.9268797e-38
0.039203253 -0.10915731 -0.04416861 1.3090249e-38
0.041296948 -0.10984896 -0.047101516 1.3088797e-38
0.043208096 -0.10984896 -0.047101516 1.3088077e-38
0.045119237 -0.10984896 -0.047101516 1.2349081e-38
-0.0023222426 -0.097051233 0.014810544 1.4285568e-38
-0.00051965099 -0.097051233 0.014810544 2.1570105e-38
0.0012829406 -0.097051233 0.014810544 2.2587882e-38
0.003175701 -0.097749382 0.011871915 2.2313817e-38
0.0050827479 -0.098476708 0.0088105015 2.0842627e-38
0.0068958579 -0.098476708 0.0088105015 1.9278162e-38
0.0088503091 -0.099410906 0.0048782639 1.8360143e-38
0.010670315 -0.099410906 0.0048782639 1.6887521e-38
0.012608505 -0.10012263 0.0018825345 1.6058837e-38
0.014682784 -0.10155846 -0.0041611381 1.7625089e-38
0.016518638 -0.10155846 -0.0041611381 1.7991725e-38
0.018485904 -0.10225673 -0.0071002431 2.075473e-38
0.020653687 -0.1039276 -0.014133234 2.1764941e-38
0.022796705 -0.10535492 -0.020141024 2.2040449e-38
0.025009502 -0.10701384 -0.027123708 1.8632795e-38
0.027044386 -0.10774307 -0.030193228 1.5499217e-38
0.029140074 -0.10869466 -0.034198541 1.6144938e-38
0.031194005 -0.10940616 -0.037193436 1.6051299e-38
0.033087775 -0.10940616 -0.037193436 1.6417554e-38
0.034981545 -0.10940616 -0.037193436 1.761322e-38
0.037113745 -0.11034258 -0.041134972 1.9361711e-38
0.039014425 -0.11034258 -0.041134972 1.3459032e-38
0.040915113 -0.11034258 -0.041134972 1.3733811e-38
0.042815793 -0.11034258 -0.041134972 1.3825644e-38
0.044716481 -0.11034258 -0.041134972 1.3086646e-38
-0.0023222426 -0.098853827 0.014810544 1.3546562e-38
-0.00051965099 -0.098853827 0.014810544 2.0279717e-38
0.0012829406 -0.098853827 0.014810544 2.2958803e-38
0.003175701 -0.099557132 0.011871915 2.1670943e-38
0.0050827479 -0.10028981 0.0088105015 2.1026999e-38
0.0068958579 -0.10028981 0.0088105015 2.0383055e-38
0.0087089716 -0.10028981 0.0088105015 1.9738752e-38
0.010522082 -0.10028981 0.0088105015 1.4853461e-38
0.012608505 -0.10194789 0.0018825345 1.5221169e-38
0.014557916 -0.10266902 -0.0011305995 1.6142775e-38
0.016518638 -0.10339431 -0.0041611381 1.8629916e-38
0.018485904 -0.10409774 -0.0071002431 2.2407794e-38
0.0205153 -0.1050681 -0.011154789 2.1303606e-38
0.022651456 -0.10649781 -0.017128605 2.0013583e-38
0.024862625 -0.10818647 -0.024184365 1.9370004e-38
0.027044386 -0.10962458 -0.030193228 1.5407739e-38
0.029140074 -0.11058317 -0.034198541 1.3289384e-38
0.031194005 -0.11129995 -0.037193436 1.5316601e-38
0.033087775 -0.11129995 -0.037193436 1.5496318e-38
0.034981545 -0.11129995 -0.037193436 1.7244801e-38
0.037113745 -0.11224325 -0.041134972 1.7611076e-38
0.039014425 -0.11224325 -0.041134972 1.2906938e-38
0.040915113 -0.11224325 -0.041134972 1.3181359e-38
0.042815793 -0.11224325 -0.041134972 1.4655407e-38
-0.0023222426 -0.10065642 0.014810544 1.3729875e-38
-0.00051965099 -0.10065642 0.014810544 1.7697874e-38
0.0012829406 -0.10065642 0.014810544 1.9825576e-38
0.0030855341 -0.10065642 0.014810544 2.1856756e-38
0.0049834428 -0.10136487 0.011871915 2.2407767e-38
0.0067911884 -0.10136487 0.011871915 2.0197572e-38
0.0087089716 -0.10210292 0.0088105015 1.8444412e-38
0.010522082 -0.10210292 0.0088105015 1.5124653e-38
0.012490324 -0.10305093 0.0048782639 1.6414321e-38
0.014557916 -0.10449956 -0.0011305995 1.7611439e-38
0.016388457 -0.10449956 -0.0011305995 1.816391e-38
0.018354494 -0.10523017 -0.0041611381 2.212905e-38
0.0205153 -0.10691623 -0.011154789 2.1023427e-38
0.022507027 -0.10763429 -0.014133234 1.8813608e-38
0.024660576 -0.10908265 -0.020141024 1.7526092e-38
0.027044386 -0.11150609 -0.030193228 1.4117716e-38
0.029140074 -0.11247168 -0.034198541 1.2738005e-38
0.031194005 -0.11319371 -0.037193436 1.5133646e-38
0.033087775 -0.11319371 -0.037193436 1.5958734e-38
0.034981545 -0.11319371 -0.037193436 1.7152968e-38
0.037113745 -0.11414395 -0.041134972 1.7242657e-38
0.039014425 -0.11414395 -0.041134972 1.3091693e-38
0.040915113 -0.11414395 -0.041134972 1.3734533e-38
0.042815793 -0.11414395 -0.041134972 1.4839442e-38
0.044450413 -0.11319371 -0.037193436 1.3270686e-38
0.046344187 -0.11319371 -0.037193436 9.4906876e-39
-0.0023991717 -0.10172421 0.017836433 1.3453289e-38
-0.00060188491 -0.10172421 0.017836433 1.4747614e-38
0.0012829406 -0.10245901 0.014810544 1.6967861e-38
0.0030855341 -0.10245901 0.014810544 2.139756e-38
0.0049834428 -0.10317262 0.011871915 2.2407756e-38
0.0067911884 -0.10317262 0.011871915 1.9365649e-38
0.0085989339 -0.10317262 0.011871915 1.8350058e-38
0.010406679 -0.10317262 0.011871915 1.7702895e-38
0.012490324 -0.10487093 0.0048782639 1.8807454e-38
0.014433763 -0.10559841 0.0018825345 1.8253935e-38
0.016388457 -0.10633011 -0.0011305995 1.9082992e-38
0.018354494 -0.10706602 -0.0041611381 2.2955937e-38
0.0205153 -0.10876434 -0.011154789 2.0930871e-38
0.022507027 -0.10948761 -0.014133234 1.7338477e-38
0.024510048 -0.11021499 -0.017128605 1.5589984e-38
0.026885618 -0.11264218 -0.027123708 1.3104643e-38
0.029140074 -0.1143602 -0.034198541 1.3107506e-38
0.031028595 -0.1143602 -0.034198541 1.5595343e-38
0.033087775 -0.11508749 -0.037193436 1.7157997e-38
0.034981545 -0.11508749 -0.037193436 1.6693788e-38
0.036875319 -0.11508749 -0.037193436 1.5860801e-38
0.039014425 -0.11604463 -0.041134972 1.2262295e-38
0.040662866 -0.11508749 -0.037193436 1.3089886e-38
0.04255664 -0.11508749 -0.037193436 1.4102596e-38
0.044450413 -0.11508749 -0.037193436 1.25342e-38
0.046344187 -0.11508749 -0.037193436 9.398492e-39
-0.0023991717 -0.10352151 0.017836433 1.3544769e-38
-0.00060188491 -0.10352151 0.017836433 1.2903704e-38
0.0012829406 -0.10426159 0.014810544 1.3741367e-38
0.0030855341 -0.10426159 0.014810544 1.8446933e-38
0.0048881238 -0.10426159 0.014810544 1.890539e-38
0.0066907173 -0.10426159 0.014810544 1.6783809e-38
0.0085989339 -0.10498036 0.011871915 1.853301e-38
0.010406679 -0.10498036 0.011871915 1.991451e-38
0.012335195 -0.10572915 0.0088105015 1.9359908e-38
0.014433763 -0.10742365 0.0018825345 1.6685527e-38
0.016259022 -0.10742365 0.0018825345 1.5303683e-38
0.018354494 -0.10890187 -0.0041611381 1.8900759e-38
0.0205153 -0.11061247 -0.011154789 1.7151562e-38
0.022507027 -0.11134095 -0.014133234 1.4112341e-38
0.024510048 -0.11207359 -0.017128605 1.3562756e-38
0.026885618 -0.1145183 -0.027123708 1.365782e-38
0.029140074 -0.11624874 -0.034198541 1.5319848e-38
0.031028595 -0.11624874 -0.034198541 1.7899881e-38
0.032917116 -0.11624874 -0.034198541 1.8818237e-38
0.034805637 -0.11624874 -0.034198541 1.6602671e-38
0.036875319 -0.11698125 -0.037193436 1.4570423e-38
0.039014425 -0.11794533 -0.041134972 1.0880795e-38
0.040662866 -0.11698125 -0.037193436 1.2076453e-38
0.04255664 -0.11698125 -0.037193436 1.2904772e-38
0.044450413 -0.11698125 -0.037193436 1.1796635e-38
-0.0023222426 -0.10606419 0.014810544 1.317563e-38
-0.00051965099 -0.10606419 0.014810544 1.2533847e-38
0.0012829406 -0.10606419 0.014810544 1.1435037e-38
0.0030855341 -0.10606419 0.014810544 1.6784893e-38
0.0048881238 -0.10606419 0.014810544 1.7152954e-38
0.0066907173 -0.10606419 0.014810544 1.6598338e-38
0.0084933108 -0.10606419 0.014810544 1.8440812e-38
0.010406679 -0.10678811 0.011871915 1.9362052e-38
0.012214421 -0.10678811 0.011871915 1.7794372e-38
0.014310329 -0.10851096 0.0048782639 1.5490926e-38
0.016259022 -0.10924892 0.0018825345 1.3371514e-38
0.018354494 -0.11073773 -0.0041611381 1.6599445e-38
0.0205153 -0.11246057 -0.011154789 1.5311589e-38
0.022651456 -0.11393218 -0.017128605 1.3837901e-38
0.024660576 -0.11467429 -0.020141024 1.4670175e-38
0.026885618 -0.11639442 -0.027123708 1.5962353e-38
0.029140074 -0.11813726 -0.034198541 1.7806983e-38
0.031028595 -0.11813726 -0.034198541 1.9097712e-38
0.032917116 -0.11813726 -0.034198541 1.9187743e-38
0.034805637 -0.11813726 -0.034198541 1.6234965e-38
0.036875319 -0.11887501 -0.037193436 1.3742457e-38
0.039014425 -0.119846 -0.041134972 1.0420533e-38
0.040915113 -0.119846 -0.041134972 1.1524356e-38
0.043015253 -0.12059332 -0.04416861 1.22594e-38
0.04492126 -0.12059332 -0.04416861 1.0967592e-38
0.04682726 -0.12059332 -0.04416861 8.8460357e-39
-0.0023991717 -0.10711606 0.017836433 9.9487861e-39
-0.00060188491 -0.10711606 0.017836433 7.7396783e-39
0.0011954019 -0.10711606 0.017836433 9.2205467e-39
0.0029926887 -0.10711606 0.017836433 1.6230282e-38
0.0048881238 -0.10786678 0.014810544 1.7981276e-38
0.0066907173 -0.10786678 0.014810544 1.7704326e-38
0.0084933108 -0.10786678 0.014810544 1.6966761e-38
0.010406679 -0.10859586 0.011871915 1.5952606e-38
0.012214421 -0.10859586 0.011871915 1.4755502e-38
0.014148309 -0.10935538 0.0088105015 1.5586344e-38
0.016259022 -0.11107419 0.0018825345 1.4943499e-38
0.018354494 -0.11257361 -0.0041611381 1.752606e-38
0.020653687 -0.11504765 -0.014133234 1.6698464e-38
0.022651456 -0.11579077 -0.017128605 1.6422241e-38
0.024660576 -0.11653815 -0.020141024 1.789774e-38
0.026885618 -0.11827053 -0.027123708 1.8819342e-38
0.029140074 -0.12002577 -0.034198541 1.9279967e-38
0.031028595 -0.12002577 -0.034198541 1.8819339e-38
0.032917116 -0.12002577 -0.034198541 1.7712613e-38
0.034805637 -0.12002577 -0.034198541 1.4945658e-38
0.036875319 -0.1207688 -0.037193436 1.3282193e-38
0.039014425 -0.12174667 -0.041134972 1.0329415e-38
0.040915113 -0.12174667 -0.041134972 1.1616546e-38
0.043015253 -0.1224993 -0.04416861 1.1799498e-38
-0.0023991717 -0.10891335 0.017836433 1.1147329e-38
-0.00060188491 -0.10891335 0.017836433 7.4620152e-39
0.0011954019 -0.10891335 0.017836433 7.1908079e-39
0.0029926887 -0.10891335 0.017836433 1.512214e-38
0.0048881238 -0.10966937 0.014810544 1.7426307e-38
0.0066907173 -0.10966937 0.014810544 1.7150796e-38
0.0084933108 -0.10966937 0.014810544 1.5307955e-38
0.010406679 -0.11040358 0.011871915 1.3373641e-38
0.012214421 -0.11040358 0.011871915 1.2454196e-38
0.014148309 -0.11116849 0.0088105015 1.485344e-38
0.016259022 -0.11289944 0.0018825345 1.3749611e-38
0.018219002 -0.11365227 -0.0011305995 1.5410937e-38
0.0205153 -0.1161568 -0.011154789 1.5319108e-38
0.022651456 -0.11764936 -0.017128605 1.614852e-38
0.024660576 -0.11840202 -0.020141024 1.81754e-38
0.026885618 -0.12014665 -0.027123708 1.9187408e-38
0.029140074 -0.12191428 -0.034198541 1.9370732e-38
0.031028595 -0.12191428 -0.034198541 1.8264736e-38
0.032917116 -0.12191428 -0.034198541 1.6145287e-38
0.034805637 -0.12191428 -0.034198541 1.4116615e-38
0.036875319 -0.12266256 -0.037193436 1.3099234e-38
0.039014425 -0.12364738 -0.041134972 1.0422324e-38
0.040915113 -0.12364738 -0.041134972 1.1802013e-38
0.043015253 -0.12440531 -0.04416861 1.226083e-38
-0.00060188491 -0.11071064 0.017836433 8.8453014e-39
0.0011954019 -0.11071064 0.017836433 8.1113251e-39
0.0029926887 -0.11071064 0.017836433 1.5489847e-38
0.0048881238 -0.11147197 0.014810544 1.6690182e-38
0.0066907173 -0.11147197 0.014810544 1.6968563e-38
0.0084933108 -0.11147197 0.014810544 1.5864729e-38
0.010406679 -0.11221133 0.011871915 1.4391394e-38
0.012214421 -0.11221133 0.011871915 1.3101741e-38
0.014148309 -0.1129816 0.0088105015 1.5408783e-38
0.016259022 -0.11472471 0.0018825345 1.4488257e-38
0.018219002 -0.11548282 -0.0011305995 1.5411656e-38
0.0205153 -0.11800493 -0.011154789 1.4582269e-38
0.022507027 -0.11875431 -0.014133234 1.5134738e-38
0.024510048 -0.11950795 -0.017128605 1.6792836e-38
0.026733585 -0.12128322 -0.024184365 1.7436058e-38
0.028925885 -0.12279506 -0.030193228 1.7802333e-38
0.031028595 -0.12380283 -0.034198541 1.6696332e-38
0.032917116 -0.12380283 -0.034198541 1.6053094e-38
0.034805637 -0.12380283 -0.034198541 1.4392844e-38
0.036875319 -0.12455635 -0.037193436 1.3560212e-38
0.039014425 -0.12554805 -0.041134972 1.0883299e-38
0.040915113 -0.12554805 -0.041134972 1.2355187e-38
0.043208096 -0.12704925 -0.047101516 1.3182431e-38
0.045119237 -0.12704925 -0.047101516 1.2259047e-38
-0.00060188491 -0.11250792 0.017836433 9.1218687e-39
0.0011954019 -0.11250792 0.017836433 8.1102433e-39
0.0030855341 -0.11327456 0.014810544 1.4291306e-38
0.0048881238 -0.11327456 0.014810544 1.494206e-38
0.0066907173 -0.11327456 0.014810544 1.6881762e-38
0.0084933108 -0.11327456 0.014810544 1.4302445e-38
0.010406679 -0.11401908 0.011871915 1.513222e-38
0.012214421 -0.11401908 0.011871915 1.6236432e-38
0.014310329 -0.11579098 0.0048782639 1.494569e-38
0.016259022 -0.11654995 0.0018825345 1.4301731e-38
0.018354494 -0.11808117 -0.0041611381 1.6054164e-38
0.0205153 -0.11985306 -0.011154789 1.494892e-38
0.022507027 -0.12060766 -0.014133234 1.6609179e-38
0.024510048 -0.12136655 -0.017128605 1.7254554e-38
0.026733585 -0.12315418 -0.024184365 1.8635692e-38
0.028925885 -0.12467657 -0.030193228 1.835658e-38
0.031028595 -0.12569134 -0.034198541 1.7987426e-38
0.032917116 -0.12569134 -0.034198541 1.6421525e-38
0.034805637 -0.12569134 -0.034198541 1.4023351e-38
0.036875319 -0.12645011 -0.037193436 1.3466941e-38
0.039014425 -0.12744872 -0.041134972 1.1712344e-38
0.041296948 -0.12896039 -0.047101516 1.1064091e-38
0.043208096 -0.12896039 -0.047101516 1.5210383e-38
-0.00060188491 -0.11430521 0.017836433 9.2136957e-39
0.0011954019 -0.11430521 0.017836433 8.0169686e-39
0.0030855341 -0.11507715 0.014810544 1.5120351e-38
0.0048881238 -0.11507715 0.014810544 1.4759109e-38
0.0066907173 -0.11507715 0.014810544 1.5593184e-38
0.0084933108 -0.11507715 0.014810544 1.4766309e-38
0.010406679 -0.11582683 0.011871915 1.8637823e-38
0.012335195 -0.11660783 0.0088105015 1.8633181e-38
0.014310329 -0.11761098 0.0048782639 1.439074e-38
0.016259022 -0.11837523 0.0018825345 1.4760562e-38
0.018354494 -0.11991702 -0.0041611381 1.6698467e-38
0.0205153 -0.12170117 -0.011154789 1.6607737e-38
0.022507027 -0.12246101 -0.014133234 1.8544938e-38
0.024510048 -0.12322514 -0.017128605 1.771518e-38
0.026733585 -0.12502514 -0.024184365 1.7529344e-38
0.028925885 -0.12655805 -0.030193228 1.8540248e-38
0.031028595 -0.12757985 -0.034198541 2.0106483e-38
0.032917116 -0.12757985 -0.034198541 1.8632425e-38
0.034805637 -0.12757985 -0.034198541 1.4852036e-38
0.036875319 -0.1283439 -0.037193436 1.3374026e-38
0.039203253 -0.13012333 -0.04416861 1.1435037e-38
0.041109253 -0.13012333 -0.04416861 1.1339962e-38
0.043208096 -0.13087155 -0.047101516 1.4288432e-38
0.045119237 -0.13087155 -0.047101516 1.2073233e-38
-0.00051965099 -0.11687975 0.014810544 9.397015e-39
0.0012829406 -0.11687975 0.014810544 8.3839561e-39
0.0030855341 -0.11687975 0.014810544 1.5395141e-38
0.0048881238 -0.11687975 0.014810544 1.4664762e-38
0.0066907173 -0.11687975 0.014810544 1.4946024e-38
0.0084933108 -0.11687975 0.014810544 1.5409883e-38
0.010406679 -0.11763458 0.011871915 2.0571063e-38
0.012335195 -0.11842094 0.0088105015 1.9923919e-38
0.014310329 -0.11943097 0.0048782639 1.5128305e-38
0.016259022 -0.12020047 0.0018825345 1.4207391e-38
0.018485904 -0.12250783 -0.0071002431 1.5684315e-38
0.020326912 -0.12250783 -0.0071002431 1.6883605e-38
0.022507027 -0.12431435 -0.014133234 1.9926431e-38
0.024510048 -0.12508373 -0.017128605 1.8727887e-38
0.026733585 -0.1268961 -0.024184365 1.7066923e-38
0.028925885 -0.12843956 -0.030193228 1.7893435e-38
0.031028595 -0.1294684 -0.034198541 1.9552226e-38
0.032917116 -0.1294684 -0.034198541 2.0106469e-38
0.034805637 -0.1294684 -0.034198541 1.5496324e-38
0.036875319 -0.13023765 -0.037193436 1.3557694e-38
0.039203253 -0.13202934 -0.04416861 1.0973337e-38
0.041109253 -0.13202934 -0.04416861 1.1984255e-38
0.043208096 -0.13278268 -0.047101516 1.3641984e-38
0.045119237 -0.13278268 -0.047101516 1.1981037e-38
-0.00051965099 -0.11868234 0.014810544 9.9483979e-39
0.0012829406 -0.11868234 0.014810544 9.2119231e-39
0.0030855341 -0.11868234 0.014810544 1.5208595e-38
0.0048881238 -0.11868234 0.014810544 1.4662252e-38
0.0066907173 -0.11868234 0.014810544 1.540593e-38
0.0085989339 -0.11944233 0.011871915 1.5869786e-38
0.010406679 -0.11944233 0.011871915 1.9927131e-38
0.012335195 -0.12023406 0.0088105015 2.0200509e-38
0.014310329 -0.121251 0.0048782639 1.8816133e-38
0.016259022 -0.12202574 0.0018825345 1.9831687e-38
0.018354494 -0.12358873 -0.0041611381 1.8265435e-38
0.020326912 -0.12434883 -0.0071002431 1.6790686e-38
0.022363417 -0.1253974 -0.011154789 1.7805211e-38
0.024510048 -0.12694232 -0.017128605 1.7712289e-38
0.026885618 -0.12952723 -0.027123708 1.7526093e-38
0.028925885 -0.13032107 -0.030193228 1.9366758e-38
0.031028595 -0.13135691 -0.034198541 2.0103955e-38
0.032917116 -0.13135691 -0.034198541 1.8629896e-38
0.034981545 -0.13213144 -0.037193436 1.5402327e-38
0.037113745 -0.13315077 -0.041134972 1.4017591e-38
0.039203253 -0.13393532 -0.04416861 1.1064094e-38
0.041109253 -0.13393532 -0.04416861 1.253671e-38
0.043208096 -0.13469382 -0.047101516 1.3456875e-38
0.045119237 -0.13469382 -0.047101516 1.234946e-38
-0.051751625 -0.10900976 0.058883112 2.350952e-38
-0.050026305 -0.10900976 0.058883112 2.3415884e-38
-0.048361093 -0.10978593 0.055902105 2.3509866e-38
-0.04663055 -0.10978593 0.055902105 2.3509866e-38
-0.044933811 -0.11031438 0.053872447 2.3141452e-38
-0.043199711 -0.11031438 0.053872447 2.0007522e-38
-0.041505206 -0.11109848 0.050860923 1.3831491e-38
-0.039800353 -0.11188738 0.04783104 1.3924036e-38
-0.00051965099 -0.12048493 0.014810544 1.0223914e-38
0.0012829406 -0.12048493 0.014810544 1.0039889e-38
0.0030855341 -0.12048493 0.014810544 1.5206444e-38
0.0048881238 -0.12048493 0.014810544 1.5029243e-38
0.0066907173 -0.12048493 0.014810544 1.6233897e-38
0.0085989339 -0.12125005 0.011871915 1.6514803e-38
0.010522082 -0.12204717 0.0088105015 1.9650544e-38
0.012335195 -0.12204717 0.0088105015 1.9647695e-38
0.014310329 -0.123071 0.0048782639 2.0384179e-38
0.016259022 -0.12385099 0.0018825345 2.1489418e-38
0.018219002 -0.12463553 -0.0011305995 1.9187391e-38
0.0205153 -0.12724553 -0.011154789 1.688288e-38
0.022363417 -0.12724553 -0.011154789 1.6790689e-38
0.024510048 -0.12880091 -0.017128605 1.7159107e-38
0.026885618 -0.13140334 -0.027123708 1.7525003e-38
0.028925885 -0.13220255 -0.030193228 1.8167124e-38
0.031028595 -0.13324542 -0.034198541 1.6045541e-38
0.033087775 -0.1340252 -0.037193436 1.5400885e-38
0.034981545 -0.1340252 -0.037193436 1.4940263e-38
0.037113745 -0.13505147 -0.041134972 1.4477127e-38
0.039203253 -0.13584132 -0.04416861 1.1247763e-38
0.041109253 -0.13584132 -0.04416861 1.2720381e-38
0.043015253 -0.13584132 -0.04416861 1.3271765e-38
0.04492126 -0.13584132 -0.04416861 1.2072517e-38
-0.055121735 -0.1099584 0.061846178 2.350987e-38
-0.053401612 -0.1099584 0.061846178 2.3141455e-38
-0.051751625 -0.11073507 0.058883112 2.304891e-38
-0.050026305 -0.11073507 0.058883112 2.3233302e-38
-0.048361093 -0.11151646 0.055902105 2.350952e-38
-0.04663055 -0.11151646 0.055902105 2.3418043e-38
-0.044900008 -0.11151646 0.055902105 2.3234379e-38
-0.043169461 -0.11151646 0.055902105 2.3142544e-38
-0.041438915 -0.11151646 0.055902105 2.2683362e-38
-0.039731503 -0.11204849 0.053872447 1.9180277e-38
-0.00060188491 -0.12149437 0.017836433 1.0499072e-38
0.0011954019 -0.12149437 0.017836433 1.0406876e-38
0.0030855341 -0.12228753 0.014810544 1.5206084e-38
0.0048881238 -0.12228753 0.014810544 1.4843775e-38
0.0067911884 -0.1230578 0.011871915 1.5496338e-38
0.0087089716 -0.12386028 0.0088105015 1.6330411e-38
0.010522082 -0.12386028 0.0088105015 1.909845e-38
0.012490324 -0.124891 0.0048782639 1.6790707e-38
0.014310329 -0.124891 0.0048782639 1.6420483e-38
0.016259022 -0.12567626 0.0018825345 1.5960194e-38
0.018219002 -0.12646608 -0.0011305995 1.5408089e-38
0.020326912 -0.12803085 -0.0071002431 1.5593576e-38
0.022363417 -0.12909363 -0.011154789 1.6054199e-38
0.024660576 -0.13144915 -0.020141024 1.6882506e-38
0.026733585 -0.13250901 -0.024184365 1.6418643e-38
0.028925885 -0.13408406 -0.030193228 1.5493081e-38
0.031028595 -0.13513394 -0.034198541 1.0789302e-38
0.033087775 -0.13591899 -0.037193436 1.2818323e-38
0.034981545 -0.13591899 -0.037193436 1.4661514e-38
0.037113745 -0.13695215 -0.041134972 1.4474968e-38
0.039203253 -0.13774733 -0.04416861 1.1707302e-38
0.041109253 -0.13774733 -0.04416861 1.2350882e-38
0.043015253 -0.13774733 -0.04416861 1.3086298e-38
0.046133567 -0.14245488 -0.062127847 1.1518267e-38
-0.056841858 -0.1116785 0.061846178 2.3509511e-38
-0.055121735 -0.1116785 0.061846178 2.3509879e-38
-0.053401612 -0.1116785 0.061846178 2.3234379e-38
-0.051681489 -0.1116785 0.061846178 2.341805e-38
-0.049961366 -0.1116785 0.061846178 2.3417691e-38
-0.048300989 -0.11246039 0.058883112 2.3509527e-38
-0.046575669 -0.11246039 0.058883112 2.2864883e-38
-0.044850349 -0.11246039 0.058883112 2.2773408e-38
-0.043125033 -0.11246039 0.058883112 2.3142544e-38
-0.041399717 -0.11246039 0.058883112 2.2958873e-38
-0.039731503 -0.1137826 0.053872447 2.1300425e-38
-0.0023991717 -0.12329166 0.017836433 1.0498706e-38
-0.00060188491 -0.12329166 0.017836433 1.0406159e-38
0.0011954019 -0.12329166 0.017836433 1.0407232e-38
0.0030855341 -0.12409012 0.014810544 1.4928771e-38
0.0049834428 -0.12486555 0.011871915 1.4107289e-38
0.0067911884 -0.12486555 0.011871915 1.5035002e-38
0.0087089716 -0.1256734 0.0088105015 1.6239295e-38
0.010522082 -0.1256734 0.0088105015 1.8638187e-38
0.012335195 -0.1256734 0.0088105015 1.4578728e-38
0.014310329 -0.126711 0.0048782639 1.3379822e-38
0.016130336 -0.126711 0.0048782639 1.4486502e-38
0.018354494 -0.12909628 -0.0041611381 1.3288309e-38
0.020326912 -0.12987186 -0.0071002431 1.3197206e-38
0.022507027 -0.13172771 -0.014133234 1.3381595e-38
0.024660576 -0.13331302 -0.020141024 1.4855267e-38
0.026733585 -0.13437997 -0.024184365 1.5590303e-38
0.028925885 -0.13596557 -0.030193228 1.632283e-38
0.031028595 -0.13702248 -0.034198541 1.1987115e-38
0.033087775 -0.13781275 -0.037193436 1.2263705e-38
0.034981545 -0.13781275 -0.037193436 1.4843744e-38
0.037297253 -0.13965334 -0.04416861 1.38278e-38
0.039203253 -0.13965334 -0.04416861 1.2443072e-38
0.041296948 -0.14042725 -0.047101516 1.2441283e-38
0.043208096 -0.14042725 -0.047101516 1.2901553e-38
0.046133567 -0.14439236 -0.062127847 1.1241684e-38
-0.058468703 -0.1125911 0.064886197 2.3509863e-38
-0.056753911 -0.1125911 0.064886197 2.3049248e-38
-0.055039115 -0.1125911 0.064886197 2.3418043e-38
-0.053401612 -0.11339863 0.061846178 2.3234379e-38
-0.051681489 -0.11339863 0.061846178 2.3325856e-38
-0.049961366 -0.11339863 0.061846178 2.295672e-38
-0.048241243 -0.11339863 0.061846178 2.3233303e-38
-0.046575669 -0.11418571 0.058883112 2.3417691e-38
-0.044850349 -0.11418571 0.058883112 2.323402e-38
-0.043080874 -0.11339863 0.061846178 2.2865961e-38
-0.041360751 -0.11339863 0.061846178 2.2406066e-38
-0.039640628 -0.11339863 0.061846178 2.3142544e-38
-0.0041248361 -0.12589271 0.014810544 1.1237681e-38
-0.0023991717 -0.12508895 0.017836433 1.0221403e-38
-0.00060188491 -0.12508895 0.017836433 1.0129575e-38
0.0011954019 -0.12508895 0.017836433 1.0591618e-38
0.0030855341 -0.12589271 0.014810544 1.4100085e-38
0.0049834428 -0.1266733 0.011871915 1.3831421e-38
0.0067911884 -0.1266733 0.011871915 1.5957677e-38
0.0087089716 -0.12748651 0.0088105015 1.753075e-38
0.010522082 -0.12748651 0.0088105015 1.9192077e-38
0.012335195 -0.12748651 0.0088105015 1.4948944e-38
0.014310329 -0.12853102 0.0048782639 1.5132256e-38
0.016130336 -0.12853102 0.0048782639 1.4303189e-38
0.018354494 -0.13093217 -0.0041611381 1.1906813e-38
0.020653687 -0.13358103 -0.014133234 1.1446565e-38
0.022507027 -0.13358103 -0.014133234 1.1907539e-38
0.024660576 -0.13517688 -0.020141024 1.411877e-38
0.026733585 -0.13625093 -0.024184365 1.4946362e-38
0.028761737 -0.13703169 -0.027123708 1.6231703e-38
0.030807383 -0.13784705 -0.030193228 1.1895274e-38
0.033087775 -0.13970654 -0.037193436 1.2723599e-38
0.034981545 -0.13970654 -0.037193436 1.5026697e-38
0.037297253 -0.14155935 -0.04416861 1.3273187e-38
0.039203253 -0.14155935 -0.04416861 1.2811139e-38
0.041296948 -0.14233841 -0.047101516 1.2533124e-38
0.04347204 -0.14340474 -0.051115889 1.3085949e-38
0.045390222 -0.14340474 -0.051115889 1.124241e-38
-0.063507877 -0.11352326 0.067813262 2.3234004e-38
-0.061798211 -0.11352326 0.067813262 2.350987e-38
-0.060088553 -0.11352326 0.067813262 2.3509863e-38
-0.05837889 -0.11352326 0.067813262 2.3509859e-38
-0.056753911 -0.1143059 0.064886197 2.3418025e-38
-0.055039115 -0.1143059 0.064886197 2.3418038e-38
-0.053401612 -0.11511876 0.061846178 2.3418045e-38
-0.051681489 -0.11511876 0.061846178 2.3049626e-38
-0.049961366 -0.11511876 0.061846178 2.3232944e-38
-0.048241243 -0.11511876 0.061846178 2.3509168e-38
-0.04652112 -0.11511876 0.061846178 2.3509168e-38
-0.044850349 -0.11591102 0.058883112 2.2864167e-38
-0.043080874 -0.11511876 0.061846178 2.3141826e-38
-0.041360751 -0.11511876 0.061846178 2.3234379e-38
-0.039640628 -0.11511876 0.061846178 2.277376e-38
-0.0041248361 -0.12769531 0.014810544 1.0683787e-38
-0.0023991717 -0.12688623 0.017836433 1.0958971e-38
-0.00060188491 -0.12688623 0.017836433 1.022177e-38
0.0011954019 -0.12688623 0.017836433 1.0040594e-38
0.0030855341 -0.12769531 0.014810544 1.4010038e-38
0.0049834428 -0.12848105 0.011871915 1.309493e-38
0.0067911884 -0.12848105 0.011871915 1.6604843e-38
0.0087089716 -0.1292996 0.0088105015 1.6517674e-38
0.010522082 -0.1292996 0.0088105015 1.5874112e-38
0.012335195 -0.1292996 0.0088105015 1.7531135e-38
0.014310329 -0.13035102 0.0048782639 1.5409919e-38
0.016130336 -0.13035102 0.0048782639 1.4580138e-38
0.018354494 -0.13276802 -0.0041611381 1.2000091e-38
0.020326912 -0.13355388 -0.0071002431 1.1446925e-38
0.022507027 -0.13543437 -0.014133234 1.2738372e-38
0.024510048 -0.13623528 -0.017128605 1.2369203e-38
0.026733585 -0.13812189 -0.024184365 1.4117669e-38
0.028761737 -0.13890781 -0.027123708 1.5127147e-38
0.030807383 -0.13972856 -0.030193228 1.2172934e-38
0.032917116 -0.14079951 -0.034198541 1.1801999e-38
0.034805637 -0.14079951 -0.034198541 1.3550487e-38
0.037297253 -0.14346536 -0.04416861 1.3917839e-38
0.039203253 -0.14346536 -0.04416861 1.3732021e-38
0.041296948 -0.14424954 -0.047101516 1.2532411e-38
0.04347204 -0.14532293 -0.051115889 1.1979249e-38
0.045390222 -0.14532293 -0.051115889 1.2348406e-38
0.047308404 -0.14532293 -0.051115889 1.0689615e-38
-0.065217532 -0.11523293 0.067813262 2.3418045e-38
-0.063507877 -0.11523293 0.067813262 2.3234372e-38
-0.061727554 -0.1146767 0.069879934 2.3234364e-38
-0.060021516 -0.1146767 0.069879934 2.3234354e-38
-0.058315478 -0.1146767 0.069879934 2.2498934e-38
-0.056669228 -0.11523293 0.067813262 2.3050676e-38
-0.054959569 -0.11523293 0.067813262 2.3326196e-38
-0.05324991 -0.11523293 0.067813262 2.3509873e-38
-0.051540248 -0.11523293 0.067813262 2.3233648e-38
-0.049830586 -0.11523293 0.067813262 2.3417327e-38
-0.048179947 -0.11602069 0.064886197 2.3509168e-38
-0.04652112 -0.11683889 0.061846178 2.3508809e-38
-0.044800997 -0.11683889 0.061846178 2.3509168e-38
-0.043080874 -0.11683889 0.061846178 2.3417691e-38
-0.041320775 -0.11602069 0.064886197 2.341805e-38
-0.039605983 -0.11602069 0.064886197 2.3509883e-38
-0.0024756519 -0.12787388 0.020844679 1.1419949e-38
-0.00068363827 -0.12787388 0.020844679 1.0406878e-38
0.0011954019 -0.12868352 0.017836433 1.0318254e-38
0.0029926887 -0.12868352 0.017836433 1.4288055e-38
0.0048881238 -0.1294979 0.014810544 1.3095648e-38
0.0067911884 -0.13028879 0.011871915 1.5314104e-38
0.0087089716 -0.13111271 0.0088105015 1.6241087e-38
0.010522082 -0.13111271 0.0088105015 1.6519479e-38
0.012490324 -0.13217102 0.0048782639 1.5595383e-38
0.014433763 -0.13297729 0.0018825345 1.1906486e-38
0.016259022 -0.13297729 0.0018825345 1.2827708e-38
0.018485904 -0.13539489 -0.0071002431 1.1076704e-38
0.020326912 -0.13539489 -0.0071002431 1.1539124e-38
0.022507027 -0.13728772 -0.014133234 1.2922763e-38
0.024510048 -0.13809387 -0.017128605 1.1816026e-38
0.026733585 -0.13999285 -0.024184365 1.2182637e-38
0.028604548 -0.13999285 -0.024184365 1.3746011e-38
0.030637853 -0.14078392 -0.027123708 1.3187805e-38
0.032513969 -0.14078392 -0.027123708 1.3460441e-38
0.034570377 -0.14161004 -0.030193228 1.4195497e-38
0.037297253 -0.14537133 -0.04416861 1.3364668e-38
0.039385807 -0.14616071 -0.047101516 1.345508e-38
0.041553859 -0.1472411 -0.051115889 1.3546211e-38
0.04347204 -0.1472411 -0.051115889 1.3546225e-38
0.045390222 -0.1472411 -0.051115889 1.2901946e-38
-0.066927195 -0.11694257 0.067813262 2.3234379e-38
-0.065217532 -0.11694257 0.067813262 2.3234374e-38
-0.063507877 -0.11694257 0.067813262 2.222201e-38
-0.061727554 -0.11638273 0.069879934 2.2314554e-38
-0.060021516 -0.11638273 0.069879934 2.1762088e-38
-0.058315478 -0.11638273 0.069879934 2.13933e-38
-0.056669228 -0.11694257 0.067813262 2.2683324e-38
-0.054959569 -0.11694257 0.067813262 2.2866285e-38
-0.05324991 -0.11694257 0.067813262 2.3326189e-38
-0.051540248 -0.11694257 0.067813262 2.3509863e-38
-0.049830586 -0.11694257 0.067813262 2.3509513e-38
-0.048120927 -0.11694257 0.067813262 2.3508451e-38
-0.04652112 -0.11855899 0.061846178 2.3416256e-38
-0.044800997 -0.11855899 0.061846178 2.3508809e-38
-0.043035567 -0.11773549 0.064886197 2.3509527e-38
-0.041320775 -0.11773549 0.064886197 2.2864516e-38
-0.039605983 -0.11773549 0.064886197 2.3509879e-38
-0.0024756519 -0.1296659 0.020844679 1.0867491e-38
-0.00068363827 -0.1296659 0.020844679 9.4859989e-39
0.0011083735 -0.1296659 0.020844679 9.2129769e-39
0.0029926887 -0.13048081 0.017836433 1.3643759e-38
0.0048881238 -0.13130049 0.014810544 1.3372951e-38
0.0067911884 -0.13209651 0.011871915 1.3746779e-38
0.0087089716 -0.13292582 0.0088105015 1.3567414e-38
0.010522082 -0.13292582 0.0088105015 1.4120953e-38
0.012490324 -0.13399105 0.0048782639 1.4210653e-38
0.014433763 -0.13480256 0.0018825345 1.4670559e-38
0.016259022 -0.13480256 0.0018825345 1.6144601e-38
0.01866718 -0.13833423 -0.011154789 1.2734077e-38
0.0205153 -0.13833423 -0.011154789 1.1445858e-38
0.022507027 -0.13914107 -0.014133234 1.1631671e-38
0.024510048 -0.13995247 -0.017128605 1.1539442e-38
0.026733585 -0.14186381 -0.024184365 1.1629826e-38
0.028604548 -0.14186381 -0.024184365 1.2640029e-38
0.030475512 -0.14186381 -0.024184365 1.2635357e-38
0.032513969 -0.14266007 -0.027123708 1.2814718e-38
0.034390088 -0.14266007 -0.027123708 1.3734165e-38
0.037297253 -0.14727734 -0.04416861 1.3733098e-38
0.039635677 -0.1491593 -0.051115889 1.4561076e-38
0.04175159 -0.1499963 -0.054205675 1.373061e-38
0.043675195 -0.1499963 -0.054205675 1.1426094e-38
-0.06875746 -0.11945029 0.064886197 2.3234379e-38
-0.066927195 -0.11865224 0.067813262 2.3234376e-38
-0.065217532 -0.11865224 0.067813262 2.2406398e-38
-0.063507877 -0.11865224 0.067813262 1.8904749e-38
-0.061798211 -0.11865224 0.067813262 1.8536317e-38
-0.060088553 -0.11865224 0.067813262 1.9181682e-38
-0.05837889 -0.11865224 0.067813262 1.9827052e-38
-0.056669228 -0.11865224 0.067813262 2.1485496e-38
-0.054959569 -0.11865224 0.067813262 2.2590407e-38
-0.053197369 -0.11808877 0.069879934 2.305031e-38
-0.051491328 -0.11808877 0.069879934 2.3509851e-38
-0.049785294 -0.11808877 0.069879934 2.3509863e-38
-0.048079256 -0.11808877 0.069879934 2.3508451e-38
-0.046465151 -0.11945029 0.064886197 2.3324421e-38
-0.044750363 -0.11945029 0.064886197 2.3416615e-38
-0.043035567 -0.11945029 0.064886197 2.3140387e-38
-0.041320775 -0.11945029 0.064886197 2.2864153e-38
-0.039605983 -0.11945029 0.064886197 2.3509879e-38
-0.037920505 -0.12027912 0.061846178 2.3509514e-38
-0.0024756519 -0.13145791 0.020844679 1.105188e-38
-0.00068363827 -0.13145791 0.020844679 9.6707433e-39
0.0011083735 -0.13145791 0.020844679 9.859061e-39
0.0029926887 -0.1322781 0.017836433 1.4105095e-38
0.0048881238 -0.13310309 0.014810544 1.475553e-38
0.0067911884 -0.13390426 0.011871915 1.503716e-38
0.0087089716 -0.13473894 0.0088105015 1.4210988e-38
0.010522082 -0.13473894 0.0088105015 1.4211354e-38
0.012490324 -0.13581105 0.0048782639 1.6236443e-38
0.014433763 -0.13662781 0.0018825345 2.2040469e-38
0.016388457 -0.13744931 -0.0011305995 2.2315972e-38
0.01866718 -0.14018236 -0.011154789 1.7894528e-38
0.0205153 -0.14018236 -0.011154789 1.4301778e-38
0.022507027 -0.14099441 -0.014133234 1.172172e-38
0.024510048 -0.14181106 -0.017128605 1.2276655e-38
0.026733585 -0.14373477 -0.024184365 1.31968e-38
0.028604548 -0.14373477 -0.024184365 1.3746025e-38
0.030475512 -0.14373477 -0.024184365 1.3372933e-38
0.032513969 -0.14453618 -0.027123708 1.2261191e-38
0.034390088 -0.14453618 -0.027123708 1.3918558e-38
0.036875319 -0.1472816 -0.037193436 1.5392265e-38
0.038769092 -0.1472816 -0.037193436 1.7235475e-38
-0.06875746 -0.12116508 0.064886197 2.3234379e-38
-0.066927195 -0.12036191 0.067813262 2.286666e-38
-0.065217532 -0.12036191 0.067813262 2.1946479e-38
-0.063507877 -0.12036191 0.067813262 1.8628859e-38
-0.061798211 -0.12036191 0.067813262 1.8352624e-38
-0.060088553 -0.12036191 0.067813262 2.0197258e-38
-0.05837889 -0.12036191 0.067813262 2.0749727e-38
-0.056669228 -0.12036191 0.067813262 2.1394379e-38
-0.054903403 -0.1197948 0.069879934 2.1392938e-38
-0.053197369 -0.1197948 0.069879934 2.1576607e-38
-0.051420547 -0.11897425 0.072870359 2.3050656e-38
-0.049719751 -0.11897425 0.072870359 2.3509853e-38
-0.048079256 -0.1197948 0.069879934 2.3509883e-38
-0.046411268 -0.12036191 0.067813262 2.3509168e-38
-0.044750363 -0.12116508 0.064886197 2.3509527e-38
-0.043035567 -0.12116508 0.064886197 2.3233299e-38
-0.041320775 -0.12116508 0.064886197 2.350988e-38
-0.039605983 -0.12116508 0.064886197 2.3509879e-38
-0.03789119 -0.12116508 0.064886197 2.3508074e-38
0.0012829406 -0.13490568 0.014810544 9.2140447e-39
0.0030855341 -0.13490568 0.014810544 1.2629962e-38
0.0048881238 -0.13490568 0.014810544 1.3003097e-38
0.0067911884 -0.13571201 0.011871915 1.457439e-38
0.0087089716 -0.13655205 0.0088105015 1.5684326e-38
0.010522082 -0.13655205 0.0088105015 1.6605928e-38
0.012490324 -0.13763104 0.0048782639 1.8168963e-38
0.014310329 -0.13763104 0.0048782639 2.2775164e-38
0.016518638 -0.14011143 -0.0041611381 2.3142509e-38
0.01866718 -0.14203046 -0.011154789 2.1117795e-38
0.0205153 -0.14203046 -0.011154789 1.7985664e-38
0.022507027 -0.14284773 -0.014133234 1.190397e-38
0.024510048 -0.14366965 -0.017128605 1.2090117e-38
0.026733585 -0.14560573 -0.024184365 1.3287928e-38
0.028604548 -0.14560573 -0.024184365 1.3468736e-38
0.030475512 -0.14560573 -0.024184365 1.3188196e-38
0.032513969 -0.1464123 -0.027123708 1.2077524e-38
0.034390088 -0.1464123 -0.027123708 1.502455e-38
0.036266204 -0.1464123 -0.027123708 1.6038e-38
0.03814232 -0.1464123 -0.027123708 1.6867057e-38
-0.070472255 -0.12287988 0.064886197 2.2403549e-38
-0.06875746 -0.12287988 0.064886197 2.3234379e-38
-0.067042671 -0.12287988 0.064886197 2.2775176e-38
-0.065327875 -0.12287988 0.064886197 2.1117417e-38
-0.063507877 -0.12207155 0.067813262 1.89065e-38
-0.061798211 -0.12207155 0.067813262 1.881538e-38
-0.060088553 -0.12207155 0.067813262 2.185677e-38
-0.05837889 -0.12207155 0.067813262 2.2407813e-38
-0.056669228 -0.12207155 0.067813262 2.2499656e-38
-0.054903403 -0.12150083 0.069879934 1.9918524e-38
-0.053197369 -0.12150083 0.069879934 1.9088397e-38
-0.051420547 -0.12067504 0.072870359 2.0931586e-38
-0.049719751 -0.12067504 0.072870359 2.3234336e-38
-0.048079256 -0.12150083 0.069879934 2.3325847e-38
-0.046411268 -0.12207155 0.067813262 2.3509527e-38
-0.044750363 -0.12287988 0.064886197 2.3509886e-38
-0.043035567 -0.12287988 0.064886197 2.3234015e-38
-0.041320775 -0.12287988 0.064886197 2.350988e-38
-0.039605983 -0.12287988 0.064886197 2.3509879e-38
-0.03789119 -0.12287988 0.064886197 2.3509157e-38
0.0012829406 -0.13670824 0.014810544 9.8594113e-39
0.0030855341 -0.13670824 0.014810544 1.4104013e-38
0.0048881238 -0.13670824 0.014810544 1.3832141e-38
0.0067911884 -0.13751976 0.011871915 1.5771499e-38
0.0087089716 -0.13836516 0.0088105015 1.8447682e-38
0.010522082 -0.13836516 0.0088105015 2.1581262e-38
0.012490324 -0.13945107 0.0048782639 2.3142504e-38
0.014310329 -0.13945107 0.0048782639 2.350986e-38
0.016518638 -0.14194728 -0.0041611381 2.2956326e-38
0.018485904 -0.14275892 -0.0071002431 2.2681182e-38
0.020326912 -0.14275892 -0.0071002431 2.0011105e-38
0.022363417 -0.14387859 -0.011154789 1.1624519e-38
0.02436037 -0.14470108 -0.014133234 1.1903942e-38
0.026733585 -0.14747669 -0.024184365 1.3009916e-38
0.028604548 -0.14747669 -0.024184365 1.1807793e-38
0.030475512 -0.14747669 -0.024184365 1.0513818e-38
0.032513969 -0.14828841 -0.027123708 1.1893138e-38
0.034390088 -0.14828841 -0.027123708 1.7237611e-38
0.036266204 -0.14828841 -0.027123708 1.7328384e-38
-0.072187051 -0.12459467 0.064886197 9.0351885e-39
-0.070346519 -0.12378122 0.067813262 2.1758185e-38
-0.068636857 -0.12378122 0.067813262 2.3234376e-38
-0.067042671 -0.12459467 0.064886197 2.2130871e-38
-0.065327875 -0.12459467 0.064886197 1.8352606e-38
-0.063507877 -0.12378122 0.067813262 1.7801209e-38
-0.061798211 -0.12378122 0.067813262 1.7893407e-38
-0.060088553 -0.12378122 0.067813262 2.1303586e-38
-0.05837889 -0.12378122 0.067813262 2.1856076e-38
-0.056669228 -0.12378122 0.067813262 2.2131957e-38
-0.054959569 -0.12378122 0.067813262 2.0288383e-38
-0.05324991 -0.12378122 0.067813262 1.7983841e-38
-0.051491328 -0.1232069 0.069879934 1.9457885e-38
-0.049785294 -0.1232069 0.069879934 2.2682951e-38
-0.048079256 -0.1232069 0.069879934 2.3142174e-38
-0.046411268 -0.12378122 0.067813262 2.3141467e-38
-0.044750363 -0.12459467 0.064886197 2.341805e-38
-0.043035567 -0.12459467 0.064886197 2.3050703e-38
-0.041320775 -0.12459467 0.064886197 2.2773034e-38
-0.039605983 -0.12459467 0.064886197 2.3509879e-38
-0.037920505 -0.12543948 0.061846178 2.350952e-38
0.0012829406 -0.13851084 0.014810544 9.1218476e-39
0.0030855341 -0.13851084 0.014810544 1.4103297e-38
0.0048881238 -0.13851084 0.014810544 1.4106935e-38
0.0067911884 -0.13932751 0.011871915 1.7429228e-38
0.0087089716 -0.14017828 0.0088105015 1.9920301e-38
0.010522082 -0.14017828 0.0088105015 2.2683304e-38
0.012490324 -0.14127107 0.0048782639 2.3509853e-38
0.014310329 -0.14127107 0.0048782639 2.2770143e-38
0.016518638 -0.14378314 -0.0041611381 2.3505916e-38
