# .PCD v0.7 - Point Cloud Data file format
VERSION 0.7
FIELDS x y z rgb
SIZE 4 4 4 4
TYPE F F F F
COUNT 1 1 1 1
WIDTH 933
HEIGHT 1
VIEWPOINT 0 0 0 1 0 0 0
POINTS 933
DATA ascii
0.031089993 -0.10132705 0.015484929 1.1533715e-38
0.032871552 -0.10132705 0.015484929 1.5219382e-38
0.034653105 -0.10132705 0.015484929 1.6046272e-38
0.036421262 -0.10057923 0.018542409 1.5028891e-38
0.038197454 -0.10057923 0.018542409 8.3890022e-39
-0.044207245 -0.11073773 -0.015484571 9.5803203e-39
-0.041942224 -0.10924892 -0.0094408989 1.0135652e-38
-0.040116966 -0.10924892 -0.0094408989 1.2534919e-38
-0.038089484 -0.10851096 -0.0064451694 1.7701471e-38
-0.036269486 -0.10851096 -0.0064451694 1.7152588e-38
-0.034449473 -0.10851096 -0.0064451694 1.5311904e-38
-0.032629475 -0.10851096 -0.0064451694 1.6050911e-38
-0.030809462 -0.10851096 -0.0064451694 1.7251247e-38
-0.028989449 -0.10851096 -0.0064451694 1.6883526e-38
-0.027169451 -0.10851096 -0.0064451694 1.3925722e-38
-0.025349438 -0.10851096 -0.0064451694 1.7965818e-38
-0.023529433 -0.10851096 -0.0064451694 2.1737225e-38
-0.021506041 -0.10754226 -0.0025129318 2.182942e-38
-0.019692928 -0.10754226 -0.0025129318 2.1091855e-38
-0.017879814 -0.10754226 -0.0025129318 2.2384392e-38
-0.0160667 -0.10754226 -0.0025129318 2.2663137e-38
-0.014253587 -0.10754226 -0.0025129318 1.9624637e-38
-0.012440473 -0.10754226 -0.0025129318 1.6402466e-38
-0.010501221 -0.10678811 0.00054848194 2.0464109e-38
-0.008693479 -0.10678811 0.00054848194 2.3234292e-38
-0.0068857372 -0.10678811 0.00054848194 2.2591445e-38
-0.0049723685 -0.10606419 0.0034871101 2.0015716e-38
-0.003169775 -0.10606419 0.0034871101 1.9465419e-38
-0.0013671815 -0.10606419 0.0034871101 1.8821486e-38
0.00052825361 -0.1053188 0.0065129995 1.7807334e-38
0.0023255423 -0.1053188 0.0065129995 1.799208e-38
0.0041228272 -0.1053188 0.0065129995 1.8635641e-38
0.0059201121 -0.1053188 0.0065129995 1.9187743e-38
0.0077174008 -0.1053188 0.0065129995 2.1030238e-38
0.0095146894 -0.1053188 0.0065129995 2.0015727e-38
0.011311974 -0.1053188 0.0065129995 1.9739843e-38
0.013164643 -0.10457774 0.009521246 2.1213885e-38
0.014956653 -0.10457774 0.009521246 2.0754332e-38
0.016748667 -0.10457774 0.009521246 1.5038201e-38
0.01854068 -0.10457774 0.009521246 1.4024051e-38
0.020366773 -0.10384102 0.012511849 1.3839662e-38
0.022153543 -0.10384102 0.012511849 1.1903554e-38
0.023940312 -0.10384102 0.012511849 1.4761614e-38
0.025727082 -0.10384102 0.012511849 1.5039276e-38
0.02751385 -0.10384102 0.012511849 1.1166352e-38
0.029308438 -0.1031086 0.015484929 1.1165301e-38
0.031089993 -0.1031086 0.015484929 1.1072035e-38
0.032871552 -0.1031086 0.015484929 1.4020486e-38
0.034653105 -0.1031086 0.015484929 1.3925772e-38
0.036421262 -0.10235542 0.018542409 1.3277177e-38
0.038178805 -0.10160676 0.021581531 7.8343949e-39
0.03994967 -0.10160676 0.021581531 8.5701452e-39
-0.046262115 -0.11330278 -0.018423676 9.9476847e-39
-0.044207245 -0.11257361 -0.015484571 9.7647115e-39
-0.041942224 -0.11107419 -0.0094408989 1.0319687e-38
-0.040116966 -0.11107419 -0.0094408989 1.1889196e-38
-0.038089484 -0.11033095 -0.0064451694 1.7147584e-38
-0.036269486 -0.11033095 -0.0064451694 1.6783455e-38
-0.034449473 -0.11033095 -0.0064451694 1.4850214e-38
-0.032629475 -0.11033095 -0.0064451694 1.4759107e-38
-0.030809462 -0.11033095 -0.0064451694 1.5866887e-38
-0.028989449 -0.11033095 -0.0064451694 1.5683198e-38
-0.027169451 -0.11033095 -0.0064451694 1.2540993e-38
-0.025349438 -0.11033095 -0.0064451694 1.7226809e-38
-0.023529433 -0.11033095 -0.0064451694 2.072162e-38
-0.021506041 -0.10935538 -0.0025129318 2.155138e-38
-0.019692928 -0.10935538 -0.0025129318 2.1552099e-38
-0.017879814 -0.10935538 -0.0025129318 2.2474779e-38
-0.0160667 -0.10935538 -0.0025129318 2.2384741e-38
-0.014253587 -0.10935538 -0.0025129318 1.9622831e-38
-0.012440473 -0.10935538 -0.0025129318 1.6124435e-38
-0.010501221 -0.10859586 0.00054848194 2.0185358e-38
-0.008693479 -0.10859586 0.00054848194 2.3048818e-38
-0.0068857372 -0.10859586 0.00054848194 2.3509809e-38
-0.0049723685 -0.10786678 0.0034871101 2.1581244e-38
-0.003169775 -0.10786678 0.0034871101 2.1581249e-38
-0.0013671815 -0.10786678 0.0034871101 2.1856767e-38
0.00052825361 -0.10711606 0.0065129995 2.0754725e-38
0.0023255423 -0.10711606 0.0065129995 1.9742003e-38
0.0041228272 -0.10711606 0.0065129995 2.0202614e-38
0.0059201121 -0.10711606 0.0065129995 1.9924956e-38
0.0077174008 -0.10711606 0.0065129995 2.1581272e-38
0.0095146894 -0.10711606 0.0065129995 1.8541324e-38
0.01137263 -0.10636975 0.009521246 1.5961615e-38
0.013164643 -0.10636975 0.009521246 1.5870479e-38
0.014956653 -0.10636975 0.009521246 1.8636342e-38
0.016748667 -0.10636975 0.009521246 1.6792782e-38
0.018580005 -0.10562779 0.012511849 1.6608027e-38
0.020366773 -0.10562779 0.012511849 1.6976812e-38
0.022153543 -0.10562779 0.012511849 1.5316939e-38
0.02396377 -0.10489015 0.015484929 1.5870113e-38
0.025745325 -0.10489015 0.015484929 1.5316212e-38
0.027526882 -0.10489015 0.015484929 1.2549639e-38
0.029308438 -0.10489015 0.015484929 1.2824468e-38
0.031089993 -0.10489015 0.015484929 1.3375851e-38
0.032871552 -0.10489015 0.015484929 1.272902e-38
0.034645066 -0.10413162 0.018542409 1.2450628e-38
0.036421262 -0.10413162 0.018542409 1.2632159e-38
0.038178805 -0.10337763 0.021581531 8.2035291e-39
0.03994967 -0.10337763 0.021581531 9.9519951e-39
-0.046262115 -0.11514379 -0.018423676 9.7629361e-39
-0.044207245 -0.11440946 -0.015484571 9.7647115e-39
-0.041942224 -0.11289944 -0.0094408989 1.0504079e-38
-0.040116966 -0.11289944 -0.0094408989 1.3087385e-38
-0.038089484 -0.11215095 -0.0064451694 1.7976993e-38
-0.036269486 -0.11215095 -0.0064451694 1.7796535e-38
-0.034449473 -0.11215095 -0.0064451694 1.5770384e-38
-0.032629475 -0.11215095 -0.0064451694 1.5310497e-38
-0.030809462 -0.11215095 -0.0064451694 1.6326444e-38
-0.028989449 -0.11215095 -0.0064451694 1.6419342e-38
-0.027169451 -0.11215095 -0.0064451694 1.2910505e-38
-0.025349438 -0.11215095 -0.0064451694 1.4188656e-38
-0.023529433 -0.11215095 -0.0064451694 1.611829e-38
-0.021506041 -0.11116849 -0.0025129318 1.7593064e-38
-0.019692928 -0.11116849 -0.0025129318 1.8699412e-38
-0.017879814 -0.11116849 -0.0025129318 1.9529892e-38
-0.0160667 -0.11116849 -0.0025129318 2.0176707e-38
-0.014253587 -0.11116849 -0.0025129318 1.9166155e-38
-0.012440473 -0.11116849 -0.0025129318 1.6772667e-38
-0.010501221 -0.11040358 0.00054848194 1.963505e-38
-0.008693479 -0.11040358 0.00054848194 2.0837193e-38
-0.0068857372 -0.11040358 0.00054848194 2.1301771e-38
-0.0049723685 -0.10966937 0.0034871101 2.0567446e-38
-0.003169775 -0.10966937 0.0034871101 2.0569606e-38
-0.001269035 -0.10891335 0.0065129995 2.1213904e-38
0.00052825361 -0.10891335 0.0065129995 2.0846558e-38
0.0023255423 -0.10891335 0.0065129995 1.9925674e-38
0.0041228272 -0.10891335 0.0065129995 2.0386642e-38
0.0059965923 -0.10816176 0.009521246 2.1397574e-38
0.007788606 -0.10816176 0.009521246 2.1030254e-38
0.0095806196 -0.10816176 0.009521246 1.7896318e-38
0.01137263 -0.10816176 0.009521246 1.4948179e-38
0.013164643 -0.10816176 0.009521246 1.3934731e-38
0.015006468 -0.10741456 0.012511849 1.5595331e-38
0.016793236 -0.10741456 0.012511849 1.7531792e-38
0.018580005 -0.10741456 0.012511849 1.670238e-38
0.020366773 -0.10741456 0.012511849 1.8268627e-38
0.022153543 -0.10741456 0.012511849 1.7807303e-38
0.02396377 -0.10667174 0.015484929 1.6423647e-38
0.025745325 -0.10667174 0.015484929 1.5132894e-38
0.027526882 -0.10667174 0.015484929 1.4117317e-38
0.029308438 -0.10667174 0.015484929 1.4023365e-38
0.031089993 -0.10667174 0.015484929 1.485133e-38
0.032871552 -0.10667174 0.015484929 1.3836422e-38
0.034645066 -0.10590781 0.018542409 1.3742421e-38
0.036421262 -0.10590781 0.018542409 1.3646287e-38
0.038197454 -0.10590781 0.018542409 7.8350857e-39
0.03997365 -0.10590781 0.018542409 9.6757487e-39
-0.046786189 -0.11875431 -0.025456667 9.5792637e-39
-0.044207245 -0.11624531 -0.015484571 9.5810461e-39
-0.041942224 -0.11472471 -0.0094408989 1.0412607e-38
-0.040116966 -0.11472471 -0.0094408989 1.2166505e-38
-0.038291708 -0.11472471 -0.0094408989 1.6779166e-38
-0.036466449 -0.11472471 -0.0094408989 1.6598715e-38
-0.034449473 -0.11397095 -0.0064451694 1.4849509e-38
-0.032629475 -0.11397095 -0.0064451694 1.4666926e-38
-0.030809462 -0.11397095 -0.0064451694 1.6419359e-38
-0.028989449 -0.11397095 -0.0064451694 1.6789566e-38
-0.027169451 -0.11397095 -0.0064451694 1.30063e-38
-0.025349438 -0.11397095 -0.0064451694 1.6041197e-38
-0.023529433 -0.11397095 -0.0064451694 1.6128717e-38
-0.021506041 -0.1129816 -0.0025129318 1.6865929e-38
-0.019692928 -0.1129816 -0.0025129318 1.7419104e-38
-0.017879814 -0.1129816 -0.0025129318 1.7142516e-38
-0.0160667 -0.1129816 -0.0025129318 1.7420902e-38
-0.014253587 -0.1129816 -0.0025129318 1.7422707e-38
-0.012440473 -0.1129816 -0.0025129318 1.5673153e-38
-0.010501221 -0.11221133 0.00054848194 1.6505791e-38
-0.008693479 -0.11221133 0.00054848194 1.5494879e-38
-0.0068857372 -0.11221133 0.00054848194 1.5128254e-38
-0.0049723685 -0.11147197 0.0034871101 1.4760914e-38
-0.003169775 -0.11147197 0.0034871101 1.4209185e-38
-0.001269035 -0.11071064 0.0065129995 1.4670163e-38
0.00052825361 -0.11071064 0.0065129995 1.5038943e-38
0.0023255423 -0.11071064 0.0065129995 1.4486122e-38
0.0041228272 -0.11071064 0.0065129995 1.5316948e-38
0.0059965923 -0.10995375 0.009521246 1.9281009e-38
0.007788606 -0.10995375 0.009521246 1.7989581e-38
0.0095806196 -0.10995375 0.009521246 1.6238943e-38
0.01137263 -0.10995375 0.009521246 1.476666e-38
0.013164643 -0.10995375 0.009521246 1.4121993e-38
0.015006468 -0.10920133 0.012511849 1.2463544e-38
0.016793236 -0.10920133 0.012511849 1.5045017e-38
0.018580005 -0.10920133 0.012511849 1.5228692e-38
0.020366773 -0.10920133 0.012511849 1.6242846e-38
0.022153543 -0.10920133 0.012511849 1.6794593e-38
0.02396377 -0.10845329 0.015484929 1.5872631e-38
0.025745325 -0.10845329 0.015484929 1.7163356e-38
0.027526882 -0.10845329 0.015484929 1.8822525e-38
0.029308438 -0.10845329 0.015484929 1.7899521e-38
0.031089993 -0.10845329 0.015484929 1.7713332e-38
0.032871552 -0.10845329 0.015484929 1.8356155e-38
0.034653105 -0.10845329 0.015484929 1.8537664e-38
0.036421262 -0.107684 0.018542409 1.6874561e-38
0.038197454 -0.107684 0.018542409 8.6659142e-39
0.03997365 -0.107684 0.018542409 9.9534076e-39
-0.052825496 -0.12212978 -0.031464458 9.7654626e-39
-0.050961614 -0.12212978 -0.031464458 1.0133163e-38
-0.048867986 -0.12136655 -0.028452039 1.0316832e-38
-0.047009394 -0.12136655 -0.028452039 9.9480462e-39
-0.044207245 -0.11808117 -0.015484571 9.7654458e-39
-0.04215619 -0.11731337 -0.012454033 9.6754082e-39
-0.040116966 -0.11654995 -0.0094408989 1.1983903e-38
-0.038291708 -0.11654995 -0.0094408989 1.6781313e-38
-0.036466449 -0.11654995 -0.0094408989 1.5678914e-38
-0.034641191 -0.11654995 -0.0094408989 1.4206295e-38
-0.032815933 -0.11654995 -0.0094408989 1.4116258e-38
-0.030990675 -0.11654995 -0.0094408989 1.6238909e-38
-0.028989449 -0.11579098 -0.0064451694 1.4857043e-38
-0.027169451 -0.11579098 -0.0064451694 1.2367042e-38
-0.025349438 -0.11579098 -0.0064451694 1.3563791e-38
-0.023529433 -0.11579098 -0.0064451694 1.1903202e-38
-0.021506041 -0.11479472 -0.0025129318 1.3101039e-38
-0.019692928 -0.11479472 -0.0025129318 1.4208103e-38
-0.017879814 -0.11479472 -0.0025129318 1.3932221e-38
-0.0160667 -0.11479472 -0.0025129318 1.4025493e-38
-0.014253587 -0.11479472 -0.0025129318 1.3932595e-38
-0.012440473 -0.11479472 -0.0025129318 1.3932958e-38
-0.010501221 -0.11401908 0.00054848194 1.2365985e-38
-0.008693479 -0.11401908 0.00054848194 1.3381209e-38
-0.0068857372 -0.11401908 0.00054848194 1.3842183e-38
-0.0049723685 -0.11327456 0.0034871101 1.5040729e-38
-0.003169775 -0.11327456 0.0034871101 1.3841834e-38
-0.001269035 -0.11250792 0.0065129995 1.4209898e-38
0.00052825361 -0.11250792 0.0065129995 1.3748911e-38
0.0023255423 -0.11250792 0.0065129995 1.4210954e-38
0.0041228272 -0.11250792 0.0065129995 1.4673354e-38
0.0059965923 -0.11174576 0.009521246 1.4398209e-38
0.007788606 -0.11174576 0.009521246 1.5688614e-38
0.0095146894 -0.11250792 0.0065129995 1.541311e-38
0.01137263 -0.11174576 0.009521246 1.4032325e-38
0.013164643 -0.11174576 0.009521246 1.2835562e-38
0.014956653 -0.11174576 0.009521246 1.2190167e-38
0.016748667 -0.11174576 0.009521246 1.3204319e-38
0.01854068 -0.11174576 0.009521246 1.4308898e-38
0.020366773 -0.1109881 0.012511849 1.5322345e-38
0.022153543 -0.1109881 0.012511849 1.5413816e-38
0.023940312 -0.1109881 0.012511849 1.5691477e-38
0.025745325 -0.11023484 0.015484929 1.5969134e-38
0.027526882 -0.11023484 0.015484929 1.6062409e-38
0.029308438 -0.11023484 0.015484929 1.6892534e-38
0.031092674 -0.10946019 0.018542409 1.6613789e-38
0.03286887 -0.10946019 0.018542409 1.7991326e-38
0.034645066 -0.10946019 0.018542409 1.8632023e-38
0.036421262 -0.10946019 0.018542409 1.6415378e-38
0.038197454 -0.10946019 0.018542409 9.2201655e-39
0.03997365 -0.10946019 0.018542409 1.0691698e-38
-0.052825496 -0.12399365 -0.031464458 9.6729153e-39
-0.050961614 -0.12399365 -0.031464458 1.0133166e-38
-0.048867986 -0.12322514 -0.028452039 1.0224636e-38
-0.047009394 -0.12322514 -0.028452039 9.9480462e-39
-0.044421107 -0.12066682 -0.018423676 9.6732558e-39
-0.042371392 -0.11991702 -0.015484571 9.4920987e-39
-0.040325642 -0.11914389 -0.012454033 1.1154141e-38
-0.038291708 -0.11837523 -0.0094408989 1.6321049e-38
-0.036466449 -0.11837523 -0.0094408989 1.5771829e-38
-0.034641191 -0.11837523 -0.0094408989 1.4300289e-38
-0.032629475 -0.11761098 -0.0064451694 1.3933297e-38
-0.030809462 -0.11761098 -0.0064451694 1.5594608e-38
-0.028989449 -0.11761098 -0.0064451694 1.4581526e-38
-0.027169451 -0.11761098 -0.0064451694 1.2646863e-38
-0.025349438 -0.11761098 -0.0064451694 1.2923109e-38
-0.023529433 -0.11761098 -0.0064451694 1.384508e-38
-0.021506041 -0.11660783 -0.0025129318 1.4858885e-38
-0.019692928 -0.11660783 -0.0025129318 1.4767766e-38
-0.017879814 -0.11660783 -0.0025129318 1.3754315e-38
-0.0160667 -0.11660783 -0.0025129318 1.3478084e-38
-0.014116719 -0.11582683 0.00054848194 1.4768118e-38
-0.01230897 -0.11582683 0.00054848194 1.5597525e-38
-0.010501221 -0.11582683 0.00054848194 1.5688995e-38
-0.008693479 -0.11582683 0.00054848194 1.4397889e-38
-0.0068857372 -0.11582683 0.00054848194 1.39369e-38
-0.0049723685 -0.11507715 0.0034871101 1.605632e-38
-0.003169775 -0.11507715 0.0034871101 1.5870864e-38
-0.001269035 -0.11430521 0.0065129995 1.6699546e-38
0.00052825361 -0.11430521 0.0065129995 1.5777575e-38
0.0024125688 -0.11353777 0.009521246 1.4948882e-38
0.0042045787 -0.11353777 0.009521246 1.4305297e-38
0.0059965923 -0.11353777 0.009521246 1.4030149e-38
0.007788606 -0.11353777 0.009521246 1.5137231e-38
0.0095806196 -0.11353777 0.009521246 1.4768818e-38
0.01137263 -0.11353777 0.009521246 1.3940498e-38
0.013164643 -0.11353777 0.009521246 1.3296551e-38
0.014956653 -0.11353777 0.009521246 1.283626e-38
0.016748667 -0.11353777 0.009521246 1.4402508e-38
0.01854068 -0.11353777 0.009521246 1.4123802e-38
0.020366773 -0.11277486 0.012511849 1.5504953e-38
0.022182215 -0.11201639 0.015484929 1.5966284e-38
0.02396377 -0.11201639 0.015484929 1.6705283e-38
0.025745325 -0.11201639 0.015484929 1.6336863e-38
0.027526882 -0.11201639 0.015484929 1.5140109e-38
0.029308438 -0.11201639 0.015484929 1.5695786e-38
0.031092674 -0.11123641 0.018542409 1.6154605e-38
0.03286887 -0.11123641 0.018542409 1.7347398e-38
0.034645066 -0.11123641 0.018542409 1.7434565e-38
0.036421262 -0.11123641 0.018542409 1.5217197e-38
0.038197454 -0.11123641 0.018542409 9.31308e-39
0.03997365 -0.11123641 0.018542409 1.0323278e-38
0.041749846 -0.11123641 0.018542409 1.0872498e-38
-0.054689363 -0.12585752 -0.031464458 9.2133763e-39
-0.052825496 -0.12585752 -0.031464458 9.6732684e-39
-0.050961614 -0.12585752 -0.031464458 1.0040971e-38
-0.049097747 -0.12585752 -0.031464458 1.013244e-38
-0.047009394 -0.12508373 -0.028452039 9.8558506e-39
-0.04471612 -0.1235493 -0.022478223 9.6728985e-39
-0.042371392 -0.12175287 -0.015484571 9.3999059e-39
-0.040325642 -0.12097444 -0.012454033 1.0969751e-38
-0.038291708 -0.12020047 -0.0094408989 1.6321052e-38
-0.036466449 -0.12020047 -0.0094408989 1.5864024e-38
-0.034641191 -0.12020047 -0.0094408989 1.4392483e-38
-0.032629475 -0.11943097 -0.0064451694 1.3749262e-38
-0.030809462 -0.11943097 -0.0064451694 1.4949236e-38
-0.028989449 -0.11943097 -0.0064451694 1.4674079e-38
-0.027169451 -0.11943097 -0.0064451694 1.4673728e-38
-0.025349438 -0.11943097 -0.0064451694 1.4764516e-38
-0.023529433 -0.11943097 -0.0064451694 1.826725e-38
-0.021506041 -0.11842094 -0.0025129318 1.780628e-38
-0.019539952 -0.11763458 0.00054848194 1.6976875e-38
-0.017732203 -0.11763458 0.00054848194 1.531878e-38
-0.015924454 -0.11763458 0.00054848194 1.3475581e-38
-0.013985328 -0.11687975 0.0034871101 1.5042555e-38
-0.012182735 -0.11687975 0.0034871101 1.6148908e-38
-0.010380149 -0.11687975 0.0034871101 1.5964161e-38
-0.0085775517 -0.11687975 0.0034871101 1.3844012e-38
-0.0067749582 -0.11687975 0.0034871101 1.4305331e-38
-0.0048636086 -0.1161025 0.0065129995 1.7531099e-38
-0.00306632 -0.1161025 0.0065129995 1.6608444e-38
-0.001269035 -0.1161025 0.0065129995 1.679212e-38
0.00052825361 -0.1161025 0.0065129995 1.5593923e-38
0.0024125688 -0.11532979 0.009521246 1.4211696e-38
0.0042045787 -0.11532979 0.009521246 1.4949258e-38
0.0059965923 -0.11532979 0.009521246 1.5134368e-38
0.007788606 -0.11532979 0.009521246 1.5873019e-38
0.0095806196 -0.11532979 0.009521246 1.5596797e-38
0.01137263 -0.11532979 0.009521246 1.4860322e-38
0.013164643 -0.11532979 0.009521246 1.384688e-38
0.014956653 -0.11532979 0.009521246 1.2648669e-38
0.016748667 -0.11532979 0.009521246 1.4123078e-38
0.018580005 -0.11456163 0.012511849 1.4858153e-38
0.020366773 -0.11456163 0.012511849 1.5225507e-38
0.022182215 -0.11379795 0.015484929 1.513331e-38
0.02396377 -0.11379795 0.015484929 1.6977224e-38
0.025745325 -0.11379795 0.015484929 1.7438931e-38
0.027526882 -0.11379795 0.015484929 1.6426208e-38
0.029308438 -0.11379795 0.015484929 1.6429059e-38
0.031092674 -0.1130126 0.018542409 1.6520164e-38
0.03286887 -0.1130126 0.018542409 1.6608404e-38
0.034645066 -0.1130126 0.018542409 1.5867242e-38
0.036421262 -0.1130126 0.018542409 1.3742069e-38
0.038197454 -0.1130126 0.018542409 9.4971168e-39
0.03997365 -0.1130126 0.018542409 9.6771948e-39
0.041749846 -0.1130126 0.018542409 1.1148732e-38
-0.054689363 -0.12772138 -0.031464458 9.2137294e-39
-0.052825496 -0.12772138 -0.031464458 9.673267e-39
-0.050961614 -0.12772138 -0.031464458 1.0133161e-38
-0.049097747 -0.12772138 -0.031464458 1.0224636e-38
-0.047009394 -0.12694232 -0.028452039 9.9480462e-39
-0.04471612 -0.1253974 -0.022478223 9.6728985e-39
-0.042868003 -0.1253974 -0.022478223 9.5828608e-39
-0.040325642 -0.12280498 -0.012454033 1.1522928e-38
-0.038495108 -0.12280498 -0.012454033 1.6689835e-38
-0.03666456 -0.12280498 -0.012454033 1.5679633e-38
-0.034641191 -0.12202574 -0.0094408989 1.4299208e-38
-0.032629475 -0.121251 -0.0064451694 1.3657065e-38
-0.030809462 -0.121251 -0.0064451694 1.4673002e-38
-0.028989449 -0.121251 -0.0064451694 1.4858465e-38
-0.027169451 -0.121251 -0.0064451694 1.633217e-38
-0.025349438 -0.121251 -0.0064451694 1.7619715e-38
-0.023319155 -0.12023406 -0.0025129318 2.1856785e-38
-0.021347687 -0.11944233 0.00054848194 1.9831358e-38
-0.019393101 -0.11868234 0.0034871101 1.9278902e-38
-0.017590508 -0.11868234 0.0034871101 1.8081425e-38
-0.015787922 -0.11868234 0.0034871101 1.4302838e-38
-0.013850041 -0.11789979 0.0065129995 1.4856372e-38
-0.012052752 -0.11789979 0.0065129995 1.5962723e-38
-0.010255471 -0.11789979 0.0065129995 1.6055292e-38
-0.0084581785 -0.11789979 0.0065129995 1.3750754e-38
-0.0066608936 -0.11789979 0.0065129995 1.4765957e-38
-0.0048636086 -0.11789979 0.0065129995 1.7716217e-38
-0.00306632 -0.11789979 0.0065129995 1.5501392e-38
-0.001269035 -0.11789979 0.0065129995 1.5501039e-38
0.00052825361 -0.11789979 0.0065129995 1.6239306e-38
0.0024125688 -0.1171218 0.009521246 1.6516246e-38
0.0042045787 -0.1171218 0.009521246 1.7437483e-38
0.0059965923 -0.1171218 0.009521246 1.8267244e-38
0.007788606 -0.1171218 0.009521246 1.95587e-38
0.0095806196 -0.1171218 0.009521246 1.9375752e-38
0.01137263 -0.1171218 0.009521246 1.9099182e-38
0.013164643 -0.1171218 0.009521246 1.7255267e-38
0.014956653 -0.1171218 0.009521246 1.4858518e-38
0.016793236 -0.1163484 0.012511849 1.5780109e-38
0.018580005 -0.1163484 0.012511849 1.6423337e-38
0.020400658 -0.1155795 0.015484929 1.7066557e-38
0.022182215 -0.1155795 0.015484929 1.6605579e-38
0.02396377 -0.1155795 0.015484929 1.761938e-38
0.025745325 -0.1155795 0.015484929 1.8080374e-38
0.027526882 -0.1155795 0.015484929 1.7160206e-38
0.029316479 -0.11478879 0.018542409 1.6518037e-38
0.031092674 -0.11478879 0.018542409 1.5319834e-38
0.03286887 -0.11478879 0.018542409 1.5777928e-38
0.034645066 -0.11478879 0.018542409 1.5037126e-38
0.036421262 -0.11478879 0.018542409 1.3189261e-38
0.038197454 -0.11478879 0.018542409 1.0142489e-38
0.039997771 -0.1155795 0.015484929 9.3080564e-39
-0.055019021 -0.13063805 -0.035507798 9.3062767e-39
-0.052825496 -0.12958528 -0.031464458 9.7650941e-39
-0.050961614 -0.12958528 -0.031464458 1.0133516e-38
-0.049097747 -0.12958528 -0.031464458 1.0224633e-38
-0.047009394 -0.12880091 -0.028452039 9.9480462e-39
-0.04471612 -0.12724553 -0.022478223 9.7650969e-39
-0.042580098 -0.12618984 -0.018423676 9.6750593e-39
-0.040535539 -0.12542458 -0.015484571 1.1614767e-38
-0.038495108 -0.12463553 -0.012454033 1.6782032e-38
-0.03666456 -0.12463553 -0.012454033 1.5403049e-38
-0.034641191 -0.12385099 -0.0094408989 1.4207013e-38
-0.032629475 -0.123071 -0.0064451694 1.411804e-38
-0.030809462 -0.123071 -0.0064451694 1.4857392e-38
-0.028989449 -0.123071 -0.0064451694 1.458223e-38
-0.027169451 -0.123071 -0.0064451694 1.6239611e-38
-0.025349438 -0.123071 -0.0064451694 1.835441e-38
-0.023319155 -0.12204717 -0.0025129318 2.2315972e-38
-0.021195695 -0.12048493 0.0034871101 2.0565336e-38
-0.019393101 -0.12048493 0.0034871101 2.0842639e-38
-0.017590508 -0.12048493 0.0034871101 1.9830282e-38
-0.015787922 -0.12048493 0.0034871101 1.4576562e-38
-0.013850041 -0.11969708 0.0065129995 1.4393238e-38
-0.012052752 -0.11969708 0.0065129995 1.6145319e-38
-0.010255471 -0.11969708 0.0065129995 1.6421929e-38
-0.0084581785 -0.11969708 0.0065129995 1.4209948e-38
-0.0066608936 -0.11969708 0.0065129995 1.6055622e-38
-0.0048636086 -0.11969708 0.0065129995 2.0203708e-38
-0.00306632 -0.11969708 0.0065129995 1.8267638e-38
-0.001269035 -0.11969708 0.0065129995 1.7898145e-38
0.00062055513 -0.11891381 0.009521246 1.7438223e-38
0.0024125688 -0.11891381 0.009521246 1.6884324e-38
0.0042045787 -0.11891381 0.009521246 1.7895964e-38
0.0059201121 -0.11969708 0.0065129995 1.9279255e-38
0.0077174008 -0.11969708 0.0065129995 2.0662898e-38
0.0095806196 -0.11891381 0.009521246 2.1030254e-38
0.01137263 -0.11891381 0.009521246 2.1489463e-38
0.013164643 -0.11891381 0.009521246 1.9834606e-38
0.015006468 -0.11813517 0.012511849 1.7253109e-38
0.016793236 -0.11813517 0.012511849 1.8266895e-38
0.018580005 -0.11813517 0.012511849 2.0016101e-38
0.020400658 -0.11736105 0.015484929 2.2132299e-38
0.022182215 -0.11736105 0.015484929 2.2407812e-38
0.02396377 -0.11736105 0.015484929 2.2315985e-38
0.025745325 -0.11736105 0.015484929 2.1396922e-38
0.027526882 -0.11736105 0.015484929 1.9923217e-38
0.029316479 -0.11656497 0.018542409 1.7714076e-38
0.031092674 -0.11656497 0.018542409 1.4763788e-38
0.03286887 -0.11656497 0.018542409 1.4947455e-38
0.034645066 -0.11656497 0.018542409 1.4852738e-38
0.036421262 -0.11656497 0.018542409 1.3742437e-38
0.038197454 -0.11656497 0.018542409 1.0603831e-38
0.03997365 -0.11656497 0.018542409 9.5846475e-39
-0.055019021 -0.13250901 -0.035507798 9.2144356e-39
-0.052825496 -0.13144915 -0.031464458 9.7654486e-39
-0.050961614 -0.13144915 -0.031464458 1.0224632e-38
-0.049097747 -0.13144915 -0.031464458 1.0223914e-38
-0.047009394 -0.13065951 -0.028452039 9.8558534e-39
-0.04471612 -0.12909363 -0.022478223 9.6729041e-39
-0.042580098 -0.12803085 -0.018423676 9.5828664e-39
-0.040535539 -0.12726043 -0.015484571 1.0877205e-38
-0.038699672 -0.12726043 -0.015484571 1.6505089e-38
-0.03666456 -0.12646608 -0.012454033 1.5217939e-38
-0.034641191 -0.12567626 -0.0094408989 1.4114817e-38
-0.032815933 -0.12567626 -0.0094408989 1.4579018e-38
-0.030809462 -0.124891 -0.0064451694 1.5134332e-38
-0.028989449 -0.124891 -0.0064451694 1.4120529e-38
-0.027169451 -0.124891 -0.0064451694 1.5133264e-38
-0.025132269 -0.12386028 -0.0025129318 1.8813954e-38
-0.023319155 -0.12386028 -0.0025129318 2.2038669e-38
-0.021195695 -0.12228753 0.0034871101 2.1393657e-38
-0.019393101 -0.12228753 0.0034871101 2.1671683e-38
-0.017590508 -0.12228753 0.0034871101 2.0473859e-38
-0.015647322 -0.12149437 0.0065129995 1.5312333e-38
-0.013850041 -0.12149437 0.0065129995 1.4669459e-38
-0.012052752 -0.12149437 0.0065129995 1.7343141e-38
-0.010255471 -0.12149437 0.0065129995 1.7434649e-38
-0.0084581785 -0.12149437 0.0065129995 1.4669133e-38
-0.0066608936 -0.12149437 0.0065129995 1.5040752e-38
-0.0048636086 -0.12149437 0.0065129995 1.9742729e-38
-0.00306632 -0.12149437 0.0065129995 2.0017921e-38
-0.001269035 -0.12149437 0.0065129995 1.9925377e-38
0.00062055513 -0.12070583 0.009521246 1.7344953e-38
0.0024125688 -0.12070583 0.009521246 1.5223007e-38
0.0042045787 -0.12070583 0.009521246 1.7248801e-38
0.0059201121 -0.12149437 0.0065129995 1.8631372e-38
0.0077174008 -0.12149437 0.0065129995 1.9186689e-38
0.0095806196 -0.12070583 0.009521246 1.9463641e-38
0.01137263 -0.12070583 0.009521246 2.0661852e-38
0.013164643 -0.12070583 0.009521246 1.9187445e-38
0.015006468 -0.11992194 0.012511849 1.6882534e-38
0.016793236 -0.11992194 0.012511849 1.8449494e-38
0.018580005 -0.11992194 0.012511849 1.9646245e-38
0.020400658 -0.11914261 0.015484929 2.1856785e-38
0.022182215 -0.11914261 0.015484929 2.2040464e-38
0.02396377 -0.11914261 0.015484929 2.2591498e-38
0.025745325 -0.11914261 0.015484929 2.2499685e-38
0.027526882 -0.11914261 0.015484929 2.176498e-38
0.029316479 -0.11834116 0.018542409 1.7805193e-38
0.031092674 -0.11834116 0.018542409 1.2274509e-38
0.03286887 -0.11834116 0.018542409 1.384075e-38
0.034645066 -0.11834116 0.018542409 1.4760186e-38
0.036421262 -0.11834116 0.018542409 1.4018667e-38
0.038197454 -0.11834116 0.018542409 9.8662664e-39
0.03997365 -0.11834116 0.018542409 9.7690387e-39
-0.04471612 -0.13094176 -0.022478223 9.5799924e-39
-0.042580098 -0.12987186 -0.018423676 9.3981192e-39
-0.040535539 -0.12909628 -0.015484571 1.0508424e-38
-0.038495108 -0.1282966 -0.012454033 1.6597287e-38
-0.03666456 -0.1282966 -0.012454033 1.503355e-38
-0.034641191 -0.1275015 -0.0094408989 1.3561643e-38
-0.032629475 -0.126711 -0.0064451694 1.4394983e-38
-0.030809462 -0.126711 -0.0064451694 1.5318723e-38
-0.028989449 -0.126711 -0.0064451694 1.4028688e-38
-0.026945375 -0.1256734 -0.0025129318 1.4856673e-38
-0.025132269 -0.1256734 -0.0025129318 1.9090897e-38
-0.022998288 -0.12409012 0.0034871101 2.0840481e-38
-0.021195695 -0.12409012 0.0034871101 2.0748282e-38
-0.019393101 -0.12409012 0.0034871101 2.0473493e-38
-0.017590508 -0.12409012 0.0034871101 2.0105076e-38
-0.015647322 -0.12329166 0.0065129995 1.724844e-38
-0.013850041 -0.12329166 0.0065129995 1.6328253e-38
-0.012052752 -0.12329166 0.0065129995 1.8541673e-38
-0.010255471 -0.12329166 0.0065129995 2.0660417e-38
-0.0084581785 -0.12329166 0.0065129995 1.7434283e-38
-0.0066608936 -0.12329166 0.0065129995 1.5500284e-38
-0.0048636086 -0.12329166 0.0065129995 1.7712979e-38
-0.00306632 -0.12329166 0.0065129995 1.7987457e-38
-0.001269035 -0.12329166 0.0065129995 1.8724674e-38
0.00062055513 -0.12249784 0.009521246 1.761938e-38
0.0024125688 -0.12249784 0.009521246 1.7249506e-38
0.0042045787 -0.12249784 0.009521246 1.9459687e-38
0.0059201121 -0.12329166 0.0065129995 2.0473475e-38
0.0077174008 -0.12329166 0.0065129995 2.0290872e-38
0.0095146894 -0.12329166 0.0065129995 1.9646947e-38
0.01137263 -0.12249784 0.009521246 2.0752961e-38
0.013164643 -0.12249784 0.009521246 1.9278553e-38
0.015006468 -0.12170871 0.012511849 1.6605576e-38
0.016793236 -0.12170871 0.012511849 1.8449124e-38
0.018619101 -0.12092416 0.015484929 2.0567836e-38
0.020400658 -0.12092416 0.015484929 2.1672751e-38
0.022182215 -0.12092416 0.015484929 2.0935187e-38
0.02396377 -0.12092416 0.015484929 2.111995e-38
0.025745325 -0.12092416 0.015484929 2.176498e-38
0.027526882 -0.12092416 0.015484929 2.1122114e-38
0.029316479 -0.12011738 0.018542409 1.8082853e-38
0.031092674 -0.12011738 0.018542409 1.3566321e-38
0.03286887 -0.12011738 0.018542409 1.3841467e-38
0.034637071 -0.11931543 0.021581531 1.5313716e-38
0.03640794 -0.11931543 0.021581531 1.4387807e-38
0.038197454 -0.12011738 0.018542409 8.6677232e-39
-0.044421107 -0.13171287 -0.018423676 9.3956011e-39
-0.042580098 -0.13171287 -0.018423676 9.3052061e-39
-0.040535539 -0.13093217 -0.015484571 1.0876488e-38
-0.038495108 -0.13012715 -0.012454033 1.7057547e-38
-0.036466449 -0.12932678 -0.0094408989 1.4941355e-38
-0.034641191 -0.12932678 -0.0094408989 1.2916274e-38
-0.032629475 -0.12853102 -0.0064451694 1.3841809e-38
-0.030809462 -0.12853102 -0.0064451694 1.5318001e-38
-0.028989449 -0.12853102 -0.0064451694 1.439747e-38
-0.026945375 -0.12748651 -0.0025129318 1.5502398e-38
-0.025132269 -0.12748651 -0.0025129318 1.6325741e-38
-0.022998288 -0.12589271 0.0034871101 1.6508717e-38
-0.021195695 -0.12589271 0.0034871101 1.6416516e-38
-0.019393101 -0.12589271 0.0034871101 1.6232843e-38
-0.017590508 -0.12589271 0.0034871101 1.7523593e-38
-0.015647322 -0.12508895 0.0065129995 1.7340989e-38
-0.013850041 -0.12508895 0.0065129995 1.6052018e-38
-0.012052752 -0.12508895 0.0065129995 1.7342403e-38
-0.010255471 -0.12508895 0.0065129995 2.0936278e-38
-0.0084581785 -0.12508895 0.0065129995 2.0752241e-38
-0.0066608936 -0.12508895 0.0065129995 2.038556e-38
-0.0048636086 -0.12508895 0.0065129995 2.1581234e-38
-0.00306632 -0.12508895 0.0065129995 1.9922477e-38
-0.001269035 -0.12508895 0.0065129995 1.8999453e-38
0.00062055513 -0.12428986 0.009521246 1.7894157e-38
0.0024125688 -0.12428986 0.009521246 1.881538e-38
0.0042045787 -0.12428986 0.009521246 2.1209951e-38
0.0059201121 -0.12508895 0.0065129995 2.2131908e-38
0.0077174008 -0.12508895 0.0065129995 2.1488335e-38
0.0095146894 -0.12508895 0.0065129995 2.0659301e-38
0.01137263 -0.12428986 0.009521246 2.1673115e-38
0.013164643 -0.12428986 0.009521246 1.9739161e-38
0.015006468 -0.12349547 0.012511849 1.6697759e-38
0.016793236 -0.12349547 0.012511849 1.8633144e-38
0.018619101 -0.12270571 0.015484929 1.9461485e-38
0.020400658 -0.12270571 0.015484929 2.0751874e-38
0.022182215 -0.12270571 0.015484929 1.9645526e-38
0.02396377 -0.12270571 0.015484929 1.7617584e-38
0.025745325 -0.12270571 0.015484929 1.4945004e-38
0.027526882 -0.12270571 0.015484929 1.3287629e-38
0.029316479 -0.12189357 0.018542409 1.3567417e-38
0.031092674 -0.12189357 0.018542409 1.3107139e-38
0.032866202 -0.12108628 0.021581531 1.4948531e-38
0.034637071 -0.12108628 0.021581531 1.642114e-38
0.03640794 -0.12108628 0.021581531 1.5217565e-38
0.038178805 -0.12108628 0.021581531 8.2992953e-39
-0.042371392 -0.13276802 -0.015484571 9.3974018e-39
-0.040325642 -0.13195769 -0.012454033 1.1614056e-38
-0.038495108 -0.13195769 -0.012454033 1.5582419e-38
-0.036466449 -0.13115202 -0.0094408989 1.4480019e-38
-0.034641191 -0.13115202 -0.0094408989 1.4022623e-38
-0.032629475 -0.13035102 -0.0064451694 1.4210592e-38
-0.030809462 -0.13035102 -0.0064451694 1.5502393e-38
-0.028989449 -0.13035102 -0.0064451694 1.5319426e-38
-0.026945375 -0.1292996 -0.0025129318 1.5778982e-38
-0.025132269 -0.1292996 -0.0025129318 1.8356192e-38
-0.023319155 -0.1292996 -0.0025129318 1.7616848e-38
-0.021347687 -0.12848105 0.00054848194 1.5773289e-38
-0.019393101 -0.12769531 0.0034871101 1.6050599e-38
-0.017590508 -0.12769531 0.0034871101 1.7433184e-38
-0.015647322 -0.12688623 0.0065129995 1.5682535e-38
-0.013850041 -0.12688623 0.0065129995 1.4485043e-38
-0.012052752 -0.12688623 0.0065129995 1.6512994e-38
-0.010255471 -0.12688623 0.0065129995 1.8631736e-38
-0.0084581785 -0.12688623 0.0065129995 1.9829915e-38
-0.0066608936 -0.12688623 0.0065129995 2.2315915e-38
-0.0048636086 -0.12688623 0.0065129995 2.240775e-38
-0.00306632 -0.12688623 0.0065129995 2.2407792e-38
-0.001269035 -0.12688623 0.0065129995 1.8997999e-38
0.00062055513 -0.12608187 0.009521246 1.8354036e-38
0.0024125688 -0.12608187 0.009521246 1.92749e-38
0.0042045787 -0.12608187 0.009521246 2.0563843e-38
0.0059201121 -0.12688623 0.0065129995 2.1853512e-38
0.0077174008 -0.12688623 0.0065129995 2.102556e-38
0.0095146894 -0.12688623 0.0065129995 2.1487627e-38
0.01137263 -0.12608187 0.009521246 2.2315965e-38
0.013164643 -0.12608187 0.009521246 1.8724636e-38
0.015006468 -0.12528224 0.012511849 1.6236763e-38
0.016793236 -0.12528224 0.012511849 1.8356906e-38
0.018619101 -0.1244873 0.015484929 2.0199769e-38
0.020400658 -0.1244873 0.015484929 2.1121018e-38
0.022182215 -0.1244873 0.015484929 1.9922829e-38
0.02396377 -0.1244873 0.015484929 1.5314124e-38
0.025745325 -0.1244873 0.015484929 1.4763111e-38
0.027526882 -0.1244873 0.015484929 1.2460367e-38
0.029316479 -0.12366976 0.018542409 1.126468e-38
0.031092674 -0.12366976 0.018542409 1.3938337e-38
0.032866202 -0.12285714 0.021581531 1.5594253e-38
0.034637071 -0.12285714 0.021581531 1.5683571e-38
0.03640794 -0.12285714 0.021581531 1.4480353e-38
0.038178805 -0.12285714 0.021581531 9.7744197e-39
-0.044421107 -0.13539489 -0.018423676 9.211207e-39
-0.042371392 -0.13460387 -0.015484571 8.844228e-39
-0.040325642 -0.13378824 -0.012454033 1.0046727e-38
-0.038495108 -0.13378824 -0.012454033 1.5582419e-38
-0.036466449 -0.13297729 -0.0094408989 1.530906e-38
-0.034641191 -0.13297729 -0.0094408989 1.3929708e-38
-0.032815933 -0.13297729 -0.0094408989 1.3840733e-38
-0.030809462 -0.13217102 -0.0064451694 1.5594591e-38
-0.028989449 -0.13217102 -0.0064451694 1.5503463e-38
-0.027169451 -0.13217102 -0.0064451694 1.5502395e-38
-0.025132269 -0.13111271 -0.0025129318 1.7896284e-38
-0.023319155 -0.13111271 -0.0025129318 2.0937319e-38
-0.021347687 -0.13028879 0.00054848194 2.167309e-38
-0.019393101 -0.1294979 0.0034871101 2.1122072e-38
-0.017590508 -0.1294979 0.0034871101 2.1397592e-38
-0.015647322 -0.12868352 0.0065129995 1.9185966e-38
-0.013850041 -0.12868352 0.0065129995 1.5499195e-38
-0.012052752 -0.12868352 0.0065129995 1.383932e-38
-0.010255471 -0.12868352 0.0065129995 1.5035745e-38
-0.0084581785 -0.12868352 0.0065129995 1.4943899e-38
-0.0066608936 -0.12868352 0.0065129995 1.7618959e-38
-0.0048636086 -0.12868352 0.0065129995 2.1029831e-38
-0.00306632 -0.12868352 0.0065129995 2.1948597e-38
-0.0011714548 -0.12787388 0.009521246 1.7799079e-38
0.00062055513 -0.12787388 0.009521246 1.5587072e-38
0.0024125688 -0.12787388 0.009521246 1.6600852e-38
0.0042045787 -0.12787388 0.009521246 2.019505e-38
0.0059201121 -0.12868352 0.0065129995 2.1024105e-38
0.0077174008 -0.12868352 0.0065129995 2.0379114e-38
0.0095146894 -0.12868352 0.0065129995 2.0933378e-38
0.01137263 -0.12787388 0.009521246 2.1673104e-38
0.013164643 -0.12787388 0.009521246 1.8539878e-38
0.014956653 -0.12787388 0.009521246 1.5960527e-38
0.016793236 -0.12706901 0.012511849 1.7804083e-38
0.018580005 -0.12706901 0.012511849 2.0752227e-38
0.020400658 -0.12626885 0.015484929 2.139761e-38
0.022182215 -0.12626885 0.015484929 1.9185264e-38
0.02396377 -0.12626885 0.015484929 1.3193622e-38
0.025745325 -0.12626885 0.015484929 1.2919547e-38
0.027526882 -0.12626885 0.015484929 1.2737303e-38
0.029316479 -0.12544595 0.018542409 1.2740166e-38
0.031092674 -0.12544595 0.018542409 1.5044685e-38
0.03286887 -0.12544595 0.018542409 1.4764491e-38
0.034645066 -0.12544595 0.018542409 1.5315144e-38
0.036421262 -0.12544595 0.018542409 1.4665099e-38
0.038197454 -0.12544595 0.018542409 1.0327951e-38
-0.046043098 -0.13643973 -0.015484571 9.85441e-39
-0.044207245 -0.13643973 -0.015484571 9.0260927e-39
-0.042371392 -0.13643973 -0.015484571 9.2133678e-39
-0.040325642 -0.13561879 -0.012454033 9.3091606e-39
-0.038495108 -0.13561879 -0.012454033 1.5766808e-38
-0.036466449 -0.13480256 -0.0094408989 1.5493449e-38
-0.034641191 -0.13480256 -0.0094408989 1.346873e-38
-0.032815933 -0.13480256 -0.0094408989 1.3287203e-38
-0.030809462 -0.13399105 -0.0064451694 1.5409847e-38
-0.028989449 -0.13399105 -0.0064451694 1.4673349e-38
-0.027169451 -0.13399105 -0.0064451694 1.3289703e-38
-0.025132269 -0.13292582 -0.0025129318 1.6237839e-38
-0.023319155 -0.13292582 -0.0025129318 2.020047e-38
-0.021347687 -0.13209651 0.00054848194 2.1489415e-38
-0.019393101 -0.13130049 0.0034871101 2.0568898e-38
-0.017590508 -0.13130049 0.0034871101 2.0476352e-38
-0.015647322 -0.13048081 0.0065129995 1.8910458e-38
-0.013850041 -0.13048081 0.0065129995 1.5868706e-38
-0.012052752 -0.13048081 0.0065129995 1.3932243e-38
-0.010255471 -0.13048081 0.0065129995 1.4391094e-38
-0.0084581785 -0.13048081 0.0065129995 1.3653161e-38
-0.0066608936 -0.13048081 0.0065129995 1.4944928e-38
-0.0048636086 -0.13048081 0.0065129995 1.9093723e-38
-0.00306632 -0.13048081 0.0065129995 1.9829166e-38
-0.0011714548 -0.1296659 0.009521246 1.6970746e-38
0.00062055513 -0.1296659 0.009521246 1.4850574e-38
0.0024125688 -0.1296659 0.009521246 1.6325696e-38
0.0042045787 -0.1296659 0.009521246 1.9181611e-38
0.0059201121 -0.13048081 0.0065129995 2.0195061e-38
0.0077174008 -0.13048081 0.0065129995 2.0103251e-38
0.0095146894 -0.13048081 0.0065129995 2.1026297e-38
0.011311974 -0.13048081 0.0065129995 2.2040455e-38
0.013109259 -0.13048081 0.0065129995 1.9093052e-38
0.014956653 -0.1296659 0.009521246 1.6697371e-38
0.016793236 -0.12885578 0.012511849 1.8080309e-38
0.018580005 -0.12885578 0.012511849 1.9828839e-38
0.020366773 -0.12885578 0.012511849 2.1303262e-38
0.022182215 -0.1280504 0.015484929 1.9736644e-38
0.02396377 -0.1280504 0.015484929 1.3561684e-38
0.025745325 -0.1280504 0.015484929 1.365567e-38
0.027526882 -0.1280504 0.015484929 1.40266e-38
0.029316479 -0.12722217 0.018542409 1.3567768e-38
0.031092674 -0.12722217 0.018542409 1.4121291e-38
0.03286887 -0.12722217 0.018542409 1.4211317e-38
0.034645066 -0.12722217 0.018542409 1.4946359e-38
0.036421262 -0.12722217 0.018542409 1.4388512e-38
0.038197454 -0.12722217 0.018542409 1.014356e-38
-0.046043098 -0.13827558 -0.015484571 1.0038801e-38
-0.044207245 -0.13827558 -0.015484571 8.9338943e-39
-0.04215619 -0.13744931 -0.012454033 9.6743404e-39
-0.040325642 -0.13744931 -0.012454033 9.8616113e-39
-0.038495108 -0.13744931 -0.012454033 1.5766085e-38
-0.036466449 -0.13662781 -0.0094408989 1.5124667e-38
-0.034641191 -0.13662781 -0.0094408989 1.3560929e-38
-0.032815933 -0.13662781 -0.0094408989 1.3748183e-38
-0.030809462 -0.13581105 -0.0064451694 1.5685719e-38
-0.028989449 -0.13581105 -0.0064451694 1.393507e-38
-0.027169451 -0.13581105 -0.0064451694 1.1722023e-38
-0.025349438 -0.13581105 -0.0064451694 1.1903565e-38
-0.023319155 -0.13473894 -0.0025129318 1.310069e-38
-0.021506041 -0.13473894 -0.0025129318 1.3376923e-38
-0.019539952 -0.13390426 0.00054848194 1.3376571e-38
-0.017590508 -0.13310309 0.0034871101 1.3561684e-38
-0.015787922 -0.13310309 0.0034871101 1.2732643e-38
-0.013985328 -0.13310309 0.0034871101 1.2272017e-38
-0.012052752 -0.1322781 0.0065129995 1.3009586e-38
-0.010255471 -0.1322781 0.0065129995 1.3930485e-38
-0.0084581785 -0.1322781 0.0065129995 1.3838997e-38
-0.0066608936 -0.1322781 0.0065129995 1.3470888e-38
-0.0048636086 -0.1322781 0.0065129995 1.5867966e-38
-0.00306632 -0.1322781 0.0065129995 1.5774717e-38
-0.0011714548 -0.13145791 0.009521246 1.5589244e-38
0.00062055513 -0.13145791 0.009521246 1.4023329e-38
0.0024125688 -0.13145791 0.009521246 1.5405532e-38
0.0042045787 -0.13145791 0.009521246 1.7155101e-38
0.0059201121 -0.1322781 0.0065129995 1.8629527e-38
0.0077174008 -0.1322781 0.0065129995 1.9643343e-38
0.0095146894 -0.1322781 0.0065129995 2.1119565e-38
0.011311974 -0.1322781 0.0065129995 2.1581267e-38
0.013109259 -0.1322781 0.0065129995 1.9001212e-38
0.014956653 -0.13145791 0.009521246 1.6974314e-38
0.016793236 -0.13064255 0.012511849 1.8171425e-38
0.018580005 -0.13064255 0.012511849 1.9643363e-38
0.020366773 -0.13064255 0.012511849 2.1854633e-38
0.022153543 -0.13064255 0.012511849 2.2407797e-38
0.02396377 -0.12983195 0.015484929 1.8537367e-38
0.025745325 -0.12983195 0.015484929 1.8815023e-38
0.027526882 -0.12983195 0.015484929 1.7618629e-38
0.029316479 -0.12899835 0.018542409 1.5223687e-38
0.031092674 -0.12899835 0.018542409 1.4117688e-38
0.03286887 -0.12899835 0.018542409 1.5039996e-38
0.034645066 -0.12899835 0.018542409 1.5407337e-38
0.036421262 -0.12899835 0.018542409 1.4480707e-38
0.038197454 -0.12899835 0.018542409 9.7747771e-39
0.03997365 -0.12899835 0.018542409 1.0415112e-38
-0.045817271 -0.13927986 -0.012454033 9.7622116e-39
-0.043986738 -0.13927986 -0.012454033 8.657306e-39
-0.041942224 -0.13845308 -0.0094408989 9.3981094e-39
-0.040116966 -0.13845308 -0.0094408989 9.5850216e-39
-0.038089484 -0.13763104 -0.0064451694 1.5120712e-38
-0.036269486 -0.13763104 -0.0064451694 1.4940276e-38
-0.034641191 -0.13845308 -0.0094408989 1.4206298e-38
-0.032815933 -0.13845308 -0.0094408989 1.4116609e-38
-0.030990675 -0.13845308 -0.0094408989 1.5132192e-38
-0.028989449 -0.13763104 -0.0064451694 1.3842521e-38
-0.027169451 -0.13763104 -0.0064451694 1.2919497e-38
-0.025349438 -0.13763104 -0.0064451694 1.2085448e-38
-0.023319155 -0.13655205 -0.0025129318 1.2268064e-38
-0.021506041 -0.13655205 -0.0025129318 1.2729056e-38
-0.019539952 -0.13571201 0.00054848194 1.3743572e-38
-0.017590508 -0.13490568 0.0034871101 1.4021238e-38
-0.015787922 -0.13490568 0.0034871101 1.2915612e-38
-0.013985328 -0.13490568 0.0034871101 1.217877e-38
-0.012182735 -0.13490568 0.0034871101 1.2824504e-38
-0.010380149 -0.13490568 0.0034871101 1.3469523e-38
-0.0084581785 -0.13407536 0.0065129995 1.3194001e-38
-0.0066608936 -0.13407536 0.0065129995 1.2089415e-38
-0.0048636086 -0.13407536 0.0065129995 1.4118068e-38
-0.00306632 -0.13407536 0.0065129995 1.4486502e-38
-0.0011714548 -0.13324992 0.009521246 1.457905e-38
0.00062055513 -0.13324992 0.009521246 1.2736189e-38
0.0024125688 -0.13324992 0.009521246 1.3288632e-38
0.0042045787 -0.13324992 0.009521246 1.4576497e-38
0.0059201121 -0.13407536 0.0065129995 1.6050915e-38
0.0077174008 -0.13407536 0.0065129995 1.7341312e-38
0.0095146894 -0.13407536 0.0065129995 1.8540586e-38
0.011311974 -0.13407536 0.0065129995 1.8724988e-38
0.013109259 -0.13407536 0.0065129995 1.6512642e-38
0.014956653 -0.13324992 0.009521246 1.5498102e-38
0.016793236 -0.13242932 0.012511849 1.687996e-38
0.018580005 -0.13242932 0.012511849 2.0102525e-38
0.020366773 -0.13242932 0.012511849 2.0653915e-38
0.022182215 -0.13161351 0.015484929 2.1944285e-38
0.02396377 -0.13161351 0.015484929 2.0652822e-38
0.025745325 -0.13161351 0.015484929 2.1114876e-38
0.027526882 -0.13161351 0.015484929 1.8995804e-38
0.029316479 -0.13077454 0.018542409 1.7061111e-38
0.031092674 -0.13077454 0.018542409 1.6602643e-38
0.03286887 -0.13077454 0.018542409 1.5868318e-38
0.034645066 -0.13077454 0.018542409 1.6052353e-38
0.036421262 -0.13077454 0.018542409 1.5033525e-38
0.038197454 -0.13077454 0.018542409 1.0143202e-38
0.03997365 -0.13077454 0.018542409 1.078354e-38
-0.045817271 -0.14111041 -0.012454033 9.8544072e-39
-0.043986738 -0.14111041 -0.012454033 8.9342488e-39
-0.041942224 -0.14027832 -0.0094408989 9.397029e-39
-0.039909497 -0.13945107 -0.0064451694 9.2165936e-39
-0.038089484 -0.13945107 -0.0064451694 1.4660092e-38
-0.036269486 -0.13945107 -0.0064451694 1.4848077e-38
-0.034641191 -0.14027832 -0.0094408989 1.4114102e-38
-0.032815933 -0.14027832 -0.0094408989 1.3378328e-38
-0.030990675 -0.14027832 -0.0094408989 1.374926e-38
-0.028989449 -0.13945107 -0.0064451694 1.3842525e-38
-0.027169451 -0.13945107 -0.0064451694 1.5222957e-38
-0.025349438 -0.13945107 -0.0064451694 1.991993e-38
-0.023319155 -0.13836516 -0.0025129318 2.1392567e-38
-0.021506041 -0.13836516 -0.0025129318 2.2498931e-38
-0.019539952 -0.13751976 0.00054848194 2.3142517e-38
-0.017732203 -0.13751976 0.00054848194 2.2867005e-38
-0.015787922 -0.13670824 0.0034871101 2.240783e-38
-0.013985328 -0.13670824 0.0034871101 2.0935224e-38
-0.012182735 -0.13670824 0.0034871101 1.9092756e-38
-0.010380149 -0.13670824 0.0034871101 1.5682957e-38
-0.0084581785 -0.13587265 0.0065129995 1.3563878e-38
-0.0066608936 -0.13587265 0.0065129995 1.1629899e-38
-0.0048636086 -0.13587265 0.0065129995 1.3383039e-38
-0.00306632 -0.13587265 0.0065129995 1.4673422e-38
-0.0011714548 -0.13504194 0.009521246 1.4120956e-38
0.00062055513 -0.13504194 0.009521246 1.2462486e-38
0.0024125688 -0.13504194 0.009521246 1.2831254e-38
0.0042045787 -0.13504194 0.009521246 1.3197156e-38
0.0059201121 -0.13587265 0.0065129995 1.4117314e-38
0.0077174008 -0.13587265 0.0065129995 1.467157e-38
0.0095146894 -0.13587265 0.0065129995 1.5500623e-38
0.011311974 -0.13587265 0.0065129995 1.5315532e-38
0.013109259 -0.13587265 0.0065129995 1.4023712e-38
0.014956653 -0.13504194 0.009521246 1.3931131e-38
0.016793236 -0.13421609 0.012511849 1.5679971e-38
0.018580005 -0.13421609 0.012511849 1.6044818e-38
0.020400658 -0.13339506 0.015484929 1.3829258e-38
0.022182215 -0.13339506 0.015484929 1.4104041e-38
0.02396377 -0.13339506 0.015484929 1.3734179e-38
0.025745325 -0.13339506 0.015484929 1.4655781e-38
0.027526882 -0.13339506 0.015484929 1.3365747e-38
0.029316479 -0.13255073 0.018542409 1.392105e-38
0.031092674 -0.13255073 0.018542409 1.6229168e-38
0.03286887 -0.13255073 0.018542409 1.5405898e-38
0.034645066 -0.13255073 0.018542409 1.5683572e-38
0.036421262 -0.13255073 0.018542409 1.5125366e-38
0.038197454 -0.13255073 0.018542409 1.0419792e-38
0.03997365 -0.13255073 0.018542409 1.1152325e-38
0.041749846 -0.13255073 0.018542409 1.2162524e-38
0.043526039 -0.13255073 0.018542409 1.2435516e-38
-0.041942224 -0.1421036 -0.0094408989 9.4895806e-39
-0.039909497 -0.14127107 -0.0064451694 9.3087893e-39
-0.038089484 -0.14127107 -0.0064451694 1.4199114e-38
-0.036269486 -0.14127107 -0.0064451694 1.374173e-38
-0.034449473 -0.14127107 -0.0064451694 1.3099953e-38
-0.032815933 -0.1421036 -0.0094408989 1.319394e-38
-0.030990675 -0.1421036 -0.0094408989 1.4947449e-38
-0.028989449 -0.14127107 -0.0064451694 1.6239258e-38
-0.027169451 -0.14127107 -0.0064451694 1.8356895e-38
-0.025349438 -0.14127107 -0.0064451694 2.1576944e-38
-0.023529433 -0.14127107 -0.0064451694 2.3140701e-38
-0.021506041 -0.14017828 -0.0025129318 2.3509869e-38
-0.019539952 -0.13932751 0.00054848194 2.341804e-38
-0.017732203 -0.13932751 0.00054848194 2.305069e-38
-0.015787922 -0.13851084 0.0034871101 2.2867025e-38
-0.013985328 -0.13851084 0.0034871101 2.2316024e-38
-0.012182735 -0.13851084 0.0034871101 2.0105495e-38
-0.010380149 -0.13851084 0.0034871101 1.9093855e-38
-0.0084581785 -0.13766994 0.0065129995 1.6975854e-38
-0.0066608936 -0.13766994 0.0065129995 1.4673815e-38
-0.0048636086 -0.13766994 0.0065129995 1.3384138e-38
-0.00306632 -0.13766994 0.0065129995 1.3662158e-38
-0.001269035 -0.13766994 0.0065129995 1.2372485e-38
0.00052825361 -0.13766994 0.0065129995 1.1820365e-38
0.0023255423 -0.13766994 0.0065129995 1.228096e-38
0.0041228272 -0.13766994 0.0065129995 1.2739766e-38
0.0059201121 -0.13766994 0.0065129995 1.310638e-38
0.0077174008 -0.13766994 0.0065129995 1.3476235e-38
0.0095146894 -0.13766994 0.0065129995 1.4488959e-38
0.011311974 -0.13766994 0.0065129995 1.4580101e-38
0.013109259 -0.13766994 0.0065129995 1.3841104e-38
0.014956653 -0.13683395 0.009521246 1.4115153e-38
0.016793236 -0.13600285 0.012511849 1.540265e-38
0.018580005 -0.13600285 0.012511849 1.6320301e-38
0.020400658 -0.13517661 0.015484929 1.2813277e-38
0.022182215 -0.13517661 0.015484929 1.28104e-38
0.02396377 -0.13517661 0.015484929 1.3085193e-38
0.025745325 -0.13517661 0.015484929 1.4097924e-38
0.027526882 -0.13517661 0.015484929 1.2900083e-38
0.029316479 -0.13432692 0.018542409 1.4930503e-38
0.031092674 -0.13432692 0.018542409 1.8438247e-38
0.03286887 -0.13432692 0.018542409 1.5404453e-38
0.034645066 -0.13432692 0.018542409 1.5406632e-38
0.036421262 -0.13432692 0.018542409 1.4848785e-38
0.038197454 -0.13432692 0.018542409 1.0050656e-38
0.03997365 -0.13432692 0.018542409 1.0783188e-38
0.041749846 -0.13432692 0.018542409 1.1977778e-38
0.043526039 -0.13432692 0.018542409 1.2435522e-38
-0.041942224 -0.14392884 -0.0094408989 9.5814077e-39
