# .PCD v0.7 - Point Cloud Data file format
VERSION 0.7
FIELDS x y z rgb
SIZE 4 4 4 4
TYPE F F F F
COUNT 1 1 1 1
WIDTH 929
HEIGHT 1
VIEWPOINT 0 0 0 1 0 0 0
POINTS 929
DATA ascii
-0.041579582 -0.10602666 -0.044373494 1.356994e-38
-0.039593872 -0.10534529 -0.041440587 1.4587326e-38
-0.037522767 -0.10372485 -0.034465414 1.3296585e-38
-0.035628997 -0.10372485 -0.034465414 1.3205463e-38
-0.033674836 -0.10302909 -0.031470519 1.4127413e-38
-0.031712577 -0.10209858 -0.027465206 1.2837385e-38
-0.029831078 -0.10209858 -0.027465206 1.2654067e-38
-0.027903836 -0.10138547 -0.024395686 1.4128474e-38
-0.025989067 -0.10070263 -0.021456342 1.6802146e-38
-0.024118099 -0.10070263 -0.021456342 1.7076935e-38
-0.022208147 -0.099763289 -0.017413002 1.6984022e-38
-0.020320505 -0.099063456 -0.014400583 1.7074781e-38
-0.018443532 -0.098367572 -0.011405211 1.7626163e-38
-0.016577136 -0.097675636 -0.0084267668 1.8639238e-38
-0.014729016 -0.097675636 -0.0084267668 2.0203696e-38
-0.012880898 -0.097675636 -0.0084267668 2.1397575e-38
-0.011036335 -0.096733689 -0.0043722205 1.910129e-38
-0.0091953268 -0.096733689 -0.0043722205 1.7441769e-38
-0.0073672002 -0.096050888 -0.0014331155 1.7809118e-38
-0.0055313446 -0.096050888 -0.0014331155 2.0202981e-38
-0.0037193997 -0.095346853 0.0015974231 2.1673108e-38
-0.0018888572 -0.095346853 0.0015974231 2.2499663e-38
-9.2654489e-05 -0.094646841 0.0046105571 2.3325497e-38
0.0016932106 -0.093950883 0.0076062866 2.3508092e-38
0.0034546144 -0.093037367 0.011538524 2.3508092e-38
0.0052167336 -0.092326149 0.014599938 1.9541135e-38
0.0069703786 -0.091643453 0.017538566 1.9726566e-38
0.0087729702 -0.091643453 0.017538566 2.2859787e-38
-0.051279597 -0.10887744 -0.048387866 1.0140695e-38
-0.049224161 -0.1079378 -0.044373494 1.0052804e-38
-0.047313016 -0.1079378 -0.044373494 1.5127164e-38
-0.045401871 -0.1079378 -0.044373494 1.5313734e-38
-0.043490727 -0.1079378 -0.044373494 1.3565624e-38
-0.041579582 -0.1079378 -0.044373494 1.2923853e-38
-0.039516751 -0.1065412 -0.038406949 1.5415293e-38
-0.037522767 -0.10561861 -0.034465414 1.6245053e-38
-0.035563361 -0.1049176 -0.031470519 1.6891494e-38
-0.033674836 -0.1049176 -0.031470519 1.6155001e-38
-0.031712577 -0.10398008 -0.027465206 1.3850463e-38
-0.029779952 -0.1032616 -0.024395686 1.3298363e-38
-0.027903836 -0.1032616 -0.024395686 1.3943727e-38
-0.025989067 -0.10257359 -0.021456342 1.3483105e-38
-0.024072021 -0.10162716 -0.017413002 1.339019e-38
-0.022208147 -0.10162716 -0.017413002 1.3296916e-38
-0.020296872 -0.10022092 -0.011405211 1.3387676e-38
-0.018443532 -0.10022092 -0.011405211 1.3939774e-38
-0.016577136 -0.099523753 -0.0084267668 1.4861014e-38
-0.014718353 -0.098574698 -0.0043722205 1.6150675e-38
-0.012877344 -0.098574698 -0.0043722205 1.6704927e-38
-0.011038912 -0.097886756 -0.0014331155 1.6430488e-38
-0.0092030568 -0.097886756 -0.0014331155 1.5231943e-38
-0.0073804846 -0.097177386 0.0015974231 1.6981144e-38
-0.0055499421 -0.097177386 0.0015974231 2.0295538e-38
-0.0037431736 -0.096472099 0.0046105571 2.2315977e-38
-0.0019179136 -0.096472099 0.0046105571 2.286702e-38
-9.2654489e-05 -0.096472099 0.0046105571 2.3509168e-38
0.0016932106 -0.095770895 0.0076062866 2.3508092e-38
0.0034546144 -0.094850481 0.011538524 2.3508085e-38
0.0052167336 -0.094133899 0.014599938 1.7142237e-38
0.0069703786 -0.093446046 0.017538566 1.963221e-38
0.0087729702 -0.093446046 0.017538566 2.3509831e-38
-0.051135305 -0.10984896 -0.044373494 1.0418002e-38
-0.049224161 -0.10984896 -0.044373494 1.0145723e-38
-0.047313016 -0.10984896 -0.044373494 1.4113735e-38
-0.045401871 -0.10984896 -0.044373494 1.4945672e-38
-0.043405879 -0.10915731 -0.041440587 1.4303189e-38
-0.041499875 -0.10915731 -0.041440587 1.3751816e-38
-0.039516751 -0.1084419 -0.038406949 1.5413135e-38
-0.037522767 -0.1075124 -0.034465414 1.6611677e-38
-0.035563361 -0.10680611 -0.031470519 1.7811292e-38
-0.033674836 -0.10680611 -0.031470519 1.6890411e-38
-0.031712577 -0.10586159 -0.027465206 1.486282e-38
-0.029779952 -0.10513772 -0.024395686 1.4771697e-38
-0.027903836 -0.10513772 -0.024395686 1.4587301e-38
-0.025989067 -0.10444455 -0.021456342 1.431107e-38
-0.024072021 -0.10349102 -0.017413002 1.4034483e-38
-0.022208147 -0.10349102 -0.017413002 1.3941569e-38
-0.020296872 -0.10207425 -0.011405211 1.3941569e-38
-0.018425252 -0.10137187 -0.0084267668 1.4125244e-38
-0.016577136 -0.10137187 -0.0084267668 1.4308559e-38
-0.014718353 -0.10041572 -0.0043722205 1.4031974e-38
-0.012877344 -0.10041572 -0.0043722205 1.3664269e-38
-0.011038912 -0.099722609 -0.0014331155 1.3850089e-38
-0.0092110271 -0.099007934 0.0015974231 1.3112876e-38
-0.0073804846 -0.099007934 0.0015974231 1.5600352e-38
-0.0055684326 -0.098297372 0.0046105571 2.0111855e-38
-0.0037431736 -0.098297372 0.0046105571 2.2499656e-38
-0.0019179136 -0.098297372 0.0046105571 2.3142531e-38
-0.00012679584 -0.097590908 0.0076062866 2.350952e-38
0.0016415017 -0.096663594 0.011538524 2.3509149e-38
0.0034089889 -0.095941633 0.014599938 2.3504081e-38
0.0051173838 -0.094535068 0.020564456 1.7694658e-38
0.0069146706 -0.094535068 0.020564456 1.870844e-38
-0.051135305 -0.11176009 -0.044373494 1.0510201e-38
-0.049224161 -0.11176009 -0.044373494 9.9613319e-39
-0.047313016 -0.11176009 -0.044373494 1.3191782e-38
-0.045311879 -0.11106332 -0.041440587 1.5037868e-38
-0.043405879 -0.11106332 -0.041440587 1.6238219e-38
-0.041499875 -0.11106332 -0.041440587 1.5317703e-38
-0.039516751 -0.11034258 -0.038406949 1.5503172e-38
-0.037522767 -0.10940616 -0.034465414 1.5871951e-38
-0.035563361 -0.10869466 -0.031470519 1.7071567e-38
-0.033674836 -0.10869466 -0.031470519 1.6704578e-38
-0.031712577 -0.10774307 -0.027465206 1.6336511e-38
-0.029779952 -0.10701384 -0.024395686 1.7443212e-38
-0.027860027 -0.10631551 -0.021456342 1.6891116e-38
-0.025935896 -0.10535492 -0.017413002 1.7813069e-38
-0.024072021 -0.10535492 -0.017413002 1.7444287e-38
-0.022179097 -0.10463922 -0.014400583 1.7075504e-38
-0.020296872 -0.1039276 -0.011405211 1.679892e-38
-0.018425252 -0.10322 -0.0084267668 1.6336864e-38
-0.016559362 -0.10225673 -0.0043722205 1.5137965e-38
-0.014718353 -0.10225673 -0.0043722205 1.3570279e-38
-0.012874768 -0.10155846 -0.0014331155 1.2096586e-38
-0.01104157 -0.10083848 0.0015974231 1.2375685e-38
-0.0092110271 -0.10083848 0.0015974231 1.1638828e-38
-0.0073936908 -0.10012263 0.0046105571 1.4678749e-38
-0.0055684326 -0.10012263 0.0046105571 1.9836335e-38
-0.0037668096 -0.099410906 0.0076062866 2.2591479e-38
-0.0019468032 -0.099410906 0.0076062866 2.3234354e-38
-0.00012679584 -0.099410906 0.0076062866 2.3509143e-38
0.0016415017 -0.098476708 0.011538524 2.3508047e-38
0.0034089889 -0.097749382 0.014599938 2.3506209e-38
0.0051173838 -0.096332356 0.020564456 8.9360369e-39
0.0069146706 -0.096332356 0.020564456 1.2623145e-38
-0.051135305 -0.11367123 -0.044373494 1.0416926e-38
-0.049224161 -0.11367123 -0.044373494 9.5914732e-39
-0.047217883 -0.11296929 -0.041440587 1.3559487e-38
-0.045218799 -0.11224325 -0.038406949 1.3285435e-38
-0.043318115 -0.11224325 -0.038406949 1.6975065e-38
-0.041417431 -0.11224325 -0.038406949 1.6698475e-38
-0.03941654 -0.11129995 -0.034465414 1.5501007e-38
-0.037522767 -0.11129995 -0.034465414 1.5501004e-38
-0.035563361 -0.11058317 -0.031470519 1.5041101e-38
-0.033594076 -0.10962458 -0.027465206 1.4488643e-38
-0.031656068 -0.10888995 -0.024395686 1.5872653e-38
-0.029779952 -0.10888995 -0.024395686 1.7716922e-38
-0.027860027 -0.10818647 -0.021456342 1.7532891e-38
-0.025935896 -0.10721879 -0.017413002 1.7994945e-38
-0.024072021 -0.10721879 -0.017413002 1.8178979e-38
-0.022179097 -0.10649781 -0.014400583 1.7718001e-38
-0.020273373 -0.1050681 -0.0084267668 1.8363373e-38
-0.018425252 -0.1050681 -0.0084267668 1.7717648e-38
-0.016559362 -0.10409774 -0.0043722205 1.476739e-38
-0.014718353 -0.10409774 -0.0043722205 1.3291544e-38
-0.012874768 -0.10339431 -0.0014331155 1.3016753e-38
-0.01104157 -0.10266902 0.0015974231 1.2005472e-38
-0.0092189508 -0.10194789 0.0046105571 1.2190568e-38
-0.0073936908 -0.10194789 0.0046105571 1.3940112e-38
-0.0055684326 -0.10194789 0.0046105571 1.9468261e-38
-0.0037668096 -0.10123092 0.0076062866 2.1489405e-38
-0.0019468032 -0.10123092 0.0076062866 2.2958811e-38
-0.00012679584 -0.10123092 0.0076062866 2.3509853e-38
0.0016415017 -0.10028981 0.011538524 2.2029307e-38
0.0034089889 -0.099557132 0.014599938 1.6497148e-38
0.0052167336 -0.099557132 0.014599938 1.0318938e-38
-0.049224161 -0.11558239 -0.044373494 9.2226935e-39
-0.047217883 -0.1148753 -0.041440587 1.4019746e-38
-0.045218799 -0.11414395 -0.038406949 1.4114116e-38
-0.043318115 -0.11414395 -0.038406949 1.7526799e-38
-0.041417431 -0.11414395 -0.038406949 1.7526794e-38
-0.03941654 -0.11319371 -0.034465414 1.5315532e-38
-0.037522767 -0.11319371 -0.034465414 1.5223334e-38
-0.035563361 -0.11247168 -0.031470519 1.5408441e-38
-0.033594076 -0.11150609 -0.027465206 1.4118418e-38
-0.031656068 -0.11076607 -0.024395686 1.4210614e-38
-0.029779952 -0.11076607 -0.024395686 1.5779016e-38
-0.027860027 -0.11005743 -0.021456342 1.6700972e-38
-0.025935896 -0.10908265 -0.017413002 1.7070474e-38
-0.024037689 -0.1083564 -0.014400583 1.7347784e-38
-0.022179097 -0.1083564 -0.014400583 1.6886808e-38
-0.020273373 -0.10691623 -0.0084267668 1.7163398e-38
-0.018400371 -0.10593875 -0.0043722205 1.6978651e-38
-0.016559362 -0.10593875 -0.0043722205 1.4673761e-38
-0.014710623 -0.10523017 -0.0014331155 1.2828773e-38
-0.01287211 -0.10449956 0.0015974231 1.2000807e-38
-0.011044211 -0.10377313 0.0046105571 1.1819648e-38
-0.0092189508 -0.10377313 0.0046105571 1.2097303e-38
-0.0073936908 -0.10377313 0.0046105571 1.3846492e-38
-0.0055684326 -0.10377313 0.0046105571 1.7253773e-38
-0.0037668096 -0.10305093 0.0076062866 1.8724233e-38
-0.0019468032 -0.10305093 0.0076062866 1.8719579e-38
-0.00012679584 -0.10305093 0.0076062866 1.8344719e-38
0.0016932106 -0.10305093 0.0076062866 1.1242407e-38
0.0034546144 -0.10210292 0.011538524 8.660159e-39
0.0052677253 -0.10210292 0.011538524 8.7519945e-39
-0.051279597 -0.11846836 -0.048387866 9.7701205e-39
-0.049224161 -0.11749353 -0.044373494 9.4052869e-39
-0.04711948 -0.11604463 -0.038406949 1.521721e-38
-0.045097858 -0.11508749 -0.034465414 1.558853e-38
-0.043204088 -0.11508749 -0.034465414 1.8263646e-38
-0.041310314 -0.11508749 -0.034465414 1.8909365e-38
-0.03941654 -0.11508749 -0.034465414 1.531445e-38
-0.037451882 -0.1143602 -0.031470519 1.4761633e-38
-0.035563361 -0.1143602 -0.031470519 1.6052371e-38
-0.033594076 -0.11338757 -0.027465206 1.49471e-38
-0.031656068 -0.11264218 -0.024395686 1.4025144e-38
-0.029779952 -0.11264218 -0.024395686 1.5040015e-38
-0.027860027 -0.11192839 -0.021456342 1.6422949e-38
-0.025935896 -0.11094652 -0.017413002 1.6515145e-38
-0.024037689 -0.11021499 -0.014400583 1.688429e-38
-0.022150211 -0.10948761 -0.011405211 1.6331119e-38
-0.020273373 -0.10876434 -0.0084267668 1.6146372e-38
-0.018400371 -0.10777976 -0.0043722205 1.6515159e-38
-0.016559362 -0.10777976 -0.0043722205 1.4763086e-38
-0.014710623 -0.10706602 -0.0014331155 1.2550391e-38
-0.01287211 -0.10633011 0.0015974231 1.2091207e-38
-0.011044211 -0.10559841 0.0046105571 1.2924557e-38
-0.0092189508 -0.10559841 0.0046105571 1.3938709e-38
-0.0073936908 -0.10559841 0.0046105571 1.5687916e-38
-0.0055868169 -0.10487093 0.0076062866 1.6514073e-38
-0.0037668096 -0.10487093 0.0076062866 1.9000806e-38
-0.0019468032 -0.10487093 0.0076062866 2.0103206e-38
-0.00017161015 -0.10391603 0.011538524 1.8714558e-38
0.0016415017 -0.10391603 0.011538524 8.6620003e-39
0.0034546144 -0.10391603 0.011538524 8.1073524e-39
-0.051279597 -0.12038656 -0.048387866 9.9537929e-39
-0.049123883 -0.11868732 -0.041440587 9.6815136e-39
-0.04711948 -0.11794533 -0.038406949 1.6414674e-38
-0.045097858 -0.11698125 -0.034465414 1.7061863e-38
-0.043204088 -0.11698125 -0.034465414 1.8907936e-38
-0.041310314 -0.11698125 -0.034465414 1.9093757e-38
-0.03941654 -0.11698125 -0.034465414 1.4761277e-38
-0.037451882 -0.11624874 -0.031470519 1.3747125e-38
-0.035563361 -0.11624874 -0.031470519 1.5683233e-38
-0.033594076 -0.11526908 -0.027465206 1.5683589e-38
-0.031656068 -0.1145183 -0.024395686 1.4853828e-38
-0.029779952 -0.1145183 -0.024395686 1.5131135e-38
-0.027860027 -0.11379938 -0.021456342 1.5776505e-38
-0.025935896 -0.11281042 -0.017413002 1.6790657e-38
-0.024037689 -0.11207359 -0.014400583 1.651407e-38
-0.022121489 -0.11061247 -0.0084267668 1.6053094e-38
-0.020273373 -0.11061247 -0.0084267668 1.577687e-38
-0.018400371 -0.10962076 -0.0043722205 1.6237134e-38
-0.01654648 -0.10890187 -0.0014331155 1.4301745e-38
-0.014710623 -0.10890187 -0.0014331155 1.2641507e-38
-0.01287211 -0.10816063 0.0015974231 1.4578694e-38
-0.011044211 -0.10742365 0.0046105571 1.7531829e-38
-0.0092189508 -0.10742365 0.0046105571 1.8361238e-38
-0.0073936908 -0.10742365 0.0046105571 1.9279621e-38
-0.0055868169 -0.10669093 0.0076062866 1.6050602e-38
-0.0037668096 -0.10669093 0.0076062866 1.7985578e-38
-0.0019468032 -0.10669093 0.0076062866 2.0103552e-38
-0.00017161015 -0.10572915 0.011538524 1.9637215e-38
0.0016415017 -0.10572915 0.011538524 9.0314877e-39
0.0034546144 -0.10572915 0.011538524 8.5686949e-39
-0.051135305 -0.12131582 -0.044373494 1.0505172e-38
-0.049123883 -0.12059332 -0.041440587 9.9563041e-39
-0.04711948 -0.119846 -0.038406949 1.6781662e-38
-0.045097858 -0.11887501 -0.034465414 1.7429206e-38
-0.043204088 -0.11887501 -0.034465414 1.8354045e-38
-0.041310314 -0.11887501 -0.034465414 1.7618989e-38
-0.03941654 -0.11887501 -0.034465414 1.4301023e-38
-0.037522767 -0.11887501 -0.034465414 1.3840045e-38
-0.035563361 -0.11813726 -0.031470519 1.5130784e-38
-0.033594076 -0.11715056 -0.027465206 1.4577967e-38
-0.031712577 -0.11715056 -0.027465206 1.3932595e-38
-0.029779952 -0.11639442 -0.024395686 1.4669081e-38
-0.027860027 -0.11567034 -0.021456342 1.5038219e-38
-0.025935896 -0.11467429 -0.017413002 1.7527501e-38
-0.024003554 -0.1131943 -0.011405211 1.6328958e-38
-0.022121489 -0.11246057 -0.0084267668 1.595982e-38
-0.020273373 -0.11246057 -0.0084267668 1.577651e-38
-0.018400371 -0.11146177 -0.0043722205 1.6052018e-38
-0.01654648 -0.11073773 -0.0014331155 1.3379067e-38
-0.014710623 -0.11073773 -0.0014331155 1.2732977e-38
-0.01287211 -0.10999118 0.0015974231 1.7804462e-38
-0.011044211 -0.10924892 0.0046105571 2.0938408e-38
-0.0092189508 -0.10924892 0.0046105571 2.167312e-38
-0.0074068224 -0.10851096 0.0076062866 2.1764978e-38
-0.0055868169 -0.10851096 0.0076062866 1.586336e-38
-0.0037668096 -0.10851096 0.0076062866 1.5495233e-38
-0.0019468032 -0.10851096 0.0076062866 1.7521354e-38
-0.00017161015 -0.10754226 0.011538524 1.7425941e-38
0.0016415017 -0.10754226 0.011538524 8.1105964e-39
-0.057778645 -0.12870578 -0.066456899 1.1791254e-38
-0.055828784 -0.12870578 -0.066456899 1.2435904e-38
-0.053463034 -0.12596865 -0.055424433 1.1977076e-38
-0.051135305 -0.12322696 -0.044373494 1.078104e-38
-0.049123883 -0.1224993 -0.041440587 9.8623106e-39
-0.04711948 -0.12174667 -0.038406949 1.6319244e-38
-0.045097858 -0.1207688 -0.034465414 1.6874953e-38
-0.043204088 -0.1207688 -0.034465414 1.7431372e-38
-0.041310314 -0.1207688 -0.034465414 1.688215e-38
-0.03941654 -0.1207688 -0.034465414 1.5408455e-38
-0.037522767 -0.1207688 -0.034465414 1.5961629e-38
-0.035563361 -0.12002577 -0.031470519 1.6238216e-38
-0.033674836 -0.12002577 -0.031470519 1.4117353e-38
-0.031712577 -0.11903207 -0.027465206 1.310248e-38
-0.029831078 -0.11903207 -0.027465206 1.4209185e-38
-0.027860027 -0.1175413 -0.021456342 1.531445e-38
-0.025896281 -0.11579077 -0.014400583 1.7527501e-38
-0.024003554 -0.11504765 -0.011405211 1.6144567e-38
-0.022121489 -0.1143087 -0.0084267668 1.5960176e-38
-0.02024138 -0.11330278 -0.0043722205 1.586798e-38
-0.018400371 -0.11330278 -0.0043722205 1.5683233e-38
-0.01654648 -0.11257361 -0.0014331155 1.2640777e-38
-0.014710623 -0.11257361 -0.0014331155 1.2179799e-38
-0.01287211 -0.11182173 0.0015974231 1.9739492e-38
-0.011044211 -0.11107419 0.0046105571 2.0752593e-38
-0.0092189508 -0.11107419 0.0046105571 2.1672776e-38
-0.0074068224 -0.11033095 0.0076062866 2.2775197e-38
-0.0055868169 -0.11033095 0.0076062866 1.7520381e-38
-0.0037978347 -0.10935538 0.011538524 1.5309055e-38
-0.0019847229 -0.10935538 0.011538524 1.6230261e-38
-0.00017161015 -0.10935538 0.011538524 1.5582383e-38
0.0016415017 -0.10935538 0.011538524 8.1116712e-39
-0.057778645 -0.13065563 -0.066456899 1.1882734e-38
-0.055828784 -0.13065563 -0.066456899 1.2066402e-38
-0.053463034 -0.12789918 -0.055424433 1.1883801e-38
-0.051532514 -0.12789918 -0.055424433 1.105655e-38
-0.049601991 -0.12789918 -0.055424433 9.6775592e-39
-0.04711948 -0.12364738 -0.038406949 1.5857547e-38
-0.045097858 -0.12266256 -0.034465414 1.6873877e-38
-0.043204088 -0.12266256 -0.034465414 1.7706883e-38
-0.041310314 -0.12266256 -0.034465414 1.7159104e-38
-0.03941654 -0.12266256 -0.034465414 1.5686488e-38
-0.037522767 -0.12266256 -0.034465414 1.6792117e-38
-0.035563361 -0.12191428 -0.031470519 1.7253092e-38
-0.033674836 -0.12191428 -0.031470519 1.494748e-38
-0.031712577 -0.12091358 -0.027465206 1.3288312e-38
-0.029779952 -0.12014665 -0.024395686 1.4486133e-38
-0.027860027 -0.11941226 -0.021456342 1.577651e-38
-0.025896281 -0.11764936 -0.014400583 1.7159442e-38
-0.024003554 -0.11690097 -0.011405211 1.6237483e-38
-0.022121489 -0.1161568 -0.0084267668 1.6697738e-38
-0.02024138 -0.11514379 -0.0043722205 1.6052369e-38
-0.018400371 -0.11514379 -0.0043722205 1.5775779e-38
-0.01654648 -0.11440946 -0.0014331155 1.2733323e-38
-0.014710623 -0.11440946 -0.0014331155 1.1811367e-38
-0.01287211 -0.11365227 0.0015974231 1.9923167e-38
-0.011044211 -0.11289944 0.0046105571 2.1394745e-38
-0.0092189508 -0.11289944 0.0046105571 2.1577368e-38
-0.0074068224 -0.11215095 0.0076062866 2.2774125e-38
-0.0055868169 -0.11215095 0.0076062866 1.9178832e-38
-0.0037978347 -0.11116849 0.011538524 1.5492732e-38
-0.0019847229 -0.11116849 0.011538524 1.512356e-38
-0.00017161015 -0.11116849 0.011538524 1.3277503e-38
0.0016415017 -0.11116849 0.011538524 7.6510574e-39
-0.05790006 -0.13334687 -0.069403514 1.1789811e-38
-0.055945028 -0.13334687 -0.069403514 1.1605419e-38
-0.053878922 -0.13260551 -0.066456899 1.1607568e-38
-0.051929057 -0.13260551 -0.066456899 1.1056906e-38
-0.049224161 -0.12704925 -0.044373494 9.5853635e-39
-0.04711948 -0.12554805 -0.038406949 1.585755e-38
-0.045097858 -0.12455635 -0.034465414 1.724266e-38
-0.043204088 -0.12455635 -0.034465414 1.8444448e-38
-0.041310314 -0.12455635 -0.034465414 1.7066554e-38
-0.03941654 -0.12455635 -0.034465414 1.4579789e-38
-0.037522767 -0.12455635 -0.034465414 1.5409182e-38
-0.035563361 -0.12380283 -0.031470519 1.6884667e-38
-0.033674836 -0.12380283 -0.031470519 1.5500651e-38
-0.031712577 -0.12279506 -0.027465206 1.3841485e-38
-0.029779952 -0.12202276 -0.024395686 1.4486133e-38
-0.027860027 -0.12128322 -0.021456342 1.5315892e-38
-0.025896281 -0.11950795 -0.014400583 1.7067244e-38
-0.024003554 -0.11875431 -0.011405211 1.6791013e-38
-0.022121489 -0.11800493 -0.0084267668 1.7527499e-38
-0.02024138 -0.1169848 -0.0043722205 1.6328955e-38
-0.018400371 -0.1169848 -0.0043722205 1.6144564e-38
-0.01654648 -0.11624531 -0.0014331155 1.3378692e-38
-0.014710623 -0.11624531 -0.0014331155 1.1903917e-38
-0.01287211 -0.11548282 0.0015974231 1.9645854e-38
-0.011044211 -0.11472471 0.0046105571 2.259149e-38
-0.0092189508 -0.11472471 0.0046105571 2.1760315e-38
-0.0074068224 -0.11397095 0.0076062866 2.2497529e-38
-0.0055868169 -0.11397095 0.0076062866 2.0469198e-38
-0.0037668096 -0.11397095 0.0076062866 1.6321777e-38
-0.0019468032 -0.11397095 0.0076062866 1.576858e-38
-0.00012679584 -0.11397095 0.0076062866 1.3645215e-38
0.0016932106 -0.11397095 0.0076062866 9.40278e-39
-0.05790006 -0.1353019 -0.069403514 1.1238421e-38
-0.055945028 -0.1353019 -0.069403514 1.16072e-38
-0.053878922 -0.13455538 -0.066456899 1.1885582e-38
-0.051929057 -0.13455538 -0.066456899 1.0136021e-38
-0.049224161 -0.12896039 -0.044373494 9.8623134e-39
-0.04711948 -0.12744872 -0.038406949 1.5581326e-38
-0.045097858 -0.12645011 -0.034465414 1.7244096e-38
-0.043204088 -0.12645011 -0.034465414 1.8445527e-38
-0.041310314 -0.12645011 -0.034465414 1.7803409e-38
-0.03941654 -0.12645011 -0.034465414 1.5776537e-38
-0.037522767 -0.12645011 -0.034465414 1.5316259e-38
-0.035563361 -0.12569134 -0.031470519 1.5870141e-38
-0.033674836 -0.12569134 -0.031470519 1.522405e-38
-0.031712577 -0.12467657 -0.027465206 1.4302096e-38
-0.029779952 -0.12389888 -0.024395686 1.4854554e-38
-0.027860027 -0.12315418 -0.021456342 1.5499921e-38
-0.025896281 -0.12136655 -0.014400583 1.5775779e-38
-0.024003554 -0.12060766 -0.011405211 1.7619691e-38
-0.022121489 -0.11985306 -0.0084267668 1.7250196e-38
-0.020273373 -0.11985306 -0.0084267668 1.7065451e-38
-0.018400371 -0.11882581 -0.0043722205 1.6881061e-38
-0.01654648 -0.11808117 -0.0014331155 1.3193591e-38
-0.014702653 -0.11731337 0.0015974231 1.2641116e-38
-0.012869469 -0.11654995 0.0046105571 1.8170707e-38
-0.011044211 -0.11654995 0.0046105571 2.2775137e-38
-0.0092268297 -0.11579098 0.0076062866 2.2682238e-38
-0.0074068224 -0.11579098 0.0076062866 2.3418007e-38
-0.0056109475 -0.11479472 0.011538524 1.8810724e-38
-0.0037978347 -0.11479472 0.011538524 1.7059342e-38
-0.0020425832 -0.11327456 0.017538566 1.5951904e-38
-0.00023999065 -0.11327456 0.017538566 1.2538154e-38
-0.05790006 -0.13725694 -0.069403514 1.1791592e-38
-0.055945028 -0.13725694 -0.069403514 1.1976336e-38
-0.053989995 -0.13725694 -0.069403514 1.2254719e-38
-0.052034967 -0.13725694 -0.069403514 1.0412607e-38
-0.050079938 -0.13725694 -0.069403514 9.6786452e-39
-0.047217883 -0.13012333 -0.041440587 1.4844126e-38
-0.045218799 -0.12934943 -0.038406949 1.5677489e-38
-0.043318115 -0.12934943 -0.038406949 1.6510138e-38
-0.041417431 -0.12934943 -0.038406949 1.595842e-38
-0.03941654 -0.1283439 -0.034465414 1.4853865e-38
-0.037522767 -0.1283439 -0.034465414 1.4947111e-38
-0.035563361 -0.12757985 -0.031470519 1.5224403e-38
-0.033674836 -0.12757985 -0.031470519 1.4854902e-38
-0.031712577 -0.12655805 -0.027465206 1.49471e-38
-0.029779952 -0.12577499 -0.024395686 1.5684312e-38
-0.027860027 -0.12502514 -0.021456342 1.5960899e-38
-0.025896281 -0.12322514 -0.014400583 1.5867975e-38
-0.024003554 -0.12246101 -0.011405211 1.7711887e-38
-0.022121489 -0.12170117 -0.0084267668 1.7250198e-38
-0.02024138 -0.12066682 -0.0043722205 1.7065456e-38
-0.018400371 -0.12066682 -0.0043722205 1.7157298e-38
-0.01654648 -0.11991702 -0.0014331155 1.3562017e-38
-0.014702653 -0.11914389 0.0015974231 1.2271255e-38
-0.012869469 -0.11837523 0.0046105571 1.6418982e-38
-0.011044211 -0.11837523 0.0046105571 1.9918133e-38
-0.0092268297 -0.11761098 0.0076062866 2.2775133e-38
-0.0074068224 -0.11761098 0.0076062866 2.3509821e-38
-0.0056109475 -0.11660783 0.011538524 1.8258251e-38
-0.0037978347 -0.11660783 0.011538524 1.5768603e-38
-0.0020425832 -0.11507715 0.017538566 1.6135942e-38
-0.00027447566 -0.11430521 0.020564456 1.3367912e-38
0.0015228111 -0.11430521 0.020564456 8.38647e-39
0.059342593 -0.10894983 0.041556973 2.3509521e-38
0.060885824 -0.10818814 0.044542689 2.2125864e-38
0.062641069 -0.10818814 0.044542689 2.3509886e-38
0.066384517 -0.10894983 0.041556973 2.0010441e-38
0.068144992 -0.10894983 0.041556973 8.8569308e-39
0.070150346 -0.10971604 0.038553495 4.1578137e-39
-0.054143686 -0.14025922 -0.073480591 1.1793387e-38
-0.052181512 -0.14025922 -0.073480591 1.0043828e-38
-0.050219331 -0.14025922 -0.073480591 9.4020611e-39
-0.047217883 -0.13202934 -0.041440587 1.4199838e-38
-0.045218799 -0.1312501 -0.038406949 1.5216514e-38
-0.043318115 -0.1312501 -0.038406949 1.6048804e-38
-0.041417431 -0.1312501 -0.038406949 1.5036464e-38
-0.039516751 -0.1312501 -0.038406949 1.4300691e-38
-0.037522767 -0.13023765 -0.034465414 1.4393219e-38
-0.035563361 -0.1294684 -0.031470519 1.4209532e-38
-0.033674836 -0.1294684 -0.031470519 1.3840752e-38
-0.031712577 -0.12843956 -0.027465206 1.439357e-38
-0.029779952 -0.12765111 -0.024395686 1.5222258e-38
-0.027860027 -0.1268961 -0.021456342 1.4853475e-38
-0.025896281 -0.12508373 -0.014400583 1.559139e-38
-0.024003554 -0.12431435 -0.011405211 1.7250912e-38
-0.022121489 -0.1235493 -0.0084267668 1.6881061e-38
-0.02024138 -0.12250783 -0.0043722205 1.6696317e-38
-0.018400371 -0.12250783 -0.0043722205 1.6972908e-38
-0.01654648 -0.12175287 -0.0014331155 1.3654214e-38
-0.014702653 -0.12097444 0.0015974231 1.1533692e-38
-0.012869469 -0.12020047 0.0046105571 1.3930063e-38
-0.011044211 -0.12020047 0.0046105571 1.8444081e-38
-0.0092268297 -0.11943097 0.0076062866 2.1761696e-38
-0.0074068224 -0.11943097 0.0076062866 2.3050632e-38
-0.0055868169 -0.11943097 0.0076062866 1.6968225e-38
-0.0037978347 -0.11842094 0.011538524 1.4939557e-38
-0.0020425832 -0.11687975 0.017538566 1.5860427e-38
-0.00027447566 -0.1161025 0.020564456 1.3644852e-38
0.0015228111 -0.1161025 0.020564456 8.202792e-39
0.0033200979 -0.1161025 0.020564456 9.3051893e-39
0.0051173838 -0.1161025 0.020564456 1.0409023e-38
0.048779715 -0.11071031 0.041556973 2.3508381e-38
0.050540194 -0.11071031 0.041556973 2.3509837e-38
0.054061152 -0.11071031 0.041556973 2.3509521e-38
0.055821635 -0.11071031 0.041556973 2.3508092e-38
0.059342593 -0.11071031 0.041556973 2.3509521e-38
0.060885824 -0.10994337 0.044542689 2.2863426e-38
0.062641069 -0.10994337 0.044542689 2.3509883e-38
0.064624034 -0.11071031 0.041556973 2.3234379e-38
0.066384517 -0.11071031 0.041556973 2.2591172e-38
0.068144992 -0.11071031 0.041556973 1.5218063e-38
0.069905475 -0.11071031 0.041556973 1.0979926e-38
-0.061992411 -0.14222141 -0.073480591 1.0134268e-38
-0.058232132 -0.14325126 -0.077462777 1.2068193e-38
-0.056262966 -0.14325126 -0.077462777 1.1330979e-38
-0.054143686 -0.14222141 -0.073480591 1.1147664e-38
-0.052034967 -0.141167 -0.069403514 9.3988241e-39
-0.049841534 -0.13936369 -0.062430602 8.8492502e-39
-0.047217883 -0.13393532 -0.041440587 1.3923251e-38
-0.045218799 -0.13315077 -0.038406949 1.5308352e-38
-0.043318115 -0.13315077 -0.038406949 1.6694173e-38
-0.041417431 -0.13315077 -0.038406949 1.6695985e-38
-0.039516751 -0.13315077 -0.038406949 1.5222647e-38
-0.037522767 -0.13213144 -0.034465414 1.4762001e-38
-0.035563361 -0.13135691 -0.031470519 1.467051e-38
-0.033674836 -0.13135691 -0.031470519 1.4486122e-38
-0.031712577 -0.13032107 -0.027465206 1.4854551e-38
-0.029730991 -0.12876706 -0.021456342 1.5222259e-38
-0.027799767 -0.12772138 -0.017413002 1.4761281e-38
-0.025896281 -0.12694232 -0.014400583 1.5222611e-38
-0.024003554 -0.12616767 -0.011405211 1.6882132e-38
-0.022121489 -0.1253974 -0.0084267668 1.6696673e-38
-0.02024138 -0.12434883 -0.0043722205 1.6327539e-38
-0.018400371 -0.12434883 -0.0043722205 1.6511574e-38
-0.01654648 -0.12358873 -0.0014331155 1.3746057e-38
-0.014702653 -0.12280498 0.0015974231 1.1625891e-38
-0.012869469 -0.12202574 0.0046105571 1.3008109e-38
-0.011046837 -0.121251 0.0076062866 1.5863322e-38
-0.0092268297 -0.121251 0.0076062866 1.6507621e-38
-0.0074068224 -0.121251 0.0076062866 1.678456e-38
-0.0056109475 -0.12023406 0.011538524 1.3926845e-38
-0.0038451748 -0.11868234 0.017538566 1.4295259e-38
-0.0020425832 -0.11868234 0.017538566 1.4939543e-38
-0.00027447566 -0.11789979 0.020564456 1.355373e-38
0.0015228111 -0.11789979 0.020564456 9.3094941e-39
0.003275265 -0.1171218 0.023572702 9.6743222e-39
0.0050672768 -0.1171218 0.023572702 1.0501569e-38
0.048779715 -0.11247079 0.041556973 2.3509838e-38
0.050540194 -0.11247079 0.041556973 2.3509846e-38
0.052300677 -0.11247079 0.041556973 2.3508428e-38
0.053864844 -0.11169861 0.044542689 2.3509527e-38
0.055620089 -0.11169861 0.044542689 2.3508809e-38
0.057375334 -0.11169861 0.044542689 2.3508809e-38
0.059130579 -0.11169861 0.044542689 2.3509521e-38
0.060885824 -0.11169861 0.044542689 2.3509876e-38
0.062412553 -0.11090554 0.047609288 2.350988e-38
0.064162426 -0.11090554 0.047609288 2.2496099e-38
0.066151559 -0.11169861 0.044542689 2.2867037e-38
0.067906804 -0.11169861 0.044542689 2.2499695e-38
0.069662049 -0.11169861 0.044542689 2.2132353e-38
0.071417302 -0.11169861 0.044542689 2.0568623e-38
0.073172539 -0.11169861 0.044542689 2.2132353e-38
-0.061992411 -0.14418359 -0.073480591 1.068709e-38
-0.060030226 -0.14418359 -0.073480591 1.1700149e-38
-0.058068048 -0.14418359 -0.073480591 1.1976721e-38
-0.056105871 -0.14418359 -0.073480591 1.1147312e-38
-0.053989995 -0.14312203 -0.069403514 1.105619e-38
-0.052034967 -0.14312203 -0.069403514 9.5832182e-39
-0.049841534 -0.1413065 -0.062430602 8.9414473e-39
-0.047313016 -0.13660498 -0.044373494 1.3646308e-38
-0.045218799 -0.13505147 -0.038406949 1.5031765e-38
-0.043318115 -0.13505147 -0.038406949 1.6601977e-38
-0.041417431 -0.13505147 -0.038406949 1.7249159e-38
-0.039516751 -0.13505147 -0.038406949 1.4576556e-38
-0.037522767 -0.1340252 -0.034465414 1.3655654e-38
-0.035563361 -0.13324542 -0.031470519 1.4578315e-38
-0.033594076 -0.13220255 -0.027465206 1.5130412e-38
-0.031656068 -0.13140334 -0.024395686 1.5037864e-38
-0.029730991 -0.13063805 -0.021456342 1.5129707e-38
-0.027799767 -0.12958528 -0.017413002 1.4945316e-38
-0.025896281 -0.12880091 -0.014400583 1.5129343e-38
-0.024003554 -0.12802102 -0.011405211 1.6696669e-38
-0.022121489 -0.12724553 -0.0084267668 1.6604124e-38
-0.02024138 -0.12618984 -0.0043722205 1.6327183e-38
-0.018400371 -0.12618984 -0.0043722205 1.6234993e-38
-0.01654648 -0.12542458 -0.0014331155 1.4022648e-38
-0.014702653 -0.12463553 0.0015974231 1.236418e-38
-0.012869469 -0.12385099 0.0046105571 1.365384e-38
-0.011046837 -0.123071 0.0076062866 1.5956594e-38
-0.0092268297 -0.123071 0.0076062866 1.5402345e-38
-0.0074240593 -0.12204717 0.011538524 1.4941719e-38
-0.0056109475 -0.12204717 0.011538524 1.3466941e-38
-0.0038451748 -0.12048493 0.017538566 1.4664036e-38
-0.0020425832 -0.12048493 0.017538566 1.4386722e-38
-0.00027447566 -0.11969708 0.020564456 1.3184942e-38
0.0015228111 -0.11969708 0.020564456 9.2172929e-39
0.003275265 -0.11891381 0.023572702 9.8587092e-39
0.0050672768 -0.11891381 0.023572702 1.0686315e-38
0.043825459 -0.11577369 0.035632987 1.7421639e-38
0.045429904 -0.11501329 0.038553495 1.9449272e-38
0.047019236 -0.11423124 0.041556973 2.3509859e-38
0.048599109 -0.11345388 0.044542689 2.3509855e-38
0.050354354 -0.11345388 0.044542689 2.3509859e-38
0.052109599 -0.11345388 0.044542689 2.3509879e-38
0.053864844 -0.11345388 0.044542689 2.3509527e-38
0.055413082 -0.11265542 0.047609288 2.3140391e-38
0.057162948 -0.11265542 0.047609288 2.2955641e-38
0.058912821 -0.11265542 0.047609288 2.3509879e-38
0.060662687 -0.11265542 0.047609288 2.314001e-38
0.062192746 -0.11188738 0.050559063 2.3233288e-38
0.063937441 -0.11188738 0.050559063 2.2957428e-38
0.065912291 -0.11265542 0.047609288 2.3142544e-38
0.067662157 -0.11265542 0.047609288 2.2683366e-38
0.068924509 -0.11109848 0.053588945 2.2316024e-38
0.070663892 -0.11109848 0.053588945 2.2224189e-38
0.072403282 -0.11109848 0.053588945 2.2316021e-38
-0.061992411 -0.14614578 -0.073480591 1.0042086e-38
-0.060030226 -0.14614578 -0.073480591 1.0686002e-38
-0.058068048 -0.14614578 -0.073480591 1.0870379e-38
-0.056105871 -0.14614578 -0.073480591 1.0317555e-38
-0.053989995 -0.14507706 -0.069403514 1.0963637e-38
-0.052034967 -0.14507706 -0.069403514 1.0228588e-38
-0.049601991 -0.14141284 -0.055424433 9.4024254e-39
-0.047313016 -0.13851611 -0.044373494 1.3554469e-38
-0.045218799 -0.13695215 -0.038406949 1.4755536e-38
-0.043318115 -0.13695215 -0.038406949 1.6601615e-38
-0.041417431 -0.13695215 -0.038406949 1.7156241e-38
-0.039516751 -0.13695215 -0.038406949 1.4023382e-38
-0.037522767 -0.13591899 -0.034465414 1.3194675e-38
-0.035563361 -0.13513394 -0.031470519 1.4486122e-38
-0.033594076 -0.13408406 -0.027465206 1.5130415e-38
-0.031656068 -0.13327946 -0.024395686 1.4761279e-38
-0.029730991 -0.13250901 -0.021456342 1.4668732e-38
-0.027799767 -0.13144915 -0.017413002 1.4576536e-38
-0.025896281 -0.13065951 -0.014400583 1.4668366e-38
-0.024003554 -0.12987436 -0.011405211 1.5774717e-38
-0.022121489 -0.12909363 -0.0084267668 1.6143147e-38
-0.02024138 -0.12803085 -0.0043722205 1.6234993e-38
-0.018400371 -0.12803085 -0.0043722205 1.5958051e-38
-0.01654648 -0.12726043 -0.0014331155 1.3930096e-38
-0.014702653 -0.12646608 0.0015974231 1.2640414e-38
-0.012869469 -0.12567626 0.0046105571 1.4022626e-38
-0.011046837 -0.124891 0.0076062866 1.5957313e-38
-0.0092268297 -0.124891 0.0076062866 1.6878915e-38
-0.0074240593 -0.12386028 0.011538524 1.6510484e-38
-0.0056477673 -0.12228753 0.017538566 1.4482169e-38
-0.0038451748 -0.12228753 0.017538566 1.4757668e-38
-0.0020425832 -0.12228753 0.017538566 1.4295245e-38
-0.00027447566 -0.12149437 0.020564456 1.3277854e-38
0.0015228111 -0.12149437 0.020564456 8.3889657e-39
0.0033200979 -0.12149437 0.020564456 9.5824755e-39
0.042380616 -0.11914261 0.029536385 1.6588993e-38
0.043825459 -0.11754455 0.035632987 2.341256e-38
0.045429904 -0.11677901 0.038553495 2.1016964e-38
0.047019236 -0.11599173 0.041556973 2.350987e-38
0.048599109 -0.11520912 0.044542689 2.3509869e-38
0.050354354 -0.11520912 0.044542689 2.3509873e-38
0.052109599 -0.11520912 0.044542689 2.341805e-38
0.053864844 -0.11520912 0.044542689 2.341805e-38
0.055413082 -0.11440529 0.047609288 2.295672e-38
0.057162948 -0.11440529 0.047609288 2.3509527e-38
0.058912821 -0.11440529 0.047609288 2.3509879e-38
0.06044805 -0.11363207 0.050559063 2.350987e-38
0.061966971 -0.11283787 0.053588945 2.3509873e-38
0.063706353 -0.11283787 0.053588945 2.3509879e-38
0.065445736 -0.11283787 0.053588945 2.3234379e-38
0.067185126 -0.11283787 0.053588945 2.2498618e-38
0.068924509 -0.11283787 0.053588945 2.2132343e-38
0.070663892 -0.11283787 0.053588945 2.2499688e-38
0.072403282 -0.11283787 0.053588945 2.1764631e-38
0.074661642 -0.11440529 0.047609288 2.1948304e-38
0.076150328 -0.11363207 0.050559063 2.2316013e-38
0.07762143 -0.11283787 0.053588945 7.8412977e-39
0.079083607 -0.11204849 0.05660047 3.8754535e-39
0.080817699 -0.11204849 0.05660047 7.8387893e-39
-0.061992411 -0.14810793 -0.073480591 9.6733048e-39
-0.060030226 -0.14810793 -0.073480591 1.0040996e-38
-0.058068048 -0.14810793 -0.073480591 1.0317206e-38
-0.056105871 -0.14810793 -0.073480591 9.9487749e-39
-0.053878922 -0.14625455 -0.066456899 1.0871442e-38
-0.051675402 -0.14439236 -0.059399825 1.0228588e-38
-0.049467053 -0.14230187 -0.051477652 9.2180328e-39
-0.047313016 -0.14042725 -0.044373494 1.3001292e-38
-0.045097858 -0.13781275 -0.034465414 1.4202356e-38
-0.043204088 -0.13781275 -0.034465414 1.641722e-38
-0.041417431 -0.13885282 -0.038406949 1.7156597e-38
-0.03941654 -0.13781275 -0.034465414 1.5313401e-38
-0.037522767 -0.13781275 -0.034465414 1.4945672e-38
-0.035563361 -0.13702248 -0.031470519 1.5775782e-38
-0.033594076 -0.13596557 -0.027465206 1.6051653e-38
-0.031656068 -0.13515557 -0.024395686 1.5774712e-38
-0.029730991 -0.13437997 -0.021456342 1.5497777e-38
-0.027799767 -0.13331302 -0.017413002 1.4944603e-38
-0.025896281 -0.1325181 -0.014400583 1.4483978e-38
-0.024003554 -0.13172771 -0.011405211 1.5128991e-38
-0.022121489 -0.13094176 -0.0084267668 1.5774012e-38
-0.02024138 -0.12987186 -0.0043722205 1.6695616e-38
-0.018400371 -0.12987186 -0.0043722205 1.6511228e-38
-0.01654648 -0.12909628 -0.0014331155 1.4114493e-38
-0.014702653 -0.1282966 0.0015974231 1.2732257e-38
-0.012869469 -0.1275015 0.0046105571 1.356237e-38
-0.011046837 -0.126711 0.0076062866 1.3099611e-38
-0.0092268297 -0.126711 0.0076062866 1.5035721e-38
-0.0074240593 -0.1256734 0.011538524 1.5128268e-38
-0.0056477673 -0.12409012 0.017538566 1.346838e-38
-0.0038451748 -0.12409012 0.017538566 1.411266e-38
-0.0020425832 -0.12409012 0.017538566 1.4295245e-38
-0.00027447566 -0.12329166 0.020564456 1.4292006e-38
0.0015228111 -0.12329166 0.020564456 9.2187264e-39
0.0033200979 -0.12329166 0.020564456 9.3058886e-39
0.042380616 -0.12092416 0.029536385 1.6586832e-38
0.043825459 -0.11931543 0.035632987 1.7419128e-38
0.045429904 -0.11854477 0.038553495 2.0187932e-38
0.047019236 -0.11775221 0.041556973 2.3509521e-38
0.048599109 -0.11696436 0.044542689 2.3232933e-38
0.050163478 -0.11615516 0.047609288 2.3049626e-38
0.051913343 -0.11615516 0.047609288 2.2681212e-38
0.053864844 -0.11696436 0.044542689 2.2774125e-38
0.055413082 -0.11615516 0.047609288 2.2681214e-38
0.057162948 -0.11615516 0.047609288 2.341805e-38
0.058703355 -0.11537679 0.050559063 2.3232932e-38
0.06044805 -0.11537679 0.050559063 2.350987e-38
0.061966971 -0.11457725 0.053588945 2.350987e-38
0.063706353 -0.11457725 0.053588945 2.3141089e-38
0.065445736 -0.11457725 0.053588945 2.2773391e-38
0.067185126 -0.11457725 0.053588945 2.2958864e-38
0.068924509 -0.11457725 0.053588945 2.286703e-38
0.070663892 -0.11457725 0.053588945 2.2775189e-38
0.072403282 -0.11457725 0.053588945 2.2775185e-38
0.074405625 -0.11537679 0.050559063 2.2775185e-38
0.075882047 -0.11457725 0.053588945 2.2499674e-38
0.077349499 -0.1137826 0.05660047 9.5919314e-39
0.079083607 -0.1137826 0.05660047 1.2017774e-39
0.080817699 -0.1137826 0.05660047 7.7465937e-39
0.082551807 -0.1137826 0.05660047 6.7313684e-39
0.084285915 -0.1137826 0.05660047 8.1143056e-39
-0.053878922 -0.14820443 -0.066456899 1.1055833e-38
-0.051675402 -0.14632986 -0.059399825 9.8598022e-39
-0.049467053 -0.14422549 -0.051477652 8.3879092e-39
-0.047313016 -0.14233841 -0.044373494 1.1986416e-38
-0.045097858 -0.13970654 -0.034465414 1.3280035e-38
-0.043204088 -0.13970654 -0.034465414 1.568001e-38
-0.041417431 -0.14075352 -0.038406949 1.5127215e-38
-0.03941654 -0.13970654 -0.034465414 1.4483637e-38
-0.037522767 -0.13970654 -0.034465414 1.4944952e-38
-0.035563361 -0.13891099 -0.031470519 1.540628e-38
-0.033594076 -0.13784705 -0.027465206 1.5406283e-38
-0.031656068 -0.13703169 -0.024395686 1.5682518e-38
-0.029730991 -0.13625093 -0.021456342 1.5497778e-38
-0.027799767 -0.13517688 -0.017413002 1.4483626e-38
-0.025896281 -0.13437669 -0.014400583 1.5036799e-38
-0.024003554 -0.13358103 -0.011405211 1.5313385e-38
-0.022121489 -0.13278987 -0.0084267668 1.6234635e-38
-0.02024138 -0.13171287 -0.0043722205 1.7709771e-38
-0.018400371 -0.13171287 -0.0043722205 1.7617222e-38
-0.01654648 -0.13093217 -0.0014331155 1.4943897e-38
-0.014702653 -0.13012715 0.0015974231 1.3101041e-38
-0.012869469 -0.12932678 0.0046105571 1.3562373e-38
-0.011046837 -0.12853102 0.0076062866 1.4852409e-38
-0.0092268297 -0.12853102 0.0076062866 1.5497422e-38
-0.0074240593 -0.12748651 0.011538524 1.4668013e-38
-0.0056477673 -0.12589271 0.017538566 1.3561297e-38
-0.0038451748 -0.12589271 0.017538566 1.4298131e-38
-0.0020425832 -0.12589271 0.017538566 1.4019021e-38
-0.00027447566 -0.12508895 0.020564456 1.4107614e-38
0.0015228111 -0.12508895 0.020564456 9.5864313e-39
0.0033200979 -0.12508895 0.020564456 9.3058914e-39
0.043664157 -0.1203105 0.038553495 1.6864158e-38
0.045429904 -0.1203105 0.038553495 1.9358175e-38
0.046843864 -0.11871959 0.044542689 2.3509167e-38
0.048599109 -0.11871959 0.044542689 2.3417691e-38
0.050163478 -0.11790501 0.047609288 2.3234379e-38
0.051913343 -0.11790501 0.047609288 2.3142544e-38
0.053663217 -0.11790501 0.047609288 2.2958873e-38
0.055213965 -0.11712147 0.050559063 2.2774125e-38
0.05695866 -0.11712147 0.050559063 2.341805e-38
0.058488205 -0.11631663 0.053588945 2.3418043e-38
0.060008459 -0.11551671 0.05660047 2.3509873e-38
0.061742559 -0.11551671 0.05660047 2.350987e-38
0.063476667 -0.11551671 0.05660047 2.3509869e-38
0.065210767 -0.11551671 0.05660047 2.3326196e-38
0.066944875 -0.11551671 0.05660047 2.2313484e-38
0.068924509 -0.11631663 0.053588945 2.1208934e-38
0.070663892 -0.11631663 0.053588945 2.0933064e-38
0.072403282 -0.11631663 0.053588945 2.13022e-38
0.074405625 -0.11712147 0.050559063 2.1947567e-38
0.075882047 -0.11631663 0.053588945 2.2958853e-38
0.077349499 -0.11551671 0.05660047 1.2449273e-38
0.079083607 -0.11551671 0.05660047 5.5342489e-39
0.080817699 -0.11551671 0.05660047 7.8380705e-39
0.082551807 -0.11551671 0.05660047 7.5611291e-39
-0.051675402 -0.14826734 -0.059399825 1.0228582e-38
-0.049467053 -0.14614908 -0.051477652 9.218023e-39
-0.047313016 -0.14424954 -0.044373494 1.0787507e-38
-0.045097858 -0.1416003 -0.034465414 1.115917e-38
-0.043204088 -0.1416003 -0.034465414 1.5125391e-38
-0.041417431 -0.1426542 -0.038406949 1.4481123e-38
-0.03941654 -0.1416003 -0.034465414 1.4298527e-38
-0.037522767 -0.1416003 -0.034465414 1.4667645e-38
-0.035563361 -0.14079951 -0.031470519 1.4945302e-38
-0.033594076 -0.13972856 -0.027465206 1.5590677e-38
-0.031656068 -0.13890781 -0.024395686 1.6051304e-38
-0.029730991 -0.13812189 -0.021456342 1.5774009e-38
-0.027799767 -0.13704078 -0.017413002 1.512864e-38
-0.025896281 -0.13623528 -0.014400583 1.5958756e-38
-0.024003554 -0.13543437 -0.011405211 1.6604126e-38
-0.022121489 -0.134638 -0.0084267668 1.6511225e-38
-0.02024138 -0.13355388 -0.0043722205 1.7893806e-38
-0.018382337 -0.13276802 -0.0014331155 1.7432833e-38
-0.01654648 -0.13276802 -0.0014331155 1.4390726e-38
-0.014702653 -0.13195769 0.0015974231 1.3193236e-38
-0.012869469 -0.13115202 0.0046105571 1.328543e-38
-0.011046837 -0.13035102 0.0076062866 1.5959119e-38
-0.0092268297 -0.13035102 0.0076062866 1.5497788e-38
-0.0074240593 -0.1292996 0.011538524 1.4576539e-38
-0.0056477673 -0.12769531 0.017538566 1.4207388e-38
-0.0038451748 -0.12769531 0.017538566 1.4482166e-38
-0.0020425832 -0.12769531 0.017538566 1.346585e-38
-0.00027447566 -0.12688623 0.020564456 1.4015424e-38
0.0015228111 -0.12688623 0.020564456 9.7704667e-39
0.0033200979 -0.12688623 0.020564456 9.7665136e-39
0.043664157 -0.12207626 0.038553495 1.7324422e-38
0.045258757 -0.12127317 0.041556973 2.2491747e-38
0.046843864 -0.12047486 0.044542689 2.3508804e-38
0.048413612 -0.11965488 0.047609288 2.3509527e-38
0.049979873 -0.11886616 0.050559063 2.3142185e-38
0.051724568 -0.11886616 0.050559063 2.2681572e-38
0.05346927 -0.11886616 0.050559063 2.249826e-38
0.05500944 -0.11805601 0.053588945 2.3142544e-38
0.056748822 -0.11805601 0.053588945 2.3050349e-38
0.058274359 -0.11725079 0.05660047 2.3509883e-38
0.060008459 -0.11725079 0.05660047 2.3233288e-38
0.061742559 -0.11725079 0.05660047 2.350987e-38
0.063321866 -0.11670811 0.058630127 2.3416949e-38
0.065052412 -0.11670811 0.058630127 2.2957047e-38
0.066944875 -0.11725079 0.05660047 2.2313115e-38
0.068924509 -0.11805601 0.053588945 2.3050687e-38
0.070663892 -0.11805601 0.053588945 2.1485873e-38
0.072403282 -0.11805601 0.053588945 2.0840858e-38
0.074142665 -0.11805601 0.053588945 2.2038322e-38
0.075882047 -0.11805601 0.053588945 2.2775174e-38
0.07762143 -0.11805601 0.053588945 1.558356e-38
0.079360813 -0.11805601 0.053588945 9.0369626e-39
-0.049467053 -0.14807267 -0.051477652 9.4013324e-39
-0.047313016 -0.14616071 -0.044373494 1.1432154e-38
-0.045218799 -0.14455487 -0.038406949 1.2264795e-38
-0.043318115 -0.14455487 -0.038406949 1.5862233e-38
-0.041417431 -0.14455487 -0.038406949 1.4941739e-38
-0.03941654 -0.14349405 -0.034465414 1.3652438e-38
-0.037522767 -0.14349405 -0.034465414 1.328471e-38
-0.035563361 -0.14268802 -0.031470519 1.4207017e-38
-0.033674836 -0.14268802 -0.031470519 1.5405207e-38
-0.031712577 -0.14161004 -0.027465206 1.549813e-38
-0.029730991 -0.13999285 -0.021456342 1.4852053e-38
-0.027860027 -0.13999285 -0.021456342 1.4298882e-38
-0.025896281 -0.13809387 -0.014400583 1.5128996e-38
-0.024003554 -0.13728772 -0.011405211 1.4759857e-38
-0.022121489 -0.13648613 -0.0084267668 1.4851704e-38
-0.02024138 -0.13539489 -0.0043722205 1.7617222e-38
-0.018382337 -0.13460387 -0.0014331155 1.7617224e-38
-0.01654648 -0.13460387 -0.0014331155 1.3745356e-38
-0.014702653 -0.13378824 0.0015974231 1.2916649e-38
-0.012869469 -0.13297729 0.0046105571 1.4208106e-38
-0.011046837 -0.13217102 0.0076062866 1.4853495e-38
-0.0092268297 -0.13217102 0.0076062866 1.5683258e-38
-0.0074240593 -0.13111271 0.011538524 1.5499217e-38
-0.0056477673 -0.1294979 0.017538566 1.5313736e-38
-0.0038451748 -0.1294979 0.017538566 1.5680712e-38
-0.0020425832 -0.1294979 0.017538566 1.4848067e-38
-0.00023999065 -0.1294979 0.017538566 1.4752273e-38
0.001562601 -0.1294979 0.017538566 9.3087753e-39
0.0033651935 -0.1294979 0.017538566 9.8579932e-39
0.0051677851 -0.1294979 0.017538566 1.1053301e-38
0.043664157 -0.12384202 0.038553495 1.8797757e-38
0.045258757 -0.12303366 0.041556973 2.3505892e-38
0.046663743 -0.12140475 0.047609288 2.3509517e-38
0.048235178 -0.12061088 0.050559063 2.3232583e-38
0.049791284 -0.1197954 0.053588945 2.341805e-38
0.051530667 -0.1197954 0.053588945 2.3142544e-38
0.053270049 -0.1197954 0.053588945 2.2774125e-38
0.05480615 -0.11898489 0.05660047 2.3142544e-38
0.056540251 -0.11898489 0.05660047 2.3234379e-38
0.058274359 -0.11898489 0.05660047 2.341769e-38
0.059860773 -0.11843865 0.058630127 2.3232932e-38
0.06159132 -0.11843865 0.058630127 2.350987e-38
0.063321866 -0.11843865 0.058630127 2.2771935e-38
0.065052412 -0.11843865 0.058630127 2.2588616e-38
0.066944875 -0.11898489 0.05660047 2.2129076e-38
0.068678975 -0.11898489 0.05660047 2.305068e-38
0.070413083 -0.11898489 0.05660047 2.2407106e-38
0.072403282 -0.1197954 0.053588945 2.0470993e-38
0.074142665 -0.1197954 0.053588945 2.222235e-38
0.075882047 -0.1197954 0.053588945 2.3234354e-38
0.077349499 -0.11898489 0.05660047 1.8901524e-38
0.079083607 -0.11898489 0.05660047 1.1156739e-38
0.080817699 -0.11898489 0.05660047 7.7444301e-39
-0.049467053 -0.1499963 -0.051477652 9.8619504e-39
-0.047313016 -0.14807184 -0.044373494 1.1708021e-38
-0.045218799 -0.14645557 -0.038406949 1.2078962e-38
-0.043318115 -0.14645557 -0.038406949 1.4478579e-38
-0.041417431 -0.14645557 -0.038406949 1.4479681e-38
-0.03941654 -0.14538784 -0.034465414 1.2914154e-38
-0.037522767 -0.14538784 -0.034465414 1.30996e-38
-0.035563361 -0.14457656 -0.031470519 1.4760191e-38
-0.033674836 -0.14457656 -0.031470519 1.5681794e-38
-0.031712577 -0.14349155 -0.027465206 1.4851681e-38
-0.029730991 -0.14186381 -0.021456342 1.4205607e-38
-0.027860027 -0.14186381 -0.021456342 1.4482197e-38
-0.025935896 -0.14076851 -0.017413002 1.4852053e-38
-0.024003554 -0.13914107 -0.011405211 1.4575469e-38
-0.022121489 -0.13833423 -0.0084267668 1.4667313e-38
-0.02024138 -0.13723589 -0.0043722205 1.7156244e-38
-0.018400371 -0.13723589 -0.0043722205 1.706405e-38
-0.01654648 -0.13643973 -0.0014331155 1.3376574e-38
-0.014710623 -0.13643973 -0.0014331155 1.2640061e-38
-0.012869469 -0.13480256 0.0046105571 1.3747125e-38
-0.011046837 -0.13399105 0.0076062866 1.402445e-38
-0.0092268297 -0.13399105 0.0076062866 1.5683977e-38
-0.0074240593 -0.13292582 0.011538524 1.6144587e-38
-0.0056477673 -0.13130049 0.017538566 1.5682521e-38
-0.0038451748 -0.13130049 0.017538566 1.6049497e-38
-0.0020425832 -0.13130049 0.017538566 1.5493437e-38
-0.00023999065 -0.13130049 0.017538566 1.4844469e-38
0.001562601 -0.13130049 0.017538566 8.5712102e-39
0.0033651935 -0.13130049 0.017538566 9.9494713e-39
0.0051677851 -0.13130049 0.017538566 1.1236976e-38
0.043498274 -0.12479414 0.041556973 1.8520092e-38
0.045258757 -0.12479414 0.041556973 2.3509482e-38
0.046663743 -0.12315463 0.047609288 2.3509863e-38
0.048235178 -0.12235557 0.050559063 2.3508441e-38
0.049791284 -0.12153481 0.053588945 2.3509886e-38
0.051530667 -0.12153481 0.053588945 2.3234379e-38
0.053270049 -0.12153481 0.053588945 2.2773763e-38
0.05480615 -0.120719 0.05660047 2.3142542e-38
0.056540251 -0.120719 0.05660047 2.341805e-38
0.058274359 -0.120719 0.05660047 2.3233302e-38
0.059860773 -0.12016918 0.058630127 2.3509883e-38
0.06159132 -0.12016918 0.058630127 2.3508793e-38
0.063321866 -0.12016918 0.058630127 2.1296802e-38
0.065052412 -0.12016918 0.058630127 2.19436e-38
0.066944875 -0.120719 0.05660047 2.203723e-38
0.068678975 -0.120719 0.05660047 2.323435e-38
0.070413083 -0.120719 0.05660047 2.3142517e-38
0.072403282 -0.12153481 0.053588945 2.1208198e-38
0.074142665 -0.12153481 0.053588945 2.2774089e-38
0.075882047 -0.12153481 0.053588945 2.3418025e-38
0.077349499 -0.120719 0.05660047 2.0837269e-38
0.079083607 -0.120719 0.05660047 1.2447115e-38
0.080817699 -0.120719 0.05660047 8.2050453e-39
-0.047313016 -0.14998297 -0.044373494 1.1154131e-38
-0.045401871 -0.14998297 -0.044373494 1.0234333e-38
-0.043405879 -0.14918335 -0.041440587 1.1250294e-38
-0.041417431 -0.14835624 -0.038406949 1.0607465e-38
-0.03941654 -0.1472816 -0.034465414 1.0056089e-38
-0.037522767 -0.1472816 -0.034465414 1.162447e-38
-0.035563361 -0.14646508 -0.031470519 1.4114102e-38
-0.033674836 -0.14646508 -0.031470519 1.4114468e-38
-0.031712577 -0.14537306 -0.027465206 1.2270204e-38
