# .PCD v0.7 - Point Cloud Data file format
VERSION 0.7
FIELDS x y z rgb
SIZE 4 4 4 4
TYPE F F F F
COUNT 1 1 1 1
WIDTH 945
HEIGHT 1
VIEWPOINT 0 0 0 1 0 0 0
POINTS 945
DATA ascii
0.011152342 -0.11289944 0.008443851 2.1299301e-38
0.012896186 -0.11215095 0.01143958 2.2498197e-38
0.014716193 -0.11215095 0.01143958 2.3142489e-38
0.0165362 -0.11215095 0.01143958 2.3326161e-38
0.018356206 -0.11215095 0.01143958 2.3509837e-38
0.020176215 -0.11215095 0.01143958 2.3142492e-38
0.021996221 -0.11215095 0.01143958 2.2681516e-38
0.023667993 -0.11116849 0.015371818 2.2589324e-38
0.025481107 -0.11116849 0.015371818 2.2865553e-38
0.027168078 -0.11040358 0.018433232 2.3234341e-38
0.028975824 -0.11040358 0.018433232 2.3509856e-38
0.030783569 -0.11040358 0.018433232 2.350986e-38
0.032591313 -0.11040358 0.018433232 2.3509863e-38
0.034399055 -0.11040358 0.018433232 2.3509866e-38
0.036206804 -0.11040358 0.018433232 2.3509869e-38
0.038014546 -0.11040358 0.018433232 2.350987e-38
0.039986007 -0.11116849 0.015371818 2.3509872e-38
0.041799121 -0.11116849 0.015371818 2.3326196e-38
0.043437779 -0.11040358 0.018433232 2.3418031e-38
0.045245521 -0.11040358 0.018433232 2.3234362e-38
0.046875514 -0.10966937 0.02137186 2.3142538e-38
0.048678108 -0.10966937 0.02137186 2.2958866e-38
-0.087969825 -0.13082992 -0.055566531 7.3756364e-39
-0.086032331 -0.13082992 -0.055566531 2.3509879e-38
-0.084094837 -0.13082992 -0.055566531 2.3233296e-38
-0.082157359 -0.13082992 -0.055566531 2.2956712e-38
-0.080219865 -0.13082992 -0.055566531 2.3141467e-38
-0.078282371 -0.13082992 -0.055566531 2.3234379e-38
-0.076125324 -0.12982969 -0.051591139 2.2775202e-38
-0.074194796 -0.12982969 -0.051591139 2.2775202e-38
-0.072264276 -0.12982969 -0.051591139 2.3050349e-38
-0.070532411 -0.13082992 -0.055566531 2.3417691e-38
-0.068594918 -0.13082992 -0.055566531 2.3323336e-38
-0.066657424 -0.13082992 -0.055566531 1.9264548e-38
-0.047931708 -0.12026589 -0.013579708 9.7658158e-39
-0.046067841 -0.12026589 -0.013579708 1.0134228e-38
-0.044203967 -0.12026589 -0.013579708 1.1236973e-38
-0.042442888 -0.12128322 -0.017623048 1.1696511e-38
-0.040571921 -0.12128322 -0.017623048 1.0407212e-38
-0.038612343 -0.12026589 -0.013579708 1.1884495e-38
-0.036687724 -0.11950795 -0.010567289 1.0688096e-38
-0.034829132 -0.11950795 -0.010567289 1.2719274e-38
-0.03297054 -0.11950795 -0.010567289 1.7791842e-38
-0.03106731 -0.11875431 -0.007571917 2.2680387e-38
-0.029174803 -0.11800493 -0.0045934729 2.0101814e-38
-0.027326686 -0.11800493 -0.0045934729 1.8998701e-38
-0.025439467 -0.1169848 -0.00053892657 1.9371048e-38
-0.023598459 -0.1169848 -0.00053892657 2.0479195e-38
-0.02175745 -0.1169848 -0.00053892657 2.0111874e-38
-0.019903557 -0.11624531 0.0024001785 1.7716234e-38
-0.018067701 -0.11624531 0.0024001785 1.6057424e-38
-0.016231846 -0.11624531 0.0024001785 1.578227e-38
-0.014395989 -0.11624531 0.0024001785 1.5966305e-38
-0.012568105 -0.11548282 0.005430717 1.5966661e-38
-0.010737563 -0.11548282 0.005430717 1.6058852e-38
-0.0088884225 -0.11624531 0.0024001785 1.6611306e-38
-0.0070764776 -0.11548282 0.005430717 1.7439633e-38
-0.0052459352 -0.11548282 0.005430717 1.8912242e-38
-0.0034153927 -0.11548282 0.005430717 2.0476317e-38
-0.0016244734 -0.11472471 0.008443851 2.1763103e-38
0.0002007857 -0.11472471 0.008443851 2.0927972e-38
0.0020260457 -0.11472471 0.008443851 2.1754499e-38
0.0038513038 -0.11472471 0.008443851 2.000097e-38
0.0056161601 -0.11397095 0.01143958 1.8341095e-38
0.0074361656 -0.11397095 0.01143958 1.8341122e-38
0.0092561729 -0.11397095 0.01143958 1.7788678e-38
0.01107618 -0.11397095 0.01143958 1.8804621e-38
0.012896186 -0.11397095 0.01143958 2.2126176e-38
0.014716193 -0.11397095 0.01143958 2.3234319e-38
0.0165362 -0.11397095 0.01143958 2.3417995e-38
0.018356206 -0.11397095 0.01143958 2.3509844e-38
0.020176215 -0.11397095 0.01143958 2.3234336e-38
0.021996221 -0.11397095 0.01143958 2.2496771e-38
0.023667993 -0.1129816 0.015371818 2.212871e-38
0.025481107 -0.1129816 0.015371818 2.2497136e-38
0.027168078 -0.11221133 0.018433232 2.3050316e-38
0.028975824 -0.11221133 0.018433232 2.3418031e-38
0.030783569 -0.11221133 0.018433232 2.3418033e-38
0.032591313 -0.11221133 0.018433232 2.3418031e-38
0.034399055 -0.11221133 0.018433232 2.3234354e-38
0.036206804 -0.11221133 0.018433232 2.3142513e-38
0.038014546 -0.11221133 0.018433232 2.314251e-38
0.039822288 -0.11221133 0.018433232 2.3050676e-38
0.041630037 -0.11221133 0.018433232 2.2866998e-38
0.043437779 -0.11221133 0.018433232 2.2224128e-38
0.045072921 -0.11147197 0.02137186 2.2224133e-38
0.046875514 -0.11147197 0.02137186 2.0656466e-38
0.048678108 -0.11147197 0.02137186 1.7428542e-38
-0.087708443 -0.13176022 -0.051591139 8.5734565e-39
-0.085777923 -0.13176022 -0.051591139 2.3324404e-38
-0.083847404 -0.13176022 -0.051591139 2.3509521e-38
-0.081916884 -0.13176022 -0.051591139 2.3416971e-38
-0.079986364 -0.13176022 -0.051591139 2.3509527e-38
-0.078055844 -0.13176022 -0.051591139 2.3234379e-38
-0.076125324 -0.13176022 -0.051591139 2.2867033e-38
-0.074194796 -0.13176022 -0.051591139 2.2683361e-38
-0.072264276 -0.13176022 -0.051591139 2.3142544e-38
-0.070532411 -0.13276742 -0.055566531 2.3509886e-38
-0.068594918 -0.13276742 -0.055566531 2.3509517e-38
-0.066657424 -0.13276742 -0.055566531 1.8527335e-38
-0.064855441 -0.13353528 -0.058597308 1.889501e-38
-0.047931708 -0.12212978 -0.013579708 8.6598143e-39
-0.046067841 -0.12212978 -0.013579708 8.9360369e-39
-0.044203967 -0.12212978 -0.013579708 9.855489e-39
-0.042442888 -0.12315418 -0.017623048 1.0131721e-38
-0.040571921 -0.12315418 -0.017623048 1.0593054e-38
-0.038700961 -0.12315418 -0.017623048 1.0594844e-38
-0.036748469 -0.12212978 -0.013579708 9.9512566e-39
-0.034829132 -0.12136655 -0.010567289 1.2812198e-38
-0.03297054 -0.12136655 -0.010567289 1.5672433e-38
-0.03106731 -0.12060766 -0.007571917 1.9915967e-38
-0.029174803 -0.11985306 -0.0045934729 1.9089101e-38
-0.027326686 -0.11985306 -0.0045934729 1.6787436e-38
-0.025439467 -0.11882581 -0.00053892657 1.8173572e-38
-0.023598459 -0.11882581 -0.00053892657 1.8728889e-38
-0.02175745 -0.11882581 -0.00053892657 1.9281711e-38
-0.019903557 -0.11808117 0.0024001785 1.7805527e-38
-0.018067701 -0.11808117 0.0024001785 1.808036e-38
-0.016229188 -0.11731337 0.005430717 1.6880396e-38
-0.014398647 -0.11731337 0.005430717 1.7339932e-38
-0.012568105 -0.11731337 0.005430717 1.6511966e-38
-0.010737563 -0.11731337 0.005430717 1.6146781e-38
-0.0089070201 -0.11731337 0.005430717 1.6887929e-38
-0.0070764776 -0.11731337 0.005430717 1.6245772e-38
-0.0052459352 -0.11731337 0.005430717 1.7719446e-38
-0.0034497324 -0.11654995 0.008443851 2.0018939e-38
-0.0016244734 -0.11654995 0.008443851 1.8997234e-38
0.0002007857 -0.11654995 0.008443851 2.1660846e-38
0.0020260457 -0.11654995 0.008443851 2.3498643e-38
0.0038513038 -0.11654995 0.008443851 2.3493237e-38
0.0056161601 -0.11579098 0.01143958 2.1923047e-38
0.0074361656 -0.11579098 0.01143958 2.1738332e-38
0.0092561729 -0.11579098 0.01143958 2.0173537e-38
0.01107618 -0.11579098 0.01143958 1.907186e-38
0.012896186 -0.11579098 0.01143958 2.2488485e-38
0.014716193 -0.11579098 0.01143958 2.3416547e-38
0.0165362 -0.11579098 0.01143958 2.2680789e-38
0.018356206 -0.11579098 0.01143958 2.3509855e-38
0.020176215 -0.11579098 0.01143958 2.3509869e-38
0.021996221 -0.11579098 0.01143958 2.3418032e-38
0.023667993 -0.11479472 0.015371818 2.323436e-38
0.025481107 -0.11479472 0.015371818 2.1944701e-38
0.027168078 -0.11401908 0.018433232 2.2221657e-38
0.028975824 -0.11401908 0.018433232 2.2683007e-38
0.030783569 -0.11401908 0.018433232 2.2867037e-38
0.032591313 -0.11401908 0.018433232 2.2775192e-38
0.034399055 -0.11401908 0.018433232 2.2315991e-38
0.036206804 -0.11401908 0.018433232 2.2499641e-38
0.038014546 -0.11401908 0.018433232 2.1673099e-38
0.03966514 -0.11327456 0.02137186 2.0753663e-38
0.041467734 -0.11327456 0.02137186 2.1764941e-38
0.043270327 -0.11327456 0.02137186 2.1856765e-38
0.045072921 -0.11327456 0.02137186 1.8171447e-38
0.046692476 -0.11250792 0.024397749 1.678565e-38
0.048302524 -0.11174576 0.027405996 1.2818005e-38
0.05009453 -0.11174576 0.027405996 1.3091358e-38
-0.087708443 -0.13369073 -0.051591139 1.0232258e-38
-0.085777923 -0.13369073 -0.051591139 2.3508432e-38
-0.083847404 -0.13369073 -0.051591139 2.350952e-38
-0.081916884 -0.13369073 -0.051591139 2.3139661e-38
-0.079986364 -0.13369073 -0.051591139 2.3416971e-38
-0.078055844 -0.13369073 -0.051591139 2.341805e-38
-0.076125324 -0.13369073 -0.051591139 2.3142541e-38
-0.074194796 -0.13369073 -0.051591139 2.3142538e-38
-0.072264276 -0.13369073 -0.051591139 2.3418047e-38
-0.070333757 -0.13369073 -0.051591139 2.3509879e-38
-0.068403237 -0.13369073 -0.051591139 2.3509863e-38
-0.066657424 -0.1347049 -0.055566531 1.7513169e-38
-0.064855441 -0.13547809 -0.058597308 1.7235478e-38
-0.046067841 -0.12399365 -0.013579708 9.2126252e-39
-0.044203967 -0.12399365 -0.013579708 9.3026796e-39
-0.042442888 -0.12502514 -0.017623048 9.9476959e-39
-0.040571921 -0.12502514 -0.017623048 1.0501223e-38
-0.038700961 -0.12502514 -0.017623048 1.031862e-38
-0.036748469 -0.12399365 -0.013579708 9.4910057e-39
-0.034829132 -0.12322514 -0.010567289 1.2627815e-38
-0.03297054 -0.12322514 -0.010567289 1.5488412e-38
-0.03106731 -0.12246101 -0.007571917 1.9639743e-38
-0.029174803 -0.12170117 -0.0045934729 1.8260057e-38
-0.027280478 -0.12066682 -0.00053892657 1.6327535e-38
-0.025439467 -0.12066682 -0.00053892657 1.6607322e-38
-0.023598459 -0.12066682 -0.00053892657 1.7161198e-38
-0.021739414 -0.11991702 0.0024001785 1.8359747e-38
-0.019903557 -0.11991702 0.0024001785 2.066215e-38
-0.018067701 -0.11991702 0.0024001785 2.2775169e-38
-0.016229188 -0.11914389 0.005430717 2.286703e-38
-0.014398647 -0.11914389 0.005430717 2.3234372e-38
-0.012568105 -0.11914389 0.005430717 2.2958863e-38
-0.010737563 -0.11914389 0.005430717 2.1305814e-38
-0.0089070201 -0.11914389 0.005430717 1.93758e-38
-0.0070764776 -0.11914389 0.005430717 1.5692971e-38
-0.0052749915 -0.11837523 0.008443851 1.4032708e-38
-0.0034497324 -0.11837523 0.008443851 1.5134018e-38
-0.0016244734 -0.11837523 0.008443851 1.4941352e-38
0.0002007857 -0.11837523 0.008443851 1.7603869e-38
0.0020260457 -0.11837523 0.008443851 1.9623893e-38
0.0038513038 -0.11837523 0.008443851 2.0908511e-38
0.0056161601 -0.11761098 0.01143958 2.1827602e-38
0.0074361656 -0.11761098 0.01143958 2.29347e-38
0.0092561729 -0.11761098 0.01143958 2.1094039e-38
0.01107618 -0.11761098 0.01143958 1.9346991e-38
0.012896186 -0.11761098 0.01143958 2.2211521e-38
0.014716193 -0.11761098 0.01143958 2.3141382e-38
0.0165362 -0.11761098 0.01143958 2.2499617e-38
0.018356206 -0.11761098 0.01143958 2.3418012e-38
0.020176215 -0.11761098 0.01143958 2.3234354e-38
0.021996221 -0.11761098 0.01143958 2.3050677e-38
0.023667993 -0.11660783 0.015371818 2.2958843e-38
0.025481107 -0.11660783 0.015371818 2.2315985e-38
0.027168078 -0.11582683 0.018433232 2.2499669e-38
0.028975824 -0.11582683 0.018433232 2.240785e-38
0.030783569 -0.11582683 0.018433232 2.2499685e-38
0.032591313 -0.11582683 0.018433232 2.1305793e-38
0.034399055 -0.11582683 0.018433232 1.8634248e-38
0.036059961 -0.11507715 0.02137186 1.6977212e-38
0.037862547 -0.11507715 0.02137186 1.587193e-38
0.03966514 -0.11507715 0.02137186 1.6516949e-38
0.041467734 -0.11507715 0.02137186 1.8545253e-38
0.043097898 -0.11430521 0.024397749 1.9927098e-38
0.044895187 -0.11430521 0.024397749 1.6237114e-38
0.046692476 -0.11430521 0.024397749 1.4850954e-38
0.048302524 -0.11353777 0.027405996 1.097443e-38
0.05009453 -0.11353777 0.027405996 1.1337829e-38
-0.087708443 -0.13562126 -0.051591139 1.1522276e-38
-0.085777923 -0.13562126 -0.051591139 2.3416234e-38
-0.083847404 -0.13562126 -0.051591139 2.3509873e-38
-0.081916884 -0.13562126 -0.051591139 2.34166e-38
-0.079986364 -0.13562126 -0.051591139 2.3509518e-38
-0.078055844 -0.13562126 -0.051591139 2.350988e-38
-0.076125324 -0.13562126 -0.051591139 2.3142539e-38
-0.074194796 -0.13562126 -0.051591139 2.2865955e-38
-0.072264276 -0.13562126 -0.051591139 2.3417687e-38
-0.070333757 -0.13562126 -0.051591139 2.3509873e-38
-0.068403237 -0.13562126 -0.051591139 2.33233e-38
-0.066657424 -0.13664238 -0.055566531 1.7513871e-38
-0.06471993 -0.13664238 -0.055566531 1.7512764e-38
-0.046358645 -0.12843956 -0.023631912 8.9356879e-39
-0.044313848 -0.1268961 -0.017623048 9.210484e-39
-0.042442888 -0.1268961 -0.017623048 1.0224636e-38
-0.040571921 -0.1268961 -0.017623048 1.0962197e-38
-0.038700961 -0.1268961 -0.017623048 1.0502648e-38
-0.036829993 -0.1268961 -0.017623048 9.5821251e-39
-0.034884594 -0.12585752 -0.013579708 1.2903687e-38
-0.03297054 -0.12508373 -0.010567289 1.5948315e-38
-0.03106731 -0.12431435 -0.007571917 1.9731942e-38
-0.029174803 -0.1235493 -0.0045934729 1.7614324e-38
-0.027280478 -0.12250783 -0.00053892657 1.5773638e-38
-0.025439467 -0.12250783 -0.00053892657 1.5960522e-38
-0.023598459 -0.12250783 -0.00053892657 1.8082808e-38
-0.021739414 -0.12175287 0.0024001785 1.9095173e-38
-0.019903557 -0.12175287 0.0024001785 2.1397577e-38
-0.018067701 -0.12175287 0.0024001785 2.2867011e-38
-0.016229188 -0.12097444 0.005430717 2.3142544e-38
-0.014398647 -0.12097444 0.005430717 2.3325856e-38
-0.012568105 -0.12097444 0.005430717 2.3142544e-38
-0.010737563 -0.12097444 0.005430717 2.2316024e-38
-0.0089255106 -0.12020047 0.008443851 2.1305818e-38
-0.0071002515 -0.12020047 0.008443851 1.8270156e-38
-0.0052749915 -0.12020047 0.008443851 1.5320232e-38
-0.0034497324 -0.12020047 0.008443851 1.5224791e-38
-0.0016244734 -0.12020047 0.008443851 1.5587088e-38
0.0002007857 -0.12020047 0.008443851 1.6869904e-38
0.0020260457 -0.12020047 0.008443851 1.769318e-38
0.0037961528 -0.11943097 0.01143958 1.8887036e-38
0.0056161601 -0.11943097 0.01143958 1.9991948e-38
0.0074361656 -0.11943097 0.01143958 2.0915362e-38
0.0092561729 -0.11943097 0.01143958 1.8797386e-38
0.01107618 -0.11943097 0.01143958 1.7418402e-38
0.012896186 -0.11943097 0.01143958 2.0650997e-38
0.014716193 -0.11943097 0.01143958 2.2040041e-38
0.0165362 -0.11943097 0.01143958 2.112097e-38
0.018356206 -0.11943097 0.01143958 2.1856764e-38
0.020176215 -0.11943097 0.01143958 2.1489065e-38
0.021996221 -0.11943097 0.01143958 2.1213551e-38
0.023667993 -0.11842094 0.015371818 2.1489418e-38
0.025481107 -0.11842094 0.015371818 2.1122065e-38
0.027046999 -0.11687975 0.02137186 2.1673096e-38
0.028849589 -0.11687975 0.02137186 2.1948622e-38
0.030783569 -0.11763458 0.018433232 2.1948625e-38
0.032454774 -0.11687975 0.02137186 2.0111874e-38
0.034257367 -0.11687975 0.02137186 1.6979001e-38
0.036059961 -0.11687975 0.02137186 1.5413804e-38
0.037862547 -0.11687975 0.02137186 1.559891e-38
0.03966514 -0.11687975 0.02137186 1.7258082e-38
0.041467734 -0.11687975 0.02137186 1.9468988e-38
0.043097898 -0.1161025 0.024397749 1.9927446e-38
0.044895187 -0.1161025 0.024397749 1.6328944e-38
0.046692476 -0.1161025 0.024397749 1.4942424e-38
0.048302524 -0.11532979 0.027405996 1.088151e-38
0.05009453 -0.11532979 0.027405996 1.1153073e-38
-0.087708443 -0.1375518 -0.051591139 1.0969102e-38
-0.085525334 -0.13653107 -0.047644358 2.2862339e-38
-0.083601743 -0.13653107 -0.047644358 2.3509869e-38
-0.081916884 -0.1375518 -0.051591139 2.350987e-38
-0.079986364 -0.1375518 -0.051591139 2.350915e-38
-0.078055844 -0.1375518 -0.051591139 2.3509876e-38
-0.075907335 -0.13653107 -0.047644358 2.3509883e-38
-0.073983736 -0.13653107 -0.047644358 2.3509886e-38
-0.072060138 -0.13653107 -0.047644358 2.3231854e-38
-0.070333757 -0.1375518 -0.051591139 2.2309165e-38
-0.068403237 -0.1375518 -0.051591139 2.1478297e-38
-0.066657424 -0.13857989 -0.055566531 1.7329106e-38
-0.06471993 -0.13857989 -0.055566531 1.7420552e-38
-0.046358645 -0.13032107 -0.023631912 9.026813e-39
-0.044313848 -0.12876706 -0.017623048 9.7629389e-39
-0.042442888 -0.12876706 -0.017623048 1.0961479e-38
-0.040571921 -0.12876706 -0.017623048 1.1699396e-38
-0.038700961 -0.12876706 -0.017623048 1.087143e-38
-0.036829993 -0.12876706 -0.017623048 9.7661619e-39
-0.034829132 -0.12694232 -0.010567289 1.3087728e-38
-0.032920651 -0.12616767 -0.007571917 1.6040158e-38
-0.031022919 -0.1253974 -0.0045934729 1.9731223e-38
-0.029121486 -0.12434883 -0.00053892657 1.7337013e-38
-0.027280478 -0.12434883 -0.00053892657 1.4759123e-38
-0.025439467 -0.12434883 -0.00053892657 1.595981e-38
-0.023598459 -0.12434883 -0.00053892657 2.1581234e-38
-0.021739414 -0.12358873 0.0024001785 2.2499614e-38
-0.019903557 -0.12358873 0.0024001785 2.2775147e-38
-0.018059731 -0.12280498 0.005430717 2.268334e-38
-0.016229188 -0.12280498 0.005430717 2.3234379e-38
-0.014398647 -0.12280498 0.005430717 2.2863809e-38
-0.012568105 -0.12280498 0.005430717 2.3417333e-38
-0.010737563 -0.12280498 0.005430717 2.2407501e-38
-0.0089255106 -0.12202574 0.008443851 2.213235e-38
-0.0071002515 -0.12202574 0.008443851 2.1122132e-38
-0.0052749915 -0.12202574 0.008443851 1.8083247e-38
-0.0034497324 -0.12202574 0.008443851 1.6328995e-38
-0.0016244734 -0.12202574 0.008443851 1.5403787e-38
0.0002007857 -0.12202574 0.008443851 1.7795463e-38
0.0020260457 -0.12202574 0.008443851 1.8713091e-38
0.0037961528 -0.121251 0.01143958 1.9356291e-38
0.0056161601 -0.121251 0.01143958 1.907898e-38
0.0074361656 -0.121251 0.01143958 1.8803116e-38
0.0092561729 -0.121251 0.01143958 1.6869885e-38
0.01107618 -0.121251 0.01143958 1.5858967e-38
0.012896186 -0.121251 0.01143958 1.881318e-38
0.014716193 -0.121251 0.01143958 1.7895543e-38
0.0165362 -0.121251 0.01143958 1.5961604e-38
0.018356206 -0.121251 0.01143958 1.6053457e-38
0.020176215 -0.121251 0.01143958 1.6145657e-38
0.021996221 -0.121251 0.01143958 1.6054529e-38
0.023667993 -0.12023406 0.015371818 1.5962685e-38
0.025360333 -0.11944233 0.018433232 1.5410941e-38
0.027046999 -0.11868234 0.02137186 1.660985e-38
0.028849589 -0.11868234 0.02137186 1.605705e-38
0.030652182 -0.11868234 0.02137186 1.5688628e-38
0.032454774 -0.11868234 0.02137186 1.4214924e-38
0.034257367 -0.11868234 0.02137186 1.2833415e-38
0.036059961 -0.11868234 0.02137186 1.3479484e-38
0.037862547 -0.11868234 0.02137186 1.5139722e-38
0.03966514 -0.11868234 0.02137186 1.6522309e-38
0.041467734 -0.11868234 0.02137186 1.7442473e-38
0.043097898 -0.11789979 0.024397749 1.9466821e-38
0.044895187 -0.11789979 0.024397749 1.6236024e-38
0.046692476 -0.11789979 0.024397749 1.4757665e-38
0.048302524 -0.1171218 0.027405996 1.0420166e-38
0.05009453 -0.1171218 0.027405996 1.0322943e-38
-0.08744894 -0.13845469 -0.047644358 9.4017766e-39
-0.085525334 -0.13845469 -0.047644358 2.0465249e-38
-0.083601743 -0.13845469 -0.047644358 2.3509503e-38
-0.081916884 -0.1394823 -0.051591139 2.3509859e-38
-0.079986364 -0.1394823 -0.051591139 2.3415863e-38
-0.07783094 -0.13845469 -0.047644358 2.3509144e-38
-0.075907335 -0.13845469 -0.047644358 2.3416248e-38
-0.073983736 -0.13845469 -0.047644358 2.3231141e-38
-0.072060138 -0.13845469 -0.047644358 2.2400653e-38
-0.070333757 -0.1394823 -0.051591139 2.0648556e-38
-0.068403237 -0.1394823 -0.051591139 1.9910604e-38
-0.066657424 -0.14051737 -0.055566531 1.7974461e-38
-0.06471993 -0.14051737 -0.055566531 1.769784e-38
-0.063212171 -0.14312203 -0.06557022 1.6406006e-38
-0.044313848 -0.13063805 -0.017623048 9.9473301e-39
-0.042442888 -0.13063805 -0.017623048 1.0961834e-38
-0.040641494 -0.13140334 -0.020562392 1.1607554e-38
-0.038612343 -0.12958528 -0.013579708 1.1055099e-38
-0.036748469 -0.12958528 -0.013579708 9.7654486e-39
-0.034773991 -0.12802102 -0.007571917 1.2901906e-38
-0.032920651 -0.12802102 -0.007571917 1.5578465e-38
-0.031022919 -0.12724553 -0.0045934729 1.9085496e-38
-0.029121486 -0.12618984 -0.00053892657 1.8167124e-38
-0.027280478 -0.12618984 -0.00053892657 1.5495968e-38
-0.025439467 -0.12618984 -0.00053892657 1.660375e-38
-0.023575269 -0.12542458 0.0024001785 2.2132272e-38
-0.021739414 -0.12542458 0.0024001785 2.2775147e-38
-0.019903557 -0.12542458 0.0024001785 2.2867002e-38
-0.018059731 -0.12463553 0.005430717 2.2775183e-38
-0.016229188 -0.12463553 0.005430717 2.341805e-38
-0.014398647 -0.12463553 0.005430717 2.3508809e-38
-0.012576029 -0.12385099 0.008443851 2.3508809e-38
-0.010750769 -0.12385099 0.008443851 2.286632e-38
-0.0089255106 -0.12385099 0.008443851 2.2775202e-38
-0.0071002515 -0.12385099 0.008443851 2.2316017e-38
-0.0052749915 -0.12385099 0.008443851 2.019909e-38
-0.0034497324 -0.12385099 0.008443851 1.7618313e-38
-0.0016244734 -0.12385099 0.008443851 1.5589269e-38
0.0002007857 -0.12385099 0.008443851 1.5955518e-38
0.0020260457 -0.12385099 0.008443851 1.7336643e-38
0.0038513038 -0.12385099 0.008443851 1.7980921e-38
0.0056161601 -0.123071 0.01143958 1.6783085e-38
0.0074361656 -0.123071 0.01143958 1.6415731e-38
0.0092561729 -0.123071 0.01143958 1.6140575e-38
0.01107618 -0.123071 0.01143958 1.5036025e-38
0.012896186 -0.123071 0.01143958 1.5776117e-38
0.014716193 -0.123071 0.01143958 1.8175734e-38
0.0165362 -0.123071 0.01143958 1.5596069e-38
0.018356206 -0.123071 0.01143958 1.5687916e-38
0.020176215 -0.123071 0.01143958 1.624109e-38
0.021854883 -0.12204717 0.015371818 1.6334353e-38
0.023667993 -0.12204717 0.015371818 1.5412746e-38
0.025244405 -0.12048493 0.02137186 1.4307469e-38
0.027046999 -0.12048493 0.02137186 1.53227e-38
0.028849589 -0.12048493 0.02137186 1.4584429e-38
0.030652182 -0.12048493 0.02137186 1.3755031e-38
0.032454774 -0.12048493 0.02137186 1.3110016e-38
0.034257367 -0.12048493 0.02137186 1.3111445e-38
0.036059961 -0.12048493 0.02137186 1.4494729e-38
0.037862547 -0.12048493 0.02137186 1.633936e-38
0.03966514 -0.12048493 0.02137186 1.6891829e-38
0.041467734 -0.12048493 0.02137186 1.6613087e-38
0.043097898 -0.11969708 0.024397749 1.8267562e-38
0.044895187 -0.11969708 0.024397749 1.5498093e-38
0.046692476 -0.11969708 0.024397749 1.4664744e-38
0.048302524 -0.11891381 0.027405996 1.041944e-38
0.05009453 -0.11891381 0.027405996 9.7694045e-39
0.051886544 -0.11891381 0.027405996 1.0687769e-38
-0.08744894 -0.14037828 -0.047644358 7.7422525e-39
-0.085525334 -0.14037828 -0.047644358 1.6500835e-38
-0.083601743 -0.14037828 -0.047644358 2.0926579e-38
-0.081678137 -0.14037828 -0.047644358 2.2494258e-38
-0.079754531 -0.14037828 -0.047644358 2.2770842e-38
-0.07783094 -0.14037828 -0.047644358 2.3508057e-38
-0.075907335 -0.14037828 -0.047644358 2.2400653e-38
-0.073983736 -0.14037828 -0.047644358 2.2399938e-38
-0.072264276 -0.14141284 -0.051591139 2.2030788e-38
-0.070333757 -0.14141284 -0.051591139 2.0832226e-38
-0.068403237 -0.14141284 -0.051591139 2.0186465e-38
-0.066657424 -0.14245488 -0.055566531 1.8896056e-38
-0.06471993 -0.14245488 -0.055566531 1.7790033e-38
-0.063212171 -0.14507706 -0.06557022 1.6590754e-38
-0.040641494 -0.13327946 -0.020562392 1.096146e-38
-0.038612343 -0.13144915 -0.013579708 1.0686315e-38
-0.036687724 -0.13065951 -0.010567289 9.5803413e-39
-0.034773991 -0.12987436 -0.007571917 1.2255824e-38
-0.032920651 -0.12987436 -0.007571917 1.4747628e-38
-0.031022919 -0.12909363 -0.0045934729 1.8439406e-38
-0.029121486 -0.12803085 -0.00053892657 1.7613586e-38
-0.027280478 -0.12803085 -0.00053892657 1.641828e-38
-0.025439467 -0.12803085 -0.00053892657 1.8170005e-38
-0.023575269 -0.12726043 0.0024001785 2.1489066e-38
-0.021739414 -0.12726043 0.0024001785 2.2224147e-38
-0.019903557 -0.12726043 0.0024001785 2.2958857e-38
-0.018059731 -0.12646608 0.005430717 2.3142535e-38
-0.016229188 -0.12646608 0.005430717 2.2588292e-38
-0.014398647 -0.12646608 0.005430717 2.3324421e-38
-0.012576029 -0.12567626 0.008443851 2.3509527e-38
-0.010750769 -0.12567626 0.008443851 2.2957428e-38
-0.0089255106 -0.12567626 0.008443851 2.3142537e-38
-0.0071002515 -0.12567626 0.008443851 2.295887e-38
-0.0052749915 -0.12567626 0.008443851 2.2315647e-38
-0.0034497324 -0.12567626 0.008443851 2.1027404e-38
-0.0016244734 -0.12567626 0.008443851 1.8907963e-38
0.0002007857 -0.12567626 0.008443851 1.9738069e-38
0.0020260457 -0.12567626 0.008443851 2.0199755e-38
0.0038513038 -0.12567626 0.008443851 1.9462186e-38
0.0056161601 -0.124891 0.01143958 1.6697741e-38
0.0074361656 -0.124891 0.01143958 1.6974663e-38
0.0092561729 -0.124891 0.01143958 1.8635255e-38
0.01107618 -0.124891 0.01143958 1.7897691e-38
0.012896186 -0.124891 0.01143958 1.6977186e-38
0.014716193 -0.124891 0.01143958 1.753218e-38
0.0165362 -0.124891 0.01143958 1.5965229e-38
0.018356206 -0.124891 0.01143958 1.6241464e-38
0.020176215 -0.124891 0.01143958 1.6426211e-38
0.021854883 -0.12386028 0.015371818 1.6335443e-38
0.023667993 -0.12386028 0.015371818 1.5874817e-38
0.025244405 -0.12228753 0.02137186 1.4584429e-38
0.027046999 -0.12228753 0.02137186 1.495393e-38
0.028849589 -0.12228753 0.02137186 1.4400406e-38
0.030652182 -0.12228753 0.02137186 1.3478095e-38
0.032454774 -0.12228753 0.02137186 1.3386977e-38
0.034257367 -0.12228753 0.02137186 1.4124895e-38
0.036059961 -0.12228753 0.02137186 1.4678063e-38
0.037862547 -0.12228753 0.02137186 1.5600022e-38
0.039503329 -0.12149437 0.024397749 1.6060296e-38
0.041300617 -0.12149437 0.024397749 1.5781545e-38
0.043097898 -0.12149437 0.024397749 1.6976107e-38
0.044895187 -0.12149437 0.024397749 1.4667614e-38
0.046692476 -0.12149437 0.024397749 1.4755502e-38
0.048302524 -0.12070583 0.027405996 1.1064448e-38
0.05009453 -0.12070583 0.027405996 1.0782835e-38
0.051886544 -0.12070583 0.027405996 1.1793755e-38
-0.083601743 -0.14230187 -0.047644358 1.677741e-38
-0.081678137 -0.14230187 -0.047644358 1.9543632e-38
-0.079754531 -0.14230187 -0.047644358 2.0465584e-38
-0.07783094 -0.14230187 -0.047644358 2.1018406e-38
-0.075907335 -0.14230187 -0.047644358 2.184675e-38
-0.073983736 -0.14230187 -0.047644358 2.1293223e-38
-0.072060138 -0.14230187 -0.047644358 2.1569084e-38
-0.070333757 -0.14334334 -0.051591139 2.1476873e-38
-0.068403237 -0.14334334 -0.051591139 2.0278664e-38
-0.066472717 -0.14334334 -0.051591139 1.8526919e-38
-0.06471993 -0.14439236 -0.055566531 1.6867727e-38
-0.040641494 -0.13515557 -0.020562392 1.0408283e-38
-0.038612343 -0.13331302 -0.013579708 1.0777791e-38
-0.036687724 -0.1325181 -0.010567289 1.0040245e-38
-0.034773991 -0.13172771 -0.007571917 1.225439e-38
-0.032920651 -0.13172771 -0.007571917 1.4469969e-38
-0.031022919 -0.13094176 -0.0045934729 1.8438687e-38
-0.029121486 -0.12987186 -0.00053892657 1.5953343e-38
-0.027280478 -0.12987186 -0.00053892657 1.6232807e-38
-0.025439467 -0.12987186 -0.00053892657 1.9828456e-38
-0.023575269 -0.12909628 0.0024001785 2.2407805e-38
-0.021739414 -0.12909628 0.0024001785 2.2958856e-38
-0.019903557 -0.12909628 0.0024001785 2.3142541e-38
-0.018067701 -0.12909628 0.0024001785 2.341805e-38
-0.016229188 -0.1282966 0.005430717 2.3509886e-38
-0.014398647 -0.1282966 0.005430717 2.3509883e-38
-0.012576029 -0.1275015 0.008443851 2.3418039e-38
-0.010750769 -0.1275015 0.008443851 2.3233634e-38
-0.0089255106 -0.1275015 0.008443851 2.3509863e-38
-0.0071002515 -0.1275015 0.008443851 2.3418043e-38
-0.0052749915 -0.1275015 0.008443851 2.3234374e-38
-0.0034497324 -0.1275015 0.008443851 2.2683337e-38
-0.0016244734 -0.1275015 0.008443851 1.9091646e-38
0.0002007857 -0.1275015 0.008443851 2.0108664e-38
0.0020260457 -0.1275015 0.008443851 2.0110457e-38
0.0038513038 -0.1275015 0.008443851 1.8636769e-38
0.0056765638 -0.1275015 0.008443851 1.4857453e-38
0.007501822 -0.1275015 0.008443851 1.4488999e-38
0.009327082 -0.1275015 0.008443851 1.6886071e-38
0.01107618 -0.126711 0.01143958 1.734562e-38
0.012896186 -0.126711 0.01143958 1.6885016e-38
0.014716193 -0.126711 0.01143958 1.7715878e-38
0.0165362 -0.126711 0.01143958 1.7624052e-38
0.018356206 -0.126711 0.01143958 1.7623698e-38
0.020176215 -0.126711 0.01143958 1.5964176e-38
0.021854883 -0.1256734 0.015371818 1.5872333e-38
0.023667993 -0.1256734 0.015371818 1.7347816e-38
0.025360333 -0.12486555 0.018433232 1.7255619e-38
0.027046999 -0.12409012 0.02137186 1.7255619e-38
0.028849589 -0.12409012 0.02137186 1.6056721e-38
0.030652182 -0.12409012 0.02137186 1.4673789e-38
0.032454774 -0.12409012 0.02137186 1.5319159e-38
0.034257367 -0.12409012 0.02137186 1.6886482e-38
0.036059961 -0.12409012 0.02137186 1.7255619e-38
0.037862547 -0.12409012 0.02137186 1.7532207e-38
0.039503329 -0.12329166 0.024397749 1.7716248e-38
0.041300617 -0.12329166 0.024397749 1.7162341e-38
0.043097898 -0.12329166 0.024397749 1.6789566e-38
0.044895187 -0.12329166 0.024397749 1.4113361e-38
0.046692476 -0.12329166 0.024397749 1.3925021e-38
0.048302524 -0.12249784 0.027405996 1.0510555e-38
0.05009453 -0.12249784 0.027405996 1.087503e-38
-0.081491232 -0.14340474 -0.044554573 1.6501175e-38
-0.07957305 -0.14340474 -0.044554573 1.7239093e-38
-0.07783094 -0.14422549 -0.047644358 1.7146544e-38
-0.075736687 -0.14340474 -0.044554573 1.8066002e-38
-0.073818505 -0.14340474 -0.044554573 1.7328084e-38
-0.071900323 -0.14340474 -0.044554573 1.8710656e-38
-0.070333757 -0.14527388 -0.051591139 2.055492e-38
-0.068403237 -0.14527388 -0.051591139 2.0370508e-38
-0.066472717 -0.14527388 -0.051591139 1.9080107e-38
-0.038612343 -0.13517688 -0.013579708 1.1146574e-38
-0.03662733 -0.13358103 -0.007571917 1.0593418e-38
-0.034773991 -0.13358103 -0.007571917 1.2623175e-38
-0.032871038 -0.13278987 -0.0045934729 1.465436e-38
-0.031022919 -0.13278987 -0.0045934729 1.8898947e-38
-0.029121486 -0.13171287 -0.00053892657 1.678346e-38
-0.027280478 -0.13171287 -0.00053892657 1.6416835e-38
-0.025439467 -0.13171287 -0.00053892657 2.0381633e-38
-0.023575269 -0.13093217 0.0024001785 2.2775157e-38
-0.021739414 -0.13093217 0.0024001785 2.2775186e-38
-0.019903557 -0.13093217 0.0024001785 2.056107e-38
-0.018067701 -0.13093217 0.0024001785 2.2311342e-38
-0.016229188 -0.13012715 0.005430717 2.3141456e-38
-0.014398647 -0.13012715 0.005430717 2.3418038e-38
-0.012576029 -0.12932678 0.008443851 2.2681898e-38
-0.010750769 -0.12932678 0.008443851 2.277336e-38
-0.0089255106 -0.12932678 0.008443851 2.3509856e-38
-0.0071002515 -0.12932678 0.008443851 2.3509879e-38
-0.0052749915 -0.12932678 0.008443851 2.350988e-38
-0.0034497324 -0.12932678 0.008443851 2.295885e-38
-0.0016244734 -0.12932678 0.008443851 1.7707638e-38
0.0002007857 -0.12932678 0.008443851 1.789598e-38
0.0020260457 -0.12932678 0.008443851 1.9097041e-38
0.0038513038 -0.12932678 0.008443851 1.91914e-38
0.0056161601 -0.12853102 0.01143958 1.5872704e-38
0.0074361656 -0.12853102 0.01143958 1.4581929e-38
0.009327082 -0.12932678 0.008443851 1.6609142e-38
0.01107618 -0.12853102 0.01143958 1.7990286e-38
0.012896186 -0.12853102 0.01143958 1.8542752e-38
0.014716193 -0.12853102 0.01143958 1.891263e-38
0.0165362 -0.12853102 0.01143958 1.992751e-38
0.018356206 -0.12853102 0.01143958 1.937398e-38
0.020176215 -0.12853102 0.01143958 1.5686155e-38
0.021854883 -0.12748651 0.015371818 1.5317372e-38
0.023552591 -0.1266733 0.018433232 1.9005197e-38
0.025360333 -0.1266733 0.018433232 2.0479251e-38
0.027046999 -0.12589271 0.02137186 2.0479254e-38
0.028849589 -0.12589271 0.02137186 1.9833885e-38
0.030652182 -0.12589271 0.02137186 1.7713385e-38
0.032454774 -0.12589271 0.02137186 1.845095e-38
0.034257367 -0.12589271 0.02137186 2.1030273e-38
0.036059961 -0.12589271 0.02137186 2.1856802e-38
0.03770604 -0.12508895 0.024397749 2.1856802e-38
0.039503329 -0.12508895 0.024397749 2.18568e-38
0.041300617 -0.12508895 0.024397749 2.0754379e-38
0.043097898 -0.12508895 0.024397749 1.9093382e-38
0.044895187 -0.12508895 0.024397749 1.5403384e-38
0.046692476 -0.12508895 0.024397749 1.4016863e-38
0.048302524 -0.12428986 0.027405996 1.0325087e-38
0.05009453 -0.12428986 0.027405996 1.0781759e-38
-0.081248403 -0.14424954 -0.0405402 1.3643111e-38
-0.079337269 -0.14424954 -0.0405402 1.4842007e-38
-0.077426121 -0.14424954 -0.0405402 1.465726e-38
-0.075514972 -0.14424954 -0.0405402 1.4655113e-38
-0.073603831 -0.14424954 -0.0405402 1.5300131e-38
-0.07169269 -0.14424954 -0.0405402 1.6406481e-38
-0.070333757 -0.14720438 -0.051591139 1.7604661e-38
-0.068403237 -0.14720438 -0.051591139 1.8526969e-38
-0.066472717 -0.14720438 -0.051591139 1.9264157e-38
-0.038612343 -0.13704078 -0.013579708 1.0685596e-38
-0.03662733 -0.13543437 -0.007571917 1.1330983e-38
-0.034773991 -0.13543437 -0.007571917 1.253098e-38
-0.032871038 -0.134638 -0.0045934729 1.529973e-38
-0.031022919 -0.134638 -0.0045934729 1.797699e-38
-0.029121486 -0.13355388 -0.00053892657 1.6690185e-38
-0.027280478 -0.13355388 -0.00053892657 1.6876734e-38
-0.025439467 -0.13355388 -0.00053892657 2.0841888e-38
-0.023598459 -0.13355388 -0.00053892657 2.2499646e-38
-0.021739414 -0.13276802 0.0024001785 2.2682991e-38
-0.019903557 -0.13276802 0.0024001785 2.1206437e-38
-0.018067701 -0.13276802 0.0024001785 2.3233296e-38
-0.016229188 -0.13195769 0.005430717 2.3509879e-38
-0.014398647 -0.13195769 0.005430717 2.2958852e-38
-0.012576029 -0.13115202 0.008443851 2.1853212e-38
-0.010750769 -0.13115202 0.008443851 2.2404932e-38
-0.0089255106 -0.13115202 0.008443851 2.2587893e-38
-0.0071002515 -0.13115202 0.008443851 2.3508797e-38
-0.0052749915 -0.13115202 0.008443851 2.3509521e-38
-0.0034497324 -0.13115202 0.008443851 2.3418033e-38
-0.0016244734 -0.13115202 0.008443851 1.7337784e-38
0.0002007857 -0.13115202 0.008443851 1.7526484e-38
0.0020260457 -0.13115202 0.008443851 1.6883996e-38
0.0038513038 -0.13115202 0.008443851 1.7715563e-38
0.0056161601 -0.13035102 0.01143958 1.7255289e-38
0.0074361656 -0.13035102 0.01143958 1.6609168e-38
0.0092561729 -0.13035102 0.01143958 1.7621506e-38
0.01107618 -0.13035102 0.01143958 1.8724988e-38
0.012896186 -0.13035102 0.01143958 1.9738787e-38
0.014716193 -0.13035102 0.01143958 1.9740585e-38
0.0165362 -0.13035102 0.01143958 2.0938412e-38
0.018228659 -0.1292996 0.015371818 1.9833142e-38
0.020041769 -0.1292996 0.015371818 1.6882529e-38
0.021854883 -0.1292996 0.015371818 1.6789621e-38
0.023552591 -0.12848105 0.018433232 1.955514e-38
0.025360333 -0.12848105 0.018433232 2.1213588e-38
0.027046999 -0.12769531 0.02137186 2.0476025e-38
0.028849589 -0.12769531 0.02137186 2.0383827e-38
0.030652182 -0.12769531 0.02137186 1.7986741e-38
0.032454774 -0.12769531 0.02137186 1.8631387e-38
0.034257367 -0.12769531 0.02137186 2.1948635e-38
0.035908751 -0.12688623 0.024397749 2.249965e-38
0.03770604 -0.12688623 0.024397749 2.21323e-38
0.039503329 -0.12688623 0.024397749 2.139724e-38
0.041300617 -0.12688623 0.024397749 2.1581255e-38
0.043097898 -0.12688623 0.024397749 1.9461086e-38
0.044895187 -0.12688623 0.024397749 1.623207e-38
0.046692476 -0.12688623 0.024397749 1.4016149e-38
0.048489764 -0.12688623 0.024397749 1.0970103e-38
0.050287053 -0.12688623 0.024397749 1.1795556e-38
-0.086981848 -0.14616071 -0.0405402 7.6507813e-39
-0.084883004 -0.14537133 -0.037607294 7.2823505e-39
-0.082976997 -0.14537133 -0.037607294 8.6645577e-39
-0.081071004 -0.14537133 -0.037607294 1.0324069e-38
-0.079164997 -0.14537133 -0.037607294 1.0600652e-38
-0.077258989 -0.14537133 -0.037607294 9.9552825e-39
-0.075352989 -0.14537133 -0.037607294 1.1245307e-38
-0.073446989 -0.14537133 -0.037607294 1.0968369e-38
-0.071540982 -0.14537133 -0.037607294 1.1060213e-38
-0.069634989 -0.14537133 -0.037607294 1.142864e-38
-0.067728981 -0.14537133 -0.037607294 1.1981093e-38
-0.038546324 -0.13809387 -0.010567289 1.0316813e-38
-0.036687724 -0.13809387 -0.010567289 1.0316832e-38
-0.034773991 -0.13728772 -0.007571917 1.1424629e-38
-0.032871038 -0.13648613 -0.0045934729 1.4839108e-38
-0.031022919 -0.13648613 -0.0045934729 1.8161382e-38
-0.029121486 -0.13539489 -0.00053892657 1.6782383e-38
-0.027280478 -0.13539489 -0.00053892657 1.5585995e-38
-0.025439467 -0.13539489 -0.00053892657 1.9090166e-38
-0.023575269 -0.13460387 0.0024001785 2.2866987e-38
-0.021739414 -0.13460387 0.0024001785 2.3142523e-38
-0.019903557 -0.13460387 0.0024001785 2.0836926e-38
-0.018067701 -0.13460387 0.0024001785 2.1297544e-38
-0.016229188 -0.13378824 0.005430717 2.2219496e-38
-0.014398647 -0.13378824 0.005430717 2.2498594e-38
-0.012576029 -0.13297729 0.008443851 2.2775174e-38
-0.010750769 -0.13297729 0.008443851 2.3509851e-38
-0.0089255106 -0.13297729 0.008443851 2.2587896e-38
-0.0071002515 -0.13297729 0.008443851 2.3139294e-38
-0.0052749915 -0.13297729 0.008443851 2.3509521e-38
-0.0034497324 -0.13297729 0.008443851 2.3418033e-38
-0.0016244734 -0.13297729 0.008443851 1.6969001e-38
0.0002007857 -0.13297729 0.008443851 1.5405985e-38
0.0020260457 -0.13297729 0.008443851 1.6606686e-38
0.0037961528 -0.13217102 0.01143958 1.8175098e-38
0.0056161601 -0.13217102 0.01143958 1.9927521e-38
0.0074361656 -0.13217102 0.01143958 2.1122086e-38
0.0092561729 -0.13217102 0.01143958 2.112207e-38
0.01107618 -0.13217102 0.01143958 2.0844048e-38
0.012896186 -0.13217102 0.01143958 2.0290156e-38
0.014716193 -0.13217102 0.01143958 1.9462189e-38
0.016415546 -0.13111271 0.015371818 1.9001927e-38
0.018228659 -0.13111271 0.015371818 1.8264364e-38
0.020041769 -0.13111271 0.015371818 1.826401e-38
0.021744845 -0.13028879 0.018433232 2.0290893e-38
0.023552591 -0.13028879 0.018433232 2.2499652e-38
0.025244405 -0.1294979 0.02137186 2.2591496e-38
0.027046999 -0.1294979 0.02137186 2.1026325e-38
0.028849589 -0.1294979 0.02137186 2.019692e-38
0.030652182 -0.1294979 0.02137186 1.7707633e-38
0.032454774 -0.1294979 0.02137186 1.9366794e-38
0.03411147 -0.12868352 0.024397749 2.249965e-38
0.035908751 -0.12868352 0.024397749 2.2499646e-38
0.03770604 -0.12868352 0.024397749 1.8260434e-38
0.039503329 -0.12868352 0.024397749 1.614028e-38
0.041300617 -0.12868352 0.024397749 1.5956594e-38
0.043097898 -0.12868352 0.024397749 1.8169268e-38
0.044895187 -0.12868352 0.024397749 1.5678543e-38
0.046692476 -0.12868352 0.024397749 1.4015793e-38
0.048489764 -0.12868352 0.024397749 1.0877194e-38
0.050287053 -0.12868352 0.024397749 1.1241666e-38
-0.086981848 -0.14807184 -0.0405402 7.5589486e-39
-0.084883004 -0.14727734 -0.037607294 7.0979621e-39
-0.082976997 -0.14727734 -0.037607294 8.0202701e-39
-0.080887496 -0.14645557 -0.034573656 9.6790656e-39
-0.078986809 -0.14645557 -0.034573656 1.0047845e-38
-0.077258989 -0.14727734 -0.037607294 9.4946687e-39
-0.075352989 -0.14727734 -0.037607294 9.5865042e-39
-0.073446989 -0.14727734 -0.037607294 9.1251757e-39
-0.071540982 -0.14727734 -0.037607294 9.4010578e-39
-0.069634989 -0.14727734 -0.037607294 1.0230464e-38
-0.038480669 -0.13914107 -0.007571917 1.0225338e-38
-0.03662733 -0.13914107 -0.007571917 9.6725383e-39
-0.034773991 -0.13914107 -0.007571917 1.0688498e-38
-0.032871038 -0.13833423 -0.0045934729 1.4655432e-38
-0.031022919 -0.13833423 -0.0045934729 1.8530882e-38
-0.029121486 -0.13723589 -0.00053892657 1.6414324e-38
-0.027280478 -0.13723589 -0.00053892657 1.5126096e-38
-0.025439467 -0.13723589 -0.00053892657 1.7707584e-38
-0.023575269 -0.13643973 0.0024001785 2.2224113e-38
-0.021739414 -0.13643973 0.0024001785 2.3050666e-38
-0.019890273 -0.13561879 0.005430717 2.305068e-38
-0.018059731 -0.13561879 0.005430717 2.3141089e-38
-0.016229188 -0.13561879 0.005430717 2.3325846e-38
-0.014398647 -0.13561879 0.005430717 2.2037267e-38
-0.012576029 -0.13480256 0.008443851 2.295886e-38
-0.010750769 -0.13480256 0.008443851 2.3418033e-38
-0.0089255106 -0.13480256 0.008443851 2.2680826e-38
-0.0071002515 -0.13480256 0.008443851 2.3509518e-38
-0.0052749915 -0.13480256 0.008443851 2.3509876e-38
-0.0034497324 -0.13480256 0.008443851 2.2590781e-38
-0.0016244734 -0.13480256 0.008443851 1.5863004e-38
0.0002007857 -0.13480256 0.008443851 1.6510886e-38
0.0020260457 -0.13480256 0.008443851 1.8633897e-38
0.0037961528 -0.13399105 0.01143958 1.8173998e-38
0.0056161601 -0.13399105 0.01143958 1.9557281e-38
0.0074361656 -0.13399105 0.01143958 2.1122072e-38
0.0092561729 -0.13399105 0.01143958 2.0753993e-38
0.01097621 -0.13292582 0.015371818 2.2132261e-38
0.012789322 -0.13292582 0.015371818 2.2499607e-38
0.014602434 -0.13292582 0.015371818 2.0106465e-38
0.016415546 -0.13292582 0.015371818 1.9000474e-38
0.018129354 -0.13209651 0.018433232 1.84473e-38
0.0199371 -0.13209651 0.018433232 1.9276709e-38
0.021744845 -0.13209651 0.018433232 2.0842258e-38
0.023552591 -0.13209651 0.018433232 2.176351e-38
0.025244405 -0.13130049 0.02137186 2.2131947e-38
0.027046999 -0.13130049 0.02137186 2.2131594e-38
0.028849589 -0.13130049 0.02137186 2.1762082e-38
0.030652182 -0.13130049 0.02137186 1.8812177e-38
0.032454774 -0.13130049 0.02137186 2.1024153e-38
0.03411147 -0.13048081 0.024397749 2.3234337e-38
0.035908751 -0.13048081 0.024397749 2.2866987e-38
0.03770604 -0.13048081 0.024397749 1.6599471e-38
0.039342456 -0.1296659 0.027405996 1.5123963e-38
0.041134469 -0.1296659 0.027405996 1.5125389e-38
0.042926483 -0.1296659 0.027405996 1.6970728e-38
0.044895187 -0.13048081 0.024397749 1.5310485e-38
0.046692476 -0.13048081 0.024397749 1.4568969e-38
0.048489764 -0.13048081 0.024397749 1.1061228e-38
0.050287053 -0.13048081 0.024397749 1.1149473e-38
-0.084883004 -0.14918335 -0.037607294 7.6515002e-39
-0.082976997 -0.14918335 -0.037607294 8.6656479e-39
-0.080887496 -0.14835624 -0.034573656 1.0416999e-38
-0.078986809 -0.14835624 -0.034573656 1.1431508e-38
-0.077258989 -0.14918335 -0.037607294 1.1523701e-38
-0.075352989 -0.14918335 -0.037607294 9.5875902e-39
-0.073446989 -0.14918335 -0.037607294 8.6656395e-39
-0.038480669 -0.14099441 -0.007571917 1.0778512e-38
-0.03662733 -0.14099441 -0.007571917 1.0042036e-38
-0.034773991 -0.14099441 -0.007571917 1.0688848e-38
-0.032871038 -0.14018236 -0.0045934729 1.4194809e-38
-0.031022919 -0.14018236 -0.0045934729 1.7885868e-38
-0.029121486 -0.1390769 -0.00053892657 1.6506522e-38
-0.027280478 -0.1390769 -0.00053892657 1.4480371e-38
-0.025411123 -0.13827558 0.0024001785 1.6233163e-38
-0.023575269 -0.13827558 0.0024001785 2.2132259e-38
-0.021720815 -0.13744931 0.005430717 2.3142482e-38
-0.019890273 -0.13744931 0.005430717 2.3418008e-38
-0.018059731 -0.13744931 0.005430717 2.3509863e-38
-0.016229188 -0.13744931 0.005430717 2.3509879e-38
-0.014401289 -0.13662781 0.008443851 2.2865955e-38
-0.012576029 -0.13662781 0.008443851 2.2221305e-38
-0.010750769 -0.13662781 0.008443851 2.2405329e-38
-0.0089255106 -0.13662781 0.008443851 2.2682269e-38
-0.0071002515 -0.13662781 0.008443851 2.3234364e-38
-0.0052749915 -0.13662781 0.008443851 2.3142524e-38
-0.0034497324 -0.13662781 0.008443851 2.1486221e-38
-0.0016244734 -0.13662781 0.008443851 1.6417246e-38
0.0002007857 -0.13662781 0.008443851 1.7617938e-38
0.0020260457 -0.13662781 0.008443851 2.1856779e-38
0.0037961528 -0.13581105 0.01143958 2.1030245e-38
0.0056161601 -0.13581105 0.01143958 2.1305745e-38
0.0074361656 -0.13581105 0.01143958 2.0294093e-38
0.0092561729 -0.13581105 0.01143958 1.6789571e-38
0.01097621 -0.13473894 0.015371818 1.724947e-38
0.012789322 -0.13473894 0.015371818 1.7709729e-38
0.014602434 -0.13473894 0.015371818 2.029121e-38
0.016415546 -0.13473894 0.015371818 1.9461446e-38
0.018129354 -0.13390426 0.018433232 1.9000822e-38
0.0199371 -0.13390426 0.018433232 1.9277058e-38
0.021744845 -0.13390426 0.018433232 1.9552226e-38
0.023552591 -0.13390426 0.018433232 1.9827754e-38
0.025360333 -0.13390426 0.018433232 2.0749364e-38
0.027046999 -0.13310309 0.02137186 2.1947551e-38
0.028849589 -0.13310309 0.02137186 2.1578397e-38
0.030652182 -0.13310309 0.02137186 1.8812526e-38
0.032454774 -0.13310309 0.02137186 2.1393287e-38
0.03411147 -0.1322781 0.024397749 2.268331e-38
0.035908751 -0.1322781 0.024397749 2.2866987e-38
0.03770604 -0.1322781 0.024397749 1.7060449e-38
0.039342456 -0.13145791 0.027405996 1.6599094e-38
0.041134469 -0.13145791 0.027405996 1.6600519e-38
0.042926483 -0.13145791 0.027405996 1.6601589e-38
0.044895187 -0.1322781 0.024397749 1.5494879e-38
0.046692476 -0.1322781 0.024397749 1.4845559e-38
0.048489764 -0.1322781 0.024397749 1.1061947e-38
0.050287053 -0.1322781 0.024397749 1.1241669e-38
0.052283287 -0.13310309 0.02137186 1.2344779e-38
-0.036687724 -0.14366965 -0.010567289 1.0134944e-38
-0.034773991 -0.14284773 -0.007571917 1.0597364e-38
-0.032871038 -0.14203046 -0.0045934729 1.355051e-38
-0.031022919 -0.14203046 -0.0045934729 1.7056824e-38
-0.029121486 -0.14091791 -0.00053892657 1.6506884e-38
-0.027280478 -0.14091791 -0.00053892657 1.3651329e-38
-0.025411123 -0.14011143 0.0024001785 1.5128243e-38
-0.023575269 -0.14011143 0.0024001785 2.1948564e-38
-0.021720815 -0.13927986 0.005430717 2.3142457e-38
-0.019890273 -0.13927986 0.005430717 2.2958804e-38
-0.018059731 -0.13927986 0.005430717 2.2312745e-38
-0.016229188 -0.13927986 0.005430717 2.3233288e-38
-0.014401289 -0.13845308 0.008443851 2.3509883e-38
-0.012576029 -0.13845308 0.008443851 2.1574496e-38
-0.010750769 -0.13845308 0.008443851 2.1298986e-38
-0.0089255106 -0.13845308 0.008443851 2.2498597e-38
-0.0071002515 -0.13845308 0.008443851 2.2775174e-38
-0.0052749915 -0.13845308 0.008443851 1.8998729e-38
-0.0034497324 -0.13845308 0.008443851 1.7525028e-38
-0.0016244734 -0.13845308 0.008443851 1.5682183e-38
0.0002007857 -0.13845308 0.008443851 1.7434246e-38
0.0020260457 -0.13845308 0.008443851 2.2315941e-38
0.0037961528 -0.13763104 0.01143958 2.185675e-38
0.0056161601 -0.13763104 0.01143958 2.204042e-38
0.0074361656 -0.13763104 0.01143958 2.0386997e-38
0.0091630965 -0.13655205 0.015371818 1.5777212e-38
0.01097621 -0.13655205 0.015371818 1.5684291e-38
0.012789322 -0.13655205 0.015371818 1.5776131e-38
0.014602434 -0.13655205 0.015371818 1.7711171e-38
0.016415546 -0.13655205 0.015371818 1.7710448e-38
0.018129354 -0.13571201 0.018433232 1.7710797e-38
0.0199371 -0.13571201 0.018433232 1.7895194e-38
0.021744845 -0.13571201 0.018433232 1.8631339e-38
0.023552591 -0.13571201 0.018433232 1.9368199e-38
0.025360333 -0.13571201 0.018433232 2.010506e-38
0.027168078 -0.13571201 0.018433232 2.0473842e-38
0.028849589 -0.13490568 0.02137186 2.0658219e-38
0.030652182 -0.13490568 0.02137186 1.8998695e-38
0.032454774 -0.13490568 0.02137186 2.1395431e-38
0.03411147 -0.13407536 0.024397749 2.1763862e-38
0.035908751 -0.13407536 0.024397749 2.2499643e-38
0.03770604 -0.13407536 0.024397749 1.8444468e-38
0.039503329 -0.13407536 0.024397749 1.8352255e-38
0.041134469 -0.13324992 0.027405996 1.7338449e-38
0.042926483 -0.13324992 0.027405996 1.6971451e-38
0.044718497 -0.13324992 0.027405996 1.5679989e-38
0.046510503 -0.13324992 0.027405996 1.4846275e-38
0.048489764 -0.13407536 0.024397749 1.096975e-38
0.050287053 -0.13407536 0.024397749 1.114947e-38
0.052283287 -0.13490568 0.02137186 1.2345135e-38
-0.038700961 -0.14747669 -0.017623048 1.0042033e-38
-0.036687724 -0.14552824 -0.010567289 9.9509077e-39
-0.034773991 -0.14470108 -0.007571917 1.0506601e-38
-0.032871038 -0.14387859 -0.0045934729 1.3735258e-38
-0.031022919 -0.14387859 -0.0045934729 1.733341e-38
-0.029121486 -0.14275892 -0.00053892657 1.5768966e-38
-0.027280478 -0.14275892 -0.00053892657 1.5034264e-38
-0.025411123 -0.14194728 0.0024001785 1.6142744e-38
-0.023575269 -0.14194728 0.0024001785 1.8817488e-38
-0.021720815 -0.14111041 0.005430717 2.0291547e-38
-0.019890273 -0.14111041 0.005430717 2.3234295e-38
-0.018059731 -0.14111041 0.005430717 2.3509846e-38
-0.016226547 -0.14027832 0.008443851 2.350987e-38
-0.014401289 -0.14027832 0.008443851 2.3509879e-38
-0.012576029 -0.14027832 0.008443851 2.3141456e-38
-0.010750769 -0.14027832 0.008443851 2.3234374e-38
-0.0089255106 -0.14027832 0.008443851 2.286702e-38
-0.0071002515 -0.14027832 0.008443851 2.2407815e-38
-0.0052749915 -0.14027832 0.008443851 1.5498868e-38
-0.0034497324 -0.14027832 0.008443851 1.365567e-38
-0.0016244734 -0.14027832 0.008443851 1.3563826e-38
0.0002007857 -0.14027832 0.008443851 1.4209185e-38
0.0019761454 -0.13945107 0.01143958 1.6698093e-38
0.0037961528 -0.13945107 0.01143958 1.5592447e-38
0.0056161601 -0.13945107 0.01143958 1.5776838e-38
0.0073499847 -0.13836516 0.015371818 1.540843e-38
0.0091630965 -0.13836516 0.015371818 1.3473403e-38
0.01097621 -0.13836516 0.015371818 1.393581e-38
0.012789322 -0.13836516 0.015371818 1.4487906e-38
0.014602434 -0.13836516 0.015371818 1.467051e-38
0.016415546 -0.13836516 0.015371818 1.5591745e-38
0.018129354 -0.13751976 0.018433232 1.5869034e-38
0.0199371 -0.13751976 0.018433232 1.5408056e-38
0.021744845 -0.13751976 0.018433232 1.5406632e-38
0.023552591 -0.13751976 0.018433232 1.6604829e-38
0.025360333 -0.13751976 0.018433232 1.8540586e-38
0.027168078 -0.13751976 0.018433232 1.9831324e-38
0.028849589 -0.13670824 0.02137186 2.0108613e-38
0.030652182 -0.13670824 0.02137186 1.8817875e-38
0.032454774 -0.13670824 0.02137186 1.98306e-38
0.03411147 -0.13587265 0.024397749 1.8816465e-38
0.035908751 -0.13587265 0.024397749 1.9736643e-38
0.03770604 -0.13587265 0.024397749 1.8445904e-38
0.039503329 -0.13587265 0.024397749 1.927637e-38
0.041134469 -0.13504194 0.027405996 1.8355118e-38
