# .PCD v0.7 - Point Cloud Data file format
VERSION 0.7
FIELDS x y z rgb
SIZE 4 4 4 4
TYPE F F F F
COUNT 1 1 1 1
WIDTH 931
HEIGHT 1
VIEWPOINT 0 0 0 1 0 0 0
POINTS 931
DATA ascii
-0.0099302102 -0.097204864 -0.026582479 2.3049248e-38
-0.0080244858 -0.09582752 -0.020608664 2.2864851e-38
-0.0061763674 -0.09582752 -0.020608664 2.3509866e-38
-0.004328249 -0.09582752 -0.020608664 2.350986e-38
-0.0024879649 -0.09651424 -0.023587108 2.3233615e-38
-0.00063462369 -0.09651424 -0.023587108 2.2866275e-38
0.0012187157 -0.09651424 -0.023587108 2.2590781e-38
0.0030720569 -0.09651424 -0.023587108 2.2774462e-38
0.0049253963 -0.09651424 -0.023587108 2.3141805e-38
0.0067787366 -0.09651424 -0.023587108 2.3141089e-38
0.0086320769 -0.09651424 -0.023587108 2.3508432e-38
0.010485417 -0.09651424 -0.023587108 2.3508793e-38
0.012338758 -0.09651424 -0.023587108 2.3509513e-38
0.014152931 -0.09582752 -0.020608664 2.3509509e-38
0.016001049 -0.09582752 -0.020608664 2.3233636e-38
-0.044785261 -0.10695927 -0.060569763 2.3509859e-38
-0.042867072 -0.10695927 -0.060569763 2.3509869e-38
-0.040797561 -0.10602666 -0.05655539 2.3509879e-38
-0.03888642 -0.10602666 -0.05655539 2.3509886e-38
-0.036874995 -0.10534529 -0.053622484 2.3509527e-38
-0.034968995 -0.10534529 -0.053622484 2.3509168e-38
-0.033062994 -0.10534529 -0.053622484 2.3508809e-38
-0.030955201 -0.10372485 -0.04664731 2.3417333e-38
-0.029061427 -0.10372485 -0.04664731 2.3234379e-38
-0.027091516 -0.10302909 -0.043652415 2.3142544e-38
-0.025202995 -0.10302909 -0.043652415 2.3142544e-38
-0.023314474 -0.10302909 -0.043652415 2.3142544e-38
-0.021345189 -0.10209858 -0.039647102 2.3234379e-38
-0.019407181 -0.10138547 -0.036577582 2.3234379e-38
-0.017482104 -0.10070263 -0.033638239 2.3417691e-38
-0.01561114 -0.10070263 -0.033638239 2.3417691e-38
-0.013647394 -0.099063456 -0.026582479 2.3509527e-38
-0.011754667 -0.098367572 -0.023587108 2.3417324e-38
-0.0098726023 -0.097675636 -0.020608664 2.3326181e-38
-0.0080244858 -0.097675636 -0.020608664 2.3509848e-38
-0.0061763674 -0.097675636 -0.020608664 2.3509856e-38
-0.004328249 -0.097675636 -0.020608664 2.2956673e-38
-0.0024801306 -0.097675636 -0.020608664 2.2219448e-38
-0.00063201226 -0.097675636 -0.020608664 2.212941e-38
0.0012161043 -0.097675636 -0.020608664 2.1670969e-38
0.0030642226 -0.097675636 -0.020608664 2.2958847e-38
0.0049253963 -0.098367572 -0.023587108 2.3234357e-38
0.0067787366 -0.098367572 -0.023587108 2.3509866e-38
0.0086557101 -0.099063456 -0.026582479 2.3509869e-38
0.010485417 -0.098367572 -0.023587108 2.350951e-38
0.012338758 -0.098367572 -0.023587108 2.350951e-38
0.014152931 -0.097675636 -0.020608664 2.313892e-38
0.016001049 -0.097675636 -0.020608664 2.3509133e-38
-0.046703443 -0.10887744 -0.060569763 2.32336e-38
-0.044619851 -0.1079378 -0.05655539 2.3509844e-38
-0.04270871 -0.1079378 -0.05655539 2.3509856e-38
-0.040797561 -0.1079378 -0.05655539 2.3509869e-38
-0.038781002 -0.1072513 -0.053622484 2.3418043e-38
-0.036771275 -0.1065412 -0.050588846 2.3509886e-38
-0.034870595 -0.1065412 -0.050588846 2.3509168e-38
-0.032848969 -0.10561861 -0.04664731 2.3508809e-38
-0.030752683 -0.10398008 -0.039647102 2.3325497e-38
-0.028871184 -0.10398008 -0.039647102 2.3142544e-38
-0.026989685 -0.10398008 -0.039647102 2.2958873e-38
-0.025035532 -0.1032616 -0.036577582 2.3142544e-38
-0.023159413 -0.1032616 -0.036577582 2.3142544e-38
-0.021283297 -0.1032616 -0.036577582 2.3142541e-38
-0.019353068 -0.10257359 -0.033638239 2.3234379e-38
-0.017414754 -0.10162716 -0.029594898 2.3417333e-38
-0.015505986 -0.10092205 -0.026582479 2.3417333e-38
-0.013608007 -0.10022092 -0.023587108 2.3509168e-38
-0.011720723 -0.099523753 -0.020608664 2.3048905e-38
-0.0098335035 -0.098574698 -0.016554117 2.3509853e-38
-0.0079924949 -0.098574698 -0.016554117 2.3509841e-38
-0.0061334502 -0.097886756 -0.013615012 2.2957029e-38
-0.0042975936 -0.097886756 -0.013615012 2.2496402e-38
-0.002469467 -0.098574698 -0.016554117 2.3417983e-38
-0.00062845834 -0.098574698 -0.016554117 2.3509824e-38
0.0012161043 -0.099523753 -0.020608664 2.2866995e-38
0.0030642226 -0.099523753 -0.020608664 2.2775169e-38
0.0049253963 -0.10022092 -0.023587108 2.139295e-38
0.0067787366 -0.10022092 -0.023587108 1.8532008e-38
0.0086557101 -0.10092205 -0.026582479 1.6316798e-38
0.010485417 -0.10022092 -0.023587108 1.5209368e-38
0.012304814 -0.099523753 -0.020608664 1.4101942e-38
0.014152931 -0.099523753 -0.020608664 1.2536048e-38
0.016001049 -0.099523753 -0.020608664 1.4380673e-38
-0.046530999 -0.10984896 -0.05655539 2.3509813e-38
-0.044619851 -0.10984896 -0.05655539 2.3050641e-38
-0.04259301 -0.10915731 -0.053622484 2.3050655e-38
-0.040687002 -0.10915731 -0.053622484 2.3326178e-38
-0.038671963 -0.1084419 -0.050588846 2.3234357e-38
-0.036636516 -0.1075124 -0.04664731 2.341804e-38
-0.034742743 -0.1075124 -0.04664731 2.341805e-38
-0.032634184 -0.10586159 -0.039647102 2.3325856e-38
-0.030663883 -0.10513772 -0.036577582 2.3233662e-38
-0.028787768 -0.10513772 -0.036577582 2.3234376e-38
-0.026911648 -0.10513772 -0.036577582 2.3142541e-38
-0.024965955 -0.10444455 -0.033638239 2.3234379e-38
-0.023094995 -0.10444455 -0.033638239 2.3234379e-38
-0.021224031 -0.10444455 -0.033638239 2.3234374e-38
-0.019278629 -0.10349102 -0.029594898 2.3234379e-38
-0.017314686 -0.10207425 -0.023587108 2.3417333e-38
-0.015416956 -0.10137187 -0.020608664 2.3416974e-38
-0.013568839 -0.10137187 -0.020608664 2.3417333e-38
-0.011720723 -0.10137187 -0.020608664 2.304891e-38
-0.0098335035 -0.10041572 -0.016554117 2.3509856e-38
-0.0079693049 -0.099722609 -0.013615012 2.3509841e-38
-0.0061334502 -0.099722609 -0.013615012 2.2036144e-38
-0.0042975936 -0.099722609 -0.013615012 2.3142485e-38
-0.002461737 -0.099722609 -0.013615012 2.3509821e-38
-0.0006258823 -0.099722609 -0.013615012 2.1486188e-38
0.0012125503 -0.10041572 -0.016554117 2.2775157e-38
0.003053559 -0.10041572 -0.016554117 2.1488733e-38
0.004912341 -0.10137187 -0.020608664 1.9088409e-38
0.0067604594 -0.10137187 -0.020608664 1.5859043e-38
0.0086557101 -0.10278064 -0.026582479 1.2905543e-38
0.010456695 -0.10137187 -0.020608664 1.059921e-38
0.012258605 -0.10041572 -0.016554117 9.5846937e-39
0.014099614 -0.10041572 -0.016554117 9.30846e-39
-0.052988954 -0.11533 -0.071581721 1.2998041e-38
-0.05105146 -0.11533 -0.071581721 1.4106547e-38
-0.048621625 -0.1127138 -0.060569763 1.6228491e-38
-0.046530999 -0.11176009 -0.05655539 2.1853869e-38
-0.04449901 -0.11106332 -0.053622484 2.240777e-38
-0.04259301 -0.11106332 -0.053622484 2.2499619e-38
-0.040572643 -0.11034258 -0.050588846 2.2866982e-38
-0.03853029 -0.10940616 -0.04664731 2.3050667e-38
-0.036534123 -0.10869466 -0.043652415 2.3142517e-38
-0.034645602 -0.10869466 -0.043652415 2.3142527e-38
-0.032540001 -0.10701384 -0.036577582 2.3142532e-38
-0.030578846 -0.10631551 -0.033638239 2.3050698e-38
-0.028707882 -0.10631551 -0.033638239 2.341804e-38
-0.026836922 -0.10631551 -0.033638239 2.341804e-38
-0.024870252 -0.10535492 -0.029594898 2.341804e-38
-0.022940358 -0.10463922 -0.026582479 2.341804e-38
-0.021081762 -0.10463922 -0.026582479 2.341804e-38
-0.019168025 -0.1039276 -0.023587108 2.341805e-38
-0.017265076 -0.10322 -0.020608664 2.3417333e-38
-0.015416956 -0.10322 -0.020608664 2.3416974e-38
-0.013515523 -0.10225673 -0.016554117 2.3417333e-38
-0.011641016 -0.10155846 -0.013615012 2.2588295e-38
-0.0097759366 -0.10083848 -0.010584474 2.3418028e-38
-0.0079453941 -0.10083848 -0.010584474 2.3418008e-38
-0.0061148517 -0.10083848 -0.010584474 2.2498915e-38
-0.0042843092 -0.10083848 -0.010584474 2.3417993e-38
-0.0024537668 -0.10083848 -0.010584474 2.1946088e-38
-0.0006232243 -0.10083848 -0.010584474 1.5217252e-38
0.0012099743 -0.10155846 -0.013615012 6.1846098e-39
0.003045829 -0.10155846 -0.013615012 5.6314416e-39
0.0048945677 -0.10225673 -0.016554117 6.7345465e-39
0.0067355782 -0.10225673 -0.016554117 8.6681324e-39
0.0085765868 -0.10225673 -0.016554117 9.4950092e-39
0.010456695 -0.10322 -0.020608664 9.4010073e-39
0.012258605 -0.10225673 -0.016554117 1.0413712e-38
0.014099614 -0.10225673 -0.016554117 1.2073588e-38
-0.054926448 -0.11726747 -0.071581721 1.2351231e-38
-0.052988954 -0.11726747 -0.071581721 1.1431433e-38
-0.050683372 -0.11537148 -0.063659549 1.3923229e-38
-0.048442148 -0.11367123 -0.05655539 1.6229559e-38
-0.046530999 -0.11367123 -0.05655539 2.0103217e-38
-0.04449901 -0.11296929 -0.053622484 1.9551131e-38
-0.042473331 -0.11224325 -0.050588846 2.0474533e-38
-0.040424064 -0.11129995 -0.04664731 2.213227e-38
-0.03853029 -0.11129995 -0.04664731 2.2958812e-38
-0.036534123 -0.11058317 -0.043652415 2.2958824e-38
-0.034515679 -0.10962458 -0.039647102 2.2499649e-38
-0.032540001 -0.10888995 -0.036577582 2.2867001e-38
-0.030461876 -0.10721879 -0.029594898 2.3234353e-38
-0.028598001 -0.10721879 -0.029594898 2.2957768e-38
-0.026734127 -0.10721879 -0.029594898 2.3509863e-38
-0.02479895 -0.10649781 -0.026582479 2.3509853e-38
-0.022940358 -0.10649781 -0.026582479 2.3509855e-38
-0.021021364 -0.10578094 -0.023587108 2.3234001e-38
-0.019113192 -0.1050681 -0.020608664 2.3509886e-38
-0.017265076 -0.1050681 -0.020608664 2.3509168e-38
-0.015356531 -0.10409774 -0.016554117 2.3508809e-38
-0.013476873 -0.10339431 -0.013615012 2.314075e-38
-0.011606479 -0.10266902 -0.010584474 2.341805e-38
-0.0097759366 -0.10266902 -0.010584474 2.2957777e-38
-0.0079216193 -0.10194789 -0.0075713396 2.3234344e-38
-0.0060963612 -0.10194789 -0.0075713396 2.3234324e-38
-0.0042711031 -0.10194789 -0.0075713396 2.2958808e-38
-0.0024458431 -0.10194789 -0.0075713396 2.1946461e-38
-0.00062058307 -0.10194789 -0.0075713396 9.1327119e-39
0.0012073163 -0.10266902 -0.010584474 5.8147538e-39
0.003045829 -0.10339431 -0.013615012 6.1835336e-39
0.0048945677 -0.10409774 -0.016554117 6.6419866e-39
0.0067355782 -0.10409774 -0.016554117 8.8521509e-39
0.010456695 -0.1050681 -0.020608664 1.1152703e-38
0.012304814 -0.1050681 -0.020608664 1.2626747e-38
-0.056863934 -0.11920498 -0.071581721 1.216469e-38
-0.054727793 -0.11824657 -0.06760633 1.0968658e-38
-0.052797273 -0.11824657 -0.06760633 9.9573817e-39
-0.050539814 -0.11655019 -0.060569763 1.3555522e-38
-0.048442148 -0.11558239 -0.05655539 1.5217199e-38
-0.04640501 -0.1148753 -0.053622484 1.7246945e-38
-0.044374011 -0.11414395 -0.050588846 1.6787408e-38
-0.042473331 -0.11414395 -0.050588846 1.6695577e-38
-0.040424064 -0.11319371 -0.04664731 1.7986685e-38
-0.038422644 -0.11247168 -0.043652415 2.0383419e-38
-0.036397181 -0.11150609 -0.039647102 2.1764929e-38
-0.034515679 -0.11150609 -0.039647102 2.1673099e-38
-0.032449812 -0.11005743 -0.033638239 2.204045e-38
-0.030461876 -0.10908265 -0.029594898 2.3142499e-38
-0.028598001 -0.10908265 -0.029594898 2.3509853e-38
-0.026734127 -0.10908265 -0.029594898 2.3509851e-38
-0.02479895 -0.1083564 -0.026582479 2.3234316e-38
-0.022874707 -0.10763429 -0.023587108 2.3234319e-38
-0.020961313 -0.10691623 -0.020608664 2.3233988e-38
-0.019038549 -0.10593875 -0.016554117 2.3325127e-38
-0.017148582 -0.10523017 -0.013615012 2.314075e-38
-0.015267564 -0.10449956 -0.010584474 2.3140391e-38
-0.013397397 -0.10377313 -0.0075713396 2.3509168e-38
-0.011572139 -0.10377313 -0.0075713396 2.341805e-38
-0.0097468812 -0.10377313 -0.0075713396 2.341804e-38
-0.0078979842 -0.10305093 -0.0045756102 2.3418018e-38
-0.0060779769 -0.10305093 -0.0045756102 2.1393994e-38
-0.0042579714 -0.10305093 -0.0045756102 1.8996903e-38
-0.0024379641 -0.10305093 -0.0045756102 1.8166445e-38
-0.00062058307 -0.10377313 -0.0075713396 1.005324e-38
0.0012073163 -0.10449956 -0.010584474 8.9486864e-39
-0.056863934 -0.12114246 -0.071581721 1.1704797e-38
-0.054727793 -0.12017711 -0.06760633 1.0507686e-38
-0.052797273 -0.12017711 -0.06760633 9.496765e-39
-0.050539814 -0.11846836 -0.060569763 1.3094907e-38
-0.048442148 -0.11749353 -0.05655539 1.4295606e-38
-0.04640501 -0.11678131 -0.053622484 1.5589218e-38
-0.044374011 -0.11604463 -0.050588846 1.55903e-38
-0.042317837 -0.11508749 -0.04664731 1.4576871e-38
-0.040311165 -0.1143602 -0.043652415 1.5315158e-38
-0.038278677 -0.11338757 -0.039647102 1.7896281e-38
-0.036397181 -0.11338757 -0.039647102 1.9370698e-38
-0.034416117 -0.11264218 -0.036577582 1.9370343e-38
-0.032325745 -0.11094652 -0.029594898 2.0475618e-38
-0.030461876 -0.11094652 -0.029594898 2.240779e-38
-0.028598001 -0.11094652 -0.029594898 2.3418008e-38
-0.026657542 -0.11021499 -0.026582479 2.2313087e-38
-0.02479895 -0.11021499 -0.026582479 2.2037908e-38
-0.022874707 -0.10948761 -0.023587108 2.3234302e-38
-0.020961313 -0.10876434 -0.020608664 2.3509844e-38
-0.019038549 -0.10777976 -0.016554117 2.3509866e-38
-0.017098105 -0.10633011 -0.010584474 2.350988e-38
-0.015222659 -0.10559841 -0.0075713396 2.3509527e-38
-0.013397397 -0.10559841 -0.0075713396 2.3509527e-38
-0.011572139 -0.10559841 -0.0075713396 2.31411e-38
-0.0097179916 -0.10487093 -0.0045756102 2.350987e-38
-0.0078979842 -0.10487093 -0.0045756102 2.3234337e-38
-0.0060779769 -0.10487093 -0.0045756102 2.2958797e-38
-0.0042407345 -0.10391603 -0.00064337254 2.3142468e-38
-0.0024276227 -0.10391603 -0.00064337254 2.3509846e-38
-0.056863934 -0.12307997 -0.071581721 1.133566e-38
-0.054926448 -0.12307997 -0.071581721 1.1061585e-38
-0.052797273 -0.12210761 -0.06760633 1.01425e-38
-0.050353289 -0.11940466 -0.05655539 1.2542458e-38
-0.048311017 -0.11868732 -0.053622484 1.3559485e-38
-0.04640501 -0.11868732 -0.053622484 1.5774694e-38
-0.044374011 -0.11794533 -0.050588846 1.5868326e-38
-0.042317837 -0.11698125 -0.04664731 1.5316234e-38
-0.040311165 -0.11624874 -0.043652415 1.559354e-38
-0.038278677 -0.11526908 -0.039647102 1.6422945e-38
-0.036397181 -0.11526908 -0.039647102 1.6330032e-38
-0.034416117 -0.1145183 -0.036577582 1.6053448e-38
-0.032325745 -0.11281042 -0.029594898 1.7711893e-38
-0.030461876 -0.11281042 -0.029594898 2.0106835e-38
-0.028598001 -0.11281042 -0.029594898 1.9089113e-38
-0.026657542 -0.11207359 -0.026582479 1.8903635e-38
-0.024728047 -0.11134095 -0.023587108 2.0011388e-38
-0.022809429 -0.11061247 -0.020608664 2.2499594e-38
-0.020879557 -0.10962076 -0.016554117 2.3509825e-38
-0.018984443 -0.10890187 -0.013615012 2.3050663e-38
-0.017047917 -0.10742365 -0.0075713396 2.2957052e-38
-0.015222659 -0.10742365 -0.0075713396 2.3509879e-38
-0.013358003 -0.10669093 -0.0045756102 2.3509521e-38
-0.011537997 -0.10669093 -0.0045756102 2.2494641e-38
-0.0097179916 -0.10669093 -0.0045756102 2.194181e-38
-0.0078669582 -0.10572915 -0.00064337254 1.69643e-38
-0.0060538463 -0.10572915 -0.00064337254 1.8163171e-38
-0.0042407345 -0.10572915 -0.00064337254 2.2403814e-38
-0.0024276227 -0.10572915 -0.00064337254 2.3509842e-38
-0.054727793 -0.12403814 -0.06760633 1.1154145e-38
-0.052457996 -0.12230472 -0.060569763 9.9588362e-39
-0.05021701 -0.12059332 -0.053622484 1.2358435e-38
-0.04817538 -0.119846 -0.050588846 1.3007039e-38
-0.046274699 -0.119846 -0.050588846 1.4853107e-38
-0.044374011 -0.119846 -0.050588846 1.4947097e-38
-0.042317837 -0.11887501 -0.04664731 1.5317317e-38
-0.040311165 -0.11813726 -0.043652415 1.5410233e-38
-0.038278677 -0.11715056 -0.039647102 1.5133646e-38
-0.036397181 -0.11715056 -0.039647102 1.4671948e-38
-0.034416117 -0.11639442 -0.036577582 1.4579752e-38
-0.032325745 -0.11467429 -0.029594898 1.5500993e-38
-0.030461876 -0.11467429 -0.029594898 1.6605193e-38
-0.028598001 -0.11467429 -0.029594898 1.7710123e-38
-0.026657542 -0.11393218 -0.026582479 1.8446962e-38
-0.024728047 -0.1131943 -0.023587108 2.038376e-38
-0.022809429 -0.11246057 -0.020608664 2.2591428e-38
-0.020879557 -0.11146177 -0.016554117 2.3142464e-38
-0.018928645 -0.10999118 -0.010584474 2.2775134e-38
-0.017047917 -0.10924892 -0.0075713396 2.3418016e-38
-0.015178012 -0.10851096 -0.0045756102 2.3509866e-38
-0.013358003 -0.10851096 -0.0045756102 2.3509869e-38
-0.011537997 -0.10851096 -0.0045756102 2.3138556e-38
-0.0096800718 -0.10754226 -0.00064337254 2.1387529e-38
-0.0078669582 -0.10754226 -0.00064337254 1.3365768e-38
-0.0060538463 -0.10754226 -0.00064337254 1.548625e-38
-0.0042407345 -0.10754226 -0.00064337254 2.3138135e-38
-0.054727793 -0.12596865 -0.06760633 1.0048524e-38
-0.052123018 -0.1224993 -0.053622484 8.8528544e-39
-0.05021701 -0.1224993 -0.053622484 1.2543914e-38
-0.04817538 -0.12174667 -0.050588846 1.291521e-38
-0.046274699 -0.12174667 -0.050588846 1.2641859e-38
-0.044374011 -0.12174667 -0.050588846 1.3104272e-38
-0.042317837 -0.1207688 -0.04664731 1.3658522e-38
-0.040311165 -0.12002577 -0.043652415 1.4212056e-38
-0.038278677 -0.11903207 -0.039647102 1.4488999e-38
-0.036292233 -0.11827053 -0.036577582 1.4857781e-38
-0.034189619 -0.11653815 -0.029594898 1.5318041e-38
-0.032233313 -0.11579077 -0.026582479 1.5224766e-38
-0.030288069 -0.11504765 -0.023587108 1.4670879e-38
-0.028434729 -0.11504765 -0.023587108 1.4946762e-38
-0.02658139 -0.11504765 -0.023587108 1.5868714e-38
-0.024657546 -0.1143087 -0.020608664 1.7067951e-38
-0.022809429 -0.1143087 -0.020608664 1.798918e-38
-0.020820295 -0.11257361 -0.013615012 1.8909343e-38
-0.018928645 -0.11182173 -0.010584474 2.0013555e-38
-0.017047917 -0.11107419 -0.0075713396 2.1853191e-38
-0.015178012 -0.11033095 -0.0045756102 2.3233988e-38
-0.013358003 -0.11033095 -0.0045756102 2.3509859e-38
-0.011493182 -0.10935538 -0.00064337254 2.1478297e-38
-0.0096800718 -0.10935538 -0.00064337254 1.8711673e-38
-0.0078428034 -0.10859586 0.0024180412 9.5835657e-39
-0.0060350597 -0.10859586 0.0024180412 9.674318e-39
-0.054727793 -0.12789918 -0.06760633 9.4035156e-39
-0.052123018 -0.12440531 -0.053622484 8.9457745e-39
-0.05021701 -0.12440531 -0.053622484 1.3189649e-38
-0.04817538 -0.12364738 -0.050588846 1.3191807e-38
-0.046274699 -0.12364738 -0.050588846 1.2180889e-38
-0.044374011 -0.12364738 -0.050588846 1.2367076e-38
-0.042317837 -0.12266256 -0.04664731 1.2553262e-38
-0.040311165 -0.12191428 -0.043652415 1.3383023e-38
-0.038278677 -0.12091358 -0.039647102 1.4397173e-38
-0.036292233 -0.12014665 -0.036577582 1.4950703e-38
-0.034189619 -0.11840202 -0.029594898 1.5226211e-38
-0.032233313 -0.11764936 -0.026582479 1.5133652e-38
-0.030288069 -0.11690097 -0.023587108 1.4948908e-38
-0.028434729 -0.11690097 -0.023587108 1.4765607e-38
-0.026505666 -0.1161568 -0.020608664 1.5319134e-38
-0.024561575 -0.11514379 -0.016554117 1.5134364e-38
-0.022656152 -0.11440946 -0.013615012 1.4857043e-38
-0.02075919 -0.11365227 -0.010584474 1.6699148e-38
-0.018873176 -0.11289944 -0.0075713396 2.010717e-38
-0.016998017 -0.11215095 -0.0045756102 2.2591466e-38
-0.015178012 -0.11215095 -0.0045756102 2.3509846e-38
-0.013306295 -0.11116849 -0.00064337254 2.3509851e-38
-0.011493182 -0.11116849 -0.00064337254 1.8250357e-38
-0.0096800718 -0.11116849 -0.00064337254 1.5483722e-38
-0.0078428034 -0.11040358 0.0024180412 1.0411503e-38
-0.0060350597 -0.11040358 0.0024180412 1.0594108e-38
-0.004227316 -0.11040358 0.0024180412 1.2712103e-38
-0.054376177 -0.12805928 -0.060569763 9.7715821e-39
-0.052123018 -0.12631132 -0.053622484 1.0143965e-38
-0.05007606 -0.12554805 -0.050588846 1.3742471e-38
-0.04817538 -0.12554805 -0.050588846 1.3469121e-38
-0.046274699 -0.12554805 -0.050588846 1.3471276e-38
-0.044374011 -0.12554805 -0.050588846 1.310321e-38
-0.042317837 -0.12455635 -0.04664731 1.3012811e-38
-0.040311165 -0.12380283 -0.043652415 1.3842927e-38
-0.038278677 -0.12279506 -0.039647102 1.4672685e-38
-0.036053494 -0.12026589 -0.029594898 1.43039e-38
-0.034189619 -0.12026589 -0.029594898 1.3750366e-38
-0.032233313 -0.11950795 -0.026582479 1.4580127e-38
-0.030288069 -0.11875431 -0.023587108 1.6055257e-38
-0.028434729 -0.11875431 -0.023587108 1.6056343e-38
-0.026505666 -0.11800493 -0.020608664 1.5965219e-38
-0.024561575 -0.1169848 -0.016554117 1.4582271e-38
-0.022656152 -0.11624531 -0.013615012 1.3474831e-38
-0.02075919 -0.11548282 -0.010584474 1.5871181e-38
-0.018818026 -0.11397095 -0.0045756102 2.0478097e-38
-0.016998017 -0.11397095 -0.0045756102 2.3050632e-38
-0.015178012 -0.11397095 -0.0045756102 2.2774414e-38
-0.013306295 -0.1129816 -0.00064337254 2.3139962e-38
-0.011493182 -0.1129816 -0.00064337254 1.3457244e-38
-0.0096800718 -0.1129816 -0.00064337254 1.0874292e-38
-0.0078428034 -0.11221133 0.0024180412 1.0963957e-38
-0.0060350597 -0.11221133 0.0024180412 1.2990117e-38
-0.004227316 -0.11221133 0.0024180412 1.2895778e-38
-0.0024276227 -0.1129816 -0.00064337254 1.2617764e-38
-0.054175578 -0.12896039 -0.05655539 1.0323677e-38
-0.05226443 -0.12896039 -0.05655539 9.6819102e-39
-0.05007606 -0.12744872 -0.050588846 1.4018343e-38
-0.04817538 -0.12744872 -0.050588846 1.5219407e-38
-0.046274699 -0.12744872 -0.050588846 1.5036814e-38
-0.044374011 -0.12744872 -0.050588846 1.2640802e-38
-0.042317837 -0.12645011 -0.04664731 1.3747866e-38
-0.040311165 -0.12569134 -0.043652415 1.5131154e-38
-0.038278677 -0.12467657 -0.039647102 1.476237e-38
-0.036053494 -0.12212978 -0.029594898 1.3563824e-38
-0.034091905 -0.12136655 -0.026582479 1.3748215e-38
-0.03214141 -0.12060766 -0.023587108 1.4577976e-38
-0.030201903 -0.11985306 -0.020608664 1.4393584e-38
-0.028353786 -0.11985306 -0.020608664 1.4855281e-38
-0.026505666 -0.11985306 -0.020608664 1.5041103e-38
-0.024561575 -0.11882581 -0.016554117 1.4303889e-38
-0.022656152 -0.11808117 -0.013615012 1.3935811e-38
-0.02075919 -0.11731337 -0.010584474 1.5041428e-38
-0.018818026 -0.11579098 -0.0045756102 2.0295498e-38
-0.016998017 -0.11579098 -0.0045756102 2.1489381e-38
-0.015178012 -0.11579098 -0.0045756102 2.2775095e-38
-0.013306295 -0.11479472 -0.00064337254 2.1944973e-38
-0.011493182 -0.11479472 -0.00064337254 1.133852e-38
-0.0096800718 -0.11479472 -0.00064337254 9.8605071e-39
-0.0078428034 -0.11401908 0.0024180412 1.1056536e-38
-0.0060350597 -0.11401908 0.0024180412 1.1607922e-38
-0.004227316 -0.11401908 0.0024180412 1.1514653e-38
-0.0024276227 -0.11479472 -0.00064337254 1.2436256e-38
-0.00061795674 -0.11579098 -0.0045756102 1.326602e-38
0.004745936 -0.11023484 0.017354488 1.4468178e-38
0.0065274918 -0.11023484 0.017354488 2.3506244e-38
0.0083090477 -0.11023484 0.017354488 2.3508418e-38
0.010090603 -0.11023484 0.017354488 2.3509866e-38
0.011872159 -0.11023484 0.017354488 1.7700108e-38
0.013653716 -0.11023484 0.017354488 1.216837e-38
-0.054175578 -0.13087155 -0.05655539 1.1151998e-38
-0.05226443 -0.13087155 -0.05655539 1.0142171e-38
-0.05021701 -0.13012333 -0.053622484 1.4754832e-38
-0.04817538 -0.12934943 -0.050588846 1.5864063e-38
-0.046274699 -0.12934943 -0.050588846 1.5497076e-38
-0.044374011 -0.12934943 -0.050588846 1.4022662e-38
-0.042317837 -0.1283439 -0.04664731 1.3930462e-38
-0.040311165 -0.12757985 -0.043652415 1.4391796e-38
-0.038278677 -0.12655805 -0.039647102 1.4391791e-38
-0.036053494 -0.12399365 -0.029594898 1.3930813e-38
-0.034091905 -0.12322514 -0.026582479 1.4116283e-38
-0.03214141 -0.12246101 -0.023587108 1.4485065e-38
-0.030201903 -0.12170117 -0.020608664 1.3931892e-38
-0.028353786 -0.12170117 -0.020608664 1.4116997e-38
-0.026402583 -0.12066682 -0.016554117 1.4486852e-38
-0.024561575 -0.12066682 -0.016554117 1.3749636e-38
-0.022656152 -0.11991702 -0.013615012 1.2552523e-38
-0.02075919 -0.11914389 -0.010584474 1.2737264e-38
-0.018818026 -0.11761098 -0.0045756102 1.7069369e-38
-0.016998017 -0.11761098 -0.0045756102 1.7620384e-38
-0.015178012 -0.11761098 -0.0045756102 1.8262518e-38
-0.013306295 -0.11660783 -0.00064337254 1.7981262e-38
-0.011493182 -0.11660783 -0.00064337254 8.8503054e-39
-0.0096505489 -0.11582683 0.0024180412 8.754884e-39
-0.0078428034 -0.11582683 0.0024180412 1.0688124e-38
-0.0060538463 -0.11660783 -0.00064337254 1.1424615e-38
-0.0042407345 -0.11660783 -0.00064337254 1.1331704e-38
-0.0024379641 -0.11761098 -0.0045756102 1.2345858e-38
-0.00061795674 -0.11761098 -0.0045756102 1.3635518e-38
0.0029643793 -0.11201639 0.017354488 1.3358577e-38
0.0047325343 -0.11123641 0.020411968 1.3545859e-38
0.0065087285 -0.11123641 0.020411968 2.3509841e-38
0.0083090477 -0.11201639 0.017354488 2.3509856e-38
0.010090603 -0.11201639 0.017354488 2.3324393e-38
0.011872159 -0.11201639 0.017354488 2.2309886e-38
0.013653716 -0.11201639 0.017354488 1.5026432e-38
0.015435272 -0.11201639 0.017354488 1.0599954e-38
-0.054175578 -0.13278268 -0.05655539 1.133639e-38
-0.05226443 -0.13278268 -0.05655539 1.0417679e-38
-0.05021701 -0.13202934 -0.053622484 1.5215091e-38
-0.04817538 -0.1312501 -0.050588846 1.6232127e-38
-0.046274699 -0.1312501 -0.050588846 1.5495997e-38
-0.044211604 -0.13023765 -0.04664731 1.4943899e-38
-0.042199686 -0.1294684 -0.043652415 1.3561681e-38
-0.040160179 -0.12843956 -0.039647102 1.3193976e-38
-0.038168348 -0.12765111 -0.036577582 1.3839343e-38
-0.036053494 -0.12585752 -0.029594898 1.4300677e-38
-0.034091905 -0.12508373 -0.026582479 1.4761655e-38
-0.03214141 -0.12431435 -0.023587108 1.4761655e-38
-0.030201903 -0.1235493 -0.020608664 1.402445e-38
-0.028353786 -0.1235493 -0.020608664 1.4393587e-38
-0.026402583 -0.12250783 -0.016554117 1.4947833e-38
-0.024561575 -0.12250783 -0.016554117 1.4487204e-38
-0.022656152 -0.12175287 -0.013615012 1.2644722e-38
-0.02075919 -0.12097444 -0.010584474 1.2643992e-38
-0.018873176 -0.12020047 -0.0075713396 1.5870473e-38
-0.016998017 -0.11943097 -0.0045756102 1.6052703e-38
-0.015178012 -0.11943097 -0.0045756102 1.6234216e-38
-0.013306295 -0.11842094 -0.00064337254 1.5031004e-38
-0.011493182 -0.11842094 -0.00064337254 7.651765e-39
-0.0096505489 -0.11763458 0.0024180412 8.8470782e-39
-0.0078428034 -0.11763458 0.0024180412 1.0964705e-38
-0.0060538463 -0.11842094 -0.00064337254 1.142497e-38
-0.0042407345 -0.11842094 -0.00064337254 1.0686686e-38
-0.0024118423 -0.11687975 0.0053566694 1.1055469e-38
-0.00059873238 -0.11379795 0.017354488 1.2161096e-38
0.001180144 -0.1130126 0.020411968 1.2067102e-38
0.0029563382 -0.1130126 0.020411968 1.1606851e-38
0.0047325343 -0.1130126 0.020411968 1.2622812e-38
0.0065087285 -0.1130126 0.020411968 2.3505511e-38
0.0083090477 -0.11379795 0.017354488 2.3509488e-38
0.010090603 -0.11379795 0.017354488 2.3508414e-38
0.011872159 -0.11379795 0.017354488 2.35095e-38
0.013653716 -0.11379795 0.017354488 1.437781e-38
0.015435272 -0.11379795 0.017354488 1.4192333e-38
-0.056658313 -0.1375518 -0.06760633 1.299231e-38
-0.054175578 -0.13469382 -0.05655539 1.1243475e-38
-0.05226443 -0.13469382 -0.05655539 1.0509513e-38
-0.05021701 -0.13393532 -0.053622484 1.5767546e-38
-0.048311017 -0.13393532 -0.053622484 1.696825e-38
-0.046105377 -0.13213144 -0.04664731 1.5587474e-38
-0.044211604 -0.13213144 -0.04664731 1.4575117e-38
-0.042199686 -0.13135691 -0.043652415 1.300851e-38
-0.040160179 -0.13032107 -0.039647102 1.2732999e-38
-0.038168348 -0.12952723 -0.036577582 1.3839346e-38
-0.036053494 -0.12772138 -0.029594898 1.4484712e-38
-0.034091905 -0.12694232 -0.026582479 1.4762015e-38
-0.03214141 -0.12616767 -0.023587108 1.4946409e-38
-0.030201903 -0.1253974 -0.020608664 1.4577624e-38
-0.028353786 -0.1253974 -0.020608664 1.393261e-38
-0.026402583 -0.12434883 -0.016554117 1.4670527e-38
-0.024561575 -0.12434883 -0.016554117 1.4395011e-38
-0.022656152 -0.12358873 -0.013615012 1.1906799e-38
-0.02075919 -0.12280498 -0.010584474 1.1814235e-38
-0.018818026 -0.121251 -0.0045756102 1.4395349e-38
-0.016998017 -0.121251 -0.0045756102 1.4760891e-38
-0.015178012 -0.121251 -0.0045756102 1.4482146e-38
-0.013306295 -0.12023406 -0.00064337254 1.4108693e-38
-0.011458294 -0.11944233 0.0024180412 7.927996e-39
-0.0096505489 -0.11944233 0.0024180412 9.4924476e-39
-0.0078428034 -0.11944233 0.0024180412 1.1241648e-38
-0.0060350597 -0.11944233 0.0024180412 1.1517519e-38
-0.0042407345 -0.12023406 -0.00064337254 1.0133865e-38
-0.0023881067 -0.1163484 0.014381409 9.5806888e-39
-0.00059873238 -0.1155795 0.017354488 1.0225338e-38
0.001180144 -0.11478879 0.020411968 1.0776714e-38
0.0029563382 -0.11478879 0.020411968 9.3012335e-39
0.004745936 -0.1155795 0.017354488 1.0777454e-38
0.0065274918 -0.1155795 0.017354488 1.3636608e-38
0.0083090477 -0.1155795 0.017354488 1.5666724e-38
0.010090603 -0.1155795 0.017354488 2.0000287e-38
0.011872159 -0.1155795 0.017354488 2.0369073e-38
0.01361351 -0.11478879 0.020411968 1.3913937e-38
0.015389705 -0.11478879 0.020411968 1.4096885e-38
-0.058588833 -0.1394823 -0.06760633 1.2990505e-38
-0.056658313 -0.1394823 -0.06760633 1.234694e-38
-0.054175578 -0.13660498 -0.05655539 1.087433e-38
-0.05226443 -0.13660498 -0.05655539 1.0601346e-38
-0.05021701 -0.13584132 -0.053622484 1.6319996e-38
-0.048311017 -0.13584132 -0.053622484 1.7520698e-38
-0.046105377 -0.1340252 -0.04664731 1.5955893e-38
-0.044211604 -0.1340252 -0.04664731 1.4114139e-38
-0.042199686 -0.13324542 -0.043652415 1.3100706e-38
-0.040160179 -0.13220255 -0.039647102 1.3286173e-38
-0.038168348 -0.13140334 -0.036577582 1.4208847e-38
-0.036053494 -0.12958528 -0.029594898 1.4208844e-38
-0.034091905 -0.12880091 -0.026582479 1.4117367e-38
-0.03214141 -0.12802102 -0.023587108 1.4393951e-38
-0.030201903 -0.12724553 -0.020608664 1.4485784e-38
-0.028353786 -0.12724553 -0.020608664 1.559213e-38
-0.026402583 -0.12618984 -0.016554117 1.6145657e-38
-0.024561575 -0.12618984 -0.016554117 1.5870141e-38
-0.022656152 -0.12542458 -0.013615012 1.2735484e-38
-0.020698434 -0.12385099 -0.0075713396 1.2551444e-38
-0.018818026 -0.123071 -0.0045756102 1.4763777e-38
-0.016998017 -0.123071 -0.0045756102 1.5313711e-38
-0.015119409 -0.12204717 -0.00064337254 1.4666183e-38
-0.013306295 -0.12204717 -0.00064337254 1.3370775e-38
-0.011424804 -0.12048493 0.0053566694 7.9279988e-39
-0.0096222106 -0.12048493 0.0053566694 9.492449e-39
-0.007819619 -0.12048493 0.0053566694 1.0872865e-38
-0.0060170274 -0.12048493 0.0053566694 1.1701546e-38
-0.004161844 -0.11736105 0.017354488 1.0594116e-38
-0.0023802873 -0.11736105 0.017354488 9.4881246e-39
-0.00059605204 -0.11656497 0.020411968 9.8561855e-39
0.001180144 -0.11656497 0.020411968 1.0868545e-38
0.0029563382 -0.11656497 0.020411968 1.0591244e-38
0.0047325343 -0.11656497 0.020411968 1.1421733e-38
0.0065087285 -0.11656497 0.020411968 7.9193892e-39
0.0083090477 -0.11736105 0.017354488 9.3030509e-39
0.01006112 -0.11656497 0.020411968 1.4097589e-38
0.011837315 -0.11656497 0.020411968 1.4926633e-38
0.01361351 -0.11656497 0.020411968 1.501703e-38
0.015389705 -0.11656497 0.020411968 1.4647163e-38
-0.06051936 -0.14141284 -0.06760633 1.1516828e-38
-0.058588833 -0.14141284 -0.06760633 1.1516095e-38
-0.056658313 -0.14141284 -0.06760633 1.1148394e-38
-0.054376177 -0.13956837 -0.060569763 1.0044568e-38
-0.05226443 -0.13851611 -0.05655539 1.0231118e-38
-0.05021701 -0.13774733 -0.053622484 1.5765377e-38
-0.048311017 -0.13774733 -0.053622484 1.7058637e-38
-0.046274699 -0.13695215 -0.050588846 1.5770778e-38
-0.044211604 -0.13591899 -0.04664731 1.4574392e-38
-0.042199686 -0.13513394 -0.043652415 1.3930464e-38
-0.040160179 -0.13408406 -0.039647102 1.4208847e-38
-0.038168348 -0.13327946 -0.036577582 1.457799e-38
-0.036053494 -0.13144915 -0.029594898 1.4209563e-38
-0.034091905 -0.13065951 -0.026582479 1.4025169e-38
-0.03214141 -0.12987436 -0.023587108 1.4301753e-38
-0.030201903 -0.12909363 -0.020608664 1.4025523e-38
-0.028353786 -0.12909363 -0.020608664 1.448542e-38
-0.026402583 -0.12803085 -0.016554117 1.476272e-38
-0.024561575 -0.12803085 -0.016554117 1.4763072e-38
-0.022656152 -0.12726043 -0.013615012 1.1168514e-38
-0.020698434 -0.12567626 -0.0075713396 1.1629491e-38
-0.018818026 -0.124891 -0.0045756102 1.39333e-38
-0.016998017 -0.124891 -0.0045756102 1.4760542e-38
-0.015119409 -0.12386028 -0.00064337254 1.40201e-38
-0.013306295 -0.12386028 -0.00064337254 1.3001997e-38
-0.011424804 -0.12228753 0.0053566694 8.1123915e-39
-0.0096222106 -0.12228753 0.0053566694 9.3080606e-39
-0.007772008 -0.12070583 0.011390805 1.0227496e-38
-0.005979998 -0.12070583 0.011390805 1.1424959e-38
-0.004161844 -0.11914261 0.017354488 1.0686668e-38
-0.0023802873 -0.11914261 0.017354488 9.5803175e-39
-0.00059605204 -0.11834116 0.020411968 9.8565428e-39
0.001180144 -0.11834116 0.020411968 1.0223529e-38
0.0029563382 -0.11834116 0.020411968 1.1697587e-38
0.0047325343 -0.11834116 0.020411968 1.1236976e-38
0.0065087285 -0.11834116 0.020411968 1.0315385e-38
0.0083090477 -0.11914261 0.017354488 1.1883438e-38
0.01006112 -0.11834116 0.020411968 1.2712843e-38
0.011837315 -0.11834116 0.020411968 1.3080189e-38
0.01361351 -0.11834116 0.020411968 1.3909228e-38
0.015389705 -0.11834116 0.020411968 1.8055869e-38
0.042906947 -0.11283787 0.041407049 2.3508056e-38
0.04464633 -0.11283787 0.041407049 2.3507705e-38
0.04638572 -0.11283787 0.041407049 2.3505553e-38
-0.06051936 -0.14334334 -0.06760633 1.0595951e-38
-0.058588833 -0.14334334 -0.06760633 1.0779249e-38
-0.056454174 -0.14230187 -0.063659549 1.0872163e-38
-0.054376177 -0.14148657 -0.060569763 1.0228233e-38
-0.052457996 -0.14148657 -0.060569763 9.7694129e-39
-0.050353289 -0.14042725 -0.05655539 1.4566107e-38
-0.048442148 -0.14042725 -0.05655539 1.5767529e-38
-0.04640501 -0.13965334 -0.053622484 1.5032844e-38
-0.044211604 -0.13781275 -0.04664731 1.4113049e-38
-0.042199686 -0.13702248 -0.043652415 1.3377642e-38
-0.040160179 -0.13596557 -0.039647102 1.3471279e-38
-0.038168348 -0.13515557 -0.036577582 1.356527e-38
-0.036053494 -0.13331302 -0.029594898 1.3657463e-38
-0.034091905 -0.1325181 -0.026582479 1.4303189e-38
-0.03214141 -0.13172771 -0.023587108 1.4578694e-38
-0.030201903 -0.13094176 -0.020608664 1.3657091e-38
-0.028353786 -0.13094176 -0.020608664 1.4577967e-38
-0.026402583 -0.12987186 -0.016554117 1.4763072e-38
-0.024561575 -0.12987186 -0.016554117 1.4855623e-38
-0.022656152 -0.12909628 -0.013615012 1.1168513e-38
-0.020698434 -0.1275015 -0.0075713396 1.2274857e-38
-0.018818026 -0.126711 -0.0045756102 1.4578669e-38
-0.016998017 -0.126711 -0.0045756102 1.5497751e-38
-0.015073782 -0.12486555 0.0024180412 1.4388528e-38
-0.01326604 -0.12486555 0.0024180412 1.2909448e-38
-0.011390319 -0.12329166 0.0083825588 8.7566917e-39
-0.0095640216 -0.12249784 0.011390805 9.675411e-39
-0.0077484138 -0.12170871 0.014381409 9.9498371e-39
-0.0059434008 -0.12092416 0.017354488 1.1055819e-38
-0.004161844 -0.12092416 0.017354488 1.0501921e-38
-0.0023802873 -0.12092416 0.017354488 9.4881246e-39
-0.00059605204 -0.12011738 0.020411968 1.0132772e-38
0.001180144 -0.12011738 0.020411968 1.059303e-38
0.0029563382 -0.12011738 0.020411968 1.0960738e-38
0.0047325343 -0.12011738 0.020411968 9.1175499e-39
0.0065274918 -0.12092416 0.017354488 1.0407934e-38
0.0083090477 -0.12092416 0.017354488 1.2067102e-38
0.01006112 -0.12011738 0.020411968 1.2803951e-38
0.011837315 -0.12011738 0.020411968 1.326349e-38
0.01361351 -0.12011738 0.020411968 1.2985462e-38
0.015344412 -0.11931543 0.02345109 1.9990169e-38
0.039547712 -0.11537679 0.038377166 2.231094e-38
0.041167565 -0.11457725 0.041407049 2.3509849e-38
0.042906947 -0.11457725 0.041407049 2.3509859e-38
0.04464633 -0.11457725 0.041407049 2.3509869e-38
0.046245791 -0.1137826 0.044418573 2.3509163e-38
0.047738299 -0.11246039 0.049429238 2.3508809e-38
0.049463615 -0.11246039 0.049429238 2.3508809e-38
0.051035672 -0.1116785 0.052392304 2.3417333e-38
0.052755795 -0.1116785 0.052392304 2.3142544e-38
0.05430802 -0.11087631 0.05543232 2.286632e-38
0.056022815 -0.11087631 0.05543232 1.9915324e-38
0.063456938 -0.11324702 0.046448231 8.2072019e-39
-0.06051936 -0.14527388 -0.06760633 1.0597393e-38
-0.058588833 -0.14527388 -0.06760633 1.1148394e-38
-0.056454174 -0.14422549 -0.063659549 1.1701921e-38
-0.054530568 -0.14422549 -0.063659549 1.1149825e-38
-0.052457996 -0.14340474 -0.060569763 1.0137471e-38
-0.050353289 -0.14233841 -0.05655539 1.4104041e-38
-0.048442148 -0.14233841 -0.05655539 1.5212908e-38
-0.04640501 -0.14155935 -0.053622484 1.4939561e-38
-0.044374011 -0.14075352 -0.050588846 1.2361683e-38
-0.042317837 -0.13970654 -0.04664731 1.1534083e-38
-0.040311165 -0.13891099 -0.043652415 1.1259297e-38
-0.038278677 -0.13784705 -0.039647102 1.1721712e-38
-0.036053494 -0.13517688 -0.029594898 1.2828056e-38
-0.034091905 -0.13437669 -0.026582479 1.4395379e-38
-0.03214141 -0.13358103 -0.023587108 1.4671242e-38
-0.030201903 -0.13278987 -0.020608664 1.3287944e-38
-0.028353786 -0.13278987 -0.020608664 1.4301375e-38
-0.026402583 -0.13171287 -0.016554117 1.4393926e-38
-0.024561575 -0.13171287 -0.016554117 1.4302445e-38
-0.022656152 -0.13093217 -0.013615012 1.0338749e-38
-0.020698434 -0.12932678 -0.0075713396 1.1352901e-38
-0.018818026 -0.12853102 -0.0045756102 1.3380126e-38
-0.016881527 -0.1266733 0.0024180412 1.4022623e-38
-0.015029987 -0.12589271 0.0053566694 1.2544619e-38
-0.013187604 -0.12508895 0.0083825588 1.2723981e-38
-0.011356035 -0.12428986 0.011390805 8.8485328e-39
-0.0095351823 -0.12349547 0.014381409 9.9516433e-39
-0.0077249557 -0.12270571 0.017354488 9.857647e-39
-0.0059434008 -0.12270571 0.017354488 1.0963629e-38
-0.004161844 -0.12270571 0.017354488 1.0593765e-38
-0.0023722462 -0.12189357 0.020411968 9.856554e-39
-0.00059605204 -0.12189357 0.020411968 1.0686668e-38
0.001180144 -0.12189357 0.020411968 1.087034e-38
0.0029563382 -0.12189357 0.020411968 1.0778145e-38
0.0047325343 -0.12189357 0.020411968 1.123877e-38
0.0065274918 -0.12270571 0.017354488 1.1606475e-38
0.0083090477 -0.12270571 0.017354488 1.0961108e-38
0.010090603 -0.12270571 0.017354488 1.3634065e-38
0.011872159 -0.12270571 0.017354488 1.335532e-38
0.01361351 -0.12189357 0.020411968 1.2524118e-38
0.015344412 -0.12108628 0.02345109 1.6394533e-38
0.017115278 -0.12108628 0.02345109 2.1557129e-38
0.018886145 -0.12108628 0.02345109 2.1741164e-38
0.020598125 -0.1203105 0.026371598 2.1005044e-38
0.022298044 -0.11951269 0.029375076 2.0545872e-38
0.024058525 -0.11951269 0.029375076 1.354081e-38
0.025895363 -0.1203105 0.026371598 1.2712857e-38
0.039428182 -0.11631663 0.041407049 2.350986e-38
0.041167565 -0.11631663 0.041407049 2.3418021e-38
0.042777583 -0.11551671 0.044418573 2.350986e-38
0.044511691 -0.11551671 0.044418573 2.3509149e-38
0.046151489 -0.11497755 0.046448231 2.3324055e-38
0.047738299 -0.11418571 0.049429238 2.3508809e-38
0.049463615 -0.11418571 0.049429238 2.3417333e-38
0.051035672 -0.11339863 0.052392304 2.3141467e-38
0.052755795 -0.11339863 0.052392304 2.2958873e-38
0.05430802 -0.1125911 0.05543232 2.2958873e-38
0.056022815 -0.1125911 0.05543232 2.2774476e-38
0.057916164 -0.11339863 0.052392304 2.3234372e-38
0.059636287 -0.11339863 0.052392304 2.0008963e-38
0.06135641 -0.11339863 0.052392304 1.0696848e-38
0.063456938 -0.11497755 0.046448231 6.1803442e-39
0.065187484 -0.11497755 0.046448231 8.9462159e-39
-0.06051936 -0.14720438 -0.06760633 1.0966537e-38
-0.058588833 -0.14720438 -0.06760633 1.0873605e-38
-0.056454174 -0.14614908 -0.063659549 1.0320066e-38
-0.054530568 -0.14614908 -0.063659549 1.1242018e-38
-0.052457996 -0.14532293 -0.060569763 1.1058699e-38
-0.050353289 -0.14424954 -0.05655539 1.308916e-38
-0.048442148 -0.14424954 -0.05655539 1.3368265e-38
-0.04640501 -0.14346536 -0.053622484 1.291089e-38
-0.044374011 -0.1426542 -0.050588846 1.2176925e-38
-0.042317837 -0.1416003 -0.04664731 1.0888708e-38
-0.040311165 -0.14079951 -0.043652415 1.1536239e-38
-0.038278677 -0.13972856 -0.039647102 1.1169251e-38
-0.036053494 -0.13704078 -0.029594898 1.1261084e-38
-0.034091905 -0.13623528 -0.026582479 1.2551098e-38
-0.03214141 -0.13543437 -0.023587108 1.2735124e-38
-0.030201903 -0.134638 -0.020608664 1.2918793e-38
-0.028353786 -0.134638 -0.020608664 1.4393923e-38
-0.026402583 -0.13355388 -0.016554117 1.5869411e-38
-0.024561575 -0.13355388 -0.016554117 1.4302801e-38
-0.022656152 -0.13276802 -0.013615012 1.2182299e-38
-0.02075919 -0.13195769 -0.010584474 1.1629125e-38
-0.018818026 -0.13035102 -0.0045756102 1.2826952e-38
-0.016881527 -0.12848105 0.0024180412 1.4114818e-38
-0.015029987 -0.12769531 0.0053566694 1.282085e-38
-0.013187604 -0.12688623 0.0083825588 1.1709832e-38
-0.011356035 -0.12608187 0.011390805 9.2173181e-39
-0.0095351823 -0.12528224 0.014381409 1.0043845e-38
-0.0077249557 -0.1244873 0.017354488 1.0963643e-38
-0.0059246365 -0.12366976 0.020411968 1.0685611e-38
-0.0041484423 -0.12366976 0.020411968 1.0777445e-38
-0.0023722462 -0.12366976 0.020411968 1.0409376e-38
-0.00059605204 -0.12366976 0.020411968 1.0501925e-38
0.001180144 -0.12366976 0.020411968 1.0317532e-38
0.0029563382 -0.12366976 0.020411968 1.077851e-38
0.0047325343 -0.12366976 0.020411968 1.0870707e-38
0.0065274918 -0.1244873 0.017354488 1.0778156e-38
0.0083090477 -0.1244873 0.017354488 1.1330614e-38
0.010090603 -0.1244873 0.017354488 1.2251491e-38
0.011872159 -0.1244873 0.017354488 1.243408e-38
0.01361351 -0.12366976 0.020411968 1.1879464e-38
0.015344412 -0.12285714 0.02345109 1.2523396e-38
0.017115278 -0.12285714 0.02345109 1.4089643e-38
0.018886145 -0.12285714 0.02345109 1.5104876e-38
0.020598125 -0.12207626 0.026371598 1.5197801e-38
0.022298044 -0.12127317 0.029375076 1.4462402e-38
0.024058525 -0.12127317 0.029375076 1.3818842e-38
0.025895363 -0.12207626 0.026371598 1.335967e-38
0.039428182 -0.11805601 0.041407049 2.350987e-38
0.041043483 -0.11725079 0.044418573 2.3326192e-38
0.042777583 -0.11725079 0.044418573 2.3509863e-38
0.044511691 -0.11725079 0.044418573 2.3509869e-38
0.046151489 -0.11670811 0.046448231 2.3416974e-38
0.047738299 -0.11591102 0.049429238 2.3416974e-38
0.049463615 -0.11591102 0.049429238 2.323402e-38
0.051188931 -0.11591102 0.049429238 2.3142544e-38
0.052755795 -0.11511876 0.052392304 2.2775202e-38
0.054475918 -0.11511876 0.052392304 2.2591531e-38
0.056196041 -0.11511876 0.052392304 2.2498618e-38
0.057916164 -0.11511876 0.052392304 2.2958873e-38
0.0594524 -0.1143059 0.05543232 2.2958873e-38
0.061167195 -0.1143059 0.05543232 1.9456162e-38
0.063456938 -0.11670811 0.046448231 1.0606102e-38
0.065187484 -0.11670811 0.046448231 1.0606102e-38
0.067055039 -0.11725079 0.044418573 1.0329515e-38
0.068789139 -0.11725079 0.044418573 9.8685351e-39
-0.06051936 -0.14913492 -0.06760633 1.0046025e-38
-0.058588833 -0.14913492 -0.06760633 1.0690299e-38
-0.056454174 -0.14807267 -0.063659549 1.0412624e-38
-0.054530568 -0.14807267 -0.063659549 1.0596648e-38
-0.052457996 -0.1472411 -0.060569763 9.8594337e-39
-0.050353289 -0.14616071 -0.05655539 1.2166121e-38
-0.048442148 -0.14616071 -0.05655539 1.299804e-38
-0.04640501 -0.14537133 -0.053622484 1.2633214e-38
-0.044374011 -0.14455487 -0.050588846 1.2360593e-38
-0.042317837 -0.14349405 -0.04664731 1.0796867e-38
-0.040311165 -0.14268802 -0.043652415 1.1260005e-38
-0.038278677 -0.14161004 -0.039647102 1.1077053e-38
-0.036053494 -0.13890465 -0.029594898 1.1168884e-38
-0.034091905 -0.13809387 -0.026582479 1.1997919e-38
-0.03214141 -0.13728772 -0.023587108 1.1720607e-38
-0.030201903 -0.13648613 -0.020608664 1.2180504e-38
-0.028353786 -0.13648613 -0.020608664 1.3194301e-38
-0.026402583 -0.13539489 -0.016554117 1.4854902e-38
-0.024561575 -0.13539489 -0.016554117 1.3380129e-38
-0.022589734 -0.13378824 -0.010584474 1.116815e-38
-0.020638032 -0.13217102 -0.0045756102 1.1260345e-38
-0.018745633 -0.13111271 -0.00064337254 1.3471245e-38
-0.016832581 -0.1294979 0.0053566694 1.4390686e-38
-0.015029987 -0.1294979 0.0053566694 1.217476e-38
-0.013148045 -0.12787388 0.011390805 1.1525083e-38
-0.011321953 -0.12706901 0.014381409 9.0329296e-39
-0.0095065106 -0.12626885 0.017354488 9.951293e-39
-0.0077008326 -0.12544595 0.020411968 1.0963287e-38
-0.0059246365 -0.12544595 0.020411968 1.0593062e-38
-0.0041484423 -0.12544595 0.020411968 1.0869286e-38
-0.0023722462 -0.12544595 0.020411968 1.068561e-38
-0.00059605204 -0.12544595 0.020411968 1.0962553e-38
0.001180144 -0.12544595 0.020411968 1.0687039e-38
0.0029643793 -0.12626885 0.017354488 1.0963623e-38
0.004745936 -0.12626885 0.017354488 1.0963626e-38
0.0065274918 -0.12626885 0.017354488 1.0687042e-38
0.0083090477 -0.12626885 0.017354488 1.1239137e-38
0.010090603 -0.12626885 0.017354488 1.1883787e-38
0.011872159 -0.12626885 0.017354488 1.1974541e-38
0.01361351 -0.12544595 0.020411968 1.1419925e-38
0.015344412 -0.12462802 0.02345109 1.114118e-38
0.017115278 -0.12462802 0.02345109 1.1509963e-38
0.018832378 -0.12384202 0.026371598 1.1602161e-38
0.020598125 -0.12384202 0.026371598 1.1234468e-38
0.022298044 -0.12303366 0.029375076 1.1236277e-38
0.024058525 -0.12303366 0.029375076 1.2160039e-38
0.025895363 -0.12384202 0.026371598 1.3268196e-38
0.027661109 -0.12384202 0.026371598 1.4006487e-38
0.036058322 -0.12061088 0.038377166 2.3231144e-38
0.037803017 -0.12061088 0.038377166 2.3416974e-38
0.039428182 -0.1197954 0.041407049 2.350988e-38
0.041043483 -0.11898489 0.044418573 2.3418035e-38
0.042777583 -0.11898489 0.044418573 2.3509863e-38
0.044511691 -0.11898489 0.044418573 2.350987e-38
0.046012983 -0.11763634 0.049429238 2.3325138e-38
0.047738299 -0.11763634 0.049429238 2.3233303e-38
0.049463615 -0.11763634 0.049429238 2.323402e-38
0.051035672 -0.11683889 0.052392304 2.2958873e-38
0.052755795 -0.11683889 0.052392304 2.2867037e-38
0.054475918 -0.11683889 0.052392304 2.2775202e-38
0.056196041 -0.11683889 0.052392304 2.2867037e-38
0.057916164 -0.11683889 0.052392304 2.2222751e-38
0.0594524 -0.11602069 0.05543232 2.2867037e-38
0.061167195 -0.11602069 0.05543232 2.2222395e-38
0.063076541 -0.11683889 0.052392304 2.1669221e-38
0.065187484 -0.11843865 0.046448231 1.2265623e-38
0.067055039 -0.11898489 0.044418573 7.748037e-39
0.068789139 -0.11898489 0.044418573 9.6841439e-39
0.070523247 -0.11898489 0.044418573 9.1306072e-39
-0.054530568 -0.1499963 -0.063659549 1.0965434e-38
-0.052457996 -0.1491593 -0.060569763 9.8587134e-39
-0.050353289 -0.14807184 -0.05655539 1.1981007e-38
-0.048442148 -0.14807184 -0.05655539 1.3181708e-38
-0.046530999 -0.14807184 -0.05655539 1.3277503e-38
-0.04449901 -0.14727734 -0.053622484 1.2267676e-38
-0.042317837 -0.14538784 -0.04664731 1.0888344e-38
-0.040311165 -0.14457656 -0.043652415 1.1075614e-38
-0.038278677 -0.14349155 -0.039647102 1.0800466e-38
-0.036053494 -0.14076851 -0.029594898 1.1168884e-38
-0.034091905 -0.13995247 -0.026582479 1.1720969e-38
-0.03214141 -0.13914107 -0.023587108 1.1166349e-38
-0.030201903 -0.13833423 -0.020608664 1.1534416e-38
-0.028353786 -0.13833423 -0.020608664 1.1903212e-38
-0.026402583 -0.13723589 -0.016554117 1.3102837e-38
-0.024561575 -0.13723589 -0.016554117 1.1996484e-38
-0.022589734 -0.13561879 -0.010584474 1.1167798e-38
-0.020638032 -0.13399105 -0.0045756102 1.190536e-38
-0.018689273 -0.13209651 0.0024180412 1.3563084e-38
-0.016832581 -0.13130049 0.0053566694 1.4021907e-38
-0.014984893 -0.13048081 0.0083825588 1.1898173e-38
-0.013148045 -0.1296659 0.011390805 1.1248496e-38
-0.011321953 -0.12885578 0.014381409 9.1240463e-39
-0.0095065106 -0.1280504 0.017354488 1.0043129e-38
-0.0077008326 -0.12722217 0.020411968 1.0962569e-38
-0.0059246365 -0.12722217 0.020411968 1.050087e-38
-0.0041484423 -0.12722217 0.020411968 1.0868931e-38
-0.0023722462 -0.12722217 0.020411968 1.1053678e-38
-0.00059605204 -0.12722217 0.020411968 1.1607566e-38
0.001180144 -0.12722217 0.020411968 1.1240216e-38
0.0029643793 -0.1280504 0.017354488 1.1332772e-38
0.004745936 -0.1280504 0.017354488 1.1148383e-38
0.0065457365 -0.12885578 0.014381409 1.0779601e-38
0.0083325058 -0.12885578 0.014381409 1.0963992e-38
0.010090603 -0.1280504 0.017354488 1.1608642e-38
0.011872159 -0.1280504 0.017354488 1.1699396e-38
0.01361351 -0.12722217 0.020411968 1.1421367e-38
0.015344412 -0.12639888 0.02345109 1.1696512e-38
0.017115278 -0.12639888 0.02345109 1.1880185e-38
0.018832378 -0.12560774 0.026371598 1.1787992e-38
0.020598125 -0.12560774 0.026371598 1.1235907e-38
0.022298044 -0.12479414 0.029375076 1.1421384e-38
0.024058525 -0.12479414 0.029375076 1.2068923e-38
0.025895363 -0.12560774 0.026371598 1.2899413e-38
0.027661109 -0.12560774 0.026371598 1.3268922e-38
0.032470644 -0.12153481 0.041407049 1.4653308e-38
0.034210034 -0.12153481 0.041407049 2.3509144e-38
0.035949416 -0.12153481 0.041407049 2.2954202e-38
0.037688799 -0.12153481 0.041407049 2.3508809e-38
0.039428182 -0.12153481 0.041407049 2.3325497e-38
0.041043483 -0.120719 0.044418573 2.341804e-38
0.042777583 -0.120719 0.044418573 2.3509866e-38
0.044420943 -0.12016918 0.046448231 2.350987e-38
0.046012983 -0.11936165 0.049429238 2.3417333e-38
0.047738299 -0.11936165 0.049429238 2.3325497e-38
0.049315549 -0.11855899 0.052392304 2.3234379e-38
0.051035672 -0.11855899 0.052392304 2.3142544e-38
0.052755795 -0.11855899 0.052392304 2.2958867e-38
0.054475918 -0.11855899 0.052392304 2.286703e-38
0.056196041 -0.11855899 0.052392304 2.2315658e-38
0.057916164 -0.11855899 0.052392304 2.2775202e-38
0.059636287 -0.11855899 0.052392304 2.1854686e-38
0.06135641 -0.11855899 0.052392304 2.2775202e-38
0.063076541 -0.11855899 0.052392304 2.2775202e-38
0.065320931 -0.120719 0.044418573 1.7705525e-38
