# .PCD v0.7 - Point Cloud Data file format
VERSION 0.7
FIELDS x y z rgb
SIZE 4 4 4 4
TYPE F F F F
COUNT 1 1 1 1
WIDTH 620
HEIGHT 1
VIEWPOINT 0 0 0 1 0 0 0
POINTS 620
DATA ascii
-0.00013164431 -0.11079563 -0.017855585 1.2611686e-44
0.0017865449 -0.11079563 -0.017855585 1.9357565e-39
0.0017865449 -0.1127138 -0.017855585 2.3233296e-38
0.0037047267 -0.1127138 -0.017855585 1.9453631e-38
0.0056229085 -0.1127138 -0.017855585 1.862387e-38
0.0072701052 -0.11176009 -0.013841211 1.659485e-38
0.0091812536 -0.11176009 -0.013841211 9.8642163e-39
0.011092395 -0.11176009 -0.013841211 4.5165181e-39
-0.0024578869 -0.11296929 -0.010908305 2.3509883e-38
-0.00055187941 -0.11296929 -0.010908305 2.3325846e-38
0.0015366748 -0.11367123 -0.013841211 2.2311691e-38
0.0034478158 -0.11367123 -0.013841211 2.1666322e-38
0.0053589642 -0.11367123 -0.013841211 1.8347279e-38
0.0072701052 -0.11367123 -0.013841211 1.4290674e-38
0.0089781284 -0.11296929 -0.010908305 1.069469e-38
0.010884129 -0.11296929 -0.010908305 3.5949163e-39
-0.004363887 -0.1148753 -0.010908305 2.3509876e-38
-0.0024578869 -0.1148753 -0.010908305 2.3233296e-38
-0.00055187941 -0.1148753 -0.010908305 2.2957065e-38
0.0015366748 -0.11558239 -0.013841211 1.0787238e-38
0.0034478158 -0.11558239 -0.013841211 6.4543989e-39
0.0053589642 -0.11558239 -0.013841211 2.7662178e-39
0.0072701052 -0.11558239 -0.013841211 3.0428075e-39
0.0089781284 -0.1148753 -0.010908305 1.2910919e-39
0.010884129 -0.1148753 -0.010908305 2.4892848e-39
0.014696136 -0.1148753 -0.010908305 4.3328457e-39
-0.004363887 -0.11678131 -0.010908305 2.2864153e-38
-0.0024578869 -0.11678131 -0.010908305 2.3509527e-38
-0.00055187941 -0.11678131 -0.010908305 2.3141106e-38
0.0013541207 -0.11678131 -0.010908305 8.758582e-39
0.0032601207 -0.11678131 -0.010908305 3.5873241e-43
0.0051661208 -0.11678131 -0.010908305 2.8584163e-39
0.0070721284 -0.11678131 -0.010908305 2.6743865e-39
0.0089781284 -0.11678131 -0.010908305 2.9509734e-39
0.010884129 -0.11678131 -0.010908305 3.6885441e-39
-0.032645952 -0.12114228 -0.02094537 2.2040617e-39
-0.03072235 -0.12114228 -0.02094537 3.7699189e-39
-0.028798748 -0.12114228 -0.02094537 6.2580952e-39
-0.026986204 -0.12038656 -0.017855585 1.0128169e-38
-0.025219351 -0.11940466 -0.013841211 7.639606e-39
-0.023308206 -0.11940466 -0.013841211 8.288197e-39
-0.0083381198 -0.11794533 -0.0078746667 2.3509866e-38
-0.0064374357 -0.11794533 -0.0078746667 1.9726611e-38
-0.0045367554 -0.11794533 -0.0078746667 2.3509168e-38
-0.0026360676 -0.11794533 -0.0078746667 2.3509168e-38
-0.00073538721 -0.11794533 -0.0078746667 2.3509527e-38
0.0011652932 -0.11794533 -0.0078746667 7.7444357e-39
0.0032601207 -0.11868732 -0.010908305 1.3829316e-39
0.0051661208 -0.11868732 -0.010908305 9.2230943e-40
0.0070721284 -0.11868732 -0.010908305 1.9368215e-39
0.0089781284 -0.11868732 -0.010908305 2.0290199e-39
-0.032645952 -0.12306587 -0.02094537 1.8392407e-39
-0.030822571 -0.12230472 -0.017855585 3.5891275e-39
-0.02890439 -0.12230472 -0.017855585 9.0272166e-39
-0.027130496 -0.12131582 -0.013841211 9.3016553e-39
-0.025219351 -0.12131582 -0.013841211 4.6000313e-39
-0.023308206 -0.12131582 -0.013841211 2.482787e-39
-0.021397062 -0.12131582 -0.013841211 9.9541965e-39
-0.011987895 -0.12059332 -0.010908305 2.0471737e-38
-0.010081895 -0.12059332 -0.010908305 2.2036195e-38
-0.0083381198 -0.119846 -0.0078746667 2.0281594e-38
-0.0064374357 -0.119846 -0.0078746667 1.9543313e-38
-0.0045367554 -0.119846 -0.0078746667 2.0926617e-38
-0.0026360676 -0.119846 -0.0078746667 2.3508809e-38
-0.00073538721 -0.119846 -0.0078746667 2.3048194e-38
0.0011652932 -0.119846 -0.0078746667 1.0601779e-38
0.003065981 -0.119846 -0.0078746667 4.79417e-39
0.0051661208 -0.12059332 -0.010908305 4.6133128e-40
0.0070721284 -0.12059332 -0.010908305 1.3836505e-39
0.0087680295 -0.119846 -0.0078746667 2.1219386e-39
-0.032645952 -0.12498946 -0.02094537 3.6856672e-39
-0.030822571 -0.12422292 -0.017855585 3.4983879e-39
-0.02890439 -0.12422292 -0.017855585 6.9996554e-39
-0.027130496 -0.12322696 -0.013841211 5.7074718e-39
-0.025219351 -0.12322696 -0.013841211 3.6795183e-39
-0.02342391 -0.1224993 -0.010908305 3.2206995e-39
-0.021517906 -0.1224993 -0.010908305 1.1706634e-38
-0.019611906 -0.1224993 -0.010908305 1.7611124e-38
-0.017705902 -0.1224993 -0.010908305 1.8904747e-38
-0.015799902 -0.1224993 -0.010908305 1.5495312e-38
-0.013893899 -0.1224993 -0.010908305 1.5587157e-38
-0.011987895 -0.1224993 -0.010908305 1.5676491e-38
-0.010081895 -0.1224993 -0.010908305 1.6041686e-38
-0.0081758909 -0.1224993 -0.010908305 4.5139971e-39
-0.0064374357 -0.12174667 -0.0078746667 6.4285408e-40
-0.0045367554 -0.12174667 -0.0078746667 3.6860301e-39
-0.0026360676 -0.12174667 -0.0078746667 1.3459843e-38
-0.00073538721 -0.12174667 -0.0078746667 1.4935329e-38
0.0011652932 -0.12174667 -0.0078746667 1.1339697e-38
0.003065981 -0.12174667 -0.0078746667 7.9291759e-39
0.0049666613 -0.12174667 -0.0078746667 1.2355285e-38
0.0068673491 -0.12174667 -0.0078746667 1.6965791e-38
0.0087680295 -0.12174667 -0.0078746667 1.8902265e-38
0.01066871 -0.12174667 -0.0078746667 1.5767262e-38
-0.032645952 -0.12691309 -0.02094537 4.423584e-39
-0.03072235 -0.12691309 -0.02094537 4.6040348e-39
-0.02890439 -0.12614109 -0.017855585 5.9840909e-39
-0.027130496 -0.12513812 -0.013841211 4.8755616e-39
-0.025219351 -0.12513812 -0.013841211 3.032365e-39
-0.02342391 -0.12440531 -0.010908305 2.8494115e-39
-0.021517906 -0.12440531 -0.010908305 1.0043892e-38
-0.019611906 -0.12440531 -0.010908305 1.880856e-38
-0.017705902 -0.12440531 -0.010908305 1.9640847e-38
-0.015799902 -0.12440531 -0.010908305 1.6598073e-38
-0.013893899 -0.12440531 -0.010908305 1.4937134e-38
-0.011841338 -0.12513812 -0.013841211 1.6225712e-38
-0.010081895 -0.12440531 -0.010908305 7.6482842e-39
-0.0081758909 -0.12440531 -0.010908305 4.6937193e-39
-0.0064374357 -0.12364738 -0.0078746667 3.5880878e-39
-0.0045367554 -0.12364738 -0.0078746667 1.933223e-39
-0.0024578869 -0.12440531 -0.010908305 6.8217381e-39
-0.00073538721 -0.12364738 -0.0078746667 1.1616987e-38
0.0011652932 -0.12364738 -0.0078746667 1.1432596e-38
0.003065981 -0.12364738 -0.0078746667 1.2354915e-38
0.0049666613 -0.12364738 -0.0078746667 1.6043105e-38
0.0068673491 -0.12364738 -0.0078746667 2.3234374e-38
0.0087680295 -0.12364738 -0.0078746667 2.3050708e-38
0.010388821 -0.12266256 -0.0039331308 2.1944736e-38
0.012282595 -0.12266256 -0.0039331308 1.5860196e-38
0.014914684 -0.12513812 -0.013841211 8.9455363e-39
-0.03252485 -0.12982969 -0.024892151 1.8421035e-39
-0.03072235 -0.12883668 -0.02094537 2.9452393e-39
-0.028798748 -0.12883668 -0.02094537 4.971025e-39
-0.027130496 -0.12704925 -0.013841211 6.3528553e-39
-0.025219351 -0.12704925 -0.013841211 3.5866192e-39
-0.02342391 -0.12631132 -0.010908305 2.5728344e-39
-0.021517906 -0.12631132 -0.010908305 7.7386526e-39
-0.019611906 -0.12631132 -0.010908305 1.7146528e-38
-0.017705902 -0.12631132 -0.010908305 2.1205299e-38
-0.015799902 -0.12631132 -0.010908305 1.9175604e-38
-0.013893899 -0.12631132 -0.010908305 5.5299469e-39
-0.011987895 -0.12631132 -0.010908305 5.8972833e-39
-0.0099301934 -0.12704925 -0.013841211 5.3419543e-39
-0.0080190487 -0.12704925 -0.013841211 2.757611e-39
-0.0062698908 -0.12631132 -0.010908305 7.275913e-39
-0.004363887 -0.12631132 -0.010908305 5.161149e-39
-0.0024578869 -0.12631132 -0.010908305 2.7665695e-39
-0.00073538721 -0.12554805 -0.0078746667 9.9581846e-39
0.00091996044 -0.12455635 -0.0039331308 2.3418031e-38
0.0028137341 -0.12455635 -0.0039331308 2.3234361e-38
0.0047075078 -0.12455635 -0.0039331308 2.2958856e-38
0.0066012815 -0.12455635 -0.0039331308 2.3050701e-38
0.0084950551 -0.12455635 -0.0039331308 2.2775202e-38
0.010388821 -0.12455635 -0.0039331308 2.2958873e-38
0.012282595 -0.12455635 -0.0039331308 2.2313872e-38
0.014696136 -0.12631132 -0.010908305 1.9455835e-38
-0.03252485 -0.13176022 -0.024892151 1.0119911e-39
-0.03072235 -0.13076027 -0.02094537 2.4860478e-39
-0.028798748 -0.13076027 -0.02094537 4.0533735e-39
-0.027130496 -0.12896039 -0.013841211 3.6842211e-39
-0.025219351 -0.12896039 -0.013841211 2.024334e-39
-0.02342391 -0.12821732 -0.010908305 2.5764316e-39
-0.021517906 -0.12821732 -0.010908305 4.4206973e-39
-0.019611906 -0.12821732 -0.010908305 7.6471772e-39
-0.017705902 -0.12821732 -0.010908305 1.2349157e-38
-0.015799902 -0.12821732 -0.010908305 1.2071867e-38
-0.013893899 -0.12821732 -0.010908305 1.0136127e-38
-0.011987895 -0.12821732 -0.010908305 6.724886e-39
-0.0099301934 -0.12896039 -0.013841211 4.3285227e-39
-0.0080190487 -0.12896039 -0.013841211 5.5270701e-39
-0.0062698908 -0.12821732 -0.010908305 3.1321417e-39
-0.004363887 -0.12821732 -0.010908305 2.7665878e-39
-0.0024578869 -0.12821732 -0.010908305 4.0587629e-39
-0.00073538721 -0.12744872 -0.0078746667 1.1158182e-38
0.00091996044 -0.12645011 -0.0039331308 2.3142538e-38
0.0028137341 -0.12645011 -0.0039331308 2.3050701e-38
0.0045105889 -0.12569134 -0.00093823578 2.3142538e-38
0.00639911 -0.12569134 -0.00093823578 2.295887e-38
0.0082876384 -0.12569134 -0.00093823578 2.2958873e-38
0.010176159 -0.12569134 -0.00093823578 2.2775202e-38
0.01206468 -0.12569134 -0.00093823578 2.2958873e-38
0.014696136 -0.12821732 -0.010908305 2.1945811e-38
-0.034340363 -0.1347049 -0.028867543 1.2885808e-39
-0.032402873 -0.1347049 -0.028867543 8.2760267e-40
-0.03059433 -0.13369073 -0.024892151 1.1971013e-39
-0.02890439 -0.13189565 -0.017855585 2.2112504e-39
-0.027130496 -0.13087155 -0.013841211 1.8424679e-39
-0.02532991 -0.13012333 -0.010908305 3.6770072e-40
-0.02342391 -0.13012333 -0.010908305 5.5101298e-40
-0.021517906 -0.13012333 -0.010908305 1.5633586e-39
-0.019611906 -0.13012333 -0.010908305 1.1938615e-39
-0.017705902 -0.13012333 -0.010908305 2.8508633e-39
-0.015799902 -0.13012333 -0.010908305 6.6305295e-39
-0.013893899 -0.13012333 -0.010908305 1.4282767e-38
-0.011987895 -0.13012333 -0.010908305 1.3085668e-38
-0.0099301934 -0.13087155 -0.013841211 4.4214372e-39
-0.0080190487 -0.13087155 -0.013841211 1.9335971e-39
-0.0062698908 -0.13012333 -0.010908305 2.2119819e-39
-0.004363887 -0.13012333 -0.010908305 2.5829224e-39
-0.0024578869 -0.13012333 -0.010908305 1.8349091e-38
-0.00097381324 -0.1283439 -0.0039331308 2.2682286e-38
0.00073354691 -0.12757985 -0.00093823578 2.3142544e-38
0.0026220679 -0.12757985 -0.00093823578 2.2682283e-38
0.0045105889 -0.12757985 -0.00093823578 2.3142541e-38
0.00639911 -0.12757985 -0.00093823578 2.3050704e-38
0.0080102384 -0.12655805 0.0030670771 2.2866671e-38
0.009891741 -0.12655805 0.0030670771 2.3142544e-38
0.011773236 -0.12655805 0.0030670771 2.2958873e-38
0.013654739 -0.12655805 0.0030670771 2.259009e-38
0.018819865 -0.12502514 0.0090759406 2.2775202e-38
-0.034340363 -0.13664238 -0.028867543 7.3540704e-40
-0.032402873 -0.13664238 -0.028867543 3.6734198e-40
-0.03059433 -0.13562126 -0.024892151 2.7550649e-40
-0.02890439 -0.13381381 -0.017855585 7.371993e-40
-0.027235914 -0.13202934 -0.010908305 8.2939493e-40
-0.02532991 -0.13202934 -0.010908305 4.5989495e-40
-0.023543585 -0.1312501 -0.0078746667 5.5101298e-40
-0.021642905 -0.1312501 -0.0078746667 6.4284847e-40
-0.019742221 -0.1312501 -0.0078746667 1.1938615e-39
-0.017841537 -0.1312501 -0.0078746667 1.5612034e-39
-0.015940852 -0.1312501 -0.0078746667 4.0497708e-39
-0.014040172 -0.1312501 -0.0078746667 1.0964443e-38
-0.011987895 -0.13202934 -0.010908305 1.1058083e-38
-0.010081895 -0.13202934 -0.010908305 4.4214372e-39
-0.0080190487 -0.13278268 -0.013841211 2.0257927e-39
-0.0062698908 -0.13202934 -0.010908305 1.8431993e-39
-0.004363887 -0.13202934 -0.010908305 1.7517198e-39
-0.0024578869 -0.13202934 -0.010908305 2.2680844e-38
-0.00097381324 -0.13023765 -0.0039331308 2.341805e-38
0.00073354691 -0.1294684 -0.00093823578 2.2219866e-38
0.0026220679 -0.1294684 -0.00093823578 2.2958151e-38
0.0045105889 -0.1294684 -0.00093823578 2.3234376e-38
0.00639911 -0.1294684 -0.00093823578 2.2405333e-38
0.0080102384 -0.12843956 0.0030670771 2.3234374e-38
0.009891741 -0.12843956 0.0030670771 2.3142539e-38
0.01154989 -0.12765111 0.0061365971 2.3142541e-38
0.013426006 -0.12765111 0.0061365971 2.3234379e-38
0.015077941 -0.1268961 0.0090759406 2.2866677e-38
0.016948905 -0.1268961 0.0090759406 2.3142544e-38
0.018819865 -0.1268961 0.0090759406 2.2589734e-38
0.020690825 -0.1268961 0.0090759406 2.286632e-38
-0.034252681 -0.13936369 -0.03189832 3.6734198e-40
-0.032402873 -0.13857989 -0.028867543 3.6734198e-40
-0.03059433 -0.1375518 -0.024892151 2.7550649e-40
-0.028798748 -0.13653107 -0.02094537 1.8402972e-40
-0.027235914 -0.13393532 -0.010908305 5.5280804e-40
-0.02532991 -0.13393532 -0.010908305 8.2939353e-40
-0.023699079 -0.13213144 -0.0039331308 9.2015002e-40
-0.021805309 -0.13213144 -0.0039331308 7.3468397e-40
-0.019911535 -0.13213144 -0.0039331308 1.102026e-39
-0.018017761 -0.13213144 -0.0039331308 2.2069344e-39
-0.016123991 -0.13213144 -0.0039331308 1.4693721e-39
-0.014230218 -0.13213144 -0.0039331308 2.0225459e-39
-0.012139488 -0.13315077 -0.0078746667 2.5768057e-39
-0.010238804 -0.13315077 -0.0078746667 3.0392216e-39
-0.0081758909 -0.13393532 -0.010908305 3.8704242e-39
-0.0064374357 -0.13315077 -0.0078746667 2.5807616e-39
-0.0045367554 -0.13315077 -0.0078746667 7.1905403e-39
-0.0026360676 -0.13315077 -0.0078746667 2.2863797e-38
-0.00073538721 -0.13315077 -0.0078746667 2.3509527e-38
0.00073354691 -0.13135691 -0.00093823578 2.3509883e-38
0.0026220679 -0.13135691 -0.00093823578 2.3509883e-38
0.0045105889 -0.13135691 -0.00093823578 2.3233652e-38
0.00639911 -0.13135691 -0.00093823578 2.350988e-38
0.0080102384 -0.13032107 0.0030670771 2.3326208e-38
0.0096737742 -0.12952723 0.0061365971 2.3418045e-38
0.01154989 -0.12952723 0.0061365971 2.3234015e-38
0.013426006 -0.12952723 0.0061365971 2.3418047e-38
0.015077941 -0.12876706 0.0090759406 2.2589368e-38
0.016948905 -0.12876706 0.0090759406 2.3234379e-38
0.018819865 -0.12876706 0.0090759406 2.3142544e-38
0.020690825 -0.12876706 0.0090759406 2.3142544e-38
0.022561785 -0.12876706 0.0090759406 2.2958873e-38
-0.034252681 -0.1413065 -0.03189832 2.7550649e-40
-0.032402873 -0.14051737 -0.028867543 6.4320861e-40
-0.03059433 -0.1394823 -0.024892151 5.5173184e-40
-0.028798748 -0.13845469 -0.02094537 9.1835496e-41
-0.027130496 -0.13660498 -0.013841211 3.5873241e-43
-0.025444269 -0.13505147 -0.0078746667 9.2552961e-41
-0.023699079 -0.1340252 -0.0039331308 3.6734198e-40
-0.021805309 -0.1340252 -0.0039331308 3.6734198e-40
-0.019911535 -0.1340252 -0.0039331308 7.3468397e-40
-0.018017761 -0.1340252 -0.0039331308 1.0101905e-39
-0.016123991 -0.1340252 -0.0039331308 9.1835496e-40
-0.014230218 -0.1340252 -0.0039331308 9.1835496e-40
-0.012139488 -0.13505147 -0.0078746667 6.4285128e-40
-0.010238804 -0.13505147 -0.0078746667 9.198011e-40
-0.0083381198 -0.13505147 -0.0078746667 2.0275906e-39
-0.0066551268 -0.1340252 -0.0039331308 1.9353922e-39
-0.0047613569 -0.1340252 -0.0039331308 1.0139361e-38
-0.0028675869 -0.1340252 -0.0039331308 2.3508807e-38
-0.0011549741 -0.13324542 -0.00093823578 2.3508807e-38
0.00048424304 -0.13220255 0.0030670771 2.3323689e-38
0.0023657456 -0.13220255 0.0030670771 2.3231494e-38
0.0040454194 -0.13140334 0.0061365971 2.3232211e-38
0.0059215352 -0.13140334 0.0061365971 2.3509879e-38
0.0075940862 -0.13063805 0.0090759406 2.2771953e-38
0.0094650462 -0.13063805 0.0090759406 2.3509879e-38
0.011336014 -0.13063805 0.0090759406 2.3325847e-38
0.013206974 -0.13063805 0.0090759406 2.2864869e-38
0.014769554 -0.12958528 0.013119281 2.3418047e-38
0.016633429 -0.12958528 0.013119281 2.341805e-38
0.018497299 -0.12958528 0.013119281 2.3234379e-38
0.020361181 -0.12958528 0.013119281 2.2036197e-38
0.022561785 -0.13063805 0.0090759406 2.3050708e-38
0.02443276 -0.13063805 0.0090759406 1.7151991e-38
0.02630372 -0.13063805 0.0090759406 1.6506622e-38
-0.027130496 -0.13851611 -0.013841211 3.5873241e-43
-0.025444269 -0.13695215 -0.0078746667 3.5873241e-43
-0.023543585 -0.13695215 -0.0078746667 9.1835496e-41
-0.021642905 -0.13695215 -0.0078746667 2.7550649e-40
-0.019742221 -0.13695215 -0.0078746667 9.1835496e-40
-0.018017761 -0.13591899 -0.0039331308 1.0101919e-39
-0.016123991 -0.13591899 -0.0039331308 1.28642e-39
-0.014040172 -0.13695215 -0.0078746667 1.6552053e-39
-0.012139488 -0.13695215 -0.0078746667 9.187221e-40
-0.010238804 -0.13695215 -0.0078746667 2.7550929e-40
-0.0083381198 -0.13695215 -0.0078746667 9.1841101e-41
-0.0066551268 -0.13591899 -0.0039331308 8.2904461e-40
-0.0047613569 -0.13591899 -0.0039331308 9.6773013e-39
-0.0028675869 -0.13591899 -0.0039331308 2.3044586e-38
-0.0011549741 -0.13513394 -0.00093823578 2.1753847e-38
0.00048424304 -0.13408406 0.0030670771 1.88965e-38
0.0021693036 -0.13327946 0.0061365971 2.1938956e-38
0.0040454194 -0.13327946 0.0061365971 2.3508797e-38
0.0057231262 -0.13250901 0.0090759406 2.3509517e-38
0.0075940862 -0.13250901 0.0090759406 2.3509156e-38
0.0094650462 -0.13250901 0.0090759406 2.3509876e-38
0.011041805 -0.13144915 0.013119281 2.3509879e-38
0.01290568 -0.13144915 0.013119281 2.3325127e-38
0.014539793 -0.13065951 0.016131699 2.350988e-38
0.016398385 -0.13065951 0.016131699 2.3233296e-38
0.018497299 -0.13144915 0.013119281 1.7794475e-38
0.02011558 -0.13065951 0.016131699 1.2999947e-38
0.021974172 -0.13065951 0.016131699 1.2171265e-38
0.02443276 -0.13250901 0.0090759406 1.1619533e-38
0.02630372 -0.13250901 0.0090759406 1.2080511e-38
0.028434943 -0.13327946 0.0061365971 1.2909193e-38
0.030311059 -0.13327946 0.0061365971 1.3093221e-38
-0.027130496 -0.14042725 -0.013841211 3.5873241e-43
-0.025592852 -0.13781275 -0.0039331308 7.1746481e-43
-0.023699079 -0.13781275 -0.0039331308 2.7658409e-40
-0.021805309 -0.13781275 -0.0039331308 3.6841958e-40
-0.019742221 -0.13885282 -0.0078746667 5.5101298e-40
-0.018017761 -0.13781275 -0.0039331308 6.4284847e-40
-0.016123991 -0.13781275 -0.0039331308 6.4284847e-40
-0.014040172 -0.13885282 -0.0078746667 6.4284847e-40
-0.012139488 -0.13885282 -0.0078746667 3.6734479e-40
-0.010238804 -0.13885282 -0.0078746667 9.1838299e-41
-0.0083381198 -0.13885282 -0.0078746667 2.7658969e-40
-0.0066551268 -0.13781275 -0.0039331308 1.1056287e-39
-0.0047613569 -0.13781275 -0.0039331308 1.262648e-38
-0.0028675869 -0.13781275 -0.0039331308 2.1936798e-38
-0.0011549741 -0.13702248 -0.00093823578 1.9817017e-38
0.00048424304 -0.13596557 0.0030670771 1.7143341e-38
0.0021693036 -0.13515557 0.0061365971 2.1292144e-38
0.0038521588 -0.13437997 0.0090759406 2.2952742e-38
0.0057231262 -0.13437997 0.0090759406 2.3506635e-38
0.0075940862 -0.13437997 0.0090759406 2.3509514e-38
0.0091779307 -0.13331302 0.013119281 2.3509514e-38
0.011041805 -0.13331302 0.013119281 2.3509517e-38
0.012681201 -0.1325181 0.016131699 2.3509518e-38
0.014539793 -0.1325181 0.016131699 2.3325129e-38
0.016398385 -0.1325181 0.016131699 2.3048545e-38
0.018256973 -0.1325181 0.016131699 1.3552755e-38
0.02011558 -0.1325181 0.016131699 1.097128e-38
0.021974172 -0.1325181 0.016131699 1.0418469e-38
0.023832764 -0.1325181 0.016131699 1.1895397e-38
0.025952797 -0.13331302 0.013119281 1.2540766e-38
0.027816664 -0.13331302 0.013119281 1.2079788e-38
0.029680546 -0.13331302 0.013119281 1.1894675e-38
0.031916615 -0.13437997 0.0090759406 1.1524451e-38
0.033787575 -0.13437997 0.0090759406 7.0986978e-39
0.035658535 -0.13437997 0.0090759406 7.374563e-39
-0.02904164 -0.14233841 -0.013841211 0
-0.027486626 -0.13970654 -0.0039331308 1.0761972e-42
-0.025592852 -0.13970654 -0.0039331308 7.1746481e-43
-0.023699079 -0.13970654 -0.0039331308 3.5873241e-43
-0.021805309 -0.13970654 -0.0039331308 9.1835496e-41
-0.019911535 -0.13970654 -0.0039331308 1.0119939e-39
-0.018017761 -0.13970654 -0.0039331308 5.5101298e-40
-0.016123991 -0.13970654 -0.0039331308 5.5101298e-40
-0.014230218 -0.13970654 -0.0039331308 8.2652367e-40
-0.012336444 -0.13970654 -0.0039331308 8.2760547e-40
-0.010238804 -0.14075352 -0.0078746667 4.6026209e-40
-0.0085489005 -0.13970654 -0.0039331308 2.8025969e-45
-0.0066551268 -0.13970654 -0.0039331308 4.6025928e-40
-0.0049320161 -0.13891099 -0.00093823578 1.1059154e-38
-0.0030434951 -0.13891099 -0.00093823578 1.8063861e-38
-0.0011549741 -0.13891099 -0.00093823578 1.7879467e-38
0.00073354691 -0.13891099 -0.00093823578 1.4930286e-38
0.0021693036 -0.13703169 0.0061365971 1.6774196e-38
0.0038521588 -0.13625093 0.0090759406 1.9172001e-38
0.0057231262 -0.13625093 0.0090759406 2.1477612e-38
0.0073140562 -0.13517688 0.013119281 2.2400287e-38
0.0091779307 -0.13517688 0.013119281 2.3509156e-38
0.010822609 -0.13437669 0.016131699 2.3508794e-38
0.012457997 -0.13358103 0.019127071 2.3509517e-38
0.014311336 -0.13358103 0.019127071 2.3140016e-38
0.016164683 -0.13358103 0.019127071 2.3509521e-38
0.018018018 -0.13358103 0.019127071 1.0970917e-38
0.019871365 -0.13358103 0.019127071 1.0509583e-38
0.021724697 -0.13358103 0.019127071 9.957128e-39
0.023578044 -0.13358103 0.019127071 9.95857e-39
0.025952797 -0.13517688 0.013119281 1.3185414e-38
0.027816664 -0.13517688 0.013119281 1.3369805e-38
0.029680546 -0.13517688 0.013119281 1.2170539e-38
0.031916615 -0.13625093 0.0090759406 1.1524807e-38
0.033787575 -0.13625093 0.0090759406 7.8362614e-39
0.035658535 -0.13625093 0.0090759406 7.5589514e-39
-0.02904164 -0.14424954 -0.013841211 0
-0.027486626 -0.1416003 -0.0039331308 1.4391335e-42
-0.025592852 -0.1416003 -0.0039331308 3.5873241e-43
-0.023699079 -0.1416003 -0.0039331308 3.5873241e-43
-0.021805309 -0.1416003 -0.0039331308 1.8439126e-40
-0.019911535 -0.1416003 -0.0039331308 2.7550929e-40
-0.018017761 -0.1416003 -0.0039331308 7.3540984e-40
-0.016123991 -0.1416003 -0.0039331308 1.4718959e-39
-0.014230218 -0.1416003 -0.0039331308 6.4321421e-40
-0.012336444 -0.1416003 -0.0039331308 2.7550929e-40
-0.010442674 -0.1416003 -0.0039331308 2.8025969e-45
-0.0085489005 -0.1416003 -0.0039331308 2.7694983e-40
-0.0066551268 -0.1416003 -0.0039331308 9.1835496e-41
-0.0049320161 -0.14079951 -0.00093823578 8.6613473e-39
-0.0030434951 -0.14079951 -0.00093823578 1.6680927e-38
-0.0011549741 -0.14079951 -0.00093823578 1.5113598e-38
0.00073354691 -0.14079951 -0.00093823578 1.3455156e-38
0.0021693036 -0.13890781 0.0061365971 1.6036631e-38
0.0040454194 -0.13890781 0.0061365971 1.7789066e-38
0.0057231262 -0.13812189 0.0090759406 1.75132e-38
0.0073140562 -0.13704078 0.013119281 2.0556374e-38
0.0091779307 -0.13704078 0.013119281 2.3045656e-38
0.010822609 -0.13623528 0.016131699 2.3046375e-38
0.012457997 -0.13543437 0.019127071 2.3509517e-38
0.014311336 -0.13543437 0.019127071 2.2863429e-38
0.016164683 -0.13543437 0.019127071 1.7146942e-38
0.018018018 -0.13543437 0.019127071 1.2446044e-38
0.019871365 -0.13543437 0.019127071 1.281483e-38
0.021724697 -0.13543437 0.019127071 8.8507777e-39
0.023578044 -0.13543437 0.019127071 8.1139343e-39
0.025691357 -0.13623528 0.016131699 1.3092498e-38
0.027816664 -0.13704078 0.013119281 1.263152e-38
0.029680546 -0.13704078 0.013119281 1.1616647e-38
0.031544413 -0.13704078 0.013119281 1.0970914e-38
0.033787575 -0.13812189 0.0090759406 7.928457e-39
0.035658535 -0.13812189 0.0090759406 6.6369951e-39
-0.029245637 -0.14455487 -0.0078746667 4.6097535e-40
-0.027486626 -0.14349405 -0.0039331308 9.3634763e-41
-0.025592852 -0.14349405 -0.0039331308 1.4391335e-42
-0.023699079 -0.14349405 -0.0039331308 3.5873241e-43
-0.021805309 -0.14349405 -0.0039331308 2.7658969e-40
-0.019911535 -0.14349405 -0.0039331308 4.6026209e-40
-0.018017761 -0.14349405 -0.0039331308 4.1470083e-39
-0.016123991 -0.14349405 -0.0039331308 3.9622569e-39
-0.014230218 -0.14349405 -0.0039331308 1.0119967e-39
-0.012336444 -0.14349405 -0.0039331308 4.5918309e-40
-0.010442674 -0.14349405 -0.0039331308 4.6098095e-40
-0.0085489005 -0.14349405 -0.0039331308 2.8025969e-45
-0.0066551268 -0.14349405 -0.0039331308 9.1835496e-41
-0.0049320161 -0.14268802 -0.00093823578 5.3423047e-39
-0.0030434951 -0.14268802 -0.00093823578 1.3822862e-38
-0.0011549741 -0.14268802 -0.00093823578 1.253212e-38
0.00048424304 -0.14161004 0.0030670771 9.4907437e-39
0.0021693036 -0.14078392 0.0061365971 1.1058069e-38
0.0038521588 -0.13999285 0.0090759406 1.4285632e-38
0.0057231262 -0.13999285 0.0090759406 1.4470744e-38
0.0073140562 -0.13890465 0.013119281 1.5485615e-38
0.0091779307 -0.13890465 0.013119281 1.5670006e-38
0.010822609 -0.13809387 0.016131699 1.6316094e-38
0.012457997 -0.13728772 0.019127071 1.6962187e-38
0.014311336 -0.13728772 0.019127071 1.4565103e-38
0.016164683 -0.13728772 0.019127071 1.2537161e-38
0.017780405 -0.13648613 0.022105515 1.2629357e-38
0.019628521 -0.13648613 0.022105515 1.3736786e-38
0.021476652 -0.13648613 0.022105515 9.3113957e-39
0.023324769 -0.13648613 0.022105515 9.0351717e-39
0.025691357 -0.13809387 0.016131699 1.2722997e-38
0.027549949 -0.13809387 0.016131699 1.2538603e-38
0.029680546 -0.13890465 0.013119281 1.1524807e-38
0.031544413 -0.13890465 0.013119281 9.8645667e-39
0.033787575 -0.13999285 0.0090759406 6.7299138e-39
0.035658535 -0.13999285 0.0090759406 6.4526039e-39
-0.029245637 -0.14645557 -0.0078746667 5.5281084e-40
-0.027486626 -0.14538784 -0.0039331308 3.5873241e-43
-0.025592852 -0.14538784 -0.0039331308 1.0818024e-42
-0.023699079 -0.14538784 -0.0039331308 3.61535e-43
-0.021805309 -0.14538784 -0.0039331308 3.657389e-43
-0.019911535 -0.14538784 -0.0039331308 9.1841101e-41
-0.018017761 -0.14538784 -0.0039331308 6.6362931e-39
-0.016123991 -0.14538784 -0.0039331308 5.7136179e-39
-0.014230218 -0.14538784 -0.0039331308 5.5102138e-40
-0.012336444 -0.14538784 -0.0039331308 3.6734619e-40
-0.010442674 -0.14538784 -0.0039331308 5.5245772e-40
-0.0085489005 -0.14538784 -0.0039331308 2.8025969e-45
-0.0066551268 -0.14538784 -0.0039331308 5.5245491e-40
-0.0049320161 -0.14457656 -0.00093823578 2.6693517e-39
-0.0030434951 -0.14457656 -0.00093823578 1.1057713e-38
-0.0011549741 -0.14457656 -0.00093823578 1.0688931e-38
0.00048424304 -0.14349155 0.0030670771 7.3706043e-39
0.0021693036 -0.14266007 0.0061365971 7.5549956e-39
0.0038521588 -0.14186381 0.0090759406 1.1612682e-38
0.0054501817 -0.14076851 0.013119281 1.2350245e-38
0.0073140562 -0.14076851 0.013119281 1.1060225e-38
0.0091779307 -0.14076851 0.013119281 1.1521203e-38
0.010822609 -0.13995247 0.016131699 1.4103399e-38
0.012457997 -0.13914107 0.019127071 1.4933883e-38
0.014311336 -0.13914107 0.019127071 1.2905582e-38
0.016164683 -0.13914107 0.019127071 1.1983987e-38
0.017780405 -0.13833423 0.022105515 1.2537164e-38
0.019628521 -0.13833423 0.022105515 1.3552039e-38
0.021476652 -0.13833423 0.022105515 1.0325192e-38
0.023324769 -0.13833423 0.022105515 1.0325192e-38
0.025431376 -0.13914107 0.019127071 1.1431539e-38
0.027549949 -0.13995247 0.016131699 1.1616286e-38
0.029408541 -0.13995247 0.016131699 1.1800675e-38
0.031267133 -0.13995247 0.016131699 1.0047879e-38
0.033787575 -0.14186381 0.0090759406 7.1901717e-39
0.035658535 -0.14186381 0.0090759406 7.1901689e-39
-0.027486626 -0.1472816 -0.0039331308 2.8025969e-45
-0.025592852 -0.1472816 -0.0039331308 3.61535e-43
-0.023699079 -0.1472816 -0.0039331308 3.643376e-43
-0.021642905 -0.14835624 -0.0078746667 3.657389e-43
-0.019742221 -0.14835624 -0.0078746667 9.1841101e-41
-0.017841537 -0.14835624 -0.0078746667 6.7284887e-39
-0.016123991 -0.1472816 -0.0039331308 6.451183e-39
-0.014230218 -0.1472816 -0.0039331308 1.1960321e-39
-0.012336444 -0.1472816 -0.0039331308 2.7550929e-40
-0.010442674 -0.1472816 -0.0039331308 9.1838299e-41
-0.0085489005 -0.1472816 -0.0039331308 2.8025969e-45
-0.0066551268 -0.1472816 -0.0039331308 9.2123743e-40
-0.0049320161 -0.14646508 -0.00093823578 6.4284847e-40
-0.0030434951 -0.14646508 -0.00093823578 6.909629e-39
-0.0011549741 -0.14646508 -0.00093823578 7.3716861e-39
0.00073354691 -0.14646508 -0.00093823578 5.8043604e-39
0.0023657456 -0.14537306 0.0030670771 4.9745997e-39
0.0038521588 -0.14373477 0.0090759406 8.2021628e-39
0.0054501817 -0.14263238 0.013119281 9.1241191e-39
0.0073140562 -0.14263238 0.013119281 7.3731182e-39
0.0091779307 -0.14263238 0.013119281 7.6497051e-39
0.010822609 -0.14181106 0.016131699 1.0692884e-38
0.012457997 -0.14099441 0.019127071 1.2260212e-38
0.014311336 -0.14099441 0.019127071 1.235277e-38
0.016164683 -0.14099441 0.019127071 1.2444968e-38
0.017780405 -0.14018236 0.022105515 1.2168381e-38
0.019628521 -0.14018236 0.022105515 1.2630082e-38
0.021476652 -0.14018236 0.022105515 1.1800322e-38
0.023324769 -0.14018236 0.022105515 1.0878365e-38
0.025431376 -0.14099441 0.019127071 8.9422572e-39
0.027549949 -0.14181106 0.016131699 9.0348088e-39
0.029408541 -0.14181106 0.016131699 1.0509939e-38
0.031267133 -0.14181106 0.016131699 9.5869008e-39
0.033125725 -0.14181106 0.016131699 7.5589542e-39
0.035272162 -0.14263238 0.013119281 7.374563e-39
-0.016123991 -0.14917539 -0.0039331308 6.2667931e-39
-0.014230218 -0.14917539 -0.0039331308 3.3165315e-39
-0.0085489005 -0.14917539 -0.0039331308 9.219563e-41
-0.0066551268 -0.14917539 -0.0039331308 4.6025928e-40
-0.0049320161 -0.14835359 -0.00093823578 1.1956593e-39
-0.0030434951 -0.14835359 -0.00093823578 4.2373962e-39
-0.0011549741 -0.14835359 -0.00093823578 4.79057e-39
0.00073354691 -0.14835359 -0.00093823578 5.4366569e-39
0.0026220679 -0.14835359 -0.00093823578 3.9615268e-39
0.0045105889 -0.14835359 -0.00093823578 5.4370128e-39
0.0057231262 -0.14560573 0.0090759406 6.635556e-39
0.0073140562 -0.14449625 0.013119281 6.0831025e-39
0.0091779307 -0.14449625 0.013119281 7.0050588e-39
0.010822609 -0.14366965 0.016131699 9.2184756e-39
0.012457997 -0.14284773 0.019127071 9.3106712e-39
0.014311336 -0.14284773 0.019127071 1.0508857e-38
0.015932292 -0.14203046 0.022105515 1.2076186e-38
0.017780405 -0.14203046 0.022105515 1.2814474e-38
0.019628521 -0.14203046 0.022105515 1.3183259e-38
0.021476652 -0.14203046 0.022105515 1.2814476e-38
0.023324769 -0.14203046 0.022105515 1.2813753e-38
0.025431376 -0.14284773 0.019127071 9.1259282e-39
0.027549949 -0.14366965 0.016131699 8.3883604e-39
0.029138055 -0.14284773 0.019127071 9.0337298e-39
0.030991402 -0.14284773 0.019127071 7.7429882e-39
0.033125725 -0.14366965 0.016131699 6.9135848e-39
0.035272162 -0.14449625 0.013119281 7.5589542e-39
0.0057231262 -0.14747669 0.0090759406 1.7499079e-39
0.0075940862 -0.14747669 0.0090759406 2.4881918e-39
0.0091779307 -0.14636014 0.013119281 4.0555203e-39
0.010822609 -0.14552824 0.016131699 7.2823674e-39
0.012457997 -0.14470108 0.019127071 7.3742057e-39
0.014311336 -0.14470108 0.019127071 7.9273822e-39
0.015932292 -0.14387859 0.022105515 8.4812791e-39
0.017780405 -0.14387859 0.022105515 1.0509583e-38
0.019628521 -0.14387859 0.022105515 1.106276e-38
0.021476652 -0.14387859 0.022105515 1.0232999e-38
0.023324769 -0.14387859 0.022105515 1.1522296e-38
0.025431376 -0.14470108 0.019127071 7.9266662e-39
0.027549949 -0.14552824 0.016131699 6.6366434e-39
0.029138055 -0.14470108 0.019127071 5.0693177e-39
0.030991402 -0.14470108 0.019127071 2.8566198e-39
0.032844748 -0.14470108 0.019127071 3.041011e-39
0.0075940862 -0.14934768 0.0090759406 8.2939353e-40
0.0091779307 -0.14822401 0.013119281 1.0137848e-39
0.010822609 -0.14738683 0.016131699 4.1484362e-39
0.012457997 -0.14655443 0.019127071 5.0703939e-39
0.014311336 -0.14655443 0.019127071 7.0987006e-39
0.015932292 -0.1457267 0.022105515 7.0983446e-39
0.017780405 -0.1457267 0.022105515 8.8500616e-39
0.019628521 -0.1457267 0.022105515 9.7720207e-39
0.021476652 -0.1457267 0.022105515 9.4954338e-39
0.023324769 -0.1457267 0.022105515 9.95497e-39
0.025431376 -0.14655443 0.019127071 7.9266662e-39
0.027549949 -0.14738683 0.016131699 7.465688e-39
0.029408541 -0.14738683 0.016131699 5.1607945e-39
0.031267133 -0.14738683 0.016131699 3.2254023e-39
0.033125725 -0.14738683 0.016131699 3.7785761e-39
0.0068979785 -0.14840777 0.019127071 9.1835496e-41
0.0087513179 -0.14840777 0.019127071 7.371979e-40
0.010604657 -0.14840777 0.019127071 1.8402972e-40
0.012457997 -0.14840777 0.019127071 9.1835496e-41
0.014311336 -0.14840777 0.019127071 3.5952666e-39
0.016164683 -0.14840777 0.019127071 4.1480845e-39
0.017780405 -0.14757483 0.022105515 5.0700408e-39
0.019628521 -0.14757483 0.022105515 5.2544348e-39
0.021476652 -0.14757483 0.022105515 5.1622392e-39
0.023324769 -0.14757483 0.022105515 5.2533558e-39
0.025431376 -0.14840777 0.019127071 4.5161467e-39
0.027549949 -0.14924543 0.016131699 5.2537118e-39
0.029408541 -0.14924543 0.016131699 3.962973e-39
0.031267133 -0.14924543 0.016131699 3.2261282e-39
0.015932292 -0.14942293 0.022105515 3.2261282e-39
0.017780405 -0.14942293 0.022105515 4.0558888e-39
0.019628521 -0.14942293 0.022105515 4.3324757e-39
0.021476652 -0.14942293 0.022105515 4.4246742e-39
0.023324769 -0.14942293 0.022105515 4.3331974e-39
