# .PCD v0.7 - Point Cloud Data file format
VERSION 0.7
FIELDS x y z rgb
SIZE 4 4 4 4
TYPE F F F F
COUNT 1 1 1 1
WIDTH 933
HEIGHT 1
VIEWPOINT 0 0 0 1 0 0 0
POINTS 933
DATA ascii
-0.048704717 -0.12259962 -0.035596158 2.3050349e-38
-0.046742536 -0.12259962 -0.035596158 2.3050708e-38
-0.044712447 -0.12161671 -0.031519081 2.286632e-38
-0.042713504 -0.12090631 -0.028572466 2.286632e-38
-0.040710695 -0.11993565 -0.024546172 2.2312787e-38
-0.038767889 -0.11993565 -0.024546172 2.3325856e-38
-0.036825083 -0.11993565 -0.024546172 2.3509527e-38
-0.034882277 -0.11993565 -0.024546172 2.3508441e-38
-0.032920875 -0.11920498 -0.021515395 2.156981e-38
-0.030983383 -0.11920498 -0.021515395 6.8177865e-39
-0.029053863 -0.11993565 -0.024546172 6.5408352e-39
-0.027111059 -0.11993565 -0.024546172 6.8177823e-39
-0.025168253 -0.11993565 -0.024546172 6.5451512e-39
-0.023243876 -0.11824657 -0.017540004 7.0997641e-39
-0.021330655 -0.11729507 -0.013593223 7.2841554e-39
-0.019426016 -0.11655019 -0.010503437 6.7306215e-39
-0.017507832 -0.11655019 -0.010503437 6.1774477e-39
-0.015589649 -0.11655019 -0.010503437 6.4540346e-39
-0.013671465 -0.11655019 -0.010503437 6.8217381e-39
-0.011753283 -0.11655019 -0.010503437 6.5451512e-39
-0.0098350998 -0.11655019 -0.010503437 6.36076e-39
-0.0079169162 -0.11655019 -0.010503437 5.531721e-39
-0.0059418497 -0.11729507 -0.013593223 5.1629385e-39
-0.0039386698 -0.11824657 -0.017540004 5.440247e-39
-0.0020081499 -0.11824657 -0.017540004 5.8093925e-39
1.6469043e-05 -0.11920498 -0.021515395 5.6260802e-39
0.001953959 -0.11920498 -0.021515395 5.441333e-39
-0.054591253 -0.1245618 -0.035596158 2.3234369e-38
-0.052629076 -0.1245618 -0.035596158 2.3418045e-38
-0.05057754 -0.12357174 -0.031519081 2.332621e-38
-0.048563097 -0.12285618 -0.028572466 2.341805e-38
-0.046539105 -0.12187846 -0.024546172 2.3142544e-38
-0.044596303 -0.12187846 -0.024546172 2.2681567e-38
-0.042653501 -0.12187846 -0.024546172 2.341805e-38
-0.040710695 -0.12187846 -0.024546172 2.341805e-38
-0.038733348 -0.12114246 -0.021515395 2.3509886e-38
-0.036795858 -0.12114246 -0.021515395 2.3509527e-38
-0.034858365 -0.12114246 -0.021515395 2.295527e-38
-0.032920875 -0.12114246 -0.021515395 2.2309538e-38
-0.030983383 -0.12114246 -0.021515395 6.8195913e-39
-0.029045893 -0.12114246 -0.021515395 6.1735031e-39
-0.027104916 -0.12017711 -0.017540004 9.3106684e-39
-0.025174396 -0.12017711 -0.017540004 6.4565597e-39
-0.021330655 -0.11921866 -0.013593223 7.0104538e-39
-0.019407054 -0.11921866 -0.013593223 6.0877772e-39
-0.017507832 -0.11846836 -0.010503437 5.6267963e-39
-0.015589649 -0.11846836 -0.010503437 6.2714468e-39
-0.013671465 -0.11846836 -0.010503437 6.8238975e-39
-0.011753283 -0.11846836 -0.010503437 6.5465918e-39
-0.0098350998 -0.11846836 -0.010503437 6.5465918e-39
-0.0079169162 -0.11846836 -0.010503437 6.269286e-39
-0.005998733 -0.11846836 -0.010503437 6.1770904e-39
-0.0040182495 -0.11921866 -0.013593223 6.4536773e-39
-0.0020081499 -0.12017711 -0.017540004 6.5465918e-39
-7.7628065e-05 -0.12017711 -0.017540004 6.3622005e-39
0.0018528919 -0.12017711 -0.017540004 6.2700049e-39
0.013933631 -0.11094652 0.020471428 7.923062e-39
0.015797505 -0.11094652 0.020471428 6.3557503e-39
0.017002957 -0.10706602 0.036451314 6.8174586e-39
0.01883881 -0.10706602 0.036451314 7.8323406e-39
0.020674666 -0.10706602 0.036451314 8.5713419e-39
0.022510523 -0.10706602 0.036451314 6.6370148e-39
-0.056362554 -0.12480606 -0.028572466 7.7451462e-39
-0.054487601 -0.12552677 -0.031519081 2.3418043e-38
-0.052532569 -0.12552677 -0.031519081 2.3418045e-38
-0.050424717 -0.12382124 -0.024546172 2.2588643e-38
-0.048481911 -0.12382124 -0.024546172 2.3418047e-38
-0.046539105 -0.12382124 -0.024546172 2.3417687e-38
-0.044596303 -0.12382124 -0.024546172 2.3509886e-38
-0.042653501 -0.12382124 -0.024546172 2.3509886e-38
-0.040670838 -0.12307997 -0.021515395 2.3325497e-38
-0.038733348 -0.12307997 -0.021515395 2.2680128e-38
-0.036757521 -0.12210761 -0.017540004 2.3509168e-38
-0.034827001 -0.12210761 -0.017540004 2.3233302e-38
-0.032896478 -0.12210761 -0.017540004 1.9084498e-38
-0.030965958 -0.12210761 -0.017540004 9.7727396e-39
-0.029035436 -0.12210761 -0.017540004 8.3898023e-39
-0.027101457 -0.12114228 -0.013593223 8.1146546e-39
-0.025177855 -0.12114228 -0.013593223 7.6569064e-39
-0.023254255 -0.12114228 -0.013593223 7.4735941e-39
-0.021330655 -0.12114228 -0.013593223 8.0256875e-39
-0.019426016 -0.12038656 -0.010503437 8.7628924e-39
-0.017507832 -0.12038656 -0.010503437 8.5777795e-39
-0.015589649 -0.12038656 -0.010503437 7.9316898e-39
-0.013671465 -0.12038656 -0.010503437 8.0231666e-39
-0.011753283 -0.12038656 -0.010503437 8.6674542e-39
-0.0098949261 -0.11940466 -0.0064890641 7.7451378e-39
-0.0079837814 -0.11940466 -0.0064890641 7.9295262e-39
-0.0060726372 -0.11940466 -0.0064890641 8.4819811e-39
-0.0040182495 -0.12114228 -0.013593223 8.8507637e-39
-0.0020946492 -0.12114228 -0.013593223 8.5741768e-39
-7.7628065e-05 -0.12210761 -0.017540004 7.9288074e-39
0.015797505 -0.11281042 0.020471428 5.2497559e-39
0.01753726 -0.11207359 0.023483846 1.2256998e-38
0.01883881 -0.10890187 0.036451314 1.6498372e-38
0.020674666 -0.10890187 0.036451314 1.8897257e-38
-0.056362554 -0.12675591 -0.028572466 8.0217359e-39
-0.054412689 -0.12675591 -0.028572466 2.30507e-38
-0.052462824 -0.12675591 -0.028572466 2.3418043e-38
-0.050424717 -0.12576406 -0.024546172 2.3142174e-38
-0.048481911 -0.12576406 -0.024546172 2.350988e-38
-0.046539105 -0.12576406 -0.024546172 2.3140737e-38
-0.044545822 -0.12501745 -0.021515395 2.3509524e-38
-0.042608328 -0.12501745 -0.021515395 2.3508444e-38
-0.040670838 -0.12501745 -0.021515395 2.3509527e-38
-0.038688041 -0.12403814 -0.017540004 2.3509168e-38
-0.03671946 -0.12306587 -0.013593223 2.3509527e-38
-0.034795862 -0.12306587 -0.013593223 2.0744384e-38
-0.03287226 -0.12306587 -0.013593223 1.3185784e-38
-0.030948658 -0.12306587 -0.013593223 7.4703754e-39
-0.029025057 -0.12306587 -0.013593223 6.8257276e-39
-0.027098747 -0.12230472 -0.010503437 5.9044846e-39
-0.025180565 -0.12230472 -0.010503437 6.8278688e-39
-0.023262382 -0.12230472 -0.010503437 6.6438321e-39
-0.021330655 -0.12306587 -0.013593223 7.3803181e-39
-0.019426016 -0.12230472 -0.010503437 8.5785012e-39
-0.017507832 -0.12230472 -0.010503437 8.5777823e-39
-0.015589649 -0.12230472 -0.010503437 7.8391383e-39
-0.013671465 -0.12230472 -0.010503437 7.8384194e-39
-0.011753283 -0.12230472 -0.010503437 8.667457e-39
-0.0098949261 -0.12131582 -0.0064890641 8.5745425e-39
-0.0079837814 -0.12131582 -0.0064890641 9.0351577e-39
-0.0060726372 -0.12131582 -0.0064890641 9.5883315e-39
-0.0041614943 -0.12131582 -0.0064890641 9.957114e-39
-0.0021623676 -0.12230472 -0.010503437 9.5883315e-39
-0.00024418393 -0.12230472 -0.010503437 8.9429621e-39
0.0013200431 -0.11887501 0.003419016 8.6663752e-39
0.0032138168 -0.11887501 0.003419016 8.8507665e-39
0.0050209458 -0.11813726 0.006413911 8.0213715e-39
0.0069094687 -0.11813726 0.006413911 8.6660235e-39
0.0087979902 -0.11813726 0.006413911 8.1099756e-39
0.010686511 -0.11813726 0.006413911 7.1869375e-39
0.012215091 -0.11567034 0.016428087 8.6616991e-39
0.014086055 -0.11567034 0.016428087 8.0156108e-39
0.015797505 -0.11467429 0.020471428 6.0795138e-39
0.01753726 -0.11393218 0.023483846 1.5852625e-38
0.019395852 -0.11393218 0.023483846 1.6867512e-38
0.021389129 -0.11467429 0.020471428 1.6223582e-38
0.027683204 -0.11813726 0.006413911 6.3618362e-39
0.029571725 -0.11813726 0.006413911 5.6228404e-39
0.031460244 -0.11813726 0.006413911 4.9757012e-39
0.033514176 -0.11887501 0.003419016 4.5161663e-39
0.035237286 -0.11813726 0.006413911 2.6765571e-39
0.037125807 -0.11813726 0.006413911 4.4297062e-39
0.039014328 -0.11813726 0.006413911 5.1665552e-39
0.040902849 -0.11813726 0.006413911 6.0870724e-39
-0.054412689 -0.12870578 -0.028572466 2.2958864e-38
-0.052462824 -0.12870578 -0.028572466 2.3234372e-38
-0.050424717 -0.12770687 -0.024546172 2.3509879e-38
-0.048481911 -0.12770687 -0.024546172 2.3509879e-38
-0.046483312 -0.12695493 -0.021515395 2.304782e-38
-0.044545822 -0.12695493 -0.021515395 2.350952e-38
-0.042608328 -0.12695493 -0.021515395 2.3508441e-38
-0.040618561 -0.12596865 -0.017540004 2.3508445e-38
-0.038643062 -0.12498946 -0.013593223 2.323258e-38
-0.03671946 -0.12498946 -0.013593223 2.2588295e-38
-0.034771483 -0.12422292 -0.010503437 1.7334587e-38
-0.032853298 -0.12422292 -0.010503437 1.3556011e-38
-0.030935114 -0.12422292 -0.010503437 7.2881491e-39
-0.029016931 -0.12422292 -0.010503437 4.2471353e-39
-0.027095228 -0.12322696 -0.0064890641 4.7081092e-39
-0.025184084 -0.12322696 -0.0064890641 5.3527387e-39
-0.023272939 -0.12322696 -0.0064890641 5.0757833e-39
-0.021361794 -0.12322696 -0.0064890641 4.429695e-39
-0.01945065 -0.12322696 -0.0064890641 4.0601936e-39
-0.017539505 -0.12322696 -0.0064890641 4.2438646e-39
-0.015628362 -0.12322696 -0.0064890641 4.9803549e-39
-0.013717217 -0.12322696 -0.0064890641 6.1781778e-39
-0.011806073 -0.12322696 -0.0064890641 6.915024e-39
-0.0098949261 -0.12322696 -0.0064890641 7.0065007e-39
-0.0079837814 -0.12322696 -0.0064890641 7.0986964e-39
-0.0060726372 -0.12322696 -0.0064890641 7.4674789e-39
-0.0041614943 -0.12322696 -0.0064890641 7.6518701e-39
-0.0022503496 -0.12322696 -0.0064890641 7.4674789e-39
-0.0004086257 -0.1224993 -0.0035561579 7.190892e-39
0.0013200431 -0.1207688 0.003419016 7.4674789e-39
0.0032138168 -0.1207688 0.003419016 8.0213715e-39
0.0050209458 -0.12002577 0.006413911 7.744786e-39
0.0069094687 -0.12002577 0.006413911 8.6660221e-39
0.0087979902 -0.12002577 0.006413911 9.0326424e-39
0.010686511 -0.12002577 0.006413911 9.6769272e-39
0.012215091 -0.1175413 0.016428087 1.069e-38
0.014086055 -0.1175413 0.016428087 8.7531786e-39
0.015957015 -0.1175413 0.016428087 7.9227131e-39
0.017827978 -0.1175413 0.016428087 1.917167e-38
0.019698942 -0.1175413 0.016428087 1.8250441e-38
0.021569906 -0.1175413 0.016428087 1.0047182e-38
0.023720061 -0.11903207 0.010419223 7.6515184e-39
0.025794683 -0.12002577 0.006413911 4.5182907e-39
0.027683204 -0.12002577 0.006413911 4.4257307e-39
0.029571725 -0.12002577 0.006413911 5.3462535e-39
0.031460244 -0.12002577 0.006413911 5.7136179e-39
0.033348765 -0.12002577 0.006413911 5.7150613e-39
0.035237286 -0.12002577 0.006413911 4.9821639e-39
0.037125807 -0.12002577 0.006413911 2.9556552e-39
0.039014328 -0.12002577 0.006413911 6.4580129e-39
0.041089263 -0.1207688 0.003419016 1.4754541e-38
0.043235283 -0.12174667 -0.00052251993 1.2263464e-38
0.04487681 -0.1207688 0.003419016 8.2972536e-39
0.046770584 -0.1207688 0.003419016 8.4809274e-39
-0.054412689 -0.13065563 -0.028572466 2.2683356e-38
-0.052367523 -0.12964968 -0.024546172 2.3234372e-38
-0.050424717 -0.12964968 -0.024546172 2.3418042e-38
-0.048481911 -0.12964968 -0.024546172 2.3509876e-38
-0.046483312 -0.12889244 -0.021515395 2.3415881e-38
-0.044545822 -0.12889244 -0.021515395 2.3509517e-38
-0.042549081 -0.12789918 -0.017540004 2.3509517e-38
-0.040618561 -0.12789918 -0.017540004 2.3509161e-38
-0.038643062 -0.12691309 -0.013593223 2.3509527e-38
-0.03671946 -0.12691309 -0.013593223 2.341805e-38
-0.034771483 -0.12614109 -0.010503437 2.2958873e-38
-0.032853298 -0.12614109 -0.010503437 2.2591531e-38
-0.030935114 -0.12614109 -0.010503437 1.7892454e-38
-0.029016931 -0.12614109 -0.010503437 9.5040924e-39
-0.027095228 -0.12513812 -0.0064890641 9.4111695e-39
-0.025184084 -0.12513812 -0.0064890641 9.1320393e-39
-0.023280652 -0.12440531 -0.0035561579 8.484858e-39
-0.02137465 -0.12440531 -0.0035561579 7.7465769e-39
-0.019468648 -0.12440531 -0.0035561579 7.3777944e-39
-0.017539505 -0.12513812 -0.0064890641 6.6391503e-39
-0.015628362 -0.12513812 -0.0064890641 5.5320867e-39
-0.013717217 -0.12513812 -0.0064890641 5.3469794e-39
-0.011806073 -0.12513812 -0.0064890641 5.8079575e-39
-0.0098949261 -0.12513812 -0.0064890641 4.8849236e-39
-0.0080326349 -0.12440531 -0.0035561579 4.8849236e-39
-0.0061266334 -0.12440531 -0.0035561579 5.1615133e-39
-0.0042206314 -0.12440531 -0.0035561579 5.1625923e-39
-0.0022503496 -0.12513812 -0.0064890641 5.1625923e-39
-0.0004086257 -0.12440531 -0.0035561579 4.8863656e-39
0.0014202516 -0.12364738 -0.00052251993 5.2551481e-39
0.0032138168 -0.12266256 0.003419016 5.9005203e-39
0.0051075886 -0.12266256 0.003419016 6.5458897e-39
0.0070013604 -0.12266256 0.003419016 6.5448023e-39
0.0087979902 -0.12191428 0.006413911 8.2957794e-39
0.010686511 -0.12191428 0.006413911 1.0691783e-38
0.012575032 -0.12191428 0.006413911 9.7676795e-39
0.014196856 -0.12014665 0.013488743 7.7386708e-39
0.016072972 -0.12014665 0.013488743 8.1067526e-39
0.017949091 -0.12014665 0.013488743 1.6128138e-38
0.019825207 -0.12014665 0.013488743 1.5946255e-38
0.021701323 -0.12014665 0.013488743 7.927385e-39
0.023720061 -0.12091358 0.010419223 6.2692916e-39
0.02560156 -0.12091358 0.010419223 4.517569e-39
0.027483059 -0.12091358 0.010419223 3.0424418e-39
0.029364558 -0.12091358 0.010419223 4.4243028e-39
0.031246057 -0.12091358 0.010419223 5.8065198e-39
0.033348765 -0.12191428 0.006413911 5.992353e-39
0.035237286 -0.12191428 0.006413911 2.4932379e-39
0.037125807 -0.12191428 0.006413911 2.4032002e-39
0.039014328 -0.12191428 0.006413911 8.7629036e-39
0.041089263 -0.12266256 0.003419016 2.1116399e-38
0.043235283 -0.12364738 -0.00052251993 2.0100452e-38
0.04487681 -0.12266256 0.003419016 1.2631168e-38
0.046770584 -0.12266256 0.003419016 9.5872749e-39
0.048664358 -0.12266256 0.003419016 8.756794e-39
-0.052367523 -0.13159247 -0.024546172 2.3418043e-38
-0.050358295 -0.13082992 -0.021515395 2.3325483e-38
-0.048420802 -0.13082992 -0.021515395 2.3509873e-38
-0.046483312 -0.13082992 -0.021515395 2.3509513e-38
-0.044479601 -0.12982969 -0.017540004 2.3415158e-38
-0.042549081 -0.12982969 -0.017540004 2.3509517e-38
-0.040618561 -0.12982969 -0.017540004 2.350916e-38
-0.038643062 -0.12883668 -0.013593223 2.3509883e-38
-0.036689665 -0.12805928 -0.010503437 2.2034758e-38
-0.034771483 -0.12805928 -0.010503437 2.3142544e-38
-0.032853298 -0.12805928 -0.010503437 2.2406783e-38
-0.030917518 -0.12704925 -0.0064890641 2.2591531e-38
-0.029006373 -0.12704925 -0.0064890641 1.4388299e-38
-0.027089998 -0.12554805 -0.00052251993 1.475671e-38
-0.025192769 -0.12455635 0.003419016 1.4478303e-38
-0.023298997 -0.12455635 0.003419016 1.3463058e-38
-0.02137465 -0.12631132 -0.0035561579 1.4476487e-38
-0.019468648 -0.12631132 -0.0035561579 1.6411523e-38
-0.017562646 -0.12631132 -0.0035561579 1.419776e-38
-0.015656644 -0.12631132 -0.0035561579 8.2050453e-39
-0.013750643 -0.12631132 -0.0035561579 4.1487921e-39
-0.011806073 -0.12704925 -0.0064890641 3.7800096e-39
-0.0098949261 -0.12704925 -0.0064890641 4.1484376e-39
-0.0080326349 -0.12631132 -0.0035561579 4.3328289e-39
-0.0061266334 -0.12631132 -0.0035561579 4.7016142e-39
-0.0042206314 -0.12631132 -0.0035561579 5.1625895e-39
-0.0023146276 -0.12631132 -0.0035561579 5.0703939e-39
-0.0004086257 -0.12631132 -0.0035561579 4.7016142e-39
0.0014202516 -0.12554805 -0.00052251993 4.7012611e-39
0.0033209338 -0.12554805 -0.00052251993 5.0689646e-39
0.0051075886 -0.12455635 0.003419016 5.8987154e-39
0.0070013604 -0.12455635 0.003419016 5.5292028e-39
0.0087979902 -0.12380283 0.006413911 6.7277334e-39
0.010686511 -0.12380283 0.006413911 7.833718e-39
0.012575032 -0.12380283 0.006413911 5.8972581e-39
0.014312567 -0.12279506 0.010419223 7.1869375e-39
0.016072972 -0.12202276 0.013488743 6.7256245e-39
0.017949091 -0.12202276 0.013488743 6.2660883e-39
0.019825207 -0.12202276 0.013488743 4.8856523e-39
0.021701323 -0.12202276 0.013488743 5.163307e-39
0.023577442 -0.12202276 0.013488743 6.0852605e-39
0.025453558 -0.12202276 0.013488743 4.9789129e-39
0.027329674 -0.12202276 0.013488743 4.1491523e-39
0.02920579 -0.12202276 0.013488743 4.8852782e-39
0.031246057 -0.12279506 0.010419223 5.3455375e-39
0.033127554 -0.12279506 0.010419223 5.9930691e-39
0.035237286 -0.12380283 0.006413911 2.3102857e-39
0.037125807 -0.12380283 0.006413911 9.8717693e-39
0.039014328 -0.12380283 0.006413911 1.6232192e-38
0.041334596 -0.12554805 -0.00052251993 2.2775202e-38
0.043235283 -0.12554805 -0.00052251993 2.2958873e-38
0.045135964 -0.12554805 -0.00052251993 2.2589017e-38
0.047036652 -0.12554805 -0.00052251993 2.3509527e-38
0.048937332 -0.12554805 -0.00052251993 2.3509168e-38
-0.056062728 -0.13176022 -0.017540004 1.1892146e-38
-0.054132208 -0.13176022 -0.017540004 2.3324404e-38
-0.052295782 -0.13276742 -0.021515395 2.3509876e-38
-0.050358295 -0.13276742 -0.021515395 2.3509873e-38
-0.048420802 -0.13276742 -0.021515395 2.3509873e-38
-0.046483312 -0.13276742 -0.021515395 2.3509873e-38
-0.044479601 -0.13176022 -0.017540004 2.3509876e-38
-0.042490263 -0.13076027 -0.013593223 2.3140013e-38
-0.04056666 -0.13076027 -0.013593223 2.3509156e-38
-0.038643062 -0.13076027 -0.013593223 2.3509879e-38
-0.036689665 -0.12997745 -0.010503437 2.3508441e-38
-0.034771483 -0.12997745 -0.010503437 2.3417324e-38
-0.032828663 -0.12896039 -0.0064890641 2.3509883e-38
-0.030917518 -0.12896039 -0.0064890641 2.2495734e-38
-0.029006373 -0.12896039 -0.0064890641 1.6134235e-38
-0.027089998 -0.12744872 -0.00052251993 1.5212992e-38
-0.025192769 -0.12645011 0.003419016 1.6043461e-38
-0.023298997 -0.12645011 0.003419016 1.4568678e-38
-0.021387948 -0.12744872 -0.00052251993 1.410769e-38
-0.019487265 -0.12744872 -0.00052251993 1.6411513e-38
-0.017586581 -0.12744872 -0.00052251993 1.5856935e-38
-0.015685899 -0.12744872 -0.00052251993 6.0838438e-39
-0.013785215 -0.12744872 -0.00052251993 2.8580505e-39
-0.011884533 -0.12744872 -0.00052251993 3.7810774e-39
-0.0099838488 -0.12744872 -0.00052251993 4.1509501e-39
-0.0080326349 -0.12821732 -0.0035561579 3.6896161e-39
-0.0060726372 -0.12896039 -0.0064890641 3.3211895e-39
-0.0042206314 -0.12821732 -0.0035561579 4.3342596e-39
-0.0023146276 -0.12821732 -0.0035561579 4.9785472e-39
-0.0004086257 -0.12821732 -0.0035561579 5.1618651e-39
0.0014973762 -0.12821732 -0.0035561579 4.9749739e-39
0.0033209338 -0.12744872 -0.00052251993 5.3430277e-39
0.0051075886 -0.12645011 0.003419016 5.7114249e-39
0.0070013604 -0.12645011 0.003419016 6.0805591e-39
0.0088951346 -0.12645011 0.003419016 5.8972581e-39
0.010686511 -0.12569134 0.006413911 4.7912763e-39
0.012575032 -0.12569134 0.006413911 5.3458892e-39
0.014312567 -0.12467657 0.010419223 5.8086778e-39
0.016072972 -0.12389888 0.013488743 8.0214052e-39
0.017949091 -0.12389888 0.013488743 6.7324642e-39
0.019825207 -0.12389888 0.013488743 2.216651e-39
0.021701323 -0.12389888 0.013488743 2.9545677e-39
0.023577442 -0.12389888 0.013488743 6.2725426e-39
0.025453558 -0.12389888 0.013488743 4.6119423e-39
0.027329674 -0.12389888 0.013488743 4.242064e-39
0.02920579 -0.12389888 0.013488743 4.2409822e-39
0.031081909 -0.12389888 0.013488743 4.700168e-39
0.033127554 -0.12467657 0.010419223 3.3190399e-39
0.035237286 -0.12569134 0.006413911 9.2879604e-40
0.037125807 -0.12569134 0.006413911 1.9001299e-38
0.039014328 -0.12569134 0.006413911 2.0843414e-38
0.041334596 -0.12744872 -0.00052251993 2.2132353e-38
0.043235283 -0.12744872 -0.00052251993 2.2867037e-38
0.045135964 -0.12744872 -0.00052251993 2.286632e-38
0.046568412 -0.12569134 0.006413911 2.3049273e-38
0.048456941 -0.12569134 0.006413911 2.3509527e-38
0.050345462 -0.12569134 0.006413911 2.3508451e-38
-0.057993248 -0.13369073 -0.017540004 1.0046073e-38
-0.056062728 -0.13369073 -0.017540004 1.3089247e-38
-0.054132208 -0.13369073 -0.017540004 2.3507714e-38
-0.052295782 -0.1347049 -0.021515395 2.2955259e-38
-0.050358295 -0.1347049 -0.021515395 2.1756716e-38
-0.048420802 -0.1347049 -0.021515395 2.1849271e-38
-0.046483312 -0.1347049 -0.021515395 2.3047814e-38
-0.044479601 -0.13369073 -0.017540004 2.3509876e-38
-0.042490263 -0.13268389 -0.013593223 2.1942549e-38
-0.04056666 -0.13268389 -0.013593223 2.0928397e-38
-0.038643062 -0.13268389 -0.013593223 2.1389375e-38
-0.036689665 -0.13189565 -0.010503437 2.2586839e-38
-0.034771483 -0.13189565 -0.010503437 2.3509517e-38
-0.032828663 -0.13087155 -0.0064890641 2.3507356e-38
-0.030917518 -0.13087155 -0.0064890641 1.7422445e-38
-0.02899068 -0.12934943 -0.00052251993 7.3724022e-39
-0.027089998 -0.12934943 -0.00052251993 3.8707633e-39
-0.025189314 -0.12934943 -0.00052251993 7.0997641e-39
-0.023288632 -0.12934943 -0.00052251993 1.1802809e-38
-0.021387948 -0.12934943 -0.00052251993 1.401513e-38
-0.019487265 -0.12934943 -0.00052251993 1.7148354e-38
-0.017586581 -0.12934943 -0.00052251993 1.5117574e-38
-0.015685899 -0.12934943 -0.00052251993 1.749573e-39
-0.013785215 -0.12934943 -0.00052251993 1.1988837e-39
-0.011884533 -0.12934943 -0.00052251993 9.6815921e-39
-0.0099838488 -0.12934943 -0.00052251993 1.1250011e-38
-0.0080326349 -0.13012333 -0.0035561579 1.2172333e-38
-0.0061266334 -0.13012333 -0.0035561579 1.0051468e-38
-0.0041614943 -0.13087155 -0.0064890641 2.3063117e-39
-0.0022503496 -0.13087155 -0.0064890641 1.2900017e-39
-0.0004086257 -0.13012333 -0.0035561579 3.7774915e-39
0.0014973762 -0.13012333 -0.0035561579 4.0512155e-39
0.0033209338 -0.12934943 -0.00052251993 4.9713627e-39
0.0051075886 -0.1283439 0.003419016 7.8293908e-39
0.0070013604 -0.1283439 0.003419016 8.7517003e-39
0.0088951346 -0.1283439 0.003419016 7.2769527e-39
0.010686511 -0.12757985 0.006413911 5.3426522e-39
0.012575032 -0.12757985 0.006413911 6.0838102e-39
0.014312567 -0.12655805 0.010419223 6.915024e-39
0.016194066 -0.12655805 0.010419223 9.7749172e-39
0.017949091 -0.12577499 0.013488743 8.6696514e-39
0.019825207 -0.12577499 0.013488743 5.8137169e-39
0.021701323 -0.12577499 0.013488743 4.6663239e-42
0.023577442 -0.12577499 0.013488743 9.6162706e-41
0.025453558 -0.12577499 0.013488743 2.0311891e-39
0.027329674 -0.12577499 0.013488743 4.2431458e-39
0.02920579 -0.12577499 0.013488743 4.7948748e-39
0.031081909 -0.12577499 0.013488743 4.7008897e-39
0.033127554 -0.12655805 0.010419223 1.5680446e-39
0.035237286 -0.12757985 0.006413911 1.8496733e-39
0.037125807 -0.12757985 0.006413911 2.0751937e-38
0.039195489 -0.1283439 0.003419016 2.2316024e-38
0.041334596 -0.12934943 -0.00052251993 2.2591531e-38
0.043235283 -0.12934943 -0.00052251993 2.2867037e-38
0.045135964 -0.12934943 -0.00052251993 2.3142544e-38
0.046298046 -0.12655805 0.010419223 2.341805e-38
0.048179541 -0.12655805 0.010419223 2.3509886e-38
0.050061043 -0.12655805 0.010419223 2.3509527e-38
-0.054233275 -0.13664238 -0.021515395 2.3230767e-38
-0.052201688 -0.13562126 -0.017540004 2.2678672e-38
-0.050271165 -0.13562126 -0.017540004 2.1111346e-38
-0.048420802 -0.13664238 -0.021515395 2.1296097e-38
-0.046483312 -0.13664238 -0.021515395 2.3232206e-38
-0.044479601 -0.13562126 -0.017540004 2.2864502e-38
-0.042549081 -0.13562126 -0.017540004 1.9914242e-38
-0.04056666 -0.13460748 -0.013593223 1.8439115e-38
-0.038643062 -0.13460748 -0.013593223 1.8254724e-38
-0.036689665 -0.13381381 -0.010503437 2.0650731e-38
-0.034771483 -0.13381381 -0.010503437 2.3139294e-38
-0.032828663 -0.13278268 -0.0064890641 2.3322965e-38
-0.030917518 -0.13278268 -0.0064890641 1.4933163e-38
-0.02899068 -0.1312501 -0.00052251993 6.3582503e-39
-0.027089998 -0.1312501 -0.00052251993 4.6072493e-39
-0.025189314 -0.1312501 -0.00052251993 5.9930565e-39
-0.023288632 -0.1312501 -0.00052251993 1.0326601e-38
-0.021387948 -0.1312501 -0.00052251993 1.05099e-38
-0.019487265 -0.1312501 -0.00052251993 1.4750551e-38
-0.017586581 -0.1312501 -0.00052251993 1.6038803e-38
-0.015685899 -0.1312501 -0.00052251993 2.7626347e-39
-0.013785215 -0.1312501 -0.00052251993 1.1974488e-39
-0.011884533 -0.1312501 -0.00052251993 1.3091391e-38
-0.0099386368 -0.13202934 -0.0035561579 1.5949477e-38
-0.0080326349 -0.13202934 -0.0035561579 1.4475067e-38
-0.0061266334 -0.13202934 -0.0035561579 1.2722986e-38
-0.0042206314 -0.13202934 -0.0035561579 2.8573274e-39
-0.0023146276 -0.13202934 -0.0035561579 1.9328572e-39
-0.0004086257 -0.13202934 -0.0035561579 3.0374125e-39
0.0014973762 -0.13202934 -0.0035561579 4.5100301e-39
0.0033209338 -0.1312501 -0.00052251993 1.2068617e-38
0.0051075886 -0.13023765 0.003419016 1.3542272e-38
0.0069094687 -0.1294684 0.006413911 1.409508e-38
0.0087979902 -0.1294684 0.006413911 8.9332259e-39
0.010686511 -0.1294684 0.006413911 4.694036e-39
0.01232074 -0.12765111 0.013488743 4.7894672e-39
0.014196856 -0.12765111 0.013488743 5.43701e-39
0.015957015 -0.1268961 0.016428087 9.4032494e-39
0.017827978 -0.1268961 0.016428087 8.3912583e-39
0.019825207 -0.12765111 0.013488743 7.1952094e-39
0.021569906 -0.1268961 0.016428087 5.578415e-40
0.02344087 -0.1268961 0.016428087 9.544384e-41
0.025311833 -0.1268961 0.016428087 2.2152245e-39
0.027182797 -0.1268961 0.016428087 2.3066816e-39
0.02920579 -0.12765111 0.013488743 1.7527848e-39
0.031081909 -0.12765111 0.013488743 2.5811147e-39
0.033127554 -0.12843956 0.010419223 2.8025969e-45
0.035237286 -0.1294684 0.006413911 2.4014052e-39
0.037125807 -0.1294684 0.006413911 2.1855762e-38
0.039195489 -0.13023765 0.003419016 2.2775202e-38
0.041089263 -0.13023765 0.003419016 2.2407138e-38
0.042983036 -0.13023765 0.003419016 2.2774481e-38
0.04487681 -0.13023765 0.003419016 2.3234379e-38
0.046298046 -0.12843956 0.010419223 2.3325856e-38
0.048179541 -0.12843956 0.010419223 2.3141103e-38
0.050061043 -0.12843956 0.010419223 2.3509527e-38
0.051942538 -0.12843956 0.010419223 2.3509527e-38
-0.054233275 -0.13857989 -0.021515395 2.0741485e-38
-0.052201688 -0.1375518 -0.017540004 2.0650368e-38
-0.050271165 -0.1375518 -0.017540004 1.8806455e-38
-0.048340645 -0.1375518 -0.017540004 1.8899011e-38
-0.046410125 -0.1375518 -0.017540004 2.1388293e-38
-0.044413865 -0.13653107 -0.013593223 2.0467416e-38
-0.042490263 -0.13653107 -0.013593223 1.6779591e-38
-0.04056666 -0.13653107 -0.013593223 1.7332767e-38
-0.038643062 -0.13653107 -0.013593223 1.622642e-38
-0.036689665 -0.13573201 -0.010503437 1.7884862e-38
-0.034771483 -0.13573201 -0.010503437 1.982097e-38
-0.032828663 -0.13469382 -0.0064890641 1.963586e-38
-0.030917518 -0.13469382 -0.0064890641 1.1060946e-38
-0.029006373 -0.13469382 -0.0064890641 6.4504459e-39
-0.027089998 -0.13315077 -0.00052251993 8.2028817e-39
-0.025189314 -0.13315077 -0.00052251993 8.6652962e-39
-0.023288632 -0.13315077 -0.00052251993 1.0417365e-38
-0.021387948 -0.13315077 -0.00052251993 1.0047492e-38
-0.019511452 -0.13213144 0.003419016 1.2167276e-38
-0.01761768 -0.13213144 0.003419016 1.2719749e-38
-0.015723908 -0.13213144 0.003419016 2.4853149e-39
-0.013830137 -0.13213144 0.003419016 9.1943116e-40
-0.011884533 -0.13315077 -0.00052251993 1.4565081e-38
-0.0099838488 -0.13315077 -0.00052251993 1.5948039e-38
-0.0080831647 -0.13315077 -0.00052251993 1.5026449e-38
-0.0061824829 -0.13315077 -0.00052251993 1.3274362e-38
-0.0042206314 -0.13393532 -0.0035561579 5.5101298e-40
-0.0023146276 -0.13393532 -0.0035561579 9.1835496e-40
-0.00048043253 -0.13315077 -0.00052251993 4.9717243e-39
0.0014202516 -0.13315077 -0.00052251993 8.9343329e-39
0.0030235737 -0.13032107 0.010419223 1.898148e-38
0.0049050725 -0.13032107 0.010419223 1.91626e-38
0.0069094687 -0.13135691 0.006413911 1.8977844e-38
0.0087979902 -0.13135691 0.006413911 1.1972436e-38
0.01054957 -0.13032107 0.010419223 6.2588365e-39
0.01232074 -0.12952723 0.013488743 5.3397571e-39
0.014086055 -0.12876706 0.016428087 4.4210518e-39
0.015797505 -0.12772138 0.020471428 7.6497276e-39
0.01766138 -0.12772138 0.020471428 5.992367e-39
0.019698942 -0.12876706 0.016428087 5.0732694e-39
0.021569906 -0.12876706 0.016428087 7.1948479e-39
0.02344087 -0.12876706 0.016428087 9.8685365e-39
0.025311833 -0.12876706 0.016428087 1.0420636e-38
0.027182797 -0.12876706 0.016428087 6.3636537e-39
0.02920579 -0.12952723 0.013488743 2.306683e-39
0.031081909 -0.12952723 0.013488743 2.1205023e-39
0.033127554 -0.13032107 0.010419223 5.6051939e-45
0.035009053 -0.13032107 0.010419223 3.8736556e-39
0.036890548 -0.13032107 0.010419223 2.3050704e-38
0.039014328 -0.13135691 0.006413911 2.3234376e-38
0.041089263 -0.13213144 0.003419016 2.2866311e-38
0.042983036 -0.13213144 0.003419016 2.3141819e-38
0.04487681 -0.13213144 0.003419016 2.3418047e-38
0.046298046 -0.13032107 0.010419223 2.3509883e-38
0.047966961 -0.12952723 0.013488743 2.3509883e-38
0.049634349 -0.12876706 0.016428087 2.3417687e-38
0.051505316 -0.12876706 0.016428087 2.3509167e-38
-0.054233275 -0.14051737 -0.021515395 2.0280504e-38
-0.052201688 -0.1394823 -0.017540004 1.99128e-38
-0.050184667 -0.13845469 -0.013593223 1.7607909e-38
-0.048261065 -0.13845469 -0.013593223 1.7331685e-38
-0.046337463 -0.13845469 -0.013593223 2.018975e-38
-0.044413865 -0.13845469 -0.013593223 1.9637655e-38
-0.042444214 -0.13765021 -0.010503437 1.6595199e-38
-0.040526032 -0.13765021 -0.010503437 1.705618e-38
-0.038607851 -0.13765021 -0.010503437 1.5765441e-38
-0.036689665 -0.13765021 -0.010503437 1.6778514e-38
-0.034771483 -0.13765021 -0.010503437 1.8806818e-38
-0.032828663 -0.13660498 -0.0064890641 1.8345124e-38
-0.030917518 -0.13660498 -0.0064890641 8.8489742e-39
-0.02899068 -0.13505147 -0.00052251993 4.6990918e-39
-0.027089998 -0.13505147 -0.00052251993 6.5430044e-39
-0.025189314 -0.13505147 -0.00052251993 7.2823645e-39
-0.023288632 -0.13505147 -0.00052251993 6.5451526e-39
-0.021405226 -0.1340252 0.003419016 8.2957794e-39
-0.019511452 -0.1340252 0.003419016 8.3872548e-39
-0.01761768 -0.1340252 0.003419016 7.7400889e-39
-0.015723908 -0.1340252 0.003419016 3.2228604e-39
-0.013830137 -0.1340252 0.003419016 1.8402972e-39
-0.011884533 -0.13505147 -0.00052251993 1.3273263e-38
-0.010042591 -0.1340252 0.003419016 1.5945888e-38
-0.0081488173 -0.1340252 0.003419016 1.5484916e-38
-0.006255046 -0.1340252 0.003419016 1.3917573e-38
-0.0042817988 -0.13505147 -0.00052251993 1.102026e-39
-0.0024675005 -0.1340252 0.003419016 1.5612076e-39
-0.00064461725 -0.13324542 0.006413911 5.6149385e-39
0.0012439038 -0.13324542 0.006413911 8.9325266e-39
0.0030235737 -0.13220255 0.010419223 1.7135756e-38
0.0049050725 -0.13220255 0.010419223 1.7131773e-38
0.0067865713 -0.13220255 0.010419223 1.6577874e-38
0.0086680707 -0.13220255 0.010419223 1.1508573e-38
0.010444624 -0.13140334 0.013488743 7.4544944e-39
0.012215091 -0.13063805 0.016428087 6.3510294e-39
0.013933631 -0.12958528 0.020471428 4.2337809e-39
0.015797505 -0.12958528 0.020471428 5.4341472e-39
0.01766138 -0.12958528 0.020471428 2.5789665e-39
0.019698942 -0.13063805 0.016428087 1.475479e-39
0.021569906 -0.13063805 0.016428087 9.8674421e-39
0.02344087 -0.13063805 0.016428087 1.1988317e-38
0.025311833 -0.13063805 0.016428087 1.0973809e-38
0.027182797 -0.13063805 0.016428087 6.4558521e-39
0.029053757 -0.13063805 0.016428087 9.2339543e-40
0.031081909 -0.13140334 0.013488743 3.671402e-43
0.033127554 -0.13220255 0.010419223 7.0064923e-45
0.035009053 -0.13220255 0.010419223 4.7938098e-39
0.036890548 -0.13220255 0.010419223 2.3416603e-38
0.039014328 -0.13324542 0.006413911 2.3509879e-38
0.040902849 -0.13324542 0.006413911 2.3509879e-38
0.04279137 -0.13324542 0.006413911 2.3509879e-38
0.044416543 -0.13220255 0.010419223 2.3509879e-38
0.046090838 -0.13140334 0.013488743 2.3418043e-38
0.047763389 -0.13063805 0.016428087 2.350988e-38
0.049347233 -0.12958528 0.020471428 2.3049261e-38
0.051211108 -0.12958528 0.020471428 2.3417687e-38
0.053376276 -0.13063805 0.016428087 2.3509886e-38
0.055247243 -0.13063805 0.016428087 2.3509886e-38
0.057118207 -0.13063805 0.016428087 2.3509527e-38
0.058989167 -0.13063805 0.016428087 2.3416974e-38
0.060860127 -0.13063805 0.016428087 2.3509168e-38
0.063231528 -0.13220255 0.010419223 2.3509883e-38
0.065113038 -0.13220255 0.010419223 2.3509873e-38
0.066994533 -0.13220255 0.010419223 1.4752001e-38
0.068876028 -0.13220255 0.010419223 1.1616633e-38
-0.054031864 -0.14037828 -0.013593223 1.7053657e-38
-0.052108265 -0.14037828 -0.013593223 1.6778149e-38
-0.050184667 -0.14037828 -0.013593223 1.5210823e-38
-0.048261065 -0.14037828 -0.013593223 1.4658012e-38
-0.046280582 -0.13956837 -0.010503437 1.6778512e-38
-0.044362396 -0.13956837 -0.010503437 1.5581047e-38
-0.042444214 -0.13956837 -0.010503437 1.3091765e-38
-0.040526032 -0.13956837 -0.010503437 1.3644942e-38
-0.038607851 -0.13956837 -0.010503437 1.2907377e-38
-0.036689665 -0.13956837 -0.010503437 1.3182885e-38
-0.034739807 -0.13851611 -0.0064890641 1.6225341e-38
-0.032828663 -0.13851611 -0.0064890641 1.631682e-38
-0.030917518 -0.13851611 -0.0064890641 7.5582354e-39
-0.02899068 -0.13695215 -0.00052251993 1.7488317e-39
-0.027086543 -0.13591899 0.003419016 1.1045413e-39
-0.025192769 -0.13591899 0.003419016 2.3956416e-39
-0.023288632 -0.13695215 -0.00052251993 8.2867186e-40
-0.021405226 -0.13591899 0.003419016 4.0544301e-39
-0.019511452 -0.13591899 0.003419016 5.3448004e-39
-0.01761768 -0.13591899 0.003419016 6.2656665e-39
-0.015723908 -0.13591899 0.003419016 7.6482366e-39
-0.013830137 -0.13591899 0.003419016 6.2652993e-39
-0.011884533 -0.13695215 -0.00052251993 1.1704858e-38
-0.010042591 -0.13591899 0.003419016 1.4562238e-38
-0.0081488173 -0.13591899 0.003419016 1.3179307e-38
-0.006255046 -0.13591899 0.003419016 1.1611603e-38
-0.0042817988 -0.13695215 -0.00052251993 4.0511987e-39
-0.0024675005 -0.13591899 0.003419016 3.8635915e-39
-0.00064461725 -0.13513394 0.006413911 5.5220268e-39
0.0012439038 -0.13513394 0.006413911 8.4711799e-39
0.0029401551 -0.13327946 0.013488743 1.3447564e-38
0.0048162709 -0.13327946 0.013488743 1.2244326e-38
0.0066923886 -0.13327946 0.013488743 9.2937029e-39
0.0085685048 -0.13327946 0.013488743 6.6214856e-39
0.010444624 -0.13327946 0.013488743 4.8715861e-39
0.012215091 -0.13250901 0.016428087 4.2294551e-39
0.013933631 -0.13144915 0.020471428 2.5728288e-39
0.015678665 -0.13065951 0.023483846 2.760111e-39
0.01753726 -0.13065951 0.023483846 5.5101578e-40
0.019525254 -0.13144915 0.020471428 1.1059804e-39
0.021389129 -0.13144915 0.020471428 1.161772e-38
0.023253003 -0.13144915 0.020471428 1.1987237e-38
0.025116878 -0.13144915 0.020471428 1.0973086e-38
0.027182797 -0.13250901 0.016428087 6.2714636e-39
0.029053757 -0.13250901 0.016428087 1.4405348e-42
0.031081909 -0.13327946 0.013488743 9.8090893e-45
0.033127554 -0.13408406 0.010419223 1.1059958e-39
0.035009053 -0.13408406 0.010419223 5.5281351e-39
0.036890548 -0.13408406 0.010419223 2.3506996e-38
0.03877205 -0.13408406 0.010419223 2.3508797e-38
0.040902849 -0.13513394 0.006413911 2.3509156e-38
0.042535048 -0.13408406 0.010419223 2.3509873e-38
0.044416543 -0.13408406 0.010419223 2.3509876e-38
0.046090838 -0.13327946 0.013488743 2.3233288e-38
0.047763389 -0.13250901 0.016428087 2.323365e-38
0.049347233 -0.13144915 0.020471428 2.3418043e-38
0.051211108 -0.13144915 0.020471428 2.3418045e-38
0.053376276 -0.13250901 0.016428087 2.3509883e-38
0.055247243 -0.13250901 0.016428087 2.3509886e-38
0.057118207 -0.13250901 0.016428087 2.3509527e-38
0.058989167 -0.13250901 0.016428087 2.3509168e-38
0.060860127 -0.13250901 0.016428087 2.3509168e-38
0.062975898 -0.13327946 0.013488743 2.3509523e-38
0.064852014 -0.13327946 0.013488743 2.3418031e-38
0.066994533 -0.13408406 0.010419223 1.2631492e-38
0.068876028 -0.13408406 0.010419223 1.0695031e-38
0.070757523 -0.13408406 0.010419223 1.2077611e-38
0.072639033 -0.13408406 0.010419223 1.0325899e-38
-0.054031864 -0.14230187 -0.013593223 1.530194e-38
-0.052108265 -0.14230187 -0.013593223 1.5118627e-38
-0.050184667 -0.14230187 -0.013593223 1.4657649e-38
-0.048261065 -0.14230187 -0.013593223 1.4289586e-38
-0.046280582 -0.14148657 -0.010503437 1.567252e-38
-0.044362396 -0.14148657 -0.010503437 1.382933e-38
-0.042444214 -0.14148657 -0.010503437 1.1708831e-38
-0.040526032 -0.14148657 -0.010503437 1.2446759e-38
-0.038607851 -0.14148657 -0.010503437 1.2723346e-38
-0.036650952 -0.14042725 -0.0064890641 1.1524087e-38
-0.034739807 -0.14042725 -0.0064890641 1.4750934e-38
-0.032828663 -0.14042725 -0.0064890641 1.4842409e-38
-0.030917518 -0.14042725 -0.0064890641 8.0199324e-39
-0.02899068 -0.13885282 -0.00052251993 1.8421077e-39
-0.027086543 -0.13781275 0.003419016 2.7550649e-40
-0.025192769 -0.13781275 0.003419016 9.1835496e-41
-0.023288632 -0.13885282 -0.00052251993 9.2159336e-40
-0.021405226 -0.13781275 0.003419016 3.962603e-39
-0.019511452 -0.13781275 0.003419016 5.6221061e-39
-0.01761768 -0.13781275 0.003419016 5.2529453e-39
-0.015723908 -0.13781275 0.003419016 7.8336956e-39
-0.013830137 -0.13781275 0.003419016 8.847849e-39
-0.011884533 -0.13885282 -0.00052251993 1.1059486e-38
-0.010042591 -0.13781275 0.003419016 9.9524589e-39
-0.0081488173 -0.13781275 0.003419016 9.306735e-39
-0.006255046 -0.13781275 0.003419016 7.0018218e-39
-0.0043612742 -0.13781275 0.003419016 4.0511987e-39
-0.0024675005 -0.13781275 0.003419016 4.0479869e-39
-0.00064461725 -0.13702248 0.006413911 7.1811922e-39
0.0012439038 -0.13702248 0.006413911 1.2067524e-38
0.0029401551 -0.13515557 0.013488743 1.2802909e-38
0.0048162709 -0.13515557 0.013488743 1.1139422e-38
0.0066021993 -0.13437997 0.016428087 4.6850452e-39
0.0084731635 -0.13437997 0.016428087 3.4897489e-39
0.010344127 -0.13437997 0.016428087 2.9387359e-39
0.01206976 -0.13331302 0.020471428 2.3877229e-39
0.013820073 -0.1325181 0.023483846 1.6530389e-39
0.015560498 -0.13172771 0.026479218 1.745959e-39
0.017413838 -0.13172771 0.026479218 9.1835917e-40
0.019525254 -0.13331302 0.020471428 2.7550649e-40
0.021389129 -0.13331302 0.020471428 1.1340416e-38
0.023253003 -0.13331302 0.020471428 1.2724439e-38
0.025116878 -0.13331302 0.020471428 1.2724442e-38
0.027182797 -0.13437997 0.016428087 6.6395273e-39
0.02920579 -0.13515557 0.013488743 3.643376e-43
0.031246057 -0.13596557 0.010419223 9.8090893e-45
0.033127554 -0.13596557 0.010419223 9.1841101e-41
0.035009053 -0.13596557 0.010419223 6.4482879e-39
0.036890548 -0.13596557 0.010419223 2.3508075e-38
0.03877205 -0.13596557 0.010419223 2.3507714e-38
0.040902849 -0.13702248 0.006413911 2.3505191e-38
0.042338606 -0.13515557 0.013488743 2.3508432e-38
0.044214722 -0.13515557 0.013488743 2.350987e-38
0.046090838 -0.13515557 0.013488743 2.3509873e-38
0.047763389 -0.13437997 0.016428087 2.3509876e-38
0.049634349 -0.13437997 0.016428087 2.3418043e-38
0.051505316 -0.13437997 0.016428087 2.3234374e-38
0.053376276 -0.13437997 0.016428087 2.3049624e-38
0.055247243 -0.13437997 0.016428087 2.3141103e-38
0.057118207 -0.13437997 0.016428087 2.3509527e-38
0.058989167 -0.13437997 0.016428087 2.3509527e-38
0.060860127 -0.13437997 0.016428087 2.3509168e-38
0.062975898 -0.13515557 0.013488743 2.3509167e-38
0.064852014 -0.13515557 0.013488743 2.3048166e-38
0.066994533 -0.13596557 0.010419223 1.2353825e-38
0.068876028 -0.13596557 0.010419223 1.1155286e-38
0.070757523 -0.13596557 0.010419223 1.2537869e-38
-0.054132208 -0.14527388 -0.017540004 1.4195592e-38
-0.052201688 -0.14527388 -0.017540004 1.3273636e-38
-0.050184667 -0.14422549 -0.013593223 1.2905932e-38
-0.048261065 -0.14422549 -0.013593223 1.2906651e-38
-0.046280582 -0.14340474 -0.010503437 1.4658368e-38
-0.044362396 -0.14340474 -0.010503437 1.3368352e-38
-0.042444214 -0.14340474 -0.010503437 1.2169809e-38
-0.040526032 -0.14340474 -0.010503437 8.2979556e-39
-0.038607851 -0.14340474 -0.010503437 1.0049673e-38
-0.036650952 -0.14233841 -0.0064890641 8.942609e-39
-0.034739807 -0.14233841 -0.0064890641 1.2353847e-38
-0.032828663 -0.14233841 -0.0064890641 1.2260931e-38
-0.030917518 -0.14233841 -0.0064890641 7.5589542e-39
-0.02899068 -0.14075352 -0.00052251993 2.4874771e-39
-0.027089998 -0.14075352 -0.00052251993 8.2939773e-40
-0.025189314 -0.14075352 -0.00052251993 1.4754958e-39
-0.023280652 -0.14155935 -0.0035561579 4.7023401e-39
-0.02137465 -0.14155935 -0.0035561579 4.0562406e-39
-0.019468648 -0.14155935 -0.0035561579 5.4384379e-39
-0.017562646 -0.14155935 -0.0035561579 4.5160963e-39
-0.015656644 -0.14155935 -0.0035561579 5.9908564e-39
-0.013750643 -0.14155935 -0.0035561579 7.742579e-39
-0.011884533 -0.14075352 -0.00052251993 7.2805443e-39
-0.010042591 -0.13970654 0.003419016 5.6192643e-39
-0.0081987027 -0.13891099 0.006413911 2.4849772e-39
-0.0063101822 -0.13891099 0.006413911 2.4853121e-39
-0.0044216611 -0.13891099 0.006413911 9.5836554e-39
-0.0025331383 -0.13891099 0.006413911 9.6722805e-39
-0.00064461725 -0.13891099 0.006413911 6.9975198e-39
0.0011420748 -0.13784705 0.010419223 1.0777857e-38
0.0029401551 -0.13703169 0.013488743 1.1698359e-38
0.0048162709 -0.13703169 0.013488743 1.0404745e-38
0.0066021993 -0.13625093 0.016428087 2.6632294e-39
0.0084731635 -0.13625093 0.016428087 2.4795584e-39
0.010344127 -0.13625093 0.016428087 2.6632294e-39
0.01206976 -0.13517688 0.020471428 2.1122164e-39
0.013820073 -0.13437669 0.023483846 1.2856969e-39
0.015560498 -0.13358103 0.026479218 9.1835496e-40
0.017413838 -0.13358103 0.026479218 5.5101298e-40
0.019267181 -0.13358103 0.026479218 5.5173465e-40
0.021389129 -0.13517688 0.020471428 1.1432255e-38
0.023253003 -0.13517688 0.020471428 1.1801759e-38
0.025116878 -0.13517688 0.020471428 1.0879803e-38
0.027683204 -0.13891099 0.006413911 3.964775e-39
0.029571725 -0.13891099 0.006413911 5.6051939e-45
0.031460244 -0.13891099 0.006413911 1.291106e-39
0.033348765 -0.13891099 0.006413911 3.6734479e-40
0.035009053 -0.13784705 0.010419223 5.3404984e-39
0.036890548 -0.13784705 0.010419223 2.3501953e-38
0.03877205 -0.13784705 0.010419223 2.2396323e-38
0.040653545 -0.13784705 0.010419223 2.0276902e-38
0.042338606 -0.13703169 0.013488743 2.1200301e-38
0.044214722 -0.13703169 0.013488743 2.3138925e-38
0.045892429 -0.13625093 0.016428087 2.350987e-38
0.047763389 -0.13625093 0.016428087 2.3049612e-38
0.049347233 -0.13517688 0.020471428 2.3142171e-38
0.051211108 -0.13517688 0.020471428 2.2036546e-38
0.053074982 -0.13517688 0.020471428 2.1482298e-38
0.054938857 -0.13517688 0.020471428 2.1666692e-38
0.056802731 -0.13517688 0.020471428 2.28638e-38
0.058666602 -0.13517688 0.020471428 2.3509527e-38
0.060530484 -0.13517688 0.020471428 2.3508451e-38
0.062731087 -0.13625093 0.016428087 2.3507728e-38
0.064852014 -0.13703169 0.013488743 2.3140365e-38
0.06672813 -0.13703169 0.013488743 1.1892848e-38
0.068876028 -0.13784705 0.010419223 1.0509561e-38
0.070757523 -0.13784705 0.010419223 1.1431521e-38
-0.052201688 -0.14720438 -0.017540004 1.2536428e-38
-0.050184667 -0.14614908 -0.013593223 1.1983975e-38
-0.048261065 -0.14614908 -0.013593223 1.207689e-38
-0.046280582 -0.14532293 -0.010503437 1.3828607e-38
-0.044362396 -0.14532293 -0.010503437 1.3276157e-38
-0.042444214 -0.14532293 -0.010503437 9.9578329e-39
-0.040526032 -0.14532293 -0.010503437 9.0355206e-39
-0.038562097 -0.14424954 -0.0064890641 9.3121075e-39
-0.036650952 -0.14424954 -0.0064890641 9.8652841e-39
-0.034739807 -0.14424954 -0.0064890641 1.1063827e-38
-0.032828663 -0.14424954 -0.0064890641 1.1339697e-38
-0.030917518 -0.14424954 -0.0064890641 6.9143065e-39
-0.02899866 -0.14346536 -0.0035561579 1.7502722e-39
-0.027092658 -0.14346536 -0.0035561579 2.1204995e-39
-0.025186654 -0.14346536 -0.0035561579 2.7676752e-39
-0.023280652 -0.14346536 -0.0035561579 3.1375353e-39
-0.02137465 -0.14346536 -0.0035561579 2.6743865e-39
-0.019468648 -0.14346536 -0.0035561579 3.6881629e-39
-0.017562646 -0.14346536 -0.0035561579 3.9643616e-39
-0.015685899 -0.1426542 -0.00052251993 3.6870517e-39
-0.013785215 -0.1426542 -0.00052251993 5.7146353e-39
-0.011884533 -0.1426542 -0.00052251993 5.8986888e-39
-0.010042591 -0.1416003 0.003419016 4.7905826e-39
-0.0081987027 -0.14079951 0.006413911 2.0247179e-39
-0.0063101822 -0.14079951 0.006413911 3.1321193e-39
-0.0044216611 -0.14079951 0.006413911 9.1241163e-39
-0.0025331383 -0.14079951 0.006413911 1.2625057e-38
-0.00064461725 -0.14079951 0.006413911 9.4889598e-39
0.0011420748 -0.13972856 0.010419223 1.0964767e-38
0.0029401551 -0.13890781 0.013488743 1.1701242e-38
0.0048162709 -0.13890781 0.013488743 7.4580986e-39
0.0066021993 -0.13812189 0.016428087 1.9285454e-39
0.0084731635 -0.13812189 0.016428087 1.7448744e-39
0.010344127 -0.13812189 0.016428087 2.5728344e-39
0.01206976 -0.13704078 0.020471428 1.1938615e-39
0.013933631 -0.13704078 0.020471428 9.1835776e-40
0.015678665 -0.13623528 0.023483846 1.6555683e-39
0.01753726 -0.13623528 0.023483846 3.6734479e-40
0.019525254 -0.13704078 0.020471428 4.5918309e-40
0.021389129 -0.13704078 0.020471428 1.0232996e-38
0.023253003 -0.13704078 0.020471428 1.2170176e-38
0.025116878 -0.13704078 0.020471428 1.0418459e-38
0.02783286 -0.1416003 0.003419016 3.226847e-39
0.02972663 -0.1416003 0.003419016 2.8025969e-45
0.031246057 -0.13972856 0.010419223 5.6051939e-45
0.033127554 -0.13972856 0.010419223 6.4284987e-40
0.035009053 -0.13972856 0.010419223 4.6944101e-39
0.036890548 -0.13972856 0.010419223 2.257784e-38
0.03877205 -0.13972856 0.010419223 2.2210853e-38
0.040653545 -0.13972856 0.010419223 1.6957499e-38
0.042338606 -0.13890781 0.013488743 1.7236244e-38
0.044214722 -0.13890781 0.013488743 2.0465252e-38
0.045892429 -0.13812189 0.016428087 2.2771582e-38
0.047763389 -0.13812189 0.016428087 2.2773023e-38
0.049347233 -0.13704078 0.020471428 2.2220212e-38
0.051211108 -0.13704078 0.020471428 2.1391533e-38
0.053074982 -0.13704078 0.020471428 1.7056905e-38
0.054938857 -0.13704078 0.020471428 1.7978867e-38
0.056802731 -0.13704078 0.020471428 2.28638e-38
0.058666602 -0.13704078 0.020471428 2.3509527e-38
0.060530484 -0.13704078 0.020471428 2.3507733e-38
0.062731087 -0.13812189 0.016428087 2.3508091e-38
0.064852014 -0.13890781 0.013488743 1.7239846e-38
0.06672813 -0.13890781 0.013488743 1.1708104e-38
0.068876028 -0.13972856 0.010419223 1.0325172e-38
0.070757523 -0.13972856 0.010419223 1.097019e-38
-0.052201688 -0.14913492 -0.017540004 1.1614472e-38
-0.050271165 -0.14913492 -0.017540004 1.1062018e-38
-0.048261065 -0.14807267 -0.013593223 1.0877628e-38
-0.046337463 -0.14807267 -0.013593223 1.1524437e-38
-0.044362396 -0.1472411 -0.010503437 1.0971266e-38
-0.042444214 -0.1472411 -0.010503437 8.2983115e-39
-0.040526032 -0.1472411 -0.010503437 8.4823469e-39
-0.038562097 -0.14616071 -0.0064890641 8.7589338e-39
-0.036650952 -0.14616071 -0.0064890641 8.1135672e-39
-0.034739807 -0.14616071 -0.0064890641 9.5886972e-39
-0.032828663 -0.14616071 -0.0064890641 1.1800675e-38
-0.030917518 -0.14616071 -0.0064890641 6.8221109e-39
-0.029006373 -0.14616071 -0.0064890641 2.9498944e-39
-0.027095228 -0.14616071 -0.0064890641 4.2417178e-39
-0.025184084 -0.14616071 -0.0064890641 1.9386376e-39
-0.021361794 -0.14616071 -0.0064890641 1.9382634e-39
-0.019468648 -0.14537133 -0.0035561579 3.0438753e-39
-0.017562646 -0.14537133 -0.0035561579 2.5825146e-39
-0.015656644 -0.14537133 -0.0035561579 1.8438846e-39
-0.013785215 -0.14455487 -0.00052251993 4.425337e-39
-0.011936363 -0.14349405 0.003419016 6.360746e-39
-0.010042591 -0.14349405 0.003419016 5.8983651e-39
-0.0081987027 -0.14268802 0.006413911 2.764078e-39
-0.0063101822 -0.14268802 0.006413911 3.1339143e-39
-0.0044216611 -0.14268802 0.006413911 5.253695e-39
-0.0025331383 -0.14268802 0.006413911 5.8962127e-39
-0.00064461725 -0.14268802 0.006413911 4.1434083e-39
0.0012439038 -0.14268802 0.006413911 6.9092408e-39
0.0030235737 -0.14161004 0.010419223 1.2348416e-38
0.0048162709 -0.14078392 0.013488743 9.4896507e-39
0.0066923886 -0.14078392 0.013488743 2.9437721e-39
0.0084731635 -0.13999285 0.016428087 3.7746146e-39
0.010344127 -0.13999285 0.016428087 1.0965882e-38
0.01206976 -0.13890465 0.020471428 1.4470046e-38
0.013933631 -0.13890465 0.020471428 1.483991e-38
0.015797505 -0.13890465 0.020471428 1.2444255e-38
0.01766138 -0.13890465 0.020471428 7.1894641e-39
0.019525254 -0.13890465 0.020471428 4.5168726e-39
0.021389129 -0.13890465 0.020471428 8.0203009e-39
0.023253003 -0.13890465 0.020471428 9.2191958e-39
0.025116878 -0.13890465 0.020471428 8.1132042e-39
0.026980748 -0.13890465 0.020471428 2.9498972e-39
0.028844623 -0.13890465 0.020471428 9.1835496e-41
0.031246057 -0.14161004 0.010419223 4.6025928e-40
0.033127554 -0.14161004 0.010419223 1.1031078e-39
0.035009053 -0.14161004 0.010419223 4.0490435e-39
0.036890548 -0.14161004 0.010419223 1.8430117e-38
0.039014328 -0.14268802 0.006413911 1.6772392e-38
0.040902849 -0.14268802 0.006413911 1.2440277e-38
0.042338606 -0.14078392 0.013488743 1.3087085e-38
0.044214722 -0.14078392 0.013488743 1.5578884e-38
0.045892429 -0.13999285 0.016428087 1.6963257e-38
0.047763389 -0.13999285 0.016428087 1.6411163e-38
0.049347233 -0.13890465 0.020471428 1.6596278e-38
0.051211108 -0.13890465 0.020471428 1.576652e-38
0.053074982 -0.13890465 0.020471428 1.1801754e-38
0.054938857 -0.13890465 0.020471428 1.2354212e-38
0.056802731 -0.13890465 0.020471428 1.6134238e-38
0.058666602 -0.13890465 0.020471428 1.7332065e-38
0.060530484 -0.13890465 0.020471428 1.6870009e-38
0.062731087 -0.13999285 0.016428087 1.5302679e-38
