# .PCD v0.7 - Point Cloud Data file format
VERSION 0.7
FIELDS x y z rgb
SIZE 4 4 4 4
TYPE F F F F
COUNT 1 1 1 1
WIDTH 553
HEIGHT 1
VIEWPOINT 0 0 0 1 0 0 0
POINTS 553
DATA ascii
-0.0054032169 -0.10120471 -0.03908119 6.1785463e-39
-0.0034850352 -0.10120471 -0.03908119 6.5458869e-39
-0.0090360157 -0.10473295 -0.046117757 2.216281e-39
-0.0071054958 -0.10473295 -0.046117757 4.5218935e-39
-0.0054032169 -0.1031229 -0.03908119 4.9803591e-39
-0.0034850352 -0.1031229 -0.03908119 4.8863712e-39
-0.001455795 -0.10382988 -0.042170975 4.8838573e-39
-0.0092395842 -0.10504107 -0.03908119 6.365792e-39
-0.0073214024 -0.10504107 -0.03908119 6.8271331e-39
-0.0055334307 -0.1041155 -0.035066817 5.6257243e-39
-0.003622286 -0.1041155 -0.035066817 5.0704065e-39
-0.0017111413 -0.1041155 -0.035066817 4.6991143e-39
0.00020000339 -0.1041155 -0.035066817 3.222908e-39
0.0021111481 -0.1041155 -0.035066817 4.1452174e-39
-0.011157768 -0.10695927 -0.03908119 1.0604993e-38
-0.0093557201 -0.10602666 -0.035066817 1.0975922e-38
-0.0074445754 -0.10602666 -0.035066817 7.4724913e-39
-0.0055334307 -0.10602666 -0.035066817 6.4558409e-39
-0.003622286 -0.10602666 -0.035066817 7.0987104e-39
-0.0017111413 -0.10602666 -0.035066817 6.9121765e-39
0.00020000339 -0.10602666 -0.035066817 4.6062138e-39
0.0021111481 -0.10602666 -0.035066817 2.1172877e-39
-0.011266865 -0.1079378 -0.035066817 8.3018947e-39
-0.0093557201 -0.1079378 -0.035066817 1.0146515e-38
-0.0074445754 -0.1079378 -0.035066817 8.2100508e-39
-0.0055334307 -0.1079378 -0.035066817 8.6685332e-39
-0.003622286 -0.1079378 -0.035066817 8.6660361e-39
-0.0018165596 -0.1072513 -0.032133911 8.3873066e-39
8.944422e-05 -0.1072513 -0.032133911 8.8472142e-39
0.0021111481 -0.1079378 -0.035066817 5.2515832e-39
0.0040222928 -0.1079378 -0.035066817 4.7916742e-39
-0.011266865 -0.10984896 -0.035066817 5.2601577e-39
-0.0093557201 -0.10984896 -0.035066817 6.7356367e-39
-0.0074445754 -0.10984896 -0.035066817 7.7490754e-39
-0.0055334307 -0.10984896 -0.035066817 9.8670736e-39
-0.003622286 -0.10984896 -0.035066817 1.2538606e-38
-0.0018165596 -0.10915731 -0.032133911 1.2998163e-38
8.944422e-05 -0.10915731 -0.032133911 1.5393819e-38
0.0021111481 -0.10984896 -0.035066817 1.3365517e-38
0.0040222928 -0.10984896 -0.035066817 1.0324494e-38
-0.011266865 -0.11176009 -0.035066817 5.5854636e-40
-0.0093557201 -0.11176009 -0.035066817 1.9411137e-39
-0.0074445754 -0.11176009 -0.035066817 2.3091787e-39
-0.0055334307 -0.11176009 -0.035066817 6.4558353e-39
-0.0040634386 -0.10869466 -0.022163842 1.7517523e-38
-0.0021749176 -0.10869466 -0.022163842 2.1480511e-38
-0.00028639659 -0.10869466 -0.022163842 2.3139674e-38
0.0016021244 -0.10869466 -0.022163842 2.3508809e-38
0.0034906454 -0.10869466 -0.022163842 2.3324421e-38
0.0053791702 -0.10869466 -0.022163842 1.7516829e-38
0.0072676912 -0.10869466 -0.022163842 8.3121382e-40
-0.011266865 -0.11367123 -0.035066817 6.5074479e-40
-0.0093557201 -0.11367123 -0.035066817 3.2285917e-42
-0.0078404807 -0.11058317 -0.022163842 1.6634604e-39
-0.0059519596 -0.11058317 -0.022163842 1.0162931e-39
-0.0040634386 -0.11058317 -0.022163842 1.7148736e-38
-0.0021749176 -0.11058317 -0.022163842 2.1849997e-38
-0.00028639659 -0.11058317 -0.022163842 2.3509527e-38
0.0016021244 -0.11058317 -0.022163842 2.2679054e-38
0.0034906454 -0.11058317 -0.022163842 2.3325497e-38
0.0053791702 -0.11058317 -0.022163842 1.9914641e-38
0.007401593 -0.11129995 -0.025158737 2.5223372e-44
0.009295363 -0.11129995 -0.025158737 9.3299853e-41
0.011189137 -0.11129995 -0.025158737 1.2000005e-39
-0.0078404807 -0.11247168 -0.022163842 1.5861237e-38
-0.0059519596 -0.11247168 -0.022163842 2.139153e-38
-0.0040634386 -0.11247168 -0.022163842 2.3234361e-38
-0.0021749176 -0.11247168 -0.022163842 2.3418031e-38
-0.00017349795 -0.11319371 -0.025158737 2.2864502e-38
0.0017202757 -0.11319371 -0.025158737 2.3509883e-38
0.0036140457 -0.11319371 -0.025158737 2.1389397e-38
0.0055078194 -0.11319371 -0.025158737 1.8992685e-38
0.007401593 -0.11319371 -0.025158737 1.3185807e-38
0.009295363 -0.11319371 -0.025158737 2.8595401e-39
0.011525456 -0.1148753 -0.032133911 2.7666186e-39
-0.007963378 -0.11338757 -0.018158529 2.2405699e-38
-0.0060818791 -0.11338757 -0.018158529 2.3142532e-38
-0.0040634386 -0.1143602 -0.022163842 2.3418033e-38
-0.0021749176 -0.1143602 -0.022163842 2.350986e-38
-0.00017349795 -0.11508749 -0.025158737 2.3509863e-38
0.0017202757 -0.11508749 -0.025158737 2.2957061e-38
0.0036140457 -0.11508749 -0.025158737 2.3234379e-38
0.0055078194 -0.11508749 -0.025158737 2.3142185e-38
0.007401593 -0.11508749 -0.025158737 2.0561101e-38
0.0096194521 -0.11678131 -0.032133911 1.9546955e-38
0.011525456 -0.11678131 -0.032133911 1.3093255e-38
-0.0098448768 -0.11526908 -0.018158529 2.2220953e-38
-0.007963378 -0.11526908 -0.018158529 2.3142544e-38
-0.0060818791 -0.11526908 -0.018158529 2.2405329e-38
-0.0042003803 -0.11526908 -0.018158529 1.9085915e-38
-0.0023188815 -0.11526908 -0.018158529 2.1021655e-38
-0.00028639659 -0.11624874 -0.022163842 2.3418023e-38
0.0016021244 -0.11624874 -0.022163842 2.3418035e-38
0.0036140457 -0.11698125 -0.025158737 2.3234376e-38
0.0056771338 -0.11794533 -0.029100273 2.2773767e-38
0.0075778179 -0.11794533 -0.029100273 2.2958514e-38
0.0096194521 -0.11868732 -0.032133911 2.2866678e-38
0.011525456 -0.11868732 -0.032133911 2.222096e-38
-0.013760639 -0.11567034 -0.012149666 1.2262016e-38
-0.011889676 -0.11567034 -0.012149666 2.3326213e-38
-0.010309491 -0.1131943 -0.0020985343 2.3142544e-38
-0.0084561519 -0.1131943 -0.0020985343 2.3050708e-38
-0.0064079389 -0.11467429 -0.0081063248 1.4384311e-38
-0.0044058226 -0.11567034 -0.012149666 9.958193e-39
-0.0025348589 -0.11567034 -0.012149666 1.0326967e-38
-0.00028639659 -0.11813726 -0.022163842 2.286557e-38
0.0016021244 -0.11813726 -0.022163842 2.2681546e-38
0.0034906454 -0.11813726 -0.022163842 2.3142538e-38
0.0053791702 -0.11813726 -0.022163842 2.2958873e-38
0.0072676912 -0.11813726 -0.022163842 2.10235e-38
0.0091562122 -0.11813726 -0.022163842 1.9916799e-38
0.011044733 -0.11813726 -0.022163842 2.1483762e-38
-0.015631603 -0.1175413 -0.012149666 3.8704214e-39
-0.013760639 -0.1175413 -0.012149666 4.5161467e-39
-0.011999561 -0.11653815 -0.0081063248 6.5458897e-39
-0.010309491 -0.11504765 -0.0020985343 4.4271951e-39
-0.0084561519 -0.11504765 -0.0020985343 1.3850953e-39
-0.0064079389 -0.11653815 -0.0081063248 2.4910771e-39
-0.0045440644 -0.11653815 -0.0081063248 1.1074182e-39
-0.0026801899 -0.11653815 -0.0081063248 1.1525156e-38
-0.00066389516 -0.1175413 -0.012149666 2.1943981e-38
0.0012070648 -0.1175413 -0.012149666 2.3234367e-38
0.0031991415 -0.11827053 -0.015089009 2.2313852e-38
0.0052071139 -0.11903207 -0.018158529 2.2958873e-38
0.0070886128 -0.11903207 -0.018158529 6.5494939e-39
0.0091562122 -0.12002577 -0.022163842 5.8115729e-39
0.011044733 -0.12002577 -0.022163842 7.0093972e-39
0.012933254 -0.12002577 -0.022163842 8.3908897e-39
0.014821775 -0.12002577 -0.022163842 9.5883483e-39
-0.015631603 -0.11941226 -0.012149666 6.2660686e-39
-0.013760639 -0.11941226 -0.012149666 5.9894817e-39
-0.011999561 -0.11840202 -0.0081063248 3.5027179e-39
-0.010135686 -0.11840202 -0.0081063248 1.8453545e-39
-0.0082718134 -0.11840202 -0.0081063248 2.3992444e-39
-0.0064079389 -0.11840202 -0.0081063248 5.0721988e-39
-0.0045440644 -0.11840202 -0.0081063248 5.1636713e-39
-0.0026801899 -0.11840202 -0.0081063248 9.6808943e-39
-0.00066389516 -0.11941226 -0.012149666 2.3418043e-38
0.0012070648 -0.11941226 -0.012149666 2.3234372e-38
0.0031991415 -0.12014665 -0.015089009 2.2958866e-38
0.0050752573 -0.12014665 -0.015089009 2.231565e-38
0.0070886128 -0.12091358 -0.018158529 8.0256889e-39
0.0089701116 -0.12091358 -0.018158529 3.7846928e-39
0.01085161 -0.12091358 -0.018158529 3.6917783e-39
0.012933254 -0.12191428 -0.022163842 5.25659e-39
0.014821775 -0.12191428 -0.022163842 5.439545e-39
0.016710296 -0.12191428 -0.022163842 4.9760529e-39
-0.017502565 -0.12128322 -0.012149666 5.6206964e-39
-0.015631603 -0.12128322 -0.012149666 6.0816774e-39
-0.013760639 -0.12128322 -0.012149666 7.1880249e-39
-0.012081427 -0.11950795 -0.0050939061 6.8210375e-39
-0.010222835 -0.11950795 -0.0050939061 5.0718302e-39
-0.0082718134 -0.12026589 -0.0081063248 3.689972e-39
-0.0064079389 -0.12026589 -0.0081063248 5.7171996e-39
-0.0044058226 -0.12128322 -0.012149666 6.8235472e-39
-0.0025348589 -0.12128322 -0.012149666 8.8511336e-39
-0.00066389516 -0.12128322 -0.012149666 2.350988e-38
0.0012070648 -0.12128322 -0.012149666 2.2589722e-38
0.0031991415 -0.12202276 -0.015089009 2.3142538e-38
0.0050752573 -0.12202276 -0.015089009 2.2867032e-38
0.0070886128 -0.12279506 -0.018158529 4.1534725e-39
0.0089701116 -0.12279506 -0.018158529 2.3095627e-39
0.01085161 -0.12279506 -0.018158529 3.3233587e-39
0.012933254 -0.12380283 -0.022163842 4.0602076e-39
0.014821775 -0.12380283 -0.022163842 4.2438828e-39
0.016710296 -0.12380283 -0.022163842 5.7172193e-39
0.018598817 -0.12380283 -0.022163842 3.780388e-39
0.020657998 -0.12455635 -0.025158737 4.2417178e-39
-0.017502565 -0.12315418 -0.012149666 5.0685988e-39
-0.015631603 -0.12315418 -0.012149666 7.5586025e-39
-0.013760639 -0.12315418 -0.012149666 5.5302987e-39
-0.012081427 -0.12136655 -0.0050939061 7.190892e-39
-0.010222835 -0.12136655 -0.0050939061 5.8086624e-39
-0.0082718134 -0.12212978 -0.0081063248 4.5182753e-39
-0.0064079389 -0.12212978 -0.0081063248 2.6740082e-39
-0.0044058226 -0.12315418 -0.012149666 8.851121e-39
-0.0025348589 -0.12315418 -0.012149666 1.1708834e-38
-0.00066389516 -0.12315418 -0.012149666 2.350988e-38
0.0012070648 -0.12315418 -0.012149666 2.3233299e-38
0.0031991415 -0.12389888 -0.015089009 2.3234379e-38
0.0052071139 -0.12467657 -0.018158529 2.2958873e-38
0.0070886128 -0.12467657 -0.018158529 1.051355e-38
0.0089701116 -0.12467657 -0.018158529 3.6003197e-39
0.01085161 -0.12467657 -0.018158529 1.9425962e-39
0.012933254 -0.12569134 -0.022163842 2.4961302e-39
0.014821775 -0.12569134 -0.022163842 3.3266097e-39
0.016710296 -0.12569134 -0.022163842 5.8158917e-39
0.018598817 -0.12569134 -0.022163842 2.771631e-39
0.020487338 -0.12569134 -0.022163842 3.7807341e-39
0.026152901 -0.12569134 -0.022163842 9.6776559e-39
-0.021318929 -0.12399365 -0.0081063248 3.5019892e-39
-0.019455057 -0.12399365 -0.0081063248 2.3956416e-39
-0.017591182 -0.12399365 -0.0081063248 3.7785789e-39
-0.015631603 -0.12502514 -0.012149666 5.991274e-39
-0.013760639 -0.12502514 -0.012149666 7.5593228e-39
-0.012081427 -0.12322514 -0.0050939061 1.1340051e-38
-0.010222835 -0.12322514 -0.0050939061 1.373784e-38
-0.0082718134 -0.12399365 -0.0081063248 1.7332742e-38
-0.0064079389 -0.12399365 -0.0081063248 2.258754e-38
-0.0045440644 -0.12399365 -0.0081063248 2.3509504e-38
-0.0026801899 -0.12399365 -0.0081063248 2.3508793e-38
-0.00081631914 -0.12399365 -0.0081063248 2.350988e-38
0.0010475554 -0.12399365 -0.0081063248 2.3233299e-38
0.0029114299 -0.12399365 -0.0081063248 2.2496101e-38
0.0049489923 -0.12502514 -0.012149666 2.2497184e-38
0.006819956 -0.12502514 -0.012149666 2.2130201e-38
0.0088274926 -0.12577499 -0.015089009 1.6231125e-38
0.01085161 -0.12655805 -0.018158529 2.4039387e-39
0.012933254 -0.12757985 -0.022163842 2.5897691e-39
0.014821775 -0.12757985 -0.022163842 2.8681539e-39
0.016710296 -0.12757985 -0.022163842 6.5617622e-40
0.018598817 -0.12757985 -0.022163842 3.787941e-39
0.020487338 -0.12757985 -0.022163842 3.135722e-39
-0.021318929 -0.12585752 -0.0081063248 3.1332067e-39
-0.019455057 -0.12585752 -0.0081063248 2.6722285e-39
-0.017591182 -0.12585752 -0.0081063248 3.3176007e-39
-0.015631603 -0.1268961 -0.012149666 3.6863833e-39
-0.013760639 -0.1268961 -0.012149666 6.9132303e-39
-0.011999561 -0.12585752 -0.0081063248 1.5027521e-38
-0.010135686 -0.12585752 -0.0081063248 1.7148725e-38
-0.0082718134 -0.12585752 -0.0081063248 2.0191534e-38
-0.0064079389 -0.12585752 -0.0081063248 2.3509863e-38
-0.0045440644 -0.12585752 -0.0081063248 2.2864857e-38
-0.0026801899 -0.12585752 -0.0081063248 2.3509876e-38
-0.00092987716 -0.12508373 -0.0050939061 2.2587564e-38
0.00053309649 -0.12250783 0.0049344562 2.3509886e-38
0.0023741052 -0.12250783 0.0049344562 2.341805e-38
0.0049489923 -0.1268961 -0.012149666 2.3142544e-38
0.0066391788 -0.12585752 -0.0081063248 2.2590454e-38
0.0085030533 -0.12585752 -0.0081063248 2.2775202e-38
0.010561883 -0.1268961 -0.012149666 1.7523303e-38
0.012579724 -0.12765111 -0.015089009 3.602842e-39
0.014614608 -0.12843956 -0.018158529 2.9585516e-39
0.016496107 -0.12843956 -0.018158529 1.3919448e-39
0.018598817 -0.1294684 -0.022163842 1.5745298e-39
0.020487338 -0.1294684 -0.022163842 3.1364465e-39
-0.023232982 -0.12694232 -0.0050939061 7.371979e-40
-0.02137439 -0.12694232 -0.0050939061 2.8566198e-39
-0.019515797 -0.12694232 -0.0050939061 2.7644242e-39
-0.017591182 -0.12772138 -0.0081063248 2.3034488e-39
-0.015727308 -0.12772138 -0.0081063248 1.5658838e-39
-0.013760639 -0.12876706 -0.012149666 3.2254051e-39
-0.011999561 -0.12772138 -0.0081063248 1.9176324e-38
-0.010222835 -0.12694232 -0.0050939061 2.3326196e-38
-0.0083642453 -0.12694232 -0.0050939061 2.3509869e-38
-0.0065056533 -0.12694232 -0.0050939061 2.350987e-38
-0.0047494732 -0.12616767 -0.0020985343 2.268083e-38
-0.0028961301 -0.12616767 -0.0020985343 2.3509879e-38
-0.0010427907 -0.12616767 -0.0020985343 2.350988e-38
0.00029759482 -0.12280498 0.0109041 2.2957431e-38
0.0021281391 -0.12280498 0.0109041 2.304927e-38
0.0049489923 -0.12876706 -0.012149666 2.2497178e-38
0.0066391788 -0.12772138 -0.0081063248 2.2958873e-38
0.0085030533 -0.12772138 -0.0081063248 2.2867037e-38
0.010561883 -0.12876706 -0.012149666 2.157847e-38
0.012579724 -0.12952723 -0.015089009 1.9735997e-38
0.014614608 -0.13032107 -0.018158529 3.4180907e-39
0.016496107 -0.13032107 -0.018158529 2.1706113e-42
0.018377606 -0.13032107 -0.018158529 2.3102998e-39
0.020487338 -0.13135691 -0.022163842 2.3985255e-39
-0.023282874 -0.12802102 -0.0020985343 9.2159056e-40
-0.021429533 -0.12802102 -0.0020985343 1.1981774e-39
-0.019515797 -0.12880091 -0.0050939061 1.0137862e-39
-0.017591182 -0.12958528 -0.0081063248 2.7550649e-40
-0.015727308 -0.12958528 -0.0081063248 4.5953621e-40
-0.013760639 -0.13063805 -0.012149666 2.7550649e-40
-0.011999561 -0.12958528 -0.0081063248 2.350988e-38
-0.010222835 -0.12880091 -0.0050939061 2.2035107e-38
-0.0084561519 -0.12802102 -0.0020985343 2.3418043e-38
-0.0066028126 -0.12802102 -0.0020985343 2.2773391e-38
-0.0047494732 -0.12802102 -0.0020985343 2.3234369e-38
-0.0028961301 -0.12802102 -0.0020985343 2.350988e-38
-0.0010427907 -0.12802102 -0.0020985343 2.3418045e-38
6.0547143e-05 -0.123071 0.016912963 2.3234015e-38
0.0018805526 -0.123071 0.016912963 2.341805e-38
0.0037005581 -0.123071 0.016912963 2.3234379e-38
0.0050764941 -0.12048493 0.026845243 2.3142544e-38
0.0071578696 -0.12204717 0.020845201 2.1945445e-38
0.01085161 -0.13220255 -0.018158529 2.2591172e-38
0.012733109 -0.13220255 -0.018158529 2.2591531e-38
0.014614608 -0.13220255 -0.018158529 8.3030185e-39
0.016496107 -0.13220255 -0.018158529 2.8164137e-40
0.018377606 -0.13220255 -0.018158529 1.1110377e-39
-0.023282874 -0.12987436 -0.0020985343 6.4500367e-40
-0.021429533 -0.12987436 -0.0020985343 4.6061241e-40
-0.019515797 -0.13065951 -0.0050939061 4.6061241e-40
-0.017591182 -0.13144915 -0.0081063248 2.7550649e-40
-0.015727308 -0.13144915 -0.0081063248 4.5953621e-40
-0.013863435 -0.13144915 -0.0081063248 3.6734198e-40
-0.012081427 -0.13065951 -0.0050939061 2.350988e-38
-0.010309491 -0.12987436 -0.0020985343 2.3509883e-38
-0.0085475408 -0.12909363 0.00087990984 2.341805e-38
-0.0066994242 -0.12909363 0.00087990984 2.3418047e-38
-0.004851304 -0.12909363 0.00087990984 2.2680841e-38
-0.0035794675 -0.124891 0.016912963 2.3418045e-38
-0.0017594621 -0.124891 0.016912963 2.2312056e-38
6.0547143e-05 -0.124891 0.016912963 2.3418045e-38
0.0014713109 -0.12228753 0.026845243 2.332621e-38
0.0032739006 -0.12228753 0.026845243 2.3142539e-38
0.0050764941 -0.12228753 0.026845243 2.3234379e-38
0.0071578696 -0.12386028 0.020845201 2.1944365e-38
0.0089709796 -0.12386028 0.020845201 2.2958873e-38
0.010784093 -0.12386028 0.020845201 2.2221676e-38
-0.021244492 -0.13437997 -0.012149666 4.6061521e-40
-0.019373529 -0.13437997 -0.012149666 5.5281084e-40
-0.017591182 -0.13331302 -0.0081063248 3.6734198e-40
-0.015727308 -0.13331302 -0.0081063248 1.0127072e-39
-0.013863435 -0.13331302 -0.0081063248 4.8845621e-39
-0.012081427 -0.1325181 -0.0050939061 2.3231854e-38
-0.010309491 -0.13172771 -0.0020985343 2.3509168e-38
-0.0085475408 -0.13094176 0.00087990984 2.3048554e-38
-0.0066994242 -0.13094176 0.00087990984 2.3233302e-38
-0.0052970499 -0.1275015 0.013917234 2.3141103e-38
-0.0035794675 -0.126711 0.016912963 2.3418047e-38
-0.0017594621 -0.126711 0.016912963 2.2496447e-38
-9.4581395e-05 -0.1256734 0.020845201 2.3234374e-38
0.0014713109 -0.12409012 0.026845243 2.2497526e-38
0.0032739006 -0.12409012 0.026845243 2.3234374e-38
0.0053447559 -0.1256734 0.020845201 2.1944355e-38
0.0071578696 -0.1256734 0.020845201 2.3234379e-38
0.0089709796 -0.1256734 0.020845201 2.2958155e-38
-0.013863435 -0.13517688 -0.0081063248 1.0600691e-38
-0.012081427 -0.13437669 -0.0050939061 2.3508081e-38
-0.010222835 -0.13437669 -0.0050939061 2.3509168e-38
-0.0083642453 -0.13437669 -0.0050939061 2.3509527e-38
-0.007122308 -0.12932678 0.013917234 2.3324778e-38
-0.0052970499 -0.12932678 0.013917234 2.3509886e-38
-0.0035794675 -0.12853102 0.016912963 2.3509883e-38
-0.0019076951 -0.12748651 0.020845201 2.2680838e-38
-9.4581395e-05 -0.12748651 0.020845201 2.3234372e-38
0.0014713109 -0.12589271 0.026845243 2.2866307e-38
0.0032739006 -0.12589271 0.026845243 2.30507e-38
0.0052078813 -0.1266733 0.023906615 2.3234376e-38
0.0071578696 -0.12748651 0.020845201 2.341805e-38
0.0089709796 -0.12748651 0.020845201 2.3141466e-38
0.010784093 -0.12748651 0.020845201 2.3509527e-38
-0.013863435 -0.13704078 -0.0081063248 1.4195242e-38
-0.012081427 -0.13623528 -0.0050939061 2.0187959e-38
-0.010395659 -0.134638 0.00087990984 2.0188685e-38
-0.0087621287 -0.13276802 0.0078735612 2.3509168e-38
-0.0072194822 -0.13035102 0.016912963 2.3509168e-38
-0.005399473 -0.13035102 0.016912963 2.323258e-38
-0.003720805 -0.1292996 0.020845201 2.3233296e-38
-0.0019076951 -0.1292996 0.020845201 2.3418045e-38
-0.00021535531 -0.12848105 0.023906615 2.3142535e-38
0.0014713109 -0.12769531 0.026845243 2.3050698e-38
0.0032739006 -0.12769531 0.026845243 2.30507e-38
0.0052078813 -0.12848105 0.023906615 2.3234376e-38
0.0071578696 -0.1292996 0.020845201 2.2496453e-38
0.0089709796 -0.1292996 0.020845201 2.3509886e-38
0.010784093 -0.1292996 0.020845201 2.3324421e-38
-0.01394002 -0.13809387 -0.0050939061 1.2167294e-38
-0.012162833 -0.13728772 -0.0020985343 1.7605761e-38
-0.010512957 -0.13539489 0.0049344562 1.7974545e-38
-0.0088551156 -0.13378824 0.0109041 2.3229699e-38
-0.0072194822 -0.13217102 0.016912963 2.3507006e-38
-0.005399473 -0.13217102 0.016912963 2.3509521e-38
-0.003720805 -0.13111271 0.020845201 2.350988e-38
-0.0020230971 -0.13028879 0.023906615 2.3509879e-38
-0.00033128262 -0.1294979 0.026845243 2.1113512e-38
0.0014713109 -0.1294979 0.026845243 1.9547266e-38
0.0032739006 -0.1294979 0.026845243 1.9823853e-38
0.0052078813 -0.13028879 0.023906615 2.0100442e-38
0.0070156232 -0.13028879 0.023906615 1.9361801e-38
0.0088233687 -0.13028879 0.023906615 1.9637672e-38
0.010631114 -0.13028879 0.023906615 1.9913543e-38
0.012438856 -0.13028879 0.023906615 2.1940769e-38
0.014246602 -0.13028879 0.023906615 2.2124441e-38
-0.014016172 -0.13914107 -0.0020985343 9.2170336e-39
-0.012243776 -0.13833423 0.00087990984 1.6314657e-38
-0.010597985 -0.13643973 0.0078735612 1.9079086e-38
-0.0089475699 -0.13480256 0.013917234 2.3508078e-38
-0.0072194822 -0.13399105 0.016912963 2.3508797e-38
-0.005399473 -0.13399105 0.016912963 2.3509158e-38
-0.0035794675 -0.13399105 0.016912963 2.3323685e-38
-0.0020230971 -0.13209651 0.023906615 2.2403171e-38
-0.00033128262 -0.13130049 0.026845243 2.0467783e-38
0.0014713109 -0.13130049 0.026845243 1.9914972e-38
0.0032739006 -0.13130049 0.026845243 1.8994095e-38
0.0052078813 -0.13209651 0.023906615 1.8809348e-38
0.0070156232 -0.13209651 0.023906615 1.8716432e-38
0.0088233687 -0.13209651 0.023906615 1.7793759e-38
0.010631114 -0.13209651 0.023906615 1.7885239e-38
0.012438856 -0.13209651 0.023906615 2.0004659e-38
0.014246602 -0.13209651 0.023906615 2.1294679e-38
0.016054347 -0.13209651 0.023906615 1.2536815e-38
-0.014016172 -0.14099441 -0.0020985343 6.4504431e-39
-0.012243776 -0.14018236 0.00087990984 1.511539e-38
-0.010597985 -0.13827558 0.0078735612 1.6865304e-38
-0.0089475699 -0.13662781 0.013917234 2.2304124e-38
-0.0072194822 -0.13581105 0.016912963 2.2120815e-38
-0.005399473 -0.13581105 0.016912963 2.0554931e-38
-0.0035794675 -0.13581105 0.016912963 1.8159288e-38
-0.0019076951 -0.13473894 0.020845201 1.6962187e-38
-0.00033128262 -0.13310309 0.026845243 1.6411175e-38
0.0014713109 -0.13310309 0.026845243 1.7886671e-38
0.0032739006 -0.13310309 0.026845243 1.7426413e-38
0.0052078813 -0.13390426 0.023906615 1.7518612e-38
0.0070156232 -0.13390426 0.023906615 1.9177054e-38
0.0088233687 -0.13390426 0.023906615 1.8162905e-38
0.010631114 -0.13390426 0.023906615 1.7977435e-38
0.012438856 -0.13390426 0.023906615 1.8713921e-38
0.014246602 -0.13390426 0.023906615 1.8436971e-38
0.016054347 -0.13390426 0.023906615 1.2720842e-38
-0.01394002 -0.14366965 -0.0050939061 3.9611611e-39
-0.012243776 -0.14203046 0.00087990984 1.124281e-38
-0.010597985 -0.14011143 0.0078735612 1.3821758e-38
-0.0089475699 -0.13845308 0.013917234 1.9536442e-38
-0.0072194822 -0.13763104 0.016912963 1.9814474e-38
-0.005399473 -0.13763104 0.016912963 1.9263103e-38
-0.0035794675 -0.13763104 0.016912963 1.7235888e-38
-0.0019076951 -0.13655205 0.020845201 1.5670728e-38
-0.00033128262 -0.13490568 0.026845243 1.4566544e-38
0.0014713109 -0.13490568 0.026845243 1.5766172e-38
0.0032739006 -0.13490568 0.026845243 1.6504462e-38
0.0052078813 -0.13571201 0.023906615 1.6504823e-38
0.0070156232 -0.13571201 0.023906615 1.8901549e-38
0.0088233687 -0.13571201 0.023906615 1.8716079e-38
0.010631114 -0.13571201 0.023906615 1.9083782e-38
0.012438856 -0.13571201 0.023906615 1.9267092e-38
0.014246602 -0.13571201 0.023906615 1.797599e-38
0.016054347 -0.13571201 0.023906615 1.3089621e-38
-0.015727308 -0.14636014 -0.0081063248 5.5101298e-40
-0.01394002 -0.14552824 -0.0050939061 1.6562703e-39
-0.012243776 -0.14387859 0.00087990984 7.0932831e-39
-0.010597985 -0.14194728 0.0078735612 1.3083103e-38
-0.0089475699 -0.14027832 0.013917234 1.7876191e-38
-0.0072194822 -0.13945107 0.016912963 1.8430092e-38
-0.005399473 -0.13945107 0.016912963 1.990739e-38
-0.003720805 -0.13836516 0.020845201 2.0277981e-38
-0.0020230971 -0.13751976 0.023906615 1.9542223e-38
-0.00033128262 -0.13670824 0.026845243 1.7607923e-38
0.0014713109 -0.13670824 0.026845243 1.7425337e-38
0.0032739006 -0.13670824 0.026845243 1.5213366e-38
0.0052078813 -0.13751976 0.023906615 1.3646762e-38
0.0070156232 -0.13751976 0.023906615 1.3830435e-38
0.0088233687 -0.13751976 0.023906615 1.2724084e-38
0.010631114 -0.13751976 0.023906615 1.36446e-38
0.012438856 -0.13751976 0.023906615 1.4934973e-38
0.014246602 -0.13751976 0.023906615 1.5118641e-38
0.016054347 -0.13751976 0.023906615 1.023191e-38
-0.017591182 -0.14822401 -0.0081063248 4.5917748e-40
-0.015727308 -0.14822401 -0.0081063248 5.5101298e-40
-0.013863435 -0.14822401 -0.0081063248 6.4284847e-40
-0.012243776 -0.1457267 0.00087990984 3.8664333e-39
-0.010597985 -0.14378314 0.0078735612 9.5785841e-39
-0.0089475699 -0.1421036 0.013917234 1.3818137e-38
-0.0072194822 -0.14127107 0.016912963 1.4188726e-38
-0.005399473 -0.14127107 0.016912963 1.723263e-38
-0.003720805 -0.14017828 0.020845201 1.9539693e-38
-0.0021338761 -0.13851084 0.026845243 2.0094677e-38
-0.00033128262 -0.13851084 0.026845243 1.8437684e-38
0.0014713109 -0.13851084 0.026845243 1.8254382e-38
0.0032739006 -0.13851084 0.026845243 1.7426064e-38
0.0050764941 -0.13851084 0.026845243 1.5305928e-38
0.0068790875 -0.13851084 0.026845243 1.3830798e-38
0.0086816773 -0.13851084 0.026845243 1.24475e-38
0.010484271 -0.13851084 0.026845243 1.2815558e-38
0.01228686 -0.13851084 0.026845243 1.3829344e-38
0.014089454 -0.13851084 0.026845243 1.4104487e-38
0.016054347 -0.13932751 0.023906615 7.0972572e-39
0.021299824 -0.13851084 0.026845243 3.7774915e-39
-0.012162833 -0.14840777 -0.0020985343 1.102026e-39
-0.010597985 -0.14561899 0.0078735612 5.9847594e-39
-0.0089475699 -0.14392884 0.013917234 1.0684932e-38
-0.0072194822 -0.14309107 0.016912963 1.1976755e-38
-0.005399473 -0.14309107 0.016912963 1.5574548e-38
-0.003720805 -0.14199139 0.020845201 1.8709928e-38
-0.0021338761 -0.14031343 0.026845243 1.9634054e-38
-0.00033128262 -0.14031343 0.026845243 1.8529515e-38
0.0014713109 -0.14031343 0.026845243 1.880719e-38
0.0032739006 -0.14031343 0.026845243 1.8439493e-38
0.0050764941 -0.14031343 0.026845243 1.751826e-38
0.0068790875 -0.14031343 0.026845243 1.7333871e-38
0.0086816773 -0.14031343 0.026845243 1.7057282e-38
0.010484271 -0.14031343 0.026845243 1.6504462e-38
0.01228686 -0.14031343 0.026845243 1.5673976e-38
0.014089454 -0.14031343 0.026845243 1.3460915e-38
0.016054347 -0.14113526 0.023906615 3.1342843e-39
0.017694637 -0.14031343 0.026845243 2.4874757e-39
0.019497231 -0.14031343 0.026845243 2.8555352e-39
0.021299824 -0.14031343 0.026845243 4.8834831e-39
-0.0089475699 -0.14575411 0.013917234 3.9586289e-39
-0.0072194822 -0.14491107 0.016912963 8.2921781e-39
-0.005399473 -0.14491107 0.016912963 1.2442058e-38
-0.003720805 -0.14380451 0.020845201 1.5945852e-38
-0.0021338761 -0.14211603 0.026845243 1.8159629e-38
-0.00033128262 -0.14211603 0.026845243 1.8897561e-38
0.0014713109 -0.14211603 0.026845243 1.843767e-38
0.0032739006 -0.14211603 0.026845243 1.7423529e-38
0.0050764941 -0.14211603 0.026845243 1.8899388e-38
0.0068790875 -0.14211603 0.026845243 1.7977796e-38
0.0086816773 -0.14211603 0.026845243 1.7424985e-38
0.010484271 -0.14211603 0.026845243 1.7149475e-38
0.01228686 -0.14211603 0.026845243 1.4661266e-38
0.014089454 -0.14211603 0.026845243 1.235637e-38
0.015892047 -0.14211603 0.026845243 2.1212127e-39
0.017694637 -0.14211603 0.026845243 2.7550649e-40
0.019497231 -0.14211603 0.026845243 6.6348455e-39
0.021299824 -0.14211603 0.026845243 6.8192368e-39
-0.0089475699 -0.14757936 0.013917234 1.748103e-39
-0.007122308 -0.14757936 0.013917234 3.1313892e-39
-0.0052970499 -0.14757936 0.013917234 6.8195689e-39
-0.0035794675 -0.14673109 0.016912963 1.207507e-38
-0.0020230971 -0.14475073 0.023906615 1.6316429e-38
-0.00021535531 -0.14475073 0.023906615 1.7883761e-38
0.0015923902 -0.14475073 0.023906615 1.7514989e-38
0.0032739006 -0.14391862 0.026845243 1.7976339e-38
0.0050764941 -0.14391862 0.026845243 1.7331339e-38
0.0068790875 -0.14391862 0.026845243 1.6409752e-38
0.0086816773 -0.14391862 0.026845243 1.6042051e-38
0.010484271 -0.14391862 0.026845243 1.4199214e-38
0.01228686 -0.14391862 0.026845243 8.7603897e-39
0.014089454 -0.14391862 0.026845243 5.7193632e-39
0.015892047 -0.14391862 0.026845243 2.7874209e-40
0.017694637 -0.14391862 0.026845243 1.9346691e-39
-0.0089475699 -0.14940463 0.013917234 6.4284847e-40
-0.007122308 -0.14940463 0.013917234 6.4284847e-40
-0.005399473 -0.14855109 0.016912963 2.7633227e-39
-0.0039364658 -0.14572121 0.026845243 6.6358937e-39
-0.0021338761 -0.14572121 0.026845243 1.1245675e-38
-0.00033128262 -0.14572121 0.026845243 1.484095e-38
0.0015923902 -0.14655848 0.023906615 1.650084e-38
0.0034001358 -0.14655848 0.023906615 1.7054385e-38
0.0050764941 -0.14572121 0.026845243 1.5856209e-38
0.0068790875 -0.14572121 0.026845243 1.5487795e-38
0.0086816773 -0.14572121 0.026845243 1.4566561e-38
0.010484271 -0.14572121 0.026845243 1.1893603e-38
0.01228686 -0.14572121 0.026845243 5.5338986e-39
0.014089454 -0.14572121 0.026845243 2.5836356e-39
0.015892047 -0.14572121 0.026845243 2.3988814e-39
0.017694637 -0.14572121 0.026845243 4.3324757e-39
-0.0039364658 -0.14752381 0.026845243 9.2014862e-40
-0.0021338761 -0.14752381 0.026845243 2.671846e-39
-0.00033128262 -0.14752381 0.026845243 5.4373589e-39
0.0015923902 -0.14836623 0.023906615 7.741898e-39
0.0034001358 -0.14836623 0.023906615 7.0050616e-39
0.0050764941 -0.14752381 0.026845243 6.452255e-39
0.0068790875 -0.14752381 0.026845243 5.8065338e-39
0.0086816773 -0.14752381 0.026845243 2.8577128e-39
0.010484271 -0.14752381 0.026845243 1.8442783e-39
0.01228686 -0.14752381 0.026845243 7.3900698e-40
0.014089454 -0.14752381 0.026845243 1.1999823e-39
0.015892047 -0.14752381 0.026845243 5.7179241e-39
-0.0039364658 -0.1493264 0.026845243 3.6734198e-40
-0.0021338761 -0.1493264 0.026845243 3.6770072e-40
0.0032739006 -0.1493264 0.026845243 4.3313897e-39
0.0050764941 -0.1493264 0.026845243 4.4239511e-39
0.0068790875 -0.1493264 0.026845243 3.5938373e-39
0.0086816773 -0.1493264 0.026845243 1.836794e-40
0.010484271 -0.1493264 0.026845243 5.6051939e-45
0.01228686 -0.1493264 0.026845243 3.629363e-43
0.014089454 -0.1493264 0.026845243 9.3634763e-41
