# .PCD v0.7 - Point Cloud Data file format
VERSION 0.7
FIELDS x y z rgb
SIZE 4 4 4 4
TYPE F F F F
COUNT 1 1 1 1
WIDTH 918
HEIGHT 1
VIEWPOINT 0 0 0 1 0 0 0
POINTS 918
DATA ascii
-0.012380874 -0.1069022 -0.041756772 1.0232664e-38
-0.010558089 -0.10597645 -0.037679695 5.8076338e-39
-0.0086030606 -0.10597645 -0.037679695 3.3187078e-39
-0.0066480283 -0.10597645 -0.037679695 4.2413843e-39
-0.014682105 -0.10633601 -0.030706787 9.6801894e-39
-0.012739299 -0.10633601 -0.030706787 1.1431188e-38
-0.010658836 -0.10725726 -0.034733079 7.283103e-39
-0.0087089706 -0.10725726 -0.034733079 8.6660403e-39
-0.0069108848 -0.10633601 -0.030706787 7.1912703e-39
-0.0049680788 -0.10633601 -0.030706787 7.8366397e-39
-0.0030252766 -0.10633601 -0.030706787 8.3908925e-39
-0.018567713 -0.10827883 -0.030706787 3.5873241e-43
-0.016624907 -0.10827883 -0.030706787 5.5280664e-40
-0.014682105 -0.10827883 -0.030706787 3.0413656e-39
-0.012739299 -0.10827883 -0.030706787 5.3462591e-39
-0.010658836 -0.10920714 -0.034733079 1.4382151e-38
-0.0088536907 -0.10827883 -0.030706787 1.6133869e-38
-0.0070251357 -0.10758002 -0.027676011 2.3509883e-38
-0.0050876457 -0.10758002 -0.027676011 2.3141103e-38
-0.003150152 -0.10758002 -0.027676011 2.2864879e-38
-0.0015529711 -0.10575347 -0.019753838 2.185073e-38
0.00023248233 -0.10504107 -0.016664052 1.8256179e-38
0.0021506678 -0.10504107 -0.016664052 1.3001393e-38
-0.033964843 -0.11278872 -0.041756772 7.5603934e-39
-0.031943318 -0.11371385 -0.045738958 8.6660221e-39
-0.029974155 -0.11371385 -0.045738958 5.0711114e-39
-0.028004995 -0.11371385 -0.045738958 3.3193944e-39
-0.026035834 -0.11371385 -0.045738958 8.3011239e-40
-0.020587571 -0.10951753 -0.027676011 4.6204874e-40
-0.018567713 -0.11022164 -0.030706787 7.1746481e-43
-0.016624907 -0.11022164 -0.030706787 2.7622395e-40
-0.014682105 -0.11022164 -0.030706787 3.6805945e-40
-0.012739299 -0.11022164 -0.030706787 8.2867186e-40
-0.010796493 -0.11022164 -0.030706787 1.0048219e-38
-0.0089626256 -0.10951753 -0.027676011 1.3183234e-38
-0.0073237736 -0.10767709 -0.019753838 2.2772304e-38
-0.0054001752 -0.10767709 -0.019753838 2.3141092e-38
-0.0036038812 -0.10695927 -0.016664052 2.22195e-38
-0.0016856994 -0.10695927 -0.016664052 2.1297907e-38
5.3001568e-05 -0.10602666 -0.01264968 2.0376676e-38
0.0019641463 -0.10602666 -0.01264968 1.742678e-38
0.003875291 -0.10602666 -0.01264968 1.3277624e-38
-0.039851382 -0.11475091 -0.041756772 8.2975927e-39
-0.037889201 -0.11475091 -0.041756772 1.004931e-38
-0.035927024 -0.11475091 -0.041756772 1.2353121e-38
-0.033964843 -0.11475091 -0.041756772 1.3552744e-38
-0.031943318 -0.115683 -0.045738958 9.6794481e-39
-0.029974155 -0.115683 -0.045738958 6.1770932e-39
-0.028004995 -0.115683 -0.045738958 5.2551369e-39
-0.026035834 -0.115683 -0.045738958 4.8870732e-39
-0.024396127 -0.11216442 -0.030706787 7.5607465e-39
-0.022453323 -0.11216442 -0.030706787 1.3738217e-38
-0.020587571 -0.11145501 -0.027676011 1.4014804e-38
-0.018650079 -0.11145501 -0.027676011 8.6667297e-39
-0.016712589 -0.11145501 -0.027676011 7.4670935e-39
-0.014775099 -0.11145501 -0.027676011 6.5440484e-39
-0.012739299 -0.11216442 -0.030706787 5.2529537e-39
-0.010900116 -0.11145501 -0.027676011 4.1473278e-39
-0.0091055129 -0.11052449 -0.023700619 1.1339313e-38
-0.0074402485 -0.10887744 -0.016664052 1.5672872e-38
-0.0055220667 -0.10887744 -0.016664052 1.7885215e-38
-0.0036038812 -0.10887744 -0.016664052 1.6042028e-38
-0.0018581431 -0.1079378 -0.01264968 1.6687762e-38
5.3001568e-05 -0.1079378 -0.01264968 2.0007171e-38
0.0019641463 -0.1079378 -0.01264968 2.2404625e-38
0.003875291 -0.1079378 -0.01264968 2.2405347e-38
0.0057864357 -0.1079378 -0.01264968 2.1576312e-38
0.01229261 -0.1032616 0.0073281284 7.3774567e-39
0.01416873 -0.1032616 0.0073281284 4.9807248e-39
-0.035927024 -0.11671309 -0.041756772 1.5579604e-38
-0.033964843 -0.11671309 -0.041756772 1.521154e-38
-0.031943318 -0.11765216 -0.045738958 1.1246409e-38
-0.029974155 -0.11765216 -0.045738958 1.0140781e-38
-0.028004995 -0.11765216 -0.045738958 9.9563909e-39
-0.026338931 -0.11410724 -0.030706787 9.6805243e-39
-0.024396127 -0.11410724 -0.030706787 1.0418808e-38
-0.022453323 -0.11410724 -0.030706787 1.4844201e-38
-0.020510517 -0.11410724 -0.030706787 1.4844201e-38
-0.018650079 -0.11339252 -0.027676011 7.0072056e-39
-0.016712589 -0.11339252 -0.027676011 6.5436953e-39
-0.014775099 -0.11339252 -0.027676011 7.2808946e-39
-0.012837606 -0.11339252 -0.027676011 6.3589411e-39
-0.011036037 -0.11245503 -0.023700619 8.9407817e-39
-0.0092473757 -0.11152427 -0.019753838 1.2167994e-38
-0.0074402485 -0.11079563 -0.016664052 1.6778498e-38
-0.0055220667 -0.11079563 -0.016664052 1.733204e-38
-0.0037692878 -0.10984896 -0.01264968 1.7793743e-38
-0.0018581431 -0.10984896 -0.01264968 1.7794108e-38
-7.8128651e-05 -0.10915731 -0.0097167734 2.0652537e-38
0.0018278714 -0.10915731 -0.0097167734 2.2958155e-38
0.0037338752 -0.10915731 -0.0097167734 2.3142544e-38
0.0051416736 -0.10680611 0.00025329553 2.2406066e-38
0.0068230275 -0.10586159 0.0042586084 2.0746194e-38
0.0083831903 -0.10444455 0.010267472 1.7151286e-38
0.010254154 -0.10444455 0.010267472 1.3647131e-38
0.012125118 -0.10444455 0.010267472 1.1157477e-38
0.013996078 -0.10444455 0.010267472 6.7317257e-39
0.015867045 -0.10444455 0.010267472 7.0083126e-39
-0.035927024 -0.11867525 -0.041756772 1.6961813e-38
-0.033964843 -0.11867525 -0.041756772 1.4288139e-38
-0.032002665 -0.11867525 -0.041756772 1.3181792e-38
-0.030040486 -0.11867525 -0.041756772 1.770046e-38
-0.028153365 -0.11770664 -0.037679695 1.7147286e-38
-0.026338931 -0.11605005 -0.030706787 1.7147649e-38
-0.024396127 -0.11605005 -0.030706787 1.6963979e-38
-0.022453323 -0.11605005 -0.030706787 1.2815895e-38
-0.020510517 -0.11605005 -0.030706787 1.0326615e-38
-0.018758118 -0.11438553 -0.023700619 1.0509563e-38
-0.016827596 -0.11438553 -0.023700619 1.0323363e-38
-0.014897076 -0.11438553 -0.023700619 1.0875092e-38
-0.012966556 -0.11438553 -0.023700619 1.6776694e-38
-0.011170974 -0.11344786 -0.019753838 2.2308795e-38
-0.0093584303 -0.1127138 -0.016664052 2.138684e-38
-0.0075915772 -0.11176009 -0.01264968 2.1019502e-38
-0.0056804325 -0.11176009 -0.01264968 2.3231843e-38
-0.0037692878 -0.11176009 -0.01264968 2.3509874e-38
-0.0018581431 -0.11176009 -0.01264968 2.3232933e-38
-7.8128651e-05 -0.11106332 -0.0097167734 2.341805e-38
0.0015037823 -0.10940616 -0.0027415995 2.3234379e-38
0.003397556 -0.10940616 -0.0027415995 2.249754e-38
0.0051416736 -0.10869466 0.00025329553 2.2406066e-38
0.0068230275 -0.10774307 0.0042586084 2.2958873e-38
0.0087045263 -0.10774307 0.0042586084 2.2867037e-38
0.010254154 -0.10631551 0.010267472 2.2867037e-38
0.012125118 -0.10631551 0.010267472 2.3142544e-38
0.013996078 -0.10631551 0.010267472 1.8717158e-38
0.015867045 -0.10631551 0.010267472 1.8808996e-38
0.017738005 -0.10631551 0.010267472 1.4660193e-38
-0.035881639 -0.12159048 -0.045738958 1.5670711e-38
-0.03391248 -0.12159048 -0.045738958 1.3734603e-38
-0.032002665 -0.12063743 -0.041756772 1.1429712e-38
-0.030040486 -0.12063743 -0.041756772 1.5763269e-38
-0.028153365 -0.11966167 -0.037679695 1.9912073e-38
-0.026338931 -0.11799283 -0.030706787 1.8991198e-38
-0.024396127 -0.11799283 -0.030706787 1.7794097e-38
-0.022525061 -0.11726747 -0.027676011 1.2446393e-38
-0.020688638 -0.11631607 -0.023700619 9.9578329e-39
-0.018865377 -0.11537148 -0.019753838 1.1431521e-38
-0.016941776 -0.11537148 -0.019753838 1.124497e-38
-0.014897076 -0.11631607 -0.023700619 1.5207941e-38
-0.012966556 -0.11631607 -0.023700619 1.8896489e-38
-0.011617864 -0.11224325 -0.0066831354 2.1663077e-38
-0.0097171795 -0.11224325 -0.0066831354 2.1478328e-38
-0.0078164954 -0.11224325 -0.0066831354 2.1111346e-38
-0.0059158113 -0.11224325 -0.0066831354 2.3323688e-38
-0.0038901325 -0.11296929 -0.0097167734 2.350988e-38
-0.0021144468 -0.11224325 -0.0066831354 2.3509883e-38
-0.0003899876 -0.11129995 -0.0027415995 2.2496453e-38
0.0013646316 -0.11058317 0.00025329553 2.3234379e-38
0.0032531526 -0.11058317 0.00025329553 2.3142544e-38
0.0049415287 -0.10962458 0.0042586084 2.2958873e-38
0.0068230275 -0.10962458 0.0042586084 2.2682649e-38
0.0083831903 -0.10818647 0.010267472 2.2867037e-38
0.010254154 -0.10818647 0.010267472 2.2590454e-38
0.012125118 -0.10818647 0.010267472 2.3050708e-38
0.013996078 -0.10818647 0.010267472 2.0652908e-38
0.015867045 -0.10818647 0.010267472 1.8532409e-38
0.017738005 -0.10818647 0.010267472 1.7426061e-38
-0.035927024 -0.12259962 -0.041756772 1.6776697e-38
-0.033964843 -0.12259962 -0.041756772 1.4010828e-38
-0.032063425 -0.12161671 -0.037679695 1.4103024e-38
-0.030108396 -0.12161671 -0.037679695 1.484095e-38
-0.028207613 -0.12090631 -0.034733079 1.6500474e-38
-0.026338931 -0.11993565 -0.030706787 1.6317525e-38
-0.024396127 -0.11993565 -0.030706787 1.6041301e-38
-0.022525061 -0.11920498 -0.027676011 1.0786872e-38
-0.020688638 -0.11824657 -0.023700619 1.1247853e-38
-0.018949348 -0.11655019 -0.016664052 1.7608275e-38
-0.017031165 -0.11655019 -0.016664052 2.2031151e-38
-0.015419228 -0.11414395 -0.0066831354 2.332153e-38
-0.013518548 -0.11414395 -0.0066831354 2.3507722e-38
-0.011752622 -0.11319371 -0.0027415995 2.3508802e-38
-0.0098588523 -0.11319371 -0.0027415995 2.3508082e-38
-0.0079650786 -0.11319371 -0.0027415995 2.3046747e-38
-0.0060713049 -0.11319371 -0.0027415995 2.3509524e-38
-0.004177535 -0.11319371 -0.0027415995 2.2864153e-38
-0.0022837613 -0.11319371 -0.0027415995 2.3509886e-38
-0.0003899876 -0.11319371 -0.0027415995 2.341805e-38
0.0013646316 -0.11247168 0.00025329553 2.2497178e-38
0.0032531526 -0.11247168 0.00025329553 2.2958514e-38
0.0049415287 -0.11150609 0.0042586084 2.2958873e-38
0.0068230275 -0.11150609 0.0042586084 2.2683007e-38
0.0083831903 -0.11005743 0.010267472 1.7705165e-38
0.010254154 -0.11005743 0.010267472 1.4385404e-38
0.012125118 -0.11005743 0.010267472 1.0973086e-38
0.013996078 -0.11005743 0.010267472 1.0880172e-38
0.015867045 -0.11005743 0.010267472 9.6816285e-39
0.017920962 -0.11076607 0.0073281284 8.9440635e-39
0.019797077 -0.11076607 0.0073281284 1.0603588e-38
-0.035927024 -0.1245618 -0.041756772 1.5116094e-38
-0.033964843 -0.1245618 -0.041756772 1.2442421e-38
-0.032063425 -0.12357174 -0.037679695 1.2719007e-38
-0.030108396 -0.12357174 -0.037679695 1.4564002e-38
-0.028207613 -0.12285618 -0.034733079 1.484095e-38
-0.026338931 -0.12187846 -0.030706787 1.2259838e-38
-0.024462551 -0.12114246 -0.027676011 1.2260561e-38
-0.022619158 -0.12017711 -0.023700619 1.0233698e-38
-0.020788979 -0.11921866 -0.019753838 1.1893222e-38
-0.018949348 -0.11846836 -0.016664052 1.8806821e-38
-0.017147301 -0.11749353 -0.01264968 2.3507009e-38
-0.015419228 -0.11604463 -0.0066831354 2.3508451e-38
-0.013646396 -0.11508749 -0.0027415995 2.3507013e-38
-0.011752622 -0.11508749 -0.0027415995 2.3508092e-38
-0.0099664982 -0.1143602 0.00025329553 2.3508809e-38
-0.0082289632 -0.11338757 0.0042586084 2.3509168e-38
-0.0063474644 -0.11338757 0.0042586084 2.3509168e-38
-0.0043009352 -0.1143602 0.00025329553 2.3509527e-38
-0.0024124105 -0.1143602 0.00025329553 2.1850367e-38
-0.00052388944 -0.1143602 0.00025329553 2.341805e-38
0.001178531 -0.11338757 0.0042586084 2.2865961e-38
0.0030600298 -0.11338757 0.0042586084 2.3142544e-38
0.0049415287 -0.11338757 0.0042586084 2.2958873e-38
0.0068230275 -0.11338757 0.0042586084 1.9824944e-38
0.0085403789 -0.11264218 0.0073281284 1.1159274e-38
0.010254154 -0.11192839 0.010267472 8.4848818e-39
0.012125118 -0.11192839 0.010267472 7.5618465e-39
0.013996078 -0.11192839 0.010267472 9.405399e-39
0.015867045 -0.11192839 0.010267472 9.0362591e-39
0.017738005 -0.11192839 0.010267472 7.0079553e-39
0.019797077 -0.11264218 0.0073281284 7.5618479e-39
0.021673193 -0.11264218 0.0073281284 1.0696499e-38
-0.035927024 -0.12652399 -0.041756772 1.1520101e-38
-0.033964843 -0.12652399 -0.041756772 9.9527756e-39
-0.032063425 -0.12552677 -0.037679695 1.0874376e-38
-0.030224541 -0.12382124 -0.030706787 1.4747314e-38
-0.028281737 -0.12382124 -0.030706787 1.4932427e-38
-0.026338931 -0.12382124 -0.030706787 1.0415207e-38
-0.024462551 -0.12307997 -0.027676011 1.0140062e-38
-0.022619158 -0.12210761 -0.023700619 1.0970187e-38
-0.020788979 -0.12114228 -0.019753838 1.2169812e-38
-0.019058445 -0.11940466 -0.01264968 1.8161094e-38
-0.017433941 -0.11698125 -0.0027415995 2.1571622e-38
-0.01554017 -0.11698125 -0.0027415995 2.3507733e-38
-0.01374354 -0.11624874 0.00025329553 2.3508092e-38
-0.011855019 -0.11624874 0.00025329553 2.3507733e-38
-0.01032644 -0.11379938 0.010267472 2.3415898e-38
-0.0084554758 -0.11379938 0.010267472 2.3140033e-38
-0.0065845158 -0.11379938 0.010267472 2.3509527e-38
-0.0047135521 -0.11379938 0.010267472 2.3509527e-38
-0.0025844667 -0.11526908 0.0042586084 2.341805e-38
-0.00084020756 -0.1145183 0.0073281284 2.120644e-38
0.00089933909 -0.11379938 0.010267472 1.3093584e-38
0.0027703028 -0.11379938 0.010267472 8.3916072e-39
0.0046412665 -0.11379938 0.010267472 7.5629255e-39
0.0066642594 -0.1145183 0.0073281284 8.3926862e-39
0.0083831903 -0.11379938 0.010267472 9.2231629e-39
0.010254154 -0.11379938 0.010267472 1.3463802e-38
0.012125118 -0.11379938 0.010267472 1.3830789e-38
0.013996078 -0.11379938 0.010267472 1.466055e-38
0.015867045 -0.11379938 0.010267472 1.4107376e-38
0.017738005 -0.11379938 0.010267472 1.1894324e-38
0.019608973 -0.11379938 0.010267472 9.8667387e-39
0.021479933 -0.11379938 0.010267472 9.036978e-39
0.023549309 -0.1145183 0.0073281284 8.3916114e-39
0.025425432 -0.1145183 0.0073281284 7.5618507e-39
0.027301548 -0.1145183 0.0073281284 8.299413e-39
-0.035927024 -0.12848614 -0.041756772 1.0043892e-38
-0.033964843 -0.12848614 -0.041756772 8.8453462e-39
-0.032107338 -0.12675591 -0.034733079 1.0228283e-38
-0.030275024 -0.12501745 -0.027676011 1.1243158e-38
-0.028337533 -0.12501745 -0.027676011 1.1612305e-38
-0.026400043 -0.12501745 -0.027676011 9.676923e-39
-0.02454968 -0.12403814 -0.023700619 9.8627548e-39
-0.022712579 -0.12306587 -0.019753838 1.0417013e-38
-0.02086753 -0.12230472 -0.016664052 1.1893225e-38
-0.019138152 -0.12059332 -0.0097167734 2.0006086e-38
-0.017433941 -0.11887501 -0.0027415995 2.1019164e-38
-0.015632061 -0.11813726 0.00025329553 2.3509168e-38
-0.01374354 -0.11813726 0.00025329553 2.3509168e-38
-0.012096906 -0.11639442 0.0073281284 2.3509527e-38
-0.01032644 -0.11567034 0.010267472 2.3509527e-38
-0.0084554758 -0.11567034 0.010267472 2.3325138e-38
-0.0065845158 -0.11567034 0.010267472 2.3509527e-38
-0.0047135521 -0.11567034 0.010267472 2.3049273e-38
-0.0028425884 -0.11567034 0.010267472 2.2957078e-38
-0.00097162463 -0.11567034 0.010267472 1.6596658e-38
0.00089933909 -0.11567034 0.010267472 1.1434063e-38
0.0027703028 -0.11567034 0.010267472 9.2213679e-39
0.0046412665 -0.11567034 0.010267472 1.0052208e-38
0.0065122265 -0.11567034 0.010267472 1.0605381e-38
0.0083831903 -0.11567034 0.010267472 1.3463446e-38
0.010254154 -0.11567034 0.010267472 1.5676141e-38
0.012125118 -0.11567034 0.010267472 1.6873242e-38
0.013996078 -0.11567034 0.010267472 1.6226794e-38
0.015867045 -0.11567034 0.010267472 1.5213721e-38
0.017738005 -0.11567034 0.010267472 1.466055e-38
0.019608973 -0.11567034 0.010267472 1.3646759e-38
0.021479933 -0.11567034 0.010267472 1.1618456e-38
0.023549309 -0.11639442 0.0073281284 8.8533098e-39
0.025425432 -0.11639442 0.0073281284 7.0093972e-39
0.027301548 -0.11639442 0.0073281284 7.28634e-39
0.02940101 -0.11715056 0.0042586084 9.9589343e-39
0.031282514 -0.11715056 0.0042586084 1.1433703e-38
-0.035927024 -0.13044833 -0.041756772 1.0412312e-38
-0.033964843 -0.13044833 -0.041756772 8.8449861e-39
-0.032167345 -0.12770687 -0.030706787 8.2921753e-39
-0.030275024 -0.12695493 -0.027676011 7.7390043e-39
-0.028337533 -0.12695493 -0.027676011 8.5694894e-39
-0.0264802 -0.12596865 -0.023700619 8.3861842e-39
-0.024636179 -0.12498946 -0.019753838 9.7705591e-39
-0.022785714 -0.12422292 -0.016664052 1.2721544e-38
-0.02096959 -0.12322696 -0.01264968 1.419704e-38
-0.019138152 -0.1224993 -0.0097167734 2.1204629e-38
-0.017433941 -0.1207688 -0.0027415995 2.019048e-38
-0.015632061 -0.12002577 0.00025329553 2.3233299e-38
-0.01374354 -0.12002577 0.00025329553 2.3140384e-38
-0.012096906 -0.11827053 0.0073281284 2.2864516e-38
-0.01032644 -0.1175413 0.010267472 2.3509886e-38
-0.0086078998 -0.11653815 0.014310813 2.341805e-38
-0.0067440253 -0.11653815 0.014310813 2.3325856e-38
-0.0048801508 -0.11653815 0.014310813 2.2220589e-38
-0.0030162763 -0.11653815 0.014310813 1.8440571e-38
-0.0011524018 -0.11653815 0.014310813 1.3462007e-38
0.00071147271 -0.11653815 0.014310813 1.4015541e-38
0.0027703028 -0.1175413 0.010267472 1.5582866e-38
0.0046412665 -0.1175413 0.010267472 1.6598097e-38
0.0065122265 -0.1175413 0.010267472 1.5399555e-38
0.0083831903 -0.1175413 0.010267472 1.678249e-38
0.010254154 -0.1175413 0.010267472 1.5951649e-38
0.012125118 -0.1175413 0.010267472 1.6688851e-38
0.013996078 -0.1175413 0.010267472 1.6964359e-38
0.015867045 -0.1175413 0.010267472 1.650446e-38
0.017738005 -0.1175413 0.010267472 1.5674699e-38
0.019608973 -0.1175413 0.010267472 1.4937497e-38
0.021479933 -0.1175413 0.010267472 1.383223e-38
0.0233509 -0.1175413 0.010267472 1.1987961e-38
0.025425432 -0.11827053 0.0073281284 1.0144049e-38
0.027301548 -0.11827053 0.0073281284 8.5770789e-39
0.029177664 -0.11827053 0.0073281284 8.1161007e-39
0.03105378 -0.11827053 0.0073281284 9.2206504e-39
0.032929897 -0.11827053 0.0073281284 9.7741815e-39
-0.033964843 -0.13241051 -0.041756772 8.9371817e-39
-0.032167345 -0.12964968 -0.030706787 8.383652e-39
-0.030275024 -0.12889244 -0.027676011 7.6468086e-39
-0.028337533 -0.12889244 -0.027676011 8.0163156e-39
-0.0264802 -0.12789918 -0.023700619 6.6344672e-39
-0.024703898 -0.12614109 -0.016664052 9.0319179e-39
-0.022880735 -0.12513812 -0.01264968 1.6409369e-38
-0.02096959 -0.12513812 -0.01264968 1.7423887e-38
-0.019220596 -0.12364738 -0.0066831354 2.0098282e-38
-0.017433941 -0.12266256 -0.0027415995 2.092876e-38
-0.015632061 -0.12191428 0.00025329553 2.3418043e-38
-0.01374354 -0.12191428 0.00025329553 2.3509879e-38
-0.012096906 -0.12014665 0.0073281284 2.2865229e-38
-0.01032644 -0.11941226 0.010267472 2.3418047e-38
-0.0086078998 -0.11840202 0.014310813 2.3142539e-38
-0.0067440253 -0.11840202 0.014310813 2.1759608e-38
-0.0048801508 -0.11840202 0.014310813 2.0376673e-38
-0.0030162763 -0.11840202 0.014310813 1.7057633e-38
-0.0011524018 -0.11840202 0.014310813 1.466091e-38
0.00071147271 -0.11840202 0.014310813 1.5767258e-38
0.0027703028 -0.11941226 0.010267472 1.7242389e-38
0.0046412665 -0.11941226 0.010267472 1.6229316e-38
0.0065122265 -0.11941226 0.010267472 1.5952373e-38
0.0083831903 -0.11941226 0.010267472 1.7243112e-38
0.010254154 -0.11941226 0.010267472 1.7057998e-38
0.012125118 -0.11941226 0.010267472 1.7242025e-38
0.013996078 -0.11941226 0.010267472 1.8163258e-38
0.015867045 -0.11941226 0.010267472 1.797959e-38
0.017738005 -0.11941226 0.010267472 1.6688851e-38
0.019608973 -0.11941226 0.010267472 1.5306279e-38
0.021479933 -0.11941226 0.010267472 1.4569795e-38
0.0233509 -0.11941226 0.010267472 1.4292852e-38
0.025425432 -0.12014665 0.0073281284 1.3740397e-38
0.027301548 -0.12014665 0.0073281284 1.1342592e-38
0.029177664 -0.12014665 0.0073281284 7.9317094e-39
0.03105378 -0.12014665 0.0073281284 7.3767378e-39
0.032929897 -0.12014665 0.0073281284 9.3132034e-39
0.034806006 -0.12014665 0.0073281284 9.680188e-39
-0.033964843 -0.1343727 -0.041756772 8.8453518e-39
-0.032002665 -0.1343727 -0.041756772 9.7673081e-39
-0.030275024 -0.13082992 -0.027676011 7.0943593e-39
-0.028337533 -0.13082992 -0.027676011 5.8961819e-39
-0.0264802 -0.12982969 -0.023700619 3.4079845e-39
-0.02479188 -0.12704925 -0.01264968 6.0823822e-39
-0.022880735 -0.12704925 -0.01264968 1.5764008e-38
-0.021044154 -0.12631132 -0.0097167734 1.6778886e-38
-0.019220596 -0.12554805 -0.0066831354 1.7793757e-38
-0.017433941 -0.12455635 -0.0027415995 1.9545827e-38
-0.015632061 -0.12380283 0.00025329553 2.3418043e-38
-0.013973026 -0.12202276 0.0073281284 2.3418043e-38
-0.012096906 -0.12202276 0.0073281284 2.2957782e-38
-0.01032644 -0.12128322 0.010267472 2.3418045e-38
-0.0086078998 -0.12026589 0.014310813 2.2404251e-38
-0.0067440253 -0.12026589 0.014310813 2.0929124e-38
-0.0048801508 -0.12026589 0.014310813 1.9730581e-38
-0.0030162763 -0.12026589 0.014310813 1.7979587e-38
-0.0011524018 -0.12026589 0.014310813 1.7610807e-38
0.00071147271 -0.12026589 0.014310813 1.7149829e-38
0.0025753472 -0.12026589 0.014310813 1.7979593e-38
0.004439218 -0.12026589 0.014310813 1.6228237e-38
0.0065122265 -0.12128322 0.010267472 1.7057998e-38
0.0083831903 -0.12128322 0.010267472 1.6781411e-38
0.010254154 -0.12128322 0.010267472 1.678141e-38
0.012125118 -0.12128322 0.010267472 1.7517889e-38
0.013996078 -0.12128322 0.010267472 1.6595929e-38
0.016044846 -0.12202276 0.0073281284 1.6134954e-38
0.017738005 -0.12128322 0.010267472 1.6227873e-38
0.019608973 -0.12128322 0.010267472 1.6412264e-38
0.021479933 -0.12128322 0.010267472 1.6043844e-38
0.0233509 -0.12128322 0.010267472 1.595165e-38
0.025425432 -0.12202276 0.0073281284 1.6320436e-38
0.027301548 -0.12202276 0.0073281284 1.3646762e-38
0.029177664 -0.12202276 0.0073281284 9.5894357e-39
0.03105378 -0.12202276 0.0073281284 7.5611319e-39
0.032929897 -0.12202276 0.0073281284 8.9433432e-39
0.034806006 -0.12202276 0.0073281284 9.772385e-39
-0.03391248 -0.13734378 -0.045738958 8.8464392e-39
-0.031943318 -0.13734378 -0.045738958 1.0229376e-38
-0.029974155 -0.13734378 -0.045738958 6.5422744e-39
-0.028796576 -0.12645011 -0.0027415995 4.1455523e-39
-0.026823329 -0.12744872 -0.0066831354 6.4356594e-40
-0.024922645 -0.12744872 -0.0066831354 3.8707773e-39
-0.023021962 -0.12744872 -0.0066831354 1.4565839e-38
-0.021121278 -0.12744872 -0.0066831354 1.6317922e-38
-0.019327713 -0.12645011 -0.0027415995 1.7240234e-38
-0.017520584 -0.12569134 0.00025329553 2.0190843e-38
-0.015632061 -0.12569134 0.00025329553 2.3325847e-38
-0.013973026 -0.12389888 0.0073281284 2.3325847e-38
-0.012096906 -0.12389888 0.0073281284 2.3233652e-38
-0.01032644 -0.12315418 0.010267472 2.350988e-38
-0.0086078998 -0.12212978 0.014310813 2.074437e-38
-0.0068628658 -0.12136655 0.017323231 1.8716066e-38
-0.00500427 -0.12136655 0.017323231 2.1942913e-38
-0.003145678 -0.12136655 0.017323231 2.1942557e-38
-0.0011524018 -0.12212978 0.014310813 1.9268884e-38
0.00071147271 -0.12212978 0.014310813 1.8624233e-38
0.0025753472 -0.12212978 0.014310813 1.6872516e-38
0.004439218 -0.12212978 0.014310813 1.7149106e-38
0.0065122265 -0.12315418 0.010267472 1.6319345e-38
0.0083831903 -0.12315418 0.010267472 1.6135674e-38
0.010254154 -0.12315418 0.010267472 1.6964715e-38
0.012125118 -0.12315418 0.010267472 1.7424608e-38
0.013996078 -0.12315418 0.010267472 1.6594848e-38
0.016044846 -0.12389888 0.0073281284 1.6133872e-38
0.017920962 -0.12389888 0.0073281284 1.6226431e-38
0.019797077 -0.12389888 0.0073281284 1.6318629e-38
0.021673193 -0.12389888 0.0073281284 1.6133882e-38
0.023549309 -0.12389888 0.0073281284 1.6133884e-38
0.025425432 -0.12389888 0.0073281284 1.6502669e-38
0.027519515 -0.12467657 0.0042586084 1.4381813e-38
0.02940101 -0.12467657 0.0042586084 1.0325206e-38
0.031580977 -0.12569134 0.00025329553 8.8500756e-39
0.033469498 -0.12569134 0.00025329553 8.3890975e-39
0.035358019 -0.12569134 0.00025329553 9.7720319e-39
-0.028796576 -0.1283439 -0.0027415995 3.7771356e-39
-0.026902804 -0.1283439 -0.0027415995 2.5793168e-39
-0.02500903 -0.1283439 -0.0027415995 5.8076114e-39
-0.023115259 -0.1283439 -0.0027415995 1.4197778e-38
-0.021221487 -0.1283439 -0.0027415995 1.5580359e-38
-0.019409105 -0.12757985 0.00025329553 1.8254746e-38
-0.017520584 -0.12757985 0.00025329553 2.1665976e-38
-0.015632061 -0.12757985 0.00025329553 2.3325847e-38
-0.014068367 -0.12502514 0.010267472 2.3509883e-38
-0.012197403 -0.12502514 0.010267472 2.350988e-38
-0.010471771 -0.12399365 0.014310813 2.3048542e-38
-0.0086078998 -0.12399365 0.014310813 2.2126585e-38
-0.0068628658 -0.12322514 0.017323231 2.1942194e-38
-0.00500427 -0.12322514 0.017323231 2.286415e-38
-0.003145678 -0.12322514 0.017323231 2.2218781e-38
-0.0011524018 -0.12399365 0.014310813 1.9360717e-38
0.00071147271 -0.12399365 0.014310813 1.8716066e-38
0.0025753472 -0.12399365 0.014310813 1.7240936e-38
0.004439218 -0.12399365 0.014310813 1.7701558e-38
0.0063030925 -0.12399365 0.014310813 1.6687406e-38
0.0083831903 -0.12502514 0.010267472 1.6411538e-38
0.010254154 -0.12502514 0.010267472 1.7148384e-38
0.012125118 -0.12502514 0.010267472 1.6779237e-38
0.013996078 -0.12502514 0.010267472 1.6594126e-38
0.015867045 -0.12502514 0.010267472 1.6133869e-38
0.017920962 -0.12577499 0.0073281284 1.6133872e-38
0.019797077 -0.12577499 0.0073281284 1.5949125e-38
0.021673193 -0.12577499 0.0073281284 1.548815e-38
0.023756517 -0.12655805 0.0042586084 1.5026817e-38
0.025638012 -0.12655805 0.0042586084 1.4842426e-38
0.027803933 -0.12757985 0.00025329553 1.4473646e-38
0.029692454 -0.12757985 0.00025329553 1.1984364e-38
0.031580977 -0.12757985 0.00025329553 1.0417401e-38
0.033469498 -0.12757985 0.00025329553 8.3894534e-39
0.035591684 -0.1283439 -0.0027415995 9.2192141e-39
0.037485458 -0.1283439 -0.0027415995 1.0325562e-38
-0.028724013 -0.1312501 -0.0066831354 4.6990918e-39
-0.026902804 -0.13023765 -0.0027415995 5.7139682e-39
-0.02500903 -0.13023765 -0.0027415995 8.941181e-39
-0.023115259 -0.13023765 -0.0027415995 1.3736436e-38
-0.021221487 -0.13023765 -0.0027415995 1.4289971e-38
-0.019409105 -0.1294684 0.00025329553 1.9268534e-38
-0.017636457 -0.12843956 0.0042586084 2.314074e-38
-0.015754959 -0.12843956 0.0042586084 2.3509518e-38
-0.014068367 -0.1268961 0.010267472 2.350988e-38
-0.012335645 -0.12585752 0.014310813 2.2771953e-38
-0.010471771 -0.12585752 0.014310813 2.1020236e-38
-0.0086078998 -0.12585752 0.014310813 2.2864149e-38
-0.0068628658 -0.12508373 0.017323231 2.350988e-38
-0.00500427 -0.12508373 0.017323231 2.2771955e-38
-0.003145678 -0.12508373 0.017323231 2.1665607e-38
-0.0011524018 -0.12585752 0.014310813 1.8991934e-38
0.00071147271 -0.12585752 0.014310813 1.8807906e-38
0.0025753472 -0.12585752 0.014310813 1.7885949e-38
0.004439218 -0.12585752 0.014310813 1.8070343e-38
0.0063030925 -0.12585752 0.014310813 1.6226431e-38
0.0083831903 -0.1268961 0.010267472 1.539667e-38
0.010254154 -0.1268961 0.010267472 1.5949841e-38
0.012125118 -0.1268961 0.010267472 1.6226064e-38
0.013996078 -0.1268961 0.010267472 1.6410455e-38
0.015867045 -0.1268961 0.010267472 1.6502651e-38
0.017920962 -0.12765111 0.0073281284 1.6318261e-38
0.019797077 -0.12765111 0.0073281284 1.6133872e-38
0.021673193 -0.12765111 0.0073281284 1.5764734e-38
0.023756517 -0.12843956 0.0042586084 1.5027172e-38
0.025638012 -0.12843956 0.0042586084 1.4381805e-38
0.027803933 -0.1294684 0.00025329553 1.4381805e-38
0.029692454 -0.1294684 0.00025329553 1.3828631e-38
0.031580977 -0.1294684 0.00025329553 1.2722284e-38
0.033697918 -0.13023765 -0.0027415995 8.7578716e-39
0.035591684 -0.13023765 -0.0027415995 8.7578716e-39
0.037485458 -0.13023765 -0.0027415995 1.0878368e-38
0.039379232 -0.13023765 -0.0027415995 1.1063478e-38
-0.028724013 -0.13315077 -0.0066831354 5.1600714e-39
-0.026902804 -0.13213144 -0.0027415995 7.741549e-39
-0.02500903 -0.13213144 -0.0027415995 1.0508141e-38
-0.023115259 -0.13213144 -0.0027415995 1.3274732e-38
-0.021221487 -0.13213144 -0.0027415995 1.3644234e-38
-0.019517956 -0.13032107 0.0042586084 1.9913893e-38
-0.017725259 -0.12952723 0.0073281284 2.304854e-38
-0.015939331 -0.12876706 0.010267472 2.3509874e-38
-0.01419952 -0.12772138 0.014310813 2.3233288e-38
-0.012335645 -0.12772138 0.014310813 2.0559258e-38
-0.01058005 -0.12694232 0.017323231 1.9360715e-38
-0.0087214578 -0.12694232 0.017323231 2.2587562e-38
-0.006981032 -0.12616767 0.020318603 2.350988e-38
-0.0051276926 -0.12616767 0.020318603 2.1481216e-38
-0.0032743495 -0.12616767 0.020318603 2.0467064e-38
-0.0012870859 -0.12694232 0.017323231 1.8530956e-38
0.0005715061 -0.12694232 0.017323231 1.9084493e-38
0.0025753472 -0.12772138 0.014310813 1.8254732e-38
0.004439218 -0.12772138 0.014310813 1.7793757e-38
0.0063030925 -0.12772138 0.014310813 1.5120083e-38
0.0083831903 -0.12876706 0.010267472 1.3829344e-38
0.010254154 -0.12876706 0.010267472 1.429032e-38
0.012125118 -0.12876706 0.010267472 1.4289955e-38
0.013996078 -0.12876706 0.010267472 1.475129e-38
0.015867045 -0.12876706 0.010267472 1.5119716e-38
0.017920962 -0.12952723 0.0073281284 1.5027521e-38
0.019797077 -0.12952723 0.0073281284 1.5027522e-38
0.021673193 -0.12952723 0.0073281284 1.511972e-38
0.023756517 -0.13032107 0.0042586084 1.4750582e-38
0.025638012 -0.13032107 0.0042586084 1.4105213e-38
0.027803933 -0.13135691 0.00025329553 1.4473995e-38
0.029692454 -0.13135691 0.00025329553 1.4658386e-38
0.031804144 -0.13213144 -0.0027415995 1.3920821e-38
0.033697918 -0.13213144 -0.0027415995 9.5876266e-39
0.035591684 -0.13213144 -0.0027415995 8.9426132e-39
0.037485458 -0.13213144 -0.0027415995 1.0602132e-38
0.039379232 -0.13213144 -0.0027415995 1.0234068e-38
0.041273005 -0.13213144 -0.0027415995 4.9789157e-39
-0.030624695 -0.13505147 -0.0066831354 3.1310515e-39
-0.028796576 -0.1340252 -0.0027415995 4.6068976e-39
-0.026902804 -0.1340252 -0.0027415995 7.5571578e-39
-0.02500903 -0.1340252 -0.0027415995 1.023083e-38
-0.023186147 -0.13324542 0.00025329553 1.2536799e-38
-0.021297626 -0.13324542 0.00025329553 1.373534e-38
-0.019601375 -0.13140334 0.0073281284 2.0005361e-38
-0.017725259 -0.13140334 0.0073281284 2.1480489e-38
-0.015939331 -0.13063805 0.010267472 2.314001e-38
-0.01419952 -0.12958528 0.014310813 2.166488e-38
-0.012335645 -0.12958528 0.014310813 1.8530231e-38
-0.01058005 -0.12880091 0.017323231 1.9267796e-38
-0.0087214578 -0.12880091 0.017323231 2.2310255e-38
-0.006981032 -0.12802102 0.020318603 2.2403172e-38
-0.0051276926 -0.12802102 0.020318603 2.0467064e-38
-0.0032743495 -0.12802102 0.020318603 1.9729862e-38
-0.0012870859 -0.12880091 0.017323231 1.8346928e-38
0.0005715061 -0.12880091 0.017323231 1.9268887e-38
0.0025753472 -0.12958528 0.014310813 1.7885952e-38
0.004439218 -0.12958528 0.014310813 1.6963999e-38
0.0063030925 -0.12958528 0.014310813 1.4382521e-38
0.0083831903 -0.13063805 0.010267472 1.355276e-38
0.010254154 -0.13063805 0.010267472 1.4290323e-38
0.012125118 -0.13063805 0.010267472 1.419776e-38
0.013996078 -0.13063805 0.010267472 1.4566898e-38
0.015867045 -0.13063805 0.010267472 1.4658738e-38
0.017738005 -0.13063805 0.010267472 1.4566542e-38
0.019797077 -0.13140334 0.0073281284 1.4566544e-38
0.021673193 -0.13140334 0.0073281284 1.4750938e-38
0.023756517 -0.13220255 0.0042586084 1.4750938e-38
0.025638012 -0.13220255 0.0042586084 1.4566547e-38
0.027803933 -0.13324542 0.00025329553 1.4843133e-38
0.029692454 -0.13324542 0.00025329553 1.4474351e-38
0.031804144 -0.1340252 -0.0027415995 1.3921174e-38
0.033697918 -0.1340252 -0.0027415995 1.0325545e-38
0.035591684 -0.1340252 -0.0027415995 9.7723696e-39
0.037485458 -0.1340252 -0.0027415995 1.0694682e-38
0.039379232 -0.1340252 -0.0027415995 1.0141508e-38
0.041273005 -0.1340252 -0.0027415995 5.1633042e-39
0.043166779 -0.1340252 -0.0027415995 5.8093925e-39
-0.030624695 -0.13695215 -0.0066831354 2.8541087e-39
-0.028796576 -0.13591899 -0.0027415995 4.2377592e-39
-0.026902804 -0.13591899 -0.0027415995 7.3727651e-39
-0.02500903 -0.13591899 -0.0027415995 9.3092293e-39
-0.023186147 -0.13513394 0.00025329553 1.1706313e-38
-0.021399455 -0.13408406 0.0042586084 1.355058e-38
-0.019601375 -0.13327946 0.0073281284 1.8897927e-38
-0.017810294 -0.13250901 0.010267472 1.9543296e-38
-0.016063394 -0.13144915 0.014310813 2.1480126e-38
-0.01419952 -0.13144915 0.014310813 1.9728409e-38
-0.012335645 -0.13144915 0.014310813 1.7608272e-38
-0.01058005 -0.13065951 0.017323231 2.0005359e-38
-0.0087214578 -0.13065951 0.017323231 2.2033665e-38
-0.0068628658 -0.13065951 0.017323231 2.1112432e-38
-0.00500427 -0.13065951 0.017323231 2.055926e-38
-0.003145678 -0.13065951 0.017323231 1.9914253e-38
-0.0012870859 -0.13065951 0.017323231 1.8807906e-38
0.00071147271 -0.13144915 0.014310813 1.9268887e-38
0.0025753472 -0.13144915 0.014310813 1.6963996e-38
0.004439218 -0.13144915 0.014310813 1.6134238e-38
0.0063030925 -0.13144915 0.014310813 1.4659108e-38
0.0083831903 -0.13250901 0.010267472 1.4751304e-38
0.010254154 -0.13250901 0.010267472 1.5673257e-38
0.012125118 -0.13250901 0.010267472 1.5857283e-38
0.013996078 -0.13250901 0.010267472 1.567289e-38
0.015867045 -0.13250901 0.010267472 1.5580696e-38
0.017738005 -0.13250901 0.010267472 1.5580696e-38
0.019797077 -0.13327946 0.0073281284 1.5304112e-38
0.021875015 -0.13408406 0.0042586084 1.4843133e-38
0.023756517 -0.13408406 0.0042586084 1.4750938e-38
0.025915412 -0.13513394 0.00025329553 1.5027525e-38
0.027803933 -0.13513394 0.00025329553 1.4935329e-38
0.029692454 -0.13513394 0.00025329553 1.3921174e-38
0.031804144 -0.13591899 -0.0027415995 1.3460195e-38
0.033697918 -0.13591899 -0.0027415995 1.0879073e-38
0.035591684 -0.13591899 -0.0027415995 1.0786875e-38
0.037485458 -0.13591899 -0.0027415995 1.1524437e-38
0.039379232 -0.13591899 -0.0027415995 1.1340046e-38
0.041273005 -0.13591899 -0.0027415995 7.3756364e-39
0.043166779 -0.13591899 -0.0027415995 6.1774561e-39
-0.028724013 -0.13885282 -0.0066831354 3.9604562e-39
-0.026823329 -0.13885282 -0.0066831354 7.6486331e-39
-0.02500903 -0.13781275 -0.0027415995 8.8475295e-39
-0.023186147 -0.13702248 0.00025329553 1.0876188e-38
-0.021399455 -0.13596557 0.0042586084 1.299704e-38
-0.019681256 -0.13437997 0.010267472 1.7330232e-38
-0.017810294 -0.13437997 0.010267472 1.8067444e-38
-0.016063394 -0.13331302 0.014310813 1.8990122e-38
-0.01419952 -0.13331302 0.014310813 1.8160361e-38
-0.012335645 -0.13331302 0.014310813 1.7976692e-38
-0.010471771 -0.13331302 0.014310813 2.0374141e-38
-0.0087214578 -0.1325181 0.017323231 2.1572687e-38
-0.0068628658 -0.1325181 0.017323231 2.0651454e-38
-0.00500427 -0.1325181 0.017323231 2.0651455e-38
-0.003145678 -0.1325181 0.017323231 2.0006449e-38
-0.0012870859 -0.1325181 0.017323231 1.9084495e-38
0.00071147271 -0.13331302 0.014310813 1.9084498e-38
0.0025753472 -0.13331302 0.014310813 1.6318629e-38
0.004439218 -0.13331302 0.014310813 1.5857651e-38
0.0063030925 -0.13331302 0.014310813 1.5396673e-38
0.0083831903 -0.13437997 0.010267472 1.5764737e-38
0.010254154 -0.13437997 0.010267472 1.6041321e-38
0.012125118 -0.13437997 0.010267472 1.5581061e-38
0.013996078 -0.13437997 0.010267472 1.512008e-38
0.015867045 -0.13437997 0.010267472 1.5304475e-38
0.017738005 -0.13437997 0.010267472 1.5857648e-38
0.019797077 -0.13515557 0.0073281284 1.539667e-38
0.021673193 -0.13515557 0.0073281284 1.4105931e-38
0.023756517 -0.13596557 0.0042586084 1.3828626e-38
0.025638012 -0.13596557 0.0042586084 1.4289604e-38
0.027803933 -0.13702248 0.00025329553 1.4382155e-38
0.029692454 -0.13702248 0.00025329553 1.3644587e-38
0.031804144 -0.13781275 -0.0027415995 1.3736782e-38
0.033697918 -0.13781275 -0.0027415995 1.1616638e-38
0.035591684 -0.13781275 -0.0027415995 1.1707752e-38
0.037485458 -0.13781275 -0.0027415995 1.2261282e-38
0.039379232 -0.13781275 -0.0027415995 1.2169086e-38
0.041273005 -0.13781275 -0.0027415995 8.3897855e-39
-0.028724013 -0.14075352 -0.0066831354 2.9463071e-39
-0.026823329 -0.14075352 -0.0066831354 7.4642433e-39
-0.02500903 -0.13970654 -0.0027415995 8.5709426e-39
-0.023186147 -0.13891099 0.00025329553 1.0323011e-38
-0.021297626 -0.13891099 0.00025329553 1.2720089e-38
-0.019681256 -0.13625093 0.010267472 1.6592306e-38
-0.017810294 -0.13625093 0.010267472 1.7421712e-38
-0.016063394 -0.13517688 0.014310813 1.6961097e-38
-0.01419952 -0.13517688 0.014310813 1.7237683e-38
-0.012335645 -0.13517688 0.014310813 1.8529144e-38
-0.010471771 -0.13517688 0.014310813 2.0189387e-38
-0.0087214578 -0.13437669 0.017323231 2.0927318e-38
-0.0068628658 -0.13437669 0.017323231 2.0559258e-38
-0.00500427 -0.13437669 0.017323231 2.0283392e-38
-0.003145678 -0.13437669 0.017323231 1.9729865e-38
-0.0012870859 -0.13437669 0.017323231 1.89923e-38
0.00071147271 -0.13517688 0.014310813 1.8992303e-38
0.0025753472 -0.13517688 0.014310813 1.6134238e-38
0.004439218 -0.13517688 0.014310813 1.6042042e-38
0.0063030925 -0.13517688 0.014310813 1.5949847e-38
0.0083831903 -0.13625093 0.010267472 1.5672541e-38
0.010254154 -0.13625093 0.010267472 1.5027172e-38
0.012125118 -0.13625093 0.010267472 1.5488869e-38
0.013996078 -0.13625093 0.010267472 1.5027535e-38
0.015867045 -0.13625093 0.010267472 1.5672904e-38
0.017738005 -0.13625093 0.010267472 1.6963643e-38
0.019797077 -0.13703169 0.0073281284 1.659486e-38
0.021673193 -0.13703169 0.0073281284 1.4750948e-38
0.023756517 -0.13784705 0.0042586084 1.4197414e-38
0.025638012 -0.13784705 0.0042586084 1.484278e-38
0.027803933 -0.13891099 0.00025329553 1.3644234e-38
0.029692454 -0.13891099 0.00025329553 1.364459e-38
0.031804144 -0.13970654 -0.0027415995 1.4382153e-38
0.033697918 -0.13970654 -0.0027415995 1.2353847e-38
0.035591684 -0.13970654 -0.0027415995 1.216873e-38
0.037485458 -0.13970654 -0.0027415995 1.2261282e-38
0.039379232 -0.13970654 -0.0027415995 1.1800304e-38
-0.026762161 -0.14346536 -0.0097167734 4.79057e-39
-0.024922645 -0.1426542 -0.0066831354 8.1099644e-39
-0.023186147 -0.14079951 0.00025329553 9.1237492e-39
-0.021297626 -0.14079951 0.00025329553 1.0690706e-38
-0.019601375 -0.13890781 0.0073281284 1.6130249e-38
-0.017810294 -0.13812189 0.010267472 1.6406478e-38
-0.016063394 -0.13704078 0.014310813 1.6684147e-38
-0.01419952 -0.13704078 0.014310813 1.6592314e-38
-0.012335645 -0.13704078 0.014310813 1.862134e-38
-0.010471771 -0.13704078 0.014310813 2.1203539e-38
-0.0086078998 -0.13704078 0.014310813 2.1019513e-38
-0.0068628658 -0.13623528 0.017323231 2.0559258e-38
-0.00500427 -0.13623528 0.017323231 1.9545827e-38
-0.003145678 -0.13623528 0.017323231 1.834693e-38
-0.0012870859 -0.13623528 0.017323231 1.9085214e-38
0.00071147271 -0.13704078 0.014310813 1.8900107e-38
0.0025753472 -0.13704078 0.014310813 1.6503021e-38
0.004439218 -0.13704078 0.014310813 1.4751301e-38
0.0063030925 -0.13704078 0.014310813 1.5673257e-38
0.0083831903 -0.13812189 0.010267472 1.6502299e-38
0.010254154 -0.13812189 0.010267472 1.548815e-38
0.012125118 -0.13812189 0.010267472 1.4658753e-38
0.013996078 -0.13812189 0.010267472 1.5581075e-38
0.016044846 -0.13890781 0.0073281284 1.4474009e-38
0.017920962 -0.13890781 0.0073281284 1.760866e-38
0.019797077 -0.13890781 0.0073281284 1.7332074e-38
0.021673193 -0.13890781 0.0073281284 1.382864e-38
0.023756517 -0.13972856 0.0042586084 1.5119016e-38
0.025638012 -0.13972856 0.0042586084 1.4381448e-38
0.027519515 -0.13972856 0.0042586084 1.3828631e-38
0.029692454 -0.14079951 0.00025329553 1.3828628e-38
0.031804144 -0.1416003 -0.0027415995 1.3090338e-38
0.033697918 -0.1416003 -0.0027415995 1.235277e-38
0.035591684 -0.1416003 -0.0027415995 1.2260931e-38
0.037485458 -0.1416003 -0.0027415995 1.3459472e-38
0.039379232 -0.1416003 -0.0027415995 1.1892143e-38
-0.024922645 -0.14455487 -0.0066831354 4.3299436e-39
-0.023186147 -0.14268802 0.00025329553 7.8330132e-39
-0.021399455 -0.14161004 0.0042586084 1.0505958e-38
-0.019681256 -0.13999285 0.010267472 1.4101945e-38
-0.017810294 -0.13999285 0.010267472 1.5207935e-38
-0.016063394 -0.13890465 0.014310813 1.5668916e-38
-0.01419952 -0.13890465 0.014310813 1.5946226e-38
-0.012335645 -0.13890465 0.014310813 1.8805012e-38
-0.010471771 -0.13890465 0.014310813 2.1294658e-38
-0.0086078998 -0.13890465 0.014310813 2.0927318e-38
-0.0068628658 -0.13809387 0.017323231 2.055926e-38
-0.00500427 -0.13809387 0.017323231 1.9729862e-38
-0.003145678 -0.13809387 0.017323231 1.8716432e-38
-0.0012870859 -0.13809387 0.017323231 1.8900823e-38
0.00071147271 -0.13890465 0.014310813 1.862352e-38
0.0025753472 -0.13890465 0.014310813 1.6779605e-38
0.004439218 -0.13890465 0.014310813 1.4843496e-38
0.0063030925 -0.13890465 0.014310813 1.4843494e-38
0.0083831903 -0.13999285 0.010267472 1.5304112e-38
0.010254154 -0.13999285 0.010267472 1.4658389e-38
0.012125118 -0.13999285 0.010267472 1.4566205e-38
0.013996078 -0.13999285 0.010267472 1.51201e-38
0.016044846 -0.14078392 0.0073281284 1.6317924e-38
0.018112017 -0.14161004 0.0042586084 2.0466728e-38
0.019993519 -0.14161004 0.0042586084 1.9083793e-38
0.021875015 -0.14161004 0.0042586084 1.3552056e-38
0.023756517 -0.14161004 0.0042586084 1.2998163e-38
0.025638012 -0.14161004 0.0042586084 1.3643888e-38
0.027519515 -0.14161004 0.0042586084 1.3643883e-38
0.029692454 -0.14268802 0.00025329553 1.4289609e-38
0.031580977 -0.14268802 0.00025329553 1.3643514e-38
0.033469498 -0.14268802 0.00025329553 1.2260577e-38
0.035591684 -0.14349405 -0.0027415995 1.2168378e-38
0.037485458 -0.14349405 -0.0027415995 1.3828257e-38
0.039379232 -0.14349405 -0.0027415995 1.1615559e-38
-0.021477493 -0.14266007 0.0073281284 9.4925345e-39
-0.019681256 -0.14186381 0.010267472 1.2534264e-38
-0.017810294 -0.14186381 0.010267472 1.4009032e-38
-0.016063394 -0.14076851 0.014310813 1.4285263e-38
-0.01419952 -0.14076851 0.014310813 1.5207941e-38
-0.012335645 -0.14076851 0.014310813 1.9173076e-38
-0.010471771 -0.14076851 0.014310813 2.1294658e-38
-0.0086078998 -0.14076851 0.014310813 2.0927318e-38
-0.0068628658 -0.13995247 0.017323231 2.0467064e-38
-0.00500427 -0.13995247 0.017323231 2.0006449e-38
-0.003145678 -0.13995247 0.017323231 1.8993019e-38
-0.0011524018 -0.14076851 0.014310813 1.8255454e-38
0.00071147271 -0.14076851 0.014310813 1.7978867e-38
0.0025753472 -0.14076851 0.014310813 1.7424974e-38
0.004439218 -0.14076851 0.014310813 1.576545e-38
0.0063030925 -0.14076851 0.014310813 1.5304109e-38
0.0083831903 -0.14186381 0.010267472 1.5948399e-38
0.010254154 -0.14186381 0.010267472 1.5949125e-38
0.012125118 -0.14186381 0.010267472 1.5119378e-38
0.013996078 -0.14186381 0.010267472 1.5580721e-38
0.016044846 -0.14266007 0.0073281284 1.7885612e-38
0.018112017 -0.14349155 0.0042586084 2.0190502e-38
0.019993519 -0.14349155 0.0042586084 1.834623e-38
0.021875015 -0.14349155 0.0042586084 1.4105229e-38
0.023756517 -0.14349155 0.0042586084 1.2906686e-38
0.025638012 -0.14349155 0.0042586084 1.4474009e-38
0.027803933 -0.14457656 0.00025329553 1.3275103e-38
0.029692454 -0.14457656 0.00025329553 1.4104861e-38
0.031580977 -0.14457656 0.00025329553 1.4196332e-38
0.033469498 -0.14457656 0.00025329553 1.3274732e-38
0.035591684 -0.14538784 -0.0027415995 1.318217e-38
0.037485458 -0.14538784 -0.0027415995 1.4380712e-38
-0.021477493 -0.14453618 0.0073281284 7.2794849e-39
-0.019681256 -0.14373477 0.010267472 1.1243174e-38
-0.017810294 -0.14373477 0.010267472 1.2256959e-38
-0.016063394 -0.14263238 0.014310813 1.2625021e-38
-0.01419952 -0.14263238 0.014310813 1.382429e-38
-0.012335645 -0.14263238 0.014310813 1.8988686e-38
-0.010471771 -0.14263238 0.014310813 2.0741487e-38
-0.0086078998 -0.14263238 0.014310813 2.0650734e-38
-0.0067440253 -0.14263238 0.014310813 2.0098284e-38
-0.0048801508 -0.14263238 0.014310813 1.9637666e-38
-0.0030162763 -0.14263238 0.014310813 1.9085214e-38
-0.0011524018 -0.14263238 0.014310813 1.7610084e-38
0.00071147271 -0.14263238 0.014310813 1.7425693e-38
0.0025753472 -0.14263238 0.014310813 1.7886668e-38
0.004439218 -0.14263238 0.014310813 1.7240217e-38
0.0063030925 -0.14263238 0.014310813 1.6871433e-38
0.0083831903 -0.14373477 0.010267472 1.8161452e-38
0.010254154 -0.14373477 0.010267472 1.9268524e-38
0.012125118 -0.14373477 0.010267472 2.0928059e-38
0.013996078 -0.14373477 0.010267472 2.0744034e-38
0.016230522 -0.14537306 0.0042586084 2.0744034e-38
0.018361321 -0.14646508 0.00025329553 1.7148404e-38
0.020249842 -0.14646508 0.00025329553 1.4289621e-38
0.022138363 -0.14646508 0.00025329553 1.3644251e-38
0.024026884 -0.14646508 0.00025329553 1.2445708e-38
0.025915412 -0.14646508 0.00025329553 1.2906683e-38
0.027803933 -0.14646508 0.00025329553 1.3459494e-38
0.029692454 -0.14646508 0.00025329553 1.392047e-38
0.031580977 -0.14646508 0.00025329553 1.4565114e-38
0.033469498 -0.14646508 0.00025329553 1.4657666e-38
0.035358019 -0.14646508 0.00025329553 1.4380713e-38
0.037246533 -0.14646508 0.00025329553 1.4104125e-38
-0.019681256 -0.14560573 0.010267472 8.939009e-39
-0.017810294 -0.14560573 0.010267472 1.0596364e-38
-0.015939331 -0.14560573 0.010267472 1.0688913e-38
-0.01419952 -0.14449625 0.014310813 1.2164769e-38
-0.012335645 -0.14449625 0.014310813 1.8434433e-38
-0.010471771 -0.14449625 0.014310813 2.0003203e-38
-0.0086078998 -0.14449625 0.014310813 2.074221e-38
-0.0067440253 -0.14449625 0.014310813 2.019048e-38
-0.0048801508 -0.14449625 0.014310813 1.9545474e-38
-0.0030162763 -0.14449625 0.014310813 1.9361801e-38
-0.0011524018 -0.14449625 0.014310813 1.7242022e-38
0.00071147271 -0.14449625 0.014310813 1.6964712e-38
0.0025753472 -0.14449625 0.014310813 1.7517886e-38
0.004439218 -0.14449625 0.014310813 1.7332411e-38
0.0063030925 -0.14449625 0.014310813 1.7332767e-38
0.008166967 -0.14449625 0.014310813 1.9083402e-38
0.010254154 -0.14560573 0.010267472 2.0374867e-38
0.012125118 -0.14560573 0.010267472 2.341805e-38
0.013996078 -0.14560573 0.010267472 2.3142185e-38
0.016230522 -0.14725454 0.0042586084 2.1482675e-38
0.018361321 -0.14835359 0.00025329553 1.5766546e-38
0.020441508 -0.14917539 -0.0027415995 1.3644967e-38
0.022138363 -0.14835359 0.00025329553 1.521229e-38
0.024026884 -0.14835359 0.00025329553 1.4013387e-38
0.025915412 -0.14835359 0.00025329553 1.3552406e-38
0.027803933 -0.14835359 0.00025329553 1.4013022e-38
0.029692454 -0.14835359 0.00025329553 1.4750585e-38
0.031580977 -0.14835359 0.00025329553 1.5118644e-38
0.033469498 -0.14835359 0.00025329553 1.5118641e-38
0.035358019 -0.14835359 0.00025329553 1.5302668e-38
-0.019681256 -0.14747669 0.010267472 6.7259622e-39
-0.017810294 -0.14747669 0.010267472 9.4900178e-39
-0.015939331 -0.14747669 0.010267472 9.5818491e-39
-0.01419952 -0.14636014 0.014310813 1.1057342e-38
-0.012335645 -0.14636014 0.014310813 1.7789066e-38
-0.010471771 -0.14636014 0.014310813 1.9357834e-38
-0.0086078998 -0.14636014 0.014310813 2.1387581e-38
-0.0068628658 -0.14552824 0.017323231 2.0928045e-38
-0.00500427 -0.14552824 0.017323231 1.9730584e-38
-0.0030162763 -0.14636014 0.014310813 1.9361801e-38
-0.0011524018 -0.14636014 0.014310813 1.7334218e-38
0.00071147271 -0.14636014 0.014310813 1.6688125e-38
0.0025753472 -0.14636014 0.014310813 1.6595927e-38
0.004439218 -0.14636014 0.014310813 1.6133868e-38
0.0063030925 -0.14636014 0.014310813 1.6226417e-38
0.008166967 -0.14636014 0.014310813 1.7516433e-38
0.010254154 -0.14747669 0.010267472 1.8070332e-38
0.012125118 -0.14747669 0.010267472 1.7425337e-38
0.013996078 -0.14747669 0.010267472 1.576654e-38
0.016230522 -0.14913605 0.0042586084 1.5305562e-38
-0.017810294 -0.14934768 0.010267472 8.8442925e-39
-0.015939331 -0.14934768 0.010267472 8.844284e-39
-0.01419952 -0.14822401 0.014310813 9.9509945e-39
-0.012335645 -0.14822401 0.014310813 1.6682719e-38
-0.010471771 -0.14822401 0.014310813 1.8158935e-38
-0.0086078998 -0.14822401 0.014310813 2.120319e-38
-0.0068628658 -0.14738683 0.017323231 2.0835849e-38
-0.00500427 -0.14738683 0.017323231 1.8993019e-38
-0.0030162763 -0.14822401 0.014310813 1.8255454e-38
-0.0011524018 -0.14822401 0.014310813 1.7149826e-38
0.00071147271 -0.14822401 0.014310813 1.6688125e-38
0.0025753472 -0.14822401 0.014310813 1.5950915e-38
0.004439218 -0.14822401 0.014310813 1.5304463e-38
0.0063030925 -0.14822401 0.014310813 1.5488852e-38
0.008166967 -0.14822401 0.014310813 1.5949105e-38
0.010254154 -0.14934768 0.010267472 1.5487773e-38
0.012125118 -0.14934768 0.010267472 1.5305191e-38
-0.01058005 -0.14924543 0.017323231 1.6591599e-38
-0.0087214578 -0.14924543 0.017323231 2.0372702e-38
-0.0068628658 -0.14924543 0.017323231 2.0004643e-38
-0.00500427 -0.14924543 0.017323231 1.7700474e-38
-0.003145678 -0.14924543 0.017323231 1.7148021e-38
