# .PCD v0.7 - Point Cloud Data file format
VERSION 0.7
FIELDS x y z rgb
SIZE 4 4 4 4
TYPE F F F F
COUNT 1 1 1 1
WIDTH 943
HEIGHT 1
VIEWPOINT 0 0 0 1 0 0 0
POINTS 943
DATA ascii
-0.030823689 -0.12159048 -0.02584463 1.1702357e-38
-0.028854527 -0.12159048 -0.02584463 6.2599408e-39
-0.027049389 -0.11895646 -0.014838751 8.3753984e-39
-0.025099525 -0.11895646 -0.014838751 2.1834866e-38
-0.023149662 -0.11895646 -0.014838751 2.3497961e-38
-0.02128098 -0.11799283 -0.010812458 2.2576704e-38
-0.019338176 -0.11799283 -0.010812458 1.9906263e-38
-0.017467109 -0.11726747 -0.0077816807 8.015189e-39
-0.01552962 -0.11726747 -0.0077816807 3.3132525e-39
-0.013592128 -0.11726747 -0.0077816807 1.0690341e-38
-0.011769645 -0.11631607 -0.0038062893 1.5761488e-38
-0.0099602267 -0.11537148 0.00014049187 2.3507012e-38
-0.0080366246 -0.11537148 0.00014049187 2.3509163e-38
-0.0061130226 -0.11537148 0.00014049187 1.9358547e-38
-0.0041894242 -0.11537148 0.00014049187 1.6869969e-38
-0.0022658221 -0.11537148 0.00014049187 1.2998105e-38
-0.00034222379 -0.11537148 0.00014049187 1.428957e-38
0.0015813783 -0.11537148 0.00014049187 1.5487759e-38
0.0035049804 -0.11537148 0.00014049187 1.4566524e-38
0.0056050383 -0.11631607 -0.0038062893 1.170955e-38
0.0075355619 -0.11631607 -0.0038062893 1.382971e-38
0.01488135 -0.114632 0.0032302774 2.2775202e-38
0.016799536 -0.114632 0.0032302774 2.2867037e-38
0.018717717 -0.114632 0.0032302774 2.341805e-38
0.020635899 -0.114632 0.0032302774 2.3509527e-38
0.022554081 -0.114632 0.0032302774 2.3509527e-38
0.0242224 -0.11367123 0.0072446503 2.3509527e-38
0.026133541 -0.11367123 0.0072446503 2.3509527e-38
0.028044689 -0.11367123 0.0072446503 2.3509527e-38
0.029757854 -0.11296929 0.010177556 2.3509527e-38
0.031663854 -0.11296929 0.010177556 2.3509527e-38
0.033569854 -0.11296929 0.010177556 2.3509527e-38
0.035475861 -0.11296929 0.010177556 2.3509883e-38
0.037381861 -0.11296929 0.010177556 2.314074e-38
0.039287861 -0.11296929 0.010177556 2.3509883e-38
0.041422695 -0.11367123 0.0072446503 2.3417327e-38
0.043333843 -0.11367123 0.0072446503 1.3460196e-38
0.045244992 -0.11367123 0.0072446503 1.2168381e-38
0.048076496 -0.11631607 -0.0038062893 4.5172201e-39
0.050007015 -0.11631607 -0.0038062893 4.2420696e-39
-0.056718379 -0.12981267 -0.051781829 2.341805e-38
-0.054703742 -0.12981267 -0.051781829 2.341805e-38
-0.052602276 -0.12715961 -0.040777024 2.341805e-38
-0.050606936 -0.12715961 -0.040777024 2.3049273e-38
-0.048659831 -0.12981267 -0.051781829 2.3049273e-38
-0.040611558 -0.12887047 -0.047873553 1.3646018e-38
-0.036823418 -0.11993565 -0.010812458 1.355021e-38
-0.034880616 -0.11993565 -0.010812458 1.5765063e-38
-0.030995004 -0.11993565 -0.010812458 1.6131706e-38
-0.0290522 -0.11993565 -0.010812458 1.1425054e-38
-0.027109394 -0.11993565 -0.010812458 1.3814941e-38
-0.02516659 -0.11993565 -0.010812458 2.2017818e-38
-0.023223786 -0.11993565 -0.010812458 2.3402529e-38
-0.02128098 -0.11993565 -0.010812458 2.2484155e-38
-0.019338176 -0.11993565 -0.010812458 1.8156708e-38
-0.017467109 -0.11920498 -0.0077816807 7.0028419e-39
-0.015630687 -0.11824657 -0.0038062893 6.0794633e-39
-0.013700167 -0.11824657 -0.0038062893 1.7787609e-38
-0.011883825 -0.11729507 0.00014049187 2.350592e-38
-0.010055032 -0.11655019 0.0032302774 2.3508092e-38
-0.0081368461 -0.11655019 0.0032302774 2.3505568e-38
-0.0062186643 -0.11655019 0.0032302774 1.6682716e-38
-0.0043004788 -0.11655019 0.0032302774 1.2997024e-38
-0.0023822971 -0.11655019 0.0032302774 1.7975586e-38
-0.00046411529 -0.11655019 0.0032302774 2.0372691e-38
0.0015813783 -0.11729507 0.00014049187 2.2032578e-38
0.0035049804 -0.11729507 0.00014049187 2.0743631e-38
0.0056050383 -0.11824657 -0.0038062893 1.8439115e-38
0.0075355619 -0.11824657 -0.0038062893 1.6410482e-38
0.0089332424 -0.11558239 0.0072446503 1.6411572e-38
0.012755532 -0.11558239 0.0072446503 2.2775202e-38
0.014666677 -0.11558239 0.0072446503 2.1485559e-38
0.016577821 -0.11558239 0.0072446503 2.2775202e-38
0.018488966 -0.11558239 0.0072446503 2.3417691e-38
0.020400111 -0.11558239 0.0072446503 2.3509527e-38
0.022311252 -0.11558239 0.0072446503 2.3509527e-38
0.024039846 -0.1148753 0.010177556 2.3509527e-38
0.025751706 -0.11414395 0.013211194 2.3509527e-38
0.027652387 -0.11414395 0.013211194 2.3509527e-38
0.029757854 -0.1148753 0.010177556 2.3509527e-38
0.031663854 -0.1148753 0.010177556 2.3509883e-38
0.033569854 -0.1148753 0.010177556 2.3325131e-38
0.035475861 -0.1148753 0.010177556 2.3509883e-38
0.037381861 -0.1148753 0.010177556 2.3325131e-38
0.039287861 -0.1148753 0.010177556 2.350988e-38
0.041422695 -0.11558239 0.0072446503 2.2125506e-38
0.043333843 -0.11558239 0.0072446503 1.465766e-38
0.045572281 -0.11655019 0.0032302774 1.3459117e-38
0.048076496 -0.11824657 -0.0038062893 7.8362614e-39
0.050007015 -0.11824657 -0.0038062893 6.5469575e-39
0.053150773 -0.12161671 -0.017785367 7.5621884e-39
0.055466801 -0.12259962 -0.021862444 7.6533079e-39
0.057428986 -0.12259962 -0.021862444 6.4540458e-39
-0.058628883 -0.12990431 -0.043862876 2.3048556e-38
-0.05662813 -0.12990431 -0.043862876 2.3509527e-38
-0.05459762 -0.12915494 -0.040777024 2.314075e-38
-0.052538987 -0.12720706 -0.03275555 2.3509527e-38
-0.050533742 -0.1262586 -0.028849896 2.341805e-38
-0.048559312 -0.1262586 -0.028849896 2.341805e-38
-0.046584882 -0.1262586 -0.028849896 2.341805e-38
-0.04462713 -0.13087825 -0.047873553 2.1943279e-38
-0.04261934 -0.13087825 -0.047873553 1.9363226e-38
-0.0290522 -0.12187846 -0.010812458 1.1797074e-38
-0.027109394 -0.12187846 -0.010812458 1.4461749e-38
-0.02516659 -0.12187846 -0.010812458 2.2294408e-38
-0.023223786 -0.12187846 -0.010812458 2.3501212e-38
-0.02128098 -0.12187846 -0.010812458 1.9811572e-38
-0.019338176 -0.12187846 -0.010812458 1.1244568e-38
-0.017467109 -0.12114246 -0.0077816807 4.2395052e-39
-0.015630687 -0.12017711 -0.0038062893 7.4638453e-39
-0.013700167 -0.12017711 -0.0038062893 1.9170906e-38
-0.011883825 -0.11921866 0.00014049187 2.3505201e-38
-0.010055032 -0.11846836 0.0032302774 2.350773e-38
-0.0081368461 -0.11846836 0.0032302774 2.3318655e-38
-0.0062186643 -0.11846836 0.0032302774 1.2901255e-38
-0.0043004788 -0.11846836 0.0032302774 7.9248207e-39
-0.0023822971 -0.11846836 0.0032302774 2.2584645e-38
-0.00046411529 -0.11846836 0.0032302774 2.3507711e-38
0.0012886636 -0.11749353 0.0072446503 2.1847116e-38
0.0031998083 -0.11749353 0.0072446503 2.1203893e-38
0.005110953 -0.11749353 0.0072446503 1.9913169e-38
0.0070220977 -0.11749353 0.0072446503 1.4289272e-38
0.0089332424 -0.11749353 0.0072446503 1.3091819e-38
0.01069783 -0.11678131 0.010177556 1.1987615e-38
0.012755532 -0.11749353 0.0072446503 2.2775202e-38
0.014666677 -0.11749353 0.0072446503 2.2315665e-38
0.016415834 -0.11678131 0.010177556 2.2867037e-38
0.018321838 -0.11678131 0.010177556 2.3234379e-38
0.020227838 -0.11678131 0.010177556 2.3509886e-38
0.021950338 -0.11604463 0.013211194 2.3509886e-38
0.023851018 -0.11604463 0.013211194 2.3509886e-38
0.025751706 -0.11604463 0.013211194 2.3509527e-38
0.027652387 -0.11604463 0.013211194 2.3509527e-38
0.029553074 -0.11604463 0.013211194 2.3509883e-38
0.031453755 -0.11604463 0.013211194 2.3509883e-38
0.033569854 -0.11678131 0.010177556 2.314074e-38
0.035475861 -0.11678131 0.010177556 2.350988e-38
0.037381861 -0.11678131 0.010177556 2.332405e-38
0.039511561 -0.11749353 0.0072446503 2.3509518e-38
0.041735917 -0.11846836 0.0032302774 1.8438039e-38
0.043654099 -0.11846836 0.0032302774 1.4565822e-38
0.045824185 -0.11921866 0.00014049187 1.4381431e-38
0.048076496 -0.12017711 -0.0038062893 1.0971269e-38
0.051195741 -0.12357174 -0.017785367 7.5603906e-39
0.053150773 -0.12357174 -0.017785367 8.0220848e-39
0.055466801 -0.1245618 -0.021862444 8.5745425e-39
0.057428986 -0.1245618 -0.021862444 7.5603906e-39
-0.064704977 -0.13288604 -0.047873553 2.3416971e-38
-0.062630393 -0.13190506 -0.043862876 2.2402822e-38
-0.060629636 -0.13190506 -0.043862876 2.3509527e-38
-0.058628883 -0.13190506 -0.043862876 2.3509527e-38
-0.05662813 -0.13190506 -0.043862876 2.3509527e-38
-0.05459762 -0.13115029 -0.040777024 2.2587578e-38
-0.052538987 -0.12918831 -0.03275555 2.3417333e-38
-0.050533742 -0.12823303 -0.028849896 2.3509527e-38
-0.048559312 -0.12823303 -0.028849896 2.2864882e-38
-0.046634912 -0.13288604 -0.047873553 2.341805e-38
-0.04462713 -0.13288604 -0.047873553 2.350988e-38
-0.04261934 -0.13288604 -0.047873553 2.3509866e-38
-0.040622108 -0.13190506 -0.043862876 1.1062369e-38
-0.033005372 -0.12210761 -0.0038062893 4.2445849e-39
-0.029144332 -0.12210761 -0.0038062893 4.6079724e-39
-0.02721381 -0.12210761 -0.0038062893 6.5354402e-39
-0.025217073 -0.12307997 -0.0077816807 8.0991604e-39
-0.023279581 -0.12307997 -0.0077816807 8.7455976e-39
-0.02128098 -0.12382124 -0.010812458 6.2599071e-39
-0.019404599 -0.12307997 -0.0077816807 6.266021e-39
-0.017561207 -0.12210761 -0.0038062893 8.0195386e-39
-0.015731027 -0.12114228 0.00014049187 7.3727371e-39
-0.013807425 -0.12114228 0.00014049187 8.2932655e-39
-0.011973213 -0.12038656 0.0032302774 1.0227953e-38
-0.010055032 -0.12038656 0.0032302774 9.9502911e-39
-0.0081368461 -0.12038656 0.0032302774 1.096444e-38
-0.0062186643 -0.12038656 0.0032302774 8.5680601e-39
-0.0043004788 -0.12038656 0.0032302774 9.030092e-39
-0.0023822971 -0.12038656 0.0032302774 2.3506605e-38
-0.00046411529 -0.12038656 0.0032302774 2.3508793e-38
0.0012886636 -0.11940466 0.0072446503 2.35088e-38
0.0031998083 -0.11940466 0.0072446503 2.2215893e-38
0.005110953 -0.11940466 0.0072446503 2.212479e-38
0.0070220977 -0.11940466 0.0072446503 1.9267117e-38
0.0089332424 -0.11940466 0.0072446503 1.6317224e-38
0.01069783 -0.11868732 0.010177556 1.9085234e-38
0.012603831 -0.11868732 0.010177556 2.3142544e-38
0.014509834 -0.11868732 0.010177556 2.2958873e-38
0.016248289 -0.11794533 0.013211194 2.2682649e-38
0.01814897 -0.11794533 0.013211194 2.341805e-38
0.020049658 -0.11794533 0.013211194 2.3509886e-38
0.021950338 -0.11794533 0.013211194 2.3509886e-38
0.023605686 -0.11698125 0.01715273 2.3509886e-38
0.025499459 -0.11698125 0.01715273 2.3509527e-38
0.027393233 -0.11698125 0.01715273 2.3509527e-38
0.029287007 -0.11698125 0.01715273 2.3509883e-38
0.03118078 -0.11698125 0.01715273 2.3509883e-38
0.033354435 -0.11794533 0.013211194 2.350952e-38
0.035255123 -0.11794533 0.013211194 2.3509879e-38
0.037155803 -0.11794533 0.013211194 2.304782e-38
0.039287861 -0.11868732 0.010177556 1.9544386e-38
0.041735917 -0.12038656 0.0032302774 1.419704e-38
0.043900594 -0.12114228 0.00014049187 1.3736059e-38
0.046145976 -0.12210761 -0.0038062893 1.4658015e-38
0.048076496 -0.12210761 -0.0038062893 1.1616638e-38
0.050945178 -0.12480606 -0.014838751 8.0213687e-39
0.053150773 -0.12552677 -0.017785367 8.1142832e-39
0.055105805 -0.12552677 -0.017785367 9.4965016e-39
0.057428986 -0.12652399 -0.021862444 9.3121103e-39
-0.066712767 -0.13489382 -0.047873553 2.3509158e-38
-0.064704977 -0.13489382 -0.047873553 2.3509521e-38
-0.062630393 -0.13390581 -0.043862876 2.3509164e-38
-0.060629636 -0.13390581 -0.043862876 2.3509883e-38
-0.058628883 -0.13390581 -0.043862876 2.2955993e-38
-0.05662813 -0.13390581 -0.043862876 2.3509527e-38
-0.054627378 -0.13390581 -0.043862876 2.3509527e-38
-0.052571021 -0.13216983 -0.036815818 2.341769e-38
-0.050582625 -0.13216983 -0.036815818 2.3325494e-38
-0.048576429 -0.1311696 -0.03275555 2.3048907e-38
-0.046595152 -0.1311696 -0.03275555 2.3417687e-38
-0.044617433 -0.13216983 -0.036815818 2.3048893e-38
-0.042622857 -0.13390581 -0.043862876 2.3509856e-38
-0.040622108 -0.13390581 -0.043862876 9.0329773e-39
-0.038717788 -0.12848614 -0.021862444 3.132471e-39
-0.036755607 -0.12848614 -0.021862444 1.0141379e-39
-0.034904525 -0.12501745 -0.0077816807 1.3861686e-39
-0.033005372 -0.12403814 -0.0038062893 2.9542132e-39
-0.031074852 -0.12403814 -0.0038062893 3.0460459e-39
-0.029144332 -0.12403814 -0.0038062893 2.7658577e-39
-0.02721381 -0.12403814 -0.0038062893 4.4192568e-39
-0.025217073 -0.12501745 -0.0077816807 3.2171122e-39
-0.023279581 -0.12501745 -0.0077816807 4.5996823e-39
-0.021342091 -0.12501745 -0.0077816807 4.5096447e-39
-0.019404599 -0.12501745 -0.0077816807 4.4210462e-39
-0.017561207 -0.12403814 -0.0038062893 4.8841852e-39
-0.015731027 -0.12306587 0.00014049187 2.8576792e-39
-0.013807425 -0.12306587 0.00014049187 2.5800203e-39
-0.011973213 -0.12230472 0.0032302774 2.4856821e-39
-0.010055032 -0.12230472 0.0032302774 4.8820524e-39
-0.0081368461 -0.12230472 0.0032302774 5.5266945e-39
-0.0062186643 -0.12230472 0.0032302774 4.144109e-39
-0.0043004788 -0.12230472 0.0032302774 9.5847091e-39
-0.0023822971 -0.12230472 0.0032302774 2.286088e-38
-0.00046411529 -0.12230472 0.0032302774 2.3509146e-38
0.0012886636 -0.12131582 0.0072446503 2.276763e-38
0.0031998083 -0.12131582 0.0072446503 2.1293223e-38
0.005110953 -0.12131582 0.0072446503 2.1662017e-38
0.0068858229 -0.12059332 0.010177556 2.156984e-38
0.0087918267 -0.12059332 0.010177556 1.9265672e-38
0.01069783 -0.12059332 0.010177556 2.3508809e-38
0.012603831 -0.12059332 0.010177556 2.3232583e-38
0.014509834 -0.12059332 0.010177556 2.3509883e-38
0.016030598 -0.11887501 0.01715273 2.3325492e-38
0.017924368 -0.11887501 0.01715273 2.341805e-38
0.019818138 -0.11887501 0.01715273 2.341805e-38
0.021711912 -0.11887501 0.01715273 2.341805e-38
0.023605686 -0.11887501 0.01715273 2.341805e-38
0.025499459 -0.11887501 0.01715273 2.3509886e-38
0.027393233 -0.11887501 0.01715273 2.3509886e-38
0.029287007 -0.11887501 0.01715273 2.3509883e-38
0.03118078 -0.11887501 0.01715273 2.3509883e-38
0.033074547 -0.11887501 0.01715273 2.350988e-38
0.03496832 -0.11887501 0.01715273 2.3509879e-38
0.036862094 -0.11887501 0.01715273 2.3417323e-38
0.039056491 -0.119846 0.013211194 1.4935681e-38
0.041735917 -0.12230472 0.0032302774 1.2260929e-38
0.044215456 -0.12403814 -0.0038062893 1.3736059e-38
0.046470091 -0.12501745 -0.0077816807 1.5211189e-38
0.048407584 -0.12501745 -0.0077816807 1.1063464e-38
0.050945178 -0.12675591 -0.014838751 9.4043074e-39
0.053150773 -0.1274818 -0.017785367 9.1280834e-39
0.055105805 -0.1274818 -0.017785367 1.0602495e-38
0.057428986 -0.12848614 -0.021862444 1.0786886e-38
-0.068806209 -0.13787122 -0.051781829 2.3509149e-38
-0.066712767 -0.1369016 -0.047873553 2.3416234e-38
-0.064704977 -0.1369016 -0.047873553 2.3509873e-38
-0.062630393 -0.13590656 -0.043862876 2.3509879e-38
-0.060629636 -0.13590656 -0.043862876 2.3416603e-38
-0.058628883 -0.13590656 -0.043862876 2.2863071e-38
-0.05662813 -0.13590656 -0.043862876 2.3325129e-38
-0.054627378 -0.13590656 -0.043862876 2.3048542e-38
-0.052571021 -0.13415821 -0.036815818 2.3417324e-38
-0.050582625 -0.13415821 -0.036815818 2.3418043e-38
-0.048576429 -0.13315089 -0.03275555 2.3325847e-38
-0.046595152 -0.13315089 -0.03275555 2.3509879e-38
-0.044617433 -0.13415821 -0.036815818 2.3509869e-38
-0.042636022 -0.1321819 -0.028849896 2.2952711e-38
-0.040679969 -0.13044833 -0.021862444 8.5701929e-39
-0.038717788 -0.13044833 -0.021862444 3.8714752e-39
-0.032967035 -0.12695493 -0.0077816807 3.138973e-39
-0.031074852 -0.12596865 -0.0038062893 2.6772634e-39
-0.029196231 -0.12498946 0.00014049187 3.9654771e-39
-0.02727263 -0.12498946 0.00014049187 3.3168623e-39
-0.02528329 -0.12596865 -0.0038062893 2.5764204e-39
-0.023279581 -0.12695493 -0.0077816807 3.8653655e-39
-0.021422248 -0.12596865 -0.0038062893 4.7873246e-39
-0.019491728 -0.12596865 -0.0038062893 4.5121797e-39
-0.017654628 -0.12498946 0.00014049187 3.9618827e-39
-0.015731027 -0.12498946 0.00014049187 2.9516811e-39
-0.013891397 -0.12422292 0.0032302774 3.1367982e-39
-0.011973213 -0.12422292 0.0032302774 4.5157908e-39
-0.010178205 -0.12322696 0.0072446503 4.422156e-39
-0.0082670599 -0.12322696 0.0072446503 3.408709e-39
-0.0063559152 -0.12322696 0.0072446503 3.6849259e-39
-0.0044447705 -0.12322696 0.0072446503 6.2663951e-39
-0.0025336258 -0.12322696 0.0072446503 8.3868918e-39
-0.00062248111 -0.12322696 0.0072446503 1.0137533e-38
0.0012886636 -0.12322696 0.0072446503 1.3456224e-38
0.003073819 -0.1224993 0.010177556 1.3639192e-38
0.0049798228 -0.1224993 0.010177556 1.5114335e-38
0.0068858229 -0.1224993 0.010177556 1.4376774e-38
0.0086455531 -0.12174667 0.013211194 1.3455894e-38
0.010546237 -0.12174667 0.013211194 2.0831896e-38
0.012446921 -0.12174667 0.013211194 2.35088e-38
0.014136825 -0.1207688 0.01715273 2.3509507e-38
0.016030598 -0.1207688 0.01715273 2.3139646e-38
0.017924368 -0.1207688 0.01715273 2.350988e-38
0.019818138 -0.1207688 0.01715273 2.341805e-38
0.021711912 -0.1207688 0.01715273 2.341805e-38
0.023605686 -0.1207688 0.01715273 2.341805e-38
0.025499459 -0.1207688 0.01715273 2.3509886e-38
0.027393233 -0.1207688 0.01715273 2.3509883e-38
0.029084835 -0.12002577 0.020147625 2.3509883e-38
0.030973364 -0.12002577 0.020147625 2.350988e-38
0.032861885 -0.12002577 0.020147625 2.3417323e-38
0.034750406 -0.12002577 0.020147625 2.3509518e-38
0.036638927 -0.12002577 0.020147625 2.3509876e-38
0.038755868 -0.1207688 0.01715273 1.2262008e-38
0.042595103 -0.12695493 -0.0077816807 1.2168733e-38
0.044532597 -0.12695493 -0.0077816807 1.428923e-38
0.046470091 -0.12695493 -0.0077816807 1.5026795e-38
0.048659995 -0.12770687 -0.010812458 1.0879073e-38
0.050602794 -0.12770687 -0.010812458 9.5883427e-39
0.053150773 -0.12943684 -0.017785367 9.6809041e-39
0.055105805 -0.12943684 -0.017785367 1.0786891e-38
0.057428986 -0.13044833 -0.021862444 1.0879087e-38
-0.070820846 -0.13988586 -0.051781829 1.0139692e-38
-0.068806209 -0.13988586 -0.051781829 2.2124768e-38
-0.066791564 -0.13988586 -0.051781829 2.3509866e-38
-0.064704977 -0.13890938 -0.047873553 2.3416233e-38
-0.062697195 -0.13890938 -0.047873553 2.3509873e-38
-0.060629636 -0.13790731 -0.043862876 2.3509513e-38
-0.058628883 -0.13790731 -0.043862876 2.3509876e-38
-0.05662813 -0.13790731 -0.043862876 2.3509876e-38
-0.05459762 -0.13713633 -0.040777024 2.3141092e-38
-0.052602276 -0.13713633 -0.040777024 2.3509876e-38
-0.050582625 -0.13614662 -0.036815818 2.3509876e-38
-0.048594229 -0.13614662 -0.036815818 2.3509876e-38
-0.046605833 -0.13614662 -0.036815818 2.3509873e-38
-0.044613875 -0.13513215 -0.03275555 2.2032928e-38
-0.042636022 -0.13415633 -0.028849896 1.8525513e-38
-0.040679969 -0.13241051 -0.021862444 7.4624006e-39
-0.038717788 -0.13241051 -0.021862444 3.5966861e-39
-0.036842018 -0.12889244 -0.0077816807 4.3159993e-42
-0.034904525 -0.12889244 -0.0077816807 9.2700237e-40
-0.033005372 -0.12789918 -0.0038062893 3.507401e-39
-0.031119831 -0.12691309 0.00014049187 3.3211979e-39
-0.029196231 -0.12691309 0.00014049187 4.7030421e-39
-0.02727263 -0.12691309 0.00014049187 2.1219162e-39
-0.02534903 -0.12691309 0.00014049187 4.1480649e-39
-0.023425428 -0.12691309 0.00014049187 4.421426e-39
-0.02156413 -0.12614109 0.0032302774 4.0504938e-39
-0.019645946 -0.12614109 0.0032302774 3.8650264e-39
-0.017727762 -0.12614109 0.0032302774 3.4072824e-39
-0.015809579 -0.12614109 0.0032302774 3.3215524e-39
-0.013891397 -0.12614109 0.0032302774 2.9549293e-39
-0.011973213 -0.12614109 0.0032302774 1.5684131e-39
-0.010178205 -0.12513812 0.0072446503 3.5027207e-39
-0.0082670599 -0.12513812 0.0072446503 4.3321016e-39
-0.0063559152 -0.12513812 0.0072446503 3.13355e-39
-0.0044447705 -0.12513812 0.0072446503 2.8558841e-39
-0.0025336258 -0.12513812 0.0072446503 3.685279e-39
-0.00062248111 -0.12513812 0.0072446503 4.2384416e-39
0.0012886636 -0.12513812 0.0072446503 6.6333812e-39
0.003073819 -0.12440531 0.010177556 1.0226881e-38
0.0049798228 -0.12440531 0.010177556 1.2715811e-38
0.0068858229 -0.12440531 0.010177556 1.2808356e-38
0.0086455531 -0.12364738 0.013211194 1.2715796e-38
0.010546237 -0.12364738 0.013211194 1.8155338e-38
0.012446921 -0.12364738 0.013211194 2.350591e-38
0.014136825 -0.12266256 0.01715273 2.350733e-38
0.016030598 -0.12266256 0.01715273 2.3509851e-38
0.017924368 -0.12266256 0.01715273 2.3509876e-38
0.019818138 -0.12266256 0.01715273 2.3234379e-38
0.021711912 -0.12266256 0.01715273 2.3234379e-38
0.023605686 -0.12266256 0.01715273 2.3234379e-38
0.025499459 -0.12266256 0.01715273 2.3418047e-38
0.027393233 -0.12266256 0.01715273 2.3418047e-38
0.029084835 -0.12191428 0.020147625 2.3509883e-38
0.030973364 -0.12191428 0.020147625 2.350988e-38
0.032861885 -0.12191428 0.020147625 2.3509879e-38
0.034750406 -0.12191428 0.020147625 2.3509879e-38
0.036638927 -0.12191428 0.020147625 2.3509876e-38
0.038527448 -0.12191428 0.020147625 1.0325899e-38
0.042595103 -0.12889244 -0.0077816807 1.0785796e-38
0.044532597 -0.12889244 -0.0077816807 1.2906295e-38
0.046717182 -0.12964968 -0.010812458 1.28141e-38
0.048659995 -0.12964968 -0.010812458 1.0602486e-38
0.050602794 -0.12964968 -0.010812458 8.9429789e-39
0.053150773 -0.13139187 -0.017785367 1.0234082e-38
0.055105805 -0.13139187 -0.017785367 1.1616298e-38
0.057428986 -0.13241051 -0.021862444 1.1708493e-38
-0.070820846 -0.14190049 -0.051781829 9.4939695e-39
-0.068720549 -0.14091717 -0.047873553 1.6408639e-38
-0.066712767 -0.14091717 -0.047873553 2.3509858e-38
-0.064704977 -0.14091717 -0.047873553 2.3508777e-38
-0.062630393 -0.13990806 -0.043862876 2.3509869e-38
-0.060629636 -0.13990806 -0.043862876 2.1480126e-38
-0.058628883 -0.13990806 -0.043862876 2.1757062e-38
-0.05662813 -0.13990806 -0.043862876 2.3232192e-38
-0.05459762 -0.13913165 -0.040777024 2.3509509e-38
-0.052571021 -0.138135 -0.036815818 2.2955619e-38
-0.050582625 -0.138135 -0.036815818 2.2771582e-38
-0.048594229 -0.138135 -0.036815818 2.3509869e-38
-0.046605833 -0.138135 -0.036815818 2.2955975e-38
-0.044613875 -0.13711344 -0.03275555 1.6408279e-38
-0.042636022 -0.13613077 -0.028849896 1.437672e-38
-0.040669493 -0.13537462 -0.02584463 5.5277371e-39
-0.038700335 -0.13537462 -0.02584463 1.8453321e-39
-0.036842018 -0.13082992 -0.0077816807 1.793662e-42
-0.034904525 -0.13082992 -0.0077816807 1.8835553e-40
-0.033043433 -0.12883668 0.00014049187 6.4897355e-40
-0.031119831 -0.12883668 0.00014049187 3.7057478e-40
-0.029196231 -0.12883668 0.00014049187 9.2302129e-40
-0.027318679 -0.12805928 0.0032302774 1.0162931e-39
-0.025400495 -0.12805928 0.0032302774 2.9513251e-39
-0.023482312 -0.12805928 0.0032302774 1.7495562e-39
-0.02156413 -0.12805928 0.0032302774 2.1165464e-39
-0.019645946 -0.12805928 0.0032302774 2.7601208e-39
-0.017727762 -0.12805928 0.0032302774 1.3793443e-39
-0.015809579 -0.12805928 0.0032302774 9.251905e-40
-0.013891397 -0.12805928 0.0032302774 7.4223697e-40
-0.011973213 -0.12805928 0.0032302774 2.3059782e-39
-0.010178205 -0.12704925 0.0072446503 8.2904461e-40
-0.0082670599 -0.12704925 0.0072446503 1.936097e-39
-0.0063559152 -0.12704925 0.0072446503 3.5026955e-39
-0.0043004788 -0.12805928 0.0032302774 3.1331983e-39
-0.0025336258 -0.12704925 0.0072446503 4.1462684e-39
-0.00062248111 -0.12704925 0.0072446503 1.8413734e-39
0.0012886636 -0.12704925 0.0072446503 2.946642e-39
0.003073819 -0.12631132 0.010177556 2.944868e-39
0.0049798228 -0.12631132 0.010177556 3.0359902e-39
0.0067448728 -0.12554805 0.013211194 4.787333e-39
0.0086455531 -0.12554805 0.013211194 4.1423153e-39
0.010349281 -0.12455635 0.01715273 5.2483028e-39
0.012243051 -0.12455635 0.01715273 6.6315861e-39
0.014136825 -0.12455635 0.01715273 1.2164025e-38
0.016030598 -0.12455635 0.01715273 2.2307706e-38
0.017924368 -0.12455635 0.01715273 2.3509873e-38
0.019818138 -0.12455635 0.01715273 2.341805e-38
0.021711912 -0.12455635 0.01715273 2.341805e-38
0.023605686 -0.12455635 0.01715273 2.3418047e-38
0.025499459 -0.12455635 0.01715273 2.3418047e-38
0.027393233 -0.12455635 0.01715273 2.3509883e-38
0.029084835 -0.12380283 0.020147625 2.3509883e-38
0.030695964 -0.12279506 0.024152938 2.350988e-38
0.032577466 -0.12279506 0.024152938 2.350988e-38
0.034458961 -0.12279506 0.024152938 2.3509879e-38
0.036111731 -0.12202276 0.027222458 2.3140736e-38
0.037987847 -0.12202276 0.027222458 8.9429649e-39
0.042595103 -0.13082992 -0.0077816807 8.5731034e-39
0.044532597 -0.13082992 -0.0077816807 1.0601404e-38
0.046717182 -0.13159247 -0.010812458 9.956035e-39
0.048659995 -0.13159247 -0.010812458 1.0048957e-38
0.050602794 -0.13159247 -0.010812458 9.0355389e-39
0.052895039 -0.13260551 -0.014838751 1.1433351e-38
0.054844901 -0.13260551 -0.014838751 1.336838e-38
-0.070728332 -0.14292495 -0.047873553 8.5705894e-39
-0.068720549 -0.14292495 -0.047873553 1.6223534e-38
-0.066712767 -0.14292495 -0.047873553 1.9912411e-38
-0.064631142 -0.14190884 -0.043862876 2.2954866e-38
-0.062630393 -0.14190884 -0.043862876 2.3507349e-38
-0.060629636 -0.14190884 -0.043862876 1.9358902e-38
-0.058628883 -0.14190884 -0.043862876 1.5119308e-38
-0.056592964 -0.14112701 -0.040777024 2.2402763e-38
-0.05459762 -0.14112701 -0.040777024 2.3509869e-38
-0.052571021 -0.14012341 -0.036815818 2.2216617e-38
-0.050582625 -0.14012341 -0.036815818 2.0649992e-38
-0.048594229 -0.14012341 -0.036815818 2.2217318e-38
-0.046605833 -0.14012341 -0.036815818 2.1940028e-38
-0.044613875 -0.13909473 -0.03275555 1.3826815e-38
-0.042636022 -0.1381052 -0.028849896 1.0323727e-38
-0.040669493 -0.13734378 -0.02584463 2.8569603e-39
-0.038735658 -0.1353019 -0.017785367 1.1992452e-39
-0.036842018 -0.13276742 -0.0077816807 9.2374716e-40
-0.034935892 -0.13176022 -0.0038062893 9.2374856e-40
-0.033043433 -0.13076027 0.00014049187 3.7057478e-40
-0.031119831 -0.13076027 0.00014049187 9.2302689e-40
-0.029196231 -0.13076027 0.00014049187 3.5873241e-43
-0.027318679 -0.12997745 0.0032302774 3.6985311e-40
-0.025400495 -0.12997745 0.0032302774 3.6913565e-40
-0.023482312 -0.12997745 0.0032302774 3.6841958e-40
-0.02156413 -0.12997745 0.0032302774 6.4393028e-40
-0.019645946 -0.12997745 0.0032302774 1.0123569e-39
-0.017727762 -0.12997745 0.0032302774 1.1978271e-39
-0.015809579 -0.12997745 0.0032302774 1.2914577e-39
-0.013891397 -0.12997745 0.0032302774 1.4758461e-39
-0.011973213 -0.12997745 0.0032302774 1.3825715e-39
-0.010178205 -0.12896039 0.0072446503 1.6577165e-39
-0.0082670599 -0.12896039 0.0072446503 1.8421063e-39
-0.0063559152 -0.12896039 0.0072446503 1.9350208e-39
-0.0043004788 -0.12997745 0.0032302774 2.3027299e-39
-0.0025336258 -0.12896039 0.0072446503 2.3956444e-39
-0.00062248111 -0.12896039 0.0072446503 2.3952815e-39
0.0012886636 -0.12896039 0.0072446503 2.3027299e-39
0.003073819 -0.12821732 0.010177556 2.3945752e-39
0.0049798228 -0.12821732 0.010177556 1.2882277e-39
0.0067448728 -0.12744872 0.013211194 1.287499e-39
0.0086455531 -0.12744872 0.013211194 8.268782e-40
0.010349281 -0.12645011 0.01715273 6.4284847e-40
0.012243051 -0.12645011 0.01715273 1.1956551e-39
0.014136825 -0.12645011 0.01715273 8.3865373e-39
0.016030598 -0.12645011 0.01715273 1.9358539e-38
0.017924368 -0.12645011 0.01715273 2.2955622e-38
0.019818138 -0.12645011 0.01715273 2.350988e-38
0.021711912 -0.12645011 0.01715273 2.2957065e-38
0.023419272 -0.12569134 0.020147625 2.3509883e-38
0.025307793 -0.12569134 0.020147625 2.3048905e-38
0.027196314 -0.12569134 0.020147625 2.3509527e-38
0.029084835 -0.12569134 0.020147625 2.3416971e-38
0.030695964 -0.12467657 0.024152938 2.3509527e-38
0.032359499 -0.12389888 0.027222458 2.3509527e-38
0.034235615 -0.12389888 0.027222458 2.3509883e-38
0.035892699 -0.12315418 0.030161802 2.3509524e-38
0.037763666 -0.12315418 0.030161802 9.3103139e-39
0.03963463 -0.12315418 0.030161802 9.3099495e-39
0.044532597 -0.13276742 -0.0077816807 9.0337186e-39
0.046470091 -0.13276742 -0.0077816807 9.4946967e-39
0.048407584 -0.13276742 -0.0077816807 8.4823511e-39
0.050602794 -0.13353528 -0.010812458 7.5625766e-39
0.052545607 -0.13353528 -0.010812458 1.2725896e-38
0.054844901 -0.13455538 -0.014838751 1.3462018e-38
0.056794778 -0.13455538 -0.014838751 1.5396321e-38
-0.070728332 -0.14493273 -0.047873553 7.5560886e-39
-0.068720549 -0.14493273 -0.047873553 1.2719749e-38
-0.066712767 -0.14493273 -0.047873553 1.456542e-38
-0.064631142 -0.14390959 -0.043862876 1.6685917e-38
-0.062630393 -0.14390959 -0.043862876 1.7513916e-38
-0.060629636 -0.14390959 -0.043862876 1.3918644e-38
-0.058628883 -0.14390959 -0.043862876 1.3459419e-38
-0.056592964 -0.14312236 -0.040777024 1.9452134e-38
-0.05459762 -0.14312236 -0.040777024 1.9450024e-38
-0.052571021 -0.14211179 -0.036815818 1.6868198e-38
-0.050582625 -0.14211179 -0.036815818 1.6039492e-38
-0.048594229 -0.14211179 -0.036815818 1.7883761e-38
-0.046605833 -0.14211179 -0.036815818 1.732953e-38
-0.044613875 -0.14107598 -0.03275555 1.0046084e-38
-0.042636022 -0.14007963 -0.028849896 7.6522261e-39
-0.040669493 -0.13931294 -0.02584463 1.199248e-39
-0.038735658 -0.13725694 -0.017785367 6.4607706e-40
-0.036842018 -0.1347049 -0.0077816807 6.4571833e-40
-0.034967031 -0.13268389 0.00014049187 3.6913565e-40
-0.033043433 -0.13268389 0.00014049187 3.5873241e-43
-0.031119831 -0.13268389 0.00014049187 4.6132988e-40
-0.029196231 -0.13268389 0.00014049187 9.2552961e-41
-0.027318679 -0.13189565 0.0032302774 2.7694142e-40
-0.025400495 -0.13189565 0.0032302774 9.2552961e-41
-0.023482312 -0.13189565 0.0032302774 0
-0.02156413 -0.13189565 0.0032302774 0
-0.019645946 -0.13189565 0.0032302774 0
-0.017727762 -0.13189565 0.0032302774 9.219563e-41
-0.015809579 -0.13189565 0.0032302774 1.8439406e-40
-0.013891397 -0.13189565 0.0032302774 2.7586802e-40
-0.011973213 -0.13189565 0.0032302774 5.5137171e-40
-0.010055032 -0.13189565 0.0032302774 5.5137171e-40
-0.0081368461 -0.13189565 0.0032302774 5.5137171e-40
-0.0062186643 -0.13189565 0.0032302774 4.5953621e-40
-0.0043004788 -0.13189565 0.0032302774 4.5953902e-40
-0.0025336258 -0.13087155 0.0072446503 2.7550929e-40
-0.00062248111 -0.13087155 0.0072446503 9.1841101e-41
0.0012886636 -0.13087155 0.0072446503 9.1841101e-41
0.003073819 -0.13012333 0.010177556 6.4465615e-40
0.0049798228 -0.13012333 0.010177556 1.836752e-40
0.0067448728 -0.12934943 0.013211194 5.5173465e-40
0.0084555075 -0.1283439 0.01715273 3.6734198e-40
0.010349281 -0.1283439 0.01715273 7.3576017e-40
0.012243051 -0.1283439 0.01715273 3.1321165e-39
0.014136825 -0.1283439 0.01715273 9.5861679e-39
0.016030598 -0.1283439 0.01715273 1.8713535e-38
0.017924368 -0.1283439 0.01715273 2.194147e-38
0.01964223 -0.12757985 0.020147625 2.3509879e-38
0.021530751 -0.12757985 0.020147625 2.350952e-38
0.023419272 -0.12757985 0.020147625 2.350988e-38
0.025307793 -0.12757985 0.020147625 2.3509883e-38
0.027196314 -0.12757985 0.020147625 2.3509527e-38
0.029084835 -0.12757985 0.020147625 2.3416974e-38
0.030695964 -0.12655805 0.024152938 2.3416974e-38
0.032359499 -0.12577499 0.027222458 2.3509527e-38
0.034235615 -0.12577499 0.027222458 2.3048189e-38
0.035892699 -0.12502514 0.030161802 2.2033314e-38
0.037763666 -0.12502514 0.030161802 8.5727488e-39
0.03963463 -0.12502514 0.030161802 9.1255611e-39
0.044532597 -0.1347049 -0.0077816807 9.2177539e-39
0.046470091 -0.1347049 -0.0077816807 9.4943408e-39
0.048407584 -0.1347049 -0.0077816807 8.2976039e-39
0.050345063 -0.1347049 -0.0077816807 8.2083075e-39
0.052545607 -0.13547809 -0.010812458 1.4846759e-38
0.054844901 -0.13650523 -0.014838751 1.576691e-38
0.056794778 -0.13650523 -0.014838751 1.6871451e-38
-0.068632647 -0.14591034 -0.043862876 1.0230831e-38
-0.066631898 -0.14591034 -0.043862876 1.0970156e-38
-0.064631142 -0.14591034 -0.043862876 1.2906264e-38
-0.062630393 -0.14591034 -0.043862876 1.4287437e-38
-0.060629636 -0.14591034 -0.043862876 1.1706313e-38
-0.058628883 -0.14591034 -0.043862876 1.0140744e-38
-0.05662813 -0.14591034 -0.043862876 1.7516395e-38
-0.05459762 -0.14511769 -0.040777024 1.8528792e-38
-0.052602276 -0.14511769 -0.040777024 1.5393433e-38
-0.050582625 -0.1441002 -0.036815818 1.3550574e-38
-0.048594229 -0.1441002 -0.036815818 1.4195944e-38
-0.046605833 -0.1441002 -0.036815818 1.4195243e-38
-0.044613875 -0.14305727 -0.03275555 9.7705788e-39
-0.042632595 -0.14305727 -0.03275555 6.2689357e-39
-0.040669493 -0.1412821 -0.02584463 3.6913565e-40
-0.038700335 -0.1412821 -0.02584463 3.5873241e-43
-0.036842018 -0.13664238 -0.0077816807 3.5873241e-43
-0.034967031 -0.13460748 0.00014049187 9.2552961e-41
-0.033043433 -0.13460748 0.00014049187 3.5873241e-43
-0.031155044 -0.13381381 0.0032302774 3.5873241e-43
-0.029236861 -0.13381381 0.0032302774 3.5873241e-43
-0.027318679 -0.13381381 0.0032302774 2.7658409e-40
-0.02546736 -0.13278268 0.0072446503 9.2194229e-41
-0.023556216 -0.13278268 0.0072446503 0
-0.021645073 -0.13278268 0.0072446503 0
-0.019645946 -0.13381381 0.0032302774 0
-0.017822783 -0.13278268 0.0072446503 0
-0.015911639 -0.13278268 0.0072446503 2.8025969e-45
-0.013891397 -0.13381381 0.0032302774 9.1835496e-41
-0.011973213 -0.13381381 0.0032302774 2.7550649e-40
-0.010055032 -0.13381381 0.0032302774 3.6734198e-40
-0.0081368461 -0.13381381 0.0032302774 3.6734198e-40
-0.0062186643 -0.13381381 0.0032302774 2.7550649e-40
-0.0044447705 -0.13278268 0.0072446503 3.6734339e-40
-0.0025336258 -0.13278268 0.0072446503 3.6806646e-40
-0.0007381849 -0.13202934 0.010177556 2.7587363e-40
0.0011678189 -0.13202934 0.010177556 2.7587363e-40
0.0029435046 -0.1312501 0.013211194 3.6806926e-40
0.0048441887 -0.1312501 0.013211194 9.1835496e-41
0.0067448728 -0.1312501 0.013211194 3.6734198e-40
0.0084555075 -0.13023765 0.01715273 3.6734198e-40
0.010349281 -0.13023765 0.01715273 5.5101298e-40
0.012243051 -0.13023765 0.01715273 2.0257689e-39
0.014136825 -0.13023765 0.01715273 7.9259277e-39
0.016030598 -0.13023765 0.01715273 1.631573e-38
0.017924368 -0.13023765 0.01715273 1.9451825e-38
0.01964223 -0.1294684 0.020147625 2.3508795e-38
0.021530751 -0.1294684 0.020147625 2.3416603e-38
0.023419272 -0.1294684 0.020147625 2.3508801e-38
0.025307793 -0.1294684 0.020147625 2.3324052e-38
0.027196314 -0.1294684 0.020147625 2.3509524e-38
0.029084835 -0.1294684 0.020147625 2.3509167e-38
0.030695964 -0.12843956 0.024152938 2.3324055e-38
0.032150771 -0.1268961 0.030161802 2.3509527e-38
0.034021739 -0.1268961 0.030161802 2.175745e-38
0.036111731 -0.12765111 0.027222458 1.9268524e-38
0.037987847 -0.12765111 0.027222458 7.74407e-39
0.048407584 -0.13664238 -0.0077816807 8.0210198e-39
0.050345063 -0.13664238 -0.0077816807 8.2086649e-39
0.052282557 -0.13664238 -0.0077816807 1.6967614e-38
0.054488406 -0.13742088 -0.010812458 1.8256191e-38
0.056794778 -0.13845511 -0.014838751 1.7977796e-38
-0.068632647 -0.14791109 -0.043862876 9.1241304e-39
-0.066569671 -0.14711304 -0.040777024 8.8493049e-39
-0.064574331 -0.14711304 -0.040777024 9.5868699e-39
-0.062578991 -0.14711304 -0.040777024 1.0230475e-38
-0.060583647 -0.14711304 -0.040777024 7.9259403e-39
-0.058628883 -0.14791109 -0.043862876 7.6511106e-39
-0.05662813 -0.14791109 -0.043862876 1.2906262e-38
-0.05459762 -0.14711304 -0.040777024 1.2627917e-38
-0.052602276 -0.14711304 -0.040777024 1.0506712e-38
-0.050582625 -0.14608859 -0.036815818 1.1245332e-38
-0.048594229 -0.14608859 -0.036815818 1.2444232e-38
-0.046605833 -0.14608859 -0.036815818 1.1152434e-38
-0.044613875 -0.14503856 -0.03275555 6.9121611e-39
-0.042636022 -0.14402847 -0.028849896 6.1767443e-39
-0.040669493 -0.14325126 -0.02584463 4.6132988e-40
-0.038700335 -0.14325126 -0.02584463 3.5873241e-43
-0.034967031 -0.13653107 0.00014049187 5.5352691e-40
-0.033043433 -0.13653107 0.00014049187 3.5873241e-43
-0.031155044 -0.13573201 0.0032302774 3.5873241e-43
-0.029236861 -0.13573201 0.0032302774 0
-0.027378505 -0.13469382 0.0072446503 1.8438846e-40
-0.02546736 -0.13469382 0.0072446503 9.2194229e-41
-0.023556216 -0.13469382 0.0072446503 0
-0.021645073 -0.13469382 0.0072446503 0
-0.019645946 -0.13573201 0.0032302774 9.219563e-41
-0.017822783 -0.13469382 0.0072446503 1.8439126e-40
-0.015911639 -0.13469382 0.0072446503 9.2198432e-41
-0.013891397 -0.13573201 0.0032302774 9.1835496e-41
-0.011973213 -0.13573201 0.0032302774 8.2831873e-40
-0.010055032 -0.13573201 0.0032302774 5.5173184e-40
-0.0081368461 -0.13573201 0.0032302774 2.7550649e-40
-0.0062186643 -0.13573201 0.0032302774 9.1835496e-41
-0.0044447705 -0.13469382 0.0072446503 9.1838299e-41
-0.002644185 -0.13393532 0.010177556 9.1838299e-41
-0.0007381849 -0.13393532 0.010177556 9.1841101e-41
0.0011678189 -0.13393532 0.010177556 9.1841101e-41
0.0029435046 -0.13315077 0.013211194 2.7587083e-40
0.0048441887 -0.13315077 0.013211194 2.7550649e-40
0.0067448728 -0.13315077 0.013211194 7.3540424e-40
0.0084555075 -0.13213144 0.01715273 1.1956579e-39
0.010349281 -0.13213144 0.01715273 5.5101298e-40
0.012243051 -0.13213144 0.01715273 1.564432e-39
0.014136825 -0.13213144 0.01715273 7.3720322e-39
0.016030598 -0.13213144 0.01715273 1.5485969e-38
0.017924368 -0.13213144 0.01715273 1.8067811e-38
0.01964223 -0.13135691 0.020147625 2.3509876e-38
0.021530751 -0.13135691 0.020147625 2.3509879e-38
0.023419272 -0.13135691 0.020147625 2.3509879e-38
0.025307793 -0.13135691 0.020147625 2.332405e-38
0.027196314 -0.13135691 0.020147625 2.3509524e-38
0.029084835 -0.13135691 0.020147625 2.3509527e-38
0.030695964 -0.13032107 0.024152938 2.3509527e-38
0.032150771 -0.12876706 0.030161802 2.3509527e-38
0.034021739 -0.12876706 0.030161802 2.0005733e-38
0.036111731 -0.12952723 0.027222458 1.6502655e-38
0.037987847 -0.12952723 0.027222458 7.4674831e-39
0.050345063 -0.13857989 -0.0077816807 8.485249e-39
0.052282557 -0.13857989 -0.0077816807 1.9179587e-38
0.054488406 -0.13936369 -0.010812458 2.0560716e-38
-0.066569671 -0.14910837 -0.040777024 8.3886981e-39
-0.064501405 -0.148077 -0.036815818 8.0199128e-39
-0.062513009 -0.148077 -0.036815818 7.5578865e-39
-0.060524613 -0.148077 -0.036815818 5.3451885e-39
-0.058588304 -0.14910837 -0.040777024 6.3607432e-39
-0.056592964 -0.14910837 -0.040777024 1.1431503e-38
-0.054627378 -0.14991184 -0.043862876 1.1706687e-38
-0.052602276 -0.14910837 -0.040777024 8.5713279e-39
-0.050606936 -0.14910837 -0.040777024 7.5582326e-39
-0.048611593 -0.14910837 -0.040777024 8.3879932e-39
-0.046616249 -0.14910837 -0.040777024 9.1248562e-39
-0.044617433 -0.148077 -0.036815818 8.4798512e-39
-0.042636022 -0.1460029 -0.028849896 5.1622392e-39
-0.040661588 -0.1460029 -0.028849896 4.6097535e-40
-0.031155044 -0.13765021 0.0032302774 2.7658409e-40
-0.029236861 -0.13765021 0.0032302774 5.5317378e-40
-0.027378505 -0.13660498 0.0072446503 0
-0.02546736 -0.13660498 0.0072446503 0
-0.023556216 -0.13660498 0.0072446503 0
-0.021645073 -0.13660498 0.0072446503 0
-0.019645946 -0.13765021 0.0032302774 0
-0.017727762 -0.13765021 0.0032302774 9.219563e-41
-0.015809579 -0.13765021 0.0032302774 9.219563e-41
-0.013891397 -0.13765021 0.0032302774 0
-0.011973213 -0.13765021 0.0032302774 1.8367239e-40
-0.010055032 -0.13765021 0.0032302774 9.1835496e-41
-0.0081368461 -0.13765021 0.0032302774 9.1835496e-41
-0.0062186643 -0.13765021 0.0032302774 9.1838299e-41
-0.0044447705 -0.13660498 0.0072446503 1.836752e-40
-0.002644185 -0.13584132 0.010177556 9.1842503e-41
-0.00085785985 -0.13505147 0.013211194 9.1841101e-41
0.0010428205 -0.13505147 0.013211194 9.1841101e-41
0.0029435046 -0.13505147 0.013211194 4.5918309e-40
0.0046679638 -0.1340252 0.01715273 2.7550649e-40
0.0065617338 -0.1340252 0.01715273 1.0123471e-39
0.0084555075 -0.1340252 0.01715273 7.350427e-40
0.010349281 -0.1340252 0.01715273 6.4284847e-40
0.012243051 -0.1340252 0.01715273 2.6700579e-39
0.014136825 -0.1340252 0.01715273 6.7259426e-39
0.016030598 -0.1340252 0.01715273 1.0967662e-38
0.017924368 -0.1340252 0.01715273 1.5670003e-38
0.01964223 -0.13324542 0.020147625 2.3509513e-38
0.021530751 -0.13324542 0.020147625 2.3509517e-38
0.023419272 -0.13324542 0.020147625 2.350952e-38
0.025307793 -0.13324542 0.020147625 2.3323689e-38
0.027196314 -0.13324542 0.020147625 2.3415885e-38
0.029084835 -0.13324542 0.020147625 2.3508805e-38
0.030483384 -0.13140334 0.027222458 2.3324052e-38
0.032359499 -0.13140334 0.027222458 2.3416251e-38
0.034235615 -0.13140334 0.027222458 1.8437687e-38
0.036340464 -0.13220255 0.024152938 1.4105213e-38
0.038221959 -0.13220255 0.024152938 7.8359097e-39
-0.06244538 -0.14900111 -0.03275555 8.2950956e-39
-0.060464099 -0.14900111 -0.03275555 6.7284859e-39
-0.042636022 -0.14797734 -0.028849896 3.8715032e-39
-0.040661588 -0.14797734 -0.028849896 3.6878252e-40
-0.031155044 -0.13956837 0.0032302774 4.6097815e-40
-0.029236861 -0.13956837 0.0032302774 1.8439126e-39
-0.027378505 -0.13851611 0.0072446503 3.6878252e-40
-0.025516214 -0.13774733 0.010177556 1.8439126e-40
-0.023610212 -0.13774733 0.010177556 0
-0.021645073 -0.13851611 0.0072446503 0
-0.019645946 -0.13956837 0.0032302774 0
-0.017727762 -0.13956837 0.0032302774 0
-0.015809579 -0.13956837 0.0032302774 0
-0.013891397 -0.13956837 0.0032302774 0
-0.011973213 -0.13956837 0.0032302774 9.1835496e-41
-0.010055032 -0.13956837 0.0032302774 9.1835496e-41
-0.0081368461 -0.13956837 0.0032302774 9.1838299e-41
-0.0063559152 -0.13851611 0.0072446503 3.6806646e-40
-0.004659228 -0.13695215 0.013211194 4.6062502e-40
-0.0027585439 -0.13695215 0.013211194 3.6842939e-40
-0.00085785985 -0.13695215 0.013211194 1.83678e-40
0.0010428205 -0.13695215 0.013211194 9.1838299e-41
0.0029435046 -0.13695215 0.013211194 6.4393028e-40
0.0046679638 -0.13591899 0.01715273 4.5917748e-40
0.0065617338 -0.13591899 0.01715273 9.1907243e-40
0.0084555075 -0.13591899 0.01715273 6.4284847e-40
0.010349281 -0.13591899 0.01715273 1.6559088e-39
0.012243051 -0.13591899 0.01715273 6.35716e-39
0.014136825 -0.13591899 0.01715273 7.5549844e-39
0.016030598 -0.13591899 0.01715273 6.2649644e-39
0.017924368 -0.13591899 0.01715273 1.2166569e-38
0.01964223 -0.13513394 0.020147625 2.2032223e-38
0.021530751 -0.13513394 0.020147625 2.323149e-38
0.023419272 -0.13513394 0.020147625 2.3509517e-38
0.025307793 -0.13513394 0.020147625 2.350952e-38
0.027196314 -0.13513394 0.020147625 2.3509161e-38
0.02860726 -0.13327946 0.027222458 2.3509521e-38
0.030483384 -0.13327946 0.027222458 2.3508805e-38
0.032150771 -0.13250901 0.030161802 2.3509167e-38
0.034021739 -0.13250901 0.030161802 1.7700122e-38
0.036111731 -0.13327946 0.027222458 1.2537887e-38
0.037987847 -0.13327946 0.027222458 8.4819979e-39
-0.025516214 -0.13965334 0.010177556 5.5245772e-40
-0.023610212 -0.13965334 0.010177556 2.7586802e-40
-0.021645073 -0.14042725 0.0072446503 9.1835496e-41
-0.019645946 -0.14148657 0.0032302774 9.1835496e-41
-0.017727762 -0.14148657 0.0032302774 1.8367239e-40
-0.015809579 -0.14148657 0.0032302774 9.1835496e-41
-0.013891397 -0.14148657 0.0032302774 9.1835496e-41
-0.012089349 -0.14042725 0.0072446503 4.6098095e-40
-0.010178205 -0.14042725 0.0072446503 1.8439406e-40
-0.0082670599 -0.14042725 0.0072446503 5.6051939e-45
-0.0064561926 -0.13965334 0.010177556 5.6051939e-45
-0.004659228 -0.13885282 0.013211194 1.8403813e-40
-0.0027585439 -0.13885282 0.013211194 3.6842939e-40
-0.00085785985 -0.13885282 0.013211194 6.4465335e-40
0.00088041648 -0.13781275 0.01715273 7.3684898e-40
0.0027741902 -0.13781275 0.01715273 2.211256e-39
0.0046679638 -0.13781275 0.01715273 5.5137171e-40
0.0065617338 -0.13781275 0.01715273 5.5101298e-40
0.0084555075 -0.13781275 0.01715273 6.4284847e-40
0.010349281 -0.13781275 0.01715273 4.1441104e-39
0.012243051 -0.13781275 0.01715273 9.6754838e-39
0.014136825 -0.13781275 0.01715273 9.8587961e-39
0.016030598 -0.13781275 0.01715273 6.6330281e-39
0.017753709 -0.13702248 0.020147625 9.6776447e-39
0.01964223 -0.13702248 0.020147625 1.9819525e-38
0.021530751 -0.13702248 0.020147625 2.0925876e-38
0.023419272 -0.13702248 0.020147625 2.2677596e-38
0.025307793 -0.13702248 0.020147625 2.3508797e-38
0.027196314 -0.13702248 0.020147625 2.3508801e-38
0.02860726 -0.13515557 0.027222458 2.3509163e-38
0.030483384 -0.13515557 0.027222458 2.3509521e-38
0.032150771 -0.13437997 0.030161802 2.3416248e-38
0.034021739 -0.13437997 0.030161802 1.6501576e-38
0.036111731 -0.13515557 0.027222458 1.078617e-38
0.037987847 -0.13515557 0.027222458 8.8507805e-39
-0.019578228 -0.14422549 0.00014049187 9.1835496e-41
-0.017727762 -0.14340474 0.0032302774 9.1835496e-41
-0.015809579 -0.14340474 0.0032302774 9.1835496e-41
-0.013891397 -0.14340474 0.0032302774 9.1835496e-41
-0.012089349 -0.14233841 0.0072446503 9.2198432e-41
-0.010178205 -0.14233841 0.0072446503 2.8025969e-45
-0.0082670599 -0.14233841 0.0072446503 5.6051939e-45
-0.0065599121 -0.14075352 0.013211194 2.7623376e-40
-0.0048009008 -0.13970654 0.01715273 1.8435595e-39
-0.0029071271 -0.13970654 0.01715273 3.9644149e-39
-0.0010133535 -0.13970654 0.01715273 6.0841955e-39
0.00088041648 -0.13970654 0.01715273 7.2827359e-39
0.0027741902 -0.13970654 0.01715273 5.8061639e-39
0.0046679638 -0.13970654 0.01715273 1.6566375e-39
0.0065617338 -0.13970654 0.01715273 6.4284847e-40
0.0084555075 -0.13970654 0.01715273 9.1835496e-40
0.010349281 -0.13970654 0.01715273 3.5909366e-39
0.012243051 -0.13970654 0.01715273 6.9096178e-39
0.014136825 -0.13970654 0.01715273 6.8159802e-39
0.016030598 -0.13970654 0.01715273 4.6047242e-39
0.017753709 -0.13891099 0.020147625 7.2802009e-39
0.01964223 -0.13891099 0.020147625 1.6684874e-38
0.021530751 -0.13891099 0.020147625 1.6777072e-38
0.023419272 -0.13891099 0.020147625 1.8620985e-38
0.025307793 -0.13891099 0.020147625 2.0372705e-38
0.027196314 -0.13891099 0.020147625 2.0741487e-38
0.02860726 -0.13703169 0.027222458 2.1755283e-38
0.030483384 -0.13703169 0.027222458 2.1478698e-38
0.032359499 -0.13703169 0.027222458 2.1940399e-38
0.034235615 -0.13703169 0.027222458 1.4565468e-38
0.036340464 -0.13784705 0.024152938 8.8500616e-39
0.038221959 -0.13784705 0.024152938 8.7585848e-39
0.040103465 -0.13784705 0.024152938 9.2199259e-39
-0.019491728 -0.14720438 -0.0038062893 1.8367239e-40
-0.017727762 -0.14532293 0.0032302774 2.7586802e-40
-0.015809579 -0.14532293 0.0032302774 9.1835496e-41
-0.013891397 -0.14532293 0.0032302774 9.1835496e-41
-0.012089349 -0.14424954 0.0072446503 9.1838299e-41
-0.010178205 -0.14424954 0.0072446503 7.3684898e-40
-0.0084605962 -0.1426542 0.013211194 2.8025969e-45
-0.0065599121 -0.1426542 0.013211194 4.6098095e-40
-0.0048009008 -0.1416003 0.01715273 1.1063504e-39
-0.0029071271 -0.1416003 0.01715273 6.914675e-39
-0.0010133535 -0.1416003 0.01715273 6.6373693e-39
0.00088041648 -0.1416003 0.01715273 6.9139534e-39
0.0027741902 -0.1416003 0.01715273 6.3593377e-39
0.0046679638 -0.1416003 0.01715273 8.268782e-40
0.0065617338 -0.1416003 0.01715273 6.4284847e-40
0.0084555075 -0.1416003 0.01715273 2.024334e-39
0.010349281 -0.1416003 0.01715273 4.1441104e-39
0.012243051 -0.1416003 0.01715273 6.4486396e-39
0.014136825 -0.1416003 0.01715273 6.7234286e-39
0.016030598 -0.1416003 0.01715273 5.342292e-39
0.017753709 -0.14079951 0.020147625 7.2802009e-39
0.01964223 -0.14079951 0.020147625 1.4473261e-38
0.021530751 -0.14079951 0.020147625 1.6500486e-38
0.023419272 -0.14079951 0.020147625 1.6961464e-38
0.025307793 -0.14079951 0.020147625 1.7698313e-38
0.027196314 -0.14079951 0.020147625 1.9634421e-38
0.028814469 -0.13972856 0.024152938 2.0002848e-38
0.030695964 -0.13972856 0.024152938 2.0280153e-38
0.032577466 -0.13972856 0.024152938 1.9267082e-38
0.034458961 -0.13972856 0.024152938 1.3274729e-38
0.036340464 -0.13972856 0.024152938 1.01408e-38
0.038221959 -0.13972856 0.024152938 7.9288242e-39
0.040103465 -0.13972856 0.024152938 9.2199259e-39
0.042304486 -0.14079951 0.020147625 1.1618091e-38
0.044193015 -0.14079951 0.020147625 9.3135635e-39
-0.015809579 -0.1472411 0.0032302774 9.1835496e-41
-0.013891397 -0.1472411 0.0032302774 9.1835496e-41
-0.012089349 -0.14616071 0.0072446503 5.5245772e-40
-0.010178205 -0.14616071 0.0072446503 8.2904461e-40
-0.0084605962 -0.14455487 0.013211194 9.1838299e-41
-0.0065599121 -0.14455487 0.013211194 2.8025969e-45
-0.004659228 -0.14455487 0.013211194 9.2124024e-40
-0.0027585439 -0.14455487 0.013211194 7.0983446e-39
-0.00085785985 -0.14455487 0.013211194 6.7295621e-39
0.0010428205 -0.14455487 0.013211194 6.728839e-39
0.0029435046 -0.14455487 0.013211194 4.8842076e-39
0.0048441887 -0.14455487 0.013211194 5.5101298e-40
0.0067448728 -0.14455487 0.013211194 6.4284847e-40
0.0084555075 -0.14349405 0.01715273 2.6697062e-39
0.010349281 -0.14349405 0.01715273 4.5128957e-39
0.012243051 -0.14349405 0.01715273 6.263891e-39
0.014136825 -0.14349405 0.01715273 6.0787795e-39
0.016030598 -0.14349405 0.01715273 4.8809566e-39
0.017753709 -0.14268802 0.020147625 7.5575095e-39
0.01964223 -0.14268802 0.020147625 1.4473261e-38
0.021530751 -0.14268802 0.020147625 1.5763644e-38
0.023419272 -0.14268802 0.020147625 1.5855119e-38
0.025307793 -0.14268802 0.020147625 1.5762923e-38
0.027196314 -0.14268802 0.020147625 1.7237335e-38
0.028814469 -0.14161004 0.024152938 1.7052587e-38
0.030695964 -0.14161004 0.024152938 1.7144783e-38
0.032577466 -0.14161004 0.024152938 1.7698677e-38
0.034458961 -0.14161004 0.024152938 1.1891431e-38
0.036638927 -0.14268802 0.020147625 9.4947079e-39
