# .PCD v0.7 - Point Cloud Data file format
VERSION 0.7
FIELDS x y z rgb
SIZE 4 4 4 4
TYPE F F F F
COUNT 1 1 1 1
WIDTH 938
HEIGHT 1
VIEWPOINT 0 0 0 1 0 0 0
POINTS 938
DATA ascii
-0.03789296 -0.12230973 -0.044129778 2.350988e-38
-0.03591853 -0.12230973 -0.044129778 2.3509879e-38
-0.033936195 -0.12159048 -0.041124512 2.3509879e-38
-0.031963542 -0.12063743 -0.037142325 1.8713535e-38
-0.030001365 -0.12063743 -0.037142325 1.8800672e-38
-0.028049905 -0.11966167 -0.033065248 2.3501919e-38
-0.026094876 -0.11966167 -0.033065248 2.3508399e-38
0.0099965977 -0.11296929 -0.0051023262 8.5705782e-39
0.011902598 -0.11296929 -0.0051023262 8.6627991e-39
0.013808602 -0.11296929 -0.0051023262 6.1749604e-39
0.015714601 -0.11296929 -0.0051023262 2.6736705e-39
0.01748497 -0.11224325 -0.0020686882 9.2374716e-40
0.019202515 -0.11129995 0.0018728478 2.676183e-39
-0.051933549 -0.12715961 -0.056056906 1.2631515e-38
-0.049938209 -0.12715961 -0.056056906 1.7885949e-38
-0.047942866 -0.12715961 -0.056056906 2.3509883e-38
-0.045947522 -0.12715961 -0.056056906 2.3233296e-38
-0.043907035 -0.12620462 -0.0520957 2.3509883e-38
-0.041879483 -0.12522577 -0.048035432 2.3509523e-38
-0.039843678 -0.12355967 -0.041124512 2.2956346e-38
-0.037874516 -0.12355967 -0.041124512 2.3325127e-38
-0.03591853 -0.12428416 -0.044129778 2.3509876e-38
-0.033936195 -0.12355967 -0.041124512 2.166488e-38
-0.031963542 -0.12259962 -0.037142325 1.2259473e-38
-0.030001365 -0.12259962 -0.037142325 1.4282716e-38
-0.028049905 -0.12161671 -0.033065248 1.8614458e-38
-0.026094876 -0.12161671 -0.033065248 2.1197014e-38
0.0080905939 -0.1148753 -0.0051023262 1.1705597e-38
0.0099965977 -0.1148753 -0.0051023262 2.2492485e-38
0.011902598 -0.1148753 -0.0051023262 2.0557116e-38
0.013808602 -0.1148753 -0.0051023262 1.3459494e-38
0.015714601 -0.1148753 -0.0051023262 1.0603213e-38
0.01748497 -0.11414395 -0.0020686882 2.6761844e-39
0.019202515 -0.11319371 0.0018728478 4.981801e-39
0.021096289 -0.11319371 0.0018728478 1.539991e-38
-0.053991117 -0.12990431 -0.059142757 9.4035871e-39
-0.05199036 -0.12990431 -0.059142757 1.6134587e-38
-0.049938209 -0.12915494 -0.056056906 2.0467064e-38
-0.047942866 -0.12915494 -0.056056906 2.286415e-38
-0.045947522 -0.12915494 -0.056056906 2.350988e-38
-0.043907035 -0.12819304 -0.0520957 2.350988e-38
-0.041879483 -0.12720706 -0.048035432 2.3140016e-38
-0.039843678 -0.12552883 -0.041124512 2.3509876e-38
-0.037874516 -0.12552883 -0.041124512 2.3509873e-38
-0.03591853 -0.1262586 -0.044129778 2.3509869e-38
-0.033936195 -0.12552883 -0.041124512 2.0004994e-38
-0.031963542 -0.1245618 -0.037142325 1.2536058e-38
-0.030004937 -0.12357174 -0.033065248 1.5575616e-38
-0.028049905 -0.12357174 -0.033065248 1.907796e-38
-0.026094876 -0.12357174 -0.033065248 2.0369772e-38
-0.024182636 -0.12187846 -0.026092339 1.3732058e-38
-0.022263743 -0.12114246 -0.023061562 1.3362583e-38
-0.020326253 -0.12114246 -0.023061562 1.7050055e-38
0.0021585645 -0.11508749 0.0018728478 5.3459046e-39
0.0040523382 -0.11508749 0.0018728478 6.451885e-39
0.0058437148 -0.1143602 0.0048677428 8.386917e-39
0.0077322358 -0.1143602 0.0048677428 1.2718689e-38
0.0097336555 -0.11508749 0.0018728478 2.3508451e-38
0.011902598 -0.11678131 -0.0051023262 2.3509521e-38
0.013808602 -0.11678131 -0.0051023262 2.3049259e-38
0.015714601 -0.11678131 -0.0051023262 9.2210049e-39
0.01748497 -0.11604463 -0.0020686882 2.7676738e-39
0.019202515 -0.11508749 0.0018728478 4.9814479e-39
0.021096289 -0.11508749 0.0018728478 1.0236955e-38
0.023187019 -0.11604463 -0.0020686882 1.1894678e-38
0.025087703 -0.11604463 -0.0020686882 1.3553121e-38
-0.053991117 -0.13190506 -0.059142757 1.032482e-38
-0.05199036 -0.13190506 -0.059142757 1.862315e-38
-0.049938209 -0.13115029 -0.056056906 2.1664528e-38
-0.047942866 -0.13115029 -0.056056906 2.1572333e-38
-0.045895435 -0.13018142 -0.0520957 2.0650376e-38
-0.043907035 -0.13018142 -0.0520957 1.9636582e-38
-0.041879483 -0.12918831 -0.048035432 1.963586e-38
-0.03986739 -0.12823303 -0.044129778 2.2402082e-38
-0.037874516 -0.12749799 -0.041124512 2.2309885e-38
-0.035905354 -0.12749799 -0.041124512 1.5672153e-38
-0.033936195 -0.12749799 -0.041124512 1.355093e-38
-0.031963542 -0.12652399 -0.037142325 1.2259824e-38
-0.030004937 -0.12552677 -0.033065248 1.364095e-38
-0.028049905 -0.12552677 -0.033065248 1.3916809e-38
-0.026107792 -0.12480606 -0.030118633 1.4563611e-38
-0.024201235 -0.12307997 -0.023061562 1.4102644e-38
-0.022263743 -0.12307997 -0.023061562 1.7881248e-38
-0.020326253 -0.12307997 -0.023061562 1.9908476e-38
-0.0015218621 -0.11794533 -0.0020686882 1.603953e-38
0.0002647927 -0.11698125 0.0018728478 9.3099664e-39
0.0021585645 -0.11698125 0.0018728478 4.9771193e-39
0.0040523382 -0.11698125 0.0018728478 5.2540495e-39
0.0058437148 -0.11624874 0.0048677428 7.4653111e-39
0.0077322358 -0.11624874 0.0048677428 1.46548e-38
0.0097336555 -0.11698125 0.0018728478 2.3508451e-38
0.011627429 -0.11698125 0.0018728478 2.2494643e-38
0.013521199 -0.11698125 0.0018728478 2.350987e-38
0.015414973 -0.11698125 0.0018728478 2.2220942e-38
0.017308746 -0.11698125 0.0018728478 3.6907091e-39
0.019202515 -0.11698125 0.0018728478 3.5992337e-39
0.021096289 -0.11698125 0.0018728478 8.0239037e-39
0.023187019 -0.11794533 -0.0020686882 4.7963279e-39
0.025087703 -0.11794533 -0.0020686882 2.9509762e-39
-0.053928893 -0.13314565 -0.056056906 1.078508e-38
-0.051933549 -0.13314565 -0.056056906 1.8530231e-38
-0.049938209 -0.13314565 -0.056056906 2.074221e-38
-0.047883831 -0.13216983 -0.0520957 2.0189037e-38
-0.04584204 -0.1311696 -0.048035432 2.0281232e-38
-0.043860763 -0.1311696 -0.048035432 1.7607556e-38
-0.04184182 -0.13020746 -0.044129778 1.9450743e-38
-0.039843678 -0.12946714 -0.041124512 2.2032575e-38
-0.037874516 -0.12946714 -0.041124512 2.1295363e-38
-0.035905354 -0.12946714 -0.041124512 8.4801693e-39
-0.03392572 -0.12848614 -0.037142325 7.6500428e-39
-0.03195997 -0.1274818 -0.033065248 1.0047126e-38
-0.030004937 -0.1274818 -0.033065248 9.8630897e-39
-0.028057657 -0.12675591 -0.030118633 1.106163e-38
-0.026125442 -0.12576406 -0.026092339 1.1707353e-38
-0.02422563 -0.12403814 -0.019086171 1.576361e-38
-0.02232625 -0.12306587 -0.015139391 2.0832594e-38
-0.020402649 -0.12306587 -0.015139391 2.1753111e-38
-0.0035227528 -0.11887501 0.0018728478 1.5022493e-38
-0.0016289791 -0.11887501 0.0018728478 1.6776016e-38
0.0001781499 -0.11813726 0.0048677428 1.2260577e-38
0.0020666728 -0.11813726 0.0048677428 5.2540579e-39
0.0039551938 -0.11813726 0.0048677428 4.9774598e-39
0.0058437148 -0.11813726 0.0048677428 6.9135708e-39
0.0077322358 -0.11813726 0.0048677428 1.4379634e-38
0.0096207568 -0.11813726 0.0048677428 2.3509165e-38
0.011509278 -0.11813726 0.0048677428 2.2771953e-38
0.013397799 -0.11813726 0.0048677428 2.2496801e-38
0.015286324 -0.11813726 0.0048677428 2.3050691e-38
0.017308746 -0.11887501 0.0018728478 7.379958e-39
0.019202515 -0.11887501 0.0018728478 3.5988778e-39
0.021096289 -0.11887501 0.0018728478 4.2442472e-39
0.022990063 -0.11887501 0.0018728478 5.903386e-39
0.024883833 -0.11887501 0.0018728478 4.6108465e-39
-0.053928893 -0.13514097 -0.056056906 1.1153862e-38
-0.051933549 -0.13514097 -0.056056906 1.7330969e-38
-0.049872227 -0.13415821 -0.0520957 1.9174885e-38
-0.047823317 -0.13315089 -0.048035432 1.9542944e-38
-0.04584204 -0.13315089 -0.048035432 1.9266357e-38
-0.04381625 -0.1321819 -0.044129778 1.5855113e-38
-0.041812841 -0.1314363 -0.041124512 1.7330601e-38
-0.039843678 -0.1314363 -0.041124512 1.8067797e-38
-0.037874516 -0.1314363 -0.041124512 1.7607174e-38
-0.035887901 -0.13044833 -0.037142325 4.6997799e-39
-0.033914998 -0.12943684 -0.033065248 5.4377009e-39
-0.031957384 -0.12870578 -0.030118633 7.7425902e-39
-0.03001105 -0.12770687 -0.026092339 9.4021115e-39
-0.028068244 -0.12770687 -0.026092339 1.1338217e-38
-0.026138727 -0.12695493 -0.023061562 1.2445281e-38
-0.02422563 -0.12596865 -0.019086171 1.7423131e-38
-0.0223823 -0.12322696 -0.0080352323 1.8712095e-38
-0.020471158 -0.12322696 -0.0080352323 1.6404686e-38
-0.0035227528 -0.1207688 0.0018728478 1.6867495e-38
-0.0016289791 -0.1207688 0.0018728478 1.7791615e-38
0.0001781499 -0.12002577 0.0048677428 8.3894352e-39
0.0020666728 -0.12002577 0.0048677428 3.6881629e-39
0.0039551938 -0.12002577 0.0048677428 6.2681986e-39
0.0058437148 -0.12002577 0.0048677428 5.9916117e-39
0.0077322358 -0.12002577 0.0048677428 9.8627548e-39
0.0094697708 -0.11903207 0.0088730557 2.2678669e-38
0.01135127 -0.11903207 0.0088730557 2.3509876e-38
0.013232769 -0.11903207 0.0088730557 2.1021671e-38
0.015114267 -0.11903207 0.0088730557 1.8166477e-38
0.017174844 -0.12002577 0.0048677428 5.720787e-39
0.019063365 -0.12002577 0.0048677428 4.9828828e-39
0.020951886 -0.12002577 0.0048677428 6.1807099e-39
0.022990063 -0.1207688 0.0018728478 3.9672777e-39
0.024883833 -0.1207688 0.0018728478 2.3059557e-39
-0.053991117 -0.13790731 -0.059142757 1.2443881e-38
-0.051933549 -0.13713633 -0.056056906 1.6777075e-38
-0.049872227 -0.13614662 -0.0520957 1.816001e-38
-0.047823317 -0.13513215 -0.048035432 1.880466e-38
-0.04579068 -0.13415633 -0.044129778 1.7790506e-38
-0.043781999 -0.13340546 -0.041124512 1.4656209e-38
-0.041812841 -0.13340546 -0.041124512 1.5393771e-38
-0.039812259 -0.13241051 -0.037142325 1.5854741e-38
-0.037850078 -0.13241051 -0.037142325 1.5301561e-38
-0.035870031 -0.13139187 -0.033065248 5.7135689e-39
-0.03390725 -0.13065563 -0.030118633 7.4652844e-39
-0.031953856 -0.12964968 -0.026092339 8.8485748e-39
-0.03001105 -0.12964968 -0.026092339 1.1891031e-38
-0.028076217 -0.12889244 -0.023061562 1.0415898e-38
-0.02615615 -0.12789918 -0.019086171 1.262859e-38
-0.024268812 -0.12614109 -0.012049605 1.8528037e-38
-0.0223823 -0.12513812 -0.0080352323 1.751211e-38
-0.020471158 -0.12513812 -0.0080352323 1.2807974e-38
-0.0054165246 -0.12266256 0.0018728478 1.1520135e-38
-0.0035227528 -0.12266256 0.0018728478 1.2813787e-38
-0.0016289791 -0.12266256 0.0018728478 1.03263e-38
0.0001781499 -0.12191428 0.0048677428 6.1778121e-39
0.0020666728 -0.12191428 0.0048677428 8.9436655e-39
0.0039551938 -0.12191428 0.0048677428 1.2353113e-38
0.0058437148 -0.12191428 0.0048677428 8.1121112e-39
0.0077322358 -0.12191428 0.0048677428 9.2188133e-39
0.0094697708 -0.12091358 0.0088730557 1.9452888e-38
0.011114218 -0.11941226 0.014881919 2.0745073e-38
0.012985182 -0.11941226 0.014881919 1.3923681e-38
0.015114267 -0.12091358 0.0088730557 5.8122665e-39
0.017174844 -0.12191428 0.0048677428 7.1033655e-39
0.019063365 -0.12191428 0.0048677428 6.8274947e-39
0.020951886 -0.12191428 0.0048677428 3.7843228e-39
0.022840407 -0.12191428 0.0048677428 3.5977848e-39
0.024883833 -0.12266256 0.0018728478 4.8870844e-39
0.026777606 -0.12266256 0.0018728478 5.8079589e-39
0.028889071 -0.12364738 -0.0020686882 4.7945245e-39
-0.053928893 -0.13913165 -0.056056906 1.170631e-38
-0.051933549 -0.13913165 -0.056056906 1.4840961e-38
-0.049872227 -0.138135 -0.0520957 1.5578529e-38
-0.047823317 -0.13711344 -0.048035432 1.5855116e-38
-0.04579068 -0.13613077 -0.044129778 1.5855119e-38
-0.043781999 -0.13537462 -0.041124512 1.3734617e-38
-0.041774437 -0.1343727 -0.037142325 1.4748047e-38
-0.039812259 -0.1343727 -0.037142325 1.6407923e-38
-0.037825059 -0.13334687 -0.033065248 1.484095e-38
-0.035857115 -0.13260551 -0.030118633 6.7280893e-39
-0.033896659 -0.13159247 -0.026092339 7.7422357e-39
-0.031951196 -0.13082992 -0.023061562 8.7560247e-39
-0.030013707 -0.13082992 -0.023061562 1.0507744e-38
-0.028086673 -0.12982969 -0.019086171 1.0784327e-38
-0.02615615 -0.12982969 -0.019086171 1.0968348e-38
-0.024268812 -0.12805928 -0.012049605 8.0170135e-39
-0.0223823 -0.12704925 -0.0080352323 9.029027e-39
-0.020471158 -0.12704925 -0.0080352323 1.5941903e-38
-0.0054165246 -0.12455635 0.0018728478 1.4472923e-38
-0.0035227528 -0.12455635 0.0018728478 1.5858404e-38
-0.0016289791 -0.12455635 0.0018728478 1.4384346e-38
0.0001781499 -0.12380283 0.0048677428 1.4291388e-38
0.0020666728 -0.12380283 0.0048677428 2.3509859e-38
0.0039551938 -0.12380283 0.0048677428 2.3509866e-38
0.0058437148 -0.12380283 0.0048677428 1.1246763e-38
0.007588272 -0.12279506 0.0088730557 6.9139169e-39
0.0092432583 -0.12128322 0.014881919 9.4961134e-39
0.011114218 -0.12128322 0.014881919 8.2061019e-39
0.012985182 -0.12128322 0.014881919 5.7175486e-39
0.014856146 -0.12128322 0.014881919 7.2856015e-39
0.016995765 -0.12279506 0.0088730557 1.0420972e-38
0.019063365 -0.12380283 0.0048677428 1.5585355e-38
0.020951886 -0.12380283 0.0048677428 2.1762108e-38
0.022840407 -0.12380283 0.0048677428 2.3142544e-38
0.024883833 -0.12455635 0.0018728478 2.3325856e-38
0.026777606 -0.12455635 0.0018728478 2.2496085e-38
0.028889071 -0.12554805 -0.0020686882 2.1851432e-38
0.030789752 -0.12554805 -0.0020686882 1.7704072e-38
-0.055924237 -0.14112701 -0.056056906 1.1153494e-38
-0.053928893 -0.14112701 -0.056056906 1.1522271e-38
-0.051933549 -0.14112701 -0.056056906 1.4012632e-38
-0.049872227 -0.14012341 -0.0520957 1.5672519e-38
-0.047765113 -0.1381052 -0.044129778 1.4658012e-38
-0.045751162 -0.13734378 -0.041124512 1.4474348e-38
-0.043781999 -0.13734378 -0.041124512 1.2630082e-38
-0.041774437 -0.13633488 -0.037142325 1.3735354e-38
-0.039780091 -0.1353019 -0.033065248 1.2352056e-38
-0.037806977 -0.13455538 -0.030118633 1.1983627e-38
-0.035839465 -0.13353528 -0.026092339 6.2667707e-39
-0.03388869 -0.13276742 -0.023061562 5.1607749e-39
-0.031951196 -0.13276742 -0.023061562 7.2812715e-39
-0.030017193 -0.13176022 -0.019086171 7.0968831e-39
-0.028086673 -0.13176022 -0.019086171 8.8482329e-39
-0.02617345 -0.13076027 -0.015139391 1.0508096e-38
-0.024268812 -0.12997745 -0.012049605 9.0315213e-39
-0.0223823 -0.12896039 -0.0080352323 7.4620488e-39
-0.020471158 -0.12896039 -0.0080352323 1.3913588e-38
-0.016727328 -0.12744872 -0.0020686882 1.8152422e-38
-0.014826645 -0.12744872 -0.0020686882 1.5295065e-38
-0.012925961 -0.12744872 -0.0020686882 7.2751268e-39
-0.0092040701 -0.12645011 0.0018728478 3.9593576e-39
-0.0073102964 -0.12645011 0.0018728478 2.1172653e-39
-0.0054165246 -0.12645011 0.0018728478 1.0140814e-38
-0.0035227528 -0.12645011 0.0018728478 1.7980325e-38
-0.0016289791 -0.12645011 0.0018728478 1.5122613e-38
0.0001781499 -0.12569134 0.0048677428 1.4475066e-38
0.0020666728 -0.12569134 0.0048677428 2.3509869e-38
0.0037257085 -0.12389888 0.011942576 2.3509869e-38
0.005601828 -0.12389888 0.011942576 1.1154567e-38
0.007588272 -0.12467657 0.0088730557 6.3596698e-39
0.0092432583 -0.12315418 0.014881919 1.1247117e-38
0.011114218 -0.12315418 0.014881919 1.0416999e-38
0.012985182 -0.12315418 0.014881919 8.3890638e-39
0.014856146 -0.12315418 0.014881919 5.5317238e-39
0.016995765 -0.12467657 0.0088730557 1.2538239e-38
0.019063365 -0.12569134 0.0048677428 1.9269238e-38
0.020951886 -0.12569134 0.0048677428 2.2957428e-38
0.022840407 -0.12569134 0.0048677428 2.3234379e-38
0.024883833 -0.12645011 0.0018728478 2.3234379e-38
0.026777606 -0.12645011 0.0018728478 2.2589724e-38
0.02867138 -0.12645011 0.0018728478 2.3234376e-38
0.030394491 -0.12569134 0.0048677428 2.1116036e-38
0.032283012 -0.12569134 0.0048677428 1.2726237e-38
0.034625735 -0.11985306 0.027911495 7.6551212e-39
0.038055386 -0.11882581 0.031966042 8.0228289e-39
0.039896395 -0.11882581 0.031966042 9.773827e-39
0.041533854 -0.11808117 0.034905147 9.9582154e-39
0.043369707 -0.11808117 0.034905147 9.8660198e-39
0.044985052 -0.11731337 0.037935685 9.40432e-39
0.046815593 -0.11731337 0.037935685 8.3901653e-39
-0.053849023 -0.14211179 -0.0520957 1.0692866e-38
-0.051860623 -0.14211179 -0.0520957 1.1985044e-38
-0.049804598 -0.14107598 -0.048035432 1.3552016e-38
-0.047765113 -0.14007963 -0.044129778 1.3552744e-38
-0.045751162 -0.13931294 -0.041124512 1.3737146e-38
-0.043781999 -0.13931294 -0.041124512 9.4957967e-39
-0.041774437 -0.13829704 -0.037142325 1.0417038e-38
-0.039780091 -0.13725694 -0.033065248 1.0140449e-38
-0.037806977 -0.13650523 -0.030118633 7.7422777e-39
-0.035839465 -0.13547809 -0.026092339 4.1469985e-39
-0.03388869 -0.1347049 -0.023061562 5.3448144e-39
-0.031951196 -0.1347049 -0.023061562 5.7146731e-39
-0.030017193 -0.13369073 -0.019086171 6.6366294e-39
-0.028097052 -0.13268389 -0.015139391 7.0968803e-39
-0.02617345 -0.13268389 -0.015139391 8.3875967e-39
-0.024293445 -0.13087155 -0.0080352323 1.0230065e-38
-0.0223823 -0.13087155 -0.0080352323 1.0872923e-38
-0.02049944 -0.13012333 -0.0051023262 1.0042086e-38
-0.018593438 -0.13012333 -0.0051023262 1.1792009e-38
-0.016687434 -0.13012333 -0.0051023262 1.5941167e-38
-0.014826645 -0.12934943 -0.0020686882 1.37299e-38
-0.012991614 -0.1283439 0.0018728478 8.1063266e-39
-0.011152978 -0.12757985 0.0048677428 7.646803e-39
-0.009264457 -0.12757985 0.0048677428 1.1520838e-38
-0.0073759342 -0.12757985 0.0048677428 9.1255723e-39
-0.0054874131 -0.12757985 0.0048677428 2.8580757e-39
-0.0035988921 -0.12757985 0.0048677428 3.8751003e-39
-0.0017103711 -0.12757985 0.0048677428 1.5214434e-38
0.0001781499 -0.12757985 0.0048677428 2.2957064e-38
0.0020666728 -0.12757985 0.0048677428 2.3509873e-38
0.0037257085 -0.12577499 0.011942576 2.350915e-38
0.005601828 -0.12577499 0.011942576 5.4384407e-39
0.007588272 -0.12655805 0.0088730557 7.8348012e-39
0.0092432583 -0.12502514 0.014881919 1.7607538e-38
0.011114218 -0.12502514 0.014881919 1.9174508e-38
0.012985182 -0.12502514 0.014881919 1.8436946e-38
0.014856146 -0.12502514 0.014881919 1.9451825e-38
0.016858526 -0.12577499 0.011942576 2.2863429e-38
0.019063365 -0.12757985 0.0048677428 2.3509527e-38
0.020951886 -0.12757985 0.0048677428 2.2772323e-38
0.022840407 -0.12757985 0.0048677428 2.2772684e-38
0.024883833 -0.1283439 0.0018728478 2.3050349e-38
0.026777606 -0.1283439 0.0018728478 2.3234379e-38
0.02850597 -0.12757985 0.0048677428 2.3142544e-38
0.030394491 -0.12757985 0.0048677428 2.2221308e-38
0.032283012 -0.12757985 0.0048677428 2.2958873e-38
0.034171533 -0.12757985 0.0048677428 2.2958873e-38
0.034625735 -0.12170117 0.027911495 2.0654706e-38
0.036214378 -0.12066682 0.031966042 1.8902633e-38
0.038055386 -0.12066682 0.031966042 1.3370175e-38
0.039896395 -0.12066682 0.031966042 8.8522336e-39
0.041533854 -0.11991702 0.034905147 7.8384376e-39
0.043369707 -0.11991702 0.034905147 7.6540464e-39
0.044985052 -0.11914389 0.037935685 7.7455203e-39
0.046815593 -0.11914389 0.037935685 8.9444208e-39
0.049101438 -0.12066682 0.031966042 8.944418e-39
-0.055837419 -0.1441002 -0.0520957 1.0231537e-38
-0.053849023 -0.1441002 -0.0520957 1.0600314e-38
-0.051860623 -0.1441002 -0.0520957 1.0694308e-38
-0.049804598 -0.14305727 -0.048035432 1.2169082e-38
-0.047720321 -0.1412821 -0.041124512 1.4105917e-38
-0.045751162 -0.1412821 -0.041124512 1.5304112e-38
-0.043736618 -0.14025922 -0.037142325 1.1708129e-38
-0.041774437 -0.14025922 -0.037142325 1.2353144e-38
-0.039780091 -0.13921197 -0.033065248 1.1800327e-38
-0.037806977 -0.13845511 -0.030118633 8.2954487e-39
-0.035839465 -0.13742088 -0.026092339 3.3172378e-39
-0.03388869 -0.13664238 -0.023061562 4.2395458e-39
-0.031951196 -0.13664238 -0.023061562 5.3458892e-39
-0.030017193 -0.13562126 -0.019086171 5.4380848e-39
-0.028097052 -0.13460748 -0.015139391 4.5164788e-39
-0.026186995 -0.13381381 -0.012049605 7.1894136e-39
-0.024293445 -0.13278268 -0.0080352323 1.0507369e-38
-0.0223823 -0.13278268 -0.0080352323 1.17034e-38
-0.02049944 -0.13202934 -0.0051023262 8.1981734e-39
-0.018593438 -0.13202934 -0.0051023262 7.6432031e-39
-0.016727328 -0.1312501 -0.0020686882 1.4927012e-38
-0.014826645 -0.1312501 -0.0020686882 1.5020633e-38
-0.012991614 -0.13023765 0.0018728478 1.2439874e-38
-0.011152978 -0.1294684 0.0048677428 1.1703765e-38
-0.009264457 -0.1294684 0.0048677428 1.5854383e-38
-0.0073759342 -0.1294684 0.0048677428 1.3919735e-38
-0.0054874131 -0.1294684 0.0048677428 3.2268498e-39
-0.0035988921 -0.1294684 0.0048677428 7.1746481e-43
-0.0017103711 -0.1294684 0.0048677428 1.66892e-38
0.0001781499 -0.1294684 0.0048677428 2.2403171e-38
0.0020666728 -0.1294684 0.0048677428 2.3509876e-38
0.0038252743 -0.12843956 0.0088730557 2.1941107e-38
0.0057067731 -0.12843956 0.0088730557 3.6863678e-39
0.0073722946 -0.1268961 0.014881919 6.6369811e-39
0.0092432583 -0.1268961 0.014881919 1.4289218e-38
0.010954709 -0.12585752 0.018925261 1.9451095e-38
0.012818583 -0.12585752 0.018925261 2.092623e-38
0.014682458 -0.12585752 0.018925261 2.2125142e-38
0.016546331 -0.12585752 0.018925261 2.3509521e-38
0.019063365 -0.1294684 0.0048677428 2.3509527e-38
0.020951886 -0.1294684 0.0048677428 2.3417691e-38
0.022840407 -0.1294684 0.0048677428 2.341805e-38
0.024521761 -0.12843956 0.0088730557 2.3234379e-38
0.026403259 -0.12843956 0.0088730557 2.3234379e-38
0.028284758 -0.12843956 0.0088730557 2.2682283e-38
0.029823851 -0.1268961 0.014881919 2.3142544e-38
0.031457324 -0.12585752 0.018925261 2.2405699e-38
0.033138972 -0.12508373 0.021937679 2.2774125e-38
0.034625735 -0.1235493 0.027911495 2.2774125e-38
0.036214378 -0.12250783 0.031966042 2.3142544e-38
0.038055386 -0.12250783 0.031966042 2.0468517e-38
0.039896395 -0.12250783 0.031966042 1.5489956e-38
0.041533854 -0.12175287 0.034905147 8.6674766e-39
0.043369707 -0.12175287 0.034905147 9.9582154e-39
0.044985052 -0.12097444 0.037935685 7.4682118e-39
0.046815593 -0.12097444 0.037935685 9.5887084e-39
0.048646133 -0.12097444 0.037935685 9.4046731e-39
0.050476681 -0.12097444 0.037935685 1.1156387e-38
-0.055837419 -0.14608859 -0.0520957 1.0415929e-38
-0.053849023 -0.14608859 -0.0520957 1.0785784e-38
-0.051860623 -0.14608859 -0.0520957 1.0048938e-38
-0.049804598 -0.14503856 -0.048035432 1.1247126e-38
-0.047720321 -0.14325126 -0.041124512 1.4382504e-38
-0.045751162 -0.14325126 -0.041124512 1.4474348e-38
-0.043736618 -0.14222141 -0.037142325 1.4381799e-38
-0.041774437 -0.14222141 -0.037142325 1.5303758e-38
-0.039780091 -0.141167 -0.033065248 1.3828628e-38
-0.037806977 -0.14040495 -0.030118633 1.198399e-38
-0.035839465 -0.13936369 -0.026092339 1.7499107e-39
-0.03388869 -0.13857989 -0.023061562 6.4392467e-40
-0.031947713 -0.1375518 -0.019086171 4.0558692e-39
-0.030017193 -0.1375518 -0.019086171 3.871478e-39
-0.028097052 -0.13653107 -0.015139391 3.6867182e-39
-0.026186995 -0.13573201 -0.012049605 8.2035655e-39
-0.024293445 -0.13469382 -0.0080352323 9.1244344e-39
-0.022405442 -0.13393532 -0.0051023262 8.3843569e-39
-0.02049944 -0.13393532 -0.0051023262 8.3836408e-39
-0.018593438 -0.13393532 -0.0051023262 9.1194122e-39
-0.016727328 -0.13315077 -0.0020686882 1.4097249e-38
-0.014826645 -0.13315077 -0.0020686882 1.4099033e-38
-0.012991614 -0.13213144 0.0018728478 1.5297936e-38
-0.011152978 -0.13135691 0.0048677428 1.7328052e-38
-0.009264457 -0.13135691 0.0048677428 2.0832223e-38
-0.0073102964 -0.13213144 0.0018728478 2.0096115e-38
-0.0054874131 -0.13135691 0.0048677428 1.5487421e-38
-0.0035988921 -0.13135691 0.0048677428 9.4050192e-39
-0.0017103711 -0.13135691 0.0048677428 2.0468851e-38
0.0001781499 -0.13135691 0.0048677428 2.3509879e-38
0.0018495927 -0.12952723 0.011942576 2.1664886e-38
0.0036303671 -0.12876706 0.014881919 1.8529513e-38
0.0055013308 -0.12876706 0.014881919 3.4097824e-39
0.0072269635 -0.12772138 0.018925261 3.0413544e-39
0.0090908343 -0.12772138 0.018925261 8.112114e-39
0.010954709 -0.12772138 0.018925261 8.5720132e-39
0.012818583 -0.12772138 0.018925261 2.2124416e-38
0.014682458 -0.12772138 0.018925261 2.3323685e-38
0.016546331 -0.12772138 0.018925261 2.3231494e-38
0.018734645 -0.12952723 0.011942576 2.3139664e-38
0.020469036 -0.12876706 0.014881919 2.3509168e-38
0.02234 -0.12876706 0.014881919 2.3509886e-38
0.02421096 -0.12876706 0.014881919 2.341805e-38
0.026081923 -0.12876706 0.014881919 2.3141822e-38
0.027952887 -0.12876706 0.014881919 2.3234376e-38
0.029593449 -0.12772138 0.018925261 2.3234379e-38
0.031457324 -0.12772138 0.018925261 2.2313503e-38
0.033138972 -0.12694232 0.021937679 2.3234379e-38
0.034811128 -0.12616767 0.024933051 2.3234379e-38
0.036473852 -0.1253974 0.027911495 2.2404983e-38
0.038055386 -0.12434883 0.031966042 2.1759613e-38
0.039896395 -0.12434883 0.031966042 2.3234379e-38
0.041533854 -0.12358873 0.034905147 2.341805e-38
0.043369707 -0.12358873 0.034905147 2.2588295e-38
0.044985052 -0.12280498 0.037935685 1.4936055e-38
0.046815593 -0.12280498 0.037935685 1.3830063e-38
0.048646133 -0.12280498 0.037935685 1.0695409e-38
-0.055837419 -0.148077 -0.0520957 1.0692515e-38
-0.053849023 -0.148077 -0.0520957 1.0693592e-38
-0.051860623 -0.148077 -0.0520957 9.5879601e-39
-0.049804598 -0.14701982 -0.048035432 1.0048582e-38
-0.047823317 -0.14701982 -0.048035432 1.2630784e-38
-0.04579068 -0.1460029 -0.044129778 1.3921173e-38
-0.043781999 -0.14522041 -0.041124512 1.3828979e-38
-0.041774437 -0.14418359 -0.037142325 1.6041677e-38
-0.039780091 -0.14312203 -0.033065248 1.5211916e-38
-0.037806977 -0.14235483 -0.030118633 1.530303e-38
-0.035839465 -0.1413065 -0.026092339 2.2116049e-39
-0.03388869 -0.14051737 -0.023061562 1.1056133e-39
-0.031947713 -0.1394823 -0.019086171 4.2402605e-39
-0.030017193 -0.1394823 -0.019086171 2.8573274e-39
-0.028097052 -0.13845469 -0.015139391 4.6093933e-39
-0.02620459 -0.13660498 -0.0080352323 8.7574582e-39
-0.024293445 -0.13660498 -0.0080352323 7.4656348e-39
-0.022405442 -0.13584132 -0.0051023262 6.5411631e-39
-0.02049944 -0.13584132 -0.0051023262 7.6460758e-39
-0.018593438 -0.13584132 -0.0051023262 8.1052603e-39
-0.016727328 -0.13505147 -0.0020686882 1.1701242e-38
-0.014826645 -0.13505147 -0.0020686882 1.26239e-38
-0.012991614 -0.1340252 0.0018728478 1.4652923e-38
-0.011097842 -0.1340252 0.0018728478 1.7788666e-38
-0.0092040701 -0.1340252 0.0018728478 2.1385028e-38
-0.0073759342 -0.13324542 0.0048677428 2.2124052e-38
-0.0054874131 -0.13324542 0.0048677428 2.0189387e-38
-0.0035988921 -0.13324542 0.0048677428 1.2723332e-38
-0.0018192222 -0.13220255 0.0088730557 1.8532378e-38
-0.00011156034 -0.13063805 0.014881919 2.0190476e-38
0.0017594034 -0.13063805 0.014881919 1.843876e-38
0.0036303671 -0.13063805 0.014881919 8.2043237e-39
0.0055013308 -0.13063805 0.014881919 4.1477103e-39
0.0072269635 -0.12958528 0.018925261 5.899063e-39
0.0090908343 -0.12958528 0.018925261 3.409781e-39
0.010954709 -0.12958528 0.018925261 6.0823766e-39
0.012818583 -0.12958528 0.018925261 2.3509514e-38
0.014682458 -0.12958528 0.018925261 2.350952e-38
0.016546331 -0.12958528 0.018925261 2.3509165e-38
0.018410206 -0.12958528 0.018925261 2.3509168e-38
0.020469036 -0.13063805 0.014881919 2.3509527e-38
0.02234 -0.13063805 0.014881919 2.3141106e-38
0.02421096 -0.13063805 0.014881919 2.3141822e-38
0.0258657 -0.12958528 0.018925261 2.341805e-38
0.027729575 -0.12958528 0.018925261 2.3418047e-38
0.029421791 -0.12880091 0.021937679 2.2957431e-38
0.031280383 -0.12880091 0.021937679 2.3234379e-38
0.033138972 -0.12880091 0.021937679 2.2773039e-38
0.034811128 -0.12802102 0.024933051 2.221951e-38
0.036473852 -0.12724553 0.027911495 2.341805e-38
0.038055386 -0.12618984 0.031966042 2.3233662e-38
0.039896395 -0.12618984 0.031966042 2.341805e-38
0.041323964 -0.12463553 0.037935685 2.3417691e-38
0.043154512 -0.12463553 0.037935685 2.3509886e-38
0.044985052 -0.12463553 0.037935685 1.7148387e-38
0.046815593 -0.12463553 0.037935685 1.5673254e-38
-0.047823317 -0.14900111 -0.048035432 1.0786872e-38
-0.04584204 -0.14900111 -0.048035432 1.1893222e-38
-0.043781999 -0.1471896 -0.041124512 9.1270002e-39
-0.041774437 -0.14614578 -0.037142325 1.1339697e-38
-0.039780091 -0.14507706 -0.033065248 1.2261652e-38
-0.037806977 -0.14430468 -0.030118633 1.2260929e-38
-0.035839465 -0.14324932 -0.026092339 1.3818414e-39
-0.03388869 -0.14245488 -0.023061562 1.7509799e-39
-0.031947713 -0.14141284 -0.019086171 1.3821974e-39
-0.030017193 -0.14141284 -0.019086171 1.751703e-39
-0.028097052 -0.14037828 -0.015139391 5.2544096e-39
-0.02620459 -0.13851611 -0.0080352323 7.4663648e-39
-0.024293445 -0.13851611 -0.0080352323 7.0968551e-39
-0.022405442 -0.13774733 -0.0051023262 8.0170191e-39
-0.02049944 -0.13774733 -0.0051023262 6.0791144e-39
-0.018593438 -0.13774733 -0.0051023262 4.0490155e-39
-0.016727328 -0.13695215 -0.0020686882 9.1201268e-39
-0.014826645 -0.13695215 -0.0020686882 1.0964381e-38
-0.012991614 -0.13591899 0.0018728478 1.3269988e-38
-0.011152978 -0.13513394 0.0048677428 1.4654014e-38
-0.009264457 -0.13513394 0.0048677428 1.8526964e-38
-0.0073759342 -0.13513394 0.0048677428 2.2584667e-38
-0.0054874131 -0.13513394 0.0048677428 1.9911357e-38
-0.0037007211 -0.13408406 0.0088730557 1.0693941e-38
-0.0019026408 -0.13327946 0.011942576 1.4014427e-38
-0.00011156034 -0.13250901 0.014881919 1.4474347e-38
0.0017594034 -0.13250901 0.014881919 1.3459843e-38
0.0034992145 -0.13144915 0.018925261 9.2181182e-39
0.005363089 -0.13144915 0.018925261 3.1335612e-39
0.0072269635 -0.13144915 0.018925261 5.6224803e-39
0.0090908343 -0.13144915 0.018925261 3.3175867e-39
0.010954709 -0.13144915 0.018925261 4.3306625e-39
0.012818583 -0.13144915 0.018925261 2.3509517e-38
0.014682458 -0.13144915 0.018925261 2.3139298e-38
0.016546331 -0.13144915 0.018925261 2.3509168e-38
0.018410206 -0.13144915 0.018925261 2.3509168e-38
0.02027408 -0.13144915 0.018925261 2.3509168e-38
0.022137951 -0.13144915 0.018925261 2.3324778e-38
0.024001826 -0.13144915 0.018925261 2.3509886e-38
0.025704607 -0.13065951 0.021937679 2.3509883e-38
0.027563199 -0.13065951 0.021937679 2.2588645e-38
0.029421791 -0.13065951 0.021937679 2.2865232e-38
0.031280383 -0.13065951 0.021937679 2.341805e-38
0.032957781 -0.12987436 0.024933051 2.341805e-38
0.034811128 -0.12987436 0.024933051 2.3234018e-38
0.036473852 -0.12909363 0.027911495 2.341805e-38
0.038055386 -0.12803085 0.031966042 2.3509886e-38
0.039896395 -0.12803085 0.031966042 2.3141103e-38
0.041323964 -0.12646608 0.037935685 1.7978148e-38
0.043154512 -0.12646608 0.037935685 1.8254735e-38
0.044985052 -0.12646608 0.037935685 1.7516807e-38
0.04704142 -0.12726043 0.034905147 1.7609e-38
0.048416328 -0.12567626 0.040948819 1.1616282e-38
0.050241586 -0.12567626 0.040948819 9.7727256e-39
-0.041812841 -0.14915876 -0.041124512 9.3117474e-39
-0.039780091 -0.1470321 -0.033065248 1.0879073e-38
-0.037806977 -0.14625455 -0.030118633 1.0510288e-38
-0.035839465 -0.1451921 -0.026092339 2.9502461e-39
-0.03388869 -0.14439236 -0.023061562 2.1204855e-39
-0.031947713 -0.14334334 -0.019086171 6.453596e-40
-0.030017193 -0.14334334 -0.019086171 9.2194509e-40
-0.028097052 -0.14230187 -0.015139391 4.5168488e-39
-0.02620459 -0.14042725 -0.0080352323 5.8075694e-39
-0.024293445 -0.14042725 -0.0080352323 6.5440484e-39
-0.022405442 -0.13965334 -0.0051023262 7.8326362e-39
-0.02049944 -0.13965334 -0.0051023262 5.4341135e-39
-0.018593438 -0.13965334 -0.0051023262 3.3121763e-39
-0.016727328 -0.13885282 -0.0020686882 5.8018114e-39
-0.014826645 -0.13885282 -0.0020686882 7.000335e-39
-0.012991614 -0.13781275 0.0018728478 1.0228258e-38
-0.011152978 -0.13702248 0.0048677428 1.3455114e-38
-0.009264457 -0.13702248 0.0048677428 1.8711355e-38
-0.0074637188 -0.13596557 0.0088730557 2.3136762e-38
-0.0055822199 -0.13596557 0.0088730557 1.8619899e-38
-0.0037787585 -0.13515557 0.011942576 1.1522622e-38
-0.0019825222 -0.13437997 0.014881919 1.4197737e-38
-0.00011156034 -0.13437997 0.014881919 1.5396304e-38
0.0017594034 -0.13437997 0.014881919 1.2723e-38
0.0034992145 -0.13331302 0.018925261 7.9284612e-39
0.005363089 -0.13331302 0.018925261 1.9350208e-39
0.0072269635 -0.13331302 0.018925261 2.1186904e-39
0.0090908343 -0.13331302 0.018925261 3.6734198e-40
0.010954709 -0.13331302 0.018925261 4.6994478e-39
0.012818583 -0.13331302 0.018925261 2.3138218e-38
0.014682458 -0.13331302 0.018925261 2.3508807e-38
0.016546331 -0.13331302 0.018925261 2.3231141e-38
0.018410206 -0.13331302 0.018925261 2.2954557e-38
0.02027408 -0.13331302 0.018925261 2.3415898e-38
0.022137951 -0.13331302 0.018925261 2.3323699e-38
0.023846015 -0.1325181 0.021937679 2.3509527e-38
0.025544424 -0.13172771 0.024933051 2.350988e-38
0.027397763 -0.13172771 0.024933051 2.350988e-38
0.029421791 -0.1325181 0.021937679 2.3509883e-38
0.031280383 -0.1325181 0.021937679 2.31411e-38
0.032957781 -0.13172771 0.024933051 2.3048905e-38
0.034625735 -0.13094176 0.027911495 2.3509883e-38
0.036473852 -0.13094176 0.027911495 2.3417687e-38
0.038055386 -0.12987186 0.031966042 2.2679762e-38
0.039896395 -0.12987186 0.031966042 2.2310979e-38
0.041533854 -0.12909628 0.034905147 1.4289957e-38
0.043154512 -0.1282966 0.037935685 1.3091414e-38
0.044985052 -0.1282966 0.037935685 1.6133148e-38
0.04704142 -0.12909628 0.034905147 1.7423887e-38
0.048416328 -0.1275015 0.040948819 1.327508e-38
0.050241586 -0.1275015 0.040948819 1.0140429e-38
-0.037825059 -0.14898713 -0.033065248 1.004931e-38
-0.035839465 -0.14713491 -0.026092339 4.1487893e-39
-0.03388869 -0.14632986 -0.023061562 4.6097114e-40
-0.031951196 -0.14632986 -0.023061562 6.4500227e-40
-0.030017193 -0.14527388 -0.019086171 8.2939773e-40
-0.028086673 -0.14527388 -0.019086171 3.3190315e-39
-0.026186995 -0.14340474 -0.012049605 5.1625671e-39
-0.024293445 -0.14233841 -0.0080352323 5.5299063e-39
-0.022405442 -0.14155935 -0.0051023262 4.6065165e-39
-0.02049944 -0.14155935 -0.0051023262 5.0664184e-39
-0.018593438 -0.14155935 -0.0051023262 5.156819e-39
-0.016727328 -0.14075352 -0.0020686882 2.1143688e-39
-0.014826645 -0.14075352 -0.0020686882 5.4340967e-39
-0.012991614 -0.13970654 0.0018728478 6.5407988e-39
-0.011152978 -0.13891099 0.0048677428 1.0966197e-38
-0.009264457 -0.13891099 0.0048677428 1.57611e-38
-0.0074637188 -0.13784705 0.0088730557 1.4931354e-38
-0.0056548743 -0.13703169 0.011942576 8.386187e-39
-0.0037787585 -0.13703169 0.011942576 8.0188282e-39
-0.0019825222 -0.13625093 0.014881919 1.4104824e-38
-0.00011156034 -0.13625093 0.014881919 1.6687043e-38
0.0017594034 -0.13625093 0.014881919 3.2264939e-39
0.0034992145 -0.13517688 0.018925261 9.1835496e-41
0.005363089 -0.13517688 0.018925261 9.1835496e-41
0.0072269635 -0.13517688 0.018925261 1.7506296e-39
0.0090908343 -0.13517688 0.018925261 8.279544e-40
0.010954709 -0.13517688 0.018925261 3.3161574e-39
0.012818583 -0.13517688 0.018925261 2.3509163e-38
0.014682458 -0.13517688 0.018925261 2.3507369e-38
0.016546331 -0.13517688 0.018925261 1.9450044e-38
0.018410206 -0.13517688 0.018925261 1.9726631e-38
0.020128831 -0.13437669 0.021937679 2.3508091e-38
0.021987423 -0.13437669 0.021937679 2.3509168e-38
0.023846015 -0.13437669 0.021937679 2.3231854e-38
0.025544424 -0.13358103 0.024933051 2.3324407e-38
0.027397763 -0.13358103 0.024933051 2.3509879e-38
0.029081382 -0.13278987 0.027911495 2.2956346e-38
0.030929502 -0.13278987 0.027911495 2.3509883e-38
0.032777619 -0.13278987 0.027911495 2.3233296e-38
0.034373369 -0.13171287 0.031966042 2.3233296e-38
0.036214378 -0.13171287 0.031966042 2.314074e-38
0.037862141 -0.13093217 0.034905147 1.8162173e-38
0.039697994 -0.13093217 0.034905147 1.6226065e-38
0.041323964 -0.13012715 0.037935685 1.2353847e-38
0.042940546 -0.12932678 0.040948819 1.2353127e-38
0.044765804 -0.12932678 0.040948819 1.5211189e-38
0.046815593 -0.13012715 0.037935685 1.6133145e-38
0.048416328 -0.12932678 0.040948819 1.4565817e-38
0.050241586 -0.12932678 0.040948819 1.1246774e-38
-0.033896659 -0.14907773 -0.026092339 3.5873241e-43
-0.031951196 -0.14826734 -0.023061562 8.2975787e-40
-0.030013707 -0.14826734 -0.023061562 1.3829373e-39
-0.028086673 -0.14720438 -0.019086171 2.4889191e-39
-0.026186995 -0.14532293 -0.012049605 3.871478e-39
-0.024293445 -0.14424954 -0.0080352323 4.7008729e-39
-0.0223823 -0.14424954 -0.0080352323 5.1600588e-39
-0.02049944 -0.14346536 -0.0051023262 4.6980072e-39
-0.018628012 -0.1426542 -0.0020686882 3.4061922e-39
-0.016727328 -0.1426542 -0.0020686882 2.115445e-39
-0.014885387 -0.1416003 0.0018728478 3.4058055e-39
-0.012991614 -0.1416003 0.0018728478 5.7110493e-39
-0.011152978 -0.14079951 0.0048677428 6.5415345e-39
-0.009264457 -0.14079951 0.0048677428 1.2718293e-38
-0.0074637188 -0.13972856 0.0088730557 1.2533916e-38
-0.0056548743 -0.13890781 0.011942576 4.0519176e-39
-0.0037787585 -0.13890781 0.011942576 3.6845602e-39
-0.0019825222 -0.13812189 0.014881919 1.5855465e-38
-0.00011156034 -0.13812189 0.014881919 1.8438763e-38
0.0017594034 -0.13812189 0.014881919 9.2160457e-40
0.0036303671 -0.13812189 0.014881919 3.6806646e-40
0.0055013308 -0.13812189 0.014881919 1.1981803e-39
0.0073722946 -0.13812189 0.014881919 1.3814897e-39
0.0092432583 -0.13812189 0.014881919 1.0123457e-39
0.011114218 -0.13812189 0.014881919 4.1459195e-39
0.012985182 -0.13812189 0.014881919 2.3507362e-38
0.014682458 -0.13704078 0.018925261 2.3508451e-38
0.016546331 -0.13704078 0.018925261 1.8435173e-38
0.018410206 -0.13704078 0.018925261 1.7881999e-38
0.020128831 -0.13623528 0.021937679 2.3230062e-38
0.021987423 -0.13623528 0.021937679 2.3507366e-38
0.023846015 -0.13623528 0.021937679 2.350916e-38
0.025544424 -0.13543437 0.024933051 2.3509873e-38
0.027397763 -0.13543437 0.024933051 2.3509873e-38
0.029081382 -0.134638 0.027911495 2.350988e-38
0.030929502 -0.134638 0.027911495 2.3048545e-38
0.03253236 -0.13355388 0.031966042 2.350988e-38
0.034190428 -0.13276802 0.034905147 2.350988e-38
0.036026288 -0.13276802 0.034905147 2.3325129e-38
0.037862141 -0.13276802 0.034905147 1.714802e-38
0.039697994 -0.13276802 0.034905147 1.6225343e-38
0.041323964 -0.13195769 0.037935685 1.2629711e-38
0.042940546 -0.13115202 0.040948819 1.2906298e-38
0.044765804 -0.13115202 0.040948819 1.4658012e-38
0.046815593 -0.13195769 0.037935685 1.5303021e-38
0.048646133 -0.13195769 0.037935685 1.36435e-38
0.050476681 -0.13195769 0.037935685 1.1983979e-38
-0.026186995 -0.1472411 -0.012049605 3.226833e-39
-0.024268812 -0.1472411 -0.012049605 5.2544124e-39
-0.0223823 -0.14616071 -0.0080352323 4.4228609e-39
-0.02049944 -0.14537133 -0.0051023262 1.3793317e-39
-0.018628012 -0.14455487 -0.0020686882 7.3468397e-40
-0.016727328 -0.14455487 -0.0020686882 1.1945789e-39
-0.014885387 -0.14349405 0.0018728478 9.1835496e-40
-0.012991614 -0.14349405 0.0018728478 2.024327e-39
-0.011152978 -0.14268802 0.0048677428 9.1835496e-40
-0.009264457 -0.14268802 0.0048677428 1.5626384e-39
-0.0074637188 -0.14161004 0.0088730557 1.8399483e-39
-0.0055822199 -0.14161004 0.0088730557 7.3468397e-40
-0.0037787585 -0.14078392 0.011942576 2.8544464e-39
-0.0019825222 -0.13999285 0.014881919 1.5302297e-38
-0.00011156034 -0.13999285 0.014881919 1.3552758e-38
0.0017594034 -0.13999285 0.014881919 1.847584e-40
0.0036303671 -0.13999285 0.014881919 2.8025969e-45
0.0055013308 -0.13999285 0.014881919 3.6841958e-40
0.0073722946 -0.13999285 0.014881919 2.7550649e-40
0.0092432583 -0.13999285 0.014881919 4.5989495e-40
0.011114218 -0.13999285 0.014881919 2.2098112e-39
0.012985182 -0.13999285 0.014881919 1.9450038e-38
0.014682458 -0.13890465 0.018925261 1.8988344e-38
0.016546331 -0.13890465 0.018925261 1.3087826e-38
0.018410206 -0.13890465 0.018925261 1.4194174e-38
0.020128831 -0.13809387 0.021937679 2.2492134e-38
0.021837745 -0.13728772 0.024933051 2.2768716e-38
0.023691084 -0.13728772 0.024933051 1.9911724e-38
0.025385145 -0.13648613 0.027911495 2.0188665e-38
0.027233265 -0.13648613 0.027911495 2.350987e-38
0.028850339 -0.13539489 0.031966042 2.350988e-38
0.030691348 -0.13539489 0.031966042 2.3509883e-38
0.032354575 -0.13460387 0.034905147 2.3509883e-38
0.034001801 -0.13378824 0.037935685 1.8530956e-38
0.035832342 -0.13378824 0.037935685 1.6502651e-38
0.037662882 -0.13378824 0.037935685 1.4105564e-38
0.039493423 -0.13378824 0.037935685 1.5487776e-38
0.041323964 -0.13378824 0.037935685 1.2906295e-38
0.042940546 -0.13297729 0.040948819 1.2445317e-38
0.044765804 -0.13297729 0.040948819 1.5856555e-38
0.046815593 -0.13378824 0.037935685 1.6132782e-38
0.048646133 -0.13378824 0.037935685 1.2537153e-38
0.050476681 -0.13378824 0.037935685 1.0508846e-38
-0.026186995 -0.1491593 -0.012049605 1.936097e-39
-0.024268812 -0.1491593 -0.012049605 3.963675e-39
-0.0223823 -0.14807184 -0.0080352323 2.8569771e-39
-0.020471158 -0.14807184 -0.0080352323 3.6734198e-40
-0.018593438 -0.14727734 -0.0051023262 5.5101858e-40
-0.016727328 -0.14645557 -0.0020686882 1.1953034e-39
-0.014885387 -0.14538784 0.0018728478 6.4284847e-40
-0.012991614 -0.14538784 0.0018728478 1.5647908e-39
-0.011152978 -0.14457656 0.0048677428 9.1907243e-40
-0.009264457 -0.14457656 0.0048677428 6.4284847e-40
-0.0074637188 -0.14349155 0.0088730557 7.3468537e-40
-0.0055822199 -0.14349155 0.0088730557 8.2652227e-40
-0.0037787585 -0.14266007 0.011942576 2.7626151e-39
-0.0019825222 -0.14186381 0.014881919 1.3090326e-38
-0.00011156034 -0.14186381 0.014881919 1.2907391e-38
0.0017594034 -0.14186381 0.014881919 2.4896491e-39
0.0036303671 -0.14186381 0.014881919 2.7623376e-40
0.0055013308 -0.14186381 0.014881919 9.1835496e-41
0.0073722946 -0.14186381 0.014881919 2.7550649e-40
0.0092432583 -0.14186381 0.014881919 3.6734198e-40
0.011114218 -0.14186381 0.014881919 1.9332244e-39
0.012985182 -0.14186381 0.014881919 1.8251495e-38
0.014856146 -0.14186381 0.014881919 1.8896148e-38
0.016546331 -0.14076851 0.018925261 1.4470398e-38
0.018270239 -0.13995247 0.021937679 1.3825028e-38
0.019984402 -0.13914107 0.024933051 1.9356761e-38
0.021688912 -0.13833423 0.027911495 1.9449311e-38
0.023537029 -0.13833423 0.027911495 1.7329525e-38
0.025385145 -0.13833423 0.027911495 1.8251835e-38
0.027009331 -0.13723589 0.031966042 2.3324037e-38
0.028850339 -0.13723589 0.031966042 2.350988e-38
0.030691348 -0.13723589 0.031966042 2.3509883e-38
0.032354575 -0.13643973 0.034905147 2.3048905e-38
0.034001801 -0.13561879 0.037935685 1.5950197e-38
0.035832342 -0.13561879 0.037935685 1.4843129e-38
0.037662882 -0.13561879 0.037935685 1.5304107e-38
0.039493423 -0.13561879 0.037935685 1.5396659e-38
0.041323964 -0.13561879 0.037935685 1.2630787e-38
0.043154512 -0.13561879 0.037935685 1.1707752e-38
0.044985052 -0.13561879 0.037935685 1.567252e-38
0.04704142 -0.13643973 0.034905147 1.5580324e-38
0.048877273 -0.13643973 0.034905147 1.1892499e-38
0.050942447 -0.13723589 0.031966042 1.0601404e-38
-0.016727328 -0.14835624 -0.0020686882 6.4357435e-40
-0.014885387 -0.1472816 0.0018728478 5.5173044e-40
-0.012991614 -0.1472816 0.0018728478 3.6734198e-40
-0.011152978 -0.14646508 0.0048677428 4.5953621e-40
-0.009264457 -0.14646508 0.0048677428 3.6734198e-40
-0.0073759342 -0.14646508 0.0048677428 3.6734899e-40
-0.0054874131 -0.14646508 0.0048677428 3.6734759e-40
-0.0037007211 -0.14537306 0.0088730557 3.6734198e-40
-0.0019825222 -0.14373477 0.014881919 9.7716466e-39
-0.00011156034 -0.14373477 0.014881919 9.1277303e-39
0.0017594034 -0.14373477 0.014881919 1.6606087e-39
0.0036303671 -0.14373477 0.014881919 5.6051939e-45
0.0055013308 -0.14373477 0.014881919 1.1985432e-39
0.0073722946 -0.14373477 0.014881919 2.7622395e-40
0.0092432583 -0.14373477 0.014881919 2.7550649e-40
0.011114218 -0.14373477 0.014881919 5.5101298e-40
0.012985182 -0.14373477 0.014881919 1.3734265e-38
0.014856146 -0.14373477 0.014881919 1.3087461e-38
0.016546331 -0.14263238 0.018925261 1.1335744e-38
0.018270239 -0.14181106 0.021937679 1.01372e-38
0.019984402 -0.14099441 0.024933051 1.3456598e-38
0.021688912 -0.14018236 0.027911495 1.456294e-38
0.023537029 -0.14018236 0.027911495 1.4102313e-38
0.025385145 -0.14018236 0.027911495 1.3641688e-38
0.027009331 -0.1390769 0.031966042 1.6685229e-38
0.028850339 -0.1390769 0.031966042 1.862315e-38
0.030518718 -0.13827558 0.034905147 1.8439126e-38
0.032354575 -0.13827558 0.034905147 1.8900104e-38
0.034001801 -0.13744931 0.037935685 1.4566907e-38
0.035832342 -0.13744931 0.037935685 1.4843131e-38
0.037862141 -0.13827558 0.034905147 1.5120072e-38
0.039697994 -0.13827558 0.034905147 1.3460551e-38
0.041533854 -0.13827558 0.034905147 1.1893222e-38
0.043369707 -0.13827558 0.034905147 1.3552021e-38
0.04520556 -0.13827558 0.034905147 1.5764716e-38
0.04726043 -0.1390769 0.031966042 1.4842759e-38
0.049101438 -0.1390769 0.031966042 1.207689e-38
0.050942447 -0.1390769 0.031966042 1.0970187e-38
0.053106911 -0.14018236 0.027911495 1.0048231e-38
-0.01493002 -0.14835359 0.0048677428 1.0141407e-39
-0.013041499 -0.14835359 0.0048677428 9.2194229e-41
-0.011152978 -0.14835359 0.0048677428 4.5989495e-40
-0.009264457 -0.14835359 0.0048677428 8.2832154e-40
-0.0073759342 -0.14835359 0.0048677428 4.5919009e-40
-0.0054874131 -0.14835359 0.0048677428 4.5918729e-40
-0.0035988921 -0.14835359 0.0048677428 2.7550649e-40
-0.0019026408 -0.1464123 0.011942576 7.7440658e-39
-0.00011156034 -0.14560573 0.014881919 8.6667549e-39
0.0017594034 -0.14560573 0.014881919 3.3201301e-39
0.0037257085 -0.1464123 0.011942576 2.8025969e-45
0.005601828 -0.1464123 0.011942576 1.8439126e-40
0.0074779438 -0.1464123 0.011942576 9.1835496e-41
0.0093540596 -0.1464123 0.011942576 9.2051156e-40
0.011230175 -0.1464123 0.011942576 1.1956593e-39
0.012985182 -0.14560573 0.014881919 1.152157e-38
0.014856146 -0.14560573 0.014881919 1.22577e-38
0.016546331 -0.14449625 0.018925261 1.1427939e-38
0.018270239 -0.14366965 0.021937679 9.8598905e-39
0.019984402 -0.14284773 0.024933051 1.1795995e-38
0.021688912 -0.14203046 0.027911495 1.2810498e-38
0.023537029 -0.14203046 0.027911495 1.2443148e-38
0.025385145 -0.14203046 0.027911495 1.1982521e-38
0.027009331 -0.14091791 0.031966042 1.4933865e-38
0.028850339 -0.14091791 0.031966042 1.5027521e-38
0.030518718 -0.14011143 0.034905147 1.5489585e-38
0.032354575 -0.14011143 0.034905147 1.6964715e-38
0.034001801 -0.13927986 0.037935685 1.4383234e-38
0.035832342 -0.13927986 0.037935685 1.4567263e-38
0.038055386 -0.14091791 0.031966042 1.4290672e-38
0.039896395 -0.14091791 0.031966042 1.3184324e-38
0.041737404 -0.14091791 0.031966042 1.4106636e-38
0.043578412 -0.14091791 0.031966042 1.4013719e-38
0.045419421 -0.14091791 0.031966042 1.484348e-38
0.04726043 -0.14091791 0.031966042 1.3644939e-38
0.049101438 -0.14091791 0.031966042 1.1708831e-38
0.051258799 -0.14203046 0.027911495 1.1063464e-38
0.053106911 -0.14203046 0.027911495 1.0325899e-38
0.054955028 -0.14203046 0.027911495 9.4950597e-39
-0.0037007211 -0.14913605 0.0088730557 9.1835496e-41
-0.0018192222 -0.14913605 0.0088730557 3.5952638e-39
6.2276609e-05 -0.14913605 0.0088730557 3.2272128e-39
0.0019437755 -0.14913605 0.0088730557 2.3981738e-39
0.0037257085 -0.14828841 0.011942576 2.7694983e-40
0.005601828 -0.14828841 0.011942576 2.7658409e-40
0.0074779438 -0.14828841 0.011942576 9.1835496e-41
0.0093540596 -0.14828841 0.011942576 8.2831593e-40
0.011230175 -0.14828841 0.011942576 5.5101298e-40
0.013106295 -0.14828841 0.011942576 2.3942025e-39
0.014856146 -0.14747669 0.014881919 7.5557228e-39
0.016546331 -0.14636014 0.018925261 9.2152414e-39
0.018270239 -0.14552824 0.021937679 7.7393896e-39
0.019984402 -0.14470108 0.024933051 6.4490039e-39
0.021837745 -0.14470108 0.024933051 5.9883775e-39
0.023537029 -0.14387859 0.027911495 7.9248375e-39
0.025385145 -0.14387859 0.027911495 8.7556715e-39
0.027009331 -0.14275892 0.031966042 1.0877256e-38
0.028850339 -0.14275892 0.031966042 1.1708478e-38
0.030518718 -0.14194728 0.034905147 1.3276534e-38
0.032354575 -0.14194728 0.034905147 1.3737868e-38
0.034190428 -0.14194728 0.034905147 1.2170539e-38
0.036026288 -0.14194728 0.034905147 1.2999937e-38
0.037862141 -0.14194728 0.034905147 1.3092131e-38
0.039697994 -0.14194728 0.034905147 1.2170172e-38
0.041737404 -0.14275892 0.031966042 1.2723702e-38
0.043578412 -0.14275892 0.031966042 1.4290309e-38
0.045419421 -0.14275892 0.031966042 1.4382501e-38
0.04726043 -0.14275892 0.031966042 1.3368352e-38
0.049101438 -0.14275892 0.031966042 1.1893222e-38
0.050942447 -0.14275892 0.031966042 1.1893225e-38
0.014856146 -0.14934768 0.014881919 1.7473954e-39
0.016546331 -0.14822401 0.018925261 5.7118074e-39
0.018270239 -0.14738683 0.021937679 6.7252377e-39
0.019984402 -0.14655443 0.024933051 5.9880258e-39
0.021837745 -0.14655443 0.024933051 4.9742256e-39
0.023537029 -0.1457267 0.027911495 7.3716637e-39
0.025385145 -0.1457267 0.027911495 8.2939703e-39
0.027009331 -0.14459993 0.031966042 8.9404285e-39
0.028850339 -0.14459993 0.031966042 9.4965016e-39
0.030518718 -0.14378314 0.034905147 1.1525896e-38
0.032354575 -0.14378314 0.034905147 1.1248586e-38
0.034190428 -0.14378314 0.034905147 1.152517e-38
0.036026288 -0.14378314 0.034905147 1.2815906e-38
0.037862141 -0.14378314 0.034905147 1.2355285e-38
0.039697994 -0.14378314 0.034905147 1.1802108e-38
0.041533854 -0.14378314 0.034905147 1.2263084e-38
0.043369707 -0.14378314 0.034905147 1.5212984e-38
0.045419421 -0.14459993 0.031966042 1.2539311e-38
0.04726043 -0.14459993 0.031966042 1.106418e-38
0.049101438 -0.14459993 0.031966042 1.0603202e-38
0.050942447 -0.14459993 0.031966042 1.0786877e-38
