# .PCD v0.7 - Point Cloud Data file format
VERSION 0.7
FIELDS x y z rgb
SIZE 4 4 4 4
TYPE F F F F
COUNT 1 1 1 1
WIDTH 940
HEIGHT 1
VIEWPOINT 0 0 0 1 0 0 0
POINTS 940
DATA ascii
-0.045838624 -0.11962132 -0.046577293 2.341805e-38
-0.043869458 -0.11962132 -0.046577293 2.341805e-38
-0.041900299 -0.11962132 -0.046577293 2.341805e-38
-0.039931141 -0.11962132 -0.046577293 2.2865235e-38
-0.037923574 -0.11867525 -0.042595107 2.3509883e-38
-0.035961397 -0.11867525 -0.042595107 2.3509883e-38
-0.03399922 -0.11867525 -0.042595107 2.3325492e-38
-0.032037042 -0.11867525 -0.042595107 2.350988e-38
-0.03006414 -0.11770664 -0.03851803 2.3509883e-38
-0.028106526 -0.11700659 -0.035571415 2.3232933e-38
-0.02615666 -0.11700659 -0.035571415 2.350988e-38
-0.024206797 -0.11700659 -0.035571415 2.1574131e-38
0.0041156523 -0.10940616 -0.0035799323 2.0186135e-38
0.0060094241 -0.10940616 -0.0035799323 2.3320789e-38
0.0079031978 -0.10940616 -0.0035799323 2.3509149e-38
0.0095576327 -0.10774307 0.0034202756 2.3509156e-38
0.011439132 -0.10774307 0.0034202756 2.2678683e-38
-0.047807783 -0.12159048 -0.046577293 2.341805e-38
-0.045838624 -0.12159048 -0.046577293 2.341805e-38
-0.043869458 -0.12159048 -0.046577293 2.3141822e-38
-0.041847937 -0.12063743 -0.042595107 2.341805e-38
-0.039885759 -0.12063743 -0.042595107 2.2865235e-38
-0.037923574 -0.12063743 -0.042595107 2.341805e-38
-0.035929233 -0.11966167 -0.03851803 2.2588648e-38
-0.0339742 -0.11966167 -0.03851803 2.3509886e-38
-0.032019168 -0.11966167 -0.03851803 2.3509883e-38
-0.03006414 -0.11966167 -0.03851803 2.3233299e-38
-0.028106526 -0.11895646 -0.035571415 2.0374868e-38
-0.02616019 -0.11799283 -0.031545121 1.8069253e-38
-0.024217386 -0.11799283 -0.031545121 2.0004999e-38
0.0041156523 -0.11129995 -0.0035799323 1.917269e-38
0.0060094241 -0.11129995 -0.0035799323 2.3321855e-38
0.0078060534 -0.11058317 -0.00058503728 2.3509859e-38
0.0095576327 -0.10962458 0.0034202756 2.3509869e-38
0.011439132 -0.10962458 0.0034202756 2.3509879e-38
0.01332063 -0.10962458 0.0034202756 2.3509886e-38
0.015202129 -0.10962458 0.0034202756 2.2864882e-38
0.017083628 -0.10962458 0.0034202756 2.7803163e-40
0.018965127 -0.10962458 0.0034202756 2.7802883e-40
0.020846626 -0.10962458 0.0034202756 1.015947e-39
-0.047863111 -0.12428416 -0.04958256 2.3141819e-38
-0.045838624 -0.12355967 -0.046577293 2.3141822e-38
-0.043869458 -0.12355967 -0.046577293 2.341805e-38
-0.041847937 -0.12259962 -0.042595107 2.2957431e-38
-0.039885759 -0.12259962 -0.042595107 2.341805e-38
-0.037923574 -0.12259962 -0.042595107 2.341805e-38
-0.035929233 -0.12161671 -0.03851803 2.341805e-38
-0.0339742 -0.12161671 -0.03851803 2.1943279e-38
-0.032019168 -0.12161671 -0.03851803 2.341805e-38
-0.030056389 -0.12090631 -0.035571415 2.3048907e-38
-0.028102996 -0.11993565 -0.031545121 1.9821697e-38
-0.02616019 -0.11993565 -0.031545121 1.9359273e-38
-0.024217386 -0.11993565 -0.031545121 1.8436591e-38
0.0041156523 -0.11319371 -0.0035799323 1.4563622e-38
0.0060094241 -0.11319371 -0.0035799323 2.2493528e-38
0.0078060534 -0.11247168 -0.00058503728 2.3508414e-38
0.0095576327 -0.11150609 0.0034202756 2.3509869e-38
0.011439132 -0.11150609 0.0034202756 2.2679038e-38
0.01332063 -0.11150609 0.0034202756 2.3048907e-38
0.015202129 -0.11150609 0.0034202756 2.341805e-38
0.017083628 -0.11150609 0.0034202756 1.8256179e-38
0.018965127 -0.11150609 0.0034202756 2.2865235e-38
0.020846626 -0.11150609 0.0034202756 2.3418047e-38
0.022728125 -0.11150609 0.0034202756 2.350988e-38
-0.049837545 -0.1262586 -0.04958256 2.350988e-38
-0.047863111 -0.1262586 -0.04958256 2.3049261e-38
-0.045838624 -0.12552883 -0.046577293 2.2865232e-38
-0.043810114 -0.1245618 -0.042595107 2.3418047e-38
-0.041847937 -0.1245618 -0.042595107 2.3418047e-38
-0.039885759 -0.1245618 -0.042595107 2.3418047e-38
-0.037923574 -0.1245618 -0.042595107 2.1759608e-38
-0.035929233 -0.12357174 -0.03851803 2.3234379e-38
-0.0339742 -0.12357174 -0.03851803 2.3234379e-38
-0.032019168 -0.12357174 -0.03851803 2.2128393e-38
-0.030056389 -0.12285618 -0.035571415 1.9453641e-38
-0.028102996 -0.12187846 -0.031545121 2.2034756e-38
-0.02616019 -0.12187846 -0.031545121 2.3138219e-38
-0.024217386 -0.12187846 -0.031545121 2.0740763e-38
0.0041156523 -0.11508749 -0.0035799323 4.9770716e-39
0.0060094241 -0.11508749 -0.0035799323 1.0694645e-38
0.0079031978 -0.11508749 -0.0035799323 1.7885919e-38
0.0096945744 -0.1143602 -0.00058503728 2.3509869e-38
0.011583095 -0.1143602 -0.00058503728 2.350988e-38
0.013471616 -0.1143602 -0.00058503728 2.3509886e-38
0.015360137 -0.1143602 -0.00058503728 2.3509527e-38
0.017248658 -0.1143602 -0.00058503728 2.341805e-38
0.019137183 -0.1143602 -0.00058503728 2.3509883e-38
0.021025704 -0.1143602 -0.00058503728 2.2864869e-38
0.022914225 -0.1143602 -0.00058503728 2.2496087e-38
0.024802746 -0.1143602 -0.00058503728 2.1389023e-38
0.026691267 -0.1143602 -0.00058503728 1.5303761e-38
-0.049837545 -0.12823303 -0.04958256 2.3509879e-38
-0.047863111 -0.12823303 -0.04958256 2.3509879e-38
-0.045838624 -0.12749799 -0.046577293 2.3418042e-38
-0.043810114 -0.12652399 -0.042595107 2.3141816e-38
-0.041794322 -0.12552677 -0.03851803 2.3418047e-38
-0.03983929 -0.12552677 -0.03851803 1.5767248e-38
-0.037884258 -0.12552677 -0.03851803 1.7426413e-38
-0.035929233 -0.12552677 -0.03851803 2.2497173e-38
-0.033956118 -0.12480606 -0.035571415 1.8071785e-38
-0.032006256 -0.12480606 -0.035571415 1.4845657e-38
-0.030056389 -0.12480606 -0.035571415 1.5952005e-38
-0.028106526 -0.12480606 -0.035571415 1.5950563e-38
0.0041156523 -0.11698125 -0.0035799323 4.5179012e-39
0.0059175324 -0.11624874 -0.00058503728 4.1512808e-39
0.0078060534 -0.11624874 -0.00058503728 9.8659862e-39
0.0096945744 -0.11624874 -0.00058503728 2.3509873e-38
0.011583095 -0.11624874 -0.00058503728 2.341769e-38
0.013471616 -0.11624874 -0.00058503728 2.2864163e-38
0.015360137 -0.11624874 -0.00058503728 2.2771607e-38
0.017248658 -0.11624874 -0.00058503728 2.3509527e-38
0.019137183 -0.11624874 -0.00058503728 2.350988e-38
0.021025704 -0.11624874 -0.00058503728 7.2830876e-39
0.022914225 -0.11624874 -0.00058503728 4.8860012e-39
0.024802746 -0.11624874 -0.00058503728 4.9781983e-39
-0.05189757 -0.1311696 -0.053488214 2.1758152e-38
-0.049837545 -0.13020746 -0.04958256 2.3509873e-38
-0.047863111 -0.13020746 -0.04958256 2.3509873e-38
-0.045838624 -0.12946714 -0.046577293 2.3509876e-38
-0.043810114 -0.12848614 -0.042595107 2.3142174e-38
-0.041794322 -0.1274818 -0.03851803 2.3326208e-38
-0.03983929 -0.1274818 -0.03851803 1.6412617e-38
-0.037884258 -0.1274818 -0.03851803 1.1894675e-38
-0.03590598 -0.12675591 -0.035571415 1.3554918e-38
-0.033931412 -0.12576406 -0.031545121 5.6257383e-39
-0.031988606 -0.12576406 -0.031545121 9.0380556e-39
-0.030056389 -0.12675591 -0.035571415 1.0513186e-38
-0.028106526 -0.12675591 -0.035571415 1.0604292e-38
0.005794635 -0.11715056 0.0034202756 6.2735936e-39
0.0076761339 -0.11715056 0.0034202756 6.4565569e-39
0.0095576327 -0.11715056 0.0034202756 2.3234376e-38
0.011439132 -0.11715056 0.0034202756 2.3325856e-38
0.01332063 -0.11715056 0.0034202756 2.3509168e-38
0.015202129 -0.11715056 0.0034202756 2.3415898e-38
0.017083628 -0.11715056 0.0034202756 2.3509527e-38
0.018965127 -0.11715056 0.0034202756 2.1664886e-38
0.020577969 -0.11567034 0.0094291391 5.1618623e-39
0.022448933 -0.11567034 0.0094291391 4.6090444e-39
0.024319896 -0.11567034 0.0094291391 3.5956184e-39
0.026337737 -0.11639442 0.0064897956 2.2126951e-39
-0.05189757 -0.13315089 -0.053488214 2.2126213e-38
-0.04991629 -0.13315089 -0.053488214 2.3509869e-38
-0.047863111 -0.1321819 -0.04958256 2.3417673e-38
-0.045838624 -0.1314363 -0.046577293 2.3418036e-38
-0.043810114 -0.13044833 -0.042595107 2.341804e-38
-0.041794322 -0.12943684 -0.03851803 2.3141816e-38
-0.03983929 -0.12943684 -0.03851803 2.3234376e-38
-0.037855849 -0.12870578 -0.035571415 1.936324e-38
-0.035874214 -0.12770687 -0.031545121 1.6690649e-38
-0.033912808 -0.12695493 -0.028514344 1.5215163e-38
-0.031975321 -0.12695493 -0.028514344 1.5123686e-38
-0.0300458 -0.12770687 -0.031545121 1.0974884e-38
-0.028102996 -0.12770687 -0.031545121 1.0973438e-38
0.0038243346 -0.11827053 0.0064897956 1.7556588e-39
0.0057004523 -0.11827053 0.0064897956 1.0331654e-38
0.0075765681 -0.11827053 0.0064897956 1.3280487e-38
0.0094526876 -0.11827053 0.0064897956 2.2498619e-38
0.011328803 -0.11827053 0.0064897956 2.3417691e-38
0.013204919 -0.11827053 0.0064897956 2.3508809e-38
0.015202129 -0.11903207 0.0034202756 2.2862369e-38
0.017083628 -0.11903207 0.0034202756 1.0047166e-38
0.018707005 -0.1175413 0.0094291391 7.3731182e-39
0.020577969 -0.1175413 0.0094291391 2.6725718e-39
0.022448933 -0.1175413 0.0094291391 3.5023297e-39
0.024461621 -0.11827053 0.0064897956 4.9789045e-39
0.026337737 -0.11827053 0.0064897956 5.9930691e-39
0.02806182 -0.1175413 0.0094291391 5.1640427e-39
-0.05189757 -0.13513215 -0.053488214 2.0927304e-38
-0.04991629 -0.13513215 -0.053488214 2.2034014e-38
-0.047863111 -0.13415633 -0.04958256 2.2496074e-38
-0.045838624 -0.13340546 -0.046577293 2.3234004e-38
-0.043749355 -0.13139187 -0.03851803 2.341804e-38
-0.041755572 -0.13065563 -0.035571415 2.3418045e-38
-0.03980571 -0.13065563 -0.035571415 2.2774116e-38
-0.037855849 -0.13065563 -0.035571415 2.3142544e-38
-0.035874214 -0.12964968 -0.031545121 2.0286278e-38
-0.033912808 -0.12889244 -0.028514344 1.9732749e-38
-0.031957895 -0.12789918 -0.024538953 1.8811513e-38
-0.030027373 -0.12789918 -0.024538953 1.9179939e-38
-0.028096853 -0.12789918 -0.024538953 1.5860888e-38
-0.0129283 -0.12266256 -0.0035799323 5.5314029e-39
-0.011034528 -0.12266256 -0.0035799323 5.7161291e-39
-0.0091906395 -0.12191428 -0.00058503728 5.4395253e-39
-0.0073758569 -0.12091358 0.0034202756 7.1908696e-39
-0.005494358 -0.12091358 0.0034202756 9.586514e-39
0.00015013851 -0.12091358 0.0034202756 1.5852242e-38
0.0019482188 -0.12014665 0.0064897956 5.5299329e-39
0.0037392993 -0.11941226 0.0094291391 2.5861496e-39
0.005610263 -0.11941226 0.0094291391 1.6418378e-38
0.0074812267 -0.11941226 0.0094291391 2.1671382e-38
0.0094526876 -0.12014665 0.0064897956 2.2867037e-38
0.011328803 -0.12014665 0.0064897956 2.2127331e-38
0.013204919 -0.12014665 0.0064897956 2.3508809e-38
0.015081035 -0.12014665 0.0064897956 2.3508451e-38
0.016957154 -0.12014665 0.0064897956 8.0177828e-39
0.018707005 -0.11941226 0.0094291391 4.6987233e-39
0.020577969 -0.11941226 0.0094291391 6.174561e-39
0.022448933 -0.11941226 0.0094291391 4.1480536e-39
0.024319896 -0.11941226 0.0094291391 3.6874398e-39
0.02619086 -0.11941226 0.0094291391 3.688893e-39
0.029716561 -0.11840202 0.01347248 3.9665897e-39
0.031580433 -0.11840202 0.01347248 5.5339182e-39
-0.053715266 -0.13537462 -0.046577293 1.502534e-38
-0.051811971 -0.13613077 -0.04958256 1.8898277e-38
-0.049837545 -0.13613077 -0.04958256 1.9636565e-38
-0.047807783 -0.13537462 -0.046577293 2.2034014e-38
-0.045772292 -0.1343727 -0.042595107 2.3509869e-38
-0.043749355 -0.13334687 -0.03851803 2.3417676e-38
-0.041755572 -0.13260551 -0.035571415 2.1297544e-38
-0.03980571 -0.13260551 -0.035571415 2.2127667e-38
-0.037855849 -0.13260551 -0.035571415 2.0837654e-38
-0.035874214 -0.13159247 -0.031545121 1.9270692e-38
-0.033912808 -0.13082992 -0.028514344 1.8440932e-38
-0.031957895 -0.12982969 -0.024538953 2.2681931e-38
-0.030016994 -0.12883668 -0.020592172 2.2958873e-38
-0.028093394 -0.12883668 -0.020592172 2.2774125e-38
-0.026169792 -0.12883668 -0.020592172 2.2958154e-38
-0.024254318 -0.12805928 -0.017502386 2.3234379e-38
-0.022353731 -0.12704925 -0.013488012 2.2312784e-38
-0.020442586 -0.12704925 -0.013488012 1.5582152e-38
-0.0129283 -0.12455635 -0.0035799323 5.4392255e-39
-0.01107916 -0.12380283 -0.00058503728 1.2914759e-39
-0.0092573538 -0.12279506 0.0034202756 3.9651253e-39
-0.0073758569 -0.12279506 0.0034202756 4.887425e-39
-0.0055562481 -0.12202276 0.0064897956 4.4257251e-39
-0.0036801323 -0.12202276 0.0064897956 5.1622168e-39
-0.0018040147 -0.12202276 0.0064897956 8.1114092e-39
7.2101131e-05 -0.12202276 0.0064897956 7.92559e-39
0.0018683374 -0.12128322 0.0094291391 2.1183527e-39
0.0037392993 -0.12128322 0.0094291391 3.4130474e-39
0.005610263 -0.12128322 0.0094291391 2.2775202e-38
0.0074812267 -0.12128322 0.0094291391 2.2406425e-38
0.0093521904 -0.12128322 0.0094291391 2.2958514e-38
0.011223154 -0.12128322 0.0094291391 1.0602886e-38
0.013094118 -0.12128322 0.0094291391 1.0141184e-38
0.015081035 -0.12202276 0.0064897956 8.6656872e-39
0.016957154 -0.12202276 0.0064897956 7.0983502e-39
0.01883327 -0.12202276 0.0064897956 7.0057777e-39
0.020577969 -0.12128322 0.0094291391 5.0711002e-39
0.022448933 -0.12128322 0.0094291391 4.1491411e-39
0.024319896 -0.12128322 0.0094291391 8.9436767e-39
0.025988812 -0.12026589 0.01347248 1.6504086e-38
0.027852686 -0.12026589 0.01347248 2.129863e-38
0.029716561 -0.12026589 0.01347248 1.8071436e-38
-0.053715266 -0.13734378 -0.046577293 1.539376e-38
-0.051746108 -0.13734378 -0.046577293 1.7330587e-38
-0.049776942 -0.13734378 -0.046577293 1.6869253e-38
-0.047807783 -0.13734378 -0.046577293 2.2401711e-38
-0.045772292 -0.13633488 -0.042595107 2.3508786e-38
-0.043749355 -0.1353019 -0.03851803 2.3047454e-38
-0.041755572 -0.13455538 -0.035571415 2.0281234e-38
-0.03980571 -0.13455538 -0.035571415 2.0650382e-38
-0.037817016 -0.13353528 -0.031545121 1.8437334e-38
-0.035850301 -0.13276742 -0.028514344 1.7423903e-38
-0.033888415 -0.13176022 -0.024538953 1.7147317e-38
-0.031940594 -0.13076027 -0.020592172 2.3232944e-38
-0.030008867 -0.12997745 -0.017502386 2.3509886e-38
-0.028090684 -0.12997745 -0.017502386 2.341805e-38
-0.026172502 -0.12997745 -0.017502386 2.323402e-38
-0.024264876 -0.12896039 -0.013488012 2.2313152e-38
-0.022353731 -0.12896039 -0.013488012 2.2590439e-38
-0.020479202 -0.12744872 -0.0075214682 1.8165402e-38
-0.018578518 -0.12744872 -0.0075214682 1.8441281e-38
-0.016715843 -0.12645011 -0.0035799323 1.8532778e-38
-0.014822072 -0.12645011 -0.0035799323 1.9361486e-38
-0.0129283 -0.12645011 -0.0035799323 5.1626512e-39
-0.01107916 -0.12569134 -0.00058503728 4.6242849e-44
-0.0092573538 -0.12467657 0.0034202756 1.5677153e-39
-0.0073758569 -0.12467657 0.0034202756 2.8595065e-39
-0.0055562481 -0.12389888 0.0064897956 2.1226463e-39
-0.0036801323 -0.12389888 0.0064897956 4.0576755e-39
-0.0018040147 -0.12389888 0.0064897956 8.1135784e-39
7.2101131e-05 -0.12389888 0.0064897956 8.2050761e-39
0.0018683374 -0.12315418 0.0094291391 4.331073e-39
0.0037392993 -0.12315418 0.0094291391 6.5412444e-39
0.005610263 -0.12315418 0.0094291391 2.2121944e-38
0.0074812267 -0.12315418 0.0094291391 2.3507733e-38
0.0093521904 -0.12315418 0.0094291391 2.2401761e-38
0.011223154 -0.12315418 0.0094291391 6.6373945e-39
0.013094118 -0.12315418 0.0094291391 8.4831022e-39
0.015081035 -0.12389888 0.0064897956 1.4780294e-39
0.016836042 -0.12315418 0.0094291391 4.4293601e-39
0.018707005 -0.12315418 0.0094291391 5.3513108e-39
0.020577969 -0.12315418 0.0094291391 6.4580129e-39
0.022448933 -0.12315418 0.0094291391 5.443498e-39
0.024319896 -0.12315418 0.0094291391 1.6782839e-38
0.025988812 -0.12212978 0.01347248 2.3141822e-38
0.027852686 -0.12212978 0.01347248 2.3509886e-38
0.029716561 -0.12212978 0.01347248 2.3232585e-38
0.03180375 -0.12315418 0.0094291391 2.2126602e-38
0.033674709 -0.12315418 0.0094291391 1.3370898e-38
0.046791404 -0.11654995 0.035496037 9.3124775e-39
0.048616663 -0.11654995 0.035496037 8.3897995e-39
0.050441921 -0.11654995 0.035496037 8.7589366e-39
-0.053715266 -0.13931294 -0.046577293 1.4195219e-38
-0.051746108 -0.13931294 -0.046577293 1.4472166e-38
-0.049776942 -0.13931294 -0.046577293 1.4933144e-38
-0.047807783 -0.13931294 -0.046577293 2.1018057e-38
-0.04570438 -0.13725694 -0.03851803 2.1478682e-38
-0.043749355 -0.13725694 -0.03851803 1.9357831e-38
-0.041755572 -0.13650523 -0.035571415 1.8436242e-38
-0.03980571 -0.13650523 -0.035571415 1.9542239e-38
-0.037817016 -0.13547809 -0.031545121 1.769905e-38
-0.035850301 -0.1347049 -0.028514344 1.6869289e-38
-0.033888415 -0.13369073 -0.024538953 1.6593418e-38
-0.031940594 -0.13268389 -0.020592172 2.2770881e-38
-0.030008867 -0.13189565 -0.017502386 2.3231854e-38
-0.028090684 -0.13189565 -0.017502386 2.3416971e-38
-0.026172502 -0.13189565 -0.017502386 2.3233303e-38
-0.024264876 -0.13087155 -0.013488012 2.3142544e-38
-0.022379884 -0.12934943 -0.0075214682 2.1023464e-38
-0.020503389 -0.1283439 -0.0035799323 1.3371934e-38
-0.018609617 -0.1283439 -0.0035799323 1.3371581e-38
-0.016715843 -0.1283439 -0.0035799323 1.1250025e-38
-0.014822072 -0.1283439 -0.0035799323 1.2723396e-38
-0.012967682 -0.12757985 -0.00058503728 7.7441316e-39
-0.01107916 -0.12757985 -0.00058503728 6.4507093e-40
-0.0092573538 -0.12655805 0.0034202756 3.9236357e-44
-0.0074323658 -0.12577499 0.0064897956 5.5498286e-40
-0.0056155156 -0.12502514 0.0094291391 1.0166617e-39
-0.0037445519 -0.12502514 0.0094291391 3.0449655e-39
-0.0018040147 -0.12577499 0.0064897956 1.0881245e-38
7.2101131e-05 -0.12577499 0.0064897956 1.1064228e-38
0.0018683374 -0.12502514 0.0094291391 5.0682864e-39
0.0037392993 -0.12502514 0.0094291391 4.5100693e-39
0.005610263 -0.12502514 0.0094291391 7.1822978e-39
0.0074812267 -0.12502514 0.0094291391 6.4468908e-39
0.0093521904 -0.12502514 0.0094291391 1.6775317e-38
0.011223154 -0.12502514 0.0094291391 1.6317576e-38
0.013094118 -0.12502514 0.0094291391 1.2172006e-38
0.014965078 -0.12502514 0.0094291391 6.1814456e-39
0.016836042 -0.12502514 0.0094291391 1.9052474e-40
0.018707005 -0.12502514 0.0094291391 5.261999e-39
0.020577969 -0.12502514 0.0094291391 2.1948682e-38
0.022448933 -0.12502514 0.0094291391 2.2591531e-38
0.024319896 -0.12502514 0.0094291391 2.2591531e-38
0.025988812 -0.12399365 0.01347248 2.3234379e-38
0.027852686 -0.12399365 0.01347248 2.3509527e-38
0.029716561 -0.12399365 0.01347248 2.350773e-38
0.03180375 -0.12502514 0.0094291391 2.3509527e-38
0.033674709 -0.12502514 0.0094291391 2.2958873e-38
0.035545669 -0.12502514 0.0094291391 1.8995914e-38
0.036628477 -0.12170117 0.022458714 1.5861264e-38
0.041712999 -0.11991702 0.029452365 7.1015956e-39
0.043548852 -0.11991702 0.029452365 7.8384376e-39
0.045384713 -0.11991702 0.029452365 8.299413e-39
0.046791404 -0.11837523 0.035496037 8.2068558e-39
0.048616663 -0.11837523 0.035496037 8.0224589e-39
0.050441921 -0.11837523 0.035496037 1.014259e-38
0.052267186 -0.11837523 0.035496037 9.9578329e-39
0.054092444 -0.11837523 0.035496037 9.9574685e-39
-0.055684425 -0.1412821 -0.046577293 1.15212e-38
-0.053715266 -0.1412821 -0.046577293 1.2996687e-38
-0.051746108 -0.1412821 -0.046577293 1.3549858e-38
-0.049776942 -0.1412821 -0.046577293 1.520938e-38
-0.047807783 -0.1412821 -0.046577293 2.0280858e-38
-0.04570438 -0.13921197 -0.03851803 2.0925873e-38
-0.043705441 -0.13845511 -0.035571415 1.9542944e-38
-0.041755572 -0.13845511 -0.035571415 1.9081612e-38
-0.039759822 -0.13742088 -0.031545121 1.8896867e-38
-0.037817016 -0.13742088 -0.031545121 1.6593058e-38
-0.035850301 -0.13664238 -0.028514344 1.585549e-38
-0.033888415 -0.13562126 -0.024538953 1.6501213e-38
-0.031940594 -0.13460748 -0.020592172 2.2309536e-38
-0.030008867 -0.13381381 -0.017502386 2.2402085e-38
-0.028090684 -0.13381381 -0.017502386 2.2126584e-38
-0.026172502 -0.13381381 -0.017502386 2.341805e-38
-0.024264876 -0.13278268 -0.013488012 2.2404983e-38
-0.022379884 -0.1312501 -0.0075214682 1.8072839e-38
-0.020503389 -0.13023765 -0.0035799323 1.1066679e-38
-0.018609617 -0.13023765 -0.0035799323 1.2357063e-38
-0.016715843 -0.13023765 -0.0035799323 9.8667247e-39
-0.014822072 -0.13023765 -0.0035799323 9.7731263e-39
-0.012967682 -0.1294684 -0.00058503728 9.6798727e-39
-0.011138853 -0.12843956 0.0034202756 9.4954815e-39
-0.0092573538 -0.12843956 0.0034202756 6.4540584e-40
-0.0074323658 -0.12765111 0.0064897956 3.643376e-43
-0.0056155156 -0.1268961 0.0094291391 1.0761972e-42
-0.0037445519 -0.1268961 0.0094291391 3.7092931e-40
-0.0018040147 -0.12765111 0.0064897956 1.1526249e-38
7.2101131e-05 -0.12765111 0.0064897956 1.4014121e-38
0.0018683374 -0.1268961 0.0094291391 1.0692571e-38
0.0037392993 -0.1268961 0.0094291391 7.5532383e-39
0.005610263 -0.1268961 0.0094291391 4.509342e-39
0.0074812267 -0.1268961 0.0094291391 4.3274689e-39
0.0092139486 -0.12585752 0.01347248 1.6959705e-38
0.011077823 -0.12585752 0.01347248 2.0005395e-38
0.012941694 -0.12585752 0.01347248 1.3462019e-38
0.014805568 -0.12585752 0.01347248 1.0605394e-38
0.016669443 -0.12585752 0.01347248 4.6144744e-39
0.018533317 -0.12585752 0.01347248 6.9200813e-39
0.020577969 -0.1268961 0.0094291391 2.2591531e-38
0.022448933 -0.1268961 0.0094291391 2.2775202e-38
0.024319896 -0.1268961 0.0094291391 2.1576661e-38
0.025988812 -0.12585752 0.01347248 2.3142544e-38
0.027696876 -0.12508373 0.016484898 2.3509886e-38
0.029555468 -0.12508373 0.016484898 2.2493939e-38
0.031580433 -0.12585752 0.01347248 2.314075e-38
0.032932244 -0.1235493 0.022458714 2.2958514e-38
0.034780361 -0.1235493 0.022458714 2.2406783e-38
0.036628477 -0.1235493 0.022458714 2.2867037e-38
0.043548852 -0.12175287 0.029452365 9.5901546e-39
0.045384713 -0.12175287 0.029452365 8.8525867e-39
0.04700537 -0.12097444 0.032482903 9.4975946e-39
0.048616663 -0.12020047 0.035496037 7.4692852e-39
0.050441921 -0.12020047 0.035496037 9.77345e-39
0.052267186 -0.12020047 0.035496037 1.1248935e-38
-0.055684425 -0.14325126 -0.046577293 1.1982547e-38
-0.053715266 -0.14325126 -0.046577293 1.2812663e-38
-0.051746108 -0.14325126 -0.046577293 1.345803e-38
-0.049776942 -0.14325126 -0.046577293 1.4011201e-38
-0.047807783 -0.14325126 -0.046577293 1.5209744e-38
-0.04570438 -0.141167 -0.03851803 1.5394138e-38
-0.043705441 -0.14040495 -0.035571415 1.5578532e-38
-0.041755572 -0.14040495 -0.035571415 1.659233e-38
-0.039759822 -0.13936369 -0.031545121 1.7882712e-38
-0.037817016 -0.13936369 -0.031545121 1.8436965e-38
-0.035850301 -0.13857989 -0.028514344 1.8713908e-38
-0.033888415 -0.1375518 -0.024538953 1.7699752e-38
-0.031940594 -0.13653107 -0.020592172 1.99128e-38
-0.030008867 -0.13573201 -0.017502386 1.9820959e-38
-0.028090684 -0.13573201 -0.017502386 2.1204258e-38
-0.026172502 -0.13573201 -0.017502386 2.046743e-38
-0.024264876 -0.13469382 -0.013488012 1.7795552e-38
-0.022379884 -0.13315077 -0.0075214682 1.5121853e-38
-0.020503389 -0.13213144 -0.0035799323 9.5915433e-39
-0.018609617 -0.13213144 -0.0035799323 9.4057227e-39
-0.016744725 -0.13135691 -0.00058503728 8.668536e-39
-0.014856203 -0.13135691 -0.00058503728 1.1524116e-38
-0.012967682 -0.13135691 -0.00058503728 1.4566949e-38
-0.011138853 -0.13032107 0.0034202756 1.3182938e-38
-0.0093084835 -0.12952723 0.0064897956 3.1350396e-39
-0.0074864794 -0.12876706 0.0094291391 5.5389265e-40
-0.0056155156 -0.12876706 0.0094291391 4.6312354e-40
-0.0037445519 -0.12876706 0.0094291391 4.6240607e-40
-0.0018735901 -0.12876706 0.0094291391 1.1065266e-38
-2.6263297e-06 -0.12876706 0.0094291391 1.2722656e-38
0.0018683374 -0.12876706 0.0094291391 1.1522685e-38
0.0037392993 -0.12876706 0.0094291391 1.2902379e-38
0.005610263 -0.12876706 0.0094291391 6.816025e-39
0.0074812267 -0.12876706 0.0094291391 6.0802579e-39
0.0092139486 -0.12772138 0.01347248 1.3088562e-38
0.011077823 -0.12772138 0.01347248 1.3551338e-38
0.012941694 -0.12772138 0.01347248 1.1063492e-38
0.014805568 -0.12772138 0.01347248 7.5614976e-39
0.016669443 -0.12772138 0.01347248 1.0605748e-38
0.018533317 -0.12772138 0.01347248 1.7336027e-38
0.020397192 -0.12772138 0.01347248 2.2683366e-38
0.022261066 -0.12772138 0.01347248 2.2406422e-38
0.024124941 -0.12772138 0.01347248 2.3142544e-38
0.025688605 -0.12616767 0.019480269 2.3234379e-38
0.027541945 -0.12616767 0.019480269 2.3509886e-38
0.029395284 -0.12616767 0.019480269 2.3509527e-38
0.031248624 -0.12616767 0.019480269 2.3509886e-38
0.032932244 -0.1253974 0.022458714 2.3142544e-38
0.034780361 -0.1253974 0.022458714 2.2958873e-38
0.036383219 -0.12434883 0.02651326 2.3142544e-38
0.038224228 -0.12434883 0.02651326 2.3142544e-38
0.046791404 -0.12202574 0.035496037 1.5951286e-38
0.048616663 -0.12202574 0.035496037 9.7741759e-39
0.050441921 -0.12202574 0.035496037 9.4046675e-39
0.052267186 -0.12202574 0.035496037 1.1341133e-38
-0.055760831 -0.1460029 -0.04958256 1.0508144e-38
-0.053715266 -0.14522041 -0.046577293 1.1337902e-38
-0.051746108 -0.14522041 -0.046577293 1.189143e-38
-0.049776942 -0.14522041 -0.046577293 1.2536797e-38
-0.047807783 -0.14522041 -0.046577293 1.2444601e-38
-0.04570438 -0.14312203 -0.03851803 1.2352405e-38
-0.043705441 -0.14235483 -0.035571415 1.1430452e-38
-0.041755572 -0.14235483 -0.035571415 1.1983627e-38
-0.039759822 -0.1413065 -0.031545121 1.2168018e-38
-0.037817016 -0.1413065 -0.031545121 1.4840611e-38
-0.035850301 -0.14051737 -0.028514344 1.8252205e-38
-0.033888415 -0.1394823 -0.024538953 1.9266709e-38
-0.031940594 -0.13845469 -0.020592172 1.9912073e-38
-0.030008867 -0.13765021 -0.017502386 1.880608e-38
-0.028090684 -0.13765021 -0.017502386 1.9820956e-38
-0.026172502 -0.13765021 -0.017502386 2.2587564e-38
-0.024264876 -0.13660498 -0.013488012 1.7794827e-38
-0.022379884 -0.13505147 -0.0075214682 1.2079036e-38
-0.020503389 -0.1340252 -0.0035799323 8.2078858e-39
-0.018633246 -0.13324542 -0.00058503728 1.0142925e-38
-0.016744725 -0.13324542 -0.00058503728 1.1064897e-38
-0.014856203 -0.13324542 -0.00058503728 1.1247162e-38
-0.013020352 -0.13220255 0.0034202756 1.2722307e-38
-0.011138853 -0.13220255 0.0034202756 1.2905983e-38
-0.0093084835 -0.13140334 0.0064897956 4.7938322e-39
-0.0074864794 -0.13063805 0.0094291391 4.6133128e-40
-0.0056155156 -0.13063805 0.0094291391 1.0761972e-42
-0.0037445519 -0.13063805 0.0094291391 1.0761972e-42
-0.0018735901 -0.13063805 0.0094291391 1.0142584e-38
-2.6263297e-06 -0.13063805 0.0094291391 1.1431909e-38
0.0018683374 -0.13063805 0.0094291391 1.2629385e-38
0.0037392993 -0.13063805 0.0094291391 1.3088562e-38
0.005610263 -0.13063805 0.0094291391 5.9887769e-39
0.0074812267 -0.13063805 0.0094291391 4.6980353e-39
0.0092139486 -0.12958528 0.01347248 8.8479176e-39
0.011077823 -0.12958528 0.01347248 9.1252234e-39
0.012828136 -0.12880091 0.016484898 7.282387e-39
0.014686728 -0.12880091 0.016484898 5.3473577e-39
0.016545324 -0.12880091 0.016484898 2.0284126e-38
0.018533317 -0.12958528 0.01347248 2.3234379e-38
0.020262508 -0.12880091 0.016484898 2.3234379e-38
0.0221211 -0.12880091 0.016484898 2.268157e-38
0.023979692 -0.12880091 0.016484898 2.3234379e-38
0.025688605 -0.12802102 0.019480269 2.2403901e-38
0.027541945 -0.12802102 0.019480269 2.2219866e-38
0.029395284 -0.12802102 0.019480269 2.3509886e-38
0.031248624 -0.12802102 0.019480269 2.2865235e-38
0.032701202 -0.12618984 0.02651326 2.2958155e-38
0.03454221 -0.12618984 0.02651326 2.3050708e-38
0.036383219 -0.12618984 0.02651326 2.3234379e-38
0.038224228 -0.12618984 0.02651326 2.2773408e-38
0.040065236 -0.12618984 0.02651326 2.2404625e-38
0.041906245 -0.12618984 0.02651326 2.3142185e-38
0.043747254 -0.12618984 0.02651326 2.3234379e-38
0.045588262 -0.12618984 0.02651326 2.341805e-38
0.046791404 -0.12385099 0.035496037 2.2680488e-38
0.048616663 -0.12385099 0.035496037 1.5673976e-38
-0.053715266 -0.1471896 -0.046577293 1.1891797e-38
-0.051746108 -0.1471896 -0.046577293 1.0508857e-38
-0.049696654 -0.14614578 -0.042595107 1.0785801e-38
-0.047734469 -0.14614578 -0.042595107 1.0969474e-38
-0.04570438 -0.14507706 -0.03851803 1.0047517e-38
-0.043705441 -0.14430468 -0.035571415 5.2533446e-39
-0.041755572 -0.14430468 -0.035571415 3.6860203e-39
-0.039759822 -0.14324932 -0.031545121 1.5655208e-39
-0.037817016 -0.14324932 -0.031545121 2.5785924e-39
-0.035850301 -0.14245488 -0.028514344 5.9901838e-39
-0.033888415 -0.14141284 -0.024538953 9.309581e-39
-0.031940594 -0.14037828 -0.020592172 1.2260191e-38
-0.030008867 -0.13956837 -0.017502386 1.4288491e-38
-0.028090684 -0.13956837 -0.017502386 1.7608258e-38
-0.026172502 -0.13956837 -0.017502386 1.6503007e-38
-0.024264876 -0.13851611 -0.013488012 1.6134584e-38
-0.022379884 -0.13695215 -0.0075214682 9.7741423e-39
-0.020503389 -0.13591899 -0.0035799323 6.639844e-39
-0.018633246 -0.13513394 -0.00058503728 8.6677947e-39
-0.016744725 -0.13513394 -0.00058503728 9.4968505e-39
-0.014856203 -0.13513394 -0.00058503728 1.0325559e-38
-0.013020352 -0.13408406 0.0034202756 1.5303418e-38
-0.011138853 -0.13408406 0.0034202756 1.3182921e-38
-0.0093084835 -0.13327946 0.0064897956 4.9778592e-39
-0.0074864794 -0.13250901 0.0094291391 9.2552961e-41
-0.0056155156 -0.13250901 0.0094291391 1.0761972e-42
-0.0037445519 -0.13250901 0.0094291391 1.0761972e-42
-0.0018040147 -0.13327946 0.0064897956 1.4758321e-39
-2.6263297e-06 -0.13250901 0.0094291391 5.6051939e-45
0.0018683374 -0.13250901 0.0094291391 1.012731e-39
0.0037392993 -0.13250901 0.0094291391 5.5295938e-39
0.005610263 -0.13250901 0.0094291391 4.3310478e-39
0.0074812267 -0.13250901 0.0094291391 4.3314037e-39
0.0092139486 -0.13144915 0.01347248 4.9767732e-39
0.011077823 -0.13144915 0.01347248 4.9760543e-39
0.012828136 -0.13065951 0.016484898 2.7551349e-40
0.014686728 -0.13065951 0.016484898 3.8704242e-39
0.016545324 -0.13065951 0.016484898 2.3509527e-38
0.018403916 -0.13065951 0.016484898 2.3509168e-38
0.020262508 -0.13065951 0.016484898 2.3509527e-38
0.021981923 -0.12987436 0.019480269 2.2680128e-38
0.023835262 -0.12987436 0.019480269 2.341769e-38
0.025539773 -0.12909363 0.022458714 2.341805e-38
0.027387889 -0.12909363 0.022458714 2.3418047e-38
0.029236006 -0.12909363 0.022458714 2.3418047e-38
0.031084126 -0.12909363 0.022458714 2.3141819e-38
0.032701202 -0.12803085 0.02651326 2.341805e-38
0.03454221 -0.12803085 0.02651326 2.3233662e-38
0.036205433 -0.12726043 0.029452365 2.2772686e-38
0.038041286 -0.12726043 0.029452365 2.341805e-38
0.039877146 -0.12726043 0.029452365 2.3509527e-38
0.041712999 -0.12726043 0.029452365 2.3141466e-38
0.043548852 -0.12726043 0.029452365 2.2680491e-38
0.045174822 -0.12646608 0.032482903 2.3141466e-38
0.046791404 -0.12567626 0.035496037 2.212767e-38
0.048616663 -0.12567626 0.035496037 1.917741e-38
0.050892279 -0.12726043 0.029452365 1.5028604e-38
-0.051658832 -0.14810793 -0.042595107 9.034806e-39
-0.049696654 -0.14810793 -0.042595107 9.2191958e-39
-0.047734469 -0.14810793 -0.042595107 1.0140429e-38
-0.04570438 -0.1470321 -0.03851803 1.0417019e-38
-0.043705441 -0.14625455 -0.035571415 4.3321072e-39
-0.041755572 -0.14625455 -0.035571415 4.5917748e-40
-0.039759822 -0.1451921 -0.031545121 3.6734198e-40
-0.037817016 -0.1451921 -0.031545121 4.5917748e-40
-0.035874214 -0.1451921 -0.031545121 3.6734198e-40
-0.033888415 -0.14334334 -0.024538953 6.4284847e-40
-0.031940594 -0.14230187 -0.020592172 3.2246638e-39
-0.030016994 -0.14230187 -0.020592172 8.3879736e-39
-0.028090684 -0.14148657 -0.017502386 1.4289216e-38
-0.026172502 -0.14148657 -0.017502386 1.6133145e-38
-0.024254318 -0.14148657 -0.017502386 1.4013722e-38
-0.02241029 -0.13702248 -0.00058503728 6.6387748e-39
-0.020521767 -0.13702248 -0.00058503728 6.4547367e-39
-0.018633246 -0.13702248 -0.00058503728 8.3904918e-39
-0.016783349 -0.13596557 0.0034202756 8.9429593e-39
-0.014901851 -0.13596557 0.0034202756 8.8500672e-39
-0.013020352 -0.13596557 0.0034202756 1.032449e-38
-0.011138853 -0.13596557 0.0034202756 1.0232295e-38
-0.0093084835 -0.13515557 0.0064897956 2.8569939e-39
-0.0074323658 -0.13515557 0.0064897956 9.2194229e-41
-0.0056155156 -0.13437997 0.0094291391 3.6913565e-40
-0.0037445519 -0.13437997 0.0094291391 2.7694142e-40
-0.0018040147 -0.13515557 0.0064897956 9.2194229e-41
7.2101131e-05 -0.13515557 0.0064897956 9.1838299e-41
0.0018683374 -0.13437997 0.0094291391 1.9350404e-39
0.0037392993 -0.13437997 0.0094291391 2.0279521e-39
0.005610263 -0.13437997 0.0094291391 3.7796677e-39
0.0073500741 -0.13331302 0.01347248 3.7793076e-39
0.0091109518 -0.1325181 0.016484898 2.0265116e-39
0.010969544 -0.1325181 0.016484898 3.0403006e-39
0.012828136 -0.1325181 0.016484898 5.5101578e-40
0.014805568 -0.13331302 0.01347248 4.8831342e-39
0.016669443 -0.13331302 0.01347248 2.3506649e-38
0.018403916 -0.1325181 0.016484898 2.3044952e-38
0.020128584 -0.13172771 0.019480269 2.3508809e-38
0.021843536 -0.13094176 0.022458714 2.3509168e-38
0.023691652 -0.13094176 0.022458714 2.3509883e-38
0.025539773 -0.13094176 0.022458714 2.3509883e-38
0.027387889 -0.13094176 0.022458714 2.2588643e-38
0.029019183 -0.12987186 0.02651326 2.2681917e-38
0.030860191 -0.12987186 0.02651326 2.3234376e-38
0.032701202 -0.12987186 0.02651326 2.2403538e-38
0.03454221 -0.12987186 0.02651326 2.341769e-38
0.036022112 -0.1282966 0.032482903 2.3509886e-38
0.03785266 -0.1282966 0.032482903 2.3509886e-38
0.039877146 -0.12909628 0.029452365 2.3509527e-38
0.041712999 -0.12909628 0.029452365 2.341769e-38
0.043548852 -0.12909628 0.029452365 2.3325497e-38
0.045174822 -0.1282966 0.032482903 2.3509886e-38
0.046791404 -0.1275015 0.035496037 1.7517889e-38
0.048616663 -0.1275015 0.035496037 1.853204e-38
0.050666451 -0.1282966 0.032482903 1.5859443e-38
-0.049614444 -0.14898713 -0.03851803 8.9429621e-39
-0.047659412 -0.14898713 -0.03851803 8.0210058e-39
-0.04570438 -0.14898713 -0.03851803 9.4950597e-39
-0.043705441 -0.14820443 -0.035571415 4.4243028e-39
-0.041755572 -0.14820443 -0.035571415 2.3027299e-39
-0.039759822 -0.14713491 -0.031545121 9.197955e-40
-0.037817016 -0.14713491 -0.031545121 9.197955e-40
-0.035850301 -0.14632986 -0.028514344 3.6734198e-40
-0.033912808 -0.14632986 -0.028514344 5.5101298e-40
-0.031957895 -0.14527388 -0.024538953 6.4284847e-40
-0.030016994 -0.14422549 -0.020592172 5.5101298e-40
-0.028090684 -0.14340474 -0.017502386 1.3818372e-39
-0.026172502 -0.14340474 -0.017502386 1.0130617e-39
-0.024254318 -0.14340474 -0.017502386 9.2194229e-41
-0.02241029 -0.13891099 -0.00058503728 9.2552961e-41
-0.020521767 -0.13891099 -0.00058503728 7.1919486e-39
-0.018633246 -0.13891099 -0.00058503728 7.191594e-39
-0.016783349 -0.13784705 0.0034202756 6.5458757e-39
-0.014901851 -0.13784705 0.0034202756 5.4388261e-39
-0.013020352 -0.13784705 0.0034202756 1.3818695e-39
-0.011138853 -0.13784705 0.0034202756 5.5175286e-40
-0.0093574431 -0.13625093 0.0094291391 9.1842503e-41
-0.0074864794 -0.13625093 0.0094291391 3.6841818e-40
-0.0058782361 -0.13278987 0.022458714 3.6877691e-40
-0.0040301178 -0.13278987 0.022458714 9.2194229e-41
-0.0018040147 -0.13703169 0.0064897956 4.6097114e-40
-2.6263297e-06 -0.13625093 0.0094291391 9.2124024e-40
0.0018683374 -0.13625093 0.0094291391 9.1842503e-41
0.0037392993 -0.13625093 0.0094291391 1.847542e-40
0.0054861996 -0.13517688 0.01347248 2.7730576e-40
0.0072523598 -0.13437669 0.016484898 8.2976347e-40
0.0091109518 -0.13437669 0.016484898 2.7550649e-40
0.010969544 -0.13437669 0.016484898 1.1041896e-39
0.012828136 -0.13437669 0.016484898 1.2871389e-39
0.014805568 -0.13517688 0.01347248 5.3430305e-39
0.016669443 -0.13517688 0.01347248 2.3508089e-38
0.018403916 -0.13437669 0.016484898 2.3508089e-38
0.020128584 -0.13358103 0.019480269 2.3508445e-38
0.021843536 -0.13278987 0.022458714 2.3508086e-38
0.023496157 -0.13171287 0.02651326 2.3508081e-38
0.025337165 -0.13171287 0.02651326 2.3325129e-38
0.027178174 -0.13171287 0.02651326 2.3509879e-38
0.029019183 -0.13171287 0.02651326 2.3234374e-38
0.030860191 -0.13171287 0.02651326 2.2589722e-38
0.03253372 -0.13093217 0.029452365 2.3509883e-38
0.03436958 -0.13093217 0.029452365 2.3509527e-38
0.036022112 -0.13012715 0.032482903 2.3509527e-38
0.03785266 -0.13012715 0.032482903 2.2402819e-38
0.0396832 -0.13012715 0.032482903 2.3509527e-38
0.041513741 -0.13012715 0.032482903 2.3509883e-38
0.043344282 -0.13012715 0.032482903 1.9268168e-38
0.044966146 -0.12932678 0.035496037 1.3644953e-38
0.046791404 -0.12932678 0.035496037 1.5027888e-38
0.048616663 -0.12932678 0.035496037 1.6964715e-38
0.050666451 -0.13012715 0.032482903 1.5858364e-38
0.052728131 -0.13093217 0.029452365 1.1526249e-38
0.054563992 -0.13093217 0.029452365 1.1526249e-38
-0.039759822 -0.14907773 -0.031545121 6.4357435e-40
-0.037817016 -0.14907773 -0.031545121 3.6734479e-40
-0.035850301 -0.14826734 -0.028514344 3.6734479e-40
-0.033912808 -0.14826734 -0.028514344 7.3540424e-40
-0.031957895 -0.14720438 -0.024538953 5.5137171e-40
-0.030016994 -0.14614908 -0.020592172 5.5101298e-40
-0.028093394 -0.14614908 -0.020592172 5.5173044e-40
-0.026169792 -0.14614908 -0.020592172 2.7550649e-40
-0.024246192 -0.14614908 -0.020592172 2.7550649e-40
-0.0224413 -0.13890781 0.0064897956 1.7509799e-39
-0.020565184 -0.13890781 0.0064897956 4.7012386e-39
-0.01681295 -0.13890781 0.0064897956 8.1121252e-39
-0.014936834 -0.13890781 0.0064897956 5.3455543e-39
-0.013060716 -0.13890781 0.0064897956 5.5102699e-40
-0.011184599 -0.13890781 0.0064897956 2.755191e-40
-0.0093574431 -0.13812189 0.0094291391 2.7551349e-40
-0.0075609162 -0.13704078 0.01347248 3.6734198e-40
-0.0058782361 -0.134638 0.022458714 3.6770072e-40
-0.0040301178 -0.134638 0.022458714 3.6770072e-40
-0.0021819994 -0.134638 0.022458714 3.6734198e-40
-0.00010542199 -0.13704078 0.01347248 4.5918589e-40
0.0017584525 -0.13704078 0.01347248 2.755163e-40
0.003622327 -0.13704078 0.01347248 2.8025969e-45
0.0053937677 -0.13623528 0.016484898 4.6277321e-40
0.0072523598 -0.13623528 0.016484898 7.3756504e-40
0.0090085398 -0.13543437 0.019480269 9.1835496e-41
0.010861883 -0.13543437 0.019480269 7.3468397e-40
0.012715222 -0.13543437 0.019480269 1.3786128e-39
0.014805568 -0.13704078 0.01347248 5.9873181e-39
0.016669443 -0.13704078 0.01347248 2.3507726e-38
0.018533317 -0.13704078 0.01347248 2.3508086e-38
0.020128584 -0.13543437 0.019480269 2.3508444e-38
0.021843536 -0.134638 0.022458714 2.3508445e-38
0.023496157 -0.13355388 0.02651326 2.3509161e-38
0.025337165 -0.13355388 0.02651326 2.3509879e-38
0.027178174 -0.13355388 0.02651326 2.3325483e-38
0.028862009 -0.13276802 0.029452365 2.3418043e-38
0.030697865 -0.13276802 0.029452365 2.3418043e-38
0.032361031 -0.13195769 0.032482903 2.3509524e-38
0.034191571 -0.13195769 0.032482903 2.3231857e-38
0.035839848 -0.13115202 0.035496037 2.3509165e-38
0.037665106 -0.13115202 0.035496037 2.3509524e-38
0.039490364 -0.13115202 0.035496037 2.3509524e-38
0.041513741 -0.13195769 0.032482903 1.8991934e-38
0.043344282 -0.13195769 0.032482903 1.6318264e-38
0.044966146 -0.13115202 0.035496037 1.4843494e-38
0.046578676 -0.13035102 0.038491767 1.7609363e-38
0.048398688 -0.13035102 0.038491767 1.6411538e-38
0.050892279 -0.13276802 0.029452365 1.5212995e-38
0.052728131 -0.13276802 0.029452365 1.2631517e-38
0.054563992 -0.13276802 0.029452365 1.1987227e-38
-0.020565184 -0.14078392 0.0064897956 5.5208917e-40
-0.018689066 -0.14078392 0.0064897956 6.442834e-40
-0.01681295 -0.14078392 0.0064897956 9.2051156e-40
-0.014936834 -0.14078392 0.0064897956 9.2016404e-40
-0.013060716 -0.14078392 0.0064897956 2.755163e-40
-0.011184599 -0.14078392 0.0064897956 2.755163e-40
-0.0093574431 -0.13999285 0.0094291391 2.7551349e-40
-0.0075609162 -0.13890465 0.01347248 2.7550649e-40
-0.0058782361 -0.13648613 0.022458714 3.6734198e-40
-0.0040301178 -0.13648613 0.022458714 3.6734198e-40
-0.0021819994 -0.13648613 0.022458714 3.6734198e-40
-0.00025815889 -0.13728772 0.019480269 3.6734899e-40
0.0017584525 -0.13890465 0.01347248 2.755163e-40
0.003622327 -0.13890465 0.01347248 3.5873241e-43
0.0053937677 -0.13809387 0.016484898 1.7950633e-42
0.0072523598 -0.13809387 0.016484898 1.8438846e-40
0.0090085398 -0.13728772 0.019480269 9.1835496e-41
0.010861883 -0.13728772 0.019480269 9.1907243e-40
0.012715222 -0.13728772 0.019480269 1.1942216e-39
0.014686728 -0.13809387 0.016484898 5.2493902e-39
0.016545324 -0.13809387 0.016484898 2.2397056e-38
0.018533317 -0.13890465 0.01347248 2.1936078e-38
0.020128584 -0.13728772 0.019480269 2.1014121e-38
0.021843536 -0.13648613 0.022458714 2.1107756e-38
0.023496157 -0.13539489 0.02651326 2.221518e-38
0.025190299 -0.13460387 0.029452365 2.2677596e-38
0.027026152 -0.13460387 0.029452365 2.2863423e-38
0.028699948 -0.13378824 0.032482903 2.3325483e-38
0.030530488 -0.13378824 0.032482903 2.3509874e-38
0.032361031 -0.13378824 0.032482903 2.3509521e-38
0.03401459 -0.13297729 0.035496037 2.2585769e-38
0.035839848 -0.13297729 0.035496037 2.3508085e-38
0.037665106 -0.13297729 0.035496037 2.3508805e-38
0.039490364 -0.13297729 0.035496037 2.2217702e-38
0.04131563 -0.13297729 0.035496037 1.6870356e-38
0.043140888 -0.13297729 0.035496037 1.5395225e-38
0.044966146 -0.13297729 0.035496037 1.5672891e-38
0.046578676 -0.13217102 0.038491767 1.4197761e-38
0.048398688 -0.13217102 0.038491767 1.429032e-38
0.050218694 -0.13217102 0.038491767 1.4013733e-38
0.052952297 -0.13539489 0.02651326 1.1432974e-38
-0.020565184 -0.14266007 0.0064897956 9.1835496e-41
-0.018689066 -0.14266007 0.0064897956 9.1835496e-41
-0.01681295 -0.14266007 0.0064897956 9.1835496e-41
-0.014936834 -0.14266007 0.0064897956 9.1841101e-41
-0.013060716 -0.14266007 0.0064897956 5.5210319e-40
-0.011184599 -0.14266007 0.0064897956 9.1842503e-41
-0.0093574431 -0.14186381 0.0094291391 9.1842503e-41
-0.0075609162 -0.14076851 0.01347248 9.1838299e-41
-0.0058782361 -0.13833423 0.022458714 9.1835496e-41
-0.0040301178 -0.13833423 0.022458714 9.1835496e-41
-0.0021819994 -0.13833423 0.022458714 9.1838299e-41
-0.00025815889 -0.13914107 0.019480269 9.1841101e-41
0.0017584525 -0.14076851 0.01347248 5.6051939e-45
0.003622327 -0.14076851 0.01347248 7.1886611e-43
0.0053937677 -0.13995247 0.016484898 7.1746481e-43
0.0072523598 -0.13995247 0.016484898 0
0.0091109518 -0.13995247 0.016484898 2.7550649e-40
0.010969544 -0.13995247 0.016484898 1.0112681e-39
0.012828136 -0.13995247 0.016484898 8.2651947e-40
0.014686728 -0.13995247 0.016484898 3.8664543e-39
0.016545324 -0.13995247 0.016484898 1.8801426e-38
0.018403916 -0.13995247 0.016484898 1.9722664e-38
0.020128584 -0.13914107 0.019480269 1.7787271e-38
0.021843536 -0.13833423 0.022458714 1.8157133e-38
0.023496157 -0.13723589 0.02651326 2.0001762e-38
0.025190299 -0.13643973 0.029452365 2.0464179e-38
0.027026152 -0.13643973 0.029452365 2.138793e-38
0.028699948 -0.13561879 0.032482903 2.3324401e-38
0.030530488 -0.13561879 0.032482903 2.3509876e-38
0.032189332 -0.13480256 0.035496037 2.3509521e-38
0.03401459 -0.13480256 0.035496037 2.3509165e-38
0.035839848 -0.13480256 0.035496037 2.3509521e-38
0.037665106 -0.13480256 0.035496037 2.3509521e-38
0.039490364 -0.13480256 0.035496037 2.0373429e-38
0.04131563 -0.13480256 0.035496037 1.5118639e-38
0.043140888 -0.13480256 0.035496037 1.355167e-38
0.044966146 -0.13480256 0.035496037 1.3460195e-38
0.046791404 -0.13480256 0.035496037 1.2538239e-38
0.048616663 -0.13480256 0.035496037 1.2538959e-38
0.051111288 -0.13723589 0.02651326 1.2999937e-38
0.052952297 -0.13723589 0.02651326 1.134006e-38
0.055109657 -0.13833423 0.022458714 1.1340062e-38
-0.026178591 -0.14918335 -0.010555106 1.836752e-40
-0.02241029 -0.14646508 -0.00058503728 3.6806365e-40
-0.020565184 -0.14453618 0.0064897956 2.7622395e-40
-0.018689066 -0.14453618 0.0064897956 1.3822156e-39
-0.01681295 -0.14453618 0.0064897956 9.2123743e-40
-0.014936834 -0.14453618 0.0064897956 9.1838299e-41
-0.013060716 -0.14453618 0.0064897956 9.1838299e-41
-0.011184599 -0.14453618 0.0064897956 9.1841101e-41
-0.0093574431 -0.14373477 0.0094291391 9.1838299e-41
-0.0077263545 -0.14018236 0.022458714 9.1838299e-41
-0.0058782361 -0.14018236 0.022458714 9.1838299e-41
-0.0040301178 -0.14018236 0.022458714 9.1838299e-41
-0.0021115001 -0.14099441 0.019480269 9.1838299e-41
-0.00025815889 -0.14099441 0.019480269 9.1841101e-41
0.0017584525 -0.14263238 0.01347248 2.8025969e-45
0.003622327 -0.14263238 0.01347248 3.6950139e-40
0.0054861996 -0.14263238 0.01347248 7.1746481e-43
0.0073500741 -0.14263238 0.01347248 9.1835496e-41
0.0091109518 -0.14181106 0.016484898 3.6734198e-40
0.010969544 -0.14181106 0.016484898 8.2652087e-40
0.012828136 -0.14181106 0.016484898 7.3468397e-40
0.014686728 -0.14181106 0.016484898 2.6679111e-39
0.016545324 -0.14181106 0.016484898 1.5113601e-38
0.018403916 -0.14181106 0.016484898 1.465262e-38
0.020128584 -0.14099441 0.019480269 1.2439925e-38
0.021843536 -0.14018236 0.022458714 1.2717588e-38
0.023496157 -0.1390769 0.02651326 1.428563e-38
0.025190299 -0.13827558 0.029452365 1.4102317e-38
0.027026152 -0.13827558 0.029452365 1.5393416e-38
0.028699948 -0.13744931 0.032482903 1.8713178e-38
0.030530488 -0.13744931 0.032482903 2.0650368e-38
0.032189332 -0.13662781 0.035496037 2.2401733e-38
0.03401459 -0.13662781 0.035496037 2.3509165e-38
0.035839848 -0.13662781 0.035496037 2.2954551e-38
0.037478648 -0.13581105 0.038491767 1.7515365e-38
0.039298654 -0.13581105 0.038491767 1.2997779e-38
0.04131563 -0.13662781 0.035496037 1.1614843e-38
0.043140888 -0.13662781 0.035496037 1.2168736e-38
0.044966146 -0.13662781 0.035496037 1.2260931e-38
0.046791404 -0.13662781 0.035496037 1.2999217e-38
0.048835911 -0.13744931 0.032482903 1.2261652e-38
0.051111288 -0.1390769 0.02651326 1.2722631e-38
0.052952297 -0.1390769 0.02651326 1.2077981e-38
0.054793306 -0.1390769 0.02651326 1.216982e-38
0.056634314 -0.1390769 0.02651326 1.0141519e-38
-0.020521767 -0.14835359 -0.00058503728 0
-0.018664848 -0.14725454 0.0034202756 4.6097815e-40
-0.01681295 -0.1464123 0.0064897956 8.2976067e-40
-0.014936834 -0.1464123 0.0064897956 2.7658409e-40
-0.013060716 -0.1464123 0.0064897956 2.7658409e-40
-0.011184599 -0.1464123 0.0064897956 2.7658409e-40
-0.0093574431 -0.14560573 0.0094291391 9.2194229e-41
-0.0077263545 -0.14203046 0.022458714 0
-0.0058782361 -0.14203046 0.022458714 0
-0.0040301178 -0.14203046 0.022458714 2.8025969e-45
-0.0021115001 -0.14284773 0.019480269 2.8025969e-45
-0.00025815889 -0.14284773 0.019480269 0
0.0018683374 -0.14560573 0.0094291391 0
0.003622327 -0.14449625 0.01347248 2.7658689e-40
0.0054861996 -0.14449625 0.01347248 2.7586802e-40
0.0073500741 -0.14449625 0.01347248 9.1835496e-41
0.0091109518 -0.14366965 0.016484898 7.3540424e-40
0.010969544 -0.14366965 0.016484898 5.5101298e-40
0.012828136 -0.14366965 0.016484898 7.3468397e-40
0.014686728 -0.14366965 0.016484898 2.2076518e-39
0.016545324 -0.14366965 0.016484898 1.1795278e-38
0.018403916 -0.14366965 0.016484898 1.4100525e-38
0.020262508 -0.14366965 0.016484898 1.1980026e-38
0.021981923 -0.14284773 0.019480269 1.1887827e-38
0.023496157 -0.14091791 0.02651326 1.3362955e-38
0.025190299 -0.14011143 0.029452365 1.364026e-38
0.027026152 -0.14011143 0.029452365 1.4746606e-38
0.028699948 -0.13927986 0.032482903 1.7329163e-38
0.030530488 -0.13927986 0.032482903 1.9357828e-38
0.032189332 -0.13845308 0.035496037 2.0833328e-38
0.03401459 -0.13845308 0.035496037 2.2309182e-38
0.035839848 -0.13845308 0.035496037 2.0465269e-38
0.037478648 -0.13763104 0.038491767 1.5394865e-38
0.039298654 -0.13763104 0.038491767 1.1430813e-38
0.04131563 -0.13845308 0.035496037 1.1615562e-38
0.043140888 -0.13845308 0.035496037 1.2353127e-38
0.044966146 -0.13845308 0.035496037 1.2168733e-38
0.046791404 -0.13845308 0.035496037 1.3643863e-38
0.048835911 -0.13927986 0.032482903 1.3643863e-38
0.051111288 -0.14091791 0.02651326 1.4012648e-38
0.052952297 -0.14091791 0.02651326 1.2353849e-38
0.054793306 -0.14091791 0.02651326 1.2630438e-38
0.056634314 -0.14091791 0.02651326 1.1524091e-38
-0.018664848 -0.14913605 0.0034202756 1.6595213e-39
-0.01681295 -0.14828841 0.0064897956 3.5034311e-39
-0.014936834 -0.14828841 0.0064897956 3.3193958e-39
-0.013060716 -0.14828841 0.0064897956 2.1208512e-39
-0.011184599 -0.14828841 0.0064897956 5.5352551e-40
-0.0093574431 -0.14747669 0.0094291391 1.8474719e-40
-0.0076715201 -0.14470108 0.019480269 0
-0.0058181807 -0.14470108 0.019480269 0
-0.0039648395 -0.14470108 0.019480269 0
-0.0021115001 -0.14470108 0.019480269 9.219563e-41
-0.00018200651 -0.14552824 0.016484898 0
0.0018683374 -0.14747669 0.0094291391 0
0.003622327 -0.14636014 0.01347248 9.1838299e-41
0.0054861996 -0.14636014 0.01347248 2.7550929e-40
0.0073500741 -0.14636014 0.01347248 2.7550929e-40
0.0092139486 -0.14636014 0.01347248 7.3540704e-40
0.011077823 -0.14636014 0.01347248 5.5101298e-40
0.012941694 -0.14636014 0.01347248 6.4284847e-40
0.014805568 -0.14636014 0.01347248 1.9317866e-39
0.016669443 -0.14636014 0.01347248 8.4769547e-39
0.018533317 -0.14636014 0.01347248 9.3989082e-39
0.020397192 -0.14636014 0.01347248 8.0156108e-39
0.021981923 -0.14470108 0.019480269 7.3702386e-39
0.023496157 -0.14275892 0.02651326 8.7535304e-39
0.025337165 -0.14275892 0.02651326 1.0413052e-38
0.027026152 -0.14194728 0.029452365 1.1058418e-38
0.028862009 -0.14194728 0.029452365 1.1980375e-38
0.030530488 -0.14111041 0.032482903 1.3180361e-38
0.032189332 -0.14027832 0.035496037 1.2627917e-38
