# .PCD v0.7 - Point Cloud Data file format
VERSION 0.7
FIELDS x y z rgb
SIZE 4 4 4 4
TYPE F F F F
COUNT 1 1 1 1
WIDTH 935
HEIGHT 1
VIEWPOINT 0 0 0 1 0 0 0
POINTS 935
DATA ascii
0.047679164 -0.12501745 -0.021097979 1.3091779e-38
0.049863748 -0.12576406 -0.024128756 1.3367647e-38
0.051806562 -0.12576406 -0.024128756 1.4105566e-38
0.05374936 -0.12576406 -0.024128756 1.2352761e-38
0.056041606 -0.12675591 -0.028155049 8.3872674e-39
0.058252372 -0.1274818 -0.031101665 8.4794658e-39
-0.069105908 -0.1321819 -0.042166192 2.3509883e-38
-0.067131475 -0.1321819 -0.042166192 2.3509886e-38
-0.063041724 -0.13044833 -0.03517874 2.3509886e-38
-0.061079547 -0.13044833 -0.03517874 2.3509886e-38
-0.059117369 -0.13044833 -0.03517874 2.3509527e-38
-0.057155192 -0.13044833 -0.03517874 2.3325138e-38
-0.055193007 -0.13044833 -0.03517874 2.2679772e-38
-0.05323083 -0.13044833 -0.03517874 2.2956715e-38
-0.051307052 -0.1314363 -0.039160926 2.3509886e-38
-0.049337894 -0.1314363 -0.039160926 2.3509886e-38
-0.028054226 -0.12322696 -0.0060716467 2.3508067e-38
-0.026143081 -0.12322696 -0.0060716467 2.3509863e-38
-0.024231937 -0.12322696 -0.0060716467 2.3509869e-38
-0.022369646 -0.1224993 -0.0031387408 2.3233648e-38
-0.020519493 -0.12174667 -0.00010510278 2.341805e-38
-0.018618809 -0.12174667 -0.00010510278 2.341805e-38
-0.016718125 -0.12174667 -0.00010510278 2.2773388e-38
-0.014817443 -0.12174667 -0.00010510278 2.2865221e-38
-0.012916759 -0.12174667 -0.00010510278 2.323258e-38
-0.011123193 -0.1207688 0.0038364332 2.3140033e-38
-0.0092294216 -0.1207688 0.0038364332 2.3509168e-38
-0.0073356498 -0.1207688 0.0038364332 2.3509527e-38
-0.0054418761 -0.1207688 0.0038364332 2.3509527e-38
-0.0035481025 -0.1207688 0.0038364332 2.3509886e-38
-0.0017619785 -0.12002577 0.0068313284 2.3509886e-38
0.00012654252 -0.12002577 0.0068313284 2.341805e-38
0.0020150635 -0.12002577 0.0068313284 2.341805e-38
0.0039035846 -0.12002577 0.0068313284 2.3325856e-38
0.0057921093 -0.12002577 0.0068313284 2.3049632e-38
0.0075015519 -0.11903207 0.010836641 2.323402e-38
0.0093830507 -0.11903207 0.010836641 2.323402e-38
0.01126455 -0.11903207 0.010836641 2.3234379e-38
0.013146048 -0.11903207 0.010836641 2.3234379e-38
0.015027547 -0.11903207 0.010836641 2.2497176e-38
0.016744899 -0.11827053 0.013906161 2.3234376e-38
0.018458674 -0.1175413 0.016845504 2.3234012e-38
0.020329637 -0.1175413 0.016845504 2.3417327e-38
0.022200597 -0.1175413 0.016845504 2.3509527e-38
0.024249366 -0.11827053 0.013906161 2.3509527e-38
0.026125481 -0.11827053 0.013906161 2.3509527e-38
0.028001597 -0.11827053 0.013906161 2.3509167e-38
0.029877713 -0.11827053 0.013906161 2.3416971e-38
0.031753831 -0.11827053 0.013906161 2.3509167e-38
0.033629954 -0.11827053 0.013906161 2.3509527e-38
0.035724036 -0.11903207 0.010836641 2.3416971e-38
0.037896976 -0.12002577 0.0068313284 2.2034037e-38
0.040302373 -0.12174667 -0.00010510278 2.1204276e-38
0.042658128 -0.12322696 -0.0060716467 1.880719e-38
0.045431502 -0.12596865 -0.017122587 1.7239864e-38
0.04792095 -0.12770687 -0.024128756 1.373643e-38
0.049863748 -0.12770687 -0.024128756 1.3275452e-38
0.052141882 -0.12870578 -0.028155049 1.465766e-38
0.054091744 -0.12870578 -0.028155049 1.4012283e-38
0.056297339 -0.12943684 -0.031101665 8.3872674e-39
0.058252372 -0.12943684 -0.031101665 8.1106833e-39
0.060575552 -0.13044833 -0.03517874 8.8478952e-39
0.062537737 -0.13044833 -0.03517874 8.5720328e-39
-0.073054768 -0.13415633 -0.042166192 2.3509883e-38
-0.071080342 -0.13415633 -0.042166192 2.3509527e-38
-0.069105908 -0.13415633 -0.042166192 2.3509527e-38
-0.067060344 -0.13340546 -0.039160926 2.3509168e-38
-0.065091185 -0.13340546 -0.039160926 2.3509168e-38
-0.063041724 -0.13241051 -0.03517874 2.3509527e-38
-0.061079547 -0.13241051 -0.03517874 2.3509527e-38
-0.059117369 -0.13241051 -0.03517874 2.3509527e-38
-0.057155192 -0.13241051 -0.03517874 2.3232944e-38
-0.055193007 -0.13241051 -0.03517874 2.3509527e-38
-0.05323083 -0.13241051 -0.03517874 2.3509886e-38
-0.051268652 -0.13241051 -0.03517874 2.341805e-38
-0.049274303 -0.13139187 -0.031101665 2.2773039e-38
-0.047276482 -0.12964968 -0.024128756 2.2957428e-38
-0.045333676 -0.12964968 -0.024128756 1.3461275e-38
-0.043390874 -0.12964968 -0.024128756 6.2700161e-39
-0.035650365 -0.12789918 -0.017122587 3.4979997e-39
-0.033763025 -0.12614109 -0.01008602 1.1517938e-38
-0.031844843 -0.12614109 -0.01008602 1.6956781e-38
-0.029965371 -0.12513812 -0.0060716467 2.2581797e-38
-0.028054226 -0.12513812 -0.0060716467 2.3509146e-38
-0.026143081 -0.12513812 -0.0060716467 2.3509139e-38
-0.024231937 -0.12513812 -0.0060716467 2.2957768e-38
-0.022369646 -0.12440531 -0.0031387408 2.2958857e-38
-0.020519493 -0.12364738 -0.00010510278 2.2958873e-38
-0.018618809 -0.12364738 -0.00010510278 2.2958873e-38
-0.016718125 -0.12364738 -0.00010510278 2.3234369e-38
-0.014910739 -0.12266256 0.0038364332 2.3509876e-38
-0.013016967 -0.12266256 0.0038364332 2.3509168e-38
-0.011123193 -0.12266256 0.0038364332 2.3508809e-38
-0.0092294216 -0.12266256 0.0038364332 2.3509883e-38
-0.0073356498 -0.12266256 0.0038364332 2.3509876e-38
-0.0054418761 -0.12266256 0.0038364332 2.3509874e-38
-0.0036504995 -0.12191428 0.0068313284 2.3234004e-38
-0.0017619785 -0.12191428 0.0068313284 2.3141808e-38
0.00012654252 -0.12191428 0.0068313284 2.3326199e-38
0.0018570554 -0.12091358 0.010836641 2.3418043e-38
0.0037385542 -0.12091358 0.010836641 2.3418045e-38
0.0057921093 -0.12191428 0.0068313284 2.3325856e-38
0.0075015519 -0.12091358 0.010836641 2.3233662e-38
0.0093830507 -0.12091358 0.010836641 2.3325856e-38
0.011116548 -0.12014665 0.013906161 2.2680844e-38
0.012992663 -0.12014665 0.013906161 2.3418047e-38
0.014868779 -0.12014665 0.013906161 2.2588997e-38
0.01658771 -0.11941226 0.016845504 2.3418035e-38
0.018458674 -0.11941226 0.016845504 2.3418038e-38
0.020329637 -0.11941226 0.016845504 2.350988e-38
0.022200597 -0.11941226 0.016845504 2.3509527e-38
0.024071565 -0.11941226 0.016845504 2.3509527e-38
0.025942525 -0.11941226 0.016845504 2.3509527e-38
0.027813492 -0.11941226 0.016845504 2.3509527e-38
0.029684452 -0.11941226 0.016845504 2.3509167e-38
0.031753831 -0.12014665 0.013906161 2.3509167e-38
0.033629954 -0.12014665 0.013906161 2.3509527e-38
0.035724036 -0.12091358 0.010836641 2.3509167e-38
0.037896976 -0.12191428 0.0068313284 1.9451839e-38
0.040528432 -0.12440531 -0.0031387408 1.9175252e-38
0.042964302 -0.12614109 -0.01008602 1.7607926e-38
0.045123555 -0.12691309 -0.013175805 1.6870361e-38
0.047679164 -0.12889244 -0.021097979 1.4288883e-38
0.049863748 -0.12964968 -0.024128756 1.3459123e-38
0.051806562 -0.12964968 -0.024128756 1.5579617e-38
0.054091744 -0.13065563 -0.028155049 1.5210826e-38
0.056297339 -0.13139187 -0.031101665 8.6638543e-39
0.058252372 -0.13139187 -0.031101665 8.6638599e-39
0.060575552 -0.13241051 -0.03517874 9.5854616e-39
0.062537737 -0.13241051 -0.03517874 9.216326e-39
-0.073054768 -0.13613077 -0.042166192 2.3508445e-38
-0.071080342 -0.13613077 -0.042166192 2.3509527e-38
-0.069105908 -0.13613077 -0.042166192 2.3509527e-38
-0.067060344 -0.13537462 -0.039160926 2.3509168e-38
-0.065091185 -0.13537462 -0.039160926 2.3509527e-38
-0.063122019 -0.13537462 -0.039160926 2.3509527e-38
-0.061152861 -0.13537462 -0.039160926 2.3509527e-38
-0.059117369 -0.1343727 -0.03517874 2.3509527e-38
-0.057155192 -0.1343727 -0.03517874 2.3417691e-38
-0.055193007 -0.1343727 -0.03517874 2.3416974e-38
-0.05323083 -0.1343727 -0.03517874 2.3141103e-38
-0.051268652 -0.1343727 -0.03517874 2.3509886e-38
-0.049274303 -0.13334687 -0.031101665 2.3509883e-38
-0.047276482 -0.13159247 -0.024128756 2.2956346e-38
-0.045320392 -0.13082992 -0.021097979 1.1155305e-38
-0.043372445 -0.12982969 -0.017122587 4.0562406e-39
-0.041435756 -0.12805928 -0.01008602 1.1052545e-39
-0.039521094 -0.12704925 -0.0060716467 2.5792972e-39
-0.03760995 -0.12704925 -0.0060716467 6.542982e-39
-0.035698805 -0.12704925 -0.0060716467 4.4210378e-39
-0.03378766 -0.12704925 -0.0060716467 5.9872873e-39
-0.031876516 -0.12704925 -0.0060716467 5.893668e-39
-0.029965371 -0.12704925 -0.0060716467 1.0595645e-38
-0.028054226 -0.12704925 -0.0060716467 1.6867095e-38
-0.026143081 -0.12704925 -0.0060716467 2.3507332e-38
-0.024275647 -0.12631132 -0.0031387408 2.3509856e-38
-0.022420175 -0.12554805 -0.00010510278 2.3509866e-38
-0.020519493 -0.12554805 -0.00010510278 2.2866308e-38
-0.018618809 -0.12554805 -0.00010510278 2.2589724e-38
-0.016718125 -0.12554805 -0.00010510278 2.3418039e-38
-0.014910739 -0.12455635 0.0038364332 2.3509873e-38
-0.013016967 -0.12455635 0.0038364332 2.3508441e-38
-0.011123193 -0.12455635 0.0038364332 2.3509163e-38
-0.0092294216 -0.12455635 0.0038364332 2.3509154e-38
-0.0073356498 -0.12455635 0.0038364332 2.3509866e-38
-0.0055390205 -0.12380283 0.0068313284 2.3509863e-38
-0.0036504995 -0.12380283 0.0068313284 2.350986e-38
-0.0017619785 -0.12380283 0.0068313284 2.3509866e-38
-2.4443492e-05 -0.12279506 0.010836641 2.350987e-38
0.0018570554 -0.12279506 0.010836641 2.341804e-38
0.0037385542 -0.12279506 0.010836641 2.3418045e-38
0.005620053 -0.12279506 0.010836641 2.3418047e-38
0.0075015519 -0.12279506 0.010836641 2.3233296e-38
0.0093830507 -0.12279506 0.010836641 2.3509886e-38
0.010974823 -0.12128322 0.016845504 2.3141103e-38
0.012845786 -0.12128322 0.016845504 2.3418047e-38
0.014716746 -0.12128322 0.016845504 2.3234369e-38
0.01658771 -0.12128322 0.016845504 2.3418033e-38
0.018458674 -0.12128322 0.016845504 2.2958133e-38
0.020329637 -0.12128322 0.016845504 2.3418043e-38
0.022200597 -0.12128322 0.016845504 2.3324775e-38
0.024071565 -0.12128322 0.016845504 2.323258e-38
0.025942525 -0.12128322 0.016845504 2.3416971e-38
0.027813492 -0.12128322 0.016845504 2.3509527e-38
0.029684452 -0.12128322 0.016845504 2.3509527e-38
0.031555422 -0.12128322 0.016845504 2.3509527e-38
0.033629954 -0.12202276 0.013906161 2.3509524e-38
0.03550607 -0.12202276 0.013906161 2.3509527e-38
0.037382185 -0.12202276 0.013906161 1.7239141e-38
0.040528432 -0.12631132 -0.0031387408 1.7054752e-38
0.042964302 -0.12805928 -0.01008602 1.6041321e-38
0.045123555 -0.12883668 -0.013175805 1.6041321e-38
0.047679164 -0.13082992 -0.021097979 1.4289604e-38
0.049616657 -0.13082992 -0.021097979 1.3552039e-38
0.051806562 -0.13159247 -0.024128756 1.6779239e-38
0.054091744 -0.13260551 -0.028155049 1.4842043e-38
0.056297339 -0.13334687 -0.031101665 8.1117595e-39
0.058613367 -0.1343727 -0.03517874 9.124838e-39
0.060935132 -0.13537462 -0.039160926 1.0600693e-38
0.062904291 -0.13537462 -0.039160926 1.0507062e-38
-0.073054768 -0.1381052 -0.042166192 2.3505924e-38
-0.071080342 -0.1381052 -0.042166192 2.3508451e-38
-0.069105908 -0.1381052 -0.042166192 2.3509168e-38
-0.067060344 -0.13734378 -0.039160926 2.3046749e-38
-0.065091185 -0.13734378 -0.039160926 2.2955273e-38
-0.063122019 -0.13734378 -0.039160926 2.3509527e-38
-0.061152861 -0.13734378 -0.039160926 2.3509527e-38
-0.059117369 -0.13633488 -0.03517874 2.3509524e-38
-0.057155192 -0.13633488 -0.03517874 2.3509523e-38
-0.0551394 -0.1353019 -0.031101665 2.3509524e-38
-0.053184368 -0.1353019 -0.031101665 2.3509161e-38
-0.051229335 -0.1353019 -0.031101665 2.3509521e-38
-0.049274303 -0.1353019 -0.031101665 2.350952e-38
-0.047276482 -0.13353528 -0.024128756 2.1940031e-38
-0.045302968 -0.13176022 -0.017122587 8.8482511e-39
-0.043362066 -0.13076027 -0.013175805 5.3440983e-39
-0.041432239 -0.12896039 -0.0060716467 2.0257689e-39
-0.039521094 -0.12896039 -0.0060716467 1.8442503e-39
-0.03760995 -0.12896039 -0.0060716467 5.4398799e-39
-0.035698805 -0.12896039 -0.0060716467 5.6224803e-39
-0.033805661 -0.12821732 -0.0031387408 4.6987289e-39
-0.031899657 -0.12821732 -0.0031387408 4.1433971e-39
-0.029993653 -0.12821732 -0.0031387408 1.6533977e-39
-0.028087653 -0.12821732 -0.0031387408 6.5400925e-39
-0.026221544 -0.12744872 -0.00010510278 1.880246e-38
-0.024320859 -0.12744872 -0.00010510278 2.3509482e-38
-0.022420175 -0.12744872 -0.00010510278 2.3509489e-38
-0.020592056 -0.12645011 0.0038364332 2.3507708e-38
-0.018698284 -0.12645011 0.0038364332 2.3508797e-38
-0.016804511 -0.12645011 0.0038364332 2.3509153e-38
-0.014910739 -0.12645011 0.0038364332 2.3507707e-38
-0.013016967 -0.12645011 0.0038364332 2.3509859e-38
-0.011123193 -0.12645011 0.0038364332 2.3508418e-38
-0.0092294216 -0.12645011 0.0038364332 2.3509146e-38
-0.0073356498 -0.12645011 0.0038364332 2.3506982e-38
-0.0055390205 -0.12569134 0.0068313284 2.3509853e-38
-0.0036504995 -0.12569134 0.0068313284 2.3048152e-38
-0.0017619785 -0.12569134 0.0068313284 2.3509863e-38
-2.4443492e-05 -0.12467657 0.010836641 2.3418039e-38
0.0018570554 -0.12467657 0.010836641 2.341805e-38
0.0037385542 -0.12467657 0.010836641 2.2680491e-38
0.005620053 -0.12467657 0.010836641 2.3509886e-38
0.0073643122 -0.12389888 0.013906161 2.3509527e-38
0.0091038588 -0.12315418 0.016845504 2.2955999e-38
0.010974823 -0.12315418 0.016845504 2.3416615e-38
0.012845786 -0.12315418 0.016845504 2.3509168e-38
0.014716746 -0.12315418 0.016845504 2.341805e-38
0.01658771 -0.12315418 0.016845504 2.341804e-38
0.018458674 -0.12315418 0.016845504 2.2774465e-38
0.020329637 -0.12315418 0.016845504 2.2958507e-38
0.022200597 -0.12315418 0.016845504 2.3234379e-38
0.024071565 -0.12315418 0.016845504 2.3234379e-38
0.025942525 -0.12315418 0.016845504 2.3141822e-38
0.027813492 -0.12315418 0.016845504 2.341805e-38
0.029684452 -0.12315418 0.016845504 2.3509883e-38
0.031555422 -0.12315418 0.016845504 2.3509883e-38
0.033629954 -0.12389888 0.013906161 2.350988e-38
0.035297342 -0.12315418 0.016845504 2.3509883e-38
0.037168309 -0.12315418 0.016845504 1.6594848e-38
0.040528432 -0.12821732 -0.0031387408 1.5949481e-38
0.043199949 -0.13076027 -0.013175805 1.5949841e-38
0.045431502 -0.13176022 -0.017122587 1.558178e-38
0.047679164 -0.13276742 -0.021097979 1.558178e-38
0.049616657 -0.13276742 -0.021097979 1.3922979e-38
0.051554151 -0.13276742 -0.021097979 1.595056e-38
0.05374936 -0.13353528 -0.024128756 1.4843485e-38
0.056041606 -0.13455538 -0.028155049 9.4950569e-39
0.058613367 -0.13633488 -0.03517874 9.2177539e-39
0.060935132 -0.13734378 -0.039160926 1.0693606e-38
0.062904291 -0.13734378 -0.039160926 1.1799236e-38
-0.073054768 -0.14007963 -0.042166192 2.3508082e-38
-0.071080342 -0.14007963 -0.042166192 2.3507726e-38
-0.069105908 -0.14007963 -0.042166192 2.3509168e-38
-0.067060344 -0.13931294 -0.039160926 2.3509165e-38
-0.065091185 -0.13931294 -0.039160926 2.1295749e-38
-0.063041724 -0.13829704 -0.03517874 2.120355e-38
-0.061079547 -0.13829704 -0.03517874 2.332405e-38
-0.059117369 -0.13829704 -0.03517874 2.3231854e-38
-0.057094425 -0.13725694 -0.031101665 2.3509518e-38
-0.05510065 -0.13650523 -0.028155049 2.3416603e-38
-0.053150788 -0.13650523 -0.028155049 2.3509156e-38
-0.051200919 -0.13650523 -0.028155049 2.3508437e-38
-0.049251057 -0.13650523 -0.028155049 2.0741485e-38
-0.047257885 -0.1347049 -0.021097979 1.7513919e-38
-0.045302968 -0.13369073 -0.017122587 6.0809417e-39
-0.043353941 -0.13189565 -0.01008602 4.1448335e-39
-0.041432239 -0.13087155 -0.0060716467 1.749182e-39
-0.039523665 -0.13012333 -0.0031387408 3.6949438e-40
-0.037617661 -0.13012333 -0.0031387408 2.5836188e-39
-0.035711661 -0.13012333 -0.0031387408 1.9357425e-39
-0.033805661 -0.13012333 -0.0031387408 1.3807736e-39
-0.031923592 -0.12934943 -0.00010510278 3.1306871e-39
-0.030022908 -0.12934943 -0.00010510278 2.115445e-39
-0.028122226 -0.12934943 -0.00010510278 1.8381449e-39
-0.026221544 -0.12934943 -0.00010510278 5.7103207e-39
-0.024379602 -0.1283439 0.0038364332 1.8063456e-38
-0.022485828 -0.1283439 0.0038364332 2.3318257e-38
-0.020592056 -0.1283439 0.0038364332 2.3508425e-38
-0.018698284 -0.1283439 0.0038364332 2.3411557e-38
-0.016804511 -0.1283439 0.0038364332 1.6866388e-38
-0.014910739 -0.1283439 0.0038364332 1.2166205e-38
-0.013016967 -0.1283439 0.0038364332 1.1522259e-38
-0.011123193 -0.1283439 0.0038364332 1.207507e-38
-0.0092294216 -0.1283439 0.0038364332 1.6036256e-38
-0.0073356498 -0.1283439 0.0038364332 1.6958211e-38
-0.0055390205 -0.12757985 0.0068313284 1.705363e-38
-0.0036504995 -0.12757985 0.0068313284 2.1203514e-38
-0.0017619785 -0.12757985 0.0068313284 2.1942895e-38
-2.4443492e-05 -0.12655805 0.010836641 2.2588278e-38
0.0018570554 -0.12655805 0.010836641 2.341805e-38
0.0037385542 -0.12655805 0.010836641 2.3509527e-38
0.0054881964 -0.12577499 0.013906161 2.258721e-38
0.0073643122 -0.12577499 0.013906161 2.3509527e-38
0.0091038588 -0.12502514 0.016845504 2.3509168e-38
0.010974823 -0.12502514 0.016845504 2.3508809e-38
0.012845786 -0.12502514 0.016845504 2.3508809e-38
0.014507612 -0.12399365 0.020888845 2.3140391e-38
0.016371487 -0.12399365 0.020888845 2.3418045e-38
0.018235361 -0.12399365 0.020888845 2.2958859e-38
0.020099236 -0.12399365 0.020888845 2.2866674e-38
0.022200597 -0.12502514 0.016845504 2.2958873e-38
0.023826985 -0.12399365 0.020888845 2.3142544e-38
0.025690859 -0.12399365 0.020888845 2.3142542e-38
0.027554734 -0.12399365 0.020888845 2.3418047e-38
0.029418601 -0.12399365 0.020888845 2.3509883e-38
0.031282477 -0.12399365 0.020888845 2.3417324e-38
0.033426382 -0.12502514 0.016845504 2.350988e-38
0.035297342 -0.12502514 0.016845504 2.3232933e-38
0.037168309 -0.12502514 0.016845504 1.401337e-38
0.041570462 -0.13369073 -0.017122587 1.3092133e-38
0.043500982 -0.13369073 -0.017122587 1.3553111e-38
0.045431502 -0.13369073 -0.017122587 1.3922259e-38
0.047679164 -0.1347049 -0.021097979 1.3922979e-38
0.049616657 -0.1347049 -0.021097979 1.3739307e-38
0.051554151 -0.1347049 -0.021097979 1.613603e-38
0.05374936 -0.13547809 -0.024128756 1.558105e-38
0.055692174 -0.13547809 -0.024128756 9.21847e-39
0.057991467 -0.13650523 -0.028155049 7.927734e-39
0.060935132 -0.13931294 -0.039160926 9.1262799e-39
-0.075029202 -0.14205404 -0.042166192 1.3639544e-38
-0.073054768 -0.14205404 -0.042166192 2.350556e-38
-0.071080342 -0.14205404 -0.042166192 2.3509161e-38
-0.069105908 -0.14205404 -0.042166192 2.3509879e-38
-0.067060344 -0.1412821 -0.039160926 2.3509879e-38
-0.065091185 -0.1412821 -0.039160926 1.8806821e-38
-0.063041724 -0.14025922 -0.03517874 1.8899017e-38
-0.061079547 -0.14025922 -0.03517874 2.3509876e-38
-0.059049457 -0.13921197 -0.031101665 2.3417679e-38
-0.057094425 -0.13921197 -0.031101665 2.3509876e-38
-0.05510065 -0.13845511 -0.028155049 2.3509876e-38
-0.0531049 -0.13742088 -0.024128756 2.3509873e-38
-0.051162094 -0.13742088 -0.024128756 2.3047814e-38
-0.049219288 -0.13742088 -0.024128756 1.7976692e-38
-0.047257885 -0.13664238 -0.021097979 1.4472179e-38
-0.045302968 -0.13562126 -0.017122587 5.6206796e-39
-0.043353941 -0.13381381 -0.01008602 4.514332e-39
-0.041432239 -0.13278268 -0.0060716467 2.2101602e-39
-0.039523665 -0.13202934 -0.0031387408 8.3046552e-40
-0.037617661 -0.13202934 -0.0031387408 2.2137601e-39
-0.035711661 -0.13202934 -0.0031387408 1.3832876e-39
-0.033824276 -0.1312501 -0.00010510278 5.5173184e-40
-0.031923592 -0.1312501 -0.00010510278 2.0246997e-39
-0.030022908 -0.1312501 -0.00010510278 2.3001978e-39
-0.028122226 -0.1312501 -0.00010510278 1.0101905e-39
-0.026221544 -0.1312501 -0.00010510278 1.1938615e-39
-0.024379602 -0.13023765 0.0038364332 4.2348487e-39
-0.022485828 -0.13023765 0.0038364332 1.1794893e-38
-0.020592056 -0.13023765 0.0038364332 1.6589077e-38
-0.018698284 -0.13023765 0.0038364332 1.2717585e-38
-0.016804511 -0.13023765 0.0038364332 5.8036317e-39
-0.014910739 -0.13023765 0.0038364332 2.5778623e-39
-0.013093106 -0.1294684 0.0068313284 3.0399096e-39
-0.011204585 -0.1294684 0.0068313284 5.9898082e-39
-0.0092294216 -0.13023765 0.0038364332 4.6039983e-39
-0.0073356498 -0.13023765 0.0038364332 5.4337576e-39
-0.0055390205 -0.1294684 0.0068313284 6.08235e-39
-0.0037874412 -0.12843956 0.010836641 1.1707721e-38
-0.0019059423 -0.12843956 0.010836641 9.8656232e-39
-2.4443492e-05 -0.12843956 0.010836641 1.0879433e-38
0.0017359611 -0.12765111 0.013906161 1.0418472e-38
0.0034909677 -0.1268961 0.016845504 1.4382167e-38
0.0053619314 -0.1268961 0.016845504 1.4382155e-38
0.0072328951 -0.1268961 0.016845504 1.852988e-38
0.0091038588 -0.1268961 0.016845504 2.0925897e-38
0.010974823 -0.1268961 0.016845504 2.2401394e-38
0.012643738 -0.12585752 0.020888845 2.304748e-38
0.014507612 -0.12585752 0.020888845 2.3048197e-38
0.016371487 -0.12585752 0.020888845 2.3418045e-38
0.018235361 -0.12585752 0.020888845 2.3234369e-38
0.020099236 -0.12585752 0.020888845 2.3050707e-38
0.022200597 -0.1268961 0.016845504 2.3142544e-38
0.023826985 -0.12585752 0.020888845 2.3234379e-38
0.025690859 -0.12585752 0.020888845 2.3234379e-38
0.027554734 -0.12585752 0.020888845 2.3418047e-38
0.029418601 -0.12585752 0.020888845 2.3417687e-38
0.031282477 -0.12585752 0.020888845 2.3417324e-38
0.033426382 -0.1268961 0.016845504 2.350988e-38
0.035297342 -0.1268961 0.016845504 2.350988e-38
0.037168309 -0.1268961 0.016845504 1.3552392e-38
0.039039269 -0.1268961 0.016845504 1.3184328e-38
0.043500982 -0.13562126 -0.017122587 1.4014089e-38
0.045431502 -0.13562126 -0.017122587 1.4567628e-38
0.047362022 -0.13562126 -0.017122587 1.4476153e-38
0.049616657 -0.13664238 -0.021097979 1.5122241e-38
0.051554151 -0.13664238 -0.021097979 1.6965791e-38
0.05374936 -0.13742088 -0.024128756 1.5857281e-38
0.055692174 -0.13742088 -0.024128756 9.3106684e-39
0.057991467 -0.13845511 -0.028155049 8.2043237e-39
0.059941344 -0.13845511 -0.028155049 9.2184756e-39
-0.075029202 -0.14402847 -0.042166192 1.1705594e-38
-0.073054768 -0.14402847 -0.042166192 1.8897572e-38
-0.071080342 -0.14402847 -0.042166192 2.1572324e-38
-0.069105908 -0.14402847 -0.042166192 2.0928394e-38
-0.067060344 -0.14325126 -0.039160926 1.9822046e-38
-0.065091185 -0.14325126 -0.039160926 1.5212265e-38
-0.063041724 -0.14222141 -0.03517874 1.6963982e-38
-0.061079547 -0.14222141 -0.03517874 2.3509873e-38
-0.059049457 -0.141167 -0.031101665 2.3509873e-38
-0.057050511 -0.14040495 -0.028155049 2.1113504e-38
-0.05510065 -0.14040495 -0.028155049 2.0468135e-38
-0.0531049 -0.13936369 -0.024128756 2.102059e-38
-0.051162094 -0.13936369 -0.024128756 1.9084479e-38
-0.049219288 -0.13936369 -0.024128756 1.3644216e-38
-0.047257885 -0.13857989 -0.021097979 1.1338607e-38
-0.045302968 -0.1375518 -0.017122587 5.6213985e-39
-0.043353941 -0.13573201 -0.01008602 4.1462684e-39
-0.041432239 -0.13469382 -0.0060716467 6.4392467e-40
-0.039523665 -0.13393532 -0.0031387408 1.0145009e-39
-0.037625641 -0.13315077 -0.00010510278 1.5683935e-39
-0.03572496 -0.13315077 -0.00010510278 1.8442657e-39
-0.033824276 -0.13315077 -0.00010510278 1.1970984e-39
-0.031923592 -0.13315077 -0.00010510278 3.6734198e-40
-0.030022908 -0.13315077 -0.00010510278 7.3468397e-40
-0.028122226 -0.13315077 -0.00010510278 1.2871319e-39
-0.026221544 -0.13315077 -0.00010510278 1.4715203e-39
-0.024320859 -0.13315077 -0.00010510278 9.1835496e-40
-0.022485828 -0.13213144 0.0038364332 1.9314153e-39
-0.020592056 -0.13213144 0.0038364332 1.6548326e-39
-0.018698284 -0.13213144 0.0038364332 7.3468397e-40
-0.016804511 -0.13213144 0.0038364332 7.3468397e-40
-0.014910739 -0.13213144 0.0038364332 1.6562675e-39
-0.013093106 -0.13135691 0.0068313284 6.4284847e-40
-0.011204585 -0.13135691 0.0068313284 7.3468397e-40
-0.0092294216 -0.13213144 0.0038364332 4.2359389e-39
-0.0074275415 -0.13135691 0.0068313284 3.313614e-39
-0.0055390205 -0.13135691 0.0068313284 6.0827059e-39
-0.0037874412 -0.13032107 0.010836641 1.2537482e-38
-0.0020162705 -0.12952723 0.013906161 1.2815883e-38
-0.00014015473 -0.12952723 0.013906161 1.4844201e-38
0.001620004 -0.12876706 0.016845504 1.0510665e-38
0.0034909677 -0.12876706 0.016845504 1.4843499e-38
0.0053619314 -0.12876706 0.016845504 1.8990855e-38
0.007052118 -0.12772138 0.020888845 2.2954906e-38
0.0089159925 -0.12772138 0.020888845 2.3509168e-38
0.010779867 -0.12772138 0.020888845 2.3508451e-38
0.012643738 -0.12772138 0.020888845 2.3508451e-38
0.014507612 -0.12772138 0.020888845 2.332478e-38
0.016371487 -0.12772138 0.020888845 2.3141819e-38
0.018235361 -0.12772138 0.020888845 2.2681916e-38
0.020329637 -0.12876706 0.016845504 2.3234376e-38
0.022200597 -0.12876706 0.016845504 2.2958873e-38
0.023826985 -0.12772138 0.020888845 2.3234379e-38
0.025690859 -0.12772138 0.020888845 2.341805e-38
0.027554734 -0.12772138 0.020888845 2.3417687e-38
0.029418601 -0.12772138 0.020888845 2.3418043e-38
0.031282477 -0.12772138 0.020888845 2.350988e-38
0.033426382 -0.12876706 0.016845504 2.350988e-38
0.035297342 -0.12876706 0.016845504 2.3232933e-38
0.037168309 -0.12876706 0.016845504 1.3183609e-38
0.039039269 -0.12876706 0.016845504 1.3921893e-38
0.043500982 -0.1375518 -0.017122587 1.4382871e-38
0.045431502 -0.1375518 -0.017122587 1.4567628e-38
0.047362022 -0.1375518 -0.017122587 1.5028607e-38
0.049616657 -0.13857989 -0.021097979 1.5674696e-38
0.051554151 -0.13857989 -0.021097979 1.6043835e-38
0.05374936 -0.13936369 -0.024128756 1.6133869e-38
0.055692174 -0.13936369 -0.024128756 9.9560406e-39
0.057991467 -0.14040495 -0.028155049 9.6790964e-39
0.059941344 -0.14040495 -0.028155049 1.087764e-38
-0.075029202 -0.1460029 -0.042166192 1.0417016e-38
-0.073054768 -0.1460029 -0.042166192 1.364386e-38
-0.071080342 -0.1460029 -0.042166192 1.6779588e-38
-0.069105908 -0.1460029 -0.042166192 1.7425676e-38
-0.067060344 -0.14522041 -0.039160926 1.585835e-38
-0.065091185 -0.14522041 -0.039160926 1.373857e-38
-0.063041724 -0.14418359 -0.03517874 1.6504439e-38
-0.061079547 -0.14418359 -0.03517874 2.2773741e-38
-0.059049457 -0.14312203 -0.031101665 2.3418035e-38
-0.057050511 -0.14235483 -0.028155049 1.8071764e-38
-0.05510065 -0.14235483 -0.028155049 1.6596634e-38
-0.0531049 -0.1413065 -0.024128756 1.7518591e-38
-0.051162094 -0.1413065 -0.024128756 1.6227133e-38
-0.049195375 -0.14051737 -0.021097979 1.1063459e-38
-0.047257885 -0.14051737 -0.021097979 9.5883315e-39
-0.045285668 -0.13845469 -0.013175805 6.2682098e-39
-0.043353941 -0.13765021 -0.01008602 4.700524e-39
-0.041432239 -0.13660498 -0.0060716467 1.197453e-39
-0.039526325 -0.13505147 -0.00010510278 8.2939353e-40
-0.037625641 -0.13505147 -0.00010510278 1.4754818e-39
-0.03572496 -0.13505147 -0.00010510278 2.8584163e-39
-0.033824276 -0.13505147 -0.00010510278 2.4892708e-39
-0.031954691 -0.1340252 0.0038364332 6.442834e-40
-0.030060917 -0.1340252 0.0038364332 2.7550649e-40
-0.028167147 -0.1340252 0.0038364332 7.3576017e-40
-0.026273374 -0.1340252 0.0038364332 3.6734198e-40
-0.024379602 -0.1340252 0.0038364332 5.5101298e-40
-0.022485828 -0.1340252 0.0038364332 1.0112681e-39
-0.020592056 -0.1340252 0.0038364332 7.350427e-40
-0.018698284 -0.1340252 0.0038364332 1.4725979e-39
-0.016718125 -0.13505147 -0.00010510278 5.5101298e-40
-0.014910739 -0.1340252 0.0038364332 1.0109079e-39
-0.013016967 -0.1340252 0.0038364332 6.4284847e-40
-0.011123193 -0.1340252 0.0038364332 2.3009209e-39
-0.0092294216 -0.1340252 0.0038364332 6.3564384e-39
-0.0074275415 -0.13324542 0.0068313284 6.5415373e-39
-0.0055390205 -0.13324542 0.0068313284 7.9266157e-39
-0.0037874412 -0.13220255 0.010836641 1.2168696e-38
-0.0020162705 -0.13140334 0.013906161 1.2354904e-38
-0.00014015473 -0.13140334 0.013906161 1.1986137e-38
0.001620004 -0.13063805 0.016845504 1.1432255e-38
0.0034909677 -0.13063805 0.016845504 1.5857648e-38
0.0051882435 -0.12958528 0.020888845 2.1388296e-38
0.007052118 -0.12958528 0.020888845 2.3509873e-38
0.0089159925 -0.12958528 0.020888845 2.3507366e-38
0.010779867 -0.12958528 0.020888845 2.3229709e-38
0.012643738 -0.12958528 0.020888845 2.3508809e-38
0.014507612 -0.12958528 0.020888845 2.3509168e-38
0.016371487 -0.12958528 0.020888845 2.3509883e-38
0.018235361 -0.12958528 0.020888845 2.3234372e-38
0.020099236 -0.12958528 0.020888845 2.3234376e-38
0.02196311 -0.12958528 0.020888845 2.2958151e-38
0.023826985 -0.12958528 0.020888845 2.3326213e-38
0.025690859 -0.12958528 0.020888845 2.341805e-38
0.027361942 -0.12880091 0.023901263 2.3233296e-38
0.029220534 -0.12880091 0.023901263 2.350988e-38
0.031079127 -0.12880091 0.023901263 2.350988e-38
0.033146352 -0.12958528 0.020888845 2.3232932e-38
0.035010226 -0.12958528 0.020888845 2.0835845e-38
0.037168309 -0.13063805 0.016845504 1.2999217e-38
0.039039269 -0.13063805 0.016845504 1.4106284e-38
0.043500982 -0.1394823 -0.017122587 1.3737502e-38
0.045431502 -0.1394823 -0.017122587 1.3737868e-38
0.047362022 -0.1394823 -0.017122587 1.6503737e-38
0.049616657 -0.14051737 -0.021097979 1.7887394e-38
0.051806562 -0.1413065 -0.024128756 1.7794475e-38
0.05374936 -0.1413065 -0.024128756 1.8438763e-38
0.055692174 -0.1413065 -0.024128756 1.0508857e-38
0.057634972 -0.1413065 -0.024128756 9.3103167e-39
0.059577771 -0.1413065 -0.024128756 1.0508863e-38
-0.073054768 -0.14797734 -0.042166192 1.0418811e-38
-0.071080342 -0.14797734 -0.042166192 1.0787591e-38
-0.069105908 -0.14797734 -0.042166192 1.1894656e-38
-0.067060344 -0.1471896 -0.039160926 1.1341482e-38
-0.065091185 -0.1471896 -0.039160926 1.1065974e-38
-0.063122019 -0.1471896 -0.039160926 1.3370865e-38
-0.061079547 -0.14614578 -0.03517874 1.7888093e-38
-0.059049457 -0.14507706 -0.031101665 1.8717854e-38
-0.057050511 -0.14430468 -0.028155049 1.3001728e-38
-0.05510065 -0.14430468 -0.028155049 1.254075e-38
-0.0531049 -0.14324932 -0.024128756 1.3831488e-38
-0.051162094 -0.14324932 -0.024128756 1.3277236e-38
-0.049195375 -0.14245488 -0.021097979 8.4827028e-39
-0.047257885 -0.14245488 -0.021097979 6.7306299e-39
-0.045285668 -0.14037828 -0.013175805 4.2409878e-39
-0.043353941 -0.13956837 -0.01008602 2.7647787e-39
-0.041427009 -0.13695215 -0.00010510278 3.6770072e-40
-0.039526325 -0.13695215 -0.00010510278 9.1835496e-41
-0.037625641 -0.13695215 -0.00010510278 1.9364614e-39
-0.035742238 -0.13591899 0.0038364332 4.4260951e-39
-0.033848464 -0.13591899 0.0038364332 3.8729185e-39
-0.031954691 -0.13591899 0.0038364332 1.1070524e-39
-0.030060917 -0.13591899 0.0038364332 4.6132988e-40
-0.028167147 -0.13591899 0.0038364332 5.5317658e-40
-0.026273374 -0.13591899 0.0038364332 7.0064923e-45
-0.024379602 -0.13591899 0.0038364332 8.2869288e-40
-0.022485828 -0.13591899 0.0038364332 9.1838299e-41
-0.020592056 -0.13591899 0.0038364332 2.7550649e-40
-0.018698284 -0.13591899 0.0038364332 5.6224803e-39
-0.016804511 -0.13591899 0.0038364332 6.1756541e-39
-0.014910739 -0.13591899 0.0038364332 7.0965342e-39
-0.013016967 -0.13591899 0.0038364332 7.0032679e-39
-0.011123193 -0.13591899 0.0038364332 7.0950992e-39
-0.0092294216 -0.13591899 0.0038364332 1.1519394e-38
-0.0074275415 -0.13513394 0.0068313284 1.2995229e-38
-0.0055390205 -0.13513394 0.0068313284 9.9549196e-39
-0.0037874412 -0.13408406 0.010836641 1.2629675e-38
-0.0020162705 -0.13327946 0.013906161 1.1893926e-38
-0.00014015473 -0.13327946 0.013906161 7.745135e-39
0.001620004 -0.13250901 0.016845504 1.134006e-38
0.0034909677 -0.13250901 0.016845504 1.4474351e-38
0.0051882435 -0.13144915 0.020888845 2.2955256e-38
0.007052118 -0.13144915 0.020888845 2.3509869e-38
0.0089159925 -0.13144915 0.020888845 2.3322246e-38
0.010779867 -0.13144915 0.020888845 2.2676169e-38
0.01249321 -0.13065951 0.023901263 2.3507016e-38
0.014351802 -0.13065951 0.023901263 2.2770174e-38
0.016210394 -0.13065951 0.023901263 2.2403535e-38
0.018235361 -0.13144915 0.020888845 2.3142174e-38
0.020099236 -0.13144915 0.020888845 2.3418047e-38
0.02196311 -0.13144915 0.020888845 2.3141822e-38
0.023826985 -0.13144915 0.020888845 2.341805e-38
0.025690859 -0.13144915 0.020888845 2.3418047e-38
0.027361942 -0.13065951 0.023901263 2.3049261e-38
0.029220534 -0.13065951 0.023901263 2.350988e-38
0.031079127 -0.13065951 0.023901263 2.3509879e-38
0.03293772 -0.13065951 0.023901263 2.1757802e-38
0.034796312 -0.13065951 0.023901263 1.8807541e-38
0.036654904 -0.13065951 0.023901263 1.3368718e-38
0.038513497 -0.13065951 0.023901263 1.419848e-38
0.043500982 -0.14141284 -0.017122587 1.3737502e-38
0.045431502 -0.14141284 -0.017122587 1.4014455e-38
0.047362022 -0.14141284 -0.017122587 2.0007171e-38
0.049616657 -0.14245488 -0.021097979 2.2036197e-38
0.051806562 -0.14324932 -0.024128756 2.2772684e-38
0.05374936 -0.14324932 -0.024128756 2.1941841e-38
0.055692174 -0.14324932 -0.024128756 1.0877642e-38
0.057634972 -0.14324932 -0.024128756 7.2820156e-39
0.059577771 -0.14324932 -0.024128756 8.2961676e-39
-0.073054768 -0.14995177 -0.042166192 1.0511007e-38
-0.071080342 -0.14995177 -0.042166192 1.0879786e-38
-0.069105908 -0.14995177 -0.042166192 9.6819607e-39
-0.067060344 -0.14915876 -0.039160926 9.8663533e-39
-0.065091185 -0.14915876 -0.039160926 9.4982911e-39
-0.063122019 -0.14915876 -0.039160926 1.1065617e-38
-0.061079547 -0.14810793 -0.03517874 1.5030751e-38
-0.059049457 -0.1470321 -0.031101665 1.4846359e-38
-0.057050511 -0.14625455 -0.028155049 1.0974146e-38
-0.05510065 -0.14625455 -0.028155049 1.0420972e-38
-0.0531049 -0.1451921 -0.024128756 1.1434405e-38
-0.051162094 -0.1451921 -0.024128756 1.1157462e-38
-0.049195375 -0.14439236 -0.021097979 7.8376991e-39
-0.047257885 -0.14439236 -0.021097979 6.9150254e-39
-0.045285668 -0.14230187 -0.013175805 5.0703939e-39
-0.043353941 -0.14148657 -0.01008602 2.8576988e-39
-0.041427009 -0.13885282 -0.00010510278 7.371993e-40
-0.039526325 -0.13885282 -0.00010510278 2.7550649e-40
-0.037625641 -0.13885282 -0.00010510278 5.5280664e-40
-0.035742238 -0.13781275 0.0038364332 3.2279036e-39
-0.033848464 -0.13781275 0.0038364332 4.0576615e-39
-0.031954691 -0.13781275 0.0038364332 1.4765468e-39
-0.030060917 -0.13781275 0.0038364332 7.1746481e-43
-0.028167147 -0.13781275 0.0038364332 7.0064923e-45
-0.026273374 -0.13781275 0.0038364332 7.3708299e-43
-0.024379602 -0.13781275 0.0038364332 1.6815582e-44
-0.022485828 -0.13781275 0.0038364332 7.0064923e-45
-0.020592056 -0.13781275 0.0038364332 5.5352691e-40
-0.018698284 -0.13781275 0.0038364332 8.4819811e-39
-0.016804511 -0.13781275 0.0038364332 8.0195624e-39
-0.014910739 -0.13781275 0.0038364332 8.5716614e-39
-0.013016967 -0.13781275 0.0038364332 1.0875128e-38
-0.011204585 -0.13702248 0.0068313284 1.0413785e-38
-0.0093160644 -0.13702248 0.0068313284 9.9527896e-39
-0.0074275415 -0.13702248 0.0068313284 8.7549485e-39
-0.0055390205 -0.13702248 0.0068313284 5.6224438e-39
-0.0037874412 -0.13596557 0.010836641 9.6804935e-39
-0.0020162705 -0.13515557 0.013906161 1.2261631e-38
-0.00014015473 -0.13515557 0.013906161 8.9429621e-39
0.001620004 -0.13437997 0.016845504 8.8504147e-39
0.003324369 -0.13331302 0.020888845 1.0693248e-38
0.0051882435 -0.13331302 0.020888845 2.1202817e-38
0.007052118 -0.13331302 0.020888845 2.2954168e-38
0.0087760258 -0.1325181 0.023901263 2.101699e-38
0.010634618 -0.1325181 0.023901263 2.0463108e-38
0.01249321 -0.1325181 0.023901263 2.1477993e-38
0.014351802 -0.1325181 0.023901263 2.0280529e-38
0.016210394 -0.1325181 0.023901263 2.0467067e-38
0.018235361 -0.13331302 0.020888845 2.2588281e-38
0.020099236 -0.13331302 0.020888845 2.3509883e-38
0.02196311 -0.13331302 0.020888845 2.31411e-38
0.023826985 -0.13331302 0.020888845 2.3509883e-38
0.025690859 -0.13331302 0.020888845 2.350988e-38
0.027361942 -0.1325181 0.023901263 2.2957065e-38
0.029220534 -0.1325181 0.023901263 2.3509879e-38
0.031079127 -0.1325181 0.023901263 2.3418042e-38
0.03293772 -0.1325181 0.023901263 1.9638021e-38
0.034796312 -0.1325181 0.023901263 1.5858e-38
0.036654904 -0.1325181 0.023901263 1.2723349e-38
0.038513497 -0.1325181 0.023901263 1.3368719e-38
0.043500982 -0.14334334 -0.017122587 1.4106645e-38
0.045431502 -0.14334334 -0.017122587 1.4844215e-38
0.047362022 -0.14334334 -0.017122587 2.2219866e-38
0.049616657 -0.14439236 -0.021097979 2.3234379e-38
0.051806562 -0.1451921 -0.024128756 2.341805e-38
0.05374936 -0.1451921 -0.024128756 2.3509527e-38
0.055692174 -0.1451921 -0.024128756 1.1338623e-38
0.057634972 -0.1451921 -0.024128756 6.9128772e-39
0.059577771 -0.1451921 -0.024128756 8.1114204e-39
-0.059049457 -0.14898713 -0.031101665 9.407543e-39
-0.057050511 -0.14820443 -0.028155049 7.1026522e-39
-0.05510065 -0.14820443 -0.028155049 6.4562052e-39
-0.0531049 -0.14713491 -0.024128756 6.7327921e-39
-0.051162094 -0.14713491 -0.024128756 7.1008586e-39
-0.049195375 -0.14632986 -0.021097979 5.6246495e-39
-0.047233488 -0.14527388 -0.017122587 6.6380854e-39
-0.045285668 -0.14422549 -0.013175805 5.6239334e-39
-0.043353941 -0.14340474 -0.01008602 2.76515e-39
-0.041429669 -0.14155935 -0.0031387408 1.8367239e-40
-0.039526325 -0.14075352 -0.00010510278 9.2051436e-40
-0.037636008 -0.13970654 0.0038364332 2.7550649e-40
-0.035742238 -0.13970654 0.0038364332 1.1992424e-39
-0.033848464 -0.13970654 0.0038364332 4.8877739e-39
-0.03197832 -0.13891099 0.0068313284 4.0583776e-39
-0.030089799 -0.13891099 0.0068313284 2.7873508e-40
-0.028201278 -0.13891099 0.0068313284 3.657389e-43
-0.026273374 -0.13970654 0.0038364332 9.365298e-41
-0.024379602 -0.13970654 0.0038364332 7.3708299e-43
-0.022485828 -0.13970654 0.0038364332 9.8090893e-45
-0.020592056 -0.13970654 0.0038364332 7.1746481e-43
-0.018698284 -0.13970654 0.0038364332 8.4826986e-39
-0.016804511 -0.13970654 0.0038364332 8.2046698e-39
-0.014910739 -0.13970654 0.0038364332 8.6649333e-39
-0.013016967 -0.13970654 0.0038364332 1.0875847e-38
-0.011204585 -0.13891099 0.0068313284 7.8330286e-39
-0.0093160644 -0.13891099 0.0068313284 8.4776595e-39
-0.0074275415 -0.13891099 0.0068313284 4.7905364e-39
-0.0055390205 -0.13891099 0.0068313284 4.3313491e-39
-0.0037874412 -0.13784705 0.010836641 4.1483998e-39
-0.0020162705 -0.13703169 0.013906161 3.5030486e-39
-0.00014015473 -0.13703169 0.013906161 2.7658549e-39
0.001620004 -0.13625093 0.016845504 1.1970984e-39
0.003324369 -0.13517688 0.020888845 9.5865392e-39
0.0051882435 -0.13517688 0.020888845 2.249319e-38
0.007052118 -0.13517688 0.020888845 2.3414782e-38
0.0087760258 -0.13437669 0.023901263 2.02787e-38
0.010634618 -0.13437669 0.023901263 1.8526276e-38
0.01249321 -0.13437669 0.023901263 1.8803958e-38
0.014351802 -0.13437669 0.023901263 1.7974559e-38
0.016210394 -0.13437669 0.023901263 1.9728423e-38
0.018235361 -0.13517688 0.020888845 2.350988e-38
0.020099236 -0.13517688 0.020888845 2.3417324e-38
0.02196311 -0.13517688 0.020888845 2.3141456e-38
0.023826985 -0.13517688 0.020888845 2.350988e-38
0.025690859 -0.13517688 0.020888845 2.3509879e-38
0.027361942 -0.13437669 0.023901263 2.2957064e-38
0.029220534 -0.13437669 0.023901263 2.3509879e-38
0.031282477 -0.13517688 0.020888845 2.2864868e-38
0.033146352 -0.13517688 0.020888845 1.8070695e-38
0.035297342 -0.13625093 0.016845504 1.4198479e-38
0.037168309 -0.13625093 0.016845504 1.2354566e-38
0.04186669 -0.14632986 -0.021097979 1.3276884e-38
0.043500982 -0.14527388 -0.017122587 1.5581775e-38
0.045431502 -0.14527388 -0.017122587 1.6411541e-38
0.047362022 -0.14527388 -0.017122587 2.341805e-38
0.049616657 -0.14632986 -0.021097979 2.2497176e-38
0.051806562 -0.14713491 -0.024128756 2.341805e-38
0.05374936 -0.14713491 -0.024128756 2.3509527e-38
0.055429123 -0.14632986 -0.021097979 1.1891797e-38
0.057366617 -0.14632986 -0.021097979 8.3880073e-39
0.059304111 -0.14632986 -0.021097979 9.7709417e-39
-0.051162094 -0.14907773 -0.024128756 6.8239185e-39
-0.049195375 -0.14826734 -0.021097979 5.9008832e-39
-0.047233488 -0.14720438 -0.017122587 6.2689497e-39
-0.045285668 -0.14614908 -0.013175805 5.0704065e-39
-0.043353941 -0.14532293 -0.01008602 3.6867546e-39
-0.041429669 -0.14346536 -0.0031387408 6.4357435e-40
-0.039526325 -0.1426542 -0.00010510278 5.5173044e-40
-0.037636008 -0.1416003 0.0038364332 3.6805945e-40
-0.035742238 -0.1416003 0.0038364332 5.5388284e-40
-0.033848464 -0.1416003 0.0038364332 3.1360541e-39
-0.03197832 -0.14079951 0.0068313284 4.335319e-39
-0.030089799 -0.14079951 0.0068313284 4.6348227e-40
-0.028201278 -0.14079951 0.0068313284 7.1746481e-43
-0.026312757 -0.14079951 0.0068313284 4.6278723e-40
-0.024379602 -0.1416003 0.0038364332 1.2611686e-44
-0.022485828 -0.1416003 0.0038364332 7.2447131e-43
-0.020592056 -0.1416003 0.0038364332 2.7765888e-40
-0.018618809 -0.1426542 -0.00010510278 5.5327916e-39
-0.016718125 -0.1426542 -0.00010510278 8.666001e-39
-0.014910739 -0.1416003 0.0038364332 8.5727362e-39
-0.013016967 -0.1416003 0.0038364332 1.0322671e-38
-0.011204585 -0.14079951 0.0068313284 8.5705908e-39
-0.0093160644 -0.14079951 0.0068313284 7.2798366e-39
-0.0074275415 -0.14079951 0.0068313284 2.1175974e-39
-0.0055390205 -0.14079951 0.0068313284 2.1193911e-39
-0.0037874412 -0.13972856 0.010836641 3.5030318e-39
-0.0020162705 -0.13890781 0.013906161 3.5948883e-39
-0.00014015473 -0.13890781 0.013906161 1.7517058e-39
0.001620004 -0.13812189 0.016845504 2.7550649e-40
0.0034909677 -0.13812189 0.016845504 9.4936205e-39
0.0051882435 -0.13704078 0.020888845 1.9358175e-38
0.007052118 -0.13704078 0.020888845 2.138575e-38
0.0087760258 -0.13623528 0.023901263 2.0462724e-38
0.010634618 -0.13623528 0.023901263 1.8710301e-38
0.01249321 -0.13623528 0.023901263 1.8342614e-38
0.014351802 -0.13623528 0.023901263 1.8250784e-38
0.016210394 -0.13623528 0.023901263 1.98199e-38
0.018068986 -0.13623528 0.023901263 2.3509521e-38
0.020099236 -0.13704078 0.020888845 2.3509521e-38
0.02196311 -0.13704078 0.020888845 2.3140737e-38
0.023644758 -0.13623528 0.023901263 2.3508801e-38
0.02550335 -0.13623528 0.023901263 2.3509879e-38
0.027170254 -0.13543437 0.026896635 2.3232932e-38
0.029023593 -0.13543437 0.026896635 2.3509876e-38
0.030876933 -0.13543437 0.026896635 2.3141452e-38
0.033146352 -0.13704078 0.020888845 1.7240932e-38
0.035297342 -0.13812189 0.016845504 1.4291393e-38
0.037168309 -0.13812189 0.016845504 1.2816263e-38
0.04186669 -0.14826734 -0.021097979 1.336908e-38
0.043804176 -0.14826734 -0.021097979 1.6780318e-38
0.045431502 -0.14720438 -0.017122587 1.6872519e-38
0.047362022 -0.14720438 -0.017122587 2.2773039e-38
0.049616657 -0.14826734 -0.021097979 2.341805e-38
0.051806562 -0.14907773 -0.024128756 2.3509886e-38
0.05374936 -0.14907773 -0.024128756 2.3509527e-38
0.055429123 -0.14826734 -0.021097979 1.0877642e-38
0.057366617 -0.14826734 -0.021097979 1.1338623e-38
-0.045285668 -0.14807267 -0.013175805 5.1618847e-39
-0.043353941 -0.1472411 -0.01008602 4.1466566e-39
-0.041432239 -0.14616071 -0.0060716467 3.1328592e-39
-0.039521094 -0.14616071 -0.0060716467 3.5941848e-39
-0.037625641 -0.14455487 -0.00010510278 4.7934343e-39
-0.035742238 -0.14349405 0.0038364332 4.5182725e-39
-0.033848464 -0.14349405 0.0038364332 3.873259e-39
-0.03197832 -0.14268802 0.0068313284 3.5970351e-39
-0.030089799 -0.14268802 0.0068313284 2.3066634e-39
-0.028201278 -0.14268802 0.0068313284 4.6277041e-40
-0.026312757 -0.14268802 0.0068313284 9.3637566e-41
-0.024379602 -0.14349405 0.0038364332 4.5190306e-39
-0.022485828 -0.14349405 0.0038364332 7.3763665e-39
-0.020519493 -0.14455487 -0.00010510278 7.4692669e-39
-0.018618809 -0.14455487 -0.00010510278 7.9298779e-39
-0.016718125 -0.14455487 -0.00010510278 6.6387762e-39
-0.014981627 -0.14268802 0.0068313284 5.9919747e-39
-0.013093106 -0.14268802 0.0068313284 8.2036062e-39
-0.011204585 -0.14268802 0.0068313284 6.9117884e-39
-0.0094319377 -0.14161004 0.010836641 6.9117758e-39
-0.0075504389 -0.14161004 0.010836641 1.0116254e-39
-0.00566894 -0.14161004 0.010836641 2.2112266e-39
-0.0037874412 -0.14161004 0.010836641 5.9919606e-39
-0.0020162705 -0.14078392 0.013906161 6.3607614e-39
-0.00014015473 -0.14078392 0.013906161 6.1756625e-39
0.001620004 -0.13999285 0.016845504 5.0685988e-39
0.003324369 -0.13890465 0.020888845 1.0876552e-38
0.0051882435 -0.13890465 0.020888845 2.0094655e-38
0.0069174338 -0.13809387 0.023901263 2.129319e-38
0.0087760258 -0.13809387 0.023901263 1.9447846e-38
0.010634618 -0.13809387 0.023901263 1.8064207e-38
0.01249321 -0.13809387 0.023901263 1.6866402e-38
0.014351802 -0.13809387 0.023901263 1.5392717e-38
0.016210394 -0.13809387 0.023901263 1.6591974e-38
0.018068986 -0.13809387 0.023901263 2.1941115e-38
0.020099236 -0.13890465 0.020888845 2.3508801e-38
0.02196311 -0.13890465 0.020888845 2.3509879e-38
0.023644758 -0.13809387 0.023901263 2.3509879e-38
0.02550335 -0.13809387 0.023901263 2.3509879e-38
0.027170254 -0.13728772 0.026896635 2.2772309e-38
0.029023593 -0.13728772 0.026896635 2.3509876e-38
0.030876933 -0.13728772 0.026896635 2.2219496e-38
0.03293772 -0.13809387 0.023901263 1.5120432e-38
0.034796312 -0.13809387 0.023901263 1.3277241e-38
0.045431502 -0.14913492 -0.017122587 1.6595932e-38
0.047362022 -0.14913492 -0.017122587 2.2680844e-38
-0.045285668 -0.1499963 -0.013175805 4.9760543e-39
-0.043353941 -0.1491593 -0.01008602 4.3303289e-39
-0.041432239 -0.14807184 -0.0060716467 6.3589873e-39
-0.039521094 -0.14807184 -0.0060716467 8.6653018e-39
-0.03760995 -0.14807184 -0.0060716467 5.9919775e-39
-0.03572496 -0.14645557 -0.00010510278 4.6093933e-39
-0.033848464 -0.14538784 0.0038364332 4.7941391e-39
-0.031954691 -0.14538784 0.0038364332 3.7807103e-39
-0.030060917 -0.14538784 0.0038364332 2.1208344e-39
-0.028167147 -0.14538784 0.0038364332 1.290722e-39
-0.026221544 -0.14645557 -0.00010510278 1.3829232e-39
-0.024320859 -0.14645557 -0.00010510278 5.439175e-39
-0.022420175 -0.14645557 -0.00010510278 8.7585736e-39
-0.020592056 -0.14538784 0.0038364332 9.0355122e-39
-0.018698284 -0.14538784 0.0038364332 8.1135503e-39
-0.016804511 -0.14538784 0.0038364332 6.5455044e-39
-0.014981627 -0.14457656 0.0068313284 6.6373469e-39
-0.013093106 -0.14457656 0.0068313284 8.5723873e-39
-0.011313437 -0.14349155 0.010836641 6.8195927e-39
-0.0094319377 -0.14349155 0.010836641 6.3582446e-39
-0.0075504389 -0.14349155 0.010836641 6.4284847e-40
-0.00566894 -0.14349155 0.010836641 1.1967313e-39
-0.0037874412 -0.14349155 0.010836641 6.729174e-39
-0.0020162705 -0.14266007 0.013906161 6.4526039e-39
-0.00014015473 -0.14266007 0.013906161 6.9132303e-39
0.001620004 -0.14186381 0.016845504 6.727044e-39
0.003324369 -0.14076851 0.020888845 7.1880081e-39
0.0051882435 -0.14076851 0.020888845 1.4746946e-38
0.0069174338 -0.13995247 0.023901263 1.8341848e-38
0.0087760258 -0.13995247 0.023901263 1.7419177e-38
0.010634618 -0.13995247 0.023901263 1.7234081e-38
0.01249321 -0.13995247 0.023901263 1.6405061e-38
0.014351802 -0.13995247 0.023901263 1.5760781e-38
0.016210394 -0.13995247 0.023901263 1.6407222e-38
0.018068986 -0.13995247 0.023901263 2.1940755e-38
0.019927578 -0.13995247 0.023901263 2.3508082e-38
0.02196311 -0.14076851 0.020888845 2.350916e-38
0.023644758 -0.13995247 0.023901263 2.350952e-38
0.025316915 -0.13914107 0.026896635 2.3509876e-38
0.026979638 -0.13833423 0.029875079 2.3509874e-38
0.028827762 -0.13833423 0.029875079 2.3509876e-38
0.030675879 -0.13833423 0.029875079 2.1390091e-38
0.032730274 -0.13914107 0.026896635 1.4475419e-38
0.034583613 -0.13914107 0.026896635 1.3185043e-38
-0.041432239 -0.14998297 -0.0060716467 9.6773069e-39
-0.039521094 -0.14998297 -0.0060716467 8.7567786e-39
-0.03760995 -0.14998297 -0.0060716467 8.1124783e-39
-0.035698805 -0.14998297 -0.0060716467 7.9280829e-39
-0.033805661 -0.14918335 -0.0031387408 7.2823505e-39
-0.031923592 -0.14835624 -0.00010510278 6.6369811e-39
-0.030022908 -0.14835624 -0.00010510278 7.4667418e-39
-0.028122226 -0.14835624 -0.00010510278 5.4373617e-39
-0.026221544 -0.14835624 -0.00010510278 5.5101298e-40
-0.024320859 -0.14835624 -0.00010510278 8.2759566e-40
-0.022420175 -0.14835624 -0.00010510278 3.6863678e-39
-0.020592056 -0.1472816 0.0038364332 4.885267e-39
-0.018698284 -0.1472816 0.0038364332 5.2540495e-39
-0.016804511 -0.1472816 0.0038364332 5.4388051e-39
-0.014981627 -0.14646508 0.0068313284 6.9135792e-39
-0.013093106 -0.14646508 0.0068313284 7.8351838e-39
-0.011313437 -0.14537306 0.010836641 5.0689548e-39
-0.0094319377 -0.14537306 0.010836641 5.2526188e-39
-0.0075504389 -0.14537306 0.010836641 5.5101298e-40
-0.00566894 -0.14537306 0.010836641 3.6770072e-40
-0.0037874412 -0.14537306 0.010836641 5.0696582e-39
-0.0020162705 -0.14453618 0.013906161 4.3317499e-39
-0.00014015473 -0.14453618 0.013906161 4.2388438e-39
0.001620004 -0.14373477 0.016845504 3.684591e-39
0.0034909677 -0.14373477 0.016845504 2.024334e-39
0.0051882435 -0.14263238 0.020888845 1.1888881e-38
0.0069174338 -0.14181106 0.023901263 1.8618069e-38
0.0087760258 -0.14181106 0.023901263 1.9354921e-38
0.010634618 -0.14181106 0.023901263 1.8801761e-38
0.01249321 -0.14181106 0.023901263 1.8156054e-38
0.014351802 -0.14181106 0.023901263 1.8157144e-38
0.016210394 -0.14181106 0.023901263 1.6960396e-38
0.018068986 -0.14181106 0.023901263 2.0648937e-38
0.019927578 -0.14181106 0.023901263 2.1109914e-38
0.02196311 -0.14263238 0.020888845 2.0096118e-38
0.023463568 -0.14099441 0.026896635 2.04649e-38
0.025316915 -0.14099441 0.026896635 2.2401729e-38
0.026979638 -0.14018236 0.029875079 2.2402448e-38
0.028827762 -0.14018236 0.029875079 2.1020592e-38
