# .PCD v0.7 - Point Cloud Data file format
VERSION 0.7
FIELDS x y z rgb
SIZE 4 4 4 4
TYPE F F F F
COUNT 1 1 1 1
WIDTH 552
HEIGHT 1
VIEWPOINT 0 0 0 1 0 0 0
POINTS 552
DATA ascii
-0.0074506998 -0.1127138 -0.024572581 1.6684913e-38
-0.0057471916 -0.11176009 -0.020558208 1.4749892e-38
-0.0038360469 -0.11176009 -0.020558208 1.4566207e-38
-0.0019249022 -0.11176009 -0.020558208 1.4195949e-38
-1.3757497e-05 -0.11176009 -0.020558208 8.9411474e-39
0.0018973835 -0.11176009 -0.020558208 9.4028528e-39
0.0038085319 -0.11176009 -0.020558208 3.687814e-39
-0.011287067 -0.114632 -0.024572581 1.8154648e-38
-0.0093688853 -0.114632 -0.024572581 2.0829764e-38
-0.0076583363 -0.11367123 -0.020558208 2.037058e-38
-0.0057471916 -0.11367123 -0.020558208 2.1294692e-38
-0.0038360469 -0.11367123 -0.020558208 1.7791964e-38
-0.0020920299 -0.11296929 -0.017625302 1.474912e-38
-0.00018602982 -0.11296929 -0.017625302 1.7515341e-38
0.0015364699 -0.11224325 -0.014591664 1.7607908e-38
0.0034371503 -0.11224325 -0.014591664 1.12475e-38
-0.011480626 -0.11558239 -0.020558208 2.3506298e-38
-0.009569481 -0.11558239 -0.020558208 2.0276943e-38
-0.0076583363 -0.11558239 -0.020558208 1.9079475e-38
-0.0057471916 -0.11558239 -0.020558208 1.9080545e-38
-0.0039980337 -0.1148753 -0.017625302 2.0832608e-38
-0.0024894997 -0.11319371 -0.010650128 1.9358539e-38
-0.0005957298 -0.11319371 -0.010650128 2.2678298e-38
0.0015364699 -0.11414395 -0.014591664 2.138793e-38
0.0034371503 -0.11414395 -0.014591664 2.350988e-38
0.0053378381 -0.11414395 -0.014591664 2.341805e-38
-0.011622041 -0.11678131 -0.017625302 2.1017367e-38
-0.0097160377 -0.11678131 -0.017625302 1.1796369e-38
-0.0078100376 -0.11678131 -0.017625302 6.8170788e-39
-0.0059040338 -0.11678131 -0.017625302 8.1063645e-39
-0.0043832697 -0.11508749 -0.010650128 1.6128455e-38
-0.0024894997 -0.11508749 -0.010650128 1.9541132e-38
-0.0005957298 -0.11508749 -0.010650128 1.9082315e-38
0.0012980439 -0.11508749 -0.010650128 2.1203905e-38
0.0034371503 -0.11604463 -0.014591664 2.3509883e-38
0.0053378381 -0.11604463 -0.014591664 2.1944005e-38
0.0074379779 -0.11678131 -0.017625302 2.3234379e-38
0.0093439855 -0.11678131 -0.017625302 2.3234379e-38
0.011453111 -0.11749353 -0.020558208 1.3460576e-38
0.013364252 -0.11749353 -0.020558208 5.9909251e-39
0.015061993 -0.11678131 -0.017625302 3.5009228e-39
0.016967993 -0.11678131 -0.017625302 2.0250697e-39
-0.013528045 -0.11868732 -0.017625302 2.3506623e-38
-0.011622041 -0.11868732 -0.017625302 8.1099644e-39
-0.0097160377 -0.11868732 -0.017625302 2.3931193e-39
-0.0078100376 -0.11868732 -0.017625302 1.0101905e-39
-0.0062770434 -0.11698125 -0.010650128 2.1147275e-39
-0.0043832697 -0.11698125 -0.010650128 2.3923864e-39
-0.0024894997 -0.11698125 -0.010650128 3.5920114e-39
-0.0005957298 -0.11698125 -0.010650128 8.2723693e-40
0.0012980439 -0.11698125 -0.010650128 2.5800329e-39
0.0031918176 -0.11698125 -0.010650128 2.0283039e-38
0.0050855912 -0.11698125 -0.010650128 2.3234379e-38
0.0069793649 -0.11698125 -0.010650128 2.286632e-38
0.0093439855 -0.11868732 -0.017625302 2.3142544e-38
0.011453111 -0.11940466 -0.020558208 1.0695783e-38
0.013364252 -0.11940466 -0.020558208 3.5030808e-39
0.015061993 -0.11868732 -0.017625302 2.3952913e-39
0.016967993 -0.11868732 -0.017625302 2.0261459e-39
0.019097693 -0.11940466 -0.020558208 1.749559e-39
0.021008827 -0.11940466 -0.020558208 5.5173465e-40
-0.017340049 -0.12059332 -0.017625302 8.5680321e-39
-0.015434045 -0.12059332 -0.017625302 1.7970193e-38
-0.013528045 -0.12059332 -0.017625302 2.1473279e-38
-0.011622041 -0.12059332 -0.017625302 7.6442989e-39
-0.0098676309 -0.119846 -0.014591664 3.9582758e-39
-0.0079669468 -0.119846 -0.014591664 2.4856639e-39
-0.0062770434 -0.11887501 -0.010650128 3.5952442e-39
-0.0043832697 -0.11887501 -0.010650128 2.3052285e-39
-0.002660159 -0.11813726 -0.0076552331 2.4878289e-39
-0.00077163801 -0.11813726 -0.0076552331 3.6734198e-40
0.001116883 -0.11813726 -0.0076552331 1.4744112e-39
0.0031918176 -0.11887501 -0.010650128 1.82551e-38
0.0050855912 -0.11887501 -0.010650128 2.3142544e-38
0.0069793649 -0.11887501 -0.010650128 2.2958873e-38
0.0091392063 -0.119846 -0.014591664 2.2774843e-38
0.011249986 -0.12059332 -0.017625302 8.1150217e-39
0.013364252 -0.12131582 -0.020558208 1.7520799e-39
0.015061993 -0.12059332 -0.017625302 8.2975787e-40
0.016967993 -0.12059332 -0.017625302 1.4747671e-39
0.019097693 -0.12131582 -0.020558208 2.4889191e-39
0.021008827 -0.12131582 -0.020558208 1.6588025e-39
0.022919975 -0.12131582 -0.020558208 1.8403813e-40
-0.022796165 -0.12422292 -0.024572581 1.0137778e-39
-0.021036349 -0.12322696 -0.020558208 6.4356594e-40
-0.019125205 -0.12322696 -0.020558208 1.7477443e-39
-0.017340049 -0.1224993 -0.017625302 2.0214571e-39
-0.015434045 -0.1224993 -0.017625302 6.3531958e-39
-0.013528045 -0.1224993 -0.017625302 5.800022e-39
-0.011768315 -0.12174667 -0.014591664 3.3111015e-39
-0.0098676309 -0.12174667 -0.014591664 3.0373957e-39
-0.0079669468 -0.12174667 -0.014591664 1.5651495e-39
-0.0062770434 -0.1207688 -0.010650128 7.1746481e-43
-0.00454868 -0.12002577 -0.0076552331 7.1746481e-43
-0.002660159 -0.12002577 -0.0076552331 1.4736853e-39
-0.00077163801 -0.12002577 -0.0076552331 4.5917888e-40
0.001116883 -0.12002577 -0.0076552331 3.410525e-39
0.003005404 -0.12002577 -0.0076552331 7.3767378e-39
0.004893925 -0.12002577 -0.0076552331 6.9172016e-39
0.0069793649 -0.1207688 -0.010650128 8.4852462e-39
0.0091392063 -0.12174667 -0.014591664 7.1026676e-39
0.011039887 -0.12174667 -0.014591664 7.4080484e-40
0.013155986 -0.1224993 -0.017625302 2.8595037e-39
0.015061993 -0.1224993 -0.017625302 1.3836477e-39
0.016967993 -0.1224993 -0.017625302 1.4754832e-39
0.019097693 -0.12322696 -0.020558208 2.8580617e-39
0.021008827 -0.12322696 -0.020558208 2.8580645e-39
0.022919975 -0.12322696 -0.020558208 1.6598871e-39
0.024831124 -0.12322696 -0.020558208 2.776771e-40
0.026742272 -0.12322696 -0.020558208 7.0064923e-45
-0.024714347 -0.12614109 -0.024572581 1.1038196e-39
-0.022796165 -0.12614109 -0.024572581 9.1835496e-40
-0.021036349 -0.12513812 -0.020558208 9.1835496e-40
-0.019246049 -0.12440531 -0.017625302 1.0101905e-39
-0.017340049 -0.12440531 -0.017625302 2.0225431e-39
-0.015434045 -0.12440531 -0.017625302 3.959366e-39
-0.013528045 -0.12440531 -0.017625302 4.2373836e-39
-0.011958361 -0.12266256 -0.010650128 3.9615128e-39
-0.010064587 -0.12266256 -0.010650128 2.4871044e-39
-0.008170817 -0.12266256 -0.010650128 3.3172336e-39
-0.0062770434 -0.12266256 -0.010650128 3.5016389e-39
-0.00454868 -0.12191428 -0.0076552331 3.5938387e-39
-0.002660159 -0.12191428 -0.0076552331 4.0540966e-39
-0.00077163801 -0.12191428 -0.0076552331 3.1328592e-39
0.001116883 -0.12191428 -0.0076552331 2.2123434e-39
0.003005404 -0.12191428 -0.0076552331 6.0860018e-39
0.004893925 -0.12191428 -0.0076552331 6.4562234e-39
0.0067824461 -0.12191428 -0.0076552331 2.4010506e-39
0.0088731386 -0.12266256 -0.010650128 3.5077555e-39
0.010766912 -0.12266256 -0.010650128 2.216651e-39
0.012660678 -0.12266256 -0.010650128 3.5055891e-39
0.014841255 -0.12364738 -0.014591664 2.3066816e-39
0.016967993 -0.12440531 -0.017625302 2.2130468e-39
0.019097693 -0.12513812 -0.020558208 2.5818308e-39
0.021008827 -0.12513812 -0.020558208 2.7658717e-39
0.022443987 -0.12364738 -0.014591664 2.9506273e-39
0.024344675 -0.12364738 -0.014591664 2.029757e-39
0.026742272 -0.12513812 -0.020558208 6.4717849e-40
-0.024714347 -0.12805928 -0.024572581 8.2723693e-40
-0.022947494 -0.12704925 -0.020558208 1.0101905e-39
-0.021152053 -0.12631132 -0.017625302 9.1836057e-40
-0.019246049 -0.12631132 -0.017625302 8.2652787e-40
-0.017340049 -0.12631132 -0.017625302 8.2653068e-40
-0.015569679 -0.12554805 -0.014591664 2.9481022e-39
-0.013668995 -0.12554805 -0.014591664 1.4381425e-38
-0.011958361 -0.12455635 -0.010650128 2.2402801e-38
-0.010064587 -0.12455635 -0.010650128 2.3509879e-38
-0.008170817 -0.12455635 -0.010650128 2.3323699e-38
-0.0062770434 -0.12455635 -0.010650128 2.3508451e-38
-0.00454868 -0.12380283 -0.0076552331 2.3508451e-38
-0.002660159 -0.12380283 -0.0076552331 2.2862369e-38
-0.00077163801 -0.12380283 -0.0076552331 1.9545125e-38
0.001116883 -0.12380283 -0.0076552331 1.4843508e-38
0.003005404 -0.12380283 -0.0076552331 3.4130474e-39
0.004893925 -0.12380283 -0.0076552331 1.7542463e-39
0.0067824461 -0.12380283 -0.0076552331 3.1382556e-39
0.0088731386 -0.12455635 -0.010650128 1.0177547e-39
0.010766912 -0.12455635 -0.010650128 1.3861714e-39
0.012660678 -0.12455635 -0.010650128 2.1226547e-39
0.014554452 -0.12455635 -0.010650128 2.306683e-39
0.016967993 -0.12631132 -0.017625302 2.5818294e-39
0.018873993 -0.12631132 -0.017625302 1.9364614e-39
0.02077999 -0.12631132 -0.017625302 1.751717e-39
0.022129543 -0.12455635 -0.010650128 3.0428215e-39
0.024023317 -0.12455635 -0.010650128 3.5045241e-39
0.026742272 -0.12704925 -0.020558208 2.4907267e-39
-0.024714347 -0.12997745 -0.024572581 7.1746481e-43
-0.022947494 -0.12896039 -0.020558208 8.2974806e-40
-0.021152053 -0.12821732 -0.017625302 9.1838299e-41
-0.019246049 -0.12821732 -0.017625302 1.289671e-39
-0.017340049 -0.12821732 -0.017625302 9.1845305e-41
-0.015569679 -0.12744872 -0.014591664 1.2262022e-38
-0.013668995 -0.12744872 -0.014591664 1.7885941e-38
-0.011958361 -0.12645011 -0.010650128 2.3509874e-38
-0.010214243 -0.12569134 -0.0076552331 2.3416615e-38
-0.0083257221 -0.12569134 -0.0076552331 2.3509168e-38
-0.0064372011 -0.12569134 -0.0076552331 2.3508809e-38
-0.00454868 -0.12569134 -0.0076552331 2.3416974e-38
-0.0028883927 -0.12467657 -0.0036499202 2.3234379e-38
-0.0010068975 -0.12467657 -0.0036499202 2.2958514e-38
0.00087460503 -0.12467657 -0.0036499202 2.0469239e-38
0.003005404 -0.12569134 -0.0076552331 1.4476523e-38
0.004893925 -0.12569134 -0.0076552331 1.2014285e-39
0.0067824461 -0.12569134 -0.0076552331 1.8727653e-40
0.0088731386 -0.12645011 -0.010650128 1.4447387e-42
0.010766912 -0.12645011 -0.010650128 1.1999851e-39
0.012660678 -0.12645011 -0.010650128 1.1992621e-39
0.014554452 -0.12645011 -0.010650128 1.6595185e-39
0.016448226 -0.12645011 -0.010650128 1.9357425e-39
0.018342 -0.12645011 -0.010650128 1.8424679e-39
0.020235769 -0.12645011 -0.010650128 1.565881e-39
0.022129543 -0.12645011 -0.010650128 2.1190576e-39
0.024023317 -0.12645011 -0.010650128 3.3186797e-39
-0.024714347 -0.13189565 -0.024572581 6.475134e-40
-0.023058053 -0.13012333 -0.017625302 1.0761972e-42
-0.021152053 -0.13012333 -0.017625302 1.4419361e-42
-0.019246049 -0.13012333 -0.017625302 8.3085368e-40
-0.017470364 -0.12934943 -0.014591664 9.4961639e-39
-0.015569679 -0.12934943 -0.014591664 2.1942926e-38
-0.013668995 -0.12934943 -0.014591664 2.3509876e-38
-0.011958361 -0.1283439 -0.010650128 2.350988e-38
-0.010214243 -0.12757985 -0.0076552331 2.304748e-38
-0.0083257221 -0.12757985 -0.0076552331 2.3508809e-38
-0.0064372011 -0.12757985 -0.0076552331 2.3324778e-38
-0.0047698915 -0.12655805 -0.0036499202 2.3509886e-38
-0.0028883927 -0.12655805 -0.0036499202 2.3142544e-38
-0.0011871867 -0.12577499 -0.00058040023 2.2682649e-38
0.00068892911 -0.12577499 -0.00058040023 2.2958873e-38
0.0027561001 -0.12655805 -0.0036499202 1.9823867e-38
0.004893925 -0.12757985 -0.0076552331 1.512189e-38
0.0067824461 -0.12757985 -0.0076552331 1.4447387e-42
0.0086709671 -0.12757985 -0.0076552331 2.7803163e-40
0.010766912 -0.1283439 -0.010650128 3.629363e-43
0.012660678 -0.1283439 -0.010650128 7.3756504e-40
0.014554452 -0.1283439 -0.010650128 1.1059846e-39
0.016448226 -0.1283439 -0.010650128 1.4736853e-39
0.018342 -0.1283439 -0.010650128 1.3814897e-39
0.020235769 -0.1283439 -0.010650128 1.3811282e-39
0.022129543 -0.1283439 -0.010650128 1.934302e-39
0.024023317 -0.1283439 -0.010650128 3.0406495e-39
-0.024714347 -0.13381381 -0.024572581 4.6204734e-40
-0.023058053 -0.13202934 -0.017625302 7.1746481e-43
-0.021152053 -0.13202934 -0.017625302 9.2558566e-41
-0.019246049 -0.13202934 -0.017625302 1.0233726e-38
-0.017470364 -0.1312501 -0.014591664 1.5949495e-38
-0.015569679 -0.1312501 -0.014591664 2.3509527e-38
-0.013668995 -0.1312501 -0.014591664 2.3509876e-38
-0.011958361 -0.13023765 -0.010650128 2.2957065e-38
-0.010214243 -0.1294684 -0.0076552331 2.3139674e-38
-0.0083257221 -0.1294684 -0.0076552331 2.3508809e-38
-0.0066513903 -0.12843956 -0.0036499202 2.3232583e-38
-0.0047698915 -0.12843956 -0.0036499202 2.3325492e-38
-0.003230799 -0.1268961 0.0023589432 2.3234379e-38
-0.001359839 -0.1268961 0.0023589432 2.2958514e-38
0.00068892911 -0.12765111 -0.00058040023 2.2958514e-38
0.0025650449 -0.12765111 -0.00058040023 2.3142544e-38
0.0046376027 -0.12843956 -0.0036499202 2.1575222e-38
0.0065190978 -0.12843956 -0.0036499202 4.2413619e-39
0.0086709671 -0.1294684 -0.0076552331 2.8025969e-45
0.010766912 -0.13023765 -0.010650128 0
0.012660678 -0.13023765 -0.010650128 3.6878252e-40
0.014554452 -0.13023765 -0.010650128 5.5281084e-40
0.016448226 -0.13023765 -0.010650128 9.2051156e-40
0.018342 -0.13023765 -0.010650128 1.0127072e-39
0.020235769 -0.13023765 -0.010650128 1.1049028e-39
0.021890618 -0.1294684 -0.0076552331 1.4736853e-39
0.023779146 -0.1294684 -0.0076552331 2.2108888e-39
0.02566766 -0.1294684 -0.0076552331 2.6718642e-39
0.027556188 -0.1294684 -0.0076552331 3.225754e-39
0.029444702 -0.1294684 -0.0076552331 3.0413628e-39
-0.022947494 -0.13469382 -0.020558208 3.6985311e-40
-0.021152053 -0.13393532 -0.017625302 3.5873241e-43
-0.019246049 -0.13393532 -0.017625302 2.0835861e-38
-0.017470364 -0.13315077 -0.014591664 2.2034404e-38
-0.015569679 -0.13315077 -0.014591664 2.3509886e-38
-0.013668995 -0.13315077 -0.014591664 2.2496085e-38
-0.012102764 -0.13135691 -0.0076552331 2.350988e-38
-0.010414388 -0.13032107 -0.0036499202 2.3509168e-38
-0.0092086345 -0.12694232 0.0094147027 2.3508809e-38
-0.0073500425 -0.12694232 0.0094147027 2.3324778e-38
-0.0053250752 -0.12772138 0.0064022839 2.3509883e-38
-0.0034612007 -0.12772138 0.0064022839 2.341805e-38
-0.001359839 -0.12876706 0.0023589432 2.341805e-38
0.00051112846 -0.12876706 0.0023589432 2.3141466e-38
0.0023820885 -0.12876706 0.0023589432 2.2680488e-38
0.0042530559 -0.12876706 0.0023589432 2.1020967e-38
0.0065190978 -0.13032107 -0.0036499202 1.3644953e-38
0.0086709671 -0.13135691 -0.0076552331 3.3190427e-39
0.010559496 -0.13135691 -0.0076552331 1.013789e-39
0.012660678 -0.13213144 -0.010650128 3.6841958e-40
0.014554452 -0.13213144 -0.010650128 3.6841958e-40
0.016448226 -0.13213144 -0.010650128 6.4392467e-40
0.018342 -0.13213144 -0.010650128 8.2831593e-40
0.020235769 -0.13213144 -0.010650128 9.2051156e-40
0.021890618 -0.13135691 -0.0076552331 1.1049028e-39
0.023779146 -0.13135691 -0.0076552331 1.3811282e-39
0.025334083 -0.13032107 -0.0036499202 1.5655194e-39
0.027215593 -0.13032107 -0.0036499202 2.8562554e-39
0.029097088 -0.13032107 -0.0036499202 3.5945394e-39
-0.017091371 -0.12618984 0.019443065 2.3324778e-38
-0.013991285 -0.13324542 -0.0076552331 2.304854e-38
-0.012102764 -0.13324542 -0.0076552331 2.350988e-38
-0.011365738 -0.12724553 0.015388519 2.2955644e-38
-0.0095176212 -0.12724553 0.015388519 2.2586864e-38
-0.0076695047 -0.12724553 0.015388519 2.3509527e-38
-0.0058213845 -0.12724553 0.015388519 2.3509883e-38
-0.003973268 -0.12724553 0.015388519 2.3048907e-38
-0.0017742664 -0.12880091 0.0094147027 2.3509886e-38
0.00026654825 -0.12958528 0.0064022839 2.3509886e-38
0.0021304227 -0.12958528 0.0064022839 1.982206e-38
0.0042530559 -0.13063805 0.0023589432 2.0928408e-38
0.0065190978 -0.13220255 -0.0036499202 1.9176328e-38
0.0086709671 -0.13324542 -0.0076552331 1.13397e-38
0.010559496 -0.13324542 -0.0076552331 3.6734198e-40
0.012660678 -0.1340252 -0.010650128 4.5953621e-40
0.014554452 -0.1340252 -0.010650128 4.5953621e-40
0.016225059 -0.13324542 -0.0076552331 4.5953621e-40
0.01811358 -0.13324542 -0.0076552331 5.5173044e-40
0.020002104 -0.13324542 -0.0076552331 6.4392467e-40
0.021890618 -0.13324542 -0.0076552331 6.4392467e-40
0.023779146 -0.13324542 -0.0076552331 5.5173044e-40
0.025334083 -0.13220255 -0.0036499202 5.5137171e-40
0.027215593 -0.13220255 -0.0036499202 2.3030817e-39
0.029097088 -0.13220255 -0.0036499202 3.8704074e-39
-0.017091371 -0.12803085 0.019443065 2.2863797e-38
-0.015250362 -0.12803085 0.019443065 2.3232932e-38
-0.013409354 -0.12803085 0.019443065 2.350988e-38
-0.011568345 -0.12803085 0.019443065 2.2955999e-38
-0.0097273365 -0.12803085 0.019443065 2.3509168e-38
-0.0076695047 -0.12909363 0.015388519 2.3509527e-38
-0.0058213845 -0.12909363 0.015388519 2.314074e-38
-0.003973268 -0.12909363 0.015388519 2.3231857e-38
-0.0021251477 -0.12909363 0.015388519 2.3509521e-38
0.00026654825 -0.13144915 0.0064022839 2.332405e-38
0.0021304227 -0.13144915 0.0064022839 1.8529877e-38
0.0039942972 -0.13144915 0.0064022839 1.9359638e-38
0.0065190978 -0.13408406 -0.0036499202 1.9267442e-38
0.0086709671 -0.13513394 -0.0076552331 1.6685964e-38
0.010766912 -0.13591899 -0.010650128 2.7550649e-40
0.012660678 -0.13591899 -0.010650128 3.6734198e-40
0.014554452 -0.13591899 -0.010650128 3.6734198e-40
0.016225059 -0.13513394 -0.0076552331 2.7550649e-40
0.01811358 -0.13513394 -0.0076552331 2.7550649e-40
0.020002104 -0.13513394 -0.0076552331 2.7550649e-40
0.021890618 -0.13513394 -0.0076552331 2.7550649e-40
0.023779146 -0.13513394 -0.0076552331 2.7550649e-40
0.025334083 -0.13408406 -0.0036499202 2.7550649e-40
0.027215593 -0.13408406 -0.0036499202 2.4863967e-39
0.029097088 -0.13408406 -0.0036499202 4.2384696e-39
-0.017091371 -0.12987186 0.019443065 2.3139658e-38
-0.015386924 -0.12909628 0.02238217 2.1480494e-38
-0.013551068 -0.12909628 0.02238217 1.972842e-38
-0.011715211 -0.12909628 0.02238217 2.1295395e-38
-0.0097273365 -0.12987186 0.019443065 2.3509168e-38
-0.0078863278 -0.12987186 0.019443065 2.3509527e-38
-0.0060453191 -0.12987186 0.019443065 2.2678683e-38
-0.0042043105 -0.12987186 0.019443065 2.3509521e-38
-0.0023633018 -0.12987186 0.019443065 2.350952e-38
-0.00027703121 -0.13094176 0.015388519 2.3231492e-38
0.0017564781 -0.13172771 0.012410074 1.8345124e-38
0.0034192018 -0.13094176 0.015388519 1.6869994e-38
0.0052673258 -0.13094176 0.015388519 1.8252928e-38
0.0086709671 -0.13702248 -0.0076552331 1.7054385e-38
0.010559496 -0.13702248 -0.0076552331 8.279544e-40
0.012660678 -0.13781275 -0.010650128 2.7550649e-40
0.014554452 -0.13781275 -0.010650128 2.7550649e-40
0.016225059 -0.13702248 -0.0076552331 1.8402972e-40
0.01811358 -0.13702248 -0.0076552331 9.1835496e-41
0.020002104 -0.13702248 -0.0076552331 9.1835496e-41
0.021890618 -0.13702248 -0.0076552331 9.1835496e-41
0.023779146 -0.13702248 -0.0076552331 1.8402972e-40
0.02566766 -0.13702248 -0.0076552331 5.5173044e-40
0.027556188 -0.13702248 -0.0076552331 2.7629836e-39
-0.01893238 -0.13171287 0.019443065 1.7607559e-38
-0.017222781 -0.13093217 0.02238217 1.7976342e-38
-0.015527733 -0.13012715 0.025412709 1.4288516e-38
-0.013697192 -0.13012715 0.025412709 1.0324466e-38
-0.011866648 -0.13012715 0.025412709 1.345912e-38
-0.010036107 -0.13012715 0.025412709 1.7146948e-38
-0.0080435015 -0.13093217 0.02238217 1.9452559e-38
-0.0062076449 -0.13093217 0.02238217 2.3231857e-38
-0.0043717884 -0.13093217 0.02238217 2.350952e-38
-0.0025359318 -0.13093217 0.02238217 2.25854e-38
-0.00052228943 -0.13171287 0.019443065 2.3509517e-38
0.0015710853 -0.13278987 0.015388519 1.6408293e-38
0.0034192018 -0.13278987 0.015388519 1.5947315e-38
0.0052673258 -0.13278987 0.015388519 1.6592684e-38
0.0086709671 -0.13891099 -0.0076552331 1.4472908e-38
0.010559496 -0.13891099 -0.0076552331 4.5917748e-40
0.012448017 -0.13891099 -0.0076552331 2.7550649e-40
0.014336538 -0.13891099 -0.0076552331 4.5953621e-40
0.016225059 -0.13891099 -0.0076552331 2.7622395e-40
0.01811358 -0.13891099 -0.0076552331 1.8402972e-40
0.020235769 -0.13970654 -0.010650128 9.1835496e-41
0.022129543 -0.13970654 -0.010650128 9.1835496e-41
0.024023317 -0.13970654 -0.010650128 5.5281084e-40
0.02591709 -0.13970654 -0.010650128 1.1049056e-39
0.027810864 -0.13970654 -0.010650128 3.0395719e-39
-0.01893238 -0.13355388 0.019443065 1.5117554e-38
-0.017222781 -0.13276802 0.02238217 1.5762923e-38
-0.015527733 -0.13195769 0.025412709 1.5301589e-38
-0.013697192 -0.13195769 0.025412709 1.1338258e-38
-0.011866648 -0.13195769 0.025412709 1.2905943e-38
-0.010036107 -0.13195769 0.025412709 1.6317182e-38
-0.0082055628 -0.13195769 0.025412709 1.5395951e-38
-0.0063750222 -0.13195769 0.025412709 1.7792315e-38
-0.0045444779 -0.13195769 0.025412709 2.0925879e-38
-0.0027139373 -0.13195769 0.025412709 2.3045656e-38
-0.00052228943 -0.13355388 0.019443065 2.3045656e-38
0.0015710853 -0.134638 0.015388519 1.6038789e-38
0.0034192018 -0.134638 0.015388519 1.4748771e-38
0.0052673258 -0.134638 0.015388519 1.5947315e-38
0.0071154423 -0.134638 0.015388519 1.2721191e-38
0.0089635588 -0.134638 0.015388519 3.6734198e-40
0.012448017 -0.14079951 -0.0076552331 2.7550649e-40
0.014336538 -0.14079951 -0.0076552331 4.5953621e-40
0.016225059 -0.14079951 -0.0076552331 1.8402972e-40
0.01811358 -0.14079951 -0.0076552331 9.1835496e-41
0.020235769 -0.1416003 -0.010650128 1.8439126e-40
0.022129543 -0.1416003 -0.010650128 0
0.023779146 -0.14079951 -0.0076552331 0
0.02566766 -0.14079951 -0.0076552331 5.5281084e-40
0.027556188 -0.14079951 -0.0076552331 3.1314116e-39
-0.022614401 -0.13539489 0.019443065 1.4287793e-38
-0.020773392 -0.13539489 0.019443065 1.5209025e-38
-0.01893238 -0.13539489 0.019443065 1.6223177e-38
-0.017222781 -0.13460387 0.02238217 1.6776354e-38
-0.015386924 -0.13460387 0.02238217 1.5761849e-38
-0.013697192 -0.13378824 0.025412709 1.152157e-38
-0.011866648 -0.13378824 0.025412709 1.2721188e-38
-0.010036107 -0.13378824 0.025412709 1.6317539e-38
-0.0082055628 -0.13378824 0.025412709 1.5488503e-38
-0.0063750222 -0.13378824 0.025412709 1.7331336e-38
-0.0045444779 -0.13378824 0.025412709 1.7698676e-38
-0.0027139373 -0.13378824 0.025412709 1.8435875e-38
-0.00052228943 -0.13539489 0.019443065 1.8435875e-38
0.0015710853 -0.13648613 0.015388519 1.2720468e-38
0.0034192018 -0.13648613 0.015388519 1.1337533e-38
0.0052673258 -0.13648613 0.015388519 1.0508493e-38
0.0071154423 -0.13648613 0.015388519 8.8489742e-39
0.0089635588 -0.13648613 0.015388519 5.5208917e-40
0.012448017 -0.14268802 -0.0076552331 2.7550649e-40
0.014336538 -0.14268802 -0.0076552331 3.6841818e-40
0.016225059 -0.14268802 -0.0076552331 9.1835496e-41
0.01811358 -0.14268802 -0.0076552331 9.1835496e-41
0.020235769 -0.14349405 -0.010650128 9.219563e-41
0.022129543 -0.14349405 -0.010650128 0
0.023779146 -0.14268802 -0.0076552331 0
0.02566766 -0.14268802 -0.0076552331 8.290418e-40
0.027556188 -0.14268802 -0.0076552331 2.6704335e-39
-0.022614401 -0.13723589 0.019443065 1.3180724e-38
-0.020773392 -0.13723589 0.019443065 1.548525e-38
-0.01893238 -0.13723589 0.019443065 1.6868185e-38
-0.017222781 -0.13643973 0.02238217 1.742172e-38
-0.015386924 -0.13643973 0.02238217 1.6130632e-38
-0.013697192 -0.13561879 0.025412709 1.1890352e-38
-0.011866648 -0.13561879 0.025412709 1.2905935e-38
-0.010036107 -0.13561879 0.025412709 1.659412e-38
-0.0082055628 -0.13561879 0.025412709 1.5949481e-38
-0.0063750222 -0.13561879 0.025412709 1.6685967e-38
-0.0045444779 -0.13561879 0.025412709 1.6501211e-38
-0.0027139373 -0.13561879 0.025412709 1.6777075e-38
-0.00052228943 -0.13723589 0.019443065 1.668488e-38
0.0015710853 -0.13833423 0.015388519 1.1246061e-38
0.0034192018 -0.13833423 0.015388519 9.9553218e-39
0.0052673258 -0.13833423 0.015388519 8.0192135e-39
0.012448017 -0.14457656 -0.0076552331 2.7550649e-40
0.014336538 -0.14457656 -0.0076552331 3.6841958e-40
0.016448226 -0.14538784 -0.010650128 9.1835496e-41
0.018342 -0.14538784 -0.010650128 0
0.020235769 -0.14538784 -0.010650128 9.219563e-41
-0.022614401 -0.1390769 0.019443065 1.23506e-38
-0.020773392 -0.1390769 0.019443065 1.5946582e-38
-0.01893238 -0.1390769 0.019443065 1.6130973e-38
-0.017222781 -0.13827558 0.02238217 1.7052576e-38
-0.015386924 -0.13827558 0.02238217 1.5853327e-38
-0.013697192 -0.13744931 0.025412709 1.216622e-38
-0.011866648 -0.13744931 0.025412709 1.3089244e-38
-0.010036107 -0.13744931 0.025412709 1.6502281e-38
-0.0082055628 -0.13744931 0.025412709 1.640938e-38
-0.0063750222 -0.13744931 0.025412709 1.60406e-38
-0.0045444779 -0.13744931 0.025412709 1.5763648e-38
-0.0027139373 -0.13744931 0.025412709 1.3735343e-38
-0.00070007518 -0.13827558 0.02238217 1.3550951e-38
0.0013187192 -0.1390769 0.019443065 9.7716494e-39
0.0034192018 -0.14018236 0.015388519 8.9411712e-39
0.0052673258 -0.14018236 0.015388519 4.6083368e-39
0.016448226 -0.1472816 -0.010650128 0
0.018342 -0.1472816 -0.010650128 9.219563e-41
-0.022614401 -0.14091791 0.019443065 1.087547e-38
-0.02089449 -0.14011143 0.02238217 1.5484522e-38
-0.019058637 -0.14011143 0.02238217 1.5761109e-38
-0.017222781 -0.14011143 0.02238217 1.6775266e-38
-0.015386924 -0.14011143 0.02238217 1.5392349e-38
-0.013551068 -0.14011143 0.02238217 1.216622e-38
-0.011866648 -0.13927986 0.025412709 1.2628624e-38
-0.010036107 -0.13927986 0.025412709 1.5672519e-38
-0.0080435015 -0.14011143 0.02238217 1.6501573e-38
-0.0062076449 -0.14011143 0.02238217 1.5672538e-38
-0.0045444779 -0.13927986 0.025412709 1.6593771e-38
-0.0027139373 -0.13927986 0.025412709 1.17074e-38
-0.00070007518 -0.14011143 0.02238217 1.1246422e-38
0.0013187192 -0.14091791 0.019443065 8.4816322e-39
0.0034192018 -0.14203046 0.015388519 7.2820128e-39
0.0052673258 -0.14203046 0.015388519 1.3825715e-39
-0.022730347 -0.14194728 0.02238217 8.4773036e-39
-0.02089449 -0.14194728 0.02238217 1.3733162e-38
-0.019058637 -0.14194728 0.02238217 1.5668552e-38
-0.017222781 -0.14194728 0.02238217 1.6590875e-38
-0.015386924 -0.14194728 0.02238217 1.5760411e-38
-0.013551068 -0.14194728 0.02238217 1.2903785e-38
-0.011715211 -0.14194728 0.02238217 1.244423e-38
-0.0098793581 -0.14194728 0.02238217 1.4842395e-38
-0.0080435015 -0.14194728 0.02238217 1.6317182e-38
-0.0062076449 -0.14194728 0.02238217 1.5764737e-38
-0.0043717884 -0.14194728 0.02238217 1.4566191e-38
-0.0025359318 -0.14194728 0.02238217 1.0233712e-38
-0.00070007518 -0.14194728 0.02238217 9.3110398e-39
0.0013187192 -0.14275892 0.019443065 3.4112355e-39
0.0031597279 -0.14275892 0.019443065 1.1978243e-39
-0.02089449 -0.14378314 0.02238217 1.0229009e-38
-0.019058637 -0.14378314 0.02238217 1.3548052e-38
-0.017222781 -0.14378314 0.02238217 1.5115745e-38
-0.015386924 -0.14378314 0.02238217 1.5391628e-38
-0.013551068 -0.14378314 0.02238217 1.3733546e-38
-0.011715211 -0.14378314 0.02238217 1.2536422e-38
-0.0098793581 -0.14378314 0.02238217 1.3459458e-38
-0.0080435015 -0.14378314 0.02238217 1.4934247e-38
-0.0062076449 -0.14378314 0.02238217 1.4289607e-38
-0.0045444779 -0.14294095 0.025412709 1.2999587e-38
-0.0027139373 -0.14294095 0.025412709 7.929543e-39
-0.00070007518 -0.14378314 0.02238217 7.0990663e-39
0.0011357777 -0.14378314 0.02238217 7.3828391e-40
0.0031597279 -0.14459993 0.019443065 2.8025969e-45
-0.022730347 -0.14561899 0.02238217 2.3012768e-39
-0.02089449 -0.14561899 0.02238217 6.172766e-39
-0.019058637 -0.14561899 0.02238217 1.0137178e-38
-0.017222781 -0.14561899 0.02238217 1.2442795e-38
-0.015386924 -0.14561899 0.02238217 1.4101613e-38
-0.013551068 -0.14561899 0.02238217 1.3825745e-38
-0.011715211 -0.14561899 0.02238217 1.2259841e-38
-0.0098793581 -0.14561899 0.02238217 1.1891779e-38
-0.0080435015 -0.14561899 0.02238217 1.2905227e-38
-0.0062076449 -0.14561899 0.02238217 1.1892523e-38
-0.0045444779 -0.1447715 0.025412709 1.0141522e-38
-0.0027139373 -0.1447715 0.025412709 7.3792798e-40
-0.00088339671 -0.1447715 0.025412709 4.6134109e-40
0.0011357777 -0.14561899 0.02238217 2.8025969e-45
0.0031597279 -0.14644094 0.019443065 4.6134109e-40
-0.02089449 -0.14745484 0.02238217 3.0392076e-39
-0.019058637 -0.14745484 0.02238217 5.6214041e-39
-0.017222781 -0.14745484 0.02238217 8.9400908e-39
-0.015386924 -0.14745484 0.02238217 1.1429018e-38
-0.013551068 -0.14745484 0.02238217 1.124463e-38
-0.011715211 -0.14745484 0.02238217 1.023191e-38
-0.0098793581 -0.14745484 0.02238217 1.0600693e-38
-0.0080435015 -0.14745484 0.02238217 1.1061318e-38
-0.0063750222 -0.14660202 0.025412709 1.0785094e-38
-0.0045444779 -0.14660202 0.025412709 5.0700464e-39
-0.0027139373 -0.14660202 0.025412709 2.1201464e-39
-0.00088339671 -0.14660202 0.025412709 2.8025969e-45
-0.017222781 -0.14929073 0.02238217 8.2759987e-40
-0.015386924 -0.14929073 0.02238217 2.6715153e-39
-0.013551068 -0.14929073 0.02238217 4.238841e-39
-0.011715211 -0.14929073 0.02238217 4.8842132e-39
-0.0098793581 -0.14929073 0.02238217 4.1466481e-39
-0.0080435015 -0.14929073 0.02238217 2.3949312e-39
-0.0063750222 -0.14843257 0.025412709 8.2796561e-40
-0.0045444779 -0.14843257 0.025412709 7.3685178e-40
-0.0027139373 -0.14843257 0.025412709 5.6051939e-45
-0.00088339671 -0.14843257 0.025412709 2.8025969e-45
0.00094715133 -0.14843257 0.025412709 0
