# .PCD v0.7 - Point Cloud Data file format
VERSION 0.7
FIELDS x y z rgb
SIZE 4 4 4 4
TYPE F F F F
COUNT 1 1 1 1
WIDTH 468
HEIGHT 1
VIEWPOINT 0 0 0 1 0 0 0
POINTS 468
DATA ascii
0.00023943186 -0.10908265 -0.014457211 1.8897608e-38
0.0021033064 -0.10908265 -0.014457211 1.3640297e-38
-0.0032740645 -0.11264218 -0.021439895 2.3416589e-38
-0.0013979487 -0.11264218 -0.021439895 2.3508802e-38
0.00023943186 -0.11094652 -0.014457211 2.3508448e-38
0.0021033064 -0.11094652 -0.014457211 2.3505208e-38
0.01046063 -0.11604463 -0.035451159 2.2775199e-38
0.012361314 -0.11604463 -0.035451159 2.2040159e-38
0.014402948 -0.11678131 -0.038484797 2.2316024e-38
-0.0052352175 -0.11379938 -0.018500552 2.2583571e-38
-0.0033642538 -0.11379938 -0.018500552 2.3508047e-38
-0.0014932901 -0.11379938 -0.018500552 2.3505176e-38
0.00037767366 -0.11379938 -0.018500552 2.3504461e-38
0.0022486374 -0.11379938 -0.018500552 2.3508784e-38
0.0042304024 -0.1145183 -0.021439895 2.3045642e-38
0.0062276125 -0.11526908 -0.024509415 2.350986e-38
0.01046063 -0.11794533 -0.035451159 2.2499692e-38
0.012361314 -0.11794533 -0.035451159 2.1948682e-38
0.014402948 -0.11868732 -0.038484797 2.1303681e-38
-0.007026298 -0.11639442 -0.021439895 7.4617125e-39
-0.0052352175 -0.11567034 -0.018500552 8.2914424e-39
-0.0033642538 -0.11567034 -0.018500552 1.1240612e-38
-0.0014932901 -0.11567034 -0.018500552 1.3452231e-38
0.00037767366 -0.11567034 -0.018500552 2.1934229e-38
0.0022486374 -0.11567034 -0.018500552 2.3509119e-38
0.0042304024 -0.11639442 -0.021439895 2.3509841e-38
0.0061065182 -0.11639442 -0.021439895 2.3139625e-38
0.0081091113 -0.11715056 -0.024509415 2.323436e-38
0.010162666 -0.11813726 -0.028514728 2.1856122e-38
0.012185089 -0.11887501 -0.031509623 2.1673176e-38
0.014402948 -0.12059332 -0.038484797 1.1900477e-38
-0.0089024156 -0.11827053 -0.021439895 6.447932e-39
-0.0071061794 -0.1175413 -0.018500552 5.9862307e-39
-0.0053521898 -0.11653815 -0.014457211 5.8014583e-39
-0.0034883171 -0.11653815 -0.014457211 2.8504877e-39
-0.0014932901 -0.1175413 -0.018500552 7.0903726e-39
0.00037767366 -0.1175413 -0.018500552 3.7706363e-39
0.0022486374 -0.1175413 -0.018500552 1.8060928e-38
0.0041196011 -0.1175413 -0.018500552 2.304058e-38
0.0059905611 -0.1175413 -0.018500552 2.3509133e-38
0.0079826377 -0.11827053 -0.021439895 2.2586473e-38
0.0098587535 -0.11827053 -0.021439895 2.2958873e-38
0.012051187 -0.12002577 -0.028514728 2.2040518e-38
-0.0089024156 -0.12014665 -0.021439895 7.6464793e-39
-0.0072160643 -0.11840202 -0.014457211 5.8944121e-39
-0.0053521898 -0.11840202 -0.014457211 4.9728159e-39
-0.0034883171 -0.11840202 -0.014457211 6.7237986e-39
-0.0016244426 -0.11840202 -0.014457211 5.7067474e-39
0.00037767366 -0.11941226 -0.018500552 3.1238418e-39
0.0022486374 -0.11941226 -0.018500552 8.5615497e-39
0.0041196011 -0.11941226 -0.018500552 2.3498691e-38
0.0059905611 -0.11941226 -0.018500552 2.3506991e-38
0.0078615248 -0.11941226 -0.018500552 2.3507726e-38
0.0098587535 -0.12014665 -0.021439895 2.3508809e-38
0.011734869 -0.12014665 -0.021439895 2.2312796e-38
-0.012499591 -0.12380283 -0.028514728 4.7894644e-39
-0.010778531 -0.12202276 -0.021439895 5.157898e-39
-0.0089024156 -0.12202276 -0.021439895 4.3277968e-39
-0.0072160643 -0.12026589 -0.014457211 4.5118419e-39
-0.0053521898 -0.12026589 -0.014457211 4.3278192e-39
-0.0034883171 -0.12026589 -0.014457211 4.6040376e-39
-0.0016244426 -0.12026589 -0.014457211 5.5245365e-39
0.00037767366 -0.12128322 -0.018500552 5.7078348e-39
0.0022486374 -0.12128322 -0.018500552 8.7484843e-39
0.0041196011 -0.12128322 -0.018500552 1.0500201e-38
0.0059905611 -0.12128322 -0.018500552 1.3450473e-38
0.0078615248 -0.12128322 -0.018500552 1.3637386e-38
0.0098587535 -0.12202276 -0.021439895 1.3639907e-38
0.011734869 -0.12202276 -0.021439895 2.3509873e-38
0.013610989 -0.12202276 -0.021439895 2.3509866e-38
0.015487105 -0.12202276 -0.021439895 2.3234357e-38
-0.012587376 -0.12467657 -0.024509415 5.4355723e-39
-0.010778531 -0.12389888 -0.021439895 7.0950964e-39
-0.0089771431 -0.12315418 -0.018500552 7.0025491e-39
-0.0072160643 -0.12212978 -0.014457211 8.3851304e-39
-0.0053521898 -0.12212978 -0.014457211 6.818169e-39
-0.0033642538 -0.12315418 -0.018500552 7.8330426e-39
-0.0014932901 -0.12315418 -0.018500552 6.9118094e-39
0.00037767366 -0.12315418 -0.018500552 5.6228684e-39
0.0022486374 -0.12315418 -0.018500552 3.9640632e-39
0.0041196011 -0.12315418 -0.018500552 3.6871063e-39
0.0059905611 -0.12315418 -0.018500552 3.7785677e-39
0.0078615248 -0.12315418 -0.018500552 3.9618645e-39
0.0098587535 -0.12389888 -0.021439895 6.7266306e-39
0.011734869 -0.12389888 -0.021439895 1.5945464e-38
0.013610989 -0.12389888 -0.021439895 2.3506943e-38
0.015487105 -0.12389888 -0.021439895 2.3509832e-38
-0.012654649 -0.12577499 -0.021439895 2.2861276e-38
-0.010943811 -0.12399365 -0.014457211 2.3508807e-38
-0.0092326757 -0.12246101 -0.0084494203 2.3509163e-38
-0.0073793363 -0.12246101 -0.0084494203 2.341445e-38
-0.005525995 -0.12246101 -0.0084494203 2.3508451e-38
-0.0034883171 -0.12399365 -0.014457211 2.3507374e-38
-0.0014932901 -0.12502514 -0.018500552 2.3417333e-38
0.00037767366 -0.12502514 -0.018500552 1.5490695e-38
0.0022486374 -0.12502514 -0.018500552 1.1989419e-38
0.0041196011 -0.12502514 -0.018500552 1.5709411e-39
0.0058310516 -0.12399365 -0.014457211 1.3850896e-39
0.0076949261 -0.12399365 -0.014457211 1.4747489e-39
0.0097324885 -0.12502514 -0.018500552 1.0109079e-39
0.011734869 -0.12577499 -0.021439895 5.6181082e-39
0.013474416 -0.12502514 -0.018500552 1.9814788e-38
0.01534538 -0.12502514 -0.018500552 2.3502628e-38
-0.012654649 -0.12765111 -0.021439895 2.3509524e-38
-0.010943811 -0.12585752 -0.014457211 2.3509524e-38
-0.0092326757 -0.12431435 -0.0084494203 2.3509524e-38
-0.0073793363 -0.12431435 -0.0084494203 2.3508085e-38
-0.005525995 -0.12431435 -0.0084494203 2.3508442e-38
-0.0034883171 -0.12585752 -0.014457211 2.3509168e-38
-0.0014932901 -0.1268961 -0.018500552 2.1943297e-38
0.00037767366 -0.1268961 -0.018500552 2.2774843e-38
0.0022486374 -0.1268961 -0.018500552 1.5585051e-38
0.0039671771 -0.12585752 -0.014457211 9.4994149e-39
0.0058310516 -0.12585752 -0.014457211 2.0301129e-39
0.0076949261 -0.12585752 -0.014457211 7.3755383e-40
0.0095588006 -0.12585752 -0.014457211 1.8399385e-39
0.011734869 -0.12765111 -0.021439895 1.3775324e-39
0.01328655 -0.12585752 -0.014457211 2.7582935e-39
0.015150424 -0.12585752 -0.014457211 1.7325178e-38
-0.0078960061 -0.121251 0.010562077 2.350988e-38
0.00037767366 -0.12876706 -0.018500552 2.2222036e-38
0.0022486374 -0.12876706 -0.018500552 2.2591531e-38
0.0039671771 -0.12772138 -0.014457211 1.6598121e-38
0.0057122111 -0.12694232 -0.011444792 1.143336e-38
0.0075708069 -0.12694232 -0.011444792 3.6771193e-40
0.0095588006 -0.12772138 -0.014457211 1.1945789e-39
0.011422675 -0.12772138 -0.014457211 1.4693679e-39
0.01328655 -0.12772138 -0.014457211 4.2330578e-39
0.015150424 -0.12772138 -0.014457211 5.9847776e-39
0.017014295 -0.12772138 -0.014457211 5.2497391e-39
0.018878169 -0.12772138 -0.014457211 2.4860422e-39
0.020742044 -0.12772138 -0.014457211 9.2160738e-40
0.022991572 -0.12952723 -0.021439895 3.9655051e-39
0.024867687 -0.12952723 -0.021439895 3.1350186e-39
-0.015176032 -0.123071 0.010562077 2.3234379e-38
-0.013356026 -0.123071 0.010562077 2.3142542e-38
-0.011536019 -0.123071 0.010562077 2.3234379e-38
-0.0097160116 -0.123071 0.010562077 2.2958507e-38
-0.0016244426 -0.12958528 -0.014457211 2.3142544e-38
0.0039671771 -0.12958528 -0.014457211 2.1853259e-38
0.0057122111 -0.12880091 -0.011444792 1.6595966e-38
0.0074473843 -0.12802102 -0.0084494203 1.3818835e-39
0.0093007274 -0.12802102 -0.0084494203 6.4286389e-40
0.011287991 -0.12880091 -0.011444792 5.247965e-39
0.013146583 -0.12880091 -0.011444792 1.5612062e-39
0.015150424 -0.12958528 -0.014457211 2.0207481e-39
0.017014295 -0.12958528 -0.014457211 2.6686314e-39
0.018878169 -0.12958528 -0.014457211 1.1963824e-39
0.020742044 -0.12958528 -0.014457211 2.4900009e-39
0.022991572 -0.13140334 -0.021439895 8.311998e-40
0.024867687 -0.13140334 -0.021439895 2.2130581e-39
-0.016996039 -0.124891 0.010562077 2.2405699e-38
-0.015176032 -0.124891 0.010562077 2.2497894e-38
-0.013356026 -0.124891 0.010562077 2.3142544e-38
-0.011536019 -0.124891 0.010562077 2.3142544e-38
-0.0097160116 -0.124891 0.010562077 2.1852519e-38
-0.0078960061 -0.124891 0.010562077 2.2774113e-38
0.0017803088 -0.12909363 -0.0054709762 2.213056e-38
0.003628429 -0.12909363 -0.0054709762 2.2867037e-38
0.0054765455 -0.12909363 -0.0054709762 2.2496467e-38
0.0073246658 -0.12909363 -0.0054709762 6.5444842e-39
0.0091727823 -0.12909363 -0.0054709762 5.510396e-40
0.011154067 -0.12987436 -0.0084494203 2.8516186e-39
0.013007406 -0.12987436 -0.0084494203 2.0204103e-39
0.015005175 -0.13065951 -0.011444792 4.0501449e-39
0.017014295 -0.13144915 -0.014457211 4.6051096e-39
0.018878169 -0.13144915 -0.014457211 1.2892969e-39
0.020958267 -0.13250901 -0.018500552 8.3083126e-40
0.022829231 -0.13250901 -0.018500552 1.1081384e-39
0.024867687 -0.13327946 -0.021439895 1.0148708e-39
0.026743807 -0.13327946 -0.021439895 2.5814776e-39
-0.016996039 -0.126711 0.010562077 2.1944002e-38
-0.015176032 -0.126711 0.010562077 2.3234379e-38
-0.013356026 -0.126711 0.010562077 2.3234379e-38
-0.011536019 -0.126711 0.010562077 2.2958151e-38
-0.0097160116 -0.126711 0.010562077 2.3234376e-38
-0.0078960061 -0.126711 0.010562077 2.3234376e-38
-0.0062783249 -0.12486555 0.017555729 2.350988e-38
-0.0044705793 -0.12486555 0.017555729 2.3418043e-38
-0.0026628375 -0.12486555 0.017555729 2.3234376e-38
0.003628429 -0.13094176 -0.0054709762 2.2958873e-38
0.0054765455 -0.13094176 -0.0054709762 2.323402e-38
0.0073246658 -0.13094176 -0.0054709762 1.1707794e-38
0.0091727823 -0.13094176 -0.0054709762 1.2860963e-39
0.011020899 -0.13094176 -0.0054709762 7.347134e-40
0.013007406 -0.13172771 -0.0084494203 2.2058918e-39
0.015005175 -0.1325181 -0.011444792 1.285725e-39
0.016863767 -0.1325181 -0.011444792 1.2871501e-39
0.018878169 -0.13331302 -0.014457211 1.2903759e-39
0.020958267 -0.13437997 -0.018500552 1.4349296e-42
0.022829231 -0.13437997 -0.018500552 1.0761972e-42
0.024867687 -0.13515557 -0.021439895 9.2911693e-41
0.026743807 -0.13515557 -0.021439895 1.9361082e-39
-0.017068431 -0.12748651 0.014494315 2.341805e-38
-0.015255319 -0.12748651 0.014494315 2.3049626e-38
-0.013442207 -0.12748651 0.014494315 2.341805e-38
-0.011536019 -0.12853102 0.010562077 2.2957428e-38
-0.0098938141 -0.1266733 0.017555729 2.3418047e-38
-0.0080860686 -0.1266733 0.017555729 2.3049624e-38
-0.0062783249 -0.1266733 0.017555729 2.3417687e-38
-0.0044705793 -0.1266733 0.017555729 2.3418047e-38
-0.00075042248 -0.12748651 0.014494315 2.3142538e-38
0.003628429 -0.13278987 -0.0054709762 2.1575935e-38
0.0054765455 -0.13278987 -0.0054709762 2.341805e-38
0.0073246658 -0.13278987 -0.0054709762 1.9636248e-38
0.0091727823 -0.13278987 -0.0054709762 7.0954958e-39
0.011020899 -0.13278987 -0.0054709762 8.2654889e-40
0.012869019 -0.13278987 -0.0054709762 6.428751e-40
0.014860746 -0.13358103 -0.0084494203 1.5630349e-39
0.016714089 -0.13358103 -0.0084494203 7.3542105e-40
0.019087303 -0.13625093 -0.018500552 0
0.020958267 -0.13625093 -0.018500552 5.5532057e-40
0.022829231 -0.13625093 -0.018500552 1.793662e-42
0.024867687 -0.13703169 -0.021439895 3.5873241e-43
-0.02258667 -0.12769531 0.020494357 2.2679409e-38
-0.020784076 -0.12769531 0.020494357 2.3509527e-38
-0.018981485 -0.12769531 0.020494357 2.28638e-38
-0.017178891 -0.12769531 0.020494357 2.3232583e-38
-0.015317047 -0.12848105 0.017555729 2.3509527e-38
-0.013509303 -0.12848105 0.017555729 2.3324775e-38
-0.011701558 -0.12848105 0.017555729 2.3417327e-38
-0.0099685229 -0.12769531 0.020494357 2.3509883e-38
-0.0081659313 -0.12769531 0.020494357 2.3509523e-38
-0.0063633397 -0.12769531 0.020494357 2.3509886e-38
-0.0045607463 -0.12769531 0.020494357 2.2956715e-38
-0.0025635324 -0.1292996 0.014494315 2.3418045e-38
0.0030240342 -0.13035102 0.010562077 2.111422e-38
0.0050810911 -0.13195769 0.0045532137 2.2864865e-38
0.0070365034 -0.13276802 0.0015226752 1.9268168e-38
0.0091727823 -0.134638 -0.0054709762 1.4287457e-38
0.011020899 -0.134638 -0.0054709762 5.5102979e-40
0.012869019 -0.134638 -0.0054709762 7.3470639e-40
0.014860746 -0.13543437 -0.0084494203 3.673616e-40
0.016714089 -0.13543437 -0.0084494203 1.8368501e-40
0.019087303 -0.13812189 -0.018500552 5.6051939e-45
0.020958267 -0.13812189 -0.018500552 1.8618352e-40
0.022829231 -0.13812189 -0.018500552 7.1746481e-43
-0.02258667 -0.1294979 0.020494357 2.2770165e-38
-0.020784076 -0.1294979 0.020494357 1.9819905e-38
-0.018981485 -0.1294979 0.020494357 1.797599e-38
-0.017178891 -0.1294979 0.020494357 1.8621359e-38
-0.015317047 -0.13028879 0.017555729 2.0373073e-38
-0.013509303 -0.13028879 0.017555729 2.0465269e-38
-0.011701558 -0.13028879 0.017555729 2.0834407e-38
-0.0099685229 -0.1294979 0.020494357 2.2493929e-38
-0.0081659313 -0.1294979 0.020494357 2.3508444e-38
-0.0063633397 -0.1294979 0.020494357 2.3509168e-38
-0.0045607463 -0.1294979 0.020494357 2.3509527e-38
-0.0025635324 -0.13111271 0.014494315 2.3233652e-38
-0.00075042248 -0.13111271 0.014494315 2.268083e-38
0.0012040287 -0.13217102 0.010562077 2.3326189e-38
0.0030240342 -0.13217102 0.010562077 1.8901155e-38
0.0050810911 -0.13378824 0.0045532137 1.9822398e-38
0.0070365034 -0.13460387 0.0015226752 1.8807171e-38
0.0089986138 -0.13539489 -0.0014164299 1.4012291e-38
0.011154067 -0.13728772 -0.0084494203 3.6734759e-40
0.013007406 -0.13728772 -0.0084494203 3.673546e-40
0.015005175 -0.13809387 -0.011444792 4.591929e-40
0.016863767 -0.13809387 -0.011444792 8.2869568e-40
0.019087303 -0.13999285 -0.018500552 9.256277e-41
0.020958267 -0.13999285 -0.018500552 1.858332e-40
0.022829231 -0.13999285 -0.018500552 3.5873241e-43
0.024700195 -0.13999285 -0.018500552 9.2911693e-41
-0.02258667 -0.13130049 0.020494357 2.0648584e-38
-0.020784076 -0.13130049 0.020494357 1.8896867e-38
-0.018981485 -0.13130049 0.020494357 1.6315389e-38
-0.017124793 -0.13209651 0.017555729 1.6315387e-38
-0.0153763 -0.13130049 0.020494357 1.8712829e-38
-0.013573708 -0.13130049 0.020494357 2.0003568e-38
-0.011701558 -0.13209651 0.017555729 2.055674e-38
-0.0099685229 -0.13130049 0.020494357 2.2216262e-38
-0.0081659313 -0.13130049 0.020494357 2.3508085e-38
-0.0063633397 -0.13130049 0.020494357 2.2955641e-38
-0.0043766461 -0.13292582 0.014494315 2.3509527e-38
-0.0025635324 -0.13292582 0.014494315 2.3509883e-38
-0.00075042248 -0.13292582 0.014494315 2.3509873e-38
0.0012040287 -0.13399105 0.010562077 2.3509863e-38
0.0030240342 -0.13399105 0.010562077 1.7424584e-38
0.0049622245 -0.13480256 0.0075663477 1.6594824e-38
0.0069116354 -0.13561879 0.0045532137 1.6779216e-38
0.0089986138 -0.13723589 -0.0014164299 1.419739e-38
0.011154067 -0.13914107 -0.0084494203 9.2086889e-40
0.013146583 -0.13995247 -0.011444792 2.7550649e-40
0.015150424 -0.14076851 -0.014457211 9.1841101e-41
0.017014295 -0.14076851 -0.014457211 2.7623797e-40
0.019087303 -0.14186381 -0.018500552 9.8090893e-45
0.020958267 -0.14186381 -0.018500552 3.671402e-43
0.022829231 -0.14186381 -0.018500552 9.2561369e-41
-0.024355769 -0.13390426 0.017555729 1.2165867e-38
-0.02258667 -0.13310309 0.020494357 1.7790157e-38
-0.020784076 -0.13310309 0.020494357 1.9357126e-38
-0.018981485 -0.13310309 0.020494357 1.6683809e-38
-0.017178891 -0.13310309 0.020494357 1.5669654e-38
-0.0153763 -0.13310309 0.020494357 1.7605761e-38
-0.013573708 -0.13310309 0.020494357 1.9634065e-38
-0.011771116 -0.13310309 0.020494357 2.0648573e-38
-0.0099685229 -0.13310309 0.020494357 2.1478334e-38
-0.0081659313 -0.13310309 0.020494357 2.2124066e-38
-0.0062783249 -0.13390426 0.017555729 2.0835496e-38
-0.0043766461 -0.13473894 0.014494315 2.2218434e-38
-0.0025635324 -0.13473894 0.014494315 2.314074e-38
-0.00075042248 -0.13473894 0.014494315 2.3232209e-38
0.0012040287 -0.13581105 0.010562077 2.2955254e-38
0.0030240342 -0.13581105 0.010562077 1.5671074e-38
0.0049622245 -0.13662781 0.0075663477 1.4288495e-38
0.0069116354 -0.13744931 0.0045532137 1.2906281e-38
0.0091727823 -0.14018236 -0.0054709762 1.0601396e-38
0.011287991 -0.14181106 -0.011444792 8.2867186e-40
0.01328655 -0.14263238 -0.014457211 9.1835496e-41
0.015150424 -0.14263238 -0.014457211 9.1835496e-41
0.017014295 -0.14263238 -0.014457211 5.6051939e-45
0.019087303 -0.14373477 -0.018500552 9.8090893e-45
0.020958267 -0.14373477 -0.018500552 1.2611686e-44
0.022829231 -0.14373477 -0.018500552 1.1210388e-44
0.024700195 -0.14373477 -0.018500552 0
-0.024355769 -0.13571201 0.017555729 1.0875845e-38
-0.022548025 -0.13571201 0.017555729 1.7053308e-38
-0.020740282 -0.13571201 0.017555729 1.8804669e-38
-0.018932536 -0.13571201 0.017555729 1.7698677e-38
-0.017178891 -0.13490568 0.020494357 1.6592328e-38
-0.0153763 -0.13490568 0.020494357 1.6777075e-38
-0.013573708 -0.13490568 0.020494357 1.8067811e-38
-0.011771116 -0.13490568 0.020494357 1.9266352e-38
-0.0099685229 -0.13490568 0.020494357 2.0372699e-38
-0.0081659313 -0.13490568 0.020494357 2.1111346e-38
-0.0063633397 -0.13490568 0.020494357 2.1756724e-38
-0.0044705793 -0.13571201 0.017555729 2.0743654e-38
-0.0026628375 -0.13571201 0.017555729 2.1295386e-38
-0.00085509196 -0.13571201 0.017555729 2.0925523e-38
0.00095265359 -0.13571201 0.017555729 2.0187595e-38
0.0027603991 -0.13571201 0.017555729 1.474805e-38
0.0046889149 -0.13655205 0.014494315 1.3549504e-38
0.0067874826 -0.13845308 0.0075663477 8.8475267e-39
0.0091727823 -0.14203046 -0.0054709762 3.8707605e-39
0.011287991 -0.14366965 -0.011444792 2.7550649e-40
0.01328655 -0.14449625 -0.014457211 3.6841818e-40
0.015150424 -0.14449625 -0.014457211 4.6097535e-40
0.017014295 -0.14449625 -0.014457211 9.2198432e-41
0.018878169 -0.14449625 -0.014457211 7.0064923e-45
0.020958267 -0.14560573 -0.018500552 1.2611686e-44
0.022829231 -0.14560573 -0.018500552 9.8090893e-45
0.024700195 -0.14560573 -0.018500552 0
-0.02438926 -0.13670824 0.020494357 9.1244835e-39
-0.02258667 -0.13670824 0.020494357 1.7699756e-38
-0.020740282 -0.13751976 0.017555729 1.8620633e-38
-0.018932536 -0.13751976 0.017555729 1.9451472e-38
-0.017178891 -0.13670824 0.020494357 1.9174162e-38
-0.0153763 -0.13670824 0.020494357 1.7607912e-38
-0.013573708 -0.13670824 0.020494357 1.7053657e-38
-0.011771116 -0.13670824 0.020494357 1.714693e-38
-0.0099685229 -0.13670824 0.020494357 1.8805731e-38
-0.0081659313 -0.13670824 0.020494357 2.0742561e-38
-0.0063633397 -0.13670824 0.020494357 2.0281946e-38
-0.0045607463 -0.13670824 0.020494357 1.8345843e-38
-0.0027581565 -0.13670824 0.020494357 1.7790873e-38
-0.00085509196 -0.13751976 0.017555729 1.6683809e-38
0.00095265359 -0.13751976 0.017555729 1.6037724e-38
0.0027603991 -0.13751976 0.017555729 1.1612333e-38
0.0046889149 -0.13836516 0.014494315 9.6762223e-39
0.0066640489 -0.13945107 0.010562077 2.2090924e-39
0.0094293989 -0.14552824 -0.011444792 1.0112667e-39
0.011287991 -0.14552824 -0.011444792 2.7550649e-40
0.01328655 -0.14636014 -0.014457211 2.7622395e-40
0.015150424 -0.14636014 -0.014457211 3.5873241e-43
0.017014295 -0.14636014 -0.014457211 0
0.018878169 -0.14636014 -0.014457211 5.6051939e-45
0.021115456 -0.14828841 -0.021439895 1.8368641e-40
0.022991572 -0.14828841 -0.021439895 9.8090893e-45
-0.02438926 -0.13851084 0.020494357 7.0050616e-39
-0.02258667 -0.13851084 0.020494357 1.6317539e-38
-0.020740282 -0.13932751 0.017555729 1.7238777e-38
-0.018932536 -0.13932751 0.017555729 1.9083408e-38
-0.017178891 -0.13851084 0.020494357 1.9728056e-38
-0.0153763 -0.13851084 0.020494357 1.8530229e-38
-0.013573708 -0.13851084 0.020494357 1.7146931e-38
-0.011771116 -0.13851084 0.020494357 1.5395932e-38
-0.0099685229 -0.13851084 0.020494357 1.5856191e-38
-0.0081659313 -0.13851084 0.020494357 1.8253993e-38
-0.0063633397 -0.13851084 0.020494357 1.9636931e-38
-0.0045607463 -0.13851084 0.020494357 1.9359626e-38
-0.0027581565 -0.13851084 0.020494357 1.8251132e-38
-0.00085509196 -0.13932751 0.017555729 1.5391998e-38
0.00095265359 -0.13932751 0.017555729 1.4192383e-38
0.0027603991 -0.13932751 0.017555729 8.752485e-39
0.0046889149 -0.14017828 0.014494315 6.6319855e-39
0.0066640489 -0.14127107 0.010562077 1.0102045e-39
0.0084840544 -0.14127107 0.010562077 1.1031134e-39
0.011422675 -0.14822401 -0.014457211 2.7550649e-40
0.01328655 -0.14822401 -0.014457211 3.6841818e-40
0.015150424 -0.14822401 -0.014457211 3.6913565e-40
0.017014295 -0.14822401 -0.014457211 1.8439126e-40
0.018878169 -0.14822401 -0.014457211 5.5317658e-40
-0.02438926 -0.14031343 0.020494357 5.4388051e-39
-0.02258667 -0.14031343 0.020494357 1.3644216e-38
-0.020740282 -0.14113526 0.017555729 1.6133498e-38
-0.018932536 -0.14113526 0.017555729 1.7977409e-38
-0.017178891 -0.14031343 0.020494357 1.9268148e-38
-0.0153763 -0.14031343 0.020494357 1.9912799e-38
-0.013573708 -0.14031343 0.020494357 1.9083038e-38
-0.011771116 -0.14031343 0.020494357 1.6132778e-38
-0.0099685229 -0.14031343 0.020494357 1.4934235e-38
-0.0081659313 -0.14031343 0.020494357 1.6686671e-38
-0.0063633397 -0.14031343 0.020494357 1.6594475e-38
-0.0045607463 -0.14031343 0.020494357 1.8253642e-38
-0.0027581565 -0.14031343 0.020494357 1.6223547e-38
-0.00085509196 -0.14113526 0.017555729 1.1243917e-38
0.00095265359 -0.14113526 0.017555729 8.8457596e-39
0.0027603991 -0.14113526 0.017555729 2.2076771e-39
0.0048440434 -0.14309107 0.010562077 1.6545033e-39
0.0067874826 -0.14392884 0.0075663477 6.4286108e-40
0.0086127408 -0.14392884 0.0075663477 3.6734899e-40
-0.02432088 -0.14380451 0.014494315 3.6874356e-39
-0.022507768 -0.14380451 0.014494315 1.0418073e-38
-0.020694654 -0.14380451 0.014494315 1.3275415e-38
-0.018932536 -0.14294298 0.017555729 1.8069588e-38
-0.017178891 -0.14211603 0.020494357 1.936033e-38
-0.0153763 -0.14211603 0.020494357 1.9174864e-38
-0.013573708 -0.14211603 0.020494357 2.0280858e-38
-0.011771116 -0.14211603 0.020494357 1.6316092e-38
-0.0099685229 -0.14211603 0.020494357 1.5762921e-38
-0.0081659313 -0.14211603 0.020494357 1.5579252e-38
-0.0063633397 -0.14211603 0.020494357 1.6041672e-38
-0.0044705793 -0.14294298 0.017555729 1.4289957e-38
-0.0026628375 -0.14294298 0.017555729 1.5671815e-38
-0.00085509196 -0.14294298 0.017555729 8.8486253e-39
0.0010626912 -0.14380451 0.014494315 5.5292267e-39
0.0028758012 -0.14380451 0.014494315 1.564816e-39
0.0048440434 -0.14491107 0.010562077 3.6734899e-40
-0.020740282 -0.14475073 0.017555729 1.0325508e-38
-0.018932536 -0.14475073 0.017555729 1.5488466e-38
-0.017178891 -0.14391862 0.020494357 1.6594461e-38
-0.0153763 -0.14391862 0.020494357 1.7699734e-38
-0.013573708 -0.14391862 0.020494357 1.8713535e-38
-0.011701558 -0.14475073 0.017555729 1.8436594e-38
-0.0099685229 -0.14391862 0.020494357 1.7790152e-38
-0.0081659313 -0.14391862 0.020494357 1.6409017e-38
-0.0062783249 -0.14475073 0.017555729 1.3828982e-38
-0.0044705793 -0.14475073 0.017555729 1.0141519e-38
-0.0026628375 -0.14475073 0.017555729 8.1124966e-39
-0.00085509196 -0.14475073 0.017555729 3.6806365e-40
0.0010626912 -0.14561762 0.014494315 2.7550929e-40
0.0028758012 -0.14561762 0.014494315 2.7550929e-40
-0.018981485 -0.14572121 0.020494357 1.0325522e-38
-0.017234599 -0.14485909 0.023520246 1.4289937e-38
-0.015437312 -0.14485909 0.023520246 1.7884495e-38
-0.013640026 -0.14485909 0.023520246 1.7054738e-38
-0.011842739 -0.14485909 0.023520246 1.7330972e-38
-0.0099685229 -0.14572121 0.020494357 1.6776721e-38
-0.0081659313 -0.14572121 0.020494357 1.6039879e-38
-0.0062783249 -0.14655848 0.017555729 1.4105213e-38
-0.0044705793 -0.14655848 0.017555729 9.4039542e-39
-0.0026628375 -0.14655848 0.017555729 6.452978e-39
-0.00075042248 -0.14743073 0.014494315 9.1838299e-41
-0.018981485 -0.14752381 0.020494357 2.2126783e-39
-0.017234599 -0.14665638 0.023520246 3.5956156e-39
-0.015437312 -0.14665638 0.023520246 7.928813e-39
-0.013640026 -0.14665638 0.023520246 9.4950625e-39
-0.011842739 -0.14665638 0.023520246 1.050886e-38
-0.010045452 -0.14665638 0.023520246 9.7712976e-39
-0.0081659313 -0.14752381 0.020494357 8.4812791e-39
-0.0062783249 -0.14836623 0.017555729 2.9502602e-39
-0.0044705793 -0.14836623 0.017555729 0
-0.0026628375 -0.14836623 0.017555729 4.6026209e-40
-0.00085509196 -0.14836623 0.017555729 9.1838299e-41
-0.011842739 -0.14845367 0.023520246 4.425393e-39
-0.010045452 -0.14845367 0.023520246 4.7941756e-39
-0.0082481652 -0.14845367 0.023520246 3.3190455e-39
-0.0064508785 -0.14845367 0.023520246 1.1992621e-39
