# .PCD v0.7 - Point Cloud Data file format
VERSION 0.7
FIELDS x y z rgb
SIZE 4 4 4 4
TYPE F F F F
COUNT 1 1 1 1
WIDTH 940
HEIGHT 1
VIEWPOINT 0 0 0 1 0 0 0
POINTS 940
DATA ascii
0.02948832 -0.11022164 -0.032238148 2.3231868e-38
0.031431124 -0.11022164 -0.032238148 2.3508809e-38
0.03337393 -0.11022164 -0.032238148 2.3416974e-38
0.035316736 -0.11022164 -0.032238148 2.3234379e-38
0.037552506 -0.11115701 -0.036264442 2.3142538e-38
0.039502367 -0.11115701 -0.036264442 2.2867027e-38
0.041676976 -0.11184154 -0.039211057 2.2591524e-38
0.043632008 -0.11184154 -0.039211057 2.2316024e-38
0.016479606 -0.11475091 -0.043288134 4.611187e-39
0.018441783 -0.11475091 -0.043288134 5.257613e-39
0.020171637 -0.11379658 -0.039211057 8.5762899e-39
0.021953592 -0.11310686 -0.036264442 1.6228174e-38
0.023659909 -0.11216442 -0.032238148 2.1943247e-38
0.025602715 -0.11216442 -0.032238148 2.3509876e-38
0.027545521 -0.11216442 -0.032238148 2.3509168e-38
0.02948832 -0.11216442 -0.032238148 2.304748e-38
0.031431124 -0.11216442 -0.032238148 2.3509168e-38
0.03337393 -0.11216442 -0.032238148 2.3417333e-38
0.035316736 -0.11216442 -0.032238148 2.3049624e-38
0.037259541 -0.11216442 -0.032238148 2.3142534e-38
0.039502367 -0.11310686 -0.036264442 2.2775188e-38
0.041676976 -0.11379658 -0.039211057 2.1947584e-38
0.043402098 -0.11310686 -0.036264442 2.2499695e-38
0.04535196 -0.11310686 -0.036264442 2.1395517e-38
0.047301836 -0.11310686 -0.036264442 1.7706992e-38
0.018441783 -0.11671309 -0.043288134 4.2438226e-39
0.020171637 -0.11575161 -0.039211057 2.8608909e-39
0.021953592 -0.11505674 -0.036264442 8.8532425e-39
0.023659909 -0.11410724 -0.032238148 1.650442e-38
0.025602715 -0.11410724 -0.032238148 2.258863e-38
0.027545521 -0.11410724 -0.032238148 2.3509886e-38
0.02948832 -0.11410724 -0.032238148 2.3325138e-38
0.031431124 -0.11410724 -0.032238148 2.3509527e-38
0.03337393 -0.11410724 -0.032238148 2.314075e-38
0.035316736 -0.11410724 -0.032238148 2.3418047e-38
0.037259541 -0.11410724 -0.032238148 2.2774111e-38
0.039202347 -0.11410724 -0.032238148 2.2222733e-38
0.041452236 -0.11505674 -0.036264442 2.286703e-38
0.043087952 -0.11410724 -0.032238148 2.0840534e-38
0.045030765 -0.11410724 -0.032238148 2.2591531e-38
0.046973564 -0.11410724 -0.032238148 2.2591531e-38
0.048916377 -0.11410724 -0.032238148 1.5495732e-38
0.021717103 -0.11605005 -0.032238148 6.8253002e-39
0.023659909 -0.11605005 -0.032238148 1.2540364e-38
0.025602715 -0.11605005 -0.032238148 2.0376285e-38
0.02735156 -0.11533 -0.029207373 2.3418036e-38
0.029289046 -0.11533 -0.029207373 2.3233652e-38
0.031431124 -0.11605005 -0.032238148 2.3509883e-38
0.03337393 -0.11605005 -0.032238148 2.31411e-38
0.035316736 -0.11605005 -0.032238148 2.350988e-38
0.037259541 -0.11605005 -0.032238148 2.3418045e-38
0.039202347 -0.11605005 -0.032238148 2.3050701e-38
0.041145153 -0.11605005 -0.032238148 2.2775199e-38
0.043087952 -0.11605005 -0.032238148 2.2867037e-38
0.045030765 -0.11605005 -0.032238148 2.213056e-38
0.046973564 -0.11605005 -0.032238148 2.2406783e-38
0.048916377 -0.11605005 -0.032238148 2.2224189e-38
0.019774297 -0.11799283 -0.032238148 7.9316534e-39
0.021717103 -0.11799283 -0.032238148 1.0236188e-38
0.02347658 -0.11726747 -0.029207373 9.9588839e-39
0.025414066 -0.11726747 -0.029207373 1.5121486e-38
0.02735156 -0.11726747 -0.029207373 1.963836e-38
0.029289046 -0.11726747 -0.029207373 2.3325832e-38
0.03122654 -0.11726747 -0.029207373 2.350987e-38
0.033164032 -0.11726747 -0.029207373 2.2957061e-38
0.035101518 -0.11726747 -0.029207373 2.3233652e-38
0.037259541 -0.11799283 -0.032238148 2.341805e-38
0.039202347 -0.11799283 -0.032238148 2.341805e-38
0.041145153 -0.11799283 -0.032238148 2.3234379e-38
0.043087952 -0.11799283 -0.032238148 2.3142544e-38
0.045030765 -0.11799283 -0.032238148 2.2958873e-38
0.047301836 -0.11895646 -0.036264442 2.2682649e-38
0.049251698 -0.11895646 -0.036264442 2.2316024e-38
0.051452123 -0.11966167 -0.039211057 2.1305834e-38
0.053407155 -0.11966167 -0.039211057 4.4394284e-39
0.02347658 -0.11920498 -0.029207373 1.0973036e-38
0.025414066 -0.11920498 -0.029207373 9.4971868e-39
0.027097145 -0.11824657 -0.025231982 9.8659722e-39
0.029027665 -0.11824657 -0.025231982 1.4383205e-38
0.03122654 -0.11920498 -0.029207373 1.9545088e-38
0.033164032 -0.11920498 -0.029207373 2.350987e-38
0.035101518 -0.11920498 -0.029207373 2.3417324e-38
0.037039012 -0.11920498 -0.029207373 2.3233302e-38
0.039202347 -0.11993565 -0.032238148 2.3325138e-38
0.041145153 -0.11993565 -0.032238148 2.3417691e-38
0.043087952 -0.11993565 -0.032238148 2.3234379e-38
0.045030765 -0.11993565 -0.032238148 2.2774125e-38
0.047301836 -0.12090631 -0.036264442 2.2774125e-38
0.049251698 -0.12090631 -0.036264442 2.2591531e-38
0.051452123 -0.12161671 -0.039211057 2.1397669e-38
0.053761013 -0.12259962 -0.043288134 8.8623005e-39
0.055723183 -0.12259962 -0.043288134 2.4982797e-39
0.020074518 -0.11508749 -0.004272962 1.3645996e-38
0.022810461 -0.11846836 -0.018195415 1.4936729e-38
0.025166625 -0.12017711 -0.025231982 1.1801356e-38
0.027097145 -0.12017711 -0.025231982 1.1616965e-38
0.029027665 -0.12017711 -0.025231982 1.4475031e-38
0.030958185 -0.12017711 -0.025231982 1.7424222e-38
0.033164032 -0.12114246 -0.029207373 2.3509504e-38
0.035101518 -0.12114246 -0.029207373 2.3509521e-38
0.037039012 -0.12114246 -0.029207373 2.3508809e-38
0.038976498 -0.12114246 -0.029207373 2.3509168e-38
0.040913992 -0.12114246 -0.029207373 2.3509168e-38
0.043087952 -0.12187846 -0.032238148 2.3417691e-38
0.045030765 -0.12187846 -0.032238148 2.3234379e-38
0.047301836 -0.12285618 -0.036264442 2.3234379e-38
0.049497105 -0.12357174 -0.039211057 2.2867037e-38
0.051452123 -0.12357174 -0.039211057 2.1856847e-38
0.053761013 -0.1245618 -0.043288134 1.5313474e-38
0.055723183 -0.1245618 -0.043288134 5.721887e-39
0.022810461 -0.12038656 -0.018195415 1.6041637e-38
0.02472865 -0.12038656 -0.018195415 1.1708441e-38
0.026646832 -0.12038656 -0.018195415 1.2629677e-38
0.028565014 -0.12038656 -0.018195415 1.4288841e-38
0.030691767 -0.12114228 -0.0212852 1.6224599e-38
0.033164032 -0.12307997 -0.029207373 2.3509866e-38
0.034538969 -0.12114228 -0.0212852 2.3509517e-38
0.036462568 -0.12114228 -0.0212852 2.3508805e-38
0.03868027 -0.12210761 -0.025231982 2.3508451e-38
0.040610798 -0.12210761 -0.025231982 2.3416615e-38
0.042851485 -0.12307997 -0.029207373 2.3048554e-38
0.045030765 -0.12382124 -0.032238148 2.341805e-38
0.047301836 -0.12480606 -0.036264442 2.3418047e-38
0.049251698 -0.12480606 -0.036264442 2.2866671e-38
0.051452123 -0.12552677 -0.039211057 2.2591531e-38
0.053407155 -0.12552677 -0.039211057 2.1025645e-38
0.055362187 -0.12552677 -0.039211057 1.1896473e-38
0.05731722 -0.12552677 -0.039211057 7.1008544e-39
0.059272252 -0.12552677 -0.039211057 8.0210086e-39
-0.023482244 -0.11887501 -0.004272962 2.350987e-38
-0.02164886 -0.11813726 -0.001278067 2.2681917e-38
-0.019760337 -0.11813726 -0.001278067 2.1762836e-38
-0.017871816 -0.11813726 -0.001278067 1.2453247e-38
-0.016085124 -0.11715056 0.0027272459 3.7564468e-40
-0.014203625 -0.11715056 0.0027272459 8.3590817e-40
-0.012322126 -0.11715056 0.0027272459 5.256604e-39
-0.0085591283 -0.11715056 0.0027272459 1.8530959e-38
-0.0066776294 -0.11715056 0.0027272459 1.5580699e-38
-0.0047961306 -0.11715056 0.0027272459 1.4473275e-38
-0.0029146317 -0.11715056 0.0027272459 1.7699756e-38
-0.0010331329 -0.11715056 0.0027272459 1.7238048e-38
0.00084836595 -0.11715056 0.0027272459 1.1707013e-38
0.002901921 -0.11813726 -0.001278067 9.4031807e-39
0.0047904421 -0.11813726 -0.001278067 1.594907e-38
0.0087118875 -0.11887501 -0.004272962 1.6316817e-38
0.010605661 -0.11887501 -0.004272962 1.6685614e-38
0.012499431 -0.11887501 -0.004272962 2.1112436e-38
0.014393205 -0.11887501 -0.004272962 1.8347621e-38
0.016286978 -0.11887501 -0.004272962 1.364599e-38
0.018180748 -0.11887501 -0.004272962 1.3275769e-38
0.020074518 -0.11887501 -0.004272962 1.5210798e-38
0.022390226 -0.12059332 -0.011248136 1.5763972e-38
0.024296226 -0.12059332 -0.011248136 1.4473236e-38
0.026389921 -0.12131582 -0.014181042 1.5394476e-38
0.028565014 -0.12230472 -0.018195415 1.2997392e-38
0.030483196 -0.12230472 -0.018195415 1.2997038e-38
0.032615364 -0.12306587 -0.0212852 2.11099e-38
0.034538969 -0.12306587 -0.0212852 2.3507352e-38
0.036462568 -0.12306587 -0.0212852 2.3508434e-38
0.038386166 -0.12306587 -0.0212852 2.3231492e-38
0.040610798 -0.12403814 -0.025231982 2.2402093e-38
0.042541318 -0.12403814 -0.025231982 2.2310979e-38
0.044788979 -0.12501745 -0.029207373 2.341769e-38
0.046973564 -0.12576406 -0.032238148 2.3509886e-38
0.049251698 -0.12675591 -0.036264442 2.2496453e-38
0.051452123 -0.1274818 -0.039211057 2.3234379e-38
0.053407155 -0.1274818 -0.039211057 2.3234379e-38
0.055362187 -0.1274818 -0.039211057 1.8162536e-38
0.05731722 -0.1274818 -0.039211057 7.6511471e-39
0.059272252 -0.1274818 -0.039211057 8.5727404e-39
0.061227284 -0.1274818 -0.039211057 8.6638543e-39
-0.027314423 -0.12002577 -0.001278067 2.1845987e-38
-0.025425902 -0.12002577 -0.001278067 2.2307692e-38
-0.023537381 -0.12002577 -0.001278067 2.2031848e-38
-0.02172962 -0.11903207 0.0027272459 2.3509869e-38
-0.019848121 -0.11903207 0.0027272459 2.2588983e-38
-0.017966622 -0.11903207 0.0027272459 2.3142537e-38
-0.016163161 -0.11827053 0.0057967659 1.0698311e-38
-0.014287043 -0.11827053 0.0057967659 3.8744081e-39
-0.012495963 -0.1175413 0.0087361094 6.7310195e-39
-0.010624999 -0.1175413 0.0087361094 2.1020252e-38
-0.0086586941 -0.11827053 0.0057967659 2.3509527e-38
-0.0067825746 -0.11827053 0.0057967659 2.350988e-38
-0.0049064588 -0.11827053 0.0057967659 2.3509165e-38
-0.0029146317 -0.11903207 0.0027272459 2.1848555e-38
-0.0010331329 -0.11903207 0.0027272459 2.3508063e-38
0.00084836595 -0.11903207 0.0027272459 2.1203871e-38
0.0027298648 -0.11903207 0.0027272459 1.9728721e-38
0.0046113636 -0.11903207 0.0027272459 1.6962855e-38
0.0066789631 -0.12002577 -0.001278067 1.7330581e-38
0.0085674841 -0.12002577 -0.001278067 2.1018069e-38
0.010456005 -0.12002577 -0.001278067 2.0834054e-38
0.012344526 -0.12002577 -0.001278067 2.1295746e-38
0.014233047 -0.12002577 -0.001278067 2.0559236e-38
0.016286978 -0.1207688 -0.004272962 1.5857964e-38
0.018180748 -0.1207688 -0.004272962 1.4841651e-38
0.020074518 -0.1207688 -0.004272962 1.3089934e-38
0.021968292 -0.1207688 -0.004272962 1.3365809e-38
0.024296226 -0.1224993 -0.011248136 1.4656195e-38
0.026389921 -0.12322696 -0.014181042 1.5854383e-38
0.02830107 -0.12322696 -0.014181042 1.1797422e-38
0.030483196 -0.12422292 -0.018195415 1.1888898e-38
0.032615364 -0.12498946 -0.0212852 1.7605747e-38
0.034538969 -0.12498946 -0.0212852 2.2031137e-38
0.036462568 -0.12498946 -0.0212852 2.3509863e-38
0.038386166 -0.12498946 -0.0212852 2.3509866e-38
0.040309764 -0.12498946 -0.0212852 2.2217689e-38
0.042541318 -0.12596865 -0.025231982 2.2586842e-38
0.044471838 -0.12596865 -0.025231982 2.3509883e-38
0.046973564 -0.12770687 -0.032238148 2.3509527e-38
0.049251698 -0.12870578 -0.036264442 2.2863803e-38
0.051452123 -0.12943684 -0.039211057 2.3231504e-38
0.053407155 -0.12943684 -0.039211057 2.3509168e-38
0.055362187 -0.12943684 -0.039211057 2.1663089e-38
0.057685368 -0.13044833 -0.043288134 8.1099672e-39
0.059647553 -0.13044833 -0.043288134 8.3865485e-39
0.061983265 -0.1314363 -0.04727032 9.2166665e-39
0.063952424 -0.1314363 -0.04727032 8.9404411e-39
-0.029255614 -0.12091358 0.0027272459 5.5259294e-39
-0.027374115 -0.12091358 0.0027272459 7.9226416e-39
-0.025425902 -0.12191428 -0.001278067 1.437598e-38
-0.023611119 -0.12091358 0.0027272459 1.9816263e-38
-0.02172962 -0.12091358 0.0027272459 2.027833e-38
-0.019915394 -0.12014665 0.0057967659 2.3509853e-38
-0.018039277 -0.12014665 0.0057967659 2.3416233e-38
-0.016163161 -0.12014665 0.0057967659 2.3508809e-38
-0.014287043 -0.12014665 0.0057967659 1.2076219e-38
-0.012495963 -0.11941226 0.0087361094 1.8807571e-38
-0.010624999 -0.11941226 0.0087361094 2.3509527e-38
-0.0086586941 -0.12014665 0.0057967659 2.2218431e-38
-0.0067825746 -0.12014665 0.0057967659 2.3140737e-38
-0.0049064588 -0.12014665 0.0057967659 2.3509521e-38
-0.003030343 -0.12014665 0.0057967659 2.3509153e-38
-0.0011542272 -0.12014665 0.0057967659 2.3509856e-38
0.00072189234 -0.12014665 0.0057967659 2.1203505e-38
0.0025980081 -0.12014665 0.0057967659 2.1203843e-38
0.0044741239 -0.12014665 0.0057967659 1.797664e-38
0.0063502435 -0.12014665 0.0057967659 1.9081934e-38
0.0083743613 -0.12091358 0.0027272459 1.963477e-38
0.010456005 -0.12191428 -0.001278067 1.8896864e-38
0.012344526 -0.12191428 -0.001278067 1.8713908e-38
0.014233047 -0.12191428 -0.001278067 2.046668e-38
0.016121568 -0.12191428 -0.001278067 1.6687361e-38
0.018010089 -0.12191428 -0.001278067 1.6869946e-38
0.020074518 -0.12266256 -0.004272962 1.3273959e-38
0.021968292 -0.12266256 -0.004272962 1.2811556e-38
0.02447878 -0.12513812 -0.014181042 1.4746957e-38
0.026389921 -0.12513812 -0.014181042 1.5023195e-38
0.02830107 -0.12513812 -0.014181042 9.8598863e-39
0.030483196 -0.12614109 -0.018195415 9.3063496e-39
0.032615364 -0.12691309 -0.0212852 9.860238e-39
0.034319557 -0.12614109 -0.018195415 1.8712448e-38
0.036237746 -0.12614109 -0.018195415 2.3509853e-38
0.038155928 -0.12614109 -0.018195415 2.3509851e-38
0.040074117 -0.12614109 -0.018195415 2.1573025e-38
0.04223337 -0.12691309 -0.0212852 2.1849627e-38
0.044156976 -0.12691309 -0.0212852 2.2864153e-38
0.046726473 -0.12889244 -0.029207373 2.2310994e-38
0.048663966 -0.12889244 -0.029207373 2.2401394e-38
0.050601445 -0.12889244 -0.029207373 2.2399588e-38
0.053407155 -0.13139187 -0.039211057 2.3504488e-38
0.055362187 -0.13139187 -0.039211057 2.2214104e-38
0.057685368 -0.13241051 -0.043288134 9.4914597e-39
0.060014106 -0.13340546 -0.04727032 7.9241298e-39
0.061983265 -0.13340546 -0.04727032 9.4003361e-39
0.063952424 -0.13340546 -0.04727032 9.2173854e-39
-0.042431373 -0.12128322 0.0087361094 5.0750756e-39
-0.040560409 -0.12128322 0.0087361094 6.5111754e-40
-0.034844879 -0.12455635 -0.004272962 1.3458421e-38
-0.032979988 -0.12380283 -0.001278067 5.4366793e-39
-0.031091467 -0.12380283 -0.001278067 3.5938205e-39
-0.029255614 -0.12279506 0.0027272459 4.4235587e-39
-0.027374115 -0.12279506 0.0027272459 5.1618258e-39
-0.025425902 -0.12380283 -0.001278067 6.5443973e-39
-0.023611119 -0.12279506 0.0027272459 4.3295554e-39
-0.02179151 -0.12202276 0.0057967659 4.2366437e-39
-0.019915394 -0.12202276 0.0057967659 1.4932053e-38
-0.018039277 -0.12202276 0.0057967659 2.3509502e-38
-0.016163161 -0.12202276 0.0057967659 2.3508809e-38
-0.014203625 -0.12279506 0.0027272459 1.2905244e-38
-0.012495963 -0.12128322 0.0087361094 1.8807557e-38
-0.010624999 -0.12128322 0.0087361094 2.2680844e-38
-0.0086586941 -0.12202276 0.0057967659 2.3509879e-38
-0.0067825746 -0.12202276 0.0057967659 2.3509876e-38
-0.0049064588 -0.12202276 0.0057967659 2.3232206e-38
-0.003030343 -0.12202276 0.0057967659 2.3509866e-38
-0.0011542272 -0.12202276 0.0057967659 2.3509853e-38
0.00072189234 -0.12202276 0.0057967659 2.1848153e-38
0.0025980081 -0.12202276 0.0057967659 2.0096419e-38
0.0044741239 -0.12202276 0.0057967659 1.6869215e-38
0.0063502435 -0.12202276 0.0057967659 1.6499011e-38
0.0083743613 -0.12279506 0.0027272459 1.8527335e-38
0.01025586 -0.12279506 0.0027272459 1.7052222e-38
0.012137359 -0.12279506 0.0027272459 1.262755e-38
0.014233047 -0.12380283 -0.001278067 1.2628973e-38
0.016121568 -0.12380283 -0.001278067 1.557958e-38
0.018010089 -0.12380283 -0.001278067 1.6869592e-38
0.020074518 -0.12455635 -0.004272962 1.3918253e-38
0.021968292 -0.12455635 -0.004272962 1.3456926e-38
0.02447878 -0.12704925 -0.014181042 1.474696e-38
0.026389921 -0.12704925 -0.014181042 1.3455519e-38
0.02830107 -0.12704925 -0.014181042 8.753187e-39
0.03021221 -0.12704925 -0.014181042 9.5833022e-39
0.032401375 -0.12805928 -0.018195415 7.740819e-39
0.034319557 -0.12805928 -0.018195415 1.4840953e-38
0.036237746 -0.12805928 -0.018195415 2.2586101e-38
0.038155928 -0.12805928 -0.018195415 2.3509139e-38
0.040074117 -0.12805928 -0.018195415 1.9821675e-38
0.04223337 -0.12883668 -0.0212852 1.9822401e-38
0.044156976 -0.12883668 -0.0212852 2.074365e-38
0.046402358 -0.12982969 -0.025231982 2.00061e-38
0.048332877 -0.12982969 -0.025231982 2.0466362e-38
0.050263397 -0.12982969 -0.025231982 2.1477626e-38
0.053151421 -0.13260551 -0.036264442 2.3043866e-38
0.055101283 -0.13260551 -0.036264442 2.1568731e-38
0.057685368 -0.1343727 -0.043288134 1.096659e-38
0.059647553 -0.1343727 -0.043288134 7.5553473e-39
0.061983265 -0.13537462 -0.04727032 9.123752e-39
-0.044302337 -0.12315418 0.0087361094 7.4714361e-39
-0.042431373 -0.12315418 0.0087361094 3.2336588e-39
-0.040560409 -0.12315418 0.0087361094 4.5247535e-39
-0.03675703 -0.12569134 -0.001278067 2.341805e-38
-0.034868509 -0.12569134 -0.001278067 2.2403196e-38
-0.032979988 -0.12569134 -0.001278067 1.77963e-38
-0.031137113 -0.12467657 0.0027272459 7.936394e-39
-0.029255614 -0.12467657 0.0027272459 6.0953484e-39
-0.027374115 -0.12467657 0.0027272459 1.6706631e-39
-0.025492616 -0.12467657 0.0027272459 3.1436239e-39
-0.023667628 -0.12389888 0.0057967659 1.6638093e-39
-0.02179151 -0.12389888 0.0057967659 1.1063307e-39
-0.019979814 -0.12315418 0.0087361094 9.0322584e-39
-0.018108852 -0.12315418 0.0087361094 2.3505896e-38
-0.016163161 -0.12389888 0.0057967659 2.350951e-38
-0.014366925 -0.12315418 0.0087361094 1.8990844e-38
-0.012495963 -0.12315418 0.0087361094 1.8440543e-38
-0.010624999 -0.12315418 0.0087361094 2.3234354e-38
-0.0087540355 -0.12315418 0.0087361094 2.3234354e-38
-0.0068830717 -0.12315418 0.0087361094 2.2775169e-38
-0.005012108 -0.12315418 0.0087361094 2.350986e-38
-0.003030343 -0.12389888 0.0057967659 2.2680814e-38
-0.0011542272 -0.12389888 0.0057967659 2.350913e-38
0.00072189234 -0.12389888 0.0057967659 2.1018042e-38
0.0025980081 -0.12389888 0.0057967659 1.9725134e-38
0.0044741239 -0.12389888 0.0057967659 2.0185752e-38
0.0064928625 -0.12467657 0.0027272459 1.7050027e-38
0.0083743613 -0.12467657 0.0027272459 1.7787959e-38
0.01025586 -0.12467657 0.0027272459 1.9540045e-38
0.012137359 -0.12467657 0.0027272459 1.2073283e-38
0.014233047 -0.12569134 -0.001278067 1.1798493e-38
0.016121568 -0.12569134 -0.001278067 1.5578514e-38
0.018010089 -0.12569134 -0.001278067 1.7236596e-38
0.020074518 -0.12645011 -0.004272962 1.3824636e-38
0.021968292 -0.12645011 -0.004272962 1.3088143e-38
0.024296226 -0.12821732 -0.011248136 1.1704858e-38
0.026389921 -0.12896039 -0.014181042 1.2810874e-38
0.02830107 -0.12896039 -0.014181042 9.1234171e-39
0.03021221 -0.12896039 -0.014181042 8.8471777e-39
0.032401375 -0.12997745 -0.018195415 8.0184905e-39
0.034319557 -0.12997745 -0.018195415 1.216837e-38
0.036237746 -0.12997745 -0.018195415 2.1941472e-38
0.038155928 -0.12997745 -0.018195415 2.2218431e-38
0.040074117 -0.12997745 -0.018195415 2.0651821e-38
0.04223337 -0.13076027 -0.0212852 1.9362503e-38
0.044156976 -0.13076027 -0.0212852 1.9823481e-38
0.046402358 -0.13176022 -0.025231982 2.0284478e-38
0.048332877 -0.13176022 -0.025231982 1.9730228e-38
0.050263397 -0.13176022 -0.025231982 2.0742929e-38
0.053151421 -0.13455538 -0.036264442 2.1110267e-38
0.055101283 -0.13455538 -0.036264442 2.1018071e-38
0.057685368 -0.13633488 -0.043288134 1.0046789e-38
0.059647553 -0.13633488 -0.043288134 8.3872674e-39
0.061609723 -0.13633488 -0.043288134 9.679088e-39
-0.046173301 -0.12502514 0.0087361094 1.8255098e-38
-0.044302337 -0.12502514 0.0087361094 1.8442716e-38
-0.042431373 -0.12502514 0.0087361094 2.1211441e-38
-0.040552679 -0.12577499 0.0057967659 2.2591504e-38
-0.03867656 -0.12577499 0.0057967659 2.3234364e-38
-0.036781609 -0.12655805 0.0027272459 2.3326213e-38
-0.034868509 -0.12757985 -0.001278067 2.3234379e-38
-0.033018611 -0.12655805 0.0027272459 2.2499695e-38
-0.031137113 -0.12655805 0.0027272459 1.835703e-38
-0.029295977 -0.12577499 0.0057967659 6.4681022e-39
-0.027419861 -0.12577499 0.0057967659 2.7813448e-39
-0.025543746 -0.12577499 0.0057967659 2.3178387e-39
-0.023667628 -0.12577499 0.0057967659 3.4176983e-39
-0.021850778 -0.12502514 0.0087361094 5.3491192e-39
-0.019979814 -0.12502514 0.0087361094 1.1614102e-38
-0.018108852 -0.12502514 0.0087361094 2.3509139e-38
-0.016163161 -0.12577499 0.0057967659 2.3509495e-38
-0.014366925 -0.12502514 0.0087361094 1.8805714e-38
-0.012495963 -0.12502514 0.0087361094 1.862492e-38
-0.010624999 -0.12502514 0.0087361094 2.2130515e-38
-0.0087540355 -0.12502514 0.0087361094 2.2683333e-38
-0.0068830717 -0.12502514 0.0087361094 2.3234353e-38
-0.005012108 -0.12502514 0.0087361094 2.3418025e-38
-0.0031411443 -0.12502514 0.0087361094 2.3509859e-38
-0.0012701843 -0.12502514 0.0087361094 2.3509495e-38
0.00072189234 -0.12577499 0.0057967659 5.8057673e-39
0.0025980081 -0.12577499 0.0057967659 1.1150229e-38
0.0044741239 -0.12577499 0.0057967659 1.9078331e-38
0.0064928625 -0.12655805 0.0027272459 2.0459826e-38
0.0085674841 -0.12757985 -0.001278067 1.9630785e-38
0.010456005 -0.12757985 -0.001278067 1.8617719e-38
0.012344526 -0.12757985 -0.001278067 1.3456207e-38
0.014233047 -0.12757985 -0.001278067 1.3827153e-38
0.016121568 -0.12757985 -0.001278067 1.7145841e-38
0.018180748 -0.1283439 -0.004272962 1.7236244e-38
0.020074518 -0.1283439 -0.004272962 1.3179634e-38
0.022206718 -0.12934943 -0.0082144979 1.1705209e-38
0.024296226 -0.13012333 -0.011248136 9.5854378e-39
0.026202226 -0.13012333 -0.011248136 1.1336107e-38
0.028108226 -0.13012333 -0.011248136 1.0137931e-38
0.030014234 -0.13012333 -0.011248136 1.0600693e-38
0.032401375 -0.13189565 -0.018195415 8.4809105e-39
0.034319557 -0.13189565 -0.018195415 9.771292e-39
0.036237746 -0.13189565 -0.018195415 1.8346214e-38
0.038155928 -0.13189565 -0.018195415 1.8622817e-38
0.040074117 -0.13189565 -0.018195415 1.7885966e-38
0.04223337 -0.13268389 -0.0212852 1.7518235e-38
0.044471838 -0.13369073 -0.025231982 1.8349429e-38
0.046080567 -0.13268389 -0.0212852 1.9270679e-38
0.048004173 -0.13268389 -0.0212852 1.8901899e-38
0.049927779 -0.13268389 -0.0212852 2.0283025e-38
0.052801989 -0.13547809 -0.032238148 2.0374496e-38
0.058630399 -0.13547809 -0.032238148 8.6652962e-39
-0.049871929 -0.12508373 0.015791869 2.3509883e-38
-0.048013337 -0.12508373 0.015791869 2.3049626e-38
-0.046162665 -0.12585752 0.01277945 2.2864879e-38
-0.04429879 -0.12585752 0.01277945 2.3234376e-38
-0.042431373 -0.1268961 0.0087361094 2.2958856e-38
-0.040560409 -0.1268961 0.0087361094 2.3142524e-38
-0.038689449 -0.1268961 0.0087361094 2.1390091e-38
-0.036781609 -0.12843956 0.0027272459 2.350988e-38
-0.03490011 -0.12843956 0.0027272459 2.3325856e-38
-0.033048213 -0.12765111 0.0057967659 2.0747984e-38
-0.031172097 -0.12765111 0.0057967659 2.2040518e-38
-0.029295977 -0.12765111 0.0057967659 1.660602e-38
-0.027419861 -0.12765111 0.0057967659 4.5283899e-39
-0.025592705 -0.1268961 0.0087361094 1.299738e-39
-0.023721742 -0.1268961 0.0087361094 3.0471277e-39
-0.021850778 -0.1268961 0.0087361094 4.5182907e-39
-0.019979814 -0.1268961 0.0087361094 1.4563647e-38
-0.018108852 -0.1268961 0.0087361094 2.3505537e-38
-0.016237888 -0.1268961 0.0087361094 2.3508411e-38
-0.014366925 -0.1268961 0.0087361094 2.3509492e-38
-0.012495963 -0.1268961 0.0087361094 1.7702252e-38
-0.010624999 -0.1268961 0.0087361094 2.2313838e-38
-0.0087540355 -0.1268961 0.0087361094 2.3234362e-38
-0.0068830717 -0.1268961 0.0087361094 2.1760667e-38
-0.005012108 -0.1268961 0.0087361094 2.3418033e-38
-0.0031411443 -0.1268961 0.0087361094 2.2588267e-38
-0.0012701843 -0.1268961 0.0087361094 1.5948017e-38
0.00060077943 -0.1268961 0.0087361094 5.897607e-39
0.0024717432 -0.1268961 0.0087361094 9.4903513e-39
0.0044741239 -0.12765111 0.0057967659 1.7326614e-38
0.0064928625 -0.12843956 0.0027272459 1.8154933e-38
0.0085674841 -0.1294684 -0.001278067 1.7602478e-38
0.01025586 -0.12843956 0.0027272459 1.5944399e-38
0.012137359 -0.12843956 0.0027272459 1.2073627e-38
0.014233047 -0.1294684 -0.001278067 1.2536764e-38
0.016121568 -0.1294684 -0.001278067 1.7054e-38
0.018180748 -0.13023765 -0.004272962 1.6868182e-38
0.020074518 -0.13023765 -0.004272962 1.3180357e-38
0.021968292 -0.13023765 -0.004272962 1.2351301e-38
0.024107398 -0.1312501 -0.0082144979 1.0138973e-38
0.026008086 -0.1312501 -0.0082144979 1.0229759e-38
0.027908767 -0.1312501 -0.0082144979 9.6769524e-39
0.030014234 -0.13202934 -0.011248136 1.1061315e-38
0.032401375 -0.13381381 -0.018195415 8.8496931e-39
0.034319557 -0.13381381 -0.018195415 7.7429882e-39
0.036237746 -0.13381381 -0.018195415 1.7424258e-38
0.038155928 -0.13381381 -0.018195415 1.936038e-38
0.040309764 -0.13460748 -0.0212852 1.7885963e-38
0.042541318 -0.13562126 -0.025231982 1.5213344e-38
0.044471838 -0.13562126 -0.025231982 1.5214775e-38
0.046080567 -0.13460748 -0.0212852 1.7057982e-38
0.048004173 -0.13460748 -0.0212852 1.862423e-38
0.049927779 -0.13460748 -0.0212852 1.8254721e-38
0.052801989 -0.13742088 -0.032238148 1.8253998e-38
-0.049871929 -0.12694232 0.015791869 2.3509883e-38
-0.048013337 -0.12694232 0.015791869 2.341769e-38
-0.046154745 -0.12694232 0.015791869 2.2864879e-38
-0.044296153 -0.12694232 0.015791869 2.2865232e-38
-0.042431373 -0.12876706 0.0087361094 2.2865584e-38
-0.040571041 -0.12772138 0.01277945 2.2957417e-38
-0.038707171 -0.12772138 0.01277945 2.3325483e-38
-0.036818482 -0.12876706 0.0087361094 2.3509876e-38
-0.034924328 -0.12952723 0.0057967659 2.3418043e-38
-0.033076558 -0.12876706 0.0087361094 2.3142541e-38
-0.031205595 -0.12876706 0.0087361094 2.2591531e-38
-0.029334631 -0.12876706 0.0087361094 2.2316024e-38
-0.027463667 -0.12876706 0.0087361094 2.1303323e-38
-0.025592705 -0.12876706 0.0087361094 4.6638716e-40
-0.023721742 -0.12876706 0.0087361094 8.3264594e-40
-0.021932306 -0.12772138 0.01277945 9.1835496e-41
-0.020068431 -0.12772138 0.01277945 6.2656889e-39
-0.018108852 -0.12876706 0.0087361094 1.2623935e-38
-0.016237888 -0.12876706 0.0087361094 2.2394858e-38
-0.014366925 -0.12876706 0.0087361094 2.3503009e-38
-0.012495963 -0.12876706 0.0087361094 2.3509866e-38
-0.010624999 -0.12876706 0.0087361094 5.6250012e-39
-0.008885188 -0.12772138 0.01277945 6.4547647e-39
-0.0070213135 -0.12772138 0.01277945 1.0511372e-38
-0.005012108 -0.12876706 0.0087361094 6.4540458e-39
-0.0031411443 -0.12876706 0.0087361094 2.9502461e-39
-0.0012701843 -0.12876706 0.0087361094 3.132471e-39
0.00060077943 -0.12876706 0.0087361094 2.3931039e-39
0.0024717432 -0.12876706 0.0087361094 4.9727668e-39
0.0043427069 -0.12876706 0.0087361094 1.2716835e-38
0.0063502435 -0.12952723 0.0057967659 1.3452956e-38
0.0083743613 -0.13032107 0.0027272459 1.2162934e-38
0.010102475 -0.12952723 0.0057967659 8.0155715e-39
0.011978591 -0.12952723 0.0057967659 4.9745577e-39
0.01385471 -0.12952723 0.0057967659 8.295764e-39
0.015900357 -0.13032107 0.0027272459 1.7515694e-38
0.018010089 -0.13135691 -0.001278067 1.6592314e-38
0.01989861 -0.13135691 -0.001278067 8.7556884e-39
0.021968292 -0.13213144 -0.004272962 6.3589509e-39
0.024107398 -0.13315077 -0.0082144979 7.37347e-39
0.026008086 -0.13315077 -0.0082144979 9.8616954e-39
0.027908767 -0.13315077 -0.0082144979 9.2170533e-39
0.03021221 -0.13469382 -0.014181042 7.7422721e-39
0.032401375 -0.13573201 -0.018195415 2.8569771e-39
0.034319557 -0.13573201 -0.018195415 2.7655032e-39
0.036237746 -0.13573201 -0.018195415 1.1800322e-38
0.038386166 -0.13653107 -0.0212852 1.4474009e-38
0.040309764 -0.13653107 -0.0212852 1.4289971e-38
0.042541318 -0.1375518 -0.025231982 1.3645655e-38
0.044471838 -0.1375518 -0.025231982 1.5674674e-38
0.046402358 -0.1375518 -0.025231982 1.6596281e-38
0.048663966 -0.13857989 -0.029207373 1.6227501e-38
0.050601445 -0.13857989 -0.029207373 1.7056178e-38
0.052801989 -0.13936369 -0.032238148 1.6962903e-38
-0.055413567 -0.12802102 0.018787241 2.3509876e-38
-0.053560227 -0.12802102 0.018787241 2.3509879e-38
-0.051706888 -0.12802102 0.018787241 2.286415e-38
-0.049853548 -0.12802102 0.018787241 2.2772318e-38
-0.048000205 -0.12802102 0.018787241 2.3509883e-38
-0.046146866 -0.12802102 0.018787241 2.3509886e-38
-0.044293523 -0.12802102 0.018787241 2.3509527e-38
-0.042440183 -0.12802102 0.018787241 2.3509165e-38
-0.040586844 -0.12802102 0.018787241 2.3508802e-38
-0.038733505 -0.12802102 0.018787241 2.3509517e-38
-0.036843296 -0.12958528 0.01277945 2.3233285e-38
-0.034947522 -0.13063805 0.0087361094 2.2773023e-38
-0.033076558 -0.13063805 0.0087361094 2.341804e-38
-0.031205595 -0.13063805 0.0087361094 2.2774116e-38
-0.029387802 -0.12958528 0.01277945 2.2313147e-38
-0.027523927 -0.12958528 0.01277945 2.3050349e-38
-0.025592705 -0.13063805 0.0087361094 1.2000005e-39
-0.023796178 -0.12958528 0.01277945 8.3049775e-40
-0.021932306 -0.12958528 0.01277945 9.1841101e-41
-0.020068431 -0.12958528 0.01277945 7.3468397e-40
-0.018204557 -0.12958528 0.01277945 1.3775324e-39
-0.016340684 -0.12958528 0.01277945 1.4463873e-38
-0.014366925 -0.13063805 0.0087361094 2.3508053e-38
-0.012495963 -0.13063805 0.0087361094 2.3509156e-38
-0.010624999 -0.13063805 0.0087361094 9.2195658e-39
-0.008885188 -0.12958528 0.01277945 9.2160317e-40
-0.0070213135 -0.12958528 0.01277945 1.6595241e-39
-0.005157439 -0.12958528 0.01277945 1.8439126e-39
-0.0032935683 -0.12958528 0.01277945 4.5953621e-40
-0.0012701843 -0.13063805 0.0087361094 3.4079873e-39
0.00060077943 -0.13063805 0.0087361094 2.2083567e-39
0.0024717432 -0.13063805 0.0087361094 4.4192399e-39
0.0043427069 -0.13063805 0.0087361094 1.3270009e-38
0.0063502435 -0.13140334 0.0057967659 1.4282716e-38
0.0082263593 -0.13140334 0.0057967659 1.0687804e-38
0.010102475 -0.13140334 0.0057967659 5.4344512e-39
0.011978591 -0.13140334 0.0057967659 3.4997934e-39
0.01385471 -0.13140334 0.0057967659 7.2816092e-39
0.015900357 -0.13220255 0.0027272459 1.6685933e-38
0.017781856 -0.13220255 0.0027272459 1.650084e-38
0.019663351 -0.13220255 0.0027272459 6.3589663e-39
0.021787131 -0.13324542 -0.001278067 3.4090551e-39
0.023862066 -0.1340252 -0.004272962 7.1898018e-39
0.025755839 -0.1340252 -0.004272962 1.023156e-38
0.027649613 -0.1340252 -0.004272962 8.756794e-39
0.03021221 -0.13660498 -0.014181042 6.6366434e-39
0.032615364 -0.13845469 -0.0212852 3.2254023e-39
0.034319557 -0.13765021 -0.018195415 2.2123294e-39
0.036237746 -0.13765021 -0.018195415 1.2445691e-38
0.038386166 -0.13845469 -0.0212852 1.6409752e-38
0.040610798 -0.1394823 -0.025231982 1.4013739e-38
0.042541318 -0.1394823 -0.025231982 1.0879786e-38
0.044471838 -0.1394823 -0.025231982 1.300064e-38
0.046402358 -0.1394823 -0.025231982 1.4843845e-38
0.048663966 -0.14051737 -0.029207373 1.5397022e-38
0.050601445 -0.14051737 -0.029207373 1.5765439e-38
0.052538939 -0.14051737 -0.029207373 1.5579968e-38
0.054744788 -0.1413065 -0.032238148 1.4842406e-38
-0.055413567 -0.12987436 0.018787241 2.3509517e-38
-0.053560227 -0.12987436 0.018787241 2.3509879e-38
-0.051706888 -0.12987436 0.018787241 2.3509879e-38
-0.049853548 -0.12987436 0.018787241 2.350988e-38
-0.048000205 -0.12987436 0.018787241 2.3509883e-38
-0.046146866 -0.12987436 0.018787241 2.3417687e-38
-0.044293523 -0.12987436 0.018787241 2.3139664e-38
-0.042440183 -0.12987436 0.018787241 2.3508451e-38
-0.040586844 -0.12987436 0.018787241 2.3508088e-38
-0.038733505 -0.12987436 0.018787241 2.3508079e-38
-0.036861785 -0.13065951 0.015791869 2.3509873e-38
-0.034979422 -0.13144915 0.01277945 2.3509869e-38
-0.033115551 -0.13144915 0.01277945 2.240424e-38
-0.031251676 -0.13144915 0.01277945 2.3508798e-38
-0.029387802 -0.13144915 0.01277945 2.3509168e-38
-0.027523927 -0.13144915 0.01277945 2.3231151e-38
-0.025660053 -0.13144915 0.01277945 7.5586221e-39
-0.023796178 -0.13144915 0.01277945 1.5414283e-44
-0.021932306 -0.13144915 0.01277945 7.0064923e-45
-0.020068431 -0.13144915 0.01277945 3.1314032e-39
-0.018204557 -0.13144915 0.01277945 1.3775324e-39
-0.016340684 -0.13144915 0.01277945 4.7815443e-39
-0.014366925 -0.13250901 0.0087361094 2.2115762e-38
-0.012495963 -0.13250901 0.0087361094 2.3506283e-38
-0.010624999 -0.13250901 0.0087361094 1.1062405e-38
-0.0089829024 -0.13065951 0.015791869 5.1618875e-39
-0.0071243104 -0.13065951 0.015791869 4.5172369e-39
-0.0052657183 -0.13065951 0.015791869 4.2402857e-39
-0.0032935683 -0.13144915 0.01277945 3.2254079e-39
-0.0014296938 -0.13144915 0.01277945 5.436294e-39
0.00060077943 -0.13250901 0.0087361094 5.6192391e-39
0.0024717432 -0.13250901 0.0087361094 6.5397422e-39
0.0043427069 -0.13250901 0.0087361094 1.3454046e-38
0.0063502435 -0.13327946 0.0057967659 1.3914656e-38
0.0082263593 -0.13327946 0.0057967659 9.6736538e-39
0.010102475 -0.13327946 0.0057967659 5.2497027e-39
0.011978591 -0.13327946 0.0057967659 2.3931039e-39
0.01385471 -0.13327946 0.0057967659 4.79233e-39
0.015730826 -0.13327946 0.0057967659 1.3182144e-38
0.017781856 -0.13408406 0.0027272459 1.3274715e-38
0.019663351 -0.13408406 0.0027272459 5.0696694e-39
0.021787131 -0.13513394 -0.001278067 2.9495231e-39
0.023862066 -0.13591899 -0.004272962 6.5447967e-39
0.025755839 -0.13591899 -0.004272962 7.466051e-39
0.027649613 -0.13591899 -0.004272962 5.2533586e-39
0.032615364 -0.14037828 -0.0212852 5.8068799e-39
0.034034498 -0.13851611 -0.014181042 3.4108726e-39
0.035945646 -0.13851611 -0.014181042 9.4035913e-39
0.038386166 -0.14037828 -0.0212852 1.0878371e-38
0.040309764 -0.14037828 -0.0212852 9.2188441e-39
0.04223337 -0.14037828 -0.0212852 9.1273533e-39
0.044471838 -0.14141284 -0.025231982 1.3737849e-38
0.046402358 -0.14141284 -0.025231982 1.4751287e-38
0.048332877 -0.14141284 -0.025231982 1.3460551e-38
0.050263397 -0.14141284 -0.025231982 1.4012646e-38
0.052538939 -0.14245488 -0.029207373 1.3736059e-38
0.054476433 -0.14245488 -0.029207373 1.2537518e-38
-0.057306297 -0.1325181 0.015791869 1.7238774e-38
-0.055413567 -0.13172771 0.018787241 2.0373425e-38
-0.053560227 -0.13172771 0.018787241 2.3415884e-38
-0.051683389 -0.13094176 0.021765685 2.3509879e-38
-0.049835268 -0.13094176 0.021765685 2.3509879e-38
-0.048000205 -0.13172771 0.018787241 2.350988e-38
-0.046139032 -0.13094176 0.021765685 2.350988e-38
-0.044290915 -0.13094176 0.021765685 2.3508445e-38
-0.042442799 -0.13094176 0.021765685 2.3507732e-38
-0.040586844 -0.13172771 0.018787241 2.3508089e-38
-0.038733505 -0.13172771 0.018787241 2.3140016e-38
-0.036880165 -0.13172771 0.018787241 2.2773388e-38
-0.035003193 -0.1325181 0.015791869 2.3418038e-38
-0.033144601 -0.1325181 0.015791869 2.3509873e-38
-0.031286005 -0.1325181 0.015791869 2.3508804e-38
-0.029427413 -0.1325181 0.015791869 2.3504493e-38
-0.027568823 -0.1325181 0.015791869 2.3507733e-38
-0.025710231 -0.1325181 0.015791869 1.13372e-38
-0.023851639 -0.1325181 0.015791869 9.8090893e-45
-0.021993047 -0.1325181 0.015791869 1.2911018e-39
-0.020134453 -0.1325181 0.015791869 3.6734198e-40
-0.018204557 -0.13331302 0.01277945 1.2856969e-39
-0.016340684 -0.13331302 0.01277945 5.2421637e-39
-0.014366925 -0.13437997 0.0087361094 2.1377125e-38
-0.012495963 -0.13437997 0.0087361094 2.3508089e-38
-0.010624999 -0.13437997 0.0087361094 1.4103785e-38
-0.0089829024 -0.1325181 0.015791869 8.7575199e-39
-0.0071243104 -0.1325181 0.015791869 2.4882142e-39
-0.0052657183 -0.1325181 0.015791869 1.6584507e-39
-0.0034071263 -0.1325181 0.015791869 5.4377471e-39
-0.0016667005 -0.13172771 0.018787241 6.3586146e-39
0.00018663891 -0.13172771 0.018787241 4.5139719e-39
0.0024717432 -0.13437997 0.0087361094 5.8025415e-39
0.0043427069 -0.13437997 0.0087361094 1.2993073e-38
0.0062136706 -0.13437997 0.0087361094 1.4190891e-38
0.0080846343 -0.13437997 0.0087361094 7.8304698e-39
0.009955598 -0.13437997 0.0087361094 3.9593324e-39
0.011826558 -0.13437997 0.0087361094 1.1027434e-39
0.013697522 -0.13437997 0.0087361094 3.5934351e-39
0.015568485 -0.13437997 0.0087361094 1.0785782e-38
0.017606942 -0.13515557 0.0057967659 9.6794509e-39
0.019663351 -0.13596557 0.0027272459 3.6874595e-39
0.021787131 -0.13702248 -0.001278067 1.2907276e-39
0.023862066 -0.13781275 -0.004272962 4.0562406e-39
0.025755839 -0.13781275 -0.004272962 5.4388261e-39
0.027649613 -0.13781275 -0.004272962 4.424677e-39
0.034034498 -0.14042725 -0.014181042 4.240636e-39
0.035945646 -0.14042725 -0.014181042 7.6518743e-39
0.038386166 -0.14230187 -0.0212852 8.0203009e-39
0.040309764 -0.14230187 -0.0212852 6.6377224e-39
0.04223337 -0.14230187 -0.0212852 6.730267e-39
0.044156976 -0.14230187 -0.0212852 1.1432241e-38
0.046402358 -0.14334334 -0.025231982 1.2998491e-38
0.048332877 -0.14334334 -0.025231982 1.2906298e-38
0.050263397 -0.14334334 -0.025231982 1.244532e-38
0.052538939 -0.14439236 -0.029207373 1.2629714e-38
0.054476433 -0.14439236 -0.029207373 1.1338975e-38
0.056413926 -0.14439236 -0.029207373 8.9415314e-39
-0.061023481 -0.13437669 0.015791869 1.1430805e-38
-0.059164889 -0.13437669 0.015791869 9.4025011e-39
-0.057306297 -0.13437669 0.015791869 1.1153862e-38
-0.055379622 -0.13278987 0.021765685 1.7791947e-38
-0.053531505 -0.13278987 0.021765685 2.3508079e-38
-0.051683389 -0.13278987 0.021765685 2.350952e-38
-0.049835268 -0.13278987 0.021765685 2.3139297e-38
-0.047987148 -0.13278987 0.021765685 2.3324407e-38
-0.046139032 -0.13278987 0.021765685 2.3509879e-38
-0.044290915 -0.13278987 0.021765685 2.3509521e-38
-0.042442799 -0.13278987 0.021765685 2.3508445e-38
-0.040594678 -0.13278987 0.021765685 2.3507725e-38
-0.038746558 -0.13278987 0.021765685 2.350988e-38
-0.036898442 -0.13278987 0.021765685 2.3050701e-38
-0.035050325 -0.13278987 0.021765685 2.3142537e-38
-0.033173483 -0.13358103 0.018787241 2.350988e-38
-0.031320143 -0.13358103 0.018787241 2.3321176e-38
-0.029466804 -0.13358103 0.018787241 2.3507733e-38
-0.027613463 -0.13358103 0.018787241 2.3506657e-38
-0.025760124 -0.13358103 0.018787241 1.4932102e-38
-0.023906782 -0.13358103 0.018787241 1.1077895e-39
-0.022053443 -0.13358103 0.018787241 5.5532898e-40
-0.020200102 -0.13358103 0.018787241 1.8438846e-40
-0.018275861 -0.13437669 0.015791869 1.2856969e-39
-0.016340684 -0.13517688 0.01277945 3.675931e-39
-0.01447681 -0.13517688 0.01277945 1.8426516e-38
-0.012612935 -0.13517688 0.01277945 1.8064586e-38
-0.010749063 -0.13517688 0.01277945 1.3550248e-38
-0.0089829024 -0.13437669 0.015791869 5.4373954e-39
-0.0072267223 -0.13358103 0.018787241 1.3818667e-39
-0.0053733792 -0.13358103 0.018787241 1.3818639e-39
-0.0035200398 -0.13358103 0.018787241 4.5918309e-40
-0.0016667005 -0.13358103 0.018787241 3.9611723e-39
0.0022980552 -0.13517688 0.01277945 4.8813111e-39
0.0043427069 -0.13625093 0.0087361094 1.234807e-38
0.0062136706 -0.13625093 0.0087361094 1.1425392e-38
0.0080846343 -0.13625093 0.0087361094 1.9299803e-39
0.009955598 -0.13625093 0.0087361094 1.0101905e-39
0.011826558 -0.13625093 0.0087361094 1.1031022e-39
0.013697522 -0.13625093 0.0087361094 6.4284847e-40
0.015568485 -0.13625093 0.0087361094 3.6734198e-40
0.017606942 -0.13703169 0.0057967659 7.371979e-40
0.038386166 -0.14422549 -0.0212852 9.1835496e-41
0.040309764 -0.14422549 -0.0212852 1.3825687e-39
0.04223337 -0.14422549 -0.0212852 4.7930825e-39
0.044156976 -0.14422549 -0.0212852 1.0970187e-38
0.046080567 -0.14422549 -0.0212852 1.1984339e-38
0.048332877 -0.14527388 -0.025231982 1.1615556e-38
0.050263397 -0.14527388 -0.025231982 1.0232625e-38
0.052538939 -0.14632986 -0.029207373 1.0693606e-38
0.054476433 -0.14632986 -0.029207373 9.5869008e-39
0.056413926 -0.14632986 -0.029207373 8.0195751e-39
-0.064680263 -0.13543437 0.018787241 1.0509209e-38
-0.062826924 -0.13543437 0.018787241 1.06936e-38
-0.061023481 -0.13623528 0.015791869 1.2075818e-38
-0.059164889 -0.13623528 0.015791869 1.0969471e-38
-0.057306297 -0.13623528 0.015791869 1.1706316e-38
-0.055379622 -0.134638 0.021765685 1.4103402e-38
-0.053531505 -0.134638 0.021765685 1.9911727e-38
-0.051683389 -0.134638 0.021765685 2.3509517e-38
-0.049835268 -0.134638 0.021765685 2.3139294e-38
-0.047987148 -0.134638 0.021765685 2.3509876e-38
-0.04612837 -0.13355388 0.025820231 2.3509876e-38
-0.044287361 -0.13355388 0.025820231 2.3509517e-38
-0.042446353 -0.13355388 0.025820231 2.3509156e-38
-0.040594678 -0.134638 0.021765685 2.3509517e-38
-0.038746558 -0.134638 0.021765685 2.2866308e-38
-0.036898442 -0.134638 0.021765685 2.2683362e-38
-0.035050325 -0.134638 0.021765685 2.3142544e-38
-0.033202205 -0.134638 0.021765685 2.3509527e-38
-0.031320143 -0.13543437 0.018787241 2.3506657e-38
-0.029466804 -0.13543437 0.018787241 2.3507733e-38
-0.027613463 -0.13543437 0.018787241 2.3508089e-38
-0.025760124 -0.13543437 0.018787241 1.6040233e-38
-0.023906782 -0.13543437 0.018787241 6.7331466e-39
-0.022053443 -0.13543437 0.018787241 1.793662e-42
-0.020200102 -0.13543437 0.018787241 5.546003e-40
-0.018346762 -0.13543437 0.018787241 6.4284847e-40
-0.016417269 -0.13623528 0.015791869 4.5075007e-39
-0.014558677 -0.13623528 0.015791869 1.557026e-38
-0.012700085 -0.13623528 0.015791869 1.7511409e-38
-0.010841494 -0.13623528 0.015791869 1.2258782e-38
-0.0089829024 -0.13623528 0.015791869 5.2533558e-39
-0.0072267223 -0.13543437 0.018787241 5.5138152e-40
-0.0053733792 -0.13543437 0.018787241 9.1841101e-41
-0.0035200398 -0.13543437 0.018787241 4.5918309e-40
-0.0016667005 -0.13543437 0.018787241 8.2759987e-40
6.3920394e-05 -0.134638 0.021765685 6.4284847e-40
0.0022980552 -0.13704078 0.01277945 2.9455672e-39
0.0041619297 -0.13704078 0.01277945 5.0646234e-39
0.0060258042 -0.13704078 0.01277945 4.880588e-39
0.0078896787 -0.13704078 0.01277945 2.1143688e-39
0.009955598 -0.13812189 0.0087361094 9.1835496e-40
0.011617424 -0.13704078 0.01277945 8.2651947e-40
0.013481298 -0.13704078 0.01277945 1.1034623e-39
0.015568485 -0.13812189 0.0087361094 2.7550649e-40
0.017439449 -0.13812189 0.0087361094 9.2194229e-41
0.039767943 -0.14424954 -0.014181042 1.3825673e-39
0.041679077 -0.14424954 -0.014181042 5.0696722e-39
0.043910481 -0.14532293 -0.018195415 1.1062385e-38
0.046080567 -0.14614908 -0.0212852 1.1338969e-38
0.048332877 -0.14720438 -0.025231982 9.1262743e-39
0.050263397 -0.14720438 -0.025231982 9.402864e-39
0.052538939 -0.14826734 -0.029207373 8.4809105e-39
0.054476433 -0.14826734 -0.029207373 8.4805532e-39
0.056413926 -0.14826734 -0.029207373 8.8493357e-39
-0.064680263 -0.13728772 0.018787241 1.1799948e-38
-0.062826924 -0.13728772 0.018787241 1.1892143e-38
-0.060973585 -0.13728772 0.018787241 1.2628992e-38
-0.059120245 -0.13728772 0.018787241 1.1061667e-38
-0.057266906 -0.13728772 0.018787241 1.1521924e-38
-0.055379622 -0.13648613 0.021765685 1.2720468e-38
-0.053531505 -0.13648613 0.021765685 1.6500488e-38
-0.051651396 -0.13539489 0.025820231 2.3509517e-38
-0.049810387 -0.13539489 0.025820231 2.3509517e-38
-0.047969379 -0.13539489 0.025820231 2.3139294e-38
-0.04612837 -0.13539489 0.025820231 2.3323685e-38
-0.044287361 -0.13539489 0.025820231 2.3509513e-38
-0.042446353 -0.13539489 0.025820231 2.2955254e-38
-0.040605344 -0.13539489 0.025820231 2.3509873e-38
-0.038764335 -0.13539489 0.025820231 2.3142538e-38
-0.036923323 -0.13539489 0.025820231 2.2867037e-38
-0.035050325 -0.13648613 0.021765685 2.2958514e-38
-0.033202205 -0.13648613 0.021765685 2.267942e-38
-0.031354088 -0.13648613 0.021765685 2.267582e-38
-0.02950597 -0.13648613 0.021765685 2.295204e-38
-0.027657852 -0.13648613 0.021765685 2.2122987e-38
-0.025809733 -0.13648613 0.021765685 1.5856911e-38
-0.023906782 -0.13728772 0.018787241 7.378865e-39
-0.022053443 -0.13728772 0.018787241 2.1523944e-42
-0.020200102 -0.13728772 0.018787241 1.4349296e-42
-0.018346762 -0.13728772 0.018787241 1.0123429e-39
-0.016417269 -0.13809387 0.015791869 2.2047764e-39
-0.014558677 -0.13809387 0.015791869 6.4446992e-39
-0.012700085 -0.13809387 0.015791869 6.0798697e-39
-0.010841494 -0.13809387 0.015791869 4.6990933e-39
-0.0090800617 -0.13728772 0.018787241 2.6715153e-39
-0.0072267223 -0.13728772 0.018787241 9.2051717e-40
-0.0054804366 -0.13648613 0.021765685 9.1838299e-41
-0.0036323164 -0.13648613 0.021765685 9.1835496e-41
-0.0017841998 -0.13648613 0.021765685 3.6734198e-40
6.3920394e-05 -0.13648613 0.021765685 5.5101298e-40
0.0022980552 -0.13890465 0.01277945 1.0101905e-39
0.0041619297 -0.13890465 0.01277945 1.8392225e-39
0.0060258042 -0.13890465 0.01277945 1.9306978e-39
0.0078896787 -0.13890465 0.01277945 1.0101905e-39
0.009955598 -0.13999285 0.0087361094 7.3468397e-40
0.011617424 -0.13890465 0.01277945 5.5101298e-40
0.013481298 -0.13890465 0.01277945 5.5102138e-40
0.015568485 -0.13999285 0.0087361094 9.1841101e-41
0.017439449 -0.13999285 0.0087361094 9.219563e-41
0.03954424 -0.14537133 -0.011248136 1.8439014e-39
0.04145024 -0.14537133 -0.011248136 5.8068799e-39
0.043590225 -0.14616071 -0.014181042 1.1246422e-38
0.045828663 -0.1472411 -0.018195415 1.1062383e-38
0.047746845 -0.1472411 -0.018195415 9.0340787e-39
0.049665026 -0.1472411 -0.018195415 8.3887121e-39
-0.064680263 -0.13914107 0.018787241 1.2445317e-38
-0.062826924 -0.13914107 0.018787241 1.2260926e-38
-0.060973585 -0.13914107 0.018787241 1.2721188e-38
-0.059120245 -0.13914107 0.018787241 1.1245337e-38
-0.057266906 -0.13914107 0.018787241 1.1521206e-38
-0.055379622 -0.13833423 0.021765685 1.2627553e-38
-0.053531505 -0.13833423 0.021765685 1.3826815e-38
-0.051651396 -0.13723589 0.025820231 2.2861987e-38
-0.049810387 -0.13723589 0.025820231 2.3509514e-38
-0.047969379 -0.13723589 0.025820231 2.3509153e-38
-0.04612837 -0.13723589 0.025820231 2.3509873e-38
-0.044284783 -0.13643973 0.028759336 2.350987e-38
-0.042448927 -0.13643973 0.028759336 2.2404958e-38
-0.040605344 -0.13723589 0.025820231 2.3142528e-38
-0.038764335 -0.13723589 0.025820231 2.295887e-38
-0.036923323 -0.13723589 0.025820231 2.2958873e-38
-0.035082314 -0.13723589 0.025820231 2.323402e-38
-0.033241306 -0.13723589 0.025820231 2.267942e-38
-0.031354088 -0.13833423 0.021765685 2.1847499e-38
-0.02950597 -0.13833423 0.021765685 2.1754932e-38
-0.027657852 -0.13833423 0.021765685 2.3415161e-38
-0.025809733 -0.13833423 0.021765685 1.6042377e-38
-0.023961617 -0.13833423 0.021765685 8.1167817e-39
-0.022053443 -0.13914107 0.018787241 4.3047889e-42
-0.020200102 -0.13914107 0.018787241 1.793662e-42
-0.018346762 -0.13914107 0.018787241 2.7622395e-40
-0.016417269 -0.13995247 0.015791869 9.1835776e-40
-0.014558677 -0.13995247 0.015791869 1.0101933e-39
-0.01278674 -0.13914107 0.018787241 7.3468397e-40
-0.010933401 -0.13914107 0.018787241 5.5101298e-40
-0.0090800617 -0.13914107 0.018787241 8.279558e-40
-0.0072267223 -0.13914107 0.018787241 5.5173184e-40
-0.0054804366 -0.13833423 0.021765685 9.1835496e-41
-0.0036323164 -0.13833423 0.021765685 9.1835496e-41
-0.0017841998 -0.13833423 0.021765685 2.7622395e-40
6.3920394e-05 -0.13833423 0.021765685 7.3576017e-40
0.0022980552 -0.14076851 0.01277945 9.1835496e-40
0.0041619297 -0.14076851 0.01277945 7.3468397e-40
0.0060258042 -0.14076851 0.01277945 9.1835496e-40
0.0078896787 -0.14076851 0.01277945 7.3468397e-40
0.0097535495 -0.14076851 0.01277945 7.3468537e-40
0.011617424 -0.14076851 0.01277945 3.6734899e-40
0.013481298 -0.14076851 0.01277945 2.755191e-40
0.015345173 -0.14076851 0.01277945 9.8090893e-45
0.03954424 -0.14727734 -0.011248136 2.7658577e-39
0.04145024 -0.14727734 -0.011248136 6.1767443e-39
0.043590225 -0.14807184 -0.014181042 1.0233352e-38
0.045828663 -0.1491593 -0.018195415 9.4961387e-39
0.047746845 -0.1491593 -0.018195415 7.6522233e-39
0.049665026 -0.1491593 -0.018195415 7.2823645e-39
-0.064680263 -0.14099441 0.018787241 1.1707752e-38
-0.062826924 -0.14099441 0.018787241 1.1338969e-38
-0.060973585 -0.14099441 0.018787241 1.2167294e-38
-0.059120245 -0.14099441 0.018787241 1.1060946e-38
-0.057266906 -0.14099441 0.018787241 1.1336814e-38
-0.055379622 -0.14018236 0.021765685 1.3272922e-38
-0.053531505 -0.14018236 0.021765685 1.2812663e-38
-0.051651396 -0.1390769 0.025820231 1.7975616e-38
-0.049810387 -0.1390769 0.025820231 2.1755637e-38
-0.047969379 -0.1390769 0.025820231 2.3507351e-38
-0.04612837 -0.1390769 0.025820231 2.3322959e-38
-0.044284783 -0.13827558 0.028759336 2.0928391e-38
-0.042448927 -0.13827558 0.028759336 1.8902964e-38
-0.040605344 -0.1390769 0.025820231 1.8443431e-38
-0.038764335 -0.1390769 0.025820231 1.844236e-38
-0.036923323 -0.1390769 0.025820231 1.9270331e-38
-0.035082314 -0.1390769 0.025820231 1.9821356e-38
-0.033241306 -0.1390769 0.025820231 1.8530257e-38
-0.031354088 -0.14018236 0.021765685 1.7330269e-38
-0.02950597 -0.14018236 0.021765685 1.7330618e-38
-0.027657852 -0.14018236 0.021765685 1.8530229e-38
-0.025809733 -0.14018236 0.021765685 1.0511358e-38
-0.023961617 -0.14018236 0.021765685 4.704826e-39
-0.022053443 -0.14099441 0.018787241 2.1523944e-42
-0.020200102 -0.14099441 0.018787241 1.0761972e-42
-0.018346762 -0.14099441 0.018787241 9.1835496e-41
-0.016417269 -0.14181106 0.015791869 6.4285548e-40
