# .PCD v0.7 - Point Cloud Data file format
VERSION 0.7
FIELDS x y z rgb
SIZE 4 4 4 4
TYPE F F F F
COUNT 1 1 1 1
WIDTH 931
HEIGHT 1
VIEWPOINT 0 0 0 1 0 0 0
POINTS 931
DATA ascii
-0.016295422 -0.10886435 -0.01542748 2.3923864e-39
-0.014333241 -0.10886435 -0.01542748 1.5612034e-39
-0.012371063 -0.10886435 -0.01542748 1.4693862e-39
-0.010251787 -0.10977553 -0.019409666 1.2860711e-39
-0.0082826242 -0.10977553 -0.019409666 1.1967481e-39
0.0055015013 -0.10977553 -0.019409666 1.0761972e-42
0.0074706636 -0.10977553 -0.019409666 4.6831395e-42
0.009439826 -0.10977553 -0.019409666 4.3342162e-42
0.011408985 -0.10977553 -0.019409666 5.0600888e-42
0.013378151 -0.10977553 -0.019409666 9.2449966e-40
0.015347309 -0.10977553 -0.019409666 2.2130805e-39
-0.023848098 -0.1133381 -0.026320586 1.0888089e-42
-0.022181958 -0.11082654 -0.01542748 7.300765e-43
-0.020219781 -0.11082654 -0.01542748 7.3863563e-40
-0.018257599 -0.11082654 -0.01542748 6.4514828e-39
-0.016295422 -0.11082654 -0.01542748 8.1996027e-39
-0.014333241 -0.11082654 -0.01542748 5.7975319e-39
-0.012371063 -0.11082654 -0.01542748 3.0324029e-39
-0.010251787 -0.11174469 -0.019409666 9.1836057e-40
-0.0082826242 -0.11174469 -0.019409666 6.4321421e-40
-0.0063134655 -0.11174469 -0.019409666 7.3684898e-40
-0.0043443032 -0.11174469 -0.019409666 6.4500647e-40
-0.0023751408 -0.11174469 -0.019409666 5.5101298e-40
-0.00040598214 -0.11174469 -0.019409666 1.3800436e-39
0.0055015013 -0.11174469 -0.019409666 7.1746481e-43
0.0074706636 -0.11174469 -0.019409666 5.1669195e-39
0.009439826 -0.11174469 -0.019409666 2.7709234e-39
0.011408985 -0.11174469 -0.019409666 2.0326451e-39
0.013137266 -0.11082654 -0.01542748 3.4137859e-39
0.015099443 -0.11082654 -0.01542748 6.4540837e-39
0.029722933 -0.10758002 -0.0013467167 4.7905728e-39
0.031660426 -0.10758002 -0.0013467167 8.1107057e-39
0.03359792 -0.10758002 -0.0013467167 2.1203924e-38
0.039410386 -0.10758002 -0.0013467167 2.1575584e-38
0.04134788 -0.10758002 -0.0013467167 2.3142544e-38
0.043285374 -0.10758002 -0.0013467167 2.1944013e-38
0.045222867 -0.10758002 -0.0013467167 1.7794847e-38
-0.023848098 -0.11531936 -0.026320586 3.2510124e-42
-0.021866821 -0.11531936 -0.026320586 1.8692341e-40
-0.020097591 -0.11371385 -0.019409666 1.3825673e-39
-0.018128432 -0.11371385 -0.019409666 7.3719986e-39
-0.016295422 -0.11278872 -0.01542748 1.077964e-38
-0.014333241 -0.11278872 -0.01542748 7.0879064e-39
-0.012220949 -0.11371385 -0.019409666 1.9285594e-39
-0.010251787 -0.11371385 -0.019409666 1.0101933e-39
-0.0084467046 -0.11278872 -0.01542748 1.3807764e-39
-0.0064845271 -0.11278872 -0.01542748 9.1841101e-41
-0.0043443032 -0.11371385 -0.019409666 9.1835496e-41
-0.0023751408 -0.11371385 -0.019409666 1.0116254e-39
-0.00040598214 -0.11371385 -0.019409666 1.0109079e-39
0.0017133541 -0.11441202 -0.022414932 5.5101298e-40
0.0035323426 -0.11371385 -0.019409666 2.7550649e-40
0.0052885488 -0.11278872 -0.01542748 1.8655206e-40
0.0070255511 -0.11184154 -0.011350403 1.0606462e-38
0.0089805797 -0.11184154 -0.011350403 1.0606111e-38
0.010935612 -0.11184154 -0.011350403 1.1251129e-38
0.012468852 -0.11022164 -0.0043774936 1.088056e-38
0.014411658 -0.11022164 -0.0043774936 9.3117922e-39
0.016354464 -0.11022164 -0.0043774936 2.9488406e-39
0.018297262 -0.11022164 -0.0043774936 5.5101298e-40
0.020240068 -0.11022164 -0.0043774936 1.6562675e-39
0.021972977 -0.10951753 -0.0013467167 5.9883607e-39
0.023910463 -0.10951753 -0.0013467167 7.1869039e-39
0.025847957 -0.10951753 -0.0013467167 1.0229007e-38
0.028011292 -0.11022164 -0.0043774936 1.1244251e-38
0.029722933 -0.10951753 -0.0013467167 9.6780118e-39
0.031660426 -0.10951753 -0.0013467167 1.2168736e-38
0.03359792 -0.10951753 -0.0013467167 2.323365e-38
0.035535414 -0.10951753 -0.0013467167 2.3418043e-38
0.037141819 -0.10859399 0.0026286747 2.3234374e-38
0.039072338 -0.10859399 0.0026286747 2.2404983e-38
0.041002858 -0.10859399 0.0026286747 2.3234379e-38
0.042933378 -0.10859399 0.0026286747 2.3234379e-38
0.044507522 -0.10767709 0.0065754559 2.2127318e-38
0.046431113 -0.10767709 0.0065754559 2.341805e-38
0.048354719 -0.10767709 0.0065754559 1.6042405e-38
-0.021866821 -0.11730064 -0.026320586 2.2137881e-39
-0.020097591 -0.115683 -0.019409666 2.8569771e-39
-0.018128432 -0.115683 -0.019409666 1.0044593e-38
-0.016295422 -0.11475091 -0.01542748 1.8246404e-38
-0.014333241 -0.11475091 -0.01542748 1.4555389e-38
-0.012371063 -0.11475091 -0.01542748 5.2450882e-39
-0.010408882 -0.11475091 -0.01542748 2.4831709e-39
-0.0084467046 -0.11475091 -0.01542748 2.487124e-39
-0.0064845271 -0.11475091 -0.01542748 1.6584507e-39
-0.0043443032 -0.115683 -0.019409666 3.6842939e-40
-0.0023751408 -0.115683 -0.019409666 3.6734198e-40
-0.00040598214 -0.115683 -0.019409666 2.7629836e-39
0.0015631802 -0.115683 -0.019409666 3.5923898e-39
0.0033263713 -0.11475091 -0.01542748 7.3684898e-40
0.0050705187 -0.11379658 -0.011350403 1.0159568e-39
0.006862808 -0.11310686 -0.0084037874 1.2819157e-38
0.0088126734 -0.11310686 -0.0084037874 1.9272135e-38
0.010762535 -0.11310686 -0.0084037874 2.1576674e-38
0.012468852 -0.11216442 -0.0043774936 1.79789e-38
0.014411658 -0.11216442 -0.0043774936 1.0694004e-38
0.016354464 -0.11216442 -0.0043774936 6.9125255e-39
0.018297262 -0.11216442 -0.0043774936 9.4014249e-39
0.020035483 -0.11145501 -0.0013467167 1.2074717e-38
0.021972977 -0.11145501 -0.0013467167 1.3825705e-38
0.023910463 -0.11145501 -0.0013467167 1.4378532e-38
0.025847957 -0.11145501 -0.0013467167 1.3640615e-38
0.027785443 -0.11145501 -0.0013467167 1.1705591e-38
0.029722933 -0.11145501 -0.0013467167 2.0096115e-38
0.031660426 -0.11145501 -0.0013467167 2.2126213e-38
0.033280779 -0.11052449 0.0026286747 2.350987e-38
0.035211299 -0.11052449 0.0026286747 2.3049975e-38
0.037141819 -0.11052449 0.0026286747 2.3234376e-38
0.03873672 -0.10960068 0.0065754559 2.3234379e-38
0.040660311 -0.10960068 0.0065754559 2.2588296e-38
0.042583916 -0.10960068 0.0065754559 2.3325856e-38
0.044507522 -0.10960068 0.0065754559 2.341805e-38
0.046431113 -0.10960068 0.0065754559 2.341805e-38
0.048354719 -0.10960068 0.0065754559 1.6503021e-38
0.052201916 -0.10960068 0.0065754559 5.9005203e-39
-0.023848098 -0.11928193 -0.026320586 2.4918142e-39
-0.022066753 -0.11765216 -0.019409666 2.9509972e-39
-0.020219781 -0.11671309 -0.01542748 1.4736853e-39
-0.018257599 -0.11671309 -0.01542748 7.1865283e-39
-0.016295422 -0.11671309 -0.01542748 1.8892852e-38
-0.014333241 -0.11671309 -0.01542748 1.6584412e-38
-0.012371063 -0.11671309 -0.01542748 5.2454483e-39
-0.010408882 -0.11671309 -0.01542748 3.1292592e-39
-0.0084467046 -0.11671309 -0.01542748 3.1328564e-39
-0.0064845271 -0.11671309 -0.01542748 3.5956408e-39
-0.0043443032 -0.11765216 -0.019409666 4.5175971e-39
-0.0023751408 -0.11765216 -0.019409666 3.7785817e-39
-0.00040598214 -0.11765216 -0.019409666 1.0324469e-38
0.0013641901 -0.11671309 -0.01542748 1.1983637e-38
0.0031154901 -0.11575161 -0.011350403 4.7945385e-39
0.0049129464 -0.11505674 -0.0084037874 4.4289944e-39
0.006640438 -0.11410724 -0.0043774936 1.4663069e-38
0.0085832402 -0.11410724 -0.0043774936 1.8350533e-38
0.010526046 -0.11410724 -0.0043774936 2.1483391e-38
0.012468852 -0.11410724 -0.0043774936 1.7609751e-38
0.014223009 -0.11339252 -0.0013467167 1.0048623e-38
0.016160503 -0.11339252 -0.0013467167 9.6790992e-39
0.018097989 -0.11339252 -0.0013467167 1.2444227e-38
0.020035483 -0.11339252 -0.0013467167 1.3827503e-38
0.021697648 -0.11245503 0.0026286747 1.391898e-38
0.023628175 -0.11245503 0.0026286747 1.3733887e-38
0.025558695 -0.11245503 0.0026286747 1.2350245e-38
0.027489215 -0.11245503 0.0026286747 1.1060227e-38
0.029419739 -0.11245503 0.0026286747 2.3508793e-38
0.031350259 -0.11245503 0.0026286747 2.3509863e-38
0.033280779 -0.11245503 0.0026286747 2.3509866e-38
0.035211299 -0.11245503 0.0026286747 2.3418043e-38
0.036813114 -0.11152427 0.0065754559 2.3050347e-38
0.03873672 -0.11152427 0.0065754559 2.341805e-38
0.040660311 -0.11152427 0.0065754559 2.2771967e-38
0.042310331 -0.11079563 0.0096652415 2.3325138e-38
0.044228513 -0.11079563 0.0096652415 2.3509527e-38
0.046146709 -0.11079563 0.0096652415 2.2956359e-38
0.048354719 -0.11152427 0.0065754559 1.5027172e-38
-0.023954241 -0.12033533 -0.022414932 6.0863647e-39
-0.022066753 -0.11962132 -0.019409666 3.2275855e-39
-0.020219781 -0.11867525 -0.01542748 1.1049056e-39
-0.018389847 -0.11770664 -0.011350403 6.7266292e-39
-0.016434815 -0.11770664 -0.011350403 2.1751636e-38
-0.014479786 -0.11770664 -0.011350403 2.0181481e-38
-0.012524754 -0.11770664 -0.011350403 6.7216574e-39
-0.010569725 -0.11770664 -0.011350403 3.4072852e-39
-0.0084467046 -0.11867525 -0.01542748 2.1201464e-39
-0.0064845271 -0.11867525 -0.01542748 7.007605e-39
-0.0043443032 -0.11962132 -0.019409666 2.1759625e-38
-0.0023751408 -0.11962132 -0.019409666 2.2587578e-38
-0.00059798732 -0.11867525 -0.01542748 2.314039e-38
0.0011604577 -0.11770664 -0.011350403 2.2864164e-38
0.002963081 -0.11700659 -0.0084037874 2.0099738e-38
0.0049129464 -0.11700659 -0.0084037874 2.0840179e-38
0.006640438 -0.11605005 -0.0043774936 2.1302232e-38
0.0085832402 -0.11605005 -0.0043774936 1.7981382e-38
0.010526046 -0.11605005 -0.0043774936 2.1852159e-38
0.012468852 -0.11605005 -0.0043774936 2.111281e-38
0.014223009 -0.11533 -0.0013467167 1.5857295e-38
0.016160503 -0.11533 -0.0013467167 1.5119346e-38
0.018097989 -0.11533 -0.0013467167 1.2168348e-38
0.019767128 -0.11438553 0.0026286747 1.161516e-38
0.021697648 -0.11438553 0.0026286747 1.3643112e-38
0.023347914 -0.11344786 0.0065754559 1.2811579e-38
0.025271513 -0.11344786 0.0065754559 1.4839894e-38
0.027489215 -0.11438553 0.0026286747 1.6868916e-38
0.029419739 -0.11438553 0.0026286747 2.3509517e-38
0.031350259 -0.11438553 0.0026286747 2.2219485e-38
0.033280779 -0.11438553 0.0026286747 2.3509869e-38
0.034889508 -0.11344786 0.0065754559 2.3418047e-38
0.036813114 -0.11344786 0.0065754559 2.341805e-38
0.03873672 -0.11344786 0.0065754559 2.3048554e-38
0.040392149 -0.1127138 0.0096652415 2.3509527e-38
0.042310331 -0.1127138 0.0096652415 2.3509527e-38
0.044228513 -0.1127138 0.0096652415 2.2956715e-38
0.046146709 -0.1127138 0.0096652415 2.3509527e-38
0.048064891 -0.1127138 0.0096652415 1.4289604e-38
-0.057550926 -0.12516426 -0.034342058 6.7320859e-39
-0.055555582 -0.12516426 -0.034342058 6.1785491e-39
-0.027903102 -0.12230973 -0.022414932 1.9176338e-38
-0.026005076 -0.12159048 -0.019409666 2.1759613e-38
-0.024035914 -0.12159048 -0.019409666 1.8901913e-38
-0.022066753 -0.12159048 -0.019409666 1.3646055e-38
-0.020219781 -0.12063743 -0.01542748 8.2976067e-40
-0.018389847 -0.11966167 -0.011350403 6.4507626e-39
-0.016434815 -0.11966167 -0.011350403 2.3504076e-38
-0.014479786 -0.11966167 -0.011350403 2.350124e-38
-0.012524754 -0.11966167 -0.011350403 1.0687506e-38
-0.010569725 -0.11966167 -0.011350403 4.0544525e-39
-0.0084467046 -0.12063743 -0.01542748 1.8453573e-39
-0.0064845271 -0.12063743 -0.01542748 9.2217406e-39
-0.004522346 -0.12063743 -0.01542748 2.0839112e-38
-0.0025601685 -0.12063743 -0.01542748 2.222024e-38
-0.00079457089 -0.11966167 -0.011350403 2.3417691e-38
0.0010132156 -0.11895646 -0.0084037874 2.0006466e-38
0.0027548261 -0.11799283 -0.0043774936 2.1759622e-38
0.004697632 -0.11799283 -0.0043774936 2.1670663e-38
0.006640438 -0.11799283 -0.0043774936 2.2499695e-38
0.0084105358 -0.11726747 -0.0013467167 1.6505883e-38
0.010348029 -0.11726747 -0.0013467167 2.3509873e-38
0.012285523 -0.11726747 -0.0013467167 2.3049261e-38
0.014223009 -0.11726747 -0.0013467167 1.8070332e-38
0.015906088 -0.11631607 0.0026286747 1.890007e-38
0.017836608 -0.11631607 0.0026286747 1.2630754e-38
0.01950071 -0.11537148 0.0065754559 1.0970506e-38
0.021424308 -0.11537148 0.0065754559 1.1061994e-38
0.023128502 -0.114632 0.0096652415 1.0046075e-38
0.025046691 -0.114632 0.0096652415 1.8989066e-38
0.027195111 -0.11537148 0.0065754559 1.972771e-38
0.029118706 -0.11537148 0.0065754559 2.3047463e-38
0.031042311 -0.11537148 0.0065754559 2.350987e-38
0.032965917 -0.11537148 0.0065754559 2.3049612e-38
0.034889508 -0.11537148 0.0065754559 2.3325856e-38
0.036555786 -0.114632 0.0096652415 2.3417691e-38
0.038473967 -0.114632 0.0096652415 2.3509527e-38
0.040392149 -0.114632 0.0096652415 2.3509527e-38
0.042310331 -0.114632 0.0096652415 2.3509527e-38
0.044228513 -0.114632 0.0096652415 2.3509527e-38
0.045777176 -0.11367123 0.013679614 2.3048189e-38
0.047688324 -0.11367123 0.013679614 1.4473995e-38
-0.061541609 -0.12715961 -0.034342058 2.2589368e-38
-0.059546269 -0.12715961 -0.034342058 2.2220589e-38
-0.057540506 -0.12620462 -0.030380854 2.3234379e-38
-0.05555211 -0.12620462 -0.030380854 2.2588648e-38
-0.029943397 -0.12355967 -0.019409666 2.3509527e-38
-0.027974237 -0.12355967 -0.019409666 2.3233302e-38
-0.026005076 -0.12355967 -0.019409666 2.3234379e-38
-0.024035914 -0.12355967 -0.019409666 2.3142544e-38
-0.022066753 -0.12355967 -0.019409666 2.2774484e-38
-0.020219781 -0.12259962 -0.01542748 1.6688128e-38
-0.018389847 -0.12161671 -0.011350403 1.4841285e-38
-0.016434815 -0.12161671 -0.011350403 2.3505872e-38
-0.014479786 -0.12161671 -0.011350403 2.3507718e-38
-0.012524754 -0.12161671 -0.011350403 1.2440299e-38
-0.010569725 -0.12161671 -0.011350403 3.6863861e-39
-0.0086146928 -0.12161671 -0.011350403 1.1081524e-39
-0.0066596642 -0.12161671 -0.011350403 7.1948745e-39
-0.004522346 -0.12259962 -0.01542748 2.0286657e-38
-0.0027496032 -0.12161671 -0.011350403 2.01001e-38
-0.00093664601 -0.12090631 -0.0084037874 2.3234379e-38
0.00081202388 -0.11993565 -0.0043774936 2.0191936e-38
0.0027548261 -0.11993565 -0.0043774936 2.1484114e-38
0.004697632 -0.11993565 -0.0043774936 2.2316024e-38
0.0064730458 -0.11920498 -0.0013467167 2.2591531e-38
0.0084105358 -0.11920498 -0.0013467167 2.2958853e-38
0.010348029 -0.11920498 -0.0013467167 2.3509863e-38
0.012045048 -0.11824657 0.0026286747 2.3509865e-38
0.013975568 -0.11824657 0.0026286747 1.9176301e-38
0.015455775 -0.11655019 0.0096652415 1.7056144e-38
0.017373957 -0.11655019 0.0096652415 1.1801345e-38
0.019292139 -0.11655019 0.0096652415 1.1062702e-38
0.02121032 -0.11655019 0.0096652415 9.0336962e-39
0.023128502 -0.11655019 0.0096652415 1.2166939e-38
0.025046691 -0.11655019 0.0096652415 2.1571268e-38
0.026964873 -0.11655019 0.0096652415 2.2217356e-38
0.029118706 -0.11729507 0.0065754559 2.3509527e-38
0.031042311 -0.11729507 0.0065754559 2.3509879e-38
0.032965917 -0.11729507 0.0065754559 2.3233652e-38
0.034889508 -0.11729507 0.0065754559 2.3417691e-38
0.036555786 -0.11655019 0.0096652415 2.3325497e-38
0.038473967 -0.11655019 0.0096652415 2.3509527e-38
0.040392149 -0.11655019 0.0096652415 2.3509527e-38
0.042310331 -0.11655019 0.0096652415 2.3509527e-38
0.044228513 -0.11655019 0.0096652415 2.3509527e-38
0.045777176 -0.11558239 0.013679614 2.3416971e-38
0.047688324 -0.11558239 0.013679614 1.4197764e-38
-0.061541609 -0.12915494 -0.034342058 2.3418047e-38
-0.05951111 -0.12720706 -0.026320586 2.3049626e-38
-0.057529829 -0.12720706 -0.026320586 2.2680844e-38
-0.055548549 -0.12720706 -0.026320586 2.341805e-38
-0.053567275 -0.12720706 -0.026320586 2.3325129e-38
-0.051575318 -0.12819304 -0.030380854 2.3509879e-38
-0.049569555 -0.12915494 -0.034342058 2.3509879e-38
-0.047598522 -0.12819304 -0.030380854 2.341804e-38
-0.045610122 -0.12819304 -0.030380854 2.2958859e-38
-0.03395503 -0.1245618 -0.01542748 1.1889272e-38
-0.031992853 -0.1245618 -0.01542748 2.3507363e-38
-0.030030673 -0.1245618 -0.01542748 2.3509521e-38
-0.028165 -0.12357174 -0.011350403 2.2495371e-38
-0.026209969 -0.12357174 -0.011350403 2.2957431e-38
-0.024254939 -0.12357174 -0.011350403 2.2774125e-38
-0.022181958 -0.1245618 -0.01542748 2.2129125e-38
-0.020344876 -0.12357174 -0.011350403 1.8163258e-38
-0.018485423 -0.12285618 -0.0084037874 1.742312e-38
-0.016535562 -0.12285618 -0.0084037874 2.3508746e-38
-0.014585696 -0.12285618 -0.0084037874 2.350483e-38
-0.012635831 -0.12285618 -0.0084037874 1.5114685e-38
-0.010685969 -0.12285618 -0.0084037874 1.0786523e-38
-0.0087361038 -0.12285618 -0.0084037874 3.5066709e-39
-0.0067862384 -0.12285618 -0.0084037874 3.3226566e-39
-0.0048363768 -0.12285618 -0.0084037874 1.3279786e-38
-0.003073588 -0.12187846 -0.0043774936 1.3185428e-38
-0.0011307821 -0.12187846 -0.0043774936 2.019121e-38
0.00081202388 -0.12187846 -0.0043774936 2.0928419e-38
0.0025980659 -0.12114246 -0.0013467167 1.8809715e-38
0.0045355558 -0.12114246 -0.0013467167 2.0840531e-38
0.0062534884 -0.12017711 0.0026286747 2.2775196e-38
0.0081840083 -0.12017711 0.0026286747 2.3509869e-38
0.010114528 -0.12017711 0.0026286747 2.2864128e-38
0.011806309 -0.11921866 0.0065754559 2.3048871e-38
0.013729908 -0.11921866 0.0065754559 1.8807861e-38
0.015455775 -0.11846836 0.0096652415 1.6411121e-38
0.017373957 -0.11846836 0.0096652415 1.3184274e-38
0.019292139 -0.11846836 0.0096652415 1.1985381e-38
0.02121032 -0.11846836 0.0096652415 9.9563783e-39
0.023128502 -0.11846836 0.0096652415 1.4195969e-38
0.025046691 -0.11846836 0.0096652415 2.3508451e-38
0.026964873 -0.11846836 0.0096652415 2.3508809e-38
0.028883059 -0.11846836 0.0096652415 2.3509527e-38
0.03080124 -0.11846836 0.0096652415 2.3417687e-38
0.032965917 -0.11921866 0.0065754559 2.341769e-38
0.034637604 -0.11846836 0.0096652415 2.3417691e-38
0.036555786 -0.11846836 0.0096652415 2.3141109e-38
0.038473967 -0.11846836 0.0096652415 2.3509527e-38
0.040392149 -0.11846836 0.0096652415 2.3509883e-38
0.042310331 -0.11846836 0.0096652415 2.3509883e-38
0.044228513 -0.11846836 0.0096652415 2.3417327e-38
0.045777176 -0.11749353 0.013679614 2.3509883e-38
0.047688324 -0.11749353 0.013679614 1.3552395e-38
-0.065494098 -0.13018142 -0.030380854 2.3325843e-38
-0.063505702 -0.13018142 -0.030380854 2.2220217e-38
-0.061517302 -0.13018142 -0.030380854 2.350988e-38
-0.05951111 -0.12918831 -0.026320586 2.3418047e-38
-0.057529829 -0.12918831 -0.026320586 2.2680122e-38
-0.055548549 -0.12918831 -0.026320586 2.3509883e-38
-0.053567275 -0.12918831 -0.026320586 2.350988e-38
-0.051575318 -0.13018142 -0.030380854 2.3417323e-38
-0.049586918 -0.13018142 -0.030380854 2.3509879e-38
-0.047598522 -0.13018142 -0.030380854 2.3418043e-38
-0.045610122 -0.13018142 -0.030380854 2.2774467e-38
-0.043621726 -0.13018142 -0.030380854 2.2220215e-38
-0.04163333 -0.13018142 -0.030380854 2.3509873e-38
-0.039644934 -0.13018142 -0.030380854 2.0650728e-38
-0.037820041 -0.12749799 -0.019409666 1.345803e-38
-0.034030091 -0.12552677 -0.011350403 1.3917573e-38
-0.032075062 -0.12552677 -0.011350403 2.3508802e-38
-0.03012003 -0.12552677 -0.011350403 2.350952e-38
-0.028165 -0.12552677 -0.011350403 2.350988e-38
-0.026209969 -0.12552677 -0.011350403 2.3418047e-38
-0.024254939 -0.12552677 -0.011350403 2.2773763e-38
-0.022299908 -0.12552677 -0.011350403 2.3142544e-38
-0.020435289 -0.12480606 -0.0084037874 2.2588282e-38
-0.018616024 -0.12382124 -0.0043774936 2.046485e-38
-0.016673218 -0.12382124 -0.0043774936 2.3509821e-38
-0.014730416 -0.12382124 -0.0043774936 2.3507704e-38
-0.01278761 -0.12382124 -0.0043774936 1.8525913e-38
-0.010844804 -0.12382124 -0.0043774936 1.0879068e-38
-0.0089020021 -0.12382124 -0.0043774936 5.0732694e-39
-0.0069591962 -0.12382124 -0.0043774936 8.7625491e-39
-0.0050163902 -0.12382124 -0.0043774936 2.028629e-38
-0.003073588 -0.12382124 -0.0043774936 2.3234379e-38
-0.0011307821 -0.12382124 -0.0043774936 2.3509527e-38
0.00066057593 -0.12307997 -0.0013467167 2.2402822e-38
0.0025980659 -0.12307997 -0.0013467167 1.6410822e-38
0.0043229647 -0.12210761 0.0026286747 1.7981737e-38
0.0062534884 -0.12210761 0.0026286747 1.9549415e-38
0.0081840083 -0.12210761 0.0026286747 2.2587913e-38
0.0098827034 -0.12114228 0.0065754559 2.2309515e-38
0.011806309 -0.12114228 0.0065754559 2.1757045e-38
0.013537593 -0.12038656 0.0096652415 1.6872102e-38
0.015455775 -0.12038656 0.0096652415 1.6134887e-38
0.017373957 -0.12038656 0.0096652415 1.4014034e-38
0.019292139 -0.12038656 0.0096652415 1.2261617e-38
0.02121032 -0.12038656 0.0096652415 1.3367625e-38
0.023128502 -0.12038656 0.0096652415 1.5671818e-38
0.024754591 -0.11940466 0.013679614 2.3509168e-38
0.026665732 -0.11940466 0.013679614 2.3509168e-38
0.028883059 -0.12038656 0.0096652415 2.3509527e-38
0.03080124 -0.12038656 0.0096652415 2.2956715e-38
0.032719422 -0.12038656 0.0096652415 2.3417333e-38
0.034637604 -0.12038656 0.0096652415 2.3417691e-38
0.036221463 -0.11940466 0.013679614 2.3417691e-38
0.038132597 -0.11940466 0.013679614 2.3509886e-38
0.040043745 -0.11940466 0.013679614 2.3509883e-38
0.041954894 -0.11940466 0.013679614 2.3509883e-38
0.043866042 -0.11940466 0.013679614 2.3509523e-38
0.045777176 -0.11940466 0.013679614 2.3509883e-38
0.047688324 -0.11940466 0.013679614 1.2630436e-38
-0.065494098 -0.13216983 -0.030380854 2.350987e-38
-0.063505702 -0.13216983 -0.030380854 2.3509873e-38
-0.061517302 -0.13216983 -0.030380854 2.3141092e-38
-0.05951111 -0.1311696 -0.026320586 2.3509879e-38
-0.057529829 -0.1311696 -0.026320586 2.350988e-38
-0.055548549 -0.1311696 -0.026320586 2.3325129e-38
-0.053563714 -0.13216983 -0.030380854 2.3509523e-38
-0.051575318 -0.13216983 -0.030380854 2.286415e-38
-0.049586918 -0.13216983 -0.030380854 2.2957065e-38
-0.047598522 -0.13216983 -0.030380854 2.3326206e-38
-0.045610122 -0.13216983 -0.030380854 2.3234369e-38
-0.043621726 -0.13216983 -0.030380854 2.341804e-38
-0.04163333 -0.13216983 -0.030380854 2.3509873e-38
-0.039644934 -0.13216983 -0.030380854 1.8161446e-38
-0.037820041 -0.12946714 -0.019409666 1.7698307e-38
-0.03598512 -0.1274818 -0.011350403 8.6624193e-39
-0.034030091 -0.1274818 -0.011350403 1.5207589e-38
-0.032075062 -0.1274818 -0.011350403 2.3508079e-38
-0.03018461 -0.12675591 -0.0084037874 2.3415161e-38
-0.028234746 -0.12675591 -0.0084037874 2.2402451e-38
-0.026284881 -0.12675591 -0.0084037874 2.3509879e-38
-0.024335017 -0.12675591 -0.0084037874 2.3418047e-38
-0.022385154 -0.12675591 -0.0084037874 2.2773408e-38
-0.020435289 -0.12675591 -0.0084037874 2.2680111e-38
-0.018616024 -0.12576406 -0.0043774936 2.0741067e-38
-0.016673218 -0.12576406 -0.0043774936 2.3509814e-38
-0.014730416 -0.12576406 -0.0043774936 2.350877e-38
-0.01278761 -0.12576406 -0.0043774936 2.3507707e-38
-0.010964371 -0.12501745 -0.0013467167 1.4473607e-38
-0.0090268776 -0.12501745 -0.0013467167 1.1525873e-38
-0.0070893876 -0.12501745 -0.0013467167 1.844236e-38
-0.0051518977 -0.12501745 -0.0013467167 2.2866677e-38
-0.0032144077 -0.12501745 -0.0013467167 2.314074e-38
-0.001276914 -0.12501745 -0.0013467167 2.3508079e-38
0.00066057593 -0.12501745 -0.0013467167 2.3508801e-38
0.0025980659 -0.12501745 -0.0013467167 2.0834759e-38
0.0043229647 -0.12403814 0.0026286747 1.9639086e-38
0.0060355067 -0.12306587 0.0065754559 2.1482998e-38
0.0079591051 -0.12306587 0.0065754559 2.3509517e-38
0.0098827034 -0.12306587 0.0065754559 2.0648922e-38
0.011806309 -0.12306587 0.0065754559 1.9359593e-38
0.013537593 -0.12230472 0.0096652415 1.7055764e-38
0.015455775 -0.12230472 0.0096652415 1.604269e-38
0.017373957 -0.12230472 0.0096652415 1.3092081e-38
0.019292139 -0.12230472 0.0096652415 1.1893203e-38
0.02121032 -0.12230472 0.0096652415 1.5487773e-38
0.023128502 -0.12230472 0.0096652415 1.7699766e-38
0.024754591 -0.12131582 0.013679614 2.3232227e-38
0.026665732 -0.12131582 0.013679614 2.332478e-38
0.028576884 -0.12131582 0.013679614 2.3509527e-38
0.030488018 -0.12131582 0.013679614 2.314075e-38
0.032719422 -0.12230472 0.0096652415 2.3325856e-38
0.034310315 -0.12131582 0.013679614 2.341805e-38
0.036221463 -0.12131582 0.013679614 2.341805e-38
0.038132597 -0.12131582 0.013679614 2.341769e-38
0.040043745 -0.12131582 0.013679614 2.350988e-38
0.041954894 -0.12131582 0.013679614 2.350988e-38
0.043866042 -0.12131582 0.013679614 2.350988e-38
0.045777176 -0.12131582 0.013679614 2.22195e-38
0.047688324 -0.12131582 0.013679614 1.124822e-38
-0.065494098 -0.13415821 -0.030380854 2.3509869e-38
-0.063505702 -0.13415821 -0.030380854 2.3417673e-38
-0.061517302 -0.13415821 -0.030380854 2.3509873e-38
-0.059528906 -0.13415821 -0.030380854 2.3048896e-38
-0.057540506 -0.13415821 -0.030380854 2.3509879e-38
-0.05555211 -0.13415821 -0.030380854 2.3048542e-38
-0.053563714 -0.13415821 -0.030380854 2.3509883e-38
-0.051575318 -0.13415821 -0.030380854 2.3509883e-38
-0.049586918 -0.13415821 -0.030380854 2.3509883e-38
-0.047598522 -0.13415821 -0.030380854 2.3234012e-38
-0.045610122 -0.13415821 -0.030380854 2.3234372e-38
-0.043621726 -0.13415821 -0.030380854 2.3234367e-38
-0.04163333 -0.13415821 -0.030380854 2.2404243e-38
-0.039644934 -0.13415821 -0.030380854 1.1154578e-38
-0.037820041 -0.1314363 -0.019409666 1.0138265e-38
-0.03598512 -0.12943684 -0.011350403 4.8827544e-39
-0.034030091 -0.12943684 -0.011350403 1.3271478e-38
-0.032134473 -0.12870578 -0.0084037874 2.3508797e-38
-0.03018461 -0.12870578 -0.0084037874 2.3509514e-38
-0.028234746 -0.12870578 -0.0084037874 2.3509873e-38
-0.026284881 -0.12870578 -0.0084037874 2.3141452e-38
-0.024335017 -0.12870578 -0.0084037874 2.3234369e-38
-0.022385154 -0.12870578 -0.0084037874 2.3509886e-38
-0.02055883 -0.12770687 -0.0043774936 2.2033654e-38
-0.018616024 -0.12770687 -0.0043774936 2.1661936e-38
-0.016673218 -0.12770687 -0.0043774936 2.3509804e-38
-0.014839351 -0.12695493 -0.0013467167 2.3504439e-38
-0.012901861 -0.12695493 -0.0013467167 2.3508777e-38
-0.010964371 -0.12695493 -0.0013467167 1.6869603e-38
-0.0090268776 -0.12695493 -0.0013467167 1.5028577e-38
-0.0070893876 -0.12695493 -0.0013467167 2.019299e-38
-0.0051518977 -0.12695493 -0.0013467167 2.3418045e-38
-0.0032144077 -0.12695493 -0.0013467167 2.3509157e-38
-0.001276914 -0.12695493 -0.0013467167 2.3509153e-38
0.00066057593 -0.12695493 -0.0013467167 2.3044213e-38
0.0023924448 -0.12596865 0.0026286747 2.3230034e-38
0.0041119047 -0.12498946 0.0065754559 2.1665937e-38
0.0058648586 -0.12422292 0.0096652415 2.350986e-38
0.0077830404 -0.12422292 0.0096652415 2.3508804e-38
0.0097012222 -0.12422292 0.0096652415 1.603807e-38
0.011619404 -0.12422292 0.0096652415 1.5947636e-38
0.013537593 -0.12422292 0.0096652415 2.0097858e-38
0.015455775 -0.12422292 0.0096652415 1.8254665e-38
0.017373957 -0.12422292 0.0096652415 1.3276475e-38
0.019292139 -0.12422292 0.0096652415 1.3460177e-38
0.02121032 -0.12422292 0.0096652415 1.6871435e-38
0.023128502 -0.12422292 0.0096652415 1.991354e-38
0.024754591 -0.12322696 0.013679614 2.3325138e-38
0.026665732 -0.12322696 0.013679614 2.3141106e-38
0.028576884 -0.12322696 0.013679614 2.3509886e-38
0.030488018 -0.12322696 0.013679614 2.341805e-38
0.032719422 -0.12422292 0.0096652415 2.341805e-38
0.034310315 -0.12322696 0.013679614 2.304927e-38
0.036221463 -0.12322696 0.013679614 2.3418047e-38
0.037883196 -0.1224993 0.01661252 2.3325847e-38
0.039789204 -0.1224993 0.01661252 2.350988e-38
0.041954894 -0.12322696 0.013679614 2.350988e-38
0.043866042 -0.12322696 0.013679614 2.3418043e-38
0.045777176 -0.12322696 0.013679614 1.9177044e-38
0.047688324 -0.12322696 0.013679614 9.4043074e-39
-0.065494098 -0.13614662 -0.030380854 2.3140362e-38
-0.063505702 -0.13614662 -0.030380854 2.3048169e-38
-0.061517302 -0.13614662 -0.030380854 2.3509873e-38
-0.059528906 -0.13614662 -0.030380854 2.3232209e-38
-0.057540506 -0.13614662 -0.030380854 2.3416603e-38
-0.05555211 -0.13614662 -0.030380854 2.3509521e-38
-0.053563714 -0.13614662 -0.030380854 2.2679762e-38
-0.051575318 -0.13614662 -0.030380854 2.2587927e-38
-0.049586918 -0.13614662 -0.030380854 2.3233296e-38
-0.047598522 -0.13614662 -0.030380854 2.3418045e-38
-0.045610122 -0.13614662 -0.030380854 2.3234372e-38
-0.043621726 -0.13614662 -0.030380854 2.2865584e-38
-0.04163333 -0.13614662 -0.030380854 2.1943265e-38
-0.039644934 -0.13614662 -0.030380854 9.8638394e-39
-0.037820041 -0.13340546 -0.019409666 9.4007004e-39
-0.035917211 -0.13241051 -0.01542748 6.0812976e-39
-0.034030091 -0.13139187 -0.011350403 1.133537e-38
-0.032134473 -0.13065563 -0.0084037874 2.2215533e-38
-0.03018461 -0.13065563 -0.0084037874 2.3509153e-38
-0.028234746 -0.13065563 -0.0084037874 2.350987e-38
-0.026284881 -0.13065563 -0.0084037874 2.3417676e-38
-0.024335017 -0.13065563 -0.0084037874 2.3509876e-38
-0.022501633 -0.12964968 -0.0043774936 2.314074e-38
-0.02055883 -0.12964968 -0.0043774936 1.7515341e-38
-0.018616024 -0.12964968 -0.0043774936 1.5853243e-38
-0.016776841 -0.12889244 -0.0013467167 2.304197e-38
-0.014839351 -0.12889244 -0.0013467167 2.3508749e-38
-0.012901861 -0.12889244 -0.0013467167 2.3508767e-38
-0.010964371 -0.12889244 -0.0013467167 1.71451e-38
-0.0091906786 -0.12789918 0.0026286747 1.4197725e-38
-0.0072601587 -0.12789918 0.0026286747 1.5028944e-38
-0.0053296387 -0.12789918 0.0026286747 2.1020587e-38
-0.0033991151 -0.12789918 0.0026286747 2.3507708e-38
-0.0014685951 -0.12789918 0.0026286747 2.3506622e-38
0.00046192482 -0.12789918 0.0026286747 2.3042763e-38
0.0021883063 -0.12691309 0.0065754559 2.3506252e-38
0.0041119047 -0.12691309 0.0065754559 2.3509844e-38
0.0058648586 -0.12614109 0.0096652415 2.3509855e-38
0.007554289 -0.12513812 0.013679614 2.3136431e-38
0.0094654337 -0.12513812 0.013679614 1.5300156e-38
0.011376575 -0.12513812 0.013679614 1.4564701e-38
0.013537593 -0.12614109 0.0096652415 2.1019812e-38
0.015455775 -0.12614109 0.0096652415 1.9545046e-38
0.017373957 -0.12614109 0.0096652415 1.3183925e-38
0.019021153 -0.12513812 0.013679614 1.3920803e-38
0.020932302 -0.12513812 0.013679614 1.8254016e-38
0.022843443 -0.12513812 0.013679614 2.0835496e-38
0.024754591 -0.12513812 0.013679614 2.341769e-38
0.026665732 -0.12513812 0.013679614 2.3417687e-38
0.028576884 -0.12513812 0.013679614 2.341805e-38
0.030488018 -0.12513812 0.013679614 2.341805e-38
0.032399166 -0.12513812 0.013679614 2.341805e-38
0.034310315 -0.12513812 0.013679614 2.3142174e-38
0.035977188 -0.12440531 0.01661252 2.341804e-38
0.037883196 -0.12440531 0.01661252 2.3326206e-38
0.039789204 -0.12440531 0.01661252 2.3418043e-38
0.041695196 -0.12440531 0.01661252 2.3418043e-38
0.043601204 -0.12440531 0.01661252 2.2865587e-38
0.046146709 -0.12614109 0.0096652415 1.5582132e-38
0.048064891 -0.12614109 0.0096652415 7.4689166e-39
-0.065494098 -0.138135 -0.030380854 2.3509504e-38
-0.063505702 -0.138135 -0.030380854 2.3509869e-38
-0.061517302 -0.138135 -0.030380854 2.2955256e-38
-0.059528906 -0.138135 -0.030380854 1.9820607e-38
-0.057540506 -0.138135 -0.030380854 2.2402085e-38
-0.05555211 -0.138135 -0.030380854 2.2678316e-38
-0.053563714 -0.138135 -0.030380854 2.3509521e-38
-0.051575318 -0.138135 -0.030380854 2.0928042e-38
-0.049586918 -0.138135 -0.030380854 2.0467783e-38
-0.047598522 -0.138135 -0.030380854 2.2496085e-38
-0.045610122 -0.138135 -0.030380854 2.341804e-38
-0.043621726 -0.138135 -0.030380854 1.9822409e-38
-0.04163333 -0.138135 -0.030380854 1.7978134e-38
-0.039644934 -0.138135 -0.030380854 6.2682098e-39
-0.037820041 -0.13537462 -0.019409666 7.0965286e-39
-0.036034204 -0.13260551 -0.0084037874 3.5001801e-39
-0.034084339 -0.13260551 -0.0084037874 6.726667e-39
-0.032134473 -0.13260551 -0.0084037874 1.9726614e-38
-0.03018461 -0.13260551 -0.0084037874 2.3508074e-38
-0.028234746 -0.13260551 -0.0084037874 2.3509517e-38
-0.026284881 -0.13260551 -0.0084037874 2.2494643e-38
-0.024335017 -0.13260551 -0.0084037874 2.3509876e-38
-0.022501633 -0.13159247 -0.0043774936 2.1295384e-38
-0.02055883 -0.13159247 -0.0043774936 1.7484618e-39
-0.018616024 -0.13159247 -0.0043774936 3.312535e-39
-0.016776841 -0.13082992 -0.0013467167 1.999737e-38
-0.014839351 -0.13082992 -0.0013467167 2.3503337e-38
-0.012901861 -0.13082992 -0.0013467167 2.3502264e-38
-0.011121199 -0.12982969 0.0026286747 2.0183942e-38
-0.0091906786 -0.12982969 0.0026286747 5.9890656e-39
-0.0072601587 -0.12982969 0.0026286747 9.8623848e-39
-0.0055060983 -0.12883668 0.0065754559 1.0139336e-38
-0.0035824962 -0.12883668 0.0065754559 1.4011544e-38
-0.0016588978 -0.12883668 0.0065754559 1.4378532e-38
0.00026470423 -0.12883668 0.0065754559 1.1980377e-38
0.0020284913 -0.12805928 0.0096652415 3.3143483e-39
0.0039466731 -0.12805928 0.0096652415 1.4288128e-38
0.0058648586 -0.12805928 0.0096652415 2.304636e-38
0.007554289 -0.12704925 0.013679614 2.3508085e-38
0.0094654337 -0.12704925 0.013679614 2.0737529e-38
0.011376575 -0.12704925 0.013679614 1.6038389e-38
0.013287723 -0.12704925 0.013679614 1.8806757e-38
0.015198864 -0.12704925 0.013679614 1.8253947e-38
0.017110012 -0.12704925 0.013679614 1.1338933e-38
0.019021153 -0.12704925 0.013679614 1.1891779e-38
0.020932302 -0.12704925 0.013679614 1.8806464e-38
0.022843443 -0.12704925 0.013679614 2.0465988e-38
0.024754591 -0.12704925 0.013679614 2.3416248e-38
0.026665732 -0.12704925 0.013679614 2.3509523e-38
0.028576884 -0.12704925 0.013679614 2.3509527e-38
0.030488018 -0.12704925 0.013679614 2.3141106e-38
0.032399166 -0.12704925 0.013679614 2.3418047e-38
0.034071196 -0.12631132 0.01661252 2.3418038e-38
0.035977188 -0.12631132 0.01661252 2.3418035e-38
0.037625227 -0.12554805 0.019646158 2.3509876e-38
0.039525915 -0.12554805 0.019646158 2.3509879e-38
0.041426588 -0.12554805 0.019646158 2.323365e-38
0.043327276 -0.12554805 0.019646158 2.2496085e-38
0.045507211 -0.12631132 0.01661252 1.3092493e-38
0.047688324 -0.12704925 0.013679614 6.2700161e-39
-0.06760852 -0.14292495 -0.041438587 1.5946947e-38
-0.065494098 -0.14012341 -0.030380854 2.2399923e-38
-0.063505702 -0.14012341 -0.030380854 2.3508071e-38
-0.061517302 -0.14012341 -0.030380854 2.1938945e-38
-0.059528906 -0.14012341 -0.030380854 1.7421359e-38
-0.057540506 -0.14012341 -0.030380854 1.6960381e-38
-0.05555211 -0.14012341 -0.030380854 2.3322598e-38
-0.053563714 -0.14012341 -0.030380854 2.350987e-38
-0.051575318 -0.14012341 -0.030380854 1.8991207e-38
-0.049586918 -0.14012341 -0.030380854 1.8622424e-38
-0.047598522 -0.14012341 -0.030380854 2.1941823e-38
-0.045610122 -0.14012341 -0.030380854 2.1296453e-38
-0.043621726 -0.14012341 -0.030380854 1.926815e-38
-0.041679602 -0.13909473 -0.026320586 1.4750564e-38
-0.039698325 -0.13909473 -0.026320586 6.0834556e-39
-0.037820041 -0.13734378 -0.019409666 6.2678497e-39
-0.036034204 -0.13455538 -0.0084037874 2.7633367e-39
-0.034084339 -0.13455538 -0.0084037874 1.9335789e-39
-0.032134473 -0.13455538 -0.0084037874 1.4932807e-38
-0.03018461 -0.13455538 -0.0084037874 1.8897943e-38
-0.028234746 -0.13455538 -0.0084037874 2.3138942e-38
-0.026284881 -0.13455538 -0.0084037874 2.2770163e-38
-0.024444439 -0.13353528 -0.0043774936 2.277016e-38
-0.022501633 -0.13353528 -0.0043774936 1.3549509e-38
-0.02055883 -0.13353528 -0.0043774936 1.8377861e-39
-0.018714331 -0.13276742 -0.0013467167 2.5713939e-39
-0.016776841 -0.13276742 -0.0013467167 1.621343e-38
-0.014982238 -0.13176022 0.0026286747 2.3496478e-38
-0.013051718 -0.13176022 0.0026286747 2.3126964e-38
-0.011121199 -0.13176022 0.0026286747 2.0454395e-38
-0.0091906786 -0.13176022 0.0026286747 1.3910686e-38
-0.0072601587 -0.13176022 0.0026286747 1.5021372e-38
-0.0055060983 -0.13076027 0.0065754559 1.5024974e-38
-0.0035824962 -0.13076027 0.0065754559 1.5580658e-38
-0.0016588978 -0.13076027 0.0065754559 1.4751992e-38
0.00026470423 -0.13076027 0.0065754559 9.956426e-39
0.0020284913 -0.12997745 0.0096652415 2.5223372e-44
0.0039466731 -0.12997745 0.0096652415 2.3041719e-39
0.0058648586 -0.12997745 0.0096652415 1.2720819e-38
0.007554289 -0.12896039 0.013679614 2.2488867e-38
0.0094654337 -0.12896039 0.013679614 2.0828612e-38
0.011376575 -0.12896039 0.013679614 1.7142928e-38
0.013287723 -0.12896039 0.013679614 1.6591187e-38
0.015198864 -0.12896039 0.013679614 1.4933107e-38
0.017110012 -0.12896039 0.013679614 1.0692839e-38
0.019021153 -0.12896039 0.013679614 1.1153477e-38
0.020932302 -0.12896039 0.013679614 1.5024988e-38
0.022843443 -0.12896039 0.013679614 1.8343682e-38
0.024754591 -0.12896039 0.013679614 2.3508807e-38
0.026964873 -0.12997745 0.0096652415 2.3507373e-38
0.028576884 -0.12896039 0.013679614 2.3507732e-38
0.030488018 -0.12896039 0.013679614 2.3509527e-38
0.032399166 -0.12896039 0.013679614 2.3509879e-38
0.034071196 -0.12821732 0.01661252 2.3418033e-38
0.035977188 -0.12821732 0.01661252 2.3418033e-38
0.037625227 -0.12744872 0.019646158 2.3509873e-38
0.039525915 -0.12744872 0.019646158 2.350916e-38
0.041426588 -0.12744872 0.019646158 2.3509879e-38
0.043327276 -0.12744872 0.019646158 1.8899738e-38
0.045507211 -0.12821732 0.01661252 1.2722997e-38
0.047413204 -0.12821732 0.01661252 7.6526002e-39
-0.06760852 -0.14493273 -0.041438587 1.1244253e-38
-0.06560073 -0.14493273 -0.041438587 1.4286709e-38
-0.063536957 -0.14312236 -0.034342058 1.6498323e-38
-0.061541609 -0.14312236 -0.034342058 1.5391976e-38
-0.059528906 -0.14211179 -0.030380854 1.1059137e-38
-0.057540506 -0.14211179 -0.030380854 1.2349876e-38
-0.05555211 -0.14211179 -0.030380854 2.1109181e-38
-0.053563714 -0.14211179 -0.030380854 2.0557448e-38
-0.051575318 -0.14211179 -0.030380854 1.5579604e-38
-0.049586918 -0.14211179 -0.030380854 1.4565452e-38
-0.047598522 -0.14211179 -0.030380854 1.714693e-38
-0.045610122 -0.14211179 -0.030380854 1.6685952e-38
-0.043621726 -0.14211179 -0.030380854 1.5856191e-38
-0.041679602 -0.14107598 -0.026320586 1.2629345e-38
-0.039698325 -0.14107598 -0.026320586 4.6083255e-39
-0.037820041 -0.13931294 -0.019409666 5.7146759e-39
-0.035917211 -0.13829704 -0.01542748 3.0406467e-39
-0.034030091 -0.13725694 -0.011350403 3.6734198e-40
-0.032134473 -0.13650523 -0.0084037874 1.3807736e-39
-0.030272853 -0.13547809 -0.0043774936 6.4321141e-40
-0.028330049 -0.13547809 -0.0043774936 1.1041924e-39
-0.026387243 -0.13547809 -0.0043774936 1.0116408e-39
-0.024444439 -0.13547809 -0.0043774936 5.5101298e-40
-0.022589315 -0.1347049 -0.0013467167 6.4284847e-40
-0.020651825 -0.1347049 -0.0013467167 1.1938615e-39
-0.018714331 -0.1347049 -0.0013467167 3.3078869e-39
-0.016776841 -0.1347049 -0.0013467167 8.5597714e-39
-0.014982238 -0.13369073 0.0026286747 1.5197069e-38
-0.013051718 -0.13369073 0.0026286747 2.1465631e-38
-0.011121199 -0.13369073 0.0026286747 2.1281633e-38
-0.0093532987 -0.13268389 0.0065754559 1.4829761e-38
-0.0074296966 -0.13268389 0.0065754559 1.5941167e-38
-0.0055060983 -0.13268389 0.0065754559 2.0463075e-38
-0.0035824962 -0.13268389 0.0065754559 1.8993691e-38
-0.0016588978 -0.13268389 0.0065754559 1.8442341e-38
0.00011030585 -0.13189565 0.0096652415 1.2170576e-38
0.0020284913 -0.13189565 0.0096652415 4.2038954e-44
0.0037319995 -0.13087155 0.013679614 3.6879934e-40
0.0056431442 -0.13087155 0.013679614 1.7491848e-39
0.0073871613 -0.13012333 0.01661252 1.5482707e-38
0.0092931613 -0.13012333 0.01661252 1.8246757e-38
0.011376575 -0.13087155 0.013679614 1.5758914e-38
0.013287723 -0.13087155 0.013679614 1.3455819e-38
0.015198864 -0.13087155 0.013679614 1.0322612e-38
0.017110012 -0.13087155 0.013679614 4.4235363e-39
0.019021153 -0.13087155 0.013679614 5.3447864e-39
0.020932302 -0.13087155 0.013679614 1.1889971e-38
0.022843443 -0.13087155 0.013679614 1.3640263e-38
0.025046691 -0.13189565 0.0096652415 2.2582532e-38
0.026665732 -0.13087155 0.013679614 2.3507016e-38
0.028576884 -0.13087155 0.013679614 2.3508092e-38
0.030488018 -0.13087155 0.013679614 2.3322255e-38
0.032165188 -0.13012333 0.01661252 2.3509876e-38
0.034071196 -0.13012333 0.01661252 2.3142523e-38
0.035724539 -0.12934943 0.019646158 2.3509866e-38
0.037625227 -0.12934943 0.019646158 2.3047814e-38
0.039183829 -0.1283439 0.023587694 2.3508437e-38
0.041077603 -0.1283439 0.023587694 2.350916e-38
0.042971376 -0.1283439 0.023587694 1.6317185e-38
0.045227963 -0.12934943 0.019646158 1.0509586e-38
0.047413204 -0.13012333 0.01661252 7.8369943e-39
-0.06560073 -0.14694051 -0.041438587 1.1797787e-38
-0.063536957 -0.14511769 -0.034342058 1.2350599e-38
-0.061541609 -0.14511769 -0.034342058 1.2442795e-38
-0.059546269 -0.14511769 -0.034342058 1.0691078e-38
-0.057550926 -0.14511769 -0.034342058 1.2074012e-38
-0.05555211 -0.1441002 -0.030380854 1.8712816e-38
-0.053563714 -0.1441002 -0.030380854 1.7607188e-38
-0.051575318 -0.1441002 -0.030380854 1.401228e-38
-0.049586918 -0.1441002 -0.030380854 1.336691e-38
-0.047598522 -0.1441002 -0.030380854 1.5210823e-38
-0.045610122 -0.1441002 -0.030380854 1.4749843e-38
-0.043621726 -0.1441002 -0.030380854 1.4288865e-38
-0.041679602 -0.14305727 -0.026320586 1.1246411e-38
-0.039698325 -0.14305727 -0.026320586 3.3175867e-39
-0.037820041 -0.1412821 -0.019409666 3.1331983e-39
-0.035917211 -0.14025922 -0.01542748 2.8562554e-39
-0.03395503 -0.14025922 -0.01542748 1.6577151e-39
-0.032134473 -0.13845511 -0.0084037874 3.6734198e-40
-0.030272853 -0.13742088 -0.0043774936 3.6734198e-40
-0.028330049 -0.13742088 -0.0043774936 3.6734479e-40
-0.026387243 -0.13742088 -0.0043774936 1.6570102e-39
-0.024526805 -0.13664238 -0.0013467167 3.6734198e-40
-0.022589315 -0.13664238 -0.0013467167 1.1034623e-39
-0.020651825 -0.13664238 -0.0013467167 1.1938615e-39
-0.018714331 -0.13664238 -0.0013467167 2.0203809e-39
-0.016776841 -0.13664238 -0.0013467167 4.7811883e-39
-0.014982238 -0.13562126 0.0026286747 1.0403628e-38
-0.013051718 -0.13562126 0.0026286747 1.5381812e-38
-0.011121199 -0.13562126 0.0026286747 1.5657708e-38
-0.0093532987 -0.13460748 0.0065754559 1.4830847e-38
-0.0074296966 -0.13460748 0.0065754559 1.4834462e-38
-0.0055060983 -0.13460748 0.0065754559 1.7052202e-38
-0.0035824962 -0.13460748 0.0065754559 1.7518209e-38
-0.0016588978 -0.13460748 0.0065754559 1.4754518e-38
0.00011030585 -0.13381381 0.0096652415 9.6816482e-39
0.0020284913 -0.13381381 0.0096652415 2.9506595e-39
0.0037319995 -0.13278268 0.013679614 1.751731e-39
0.0056431442 -0.13278268 0.013679614 1.2892857e-39
0.0073871613 -0.13202934 0.01661252 1.2901591e-38
0.0092931613 -0.13202934 0.01661252 1.5850397e-38
0.011376575 -0.13278268 0.013679614 1.2993771e-38
0.013287723 -0.13278268 0.013679614 1.1520076e-38
0.015198864 -0.13278268 0.013679614 1.069176e-38
0.017110012 -0.13278268 0.013679614 5.0685512e-39
0.019021153 -0.13278268 0.013679614 4.2384416e-39
0.020932302 -0.13278268 0.013679614 1.0230453e-38
0.022843443 -0.13278268 0.013679614 1.2256973e-38
0.024754591 -0.13278268 0.013679614 2.2582532e-38
0.026665732 -0.13278268 0.013679614 2.3506654e-38
0.028576884 -0.13278268 0.013679614 2.2767649e-38
0.030488018 -0.13278268 0.013679614 2.0187603e-38
0.032165188 -0.13202934 0.01661252 2.3508795e-38
0.034071196 -0.13202934 0.01661252 2.3233999e-38
0.035724539 -0.1312501 0.019646158 2.3509869e-38
0.037625227 -0.1312501 0.019646158 2.3509509e-38
0.039183829 -0.13023765 0.023587694 2.3509517e-38
0.041077603 -0.13023765 0.023587694 2.350952e-38
0.042971376 -0.13023765 0.023587694 1.345912e-38
0.044865135 -0.13023765 0.023587694 8.6656703e-39
-0.06560073 -0.14894833 -0.041438587 8.5709426e-39
-0.063536957 -0.14711304 -0.034342058 7.9255704e-39
-0.061541609 -0.14711304 -0.034342058 8.3865485e-39
-0.059546269 -0.14711304 -0.034342058 8.2021572e-39
-0.057550926 -0.14711304 -0.034342058 8.3861884e-39
-0.055555582 -0.14711304 -0.034342058 1.1705591e-38
-0.053560242 -0.14711304 -0.034342058 1.2721541e-38
-0.051575318 -0.14608859 -0.030380854 1.0693237e-38
-0.049586918 -0.14608859 -0.030380854 1.041665e-38
-0.047598522 -0.14608859 -0.030380854 1.1707389e-38
-0.045610122 -0.14608859 -0.030380854 1.1338605e-38
-0.043621726 -0.14608859 -0.030380854 1.1338605e-38
-0.041679602 -0.14503856 -0.026320586 8.6649333e-39
-0.039698325 -0.14503856 -0.026320586 1.2892843e-39
-0.037820041 -0.14325126 -0.019409666 2.4874729e-39
-0.03598512 -0.141167 -0.011350403 1.7499079e-39
-0.034030091 -0.141167 -0.011350403 1.3811296e-39
-0.032134473 -0.14040495 -0.0084037874 3.6734198e-40
-0.030272853 -0.13936369 -0.0043774936 1.4729721e-39
-0.028330049 -0.13936369 -0.0043774936 3.6734198e-40
-0.026387243 -0.13936369 -0.0043774936 5.5102138e-40
-0.024526805 -0.13857989 -0.0013467167 3.6734479e-40
-0.022589315 -0.13857989 -0.0013467167 3.6734198e-40
-0.020651825 -0.13857989 -0.0013467167 9.1835496e-40
-0.018843282 -0.1375518 0.0026286747 2.2962475e-39
-0.016912762 -0.1375518 0.0026286747 4.4138477e-39
-0.015124101 -0.13653107 0.0065754559 9.1139808e-39
-0.013316974 -0.13573201 0.0096652415 1.4275844e-38
-0.011398792 -0.13573201 0.0096652415 1.1695105e-38
-0.0094806068 -0.13573201 0.0096652415 8.4707932e-39
-0.007562425 -0.13573201 0.0096652415 7.2758653e-39
-0.0056442432 -0.13573201 0.0096652415 6.2660378e-39
-0.0037260577 -0.13573201 0.0096652415 8.0217106e-39
-0.0018078759 -0.13573201 0.0096652415 7.1934059e-39
0.00011030585 -0.13573201 0.0096652415 5.9941733e-39
0.0020284913 -0.13573201 0.0096652415 6.9157793e-39
0.0037319995 -0.13469382 0.013679614 8.8511476e-39
0.0056431442 -0.13469382 0.013679614 1.1246414e-38
0.0073871613 -0.13393532 0.01661252 1.4745869e-38
0.0092931613 -0.13393532 0.01661252 1.5851484e-38
0.011376575 -0.13469382 0.013679614 1.2810463e-38
0.013287723 -0.13469382 0.013679614 1.0968348e-38
0.015198864 -0.13469382 0.013679614 8.2953982e-39
0.017110012 -0.13469382 0.013679614 2.1186736e-39
0.019021153 -0.13469382 0.013679614 2.1183149e-39
0.020932302 -0.13469382 0.013679614 8.1103161e-39
0.022843443 -0.13469382 0.013679614 8.939009e-39
0.024754591 -0.13469382 0.013679614 1.8710315e-38
0.026665732 -0.13469382 0.013679614 1.9171299e-38
0.028576884 -0.13469382 0.013679614 1.7328106e-38
0.030488018 -0.13469382 0.013679614 1.5485266e-38
0.032165188 -0.13393532 0.01661252 2.2678316e-38
0.034071196 -0.13393532 0.01661252 2.3417673e-38
0.035977188 -0.13393532 0.01661252 2.3509869e-38
0.037625227 -0.13315077 0.019646158 2.350987e-38
0.039525915 -0.13315077 0.019646158 2.3509876e-38
0.041077603 -0.13213144 0.023587694 2.2863429e-38
0.042971376 -0.13213144 0.023587694 1.1247501e-38
0.044865135 -0.13213144 0.023587694 8.2976067e-39
-0.063561305 -0.14991184 -0.03742791 7.7419008e-39
-0.061560549 -0.14991184 -0.03742791 7.5575095e-39
-0.059546269 -0.14910837 -0.034342058 6.6355532e-39
-0.057550926 -0.14910837 -0.034342058 5.9894649e-39
-0.055555582 -0.14910837 -0.034342058 8.2950745e-39
-0.053560242 -0.14910837 -0.034342058 1.0232262e-38
-0.051575318 -0.148077 -0.030380854 8.9418831e-39
-0.049586918 -0.148077 -0.030380854 8.4812609e-39
-0.047598522 -0.148077 -0.030380854 9.0344346e-39
-0.04564216 -0.14701982 -0.026320586 8.942239e-39
-0.043660879 -0.14701982 -0.026320586 9.9563909e-39
-0.041679602 -0.14701982 -0.026320586 8.8500434e-39
-0.039698325 -0.14701982 -0.026320586 2.8573274e-39
-0.037879393 -0.14418359 -0.01542748 2.3038005e-39
-0.036034204 -0.14235483 -0.0084037874 5.5208917e-40
-0.034084339 -0.14235483 -0.0084037874 2.7550649e-40
-0.032134473 -0.14235483 -0.0084037874 2.7550649e-40
-0.030272853 -0.1413065 -0.0043774936 9.2051717e-40
-0.028330049 -0.1413065 -0.0043774936 3.6734339e-40
-0.026387243 -0.1413065 -0.0043774936 2.7551209e-40
-0.024526805 -0.14051737 -0.0013467167 7.3576998e-40
-0.022704322 -0.1394823 0.0026286747 2.7550649e-40
-0.020773802 -0.1394823 0.0026286747 1.1956579e-39
-0.018843282 -0.1394823 0.0026286747 2.1143688e-39
-0.016912762 -0.1394823 0.0026286747 3.1252767e-39
-0.015235156 -0.13765021 0.0096652415 4.7833379e-39
-0.013316974 -0.13765021 0.0096652415 1.1696547e-38
-0.011398792 -0.13765021 0.0096652415 1.1512526e-38
-0.0094806068 -0.13765021 0.0096652415 6.7201636e-39
-0.007562425 -0.13765021 0.0096652415 5.2490062e-39
-0.0056442432 -0.13765021 0.0096652415 5.6210341e-39
-0.0039125793 -0.13660498 0.013679614 4.1487893e-39
-0.0020014346 -0.13660498 0.013679614 5.994511e-39
0.00011030585 -0.13765021 0.0096652415 5.3484367e-39
0.0020284913 -0.13765021 0.0096652415 5.993809e-39
0.0037319995 -0.13660498 0.013679614 1.1063839e-38
0.0056431442 -0.13660498 0.013679614 1.0969471e-38
0.0073871613 -0.13584132 0.01661252 1.6406117e-38
0.0092931613 -0.13584132 0.01661252 1.419233e-38
0.011376575 -0.13660498 0.013679614 1.1520096e-38
0.013287723 -0.13660498 0.013679614 1.1060915e-38
0.015198864 -0.13660498 0.013679614 7.2816135e-39
0.017110012 -0.13660498 0.013679614 1.4736727e-39
0.019021153 -0.13660498 0.013679614 2.4874547e-39
0.020932302 -0.13660498 0.013679614 7.1883626e-39
0.022635177 -0.13584132 0.01661252 8.6624249e-39
0.024541184 -0.13584132 0.01661252 1.7327381e-38
0.026665732 -0.13660498 0.013679614 1.7787646e-38
0.028353184 -0.13584132 0.01661252 1.5575666e-38
0.030259181 -0.13584132 0.01661252 1.3917219e-38
0.032165188 -0.13584132 0.01661252 2.2493204e-38
0.033823866 -0.13505147 0.019646158 2.3509509e-38
0.035724539 -0.13505147 0.019646158 2.3509869e-38
0.037625227 -0.13505147 0.019646158 2.2956695e-38
0.039183829 -0.1340252 0.023587694 2.102059e-38
0.040812422 -0.13324542 0.026582589 1.9729854e-38
0.042700935 -0.13324542 0.026582589 9.404306e-39
