# .PCD v0.7 - Point Cloud Data file format
VERSION 0.7
FIELDS x y z rgb
SIZE 4 4 4 4
TYPE F F F F
COUNT 1 1 1 1
WIDTH 644
HEIGHT 1
VIEWPOINT 0 0 0 1 0 0 0
POINTS 644
DATA ascii
-0.0025549503 -0.10962458 -0.007520495 3.2264799e-39
-0.00067345146 -0.10962458 -0.007520495 4.240636e-39
-0.0062090969 -0.11247168 -0.011525808 3.8725682e-39
-0.0043205759 -0.11247168 -0.011525808 4.425379e-39
-0.0025549503 -0.11150609 -0.007520495 3.7796537e-39
-0.00067345146 -0.11150609 -0.007520495 3.8718535e-39
-0.0062090969 -0.1143602 -0.011525808 4.5183047e-39
-0.0043205759 -0.1143602 -0.011525808 3.687814e-39
-0.002432053 -0.1143602 -0.011525808 3.5023437e-39
-0.00054353196 -0.1143602 -0.011525808 3.8718535e-39
-0.0080976179 -0.11624874 -0.011525808 1.7979235e-38
-0.0062090969 -0.11624874 -0.011525808 2.7662318e-39
-0.0043205759 -0.11624874 -0.011525808 3.226833e-39
-0.002432053 -0.11624874 -0.011525808 4.0558706e-39
-0.00054353196 -0.11624874 -0.011525808 4.5172187e-39
0.0013449891 -0.11624874 -0.011525808 8.4812791e-39
0.0033411561 -0.11698125 -0.014520703 1.1523383e-38
0.0052349297 -0.11698125 -0.014520703 2.3509168e-38
0.0071287034 -0.11698125 -0.014520703 2.3509168e-38
0.01502788 -0.11868732 -0.021495877 1.327438e-38
0.016933884 -0.11868732 -0.021495877 1.5671465e-38
-0.021147594 -0.12131582 -0.024428783 2.3507355e-38
-0.019236449 -0.12131582 -0.024428783 2.1571248e-38
-0.0099861389 -0.11813726 -0.011525808 1.7333141e-38
-0.0080976179 -0.11813726 -0.011525808 1.1525898e-38
-0.0062090969 -0.11813726 -0.011525808 4.0573238e-39
-0.0043205759 -0.11813726 -0.011525808 2.858405e-39
-0.002432053 -0.11813726 -0.011525808 4.3328092e-39
-0.00054353196 -0.11813726 -0.011525808 3.963675e-39
0.0013449891 -0.11813726 -0.011525808 7.8362614e-39
0.0033411561 -0.11887501 -0.014520703 1.2630085e-38
0.0052349297 -0.11887501 -0.014520703 2.314075e-38
0.0071287034 -0.11887501 -0.014520703 2.3048556e-38
0.0090224734 -0.11887501 -0.014520703 1.3644604e-38
0.010916247 -0.11887501 -0.014520703 7.3752987e-39
0.012986246 -0.119846 -0.018462239 7.5593284e-39
0.01488693 -0.119846 -0.018462239 1.4104136e-38
0.016787611 -0.119846 -0.018462239 1.5948049e-38
0.018688295 -0.119846 -0.018462239 1.4011225e-38
0.020588979 -0.119846 -0.018462239 9.7691466e-39
0.022489663 -0.119846 -0.018462239 7.1869515e-39
0.024390347 -0.119846 -0.018462239 5.1593651e-39
-0.024969883 -0.12322696 -0.024428783 2.1200656e-38
-0.023058739 -0.12322696 -0.024428783 2.2951655e-38
-0.021186162 -0.1224993 -0.021495877 2.0738959e-38
-0.019280158 -0.1224993 -0.021495877 1.8987245e-38
-0.017424688 -0.12174667 -0.018462239 1.7051499e-38
-0.015524005 -0.12174667 -0.018462239 1.9450027e-38
-0.0099861389 -0.12002577 -0.011525808 1.4751273e-39
-0.0081994468 -0.11903207 -0.007520495 1.4758461e-39
-0.006317948 -0.11903207 -0.007520495 1.937176e-39
-0.0043205759 -0.12002577 -0.011525808 3.5963204e-39
-0.002432053 -0.12002577 -0.011525808 3.6877916e-39
-0.00054353196 -0.12002577 -0.011525808 1.5669432e-39
0.0013449891 -0.12002577 -0.011525808 4.5175719e-39
0.0032335101 -0.12002577 -0.011525808 1.2630436e-38
0.0051220311 -0.12002577 -0.011525808 2.3509886e-38
0.0070105521 -0.12002577 -0.011525808 2.3509527e-38
0.0088990731 -0.12002577 -0.011525808 1.1985079e-38
0.010916247 -0.1207688 -0.014520703 6.7302838e-39
0.012810021 -0.1207688 -0.014520703 4.0566077e-39
0.014703791 -0.1207688 -0.014520703 7.0054287e-39
0.016597565 -0.1207688 -0.014520703 7.742991e-39
0.018688295 -0.12174667 -0.018462239 1.0691456e-38
0.020588979 -0.12174667 -0.018462239 1.5854411e-38
0.022489663 -0.12174667 -0.018462239 1.4470764e-38
0.024390347 -0.12174667 -0.018462239 7.9255872e-39
0.026066426 -0.1207688 -0.014520703 6.7302698e-39
0.027196087 -0.1175413 -0.0015116315 7.4685509e-39
0.028822474 -0.11653815 0.0025317091 7.1912451e-39
0.030686349 -0.11653815 0.0025317091 6.2692888e-39
-0.024969883 -0.12513812 -0.024428783 2.0737517e-38
-0.023058739 -0.12513812 -0.024428783 2.211901e-38
-0.021186162 -0.12440531 -0.021495877 1.935314e-38
-0.019280158 -0.12440531 -0.021495877 1.2438467e-38
-0.017490339 -0.12266256 -0.014520703 1.8709211e-38
-0.015596568 -0.12266256 -0.014520703 1.8434066e-38
-0.013763183 -0.12191428 -0.011525808 2.6700551e-39
-0.01187466 -0.12191428 -0.011525808 1.5647908e-39
-0.0099861389 -0.12191428 -0.011525808 1.751703e-39
-0.0081994468 -0.12091358 -0.007520495 1.7520659e-39
-0.006317948 -0.12091358 -0.007520495 4.2416996e-39
-0.0044364491 -0.12091358 -0.007520495 2.2126615e-39
-0.002432053 -0.12191428 -0.011525808 1.9357201e-39
-0.00054353196 -0.12191428 -0.011525808 2.1201099e-39
0.0013449891 -0.12191428 -0.011525808 4.9789017e-39
0.0032335101 -0.12191428 -0.011525808 1.2169812e-38
0.0051220311 -0.12191428 -0.011525808 2.231134e-38
0.0070105521 -0.12191428 -0.011525808 2.341805e-38
0.0088990731 -0.12191428 -0.011525808 1.0511021e-38
0.010787598 -0.12191428 -0.011525808 6.8224738e-39
0.012810021 -0.12266256 -0.014520703 3.1350045e-39
0.014703791 -0.12266256 -0.014520703 2.6722285e-39
0.016597565 -0.12266256 -0.014520703 2.4881946e-39
0.018491339 -0.12266256 -0.014520703 7.003984e-39
0.020385109 -0.12266256 -0.014520703 1.5670373e-38
0.022278883 -0.12266256 -0.014520703 1.4378562e-38
0.024172656 -0.12266256 -0.014520703 9.2166791e-39
0.026066426 -0.12266256 -0.014520703 7.7444189e-39
0.027196087 -0.11941226 -0.0015116315 9.1280694e-39
0.028822474 -0.11840202 0.0025317091 8.4827e-39
0.030686349 -0.11840202 0.0025317091 6.4543961e-39
0.032550223 -0.11840202 0.0025317091 5.9005035e-39
-0.023092164 -0.12631132 -0.021495877 1.1885295e-38
-0.021186162 -0.12631132 -0.021495877 1.3267868e-38
-0.019325372 -0.12554805 -0.018462239 1.6126293e-38
-0.017490339 -0.12455635 -0.014520703 1.6496156e-38
-0.015651703 -0.12380283 -0.011525808 1.6681629e-38
-0.013843943 -0.12279506 -0.007520495 1.3793261e-39
-0.011962445 -0.12279506 -0.007520495 9.2050736e-40
-0.010080946 -0.12279506 -0.007520495 5.2551369e-39
-0.0081994468 -0.12279506 -0.007520495 5.6250012e-39
-0.006317948 -0.12279506 -0.007520495 4.5190068e-39
-0.0044364491 -0.12279506 -0.007520495 4.1484152e-39
-0.002432053 -0.12380283 -0.011525808 7.2827023e-39
-0.00054353196 -0.12380283 -0.011525808 1.5487759e-38
0.0013449891 -0.12380283 -0.011525808 2.065108e-38
0.0032335101 -0.12380283 -0.011525808 2.2034744e-38
0.0051220311 -0.12380283 -0.011525808 2.350988e-38
0.0070105521 -0.12380283 -0.011525808 2.2680841e-38
0.0088990731 -0.12380283 -0.011525808 6.1785463e-39
0.010787598 -0.12380283 -0.011525808 2.7680297e-39
0.012676119 -0.12380283 -0.011525808 1.5694837e-39
0.014703791 -0.12455635 -0.014520703 2.0290199e-39
0.016597565 -0.12455635 -0.014520703 1.9364614e-39
0.018491339 -0.12455635 -0.014520703 3.7789334e-39
0.020385109 -0.12455635 -0.014520703 9.8620471e-39
0.022278883 -0.12455635 -0.014520703 9.4921828e-39
0.024172656 -0.12455635 -0.014520703 1.0138268e-38
0.026066426 -0.12455635 -0.014520703 8.7578478e-39
0.027368739 -0.12202276 -0.004450975 1.0326613e-38
0.029244855 -0.12202276 -0.004450975 9.5890504e-39
0.031120971 -0.12202276 -0.004450975 6.9146582e-39
-0.023171658 -0.12645011 -0.014520703 3.5894961e-39
-0.021277886 -0.12645011 -0.014520703 1.492884e-38
-0.019384112 -0.12645011 -0.014520703 1.7325926e-38
-0.017540224 -0.12569134 -0.011525808 1.5021756e-38
-0.015651703 -0.12569134 -0.011525808 1.1150981e-38
-0.013843943 -0.12467657 -0.007520495 2.1179701e-39
-0.011962445 -0.12467657 -0.007520495 1.1981774e-39
-0.010080946 -0.12467657 -0.007520495 4.5193809e-39
-0.0081994468 -0.12467657 -0.007520495 3.7832578e-39
-0.006317948 -0.12467657 -0.007520495 6.7324362e-39
-0.0044364491 -0.12467657 -0.007520495 8.1128483e-39
-0.002432053 -0.12569134 -0.011525808 1.4288514e-38
-0.00054353196 -0.12569134 -0.011525808 2.2955259e-38
0.0013449891 -0.12569134 -0.011525808 2.3047454e-38
0.0032335101 -0.12569134 -0.011525808 2.3509879e-38
0.0051220311 -0.12569134 -0.011525808 2.3418043e-38
0.0070105521 -0.12569134 -0.011525808 2.1944721e-38
0.0088990731 -0.12569134 -0.011525808 1.4478318e-38
0.010787598 -0.12569134 -0.011525808 6.5512987e-39
0.012676119 -0.12569134 -0.011525808 1.2046753e-39
0.014703791 -0.12645011 -0.014520703 3.9698785e-42
0.016597565 -0.12645011 -0.014520703 6.4897215e-40
0.018491339 -0.12645011 -0.014520703 9.219535e-40
0.020385109 -0.12645011 -0.014520703 5.2518999e-39
0.022278883 -0.12645011 -0.014520703 8.8450001e-39
0.024172656 -0.12645011 -0.014520703 1.0043543e-38
0.026066426 -0.12645011 -0.014520703 9.0326368e-39
0.027784288 -0.12569134 -0.011525808 8.2053998e-39
0.029672809 -0.12569134 -0.011525808 9.4035871e-39
0.03156133 -0.12569134 -0.011525808 7.5589542e-39
-0.03264052 -0.1283439 -0.014520703 7.9313353e-39
-0.026959203 -0.1283439 -0.014520703 1.2889297e-39
-0.02506543 -0.1283439 -0.014520703 1.1023847e-39
-0.023171658 -0.1283439 -0.014520703 6.4490039e-39
-0.021277886 -0.1283439 -0.014520703 1.5206867e-38
-0.019384112 -0.1283439 -0.014520703 1.4745892e-38
-0.017540224 -0.12757985 -0.011525808 2.6689831e-39
-0.015725441 -0.12655805 -0.007520495 1.0105492e-39
-0.013843943 -0.12655805 -0.007520495 5.5137171e-40
-0.011962445 -0.12655805 -0.007520495 1.7517142e-39
-0.0099861389 -0.12757985 -0.011525808 1.2928968e-39
-0.0080976179 -0.12757985 -0.011525808 7.6558372e-39
-0.006317948 -0.12655805 -0.007520495 2.2867037e-38
-0.0044364491 -0.12655805 -0.007520495 2.3233302e-38
-0.0025549503 -0.12655805 -0.007520495 2.3323336e-38
-0.00054353196 -0.12757985 -0.011525808 2.3509521e-38
0.0013449891 -0.12757985 -0.011525808 2.3415884e-38
0.0032335101 -0.12757985 -0.011525808 2.3323688e-38
0.0051220311 -0.12757985 -0.011525808 2.350988e-38
0.0070105521 -0.12757985 -0.011525808 2.3142544e-38
0.0088990731 -0.12757985 -0.011525808 2.2223112e-38
0.010787598 -0.12757985 -0.011525808 1.9736717e-38
0.012676119 -0.12757985 -0.011525808 1.1162886e-38
0.014703791 -0.1283439 -0.014520703 7.1981115e-39
0.016597565 -0.1283439 -0.014520703 2.5251398e-42
0.018491339 -0.1283439 -0.014520703 5.5389265e-40
0.020385109 -0.1283439 -0.014520703 2.1172485e-39
0.022278883 -0.1283439 -0.014520703 8.198909e-39
0.024172656 -0.1283439 -0.014520703 9.5818435e-39
0.026066426 -0.1283439 -0.014520703 8.940444e-39
0.027784288 -0.12757985 -0.011525808 4.4250231e-39
0.029672809 -0.12757985 -0.011525808 5.0693149e-39
0.03156133 -0.12757985 -0.011525808 5.9912712e-39
-0.028852973 -0.13023765 -0.014520703 3.0420886e-39
-0.026959203 -0.13023765 -0.014520703 3.6734198e-40
-0.02506543 -0.13023765 -0.014520703 1.9328572e-39
-0.023171658 -0.13023765 -0.014520703 9.2155931e-39
-0.021277886 -0.13023765 -0.014520703 1.3455872e-38
-0.019384112 -0.13023765 -0.014520703 1.1980742e-38
-0.017540224 -0.1294684 -0.011525808 8.2651947e-40
-0.015725441 -0.12843956 -0.007520495 5.5101298e-40
-0.013843943 -0.12843956 -0.007520495 1.4736853e-39
-0.011962445 -0.12843956 -0.007520495 1.5669628e-39
-0.010080946 -0.12843956 -0.007520495 6.5466086e-39
-0.0081994468 -0.12843956 -0.007520495 1.1250028e-38
-0.006481248 -0.1268961 -0.0015116315 2.3142544e-38
-0.0046102861 -0.1268961 -0.0015116315 2.3509527e-38
-0.0026491331 -0.12765111 -0.004450975 2.3509168e-38
-0.00067345146 -0.12843956 -0.007520495 2.3507725e-38
0.0012080474 -0.12843956 -0.007520495 2.3509521e-38
0.0030895462 -0.12843956 -0.007520495 2.3508439e-38
0.0049710451 -0.12843956 -0.007520495 2.350952e-38
0.0068525439 -0.12843956 -0.007520495 2.277376e-38
0.0087340428 -0.12843956 -0.007520495 2.2867037e-38
0.010787598 -0.1294684 -0.011525808 2.2499695e-38
0.012676119 -0.1294684 -0.011525808 1.4941826e-38
0.014703791 -0.13023765 -0.014520703 1.042424e-38
0.016597565 -0.13023765 -0.014520703 1.0860063e-42
0.018491339 -0.13023765 -0.014520703 3.5873241e-43
0.020385109 -0.13023765 -0.014520703 5.5101298e-40
0.022278883 -0.13023765 -0.014520703 5.9865797e-39
0.024172656 -0.13023765 -0.014520703 7.9237669e-39
0.026066426 -0.13023765 -0.014520703 7.2809226e-39
0.027784288 -0.1294684 -0.011525808 2.0279367e-39
0.029672809 -0.1294684 -0.011525808 3.6867378e-39
0.03156133 -0.1294684 -0.011525808 6.8213892e-39
-0.03454043 -0.13032107 -0.007520495 9.4965016e-39
-0.032658931 -0.13032107 -0.007520495 8.6667423e-39
-0.030759875 -0.13135691 -0.011525808 7.1916109e-39
-0.026982833 -0.13135691 -0.011525808 3.6734198e-40
-0.025094312 -0.13135691 -0.011525808 3.8696871e-39
-0.023205789 -0.13135691 -0.011525808 9.2170308e-39
-0.021317268 -0.13135691 -0.011525808 8.6631382e-39
-0.019428745 -0.13135691 -0.011525808 5.8972693e-39
-0.017540224 -0.13135691 -0.011525808 2.4867527e-39
-0.015725441 -0.13032107 -0.007520495 1.1967369e-39
-0.013843943 -0.13032107 -0.007520495 3.6734198e-40
-0.011962445 -0.13032107 -0.007520495 9.1835496e-41
-0.010080946 -0.13032107 -0.007520495 1.6687409e-38
-0.0082774842 -0.12952723 -0.004450975 1.8993019e-38
-0.0065911328 -0.12772138 0.0025317091 2.2957075e-38
-0.0047272583 -0.12772138 0.0025317091 2.2034404e-38
-0.0028633857 -0.12772138 0.0025317091 2.3509168e-38
-0.00086835865 -0.12876706 -0.0015116315 2.3509168e-38
0.0012080474 -0.13032107 -0.007520495 2.3509165e-38
0.0030895462 -0.13032107 -0.007520495 2.3508801e-38
0.0049710451 -0.13032107 -0.007520495 2.3509521e-38
0.0068525439 -0.13032107 -0.007520495 2.341805e-38
0.0087340428 -0.13032107 -0.007520495 2.3142544e-38
0.010787598 -0.13135691 -0.011525808 2.2775202e-38
0.012676119 -0.13135691 -0.011525808 1.9181384e-38
0.014703791 -0.13213144 -0.014520703 1.4663798e-38
0.016453162 -0.13135691 -0.011525808 3.5066821e-39
0.018341683 -0.13135691 -0.011525808 8.3012361e-40
0.020588979 -0.13315077 -0.018462239 1.9343034e-39
0.022489663 -0.13315077 -0.018462239 3.498741e-39
0.024172656 -0.13213144 -0.014520703 6.3568055e-39
0.026066426 -0.13213144 -0.014520703 5.3455375e-39
0.027784288 -0.13135691 -0.011525808 2.5811105e-39
0.029672809 -0.13135691 -0.011525808 4.2399116e-39
0.03156133 -0.13135691 -0.011525808 7.8355411e-39
-0.038303427 -0.13220255 -0.007520495 8.4819867e-39
-0.036421929 -0.13220255 -0.007520495 8.5741824e-39
-0.03454043 -0.13220255 -0.007520495 9.5872581e-39
-0.032658931 -0.13220255 -0.007520495 7.6511499e-39
-0.030759875 -0.13324542 -0.011525808 7.8355411e-39
-0.028871354 -0.13324542 -0.011525808 2.5803902e-39
-0.026982833 -0.13324542 -0.011525808 2.7550649e-40
-0.025094312 -0.13324542 -0.011525808 5.8072345e-39
-0.023205789 -0.13324542 -0.011525808 7.6511471e-39
-0.021317268 -0.13324542 -0.011525808 4.7008869e-39
-0.019428745 -0.13324542 -0.011525808 1.6584311e-39
-0.017540224 -0.13324542 -0.011525808 2.7550649e-40
-0.015725441 -0.13220255 -0.007520495 2.7550649e-40
-0.013843943 -0.13220255 -0.007520495 6.4500367e-40
-0.011962445 -0.13220255 -0.007520495 3.6734198e-40
-0.010080946 -0.13220255 -0.007520495 1.9268524e-38
-0.0082774842 -0.13140334 -0.004450975 2.2033314e-38
-0.0065911328 -0.12958528 0.0025317091 2.3509527e-38
-0.0048144078 -0.12880091 0.0055441279 2.3417691e-38
-0.0030477243 -0.12802102 0.0085394997 2.3417691e-38
-0.0012909966 -0.12724553 0.011517944 2.3509527e-38
0.00041849818 -0.12618984 0.01557249 2.2863077e-38
0.0022595068 -0.12618984 0.01557249 2.3507725e-38
0.0041005155 -0.12618984 0.01557249 2.3509161e-38
0.0057060225 -0.12463553 0.021542134 2.3509883e-38
0.0072889803 -0.123071 0.027550997 2.341805e-38
0.010916247 -0.1340252 -0.014520703 2.2405344e-38
0.012810021 -0.1340252 -0.014520703 2.1669221e-38
0.014703791 -0.1340252 -0.014520703 1.7520418e-38
0.016453162 -0.13324542 -0.011525808 7.28634e-39
0.018341683 -0.13324542 -0.011525808 1.3833002e-39
0.020588979 -0.13505147 -0.018462239 6.4392747e-40
0.022489663 -0.13505147 -0.018462239 5.5101298e-40
0.024172656 -0.1340252 -0.014520703 2.5789483e-39
0.026066426 -0.1340252 -0.014520703 4.6086913e-39
0.027960196 -0.1340252 -0.014520703 3.5956184e-39
0.02985397 -0.1340252 -0.014520703 2.5803874e-39
0.031747743 -0.1340252 -0.014520703 5.9916257e-39
-0.038303427 -0.13408406 -0.007520495 8.4816308e-39
-0.036421929 -0.13408406 -0.007520495 8.2043237e-39
-0.03454043 -0.13408406 -0.007520495 9.2177567e-39
-0.032658931 -0.13408406 -0.007520495 7.650431e-39
-0.030759875 -0.13513394 -0.011525808 8.1114092e-39
-0.028871354 -0.13513394 -0.011525808 2.395999e-39
-0.026982833 -0.13513394 -0.011525808 3.6877691e-40
-0.025094312 -0.13513394 -0.011525808 6.2696518e-39
-0.023205789 -0.13513394 -0.011525808 6.2696518e-39
-0.021317268 -0.13513394 -0.011525808 3.5037857e-39
-0.019428745 -0.13513394 -0.011525808 1.3832862e-39
-0.01760694 -0.13408406 -0.007520495 3.5873241e-43
-0.015725441 -0.13408406 -0.007520495 9.1835496e-41
-0.013905833 -0.13327946 -0.004450975 1.2903731e-39
-0.012029718 -0.13327946 -0.004450975 5.5302931e-39
-0.0101536 -0.13327946 -0.004450975 1.9267082e-38
-0.0083522117 -0.13250901 -0.0015116315 2.1662733e-38
-0.0066729998 -0.13065951 0.0055441279 2.2493576e-38
-0.0049010636 -0.12987436 0.0085394997 2.3325497e-38
-0.0031391131 -0.12909363 0.011517944 2.2404631e-38
-0.0014225105 -0.12803085 0.01557249 2.3232944e-38
0.00031800848 -0.12726043 0.018511595 2.3509168e-38
0.0020449376 -0.12646608 0.021542134 2.3509524e-38
0.0038754819 -0.12646608 0.021542134 2.3509165e-38
0.0057060225 -0.12646608 0.021542134 2.3509164e-38
0.0072889803 -0.124891 0.027550997 2.2863797e-38
0.0091089858 -0.124891 0.027550997 2.2864879e-38
0.010928995 -0.124891 0.027550997 2.3234379e-38
0.012749 -0.124891 0.027550997 2.1852171e-38
0.014569006 -0.124891 0.027550997 1.1894324e-38
0.018688295 -0.13695215 -0.018462239 5.8086904e-39
0.020588979 -0.13695215 -0.018462239 3.6878532e-40
0.022489663 -0.13695215 -0.018462239 2.7550649e-40
0.024172656 -0.13591899 -0.014520703 1.3814897e-39
0.025895767 -0.13513394 -0.011525808 3.3186755e-39
0.027784288 -0.13513394 -0.011525808 3.9644009e-39
0.029672809 -0.13513394 -0.011525808 1.4740399e-39
0.03156133 -0.13513394 -0.011525808 4.8852782e-39
-0.036421929 -0.13596557 -0.007520495 8.2958004e-39
-0.03454043 -0.13596557 -0.007520495 8.8478952e-39
-0.032648396 -0.13702248 -0.011525808 9.3085104e-39
-0.030759875 -0.13702248 -0.011525808 8.2036048e-39
-0.028852973 -0.13781275 -0.014520703 2.6725859e-39
-0.026959203 -0.13781275 -0.014520703 3.6913565e-40
-0.025094312 -0.13702248 -0.011525808 3.5967002e-39
-0.023205789 -0.13702248 -0.011525808 3.5974204e-39
-0.021317268 -0.13702248 -0.011525808 1.7542281e-39
-0.019428745 -0.13702248 -0.011525808 1.793662e-42
-0.01760694 -0.13596557 -0.007520495 7.1746481e-43
-0.015725441 -0.13596557 -0.007520495 3.5873241e-43
-0.013905833 -0.13515557 -0.004450975 3.6841818e-40
-0.012029718 -0.13515557 -0.004450975 8.2036062e-39
-0.0101536 -0.13515557 -0.004450975 2.0463826e-38
-0.0084550073 -0.13331302 0.0025317091 2.3506644e-38
-0.0066729998 -0.1325181 0.0055441279 2.3508089e-38
-0.0049872315 -0.13094176 0.011517944 2.3509527e-38
-0.0032635191 -0.12987186 0.01557249 2.2865602e-38
-0.0015178444 -0.12909628 0.018511595 2.3232944e-38
0.00021439698 -0.1282966 0.021542134 2.3509527e-38
0.0019366359 -0.1275015 0.024555268 2.3047468e-38
0.0037618941 -0.1275015 0.024555268 2.3415529e-38
0.0055871559 -0.1275015 0.024555268 2.3509165e-38
0.0072889803 -0.126711 0.027550997 2.3509165e-38
0.0091089858 -0.126711 0.027550997 2.3139664e-38
0.010928995 -0.126711 0.027550997 2.3509527e-38
0.012749 -0.126711 0.027550997 2.3509527e-38
0.014569006 -0.126711 0.027550997 1.5397036e-38
0.018839888 -0.13965334 -0.021495877 8.9433432e-39
0.020745888 -0.13965334 -0.021495877 5.6051939e-45
0.022489663 -0.13885282 -0.018462239 5.6051939e-45
0.024172656 -0.13781275 -0.014520703 0
0.025895767 -0.13702248 -0.011525808 1.7513498e-39
0.027784288 -0.13702248 -0.011525808 3.0424446e-39
0.029672809 -0.13702248 -0.011525808 2.0272136e-39
0.03156133 -0.13702248 -0.011525808 6.4526039e-39
-0.036421929 -0.13784705 -0.007520495 8.2036048e-39
-0.03454043 -0.13784705 -0.007520495 8.1099672e-39
-0.032648396 -0.13891099 -0.011525808 1.0599249e-38
-0.030759875 -0.13891099 -0.011525808 8.1103302e-39
-0.028852973 -0.13970654 -0.014520703 2.7647815e-39
-0.026959203 -0.13970654 -0.014520703 3.5873241e-43
-0.02502742 -0.14075352 -0.018462239 7.1746481e-43
-0.023205789 -0.13891099 -0.011525808 2.8017702e-40
-0.021317268 -0.13891099 -0.011525808 1.4349296e-42
-0.019428745 -0.13891099 -0.011525808 1.0761972e-42
-0.01760694 -0.13784705 -0.007520495 4.6348928e-40
-0.01578195 -0.13703169 -0.004450975 3.5873241e-43
-0.013905833 -0.13703169 -0.004450975 3.9640463e-39
-0.012029718 -0.13703169 -0.004450975 9.8620471e-39
-0.01031888 -0.13517688 0.0025317091 1.8066379e-38
-0.0084550073 -0.13517688 0.0025317091 2.0738611e-38
-0.0067544049 -0.13358103 0.0085394997 2.3508445e-38
-0.0049872315 -0.13278987 0.011517944 2.3232944e-38
-0.0032635191 -0.13171287 0.01557249 2.3234379e-38
-0.0015178444 -0.13093217 0.018511595 2.3417691e-38
0.00021439698 -0.13012715 0.021542134 2.3509527e-38
0.0019366359 -0.12932678 0.024555268 1.825294e-38
0.0037618941 -0.12932678 0.024555268 1.9266729e-38
0.0055871559 -0.12932678 0.024555268 1.9726625e-38
0.0072889803 -0.12853102 0.027550997 2.0556742e-38
0.0091089858 -0.12853102 0.027550997 2.2676885e-38
0.010928995 -0.12853102 0.027550997 2.3509165e-38
0.012749 -0.12853102 0.027550997 2.2954917e-38
0.014569006 -0.12853102 0.027550997 1.6871087e-38
0.018986445 -0.14233841 -0.024428783 9.5879938e-39
0.02089759 -0.14233841 -0.024428783 1.847584e-40
0.022651892 -0.14155935 -0.021495877 5.5318499e-40
0.024390347 -0.14075352 -0.018462239 5.6051939e-45
0.025895767 -0.13891099 -0.011525808 1.1067007e-39
0.027784288 -0.13891099 -0.011525808 1.6595101e-39
0.029672809 -0.13891099 -0.011525808 2.0272136e-39
0.03156133 -0.13891099 -0.011525808 8.2965165e-39
-0.028828787 -0.1426542 -0.018462239 2.9491727e-39
-0.026928104 -0.1426542 -0.018462239 1.8510592e-40
-0.02506543 -0.1416003 -0.014520703 7.1746481e-43
-0.023205789 -0.14079951 -0.011525808 3.5929293e-42
-0.021369938 -0.13972856 -0.007520495 3.2327956e-42
-0.019488439 -0.13972856 -0.007520495 1.7950633e-42
-0.01760694 -0.13972856 -0.007520495 1.0761972e-42
-0.01578195 -0.13890781 -0.004450975 3.5873241e-43
-0.013965101 -0.13812189 -0.0015116315 2.0279381e-39
-0.012094137 -0.13812189 -0.0015116315 1.0415221e-38
-0.01031888 -0.13704078 0.0025317091 1.8065297e-38
-0.0085315919 -0.13623528 0.0055441279 1.8248247e-38
-0.0067544049 -0.13543437 0.0085394997 2.3508444e-38
-0.0051045297 -0.13355388 0.01557249 2.2955999e-38
-0.003353701 -0.13276802 0.018511595 2.3417691e-38
-0.0016161473 -0.13195769 0.021542134 2.341805e-38
0.00021439698 -0.13195769 0.021542134 2.1204642e-38
0.0019366359 -0.13115202 0.024555268 1.7608649e-38
0.0037618941 -0.13115202 0.024555268 1.7792317e-38
0.0055871559 -0.13115202 0.024555268 1.8805748e-38
0.0072889803 -0.13035102 0.027550997 1.7974908e-38
0.0091089858 -0.13035102 0.027550997 1.889722e-38
0.010928995 -0.13035102 0.027550997 2.0095408e-38
0.012749 -0.13035102 0.027550997 2.1848203e-38
0.01471345 -0.13115202 0.024555268 1.8160744e-38
0.016538713 -0.13115202 0.024555268 1.2353501e-38
0.020745888 -0.14346536 -0.021495877 3.6879373e-40
0.022651892 -0.14346536 -0.021495877 1.2611686e-44
0.024557892 -0.14346536 -0.021495877 7.0064923e-45
0.026066426 -0.1416003 -0.014520703 1.8438846e-40
0.027960196 -0.1416003 -0.014520703 6.4500227e-40
0.02985397 -0.1416003 -0.014520703 1.8428252e-39
-0.026904168 -0.14537133 -0.021495877 2.7730295e-40
-0.02506543 -0.14349405 -0.014520703 7.1746481e-43
-0.023205789 -0.14268802 -0.011525808 2.8754644e-42
-0.021369938 -0.14161004 -0.007520495 1.4349296e-42
-0.019488439 -0.14161004 -0.007520495 2.8754644e-42
-0.01765807 -0.14078392 -0.004450975 1.0761972e-42
-0.01578195 -0.14078392 -0.004450975 7.1746481e-43
-0.013965101 -0.13999285 -0.0015116315 1.8424679e-39
-0.012182754 -0.13890465 0.0025317091 7.925576e-39
-0.010390184 -0.13809387 0.0055441279 1.4470024e-38
-0.0086077442 -0.13728772 0.0085394997 1.5297624e-38
-0.006835348 -0.13648613 0.011517944 2.1568368e-38
-0.0051045297 -0.13539489 0.01557249 2.1018443e-38
-0.0034466879 -0.13378824 0.021542134 1.714839e-38
-0.0016161473 -0.13378824 0.021542134 1.5765818e-38
0.0001113778 -0.13297729 0.024555268 1.6963643e-38
0.0019366359 -0.13297729 0.024555268 1.724023e-38
0.0037618941 -0.13297729 0.024555268 1.696328e-38
0.0055871559 -0.13297729 0.024555268 1.6685251e-38
0.0074124141 -0.13297729 0.024555268 1.5946604e-38
0.0092376722 -0.13297729 0.024555268 1.4471111e-38
0.011062934 -0.13297729 0.024555268 1.5946241e-38
0.012888192 -0.13297729 0.024555268 1.8527719e-38
0.01471345 -0.13297729 0.024555268 1.8068183e-38
0.016689278 -0.13378824 0.021542134 1.3919745e-38
0.018519819 -0.13378824 0.021542134 9.1843904e-41
0.024557892 -0.14537133 -0.021495877 9.328584e-41
0.026463896 -0.14537133 -0.021495877 0
0.028369896 -0.14537133 -0.021495877 2.7622395e-40
0.030275904 -0.14537133 -0.021495877 1.8424679e-39
-0.026849354 -0.1491593 -0.028443156 2.2134112e-39
-0.02506543 -0.14538784 -0.014520703 2.1579996e-42
-0.023205789 -0.14457656 -0.011525808 1.7992672e-42
-0.021369938 -0.14349155 -0.007520495 1.0789998e-42
-0.019488439 -0.14349155 -0.007520495 1.0789998e-42
-0.017707027 -0.14186381 -0.0015116315 7.1746481e-43
-0.015836064 -0.14186381 -0.0015116315 3.6877972e-40
-0.014046629 -0.14076851 0.0025317091 7.361203e-40
-0.012182754 -0.14076851 0.0025317091 4.9753158e-39
-0.010461085 -0.13914107 0.0085394997 1.2165133e-38
-0.0086077442 -0.13914107 0.0085394997 1.3823211e-38
-0.0069455383 -0.13723589 0.01557249 1.8249323e-38
-0.0052772304 -0.13561879 0.021542134 1.8344401e-38
-0.0034466879 -0.13561879 0.021542134 1.6226065e-38
-0.0017138803 -0.13480256 0.024555268 1.5673257e-38
0.0001113778 -0.13480256 0.024555268 1.6318629e-38
0.0019366359 -0.13480256 0.024555268 1.6779252e-38
0.0037618941 -0.13480256 0.024555268 1.6871447e-38
0.0055871559 -0.13480256 0.024555268 1.5856932e-38
0.0074124141 -0.13480256 0.024555268 1.4288165e-38
0.0092376722 -0.13480256 0.024555268 1.2996344e-38
0.011062934 -0.13480256 0.024555268 1.5300872e-38
0.012888192 -0.13480256 0.024555268 1.7052589e-38
0.01471345 -0.13480256 0.024555268 1.7698677e-38
0.016689278 -0.13561879 0.021542134 1.4749143e-38
0.018519819 -0.13561879 0.021542134 5.6051939e-45
-0.021369938 -0.14537306 -0.007520495 7.2307001e-43
-0.019577991 -0.14373477 -0.0015116315 3.643376e-43
-0.017707027 -0.14373477 -0.0015116315 1.4419361e-42
-0.015836064 -0.14373477 -0.0015116315 2.7658689e-40
-0.014046629 -0.14263238 0.0025317091 2.7550649e-40
-0.012182754 -0.14263238 0.0025317091 2.3016425e-39
-0.010461085 -0.14099441 0.0085394997 1.0505609e-38
-0.0086077442 -0.14099441 0.0085394997 1.2993448e-38
-0.0069455383 -0.1390769 0.01557249 1.502283e-38
-0.0052772304 -0.13744931 0.021542134 1.4010122e-38
-0.0035391422 -0.13662781 0.024555268 1.5764e-38
-0.0017138803 -0.13662781 0.024555268 1.6871435e-38
0.0001113778 -0.13662781 0.024555268 1.5581061e-38
0.0019366359 -0.13662781 0.024555268 1.382971e-38
0.0037618941 -0.13662781 0.024555268 1.3276538e-38
0.0055871559 -0.13662781 0.024555268 1.2538253e-38
0.0074124141 -0.13662781 0.024555268 1.1154955e-38
0.0092376722 -0.13662781 0.024555268 1.4380357e-38
0.011062934 -0.13662781 0.024555268 1.7790154e-38
0.012888192 -0.13662781 0.024555268 1.7513205e-38
0.01471345 -0.13662781 0.024555268 1.5854044e-38
0.016689278 -0.13744931 0.021542134 1.327401e-38
0.018519819 -0.13744931 0.021542134 1.8367239e-40
-0.021448955 -0.14560573 -0.0015116315 3.7058879e-40
-0.019577991 -0.14560573 -0.0015116315 7.272739e-43
-0.017774377 -0.14449625 0.0025317091 3.657389e-43
-0.015910503 -0.14449625 0.0025317091 2.7586802e-40
-0.014046629 -0.14449625 0.0025317091 3.6734198e-40
-0.012248776 -0.14366965 0.0055441279 6.4284847e-40
-0.010461085 -0.14284773 0.0085394997 6.4489997e-39
-0.0086077442 -0.14284773 0.0085394997 9.3988942e-39
-0.0070254123 -0.14011143 0.018511595 1.2533546e-38
-0.0052772304 -0.13927986 0.021542134 1.4378177e-38
-0.0035391422 -0.13845308 0.024555268 1.6131336e-38
-0.0017138803 -0.13845308 0.024555268 1.6962543e-38
0.0001113778 -0.13845308 0.024555268 1.5857646e-38
0.0019366359 -0.13845308 0.024555268 1.401518e-38
0.0037618941 -0.13845308 0.024555268 1.2909197e-38
0.0055871559 -0.13845308 0.024555268 1.2816283e-38
0.0074124141 -0.13845308 0.024555268 1.3460929e-38
0.0092376722 -0.13845308 0.024555268 1.4842057e-38
0.011062934 -0.13845308 0.024555268 1.7698677e-38
0.012888192 -0.13845308 0.024555268 1.6775638e-38
0.01471345 -0.13845308 0.024555268 1.3640986e-38
0.016689278 -0.13927986 0.021542134 1.1521568e-38
0.018519819 -0.13927986 0.021542134 2.7550649e-40
-0.021448955 -0.14747669 -0.0015116315 7.0064923e-45
-0.019577991 -0.14747669 -0.0015116315 1.847584e-40
-0.017774377 -0.14636014 0.0025317091 5.6051939e-45
-0.015910503 -0.14636014 0.0025317091 2.7550649e-40
-0.014046629 -0.14636014 0.0025317091 1.1967383e-39
-0.012248776 -0.14552824 0.0055441279 6.4284847e-40
-0.010461085 -0.14470108 0.0085394997 1.9324929e-39
-0.0086077442 -0.14470108 0.0085394997 5.3430053e-39
-0.0070254123 -0.14194728 0.018511595 1.1335357e-38
-0.0053644003 -0.14027832 0.024555268 1.2441702e-38
-0.0035391422 -0.14027832 0.024555268 1.5576717e-38
-0.0017138803 -0.14027832 0.024555268 1.5762918e-38
0.0001113778 -0.14027832 0.024555268 1.2907022e-38
0.0019366359 -0.14027832 0.024555268 1.171065e-38
0.0037618941 -0.14027832 0.024555268 1.2725529e-38
0.0055871559 -0.14027832 0.024555268 1.4016268e-38
0.0074124141 -0.14027832 0.024555268 1.5121174e-38
0.0093671074 -0.14111041 0.021542134 1.5027172e-38
0.011197652 -0.14111041 0.021542134 1.6223547e-38
0.012888192 -0.14027832 0.024555268 1.5853681e-38
0.01471345 -0.14027832 0.024555268 1.2073658e-38
0.016689278 -0.14111041 0.021542134 1.0138271e-38
-0.021502124 -0.14822401 0.0025317091 9.8090893e-45
-0.019638252 -0.14822401 0.0025317091 7.0064923e-45
-0.017774377 -0.14822401 0.0025317091 9.1841101e-41
-0.015910503 -0.14822401 0.0025317091 2.7550649e-40
-0.014046629 -0.14822401 0.0025317091 1.4733252e-39
-0.012182754 -0.14822401 0.0025317091 6.4284847e-40
-0.010390184 -0.14738683 0.0055441279 7.3468397e-40
-0.0085315919 -0.14738683 0.0055441279 2.5782126e-39
-0.0070254123 -0.14378314 0.018511595 8.6623997e-39
-0.0053644003 -0.1421036 0.024555268 1.0136085e-38
-0.0035391422 -0.1421036 0.024555268 1.437781e-38
-0.0017138803 -0.1421036 0.024555268 1.4840597e-38
0.0001113778 -0.1421036 0.024555268 1.1708478e-38
0.0019366359 -0.1421036 0.024555268 1.1526259e-38
0.0037618941 -0.1421036 0.024555268 1.37404e-38
0.0055871559 -0.1421036 0.024555268 1.5031141e-38
0.0074124141 -0.1421036 0.024555268 1.5305928e-38
0.0092376722 -0.1421036 0.024555268 1.548815e-38
0.011197652 -0.14294095 0.021542134 1.5117922e-38
0.012888192 -0.1421036 0.024555268 1.5023921e-38
0.01471345 -0.1421036 0.024555268 8.5702237e-39
-0.017824553 -0.14924543 0.0055441279 6.4465615e-40
-0.015965961 -0.14924543 0.0055441279 2.7550649e-40
-0.010390184 -0.14924543 0.0055441279 5.5101298e-40
-0.0085315919 -0.14924543 0.0055441279 9.1907243e-40
-0.0071077729 -0.1447715 0.021542134 4.3299296e-39
-0.0053644003 -0.14392884 0.024555268 9.1219359e-39
-0.00363106 -0.14309107 0.027550997 1.0966928e-38
-0.0018110545 -0.14309107 0.027550997 1.1614106e-38
0.0001113778 -0.14392884 0.024555268 1.2629708e-38
0.0019366359 -0.14392884 0.024555268 1.4476153e-38
0.0037618941 -0.14392884 0.024555268 1.4937498e-38
0.0055871559 -0.14392884 0.024555268 1.4199936e-38
0.0074124141 -0.14392884 0.024555268 1.4567997e-38
0.0092376722 -0.14392884 0.024555268 1.4935695e-38
0.011197652 -0.1447715 0.021542134 1.4381076e-38
0.012888192 -0.14392884 0.024555268 1.3642068e-38
0.01471345 -0.14392884 0.024555268 3.6852959e-39
-0.0071077729 -0.14660202 0.021542134 1.1952964e-39
-0.0053644003 -0.14575411 0.024555268 5.1589686e-39
-0.00363106 -0.14491107 0.027550997 7.0028784e-39
-0.0018110545 -0.14491107 0.027550997 1.0322646e-38
8.9546666e-06 -0.14491107 0.027550997 1.3642773e-38
0.0019366359 -0.14575411 0.024555268 1.4934599e-38
0.0037618941 -0.14575411 0.024555268 1.4566542e-38
0.0055871559 -0.14575411 0.024555268 1.4197764e-38
0.0074124141 -0.14575411 0.024555268 1.4290323e-38
0.0092376722 -0.14575411 0.024555268 1.4474714e-38
0.011062934 -0.14575411 0.024555268 1.1801041e-38
0.012888192 -0.14575411 0.024555268 9.3117586e-39
0.01471345 -0.14575411 0.024555268 9.219535e-40
-0.0054510674 -0.14673109 0.027550997 1.1952964e-39
-0.00363106 -0.14673109 0.027550997 3.2239394e-39
-0.0018110545 -0.14673109 0.027550997 7.0957985e-39
8.9546666e-06 -0.14673109 0.027550997 1.0783989e-38
0.0019366359 -0.14757936 0.024555268 1.2259484e-38
0.0037618941 -0.14757936 0.024555268 1.1707392e-38
0.0055871559 -0.14757936 0.024555268 1.0970193e-38
0.0074124141 -0.14757936 0.024555268 1.0694327e-38
0.0092376722 -0.14757936 0.024555268 8.6660263e-39
0.011062934 -0.14757936 0.024555268 2.7658689e-39
0.012888192 -0.14757936 0.024555268 8.3012361e-40
0.01471345 -0.14757936 0.024555268 3.61535e-43
-0.0053644003 -0.14940463 0.024555268 6.4284847e-40
-0.0035391422 -0.14940463 0.024555268 1.7491792e-39
-0.0017138803 -0.14940463 0.024555268 4.5146866e-39
0.0001113778 -0.14940463 0.024555268 7.1890815e-39
0.0019366359 -0.14940463 0.024555268 8.4794658e-39
0.0037618941 -0.14940463 0.024555268 8.1114064e-39
0.0055871559 -0.14940463 0.024555268 7.6511499e-39
0.0074124141 -0.14940463 0.024555268 7.5596759e-39
0.0092376722 -0.14940463 0.024555268 4.6094186e-39
0.011062934 -0.14940463 0.024555268 5.5317378e-40
0.012888192 -0.14940463 0.024555268 2.8025969e-45
