# .PCD v0.7 - Point Cloud Data file format
VERSION 0.7
FIELDS x y z rgb
SIZE 4 4 4 4
TYPE F F F F
COUNT 1 1 1 1
WIDTH 479
HEIGHT 1
VIEWPOINT 0 0 0 1 0 0 0
POINTS 479
DATA ascii
0.0033712452 -0.11319371 -0.017641025 3.3179497e-39
0.0052650189 -0.11319371 -0.017641025 4.1469943e-39
0.0071587926 -0.11319371 -0.017641025 4.7923637e-39
0.0091942353 -0.11414395 -0.021582561 3.2250422e-39
0.011209278 -0.1148753 -0.024616199 5.9909111e-39
0.013115278 -0.1148753 -0.024616199 1.1523012e-38
0.0033712452 -0.11508749 -0.017641025 2.6736593e-39
0.0052650189 -0.11508749 -0.017641025 4.0555175e-39
0.0071587926 -0.11508749 -0.017641025 4.0555175e-39
0.0090525625 -0.11508749 -0.017641025 2.8566198e-39
0.011094919 -0.11604463 -0.021582561 1.0969835e-38
0.012995603 -0.11604463 -0.021582561 1.7791596e-38
-0.0004162984 -0.11698125 -0.017641025 2.9502714e-39
0.0013908306 -0.11624874 -0.01464613 3.1350045e-39
0.0032793535 -0.11624874 -0.01464613 2.950965e-39
0.0052650189 -0.11698125 -0.017641025 3.5959785e-39
0.0071587926 -0.11698125 -0.017641025 3.5030668e-39
0.0090525625 -0.11698125 -0.017641025 3.4108726e-39
0.010946336 -0.11698125 -0.017641025 1.5487421e-38
0.01284011 -0.11698125 -0.017641025 2.0834054e-38
0.01473388 -0.11698125 -0.017641025 2.1479424e-38
0.016627654 -0.11698125 -0.017641025 2.1387947e-38
-0.0042038439 -0.11887501 -0.017641025 7.0083126e-39
-0.0023100721 -0.11887501 -0.017641025 1.7528212e-39
-0.0004976904 -0.11813726 -0.01464613 2.4903834e-39
0.0013908306 -0.11813726 -0.01464613 2.4907211e-39
0.0032793535 -0.11813726 -0.01464613 2.6747411e-39
0.0051678745 -0.11813726 -0.01464613 3.135722e-39
0.0070563955 -0.11813726 -0.01464613 2.8584163e-39
0.0089449165 -0.11813726 -0.01464613 3.7796551e-39
0.010833438 -0.11813726 -0.01464613 1.7240217e-38
0.012721959 -0.11813726 -0.01464613 2.3509167e-38
0.01461048 -0.11813726 -0.01464613 2.3509527e-38
0.016499005 -0.11813726 -0.01464613 2.3509168e-38
-0.0042038439 -0.1207688 -0.017641025 2.7947216e-40
-0.0023862114 -0.12002577 -0.01464613 2.6758649e-39
-0.0004976904 -0.12002577 -0.01464613 1.4773217e-39
0.0013908306 -0.12002577 -0.01464613 2.3992472e-39
0.0032793535 -0.12002577 -0.01464613 2.5836244e-39
0.0051678745 -0.12002577 -0.01464613 2.4910729e-39
0.0070563955 -0.12002577 -0.01464613 2.7669395e-39
0.0089449165 -0.12002577 -0.01464613 4.517939e-39
0.010833438 -0.12002577 -0.01464613 1.5396307e-38
0.012721959 -0.12002577 -0.01464613 2.0558186e-38
0.01461048 -0.12002577 -0.01464613 1.963623e-38
0.016499005 -0.12002577 -0.01464613 1.8621359e-38
0.018387526 -0.12002577 -0.01464613 3.224689e-39
-0.0042747324 -0.12191428 -0.01464613 1.5712928e-39
-0.0023862114 -0.12191428 -0.01464613 2.1237813e-39
-0.0004976904 -0.12191428 -0.01464613 1.7553561e-39
0.0013908306 -0.12191428 -0.01464613 2.9538629e-39
0.0032793535 -0.12191428 -0.01464613 3.5984952e-39
0.0051678745 -0.12191428 -0.01464613 3.1364423e-39
0.0070563955 -0.12191428 -0.01464613 4.1498739e-39
0.0089449165 -0.12191428 -0.01464613 6.269656e-39
0.010833438 -0.12191428 -0.01464613 1.1155308e-38
0.012721959 -0.12191428 -0.01464613 1.226058e-38
0.01461048 -0.12191428 -0.01464613 8.1117763e-39
0.016499005 -0.12191428 -0.01464613 7.5578836e-39
0.018387526 -0.12191428 -0.01464613 2.3027327e-39
-0.0042747324 -0.12380283 -0.01464613 1.3003551e-38
-0.0024880404 -0.12279506 -0.010640817 4.2449913e-39
-0.00060654152 -0.12279506 -0.010640817 3.7843733e-39
0.0013908306 -0.12380283 -0.01464613 8.3516968e-40
0.0032793535 -0.12380283 -0.01464613 2.4024814e-39
0.0051678745 -0.12380283 -0.01464613 2.493598e-39
0.0070563955 -0.12380283 -0.01464613 3.7839767e-39
0.0089449165 -0.12380283 -0.01464613 5.1661895e-39
0.010833438 -0.12380283 -0.01464613 5.8101197e-39
0.012721959 -0.12380283 -0.01464613 5.0711226e-39
0.01461048 -0.12380283 -0.01464613 5.6051939e-45
0.016499005 -0.12380283 -0.01464613 2.3041747e-39
0.018387526 -0.12380283 -0.01464613 4.9778479e-39
-0.0044421935 -0.12389888 -0.0075712968 2.2129835e-38
-0.0025660777 -0.12389888 -0.0075712968 1.8442377e-38
-0.00060654152 -0.12467657 -0.010640817 1.1714257e-38
0.0012749573 -0.12467657 -0.010640817 4.4336845e-39
0.0032793535 -0.12569134 -0.01464613 1.3004722e-39
0.0051678745 -0.12569134 -0.01464613 1.6685317e-39
0.0070563955 -0.12569134 -0.01464613 3.1432946e-39
0.0089449165 -0.12569134 -0.01464613 3.050006e-39
0.010833438 -0.12569134 -0.01464613 6.736392e-39
0.012721959 -0.12569134 -0.01464613 7.195229e-39
0.01461048 -0.12569134 -0.01464613 7.932078e-39
0.016499005 -0.12569134 -0.01464613 1.0696499e-38
0.018387526 -0.12569134 -0.01464613 1.0603588e-38
-0.010070545 -0.12577499 -0.0075712968 2.341805e-38
-0.0082536945 -0.12502514 -0.0046319533 2.3142544e-38
-0.0063827308 -0.12502514 -0.0046319533 2.2773763e-38
-0.0045117689 -0.12502514 -0.0046319533 2.3142544e-38
-0.0025660777 -0.12577499 -0.0075712968 2.3142544e-38
-0.00068996008 -0.12577499 -0.0075712968 2.2591531e-38
0.0011861557 -0.12577499 -0.0075712968 2.0937416e-38
0.0031564562 -0.12655805 -0.010640817 5.7269485e-39
0.005037955 -0.12655805 -0.010640817 3.1447506e-39
0.0069194539 -0.12655805 -0.010640817 3.6968341e-39
0.0089449165 -0.12757985 -0.01464613 6.8307457e-39
0.010833438 -0.12757985 -0.01464613 9.7806429e-39
0.012721959 -0.12757985 -0.01464613 1.0700105e-38
0.01461048 -0.12757985 -0.01464613 1.0882702e-38
0.016499005 -0.12757985 -0.01464613 1.2725526e-38
0.018071208 -0.12577499 -0.0075712968 1.6873253e-38
0.019947328 -0.12577499 -0.0075712968 9.5883819e-39
0.021971446 -0.12655805 -0.010640817 1.8370743e-40
-0.010199095 -0.12585752 -0.00058861263 2.2403541e-38
-0.0083352225 -0.12585752 -0.00058861263 2.2588648e-38
-0.006471348 -0.12585752 -0.00058861263 2.2404977e-38
-0.0045117689 -0.1268961 -0.0046319533 2.1852519e-38
-0.0026408052 -0.1268961 -0.0046319533 2.2774476e-38
-0.00068996008 -0.12765111 -0.0075712968 2.2499695e-38
0.0011861557 -0.12765111 -0.0075712968 2.1948682e-38
0.0031564562 -0.12843956 -0.010640817 1.6510959e-38
0.0049383892 -0.12765111 -0.0075712968 3.6028477e-39
0.0068145087 -0.12765111 -0.0075712968 5.0776078e-39
0.0086906245 -0.12765111 -0.0075712968 6.7363892e-39
0.010682452 -0.12843956 -0.010640817 9.8706805e-39
0.01256395 -0.12843956 -0.010640817 1.1527708e-38
0.014318976 -0.12765111 -0.0075712968 1.0603955e-38
0.016195092 -0.12765111 -0.0075712968 1.0419194e-38
0.018071208 -0.12765111 -0.0075712968 1.6595225e-38
0.019947328 -0.12765111 -0.0075712968 9.0337662e-39
0.021823443 -0.12765111 -0.0075712968 2.9427268e-44
0.024053089 -0.1294684 -0.01464613 9.2088851e-40
-0.010199095 -0.12772138 -0.00058861263 2.3509527e-38
-0.0083352225 -0.12772138 -0.00058861263 2.3509883e-38
-0.006471348 -0.12772138 -0.00058861263 2.3418047e-38
-0.0045117689 -0.12876706 -0.0046319533 2.3234376e-38
-0.0026408052 -0.12876706 -0.0046319533 2.3234376e-38
-0.00076984148 -0.12876706 -0.0046319533 2.2406778e-38
0.0011861557 -0.12952723 -0.0075712968 2.2499695e-38
0.0030622734 -0.12952723 -0.0075712968 2.2316024e-38
0.0049383892 -0.12952723 -0.0075712968 1.6784662e-38
0.0068145087 -0.12952723 -0.0075712968 3.2315372e-39
0.0086906245 -0.12952723 -0.0075712968 2.1244497e-39
0.01056674 -0.12952723 -0.0075712968 1.2943289e-39
0.01256395 -0.13032107 -0.010640817 1.0930128e-42
0.014318976 -0.12952723 -0.0075712968 1.5414283e-44
0.016195092 -0.12952723 -0.0075712968 2.5811245e-39
0.018071208 -0.12952723 -0.0075712968 1.5672186e-38
0.019947328 -0.12952723 -0.0075712968 1.3181126e-38
0.021823443 -0.12952723 -0.0075712968 1.9332594e-39
0.023699559 -0.12952723 -0.0075712968 2.7551349e-40
0.025423642 -0.12876706 -0.0046319533 5.1615161e-39
0.027294606 -0.12876706 -0.0046319533 8.3876443e-39
-0.010254555 -0.12880091 0.0024238061 2.3509524e-38
-0.0083959633 -0.12880091 0.0024238061 2.2956349e-38
-0.0065373695 -0.12880091 0.0024238061 2.2772318e-38
-0.0046074735 -0.12958528 -0.00058861263 2.3234012e-38
-0.0026408052 -0.13063805 -0.0046319533 2.3418045e-38
-0.00076984148 -0.13063805 -0.0046319533 2.1575935e-38
0.0011011204 -0.13063805 -0.0046319533 2.2406783e-38
0.0030622734 -0.13140334 -0.0075712968 2.2314589e-38
0.0049383892 -0.13140334 -0.0075712968 2.2774484e-38
0.0068145087 -0.13140334 -0.0075712968 6.9164813e-39
0.0086906245 -0.13140334 -0.0075712968 1.7535078e-39
0.01056674 -0.13140334 -0.0075712968 7.1746481e-43
0.01256395 -0.13220255 -0.010640817 1.1974782e-39
0.014318976 -0.13140334 -0.0075712968 2.755219e-40
0.016195092 -0.13140334 -0.0075712968 1.9339502e-39
0.018071208 -0.13140334 -0.0075712968 1.3089624e-38
0.019947328 -0.13140334 -0.0075712968 1.2996369e-38
0.021823443 -0.13140334 -0.0075712968 3.9612003e-39
0.023699559 -0.13140334 -0.0075712968 3.6734759e-40
0.025423642 -0.13063805 -0.0046319533 5.8061639e-39
0.027294606 -0.13063805 -0.0046319533 9.7694998e-39
-0.019605123 -0.12909363 0.008397622 2.3509521e-38
-0.017757004 -0.12909363 0.008397622 2.3138942e-38
-0.010364533 -0.12909363 0.008397622 2.3507725e-38
-0.008516415 -0.12909363 0.008397622 2.3509161e-38
-0.0066030184 -0.12987436 0.0054191779 2.350988e-38
-0.0046787774 -0.13065951 0.0024238061 2.3509879e-38
-0.0027436009 -0.13144915 -0.00058861263 2.3418042e-38
-0.00076984148 -0.13250901 -0.0046319533 2.1113515e-38
0.0011011204 -0.13250901 -0.0046319533 2.0007896e-38
0.0029720841 -0.13250901 -0.0046319533 2.240499e-38
0.0049383892 -0.13327946 -0.0075712968 2.0836949e-38
0.0068145087 -0.13327946 -0.0075712968 9.9574952e-39
0.0086906245 -0.13327946 -0.0075712968 2.3052425e-39
0.01056674 -0.13327946 -0.0075712968 9.1835496e-41
0.01256395 -0.13408406 -0.010640817 9.1909064e-40
0.014318976 -0.13327946 -0.0075712968 4.5919149e-40
0.016195092 -0.13327946 -0.0075712968 2.4860422e-39
0.018208448 -0.13408406 -0.010640817 8.7553478e-39
0.019947328 -0.13327946 -0.0075712968 1.0414169e-38
0.021823443 -0.13327946 -0.0075712968 6.5419521e-39
0.023552682 -0.13250901 -0.0046319533 3.0392216e-39
0.025423642 -0.13250901 -0.0046319533 7.005063e-39
0.027294606 -0.13250901 -0.0046319533 9.4939919e-39
-0.021453241 -0.13094176 0.008397622 2.3415885e-38
-0.019605123 -0.13094176 0.008397622 2.3507722e-38
-0.017803213 -0.12987186 0.012452168 2.3509163e-38
-0.015962204 -0.12987186 0.012452168 2.3507722e-38
-0.014121194 -0.12987186 0.012452168 2.3321892e-38
-0.012280186 -0.12987186 0.012452168 2.3509163e-38
-0.010439177 -0.12987186 0.012452168 2.3507002e-38
-0.0085981684 -0.12987186 0.012452168 2.3415884e-38
-0.0066682966 -0.13094176 0.008397622 2.3509879e-38
-0.004749679 -0.13172771 0.0054191779 2.3509879e-38
-0.0027436009 -0.13331302 -0.00058861263 2.3509879e-38
-0.00087972637 -0.13331302 -0.00058861263 2.1389739e-38
0.00098414812 -0.13331302 -0.00058861263 2.0283402e-38
0.0029720841 -0.13437997 -0.0046319533 2.0006819e-38
0.0048430478 -0.13437997 -0.0046319533 2.3509168e-38
0.0067140115 -0.13437997 -0.0046319533 1.1523383e-38
0.0085849753 -0.13437997 -0.0046319533 6.6377182e-39
0.010455939 -0.13437997 -0.0046319533 1.1052602e-39
0.012442856 -0.13515557 -0.0075712968 3.6735179e-40
0.014318976 -0.13515557 -0.0075712968 9.1837038e-40
0.016195092 -0.13515557 -0.0075712968 5.5101298e-40
0.018208448 -0.13596557 -0.010640817 8.3869184e-39
0.019947328 -0.13515557 -0.0075712968 1.2351352e-38
0.021823443 -0.13515557 -0.0075712968 7.0962034e-39
0.023552682 -0.13437997 -0.0046319533 2.3027327e-39
0.025423642 -0.13437997 -0.0046319533 8.4805532e-39
0.027294606 -0.13437997 -0.0046319533 1.1707406e-38
-0.025149476 -0.13278987 0.008397622 1.465766e-38
-0.02332624 -0.13171287 0.012452168 1.4472909e-38
-0.021485232 -0.13171287 0.012452168 1.4564026e-38
-0.019644223 -0.13171287 0.012452168 1.3642069e-38
-0.017803213 -0.13171287 0.012452168 1.4378916e-38
-0.015962204 -0.13171287 0.012452168 1.6222828e-38
-0.014121194 -0.13171287 0.012452168 2.0463827e-38
-0.012280186 -0.13171287 0.012452168 2.3508442e-38
-0.010439177 -0.13171287 0.012452168 2.3508802e-38
-0.0085981684 -0.13171287 0.012452168 2.3509161e-38
-0.0066682966 -0.13278987 0.008397622 2.35088e-38
-0.004749679 -0.13358103 0.0054191779 2.3509879e-38
-0.0027436009 -0.13517688 -0.00058861263 2.3232209e-38
-0.00087972637 -0.13517688 -0.00058861263 2.0006085e-38
0.00098414812 -0.13517688 -0.00058861263 1.7332776e-38
0.0029720841 -0.13625093 -0.0046319533 1.5120086e-38
0.0048430478 -0.13625093 -0.0046319533 1.493534e-38
0.0067140115 -0.13625093 -0.0046319533 1.5856935e-38
0.0085849753 -0.13625093 -0.0046319533 6.0845444e-39
0.010455939 -0.13625093 -0.0046319533 4.5989495e-40
0.012442856 -0.13703169 -0.0075712968 1.2878732e-39
0.014197863 -0.13625093 -0.0046319533 3.6735179e-40
0.016068827 -0.13625093 -0.0046319533 1.0123457e-39
0.018208448 -0.13784705 -0.010640817 6.4518878e-39
0.020089947 -0.13784705 -0.010640817 7.8337629e-39
0.021971446 -0.13784705 -0.010640817 4.4232434e-39
0.024053089 -0.13891099 -0.01464613 2.3045278e-39
0.025575675 -0.13703169 -0.0075712968 8.5738278e-39
0.027451795 -0.13703169 -0.0075712968 1.0325911e-38
-0.026997596 -0.134638 0.008397622 1.345912e-38
-0.025167249 -0.13355388 0.012452168 1.4011931e-38
-0.02332624 -0.13355388 0.012452168 1.3274366e-38
-0.021485232 -0.13355388 0.012452168 1.2812309e-38
-0.019644223 -0.13355388 0.012452168 1.3180372e-38
-0.017836709 -0.13276802 0.015391273 1.3364402e-38
-0.016000852 -0.13276802 0.015391273 1.299562e-38
-0.014164997 -0.13276802 0.015391273 1.6867836e-38
-0.012329142 -0.13276802 0.015391273 2.2676877e-38
-0.010439177 -0.13355388 0.012452168 2.3509158e-38
-0.0085981684 -0.13355388 0.012452168 2.3509517e-38
-0.0066682966 -0.134638 0.008397622 2.3139294e-38
-0.0048201783 -0.134638 0.008397622 2.3509876e-38
-0.0028201854 -0.13623528 0.0024238061 2.2771233e-38
-0.00087972637 -0.13704078 -0.00058861263 1.9176324e-38
0.00098414812 -0.13704078 -0.00058861263 1.71491e-38
0.0029720841 -0.13812189 -0.0046319533 1.3645669e-38
0.0048430478 -0.13812189 -0.0046319533 1.4106297e-38
0.0067140115 -0.13812189 -0.0046319533 1.4290325e-38
0.0085849753 -0.13812189 -0.0046319533 1.0049675e-38
0.01056674 -0.13890781 -0.0075712968 9.1835496e-41
0.012442856 -0.13890781 -0.0075712968 1.836822e-40
0.014197863 -0.13812189 -0.0046319533 9.2016544e-40
0.016068827 -0.13812189 -0.0046319533 2.7550649e-40
0.018208448 -0.13972856 -0.010640817 6.2692916e-39
0.020089947 -0.13972856 -0.010640817 7.0983502e-39
0.021971446 -0.13972856 -0.010640817 3.8718647e-39
0.024053089 -0.14079951 -0.01464613 3.5873241e-43
0.02594161 -0.14079951 -0.01464613 7.9295374e-39
-0.027008258 -0.13539489 0.012452168 1.2076183e-38
-0.025167249 -0.13539489 0.012452168 1.3550953e-38
-0.02332624 -0.13539489 0.012452168 1.382754e-38
-0.021485232 -0.13539489 0.012452168 1.4010852e-38
-0.019644223 -0.13539489 0.012452168 1.447111e-38
-0.017836709 -0.13460387 0.015391273 1.447075e-38
-0.016040705 -0.13378824 0.018421812 1.4009769e-38
-0.014210163 -0.13378824 0.018421812 1.5484899e-38
-0.012329142 -0.13460387 0.015391273 1.8620269e-38
-0.010493285 -0.13460387 0.015391273 2.3137855e-38
-0.0085981684 -0.13539489 0.012452168 2.3509517e-38
-0.0067571579 -0.13539489 0.012452168 2.3139294e-38
-0.0048201783 -0.13648613 0.008397622 1.816073e-38
-0.0028201854 -0.13809387 0.0024238061 1.8438039e-38
-0.00087972637 -0.13890465 -0.00058861263 1.862315e-38
0.00098414812 -0.13890465 -0.00058861263 1.5950915e-38
0.0029720841 -0.13999285 -0.0046319533 1.0327703e-38
0.0048430478 -0.13999285 -0.0046319533 1.1063839e-38
0.0067140115 -0.13999285 -0.0046319533 1.1709208e-38
0.0085849753 -0.13999285 -0.0046319533 8.7589366e-39
0.01056674 -0.14078392 -0.0075712968 1.8474719e-40
0.012442856 -0.14078392 -0.0075712968 9.1845305e-41
0.014318976 -0.14078392 -0.0075712968 9.1842503e-41
0.016195092 -0.14078392 -0.0075712968 9.2194229e-41
0.018208448 -0.14161004 -0.010640817 4.4260951e-39
0.020089947 -0.14161004 -0.010640817 4.8863712e-39
0.021971446 -0.14161004 -0.010640817 2.3052565e-39
0.023852944 -0.14161004 -0.010640817 7.1746481e-43
-0.028849266 -0.13723589 0.012452168 1.0324466e-38
-0.027008258 -0.13723589 0.012452168 1.17074e-38
-0.025167249 -0.13723589 0.012452168 1.2997779e-38
-0.02332624 -0.13723589 0.012452168 1.3458756e-38
-0.021485232 -0.13723589 0.012452168 1.3642068e-38
-0.019672565 -0.13643973 0.015391273 1.3642424e-38
-0.017836709 -0.13643973 0.015391273 1.3549509e-38
-0.016040705 -0.13561879 0.018421812 1.3088528e-38
-0.014210163 -0.13561879 0.018421812 1.2719746e-38
-0.012379619 -0.13561879 0.018421812 1.2996333e-38
-0.010493285 -0.13643973 0.015391273 1.7421726e-38
-0.0086574303 -0.13643973 0.015391273 2.2677596e-38
-0.0068215737 -0.13643973 0.015391273 2.3415884e-38
-0.004749679 -0.13914107 0.0054191779 1.7238777e-38
-0.0028963378 -0.13914107 0.0054191779 1.6962551e-38
-0.00096159335 -0.13995247 0.0024238061 1.8530954e-38
0.00098414812 -0.14076851 -0.00058861263 1.4661252e-38
0.0029720841 -0.14186381 -0.0046319533 8.1157252e-39
0.0048430478 -0.14186381 -0.0046319533 9.3132006e-39
0.0067140115 -0.14186381 -0.0046319533 9.5897874e-39
0.0085849753 -0.14186381 -0.0046319533 7.1919724e-39
0.01056674 -0.14266007 -0.0075712968 1.1992593e-39
0.012442856 -0.14266007 -0.0075712968 3.6807767e-40
0.014318976 -0.14266007 -0.0075712968 9.8090893e-45
0.016195092 -0.14266007 -0.0075712968 1.8510592e-40
0.018208448 -0.14349155 -0.010640817 3.228268e-39
0.020089947 -0.14349155 -0.010640817 3.965131e-39
0.021971446 -0.14349155 -0.010640817 1.9375502e-39
0.023852944 -0.14349155 -0.010640817 9.2374856e-40
-0.028849266 -0.1390769 0.012452168 9.8634877e-39
-0.027008258 -0.1390769 0.012452168 1.0140432e-38
-0.025167249 -0.1390769 0.012452168 1.0508496e-38
-0.02332624 -0.1390769 0.012452168 1.0231906e-38
-0.021485232 -0.1390769 0.012452168 1.013899e-38
-0.019672565 -0.13827558 0.015391273 1.0046792e-38
-0.017836709 -0.13827558 0.015391273 1.0138268e-38
-0.016040705 -0.13744931 0.018421812 1.0046073e-38
-0.014210163 -0.13744931 0.018421812 1.115242e-38
-0.012379619 -0.13744931 0.018421812 1.0875833e-38
-0.010549079 -0.13744931 0.018421812 1.1890707e-38
-0.0087185362 -0.13744931 0.018421812 1.8067458e-38
-0.0068215737 -0.13827558 0.015391273 1.7976342e-38
-0.004749679 -0.14099441 0.0054191779 1.4749856e-38
-0.0028963378 -0.14099441 0.0054191779 1.1891792e-38
-0.00096159335 -0.14181106 0.0024238061 1.1800673e-38
0.00098414812 -0.14263238 -0.00058861263 1.106562e-38
0.0029720841 -0.14373477 -0.0046319533 5.7189947e-39
0.0048430478 -0.14373477 -0.0046319533 7.3770923e-39
0.0067140115 -0.14373477 -0.0046319533 5.901965e-39
0.0086906245 -0.14453618 -0.0075712968 2.766585e-39
0.01056674 -0.14453618 -0.0075712968 3.5873241e-43
0.012326899 -0.14373477 -0.0046319533 1.5414283e-44
0.014197863 -0.14373477 -0.0046319533 9.8090893e-45
0.016068827 -0.14373477 -0.0046319533 7.1746481e-43
0.018208448 -0.14537306 -0.010640817 3.4126592e-39
0.020276047 -0.14646508 -0.01464613 4.2417178e-39
0.022164568 -0.14646508 -0.01464613 7.3900698e-40
-0.028845713 -0.14203046 0.008397622 9.4035871e-39
-0.026997596 -0.14203046 0.008397622 9.3117474e-39
-0.025167249 -0.14091791 0.012452168 9.402864e-39
-0.02332624 -0.14091791 0.012452168 9.5868924e-39
-0.021485232 -0.14091791 0.012452168 9.9545959e-39
-0.01970179 -0.13927986 0.018421812 1.0046789e-38
-0.017871246 -0.13927986 0.018421812 1.0507048e-38
-0.016040705 -0.13927986 0.018421812 1.0875831e-38
-0.014210163 -0.13927986 0.018421812 1.0599246e-38
-0.012379619 -0.13927986 0.018421812 1.1613398e-38
-0.010549079 -0.13927986 0.018421812 1.2075098e-38
-0.0087185362 -0.13927986 0.018421812 1.5762567e-38
-0.0068879938 -0.13927986 0.018421812 1.4749496e-38
-0.0050574513 -0.13927986 0.018421812 1.2905946e-38
-0.0026408052 -0.14560573 -0.0046319533 1.1246425e-38
-0.00076984148 -0.14560573 -0.0046319533 1.0879437e-38
0.0011011204 -0.14560573 -0.0046319533 9.1284323e-39
0.0029720841 -0.14560573 -0.0046319533 5.6260802e-39
0.0048430478 -0.14560573 -0.0046319533 6.6384483e-39
0.0067140115 -0.14560573 -0.0046319533 3.5959953e-39
0.0085849753 -0.14560573 -0.0046319533 5.5317378e-40
0.01056674 -0.1464123 -0.0075712968 1.8439406e-40
0.012326899 -0.14560573 -0.0046319533 7.3614552e-40
0.014197863 -0.14560573 -0.0046319533 4.5991316e-40
0.016068827 -0.14560573 -0.0046319533 1.8438846e-40
-0.028845713 -0.14387859 0.008397622 9.8649212e-39
-0.026997596 -0.14387859 0.008397622 9.8649184e-39
-0.025167249 -0.14275892 0.012452168 1.06936e-38
-0.02332624 -0.14275892 0.012452168 1.1892499e-38
-0.021485232 -0.14275892 0.012452168 1.2813737e-38
-0.01970179 -0.14111041 0.018421812 1.3089244e-38
-0.017871246 -0.14111041 0.018421812 1.3365113e-38
-0.016040705 -0.14111041 0.018421812 1.3641699e-38
-0.014210163 -0.14111041 0.018421812 1.4379267e-38
-0.012379619 -0.14111041 0.018421812 1.3550225e-38
-0.010549079 -0.14111041 0.018421812 1.3734264e-38
-0.0087185362 -0.14111041 0.018421812 1.3366561e-38
-0.0068879938 -0.14111041 0.018421812 1.2721555e-38
-0.004985719 -0.14194728 0.015391273 8.2961676e-39
-0.0031498624 -0.14194728 0.015391273 7.743714e-39
-0.00076984148 -0.14747669 -0.0046319533 6.8224738e-39
0.0011011204 -0.14747669 -0.0046319533 5.6249984e-39
0.0029720841 -0.14747669 -0.0046319533 3.8732842e-39
0.0048430478 -0.14747669 -0.0046319533 3.0428187e-39
0.0067140115 -0.14747669 -0.0046319533 4.6062642e-40
0.0085849753 -0.14747669 -0.0046319533 2.8025969e-45
0.01056674 -0.14828841 -0.0075712968 9.1841101e-41
0.012326899 -0.14747669 -0.0046319533 3.67363e-40
0.014197863 -0.14747669 -0.0046319533 2.755191e-40
0.016068827 -0.14747669 -0.0046319533 2.7550649e-40
-0.028845713 -0.1457267 0.008397622 8.3897911e-39
-0.026997596 -0.1457267 0.008397622 8.4819839e-39
-0.025167249 -0.14459993 0.012452168 9.956035e-39
-0.02332624 -0.14459993 0.012452168 1.207689e-38
-0.021508422 -0.14378314 0.015391273 1.336691e-38
-0.01970179 -0.14294095 0.018421812 1.3182518e-38
-0.017871246 -0.14294095 0.018421812 1.3181797e-38
-0.016040705 -0.14294095 0.018421812 1.3273636e-38
-0.014210163 -0.14294095 0.018421812 1.4472182e-38
-0.012379619 -0.14294095 0.018421812 1.2720465e-38
-0.010549079 -0.14294095 0.018421812 1.1798155e-38
-0.0087185362 -0.14294095 0.018421812 1.1338258e-38
-0.0068879938 -0.14294095 0.018421812 1.1430816e-38
-0.004985719 -0.14378314 0.015391273 7.7429938e-39
-0.0030751405 -0.14459993 0.012452168 6.9139562e-39
-0.0012341319 -0.14459993 0.012452168 5.5313749e-39
0.0029720841 -0.14934768 -0.0046319533 3.1353563e-39
0.0048430478 -0.14934768 -0.0046319533 1.2903857e-39
0.012326899 -0.14934768 -0.0046319533 1.0109373e-39
0.014197863 -0.14934768 -0.0046319533 3.673574e-40
0.016068827 -0.14934768 -0.0046319533 2.0257745e-39
-0.028845713 -0.14757483 0.008397622 7.0979733e-39
-0.026997596 -0.14757483 0.008397622 7.2823617e-39
-0.025167249 -0.14644094 0.012452168 8.7574918e-39
-0.02332624 -0.14644094 0.012452168 1.1246774e-38
-0.021508422 -0.14561899 0.015391273 1.2813737e-38
-0.01970179 -0.1447715 0.018421812 1.2629345e-38
-0.017871246 -0.1447715 0.018421812 1.2352758e-38
-0.016040705 -0.1447715 0.018421812 1.2537153e-38
-0.014210163 -0.1447715 0.018421812 1.1707036e-38
-0.012379619 -0.1447715 0.018421812 1.1338253e-38
-0.01060455 -0.14392884 0.021434946 8.5723873e-39
-0.0087792901 -0.14392884 0.021434946 8.5727488e-39
-0.006954032 -0.14392884 0.021434946 5.8990784e-39
-0.0050574513 -0.1447715 0.018421812 3.8714976e-39
-0.0032269089 -0.1447715 0.018421812 1.5666096e-39
-0.0013963664 -0.1447715 0.018421812 1.8439126e-40
-0.027008258 -0.14828195 0.012452168 7.4660369e-39
-0.025167249 -0.14828195 0.012452168 7.0972544e-39
-0.02332624 -0.14828195 0.012452168 8.4801889e-39
-0.021485232 -0.14828195 0.012452168 1.0417019e-38
-0.01970179 -0.14660202 0.018421812 1.1615562e-38
-0.017871246 -0.14660202 0.018421812 1.1984344e-38
-0.016040705 -0.14660202 0.018421812 1.207654e-38
-0.014210163 -0.14660202 0.018421812 1.1246422e-38
-0.012379619 -0.14660202 0.018421812 1.0048958e-38
-0.01060455 -0.14575411 0.021434946 8.6660263e-39
-0.0087792901 -0.14575411 0.021434946 5.8079617e-39
-0.006954032 -0.14575411 0.021434946 3.9636932e-39
-0.005128772 -0.14575411 0.021434946 2.489282e-39
-0.0032269089 -0.14660202 0.018421812 5.5317658e-40
-0.023344276 -0.14929073 0.015391273 6.3596922e-39
-0.021508422 -0.14929073 0.015391273 7.0054231e-39
-0.019730845 -0.14757936 0.021434946 7.3742057e-39
-0.017905585 -0.14757936 0.021434946 7.6507925e-39
-0.016040705 -0.14843257 0.018421812 7.8351838e-39
-0.014210163 -0.14843257 0.018421812 5.9001574e-39
-0.012379619 -0.14843257 0.018421812 4.7016142e-39
-0.01060455 -0.14757936 0.021434946 3.3190427e-39
-0.0087792901 -0.14757936 0.021434946 7.3756504e-40
-0.006954032 -0.14757936 0.021434946 0
-0.005128772 -0.14757936 0.021434946 9.219563e-40
-0.0032269089 -0.14843257 0.018421812 9.2558566e-41
-0.019759735 -0.14855109 0.024430675 5.8990756e-39
-0.017939728 -0.14855109 0.024430675 5.9001574e-39
-0.012429808 -0.14940463 0.021434946 1.751354e-39
-0.01060455 -0.14940463 0.021434946 5.5317378e-40
-0.0087792901 -0.14940463 0.021434946 0
-0.006954032 -0.14940463 0.021434946 0
-0.005128772 -0.14940463 0.021434946 4.6097815e-40
-0.003303512 -0.14940463 0.021434946 1.847542e-40
