# .PCD v0.7 - Point Cloud Data file format
VERSION 0.7
FIELDS x y z rgb
SIZE 4 4 4 4
TYPE F F F F
COUNT 1 1 1 1
WIDTH 278
HEIGHT 1
VIEWPOINT 0 0 0 1 0 0 0
POINTS 278
DATA ascii
0.0007536753 -0.1116785 -0.011582792 2.2864167e-38
0.0024737983 -0.1116785 -0.011582792 2.3417691e-38
0.0042692521 -0.11246039 -0.014545858 2.3234379e-38
0.00599457 -0.11246039 -0.014545858 2.3234379e-38
0.0078061284 -0.11324702 -0.017526865 2.3418043e-38
-0.0009664477 -0.11339863 -0.011582792 2.3509883e-38
0.00068704848 -0.1125911 -0.0085427761 2.3509886e-38
0.0024018406 -0.1125911 -0.0085427761 2.2957078e-38
0.0041939211 -0.11339863 -0.011582792 2.2681212e-38
0.00599457 -0.11418571 -0.014545858 2.3142544e-38
0.0077198879 -0.11418571 -0.014545858 2.2036551e-38
0.0094452081 -0.11418571 -0.014545858 2.341805e-38
-0.011344728 -0.11352326 -0.0056157112 2.341769e-38
-0.0096350675 -0.11352326 -0.0056157112 2.341805e-38
-0.0079254061 -0.11352326 -0.0056157112 2.3142185e-38
-0.0062911133 -0.11217107 -0.00055861473 2.3141467e-38
-0.004590319 -0.11217107 -0.00055861473 2.3417333e-38
-0.0028344721 -0.11297067 -0.0035490394 2.3509523e-38
-0.0011284344 -0.11297067 -0.0035490394 2.3232932e-38
0.00062289712 -0.11352326 -0.0056157112 2.3141808e-38
0.0023325577 -0.11352326 -0.0056157112 2.3234367e-38
0.004042218 -0.11352326 -0.0056157112 2.3418047e-38
0.0058314265 -0.1143059 -0.0085427761 2.3234379e-38
0.0075462204 -0.1143059 -0.0085427761 2.2497892e-38
0.0093542906 -0.11511876 -0.011582792 2.3234379e-38
-0.011344728 -0.11523293 -0.0056157112 2.3509168e-38
-0.0096350675 -0.11523293 -0.0056157112 2.341805e-38
-0.007952583 -0.1146767 -0.0035490394 2.2958154e-38
-0.0062911133 -0.11387186 -0.00055861473 2.341805e-38
-0.004590319 -0.11387186 -0.00055861473 2.341805e-38
-0.0028895263 -0.11387186 -0.00055861473 2.3509883e-38
-0.001188732 -0.11387186 -0.00055861473 2.350987e-38
0.00057760318 -0.1146767 -0.0035490394 2.350986e-38
0.002283639 -0.1146767 -0.0035490394 2.350986e-38
0.0039896765 -0.1146767 -0.0035490394 2.3509873e-38
0.0056957141 -0.1146767 -0.0035490394 2.3142539e-38
0.007461539 -0.11523293 -0.0056157112 2.3050708e-38
0.0091712 -0.11523293 -0.0056157112 2.3142544e-38
-0.013031294 -0.11773549 -0.0085427761 2.3508092e-38
-0.011344728 -0.11694257 -0.0056157112 2.3509168e-38
-0.0096350675 -0.11694257 -0.0056157112 2.3049626e-38
-0.007952583 -0.11638273 -0.0035490394 2.2958507e-38
-0.0062465467 -0.11638273 -0.0035490394 2.341805e-38
-0.004590319 -0.11557265 -0.00055861473 2.2865235e-38
-0.0028895263 -0.11557265 -0.00055861473 2.2864505e-38
-0.001188732 -0.11557265 -0.00055861473 2.3325829e-38
0.00051206228 -0.11557265 -0.00055861473 2.3509851e-38
0.0022128567 -0.11557265 -0.00055861473 2.3509849e-38
0.0039136508 -0.11557265 -0.00055861473 2.3234355e-38
0.0056144432 -0.11557265 -0.00055861473 2.3326206e-38
0.00740175 -0.11638273 -0.0035490394 2.2958873e-38
0.0091077881 -0.11638273 -0.0035490394 2.2128757e-38
0.010813826 -0.11638273 -0.0035490394 2.3509527e-38
0.012519863 -0.11638273 -0.0035490394 2.3415884e-38
-0.013031294 -0.11945029 -0.0085427761 2.3508092e-38
-0.011344728 -0.11865224 -0.0056157112 2.3509168e-38
-0.0096586207 -0.11808877 -0.0035490394 2.3049621e-38
-0.0079919072 -0.11727346 -0.00055861473 2.3234369e-38
-0.0062911133 -0.11727346 -0.00055861473 2.2774111e-38
-0.004590319 -0.11727346 -0.00055861473 2.1759236e-38
-0.0029442434 -0.11646311 0.0024135709 2.1297891e-38
-0.0012486607 -0.11646311 0.0024135709 2.2035446e-38
0.00044692185 -0.11646311 0.0024135709 2.2773358e-38
0.0021425046 -0.11646311 0.0024135709 2.2957749e-38
0.0038380872 -0.11646311 0.0024135709 2.3049958e-38
0.0055336696 -0.11646311 0.0024135709 2.3418035e-38
0.0073152375 -0.11727346 -0.00055861473 2.3142541e-38
0.0090160323 -0.11727346 -0.00055861473 2.2497892e-38
0.010716827 -0.11727346 -0.00055861473 2.3509879e-38
0.012417619 -0.11727346 -0.00055861473 2.3509866e-38
-0.014727431 -0.12199925 -0.011582792 2.3507363e-38
-0.013031294 -0.12116508 -0.0085427761 2.3508092e-38
-0.011344728 -0.12036191 -0.0056157112 2.3324421e-38
-0.0096586207 -0.1197948 -0.0035490394 2.3142535e-38
-0.0079919072 -0.11897425 -0.00055861473 2.3142527e-38
-0.0062911133 -0.11897425 -0.00055861473 2.2591141e-38
-0.0046398262 -0.11815868 0.0024135709 2.1577345e-38
-0.0029442434 -0.11815868 0.0024135709 2.1391155e-38
-0.0012486607 -0.11815868 0.0024135709 2.2220555e-38
0.00044692185 -0.11815868 0.0024135709 2.2958117e-38
0.0020704072 -0.11732288 0.005459547 2.2958117e-38
0.0037606477 -0.11732288 0.005459547 2.2865925e-38
0.0054508899 -0.11732288 0.005459547 2.2774093e-38
0.0072292523 -0.11815868 0.0024135709 2.286702e-38
0.0089248354 -0.11815868 0.0024135709 2.3234367e-38
0.01062042 -0.11815868 0.0024135709 2.3325832e-38
0.012316001 -0.11815868 0.0024135709 2.3509856e-38
-0.014727431 -0.12371938 -0.011582792 2.3508787e-38
-0.013031294 -0.12287988 -0.0085427761 2.3508809e-38
-0.011344728 -0.12207155 -0.0056157112 2.314075e-38
-0.0096927015 -0.12067504 -0.00055861473 2.3142537e-38
-0.0079919072 -0.12067504 -0.00055861473 2.1855374e-38
-0.0063354089 -0.11985429 0.0024135709 2.1671329e-38
-0.0046398262 -0.11985429 0.0024135709 2.1670964e-38
-0.0029442434 -0.11985429 0.0024135709 2.2222345e-38
-0.0012486607 -0.11985429 0.0024135709 2.2867002e-38
0.00044692185 -0.11985429 0.0024135709 2.3418028e-38
0.0020704072 -0.11901312 0.005459547 2.3142517e-38
0.0037606477 -0.11901312 0.005459547 2.2129076e-38
0.0054508899 -0.11901312 0.005459547 2.0931611e-38
0.0072292523 -0.11985429 0.0024135709 2.1300038e-38
0.0089248354 -0.11985429 0.0024135709 2.3418025e-38
0.01062042 -0.11985429 0.0024135709 2.3232913e-38
0.012316001 -0.11985429 0.0024135709 2.3508416e-38
-0.014727431 -0.12543948 -0.011582792 2.3509129e-38
-0.013031294 -0.12459467 -0.0085427761 2.3509521e-38
-0.011344728 -0.12378122 -0.0056157112 2.2958155e-38
-0.0096927015 -0.12237583 -0.00055861473 2.2867032e-38
-0.0080309911 -0.12154986 0.0024135709 1.9827786e-38
-0.0063354089 -0.12154986 0.0024135709 1.982884e-38
-0.0046398262 -0.12154986 0.0024135709 2.0843344e-38
-0.0029442434 -0.12154986 0.0024135709 2.1947907e-38
-0.0012486607 -0.12154986 0.0024135709 2.2775167e-38
0.00044692185 -0.12154986 0.0024135709 2.3234367e-38
0.0020704072 -0.12070335 0.005459547 2.3234367e-38
0.0037606477 -0.12070335 0.005459547 2.1945407e-38
0.0054508899 -0.12070335 0.005459547 2.0286592e-38
0.0071411324 -0.12070335 0.005459547 2.0655371e-38
0.0088313753 -0.12070335 0.005459547 2.3142502e-38
0.01062042 -0.12154986 0.0024135709 2.3232557e-38
0.012316001 -0.12154986 0.0024135709 2.3509142e-38
0.014011585 -0.12154986 0.0024135709 2.0922598e-38
-0.013031294 -0.12630944 -0.0085427761 2.3509507e-38
-0.011344728 -0.12549089 -0.0056157112 2.341769e-38
-0.0096927015 -0.12407662 -0.00055861473 2.2958873e-38
-0.0080309911 -0.12324543 0.0024135709 1.8167914e-38
-0.0063354089 -0.12324543 0.0024135709 1.8354787e-38
-0.0046398262 -0.12324543 0.0024135709 1.9830265e-38
-0.0029442434 -0.12324543 0.0024135709 2.130397e-38
-0.0012486607 -0.12324543 0.0024135709 2.2040117e-38
0.00044692185 -0.12324543 0.0024135709 2.2867026e-38
0.0020704072 -0.12239362 0.005459547 2.3142534e-38
0.0037606477 -0.12239362 0.005459547 2.2683327e-38
0.0054508899 -0.12239362 0.005459547 2.1024872e-38
0.0071411324 -0.12239362 0.005459547 2.1301096e-38
0.0088313753 -0.12239362 0.005459547 2.2774079e-38
0.010521618 -0.12239362 0.005459547 2.3509149e-38
0.012316001 -0.12324543 0.0024135709 2.3509146e-38
0.014011585 -0.12324543 0.0024135709 1.9815528e-38
-0.013054389 -0.12720053 -0.0056157112 2.350913e-38
-0.011364657 -0.12661897 -0.0035490394 2.3230413e-38
-0.0096927015 -0.12577744 -0.00055861473 2.341805e-38
-0.0079919072 -0.12577744 -0.00055861473 1.9825295e-38
-0.0062911133 -0.12577744 -0.00055861473 1.9183842e-38
-0.0046398262 -0.12494104 0.0024135709 2.010722e-38
-0.0029442434 -0.12494104 0.0024135709 1.9276745e-38
-0.0012486607 -0.12494104 0.0024135709 2.2407822e-38
0.00044692185 -0.12494104 0.0024135709 2.2867027e-38
0.0020704072 -0.12408386 0.005459547 2.2683349e-38
0.0037606477 -0.12408386 0.005459547 2.2958831e-38
0.0054508899 -0.12408386 0.005459547 2.0563531e-38
0.0071411324 -0.12408386 0.005459547 2.0469551e-38
0.0088313753 -0.12408386 0.005459547 2.3509863e-38
0.010521618 -0.12408386 0.005459547 2.3230764e-38
0.012316001 -0.12494104 0.0024135709 2.3505902e-38
0.014011585 -0.12494104 0.0024135709 1.7325529e-38
-0.013070694 -0.128325 -0.0035490394 2.3509475e-38
-0.011393495 -0.12747823 -0.00055861473 2.3508072e-38
-0.0096927015 -0.12747823 -0.00055861473 2.3509168e-38
-0.0079919072 -0.12747823 -0.00055861473 1.8256893e-38
-0.0062911133 -0.12747823 -0.00055861473 1.9182766e-38
-0.0046398262 -0.12663661 0.0024135709 2.2132299e-38
-0.0029442434 -0.12663661 0.0024135709 2.2499649e-38
-0.0012486607 -0.12663661 0.0024135709 2.2591498e-38
0.00044692185 -0.12663661 0.0024135709 2.2039774e-38
0.0021425046 -0.12663661 0.0024135709 1.9457571e-38
0.0038380872 -0.12663661 0.0024135709 1.9734486e-38
0.0055336696 -0.12663661 0.0024135709 1.8074245e-38
0.0071411324 -0.1257741 0.005459547 2.2220915e-38
0.0088313753 -0.1257741 0.005459547 2.3509869e-38
0.010521618 -0.1257741 0.005459547 2.3509507e-38
0.012316001 -0.12663661 0.0024135709 1.9724431e-38
0.014011585 -0.12663661 0.0024135709 1.2715742e-38
-0.013070694 -0.13003103 -0.0035490394 2.3319312e-38
-0.011422157 -0.12833218 0.0024135709 2.3509495e-38
-0.0097265746 -0.12833218 0.0024135709 2.3047454e-38
-0.0080309911 -0.12833218 0.0024135709 2.1943625e-38
-0.0063354089 -0.12833218 0.0024135709 2.0472425e-38
-0.0046398262 -0.12833218 0.0024135709 2.2499645e-38
-0.0029442434 -0.12833218 0.0024135709 2.2775162e-38
-0.0012486607 -0.12833218 0.0024135709 2.2775169e-38
0.00044692185 -0.12833218 0.0024135709 2.13022e-38
0.0021425046 -0.12833218 0.0024135709 1.7706919e-38
0.0038380872 -0.12833218 0.0024135709 1.9182738e-38
0.0055336696 -0.12833218 0.0024135709 2.0472397e-38
0.0071411324 -0.12746434 0.005459547 2.185177e-38
0.0088313753 -0.12746434 0.005459547 2.3509144e-38
0.01062042 -0.12833218 0.0024135709 2.33233e-38
0.012316001 -0.12833218 0.0024135709 1.2718266e-38
0.014011585 -0.12833218 0.0024135709 9.2130105e-39
-0.013070694 -0.13173707 -0.0035490394 1.8432925e-38
-0.011422157 -0.13002776 0.0024135709 2.3509828e-38
-0.0097265746 -0.13002776 0.0024135709 2.3509846e-38
-0.0080309911 -0.13002776 0.0024135709 2.3509856e-38
-0.0063354089 -0.13002776 0.0024135709 2.1576251e-38
-0.0046398262 -0.13002776 0.0024135709 2.0010004e-38
-0.0029442434 -0.13002776 0.0024135709 1.9642309e-38
-0.0012486607 -0.13002776 0.0024135709 2.2499663e-38
0.00044692185 -0.13002776 0.0024135709 2.139368e-38
0.0021425046 -0.13002776 0.0024135709 1.7614008e-38
0.0038380872 -0.13002776 0.0024135709 1.9182384e-38
0.0055336696 -0.13002776 0.0024135709 2.26833e-38
0.0071411324 -0.12915458 0.005459547 2.3509856e-38
0.0088313753 -0.12915458 0.005459547 2.3509859e-38
0.01062042 -0.13002776 0.0024135709 2.3509115e-38
0.012316001 -0.13002776 0.0024135709 9.9527392e-39
0.014011585 -0.13002776 0.0024135709 9.4895806e-39
-0.011422157 -0.13172336 0.0024135709 2.1477881e-38
-0.0097265746 -0.13172336 0.0024135709 2.3509816e-38
-0.0080309911 -0.13172336 0.0024135709 2.3231439e-38
-0.0062911133 -0.13258059 -0.00055861473 2.3509841e-38
-0.004590319 -0.13258059 -0.00055861473 2.138935e-38
-0.0028895263 -0.13258059 -0.00055861473 1.9085552e-38
-0.0012486607 -0.13172336 0.0024135709 2.0837277e-38
0.00044692185 -0.13172336 0.0024135709 2.0653612e-38
0.0021425046 -0.13172336 0.0024135709 1.8811126e-38
0.0038380872 -0.13172336 0.0024135709 2.0747931e-38
0.0055336696 -0.13172336 0.0024135709 2.3418008e-38
0.0072292523 -0.13172336 0.0024135709 2.3509856e-38
0.0089248354 -0.13172336 0.0024135709 2.2492095e-38
0.01062042 -0.13172336 0.0024135709 1.9357056e-38
0.012316001 -0.13172336 0.0024135709 1.0228588e-38
-0.0097265746 -0.13341893 0.0024135709 2.1292046e-38
-0.0080309911 -0.13341893 0.0024135709 2.3509809e-38
-0.0062911133 -0.13428138 -0.00055861473 2.3506948e-38
-0.004590319 -0.13428138 -0.00055861473 2.3506607e-38
-0.0028895263 -0.13428138 -0.00055861473 2.3508067e-38
-0.001188732 -0.13428138 -0.00055861473 2.3509873e-38
0.00044692185 -0.13341893 0.0024135709 2.3509876e-38
0.0021425046 -0.13341893 0.0024135709 2.3326196e-38
0.0038380872 -0.13341893 0.0024135709 2.2866286e-38
0.0055336696 -0.13341893 0.0024135709 2.3234341e-38
0.0072292523 -0.13341893 0.0024135709 2.350769e-38
0.0089248354 -0.13341893 0.0024135709 1.327108e-38
0.01062042 -0.13341893 0.0024135709 1.0597018e-38
0.012316001 -0.13341893 0.0024135709 1.0411886e-38
-0.0097265746 -0.13511451 0.0024135709 1.4835454e-38
-0.0080309911 -0.13511451 0.0024135709 2.1843062e-38
-0.0062911133 -0.1359822 -0.00055861473 2.3509095e-38
-0.004590319 -0.1359822 -0.00055861473 2.3509116e-38
-0.0028895263 -0.1359822 -0.00055861473 2.3509133e-38
-0.001188732 -0.1359822 -0.00055861473 2.3507342e-38
0.00044692185 -0.13511451 0.0024135709 2.3506623e-38
0.0021425046 -0.13511451 0.0024135709 2.3509866e-38
0.0039136508 -0.1359822 -0.00055861473 2.3509866e-38
0.0055336696 -0.13511451 0.0024135709 2.3509856e-38
0.0072292523 -0.13511451 0.0024135709 1.9815896e-38
0.0089248354 -0.13511451 0.0024135709 1.0133175e-38
-0.0079919072 -0.13768299 -0.00055861473 1.19738e-38
-0.0062911133 -0.13768299 -0.00055861473 1.4187236e-38
-0.004590319 -0.13768299 -0.00055861473 1.6124081e-38
-0.0028895263 -0.13768299 -0.00055861473 1.8983239e-38
-0.0012486607 -0.13681011 0.0024135709 1.9446023e-38
0.00044692185 -0.13681011 0.0024135709 1.8433318e-38
0.0021425046 -0.13681011 0.0024135709 1.594584e-38
0.0038380872 -0.13681011 0.0024135709 1.18896e-38
0.0055336696 -0.13681011 0.0024135709 9.6754614e-39
0.0072292523 -0.13681011 0.0024135709 9.580005e-39
0.0089248354 -0.13681011 0.0024135709 9.2086889e-39
-0.0062911133 -0.13938378 -0.00055861473 1.1418108e-38
-0.004590319 -0.13938378 -0.00055861473 1.1050407e-38
-0.0028895263 -0.13938378 -0.00055861473 1.1789057e-38
-0.0012486607 -0.13850568 0.0024135709 1.2897568e-38
0.00044692185 -0.13850568 0.0024135709 1.1977778e-38
0.0021425046 -0.13850568 0.0024135709 9.766536e-39
0.0038380872 -0.13850568 0.0024135709 9.028985e-39
0.0055336696 -0.13850568 0.0024135709 1.0041698e-38
0.0072292523 -0.13850568 0.0024135709 1.0222475e-38
-0.0062911133 -0.14108457 -0.00055861473 1.1047164e-38
-0.004590319 -0.14108457 -0.00055861473 1.0864211e-38
-0.0028895263 -0.14108457 -0.00055861473 1.1327334e-38
-0.0012486607 -0.14020126 0.0024135709 1.2342568e-38
0.00044692185 -0.14020126 0.0024135709 1.2067793e-38
-0.0062911133 -0.14278536 -0.00055861473 1.2429721e-38
-0.004590319 -0.14278536 -0.00055861473 1.2246766e-38
-0.0028895263 -0.14278536 -0.00055861473 1.2247483e-38
-0.001188732 -0.14278536 -0.00055861473 1.2156371e-38
0.00051206228 -0.14278536 -0.00055861473 1.169685e-38
