# .PCD v0.7 - Point Cloud Data file format
VERSION 0.7
FIELDS x y z rgb
SIZE 4 4 4 4
TYPE F F F F
COUNT 1 1 1 1
WIDTH 460
HEIGHT 1
VIEWPOINT 0 0 0 1 0 0 0
POINTS 460
DATA ascii
-0.017000755 -0.11514379 -0.048313141 1.0408638e-38
-0.015159747 -0.11514379 -0.048313141 1.0407934e-38
-0.016946649 -0.11624531 -0.045374036 1.0317871e-38
-0.015110789 -0.11624531 -0.045374036 1.0500127e-38
-0.024060259 -0.11579098 -0.036334634 9.6722104e-39
-0.022240249 -0.11579098 -0.036334634 9.0275318e-39
-0.016946649 -0.11808117 -0.045374036 1.013384e-38
-0.015110789 -0.11808117 -0.045374036 1.0409365e-38
-0.02596168 -0.11837523 -0.039330363 1.0134653e-38
-0.024060259 -0.11761098 -0.036334634 9.6732922e-39
-0.022240249 -0.11761098 -0.036334634 9.3970332e-39
-0.020420244 -0.11761098 -0.036334634 9.6739578e-39
-0.018600238 -0.11761098 -0.036334634 1.0134922e-38
-0.016835382 -0.11837523 -0.039330363 1.0227115e-38
-0.015060311 -0.11914389 -0.042343497 1.0317885e-38
-0.027786938 -0.12020047 -0.039330363 1.004607e-38
-0.02596168 -0.12020047 -0.039330363 9.858422e-39
-0.024060259 -0.11943097 -0.036334634 9.5810938e-39
-0.022240249 -0.11943097 -0.036334634 9.5814245e-39
-0.020420244 -0.11943097 -0.036334634 1.004274e-38
-0.018600238 -0.11943097 -0.036334634 1.0411509e-38
-0.016835382 -0.12020047 -0.039330363 1.0227118e-38
-0.015060311 -0.12097444 -0.042343497 1.0040942e-38
-0.029520279 -0.121251 -0.036334634 8.2957976e-39
-0.027700273 -0.121251 -0.036334634 8.8471651e-39
-0.025880264 -0.121251 -0.036334634 9.4896394e-39
-0.024060259 -0.121251 -0.036334634 9.4878192e-39
-0.022240249 -0.121251 -0.036334634 9.48851e-39
-0.020334063 -0.12023406 -0.032402396 9.8579932e-39
-0.018520949 -0.12023406 -0.032402396 1.0134566e-38
-0.01665148 -0.11944233 -0.029340982 1.004165e-38
-0.014843734 -0.11944233 -0.029340982 9.67216e-39
-0.013035988 -0.11944233 -0.029340982 9.6710922e-39
-0.011228247 -0.11944233 -0.029340982 1.0039523e-38
-0.031437457 -0.12385099 -0.039330363 8.3883464e-39
-0.029520279 -0.123071 -0.036334634 7.7426238e-39
-0.027700273 -0.123071 -0.036334634 8.1096001e-39
-0.025880264 -0.123071 -0.036334634 9.3974438e-39
-0.024060259 -0.123071 -0.036334634 9.3956235e-39
-0.022240249 -0.123071 -0.036334634 9.3041187e-39
-0.020334063 -0.12204717 -0.032402396 9.5814063e-39
-0.018520949 -0.12204717 -0.032402396 9.7657863e-39
-0.01665148 -0.12125005 -0.029340982 9.7647073e-39
-0.014843734 -0.12125005 -0.029340982 9.7636395e-39
-0.013035988 -0.12125005 -0.029340982 1.0038796e-38
-0.011228247 -0.12125005 -0.029340982 9.9462483e-39
-0.029612197 -0.12567626 -0.039330363 8.7571317e-39
-0.027786938 -0.12567626 -0.039330363 8.8471623e-39
-0.02596168 -0.12567626 -0.039330363 9.4896366e-39
-0.024060259 -0.124891 -0.036334634 9.4881751e-39
-0.022240249 -0.124891 -0.036334634 9.3041215e-39
-0.02020256 -0.12228753 -0.026402354 9.5806888e-39
-0.018399971 -0.12228753 -0.026402354 9.8569044e-39
-0.016597381 -0.12228753 -0.026402354 9.9483811e-39
-0.014794787 -0.12228753 -0.026402354 1.0316093e-38
-0.012992194 -0.12228753 -0.026402354 1.0684165e-38
-0.0111896 -0.12228753 -0.026402354 1.0130997e-38
-0.0093870107 -0.12228753 -0.026402354 1.09604e-38
-0.0075844172 -0.12228753 -0.026402354 1.0960755e-38
-0.031437457 -0.1275015 -0.039330363 9.4025011e-39
-0.029612197 -0.1275015 -0.039330363 9.1259142e-39
-0.027786938 -0.1275015 -0.039330363 9.1237492e-39
-0.02596168 -0.1275015 -0.039330363 9.397441e-39
-0.024136422 -0.1275015 -0.039330363 9.4881751e-39
-0.022240249 -0.126711 -0.036334634 9.3041215e-39
-0.02020256 -0.12409012 -0.026402354 9.5806916e-39
-0.018399971 -0.12409012 -0.026402354 9.9491028e-39
-0.016597381 -0.12409012 -0.026402354 1.0132775e-38
-0.014794787 -0.12409012 -0.026402354 1.0684518e-38
-0.012992194 -0.12409012 -0.026402354 1.1236979e-38
-0.0111896 -0.12409012 -0.026402354 1.0960039e-38
-0.0093870107 -0.12409012 -0.026402354 1.1513931e-38
-0.0075844172 -0.12409012 -0.026402354 1.1513926e-38
-0.029612197 -0.12932678 -0.039330363 1.0324457e-38
-0.027786938 -0.12932678 -0.039330363 1.0322648e-38
-0.02596168 -0.12932678 -0.039330363 9.1208513e-39
-0.024136422 -0.12932678 -0.039330363 9.3952606e-39
-0.022240249 -0.12853102 -0.036334634 9.3955983e-39
-0.020334063 -0.12748651 -0.032402396 9.8562023e-39
-0.018399971 -0.12589271 -0.026402354 1.0132778e-38
-0.016597381 -0.12589271 -0.026402354 1.0408286e-38
-0.014794787 -0.12589271 -0.026402354 1.0868193e-38
-0.012992194 -0.12589271 -0.026402354 1.1328818e-38
-0.0111896 -0.12589271 -0.026402354 1.1328818e-38
-0.0093870107 -0.12589271 -0.026402354 1.1789797e-38
-0.0075844172 -0.12589271 -0.026402354 1.1606475e-38
-0.0057818256 -0.12589271 -0.026402354 1.1146578e-38
-0.029612197 -0.13115202 -0.039330363 9.4946967e-39
-0.027786938 -0.13115202 -0.039330363 9.8616702e-39
-0.02596168 -0.13115202 -0.039330363 9.3052426e-39
-0.024136422 -0.13115202 -0.039330363 9.2108693e-39
-0.022240249 -0.13035102 -0.036334634 9.1190114e-39
-0.020334063 -0.1292996 -0.032402396 9.671811e-39
-0.018459221 -0.12848105 -0.029340982 1.0407931e-38
-0.01665148 -0.12848105 -0.029340982 1.0591604e-38
-0.014794787 -0.12769531 -0.026402354 1.0959673e-38
-0.012992194 -0.12769531 -0.026402354 1.1328458e-38
-0.0111896 -0.12769531 -0.026402354 1.1236263e-38
-0.0093870107 -0.12769531 -0.026402354 1.1329174e-38
-0.0075844172 -0.12769531 -0.026402354 1.1238049e-38
-0.0057818256 -0.12769531 -0.026402354 1.188414e-38
-0.027786938 -0.13297729 -0.039330363 8.1099532e-39
-0.02596168 -0.13297729 -0.039330363 9.7665781e-39
-0.024136422 -0.13297729 -0.039330363 9.9484316e-39
-0.022240249 -0.13217102 -0.036334634 1.0040971e-38
-0.020334063 -0.13111271 -0.032402396 1.0777443e-38
-0.018520949 -0.13111271 -0.032402396 1.1237695e-38
-0.01665148 -0.13028879 -0.029340982 1.1328453e-38
-0.014843734 -0.13028879 -0.029340982 1.1419575e-38
-0.013035988 -0.13028879 -0.029340982 1.1511773e-38
-0.0111896 -0.1294979 -0.026402354 1.0774206e-38
-0.0093525257 -0.12868352 -0.023376465 1.1051866e-38
-0.007555237 -0.12868352 -0.023376465 1.160611e-38
-0.0057579521 -0.12868352 -0.023376465 1.2252922e-38
0.01690558 -0.11602069 0.023673296 2.3234379e-38
0.018620372 -0.11602069 0.023673296 2.2220234e-38
0.020335164 -0.11602069 0.023673296 2.2220601e-38
-0.024060259 -0.13399105 -0.036334634 1.0225018e-38
-0.022240249 -0.13399105 -0.036334634 1.0225362e-38
-0.020420244 -0.13399105 -0.036334634 1.0777445e-38
-0.018520949 -0.13292582 -0.032402396 1.1144783e-38
-0.016707839 -0.13292582 -0.032402396 1.1144064e-38
-0.014894726 -0.13292582 -0.032402396 1.1235186e-38
-0.013081616 -0.13292582 -0.032402396 1.1418859e-38
-0.0111896 -0.13130049 -0.026402354 1.1511408e-38
-0.0093525257 -0.13048081 -0.023376465 1.1696512e-38
-0.007555237 -0.13048081 -0.023376465 1.1882694e-38
-0.0057106204 -0.12885578 -0.017377615 1.1607908e-38
-0.0039238501 -0.12885578 -0.017377615 1.1055824e-38
0.008368453 -0.11936165 0.017670214 2.3509168e-38
0.010023313 -0.11694257 0.026600361 2.3509527e-38
0.011732973 -0.11694257 0.026600361 2.2865235e-38
0.013442634 -0.11694257 0.026600361 2.2680844e-38
0.015152295 -0.11694257 0.026600361 2.3234379e-38
0.016861957 -0.11694257 0.026600361 2.3234379e-38
0.018571617 -0.11694257 0.026600361 2.3050708e-38
0.020281278 -0.11694257 0.026600361 2.3142544e-38
0.022049958 -0.11773549 0.023673296 2.3142544e-38
-0.024060259 -0.13581105 -0.036334634 1.0316851e-38
-0.022240249 -0.13581105 -0.036334634 1.0224283e-38
-0.020420244 -0.13581105 -0.036334634 1.0316467e-38
-0.018520949 -0.13473894 -0.032402396 1.0591253e-38
-0.016707839 -0.13473894 -0.032402396 1.0958597e-38
-0.014843734 -0.13390426 -0.029340982 1.1234468e-38
-0.013035988 -0.13390426 -0.029340982 1.1418859e-38
-0.0111896 -0.13310309 -0.026402354 1.1695799e-38
-0.0093182418 -0.13145791 -0.020368218 1.234188e-38
-0.0075262282 -0.13145791 -0.020368218 1.2344028e-38
-0.0056871623 -0.12983195 -0.014404535 1.1239123e-38
-0.0039056074 -0.12983195 -0.014404535 1.1332409e-38
-0.0021106489 -0.12899835 -0.011347055 1.0318638e-38
-0.00033445284 -0.12899835 -0.011347055 1.0871478e-38
0.0066301469 -0.12027912 0.02063328 2.3047838e-38
0.0083502699 -0.12027912 0.02063328 2.3416615e-38
0.010023313 -0.11865224 0.026600361 2.341805e-38
0.011732973 -0.11865224 0.026600361 2.3418047e-38
0.013419081 -0.11808877 0.028667033 2.3234367e-38
0.015125118 -0.11808877 0.028667033 2.3234364e-38
0.016861957 -0.11865224 0.026600361 2.2774465e-38
0.018571617 -0.11865224 0.026600361 2.3142537e-38
0.020281278 -0.11865224 0.026600361 2.3050347e-38
0.022049958 -0.11945029 0.023673296 2.3142544e-38
0.02376475 -0.11945029 0.023673296 2.2865243e-38
-0.025880264 -0.13763104 -0.036334634 9.7658522e-39
-0.024060259 -0.13763104 -0.036334634 1.0409047e-38
-0.022147177 -0.13655205 -0.032402396 1.0685261e-38
-0.020334063 -0.13655205 -0.032402396 1.09604e-38
-0.018520949 -0.13655205 -0.032402396 1.1143711e-38
-0.016707839 -0.13655205 -0.032402396 1.1419578e-38
-0.014794787 -0.13490568 -0.026402354 1.1511056e-38
-0.012992194 -0.13490568 -0.026402354 1.1694367e-38
-0.011149811 -0.13407536 -0.023376465 1.0866038e-38
-0.0093182418 -0.13324992 -0.020368218 1.2342236e-38
-0.0074973889 -0.13242932 -0.017377615 1.2435504e-38
-0.0056871623 -0.13161351 -0.014404535 1.1238398e-38
-0.0038681943 -0.12994061 -0.0083079338 1.1885582e-38
-0.0020973273 -0.12994061 -0.0083079338 1.1056201e-38
-0.00027923658 -0.12501357 0.009648025 1.0963677e-38
0.001460148 -0.12501357 0.009648025 2.3508423e-38
0.0031899009 -0.12199925 0.02063328 2.3509869e-38
0.0049100239 -0.12199925 0.02063328 2.3418047e-38
0.0066301469 -0.12199925 0.02063328 2.3417691e-38
0.0083316145 -0.12116508 0.023673296 2.2956362e-38
0.010023313 -0.12036191 0.026600361 2.2771973e-38
0.011732973 -0.12036191 0.026600361 2.3325856e-38
0.013419081 -0.1197948 0.028667033 2.3418021e-38
0.015125118 -0.1197948 0.028667033 2.3234329e-38
0.016861957 -0.12036191 0.026600361 2.3418005e-38
0.018571617 -0.12036191 0.026600361 2.3234353e-38
0.020281278 -0.12036191 0.026600361 2.2957078e-38
0.022049958 -0.12116508 0.023673296 2.2035137e-38
0.02376475 -0.12116508 0.023673296 2.3233662e-38
0.0255515 -0.12199925 0.02063328 2.323402e-38
0.027271623 -0.12199925 0.02063328 2.3050347e-38
-0.024060259 -0.13945107 -0.036334634 1.0224656e-38
-0.022147177 -0.13836516 -0.032402396 1.0961848e-38
-0.020334063 -0.13836516 -0.032402396 1.1421381e-38
-0.018600238 -0.13945107 -0.036334634 1.1604691e-38
-0.016780233 -0.13945107 -0.036334634 1.1787643e-38
-0.014744384 -0.13587265 -0.023376465 1.1694371e-38
-0.012947099 -0.13587265 -0.023376465 1.1325586e-38
-0.011110252 -0.13504194 -0.020368218 1.1418133e-38
-0.0092841592 -0.13421609 -0.017377615 1.225004e-38
-0.0074973889 -0.13421609 -0.017377615 1.1237316e-38
-0.0056871623 -0.13339506 -0.014404535 1.0132051e-38
-0.0038681943 -0.1317115 -0.0083079338 1.0687036e-38
-0.0020973273 -0.1317115 -0.0083079338 1.087181e-38
-0.00027131662 -0.12592132 0.01265955 1.2531002e-38
0.0014671795 -0.12453763 0.017670214 2.3509142e-38
0.0031899009 -0.12371938 0.02063328 2.350987e-38
0.0049020294 -0.12287988 0.023673296 2.3234015e-38
0.0066168215 -0.12287988 0.023673296 2.341805e-38
0.0083316145 -0.12287988 0.023673296 2.3417691e-38
0.010007007 -0.12150083 0.028667033 2.295672e-38
0.011713044 -0.12150083 0.028667033 2.1851078e-38
0.013419081 -0.12150083 0.028667033 2.0378063e-38
0.015125118 -0.12150083 0.028667033 2.0839741e-38
0.016861957 -0.12207155 0.026600361 2.1577309e-38
0.018571617 -0.12207155 0.026600361 2.2774794e-38
0.020281278 -0.12207155 0.026600361 2.3418045e-38
0.022049958 -0.12287988 0.023673296 2.3417691e-38
0.02376475 -0.12287988 0.023673296 2.2864526e-38
0.025479542 -0.12287988 0.023673296 2.3234379e-38
0.027194336 -0.12287988 0.023673296 2.341805e-38
-0.024060259 -0.14127107 -0.036334634 1.0224656e-38
-0.022147177 -0.14017828 -0.032402396 1.0869295e-38
-0.020334063 -0.14017828 -0.032402396 1.1052599e-38
-0.018600238 -0.14127107 -0.036334634 1.1143713e-38
-0.016597381 -0.13851084 -0.026402354 1.1511056e-38
-0.014744384 -0.13766994 -0.023376465 1.1602175e-38
-0.012902265 -0.13683395 -0.020368218 1.1325586e-38
-0.011070928 -0.13600285 -0.017377615 1.2155698e-38
-0.0092502739 -0.13517661 -0.014404535 1.2341517e-38
-0.0074687172 -0.13517661 -0.014404535 1.068414e-38
-0.0056630392 -0.13432692 -0.011347055 1.0316439e-38
-0.0038502719 -0.13267075 -0.0053874254 9.7650801e-39
-0.0020319019 -0.12933435 0.0066181421 1.0134245e-38
-0.00027131662 -0.12765543 0.01265955 1.4006851e-38
0.0014671795 -0.12626295 0.017670214 2.3509143e-38
0.0031899009 -0.12543948 0.02063328 2.3509516e-38
0.0049020294 -0.12459467 0.023673296 2.277376e-38
0.0066168215 -0.12459467 0.023673296 2.3234379e-38
0.0083136521 -0.12378122 0.026600361 2.3234376e-38
0.010007007 -0.1232069 0.028667033 2.3418035e-38
0.011713044 -0.1232069 0.028667033 2.1944328e-38
0.013419081 -0.1232069 0.028667033 1.9086603e-38
0.015125118 -0.1232069 0.028667033 1.9271346e-38
0.016861957 -0.12378122 0.026600361 1.8164998e-38
0.018571617 -0.12378122 0.026600361 2.1391494e-38
0.020281278 -0.12378122 0.026600361 2.3509859e-38
0.022049958 -0.12459467 0.023673296 2.3509873e-38
0.02376475 -0.12459467 0.023673296 2.3141103e-38
0.025479542 -0.12459467 0.023673296 2.3233662e-38
0.027194336 -0.12459467 0.023673296 2.3509886e-38
-0.018600238 -0.14309107 -0.036334634 1.0406866e-38
-0.016597381 -0.14031343 -0.026402354 1.1235186e-38
-0.014744384 -0.13946722 -0.023376465 1.197131e-38
-0.012902265 -0.13862596 -0.020368218 1.2063505e-38
-0.011070928 -0.13778962 -0.017377615 1.1602524e-38
-0.0092502739 -0.13695817 -0.014404535 1.2065295e-38
-0.0074687172 -0.13695817 -0.014404535 1.1421356e-38
-0.0056630392 -0.13610314 -0.011347055 1.234547e-38
-0.0038502719 -0.13443647 -0.0053874254 1.087143e-38
-0.0020319019 -0.13107903 0.0066181421 1.0042047e-38
-0.00026597828 -0.12882192 0.014689207 1.4283434e-38
0.0014697779 -0.12715961 0.02063328 2.3507337e-38
0.0031872354 -0.12630944 0.023673296 2.3509873e-38
0.0048943311 -0.12549089 0.026600361 2.3234374e-38
0.0066039916 -0.12549089 0.026600361 2.3142537e-38
0.0083136521 -0.12549089 0.026600361 2.166812e-38
0.010007007 -0.12491293 0.028667033 2.2682621e-38
0.011713044 -0.12491293 0.028667033 2.3326187e-38
0.013419081 -0.12491293 0.028667033 2.0562103e-38
0.015125118 -0.12491293 0.028667033 2.0469543e-38
0.016861957 -0.12549089 0.026600361 2.0561736e-38
0.018620372 -0.12630944 0.023673296 2.3326173e-38
0.020335164 -0.12630944 0.023673296 2.1206753e-38
0.022049958 -0.12630944 0.023673296 2.258898e-38
0.02376475 -0.12630944 0.023673296 2.3509876e-38
0.025479542 -0.12630944 0.023673296 2.3048545e-38
0.027194336 -0.12630944 0.023673296 2.3509527e-38
-0.01866064 -0.14575411 -0.039330363 1.0591618e-38
-0.016835382 -0.14575411 -0.039330363 1.0868191e-38
-0.014744384 -0.14126451 -0.023376465 1.1328081e-38
-0.012947099 -0.14126451 -0.023376465 1.1419561e-38
-0.0092502739 -0.13873972 -0.014404535 1.2342256e-38
-0.0074687172 -0.13873972 -0.014404535 1.1421017e-38
-0.0056630392 -0.13787933 -0.011347055 1.1792313e-38
-0.0038681943 -0.13702409 -0.0083079338 1.0595209e-38
-0.0020319019 -0.13282375 0.0066181421 9.9509273e-39
-0.0002581384 -0.12971358 0.017670214 1.4285218e-38
0.0014697779 -0.12887974 0.02063328 2.3509841e-38
0.0031872354 -0.12802424 0.023673296 2.3233988e-38
0.0048943311 -0.12720053 0.026600361 2.3142528e-38
0.0066039916 -0.12720053 0.026600361 2.3142534e-38
0.0083136521 -0.12720053 0.026600361 2.2221657e-38
0.010007007 -0.12661897 0.028667033 2.2867027e-38
0.011713044 -0.12661897 0.028667033 2.3234372e-38
0.013419081 -0.12661897 0.028667033 2.2405682e-38
0.015125118 -0.12661897 0.028667033 2.129861e-38
0.016861957 -0.12720053 0.026600361 2.194433e-38
0.018620372 -0.12802424 0.023673296 2.2036524e-38
0.020335164 -0.12802424 0.023673296 2.1022009e-38
0.021990938 -0.12720053 0.026600361 2.1574828e-38
0.023700599 -0.12720053 0.026600361 2.3233282e-38
0.025410259 -0.12720053 0.026600361 2.3509879e-38
0.02711992 -0.12720053 0.026600361 2.3509524e-38
-0.01866064 -0.14757936 -0.039330363 1.068525e-38
-0.016835382 -0.14757936 -0.039330363 1.0960744e-38
-0.015010124 -0.14757936 -0.039330363 1.1236962e-38
-0.0092502739 -0.14052127 -0.014404535 1.1604689e-38
-0.0074687172 -0.14052127 -0.014404535 1.1605054e-38
-0.0056871623 -0.14052127 -0.014404535 1.2344417e-38
-0.0038681943 -0.13879494 -0.0083079338 1.0871082e-38
-0.0020973273 -0.13879494 -0.0083079338 9.0282507e-39
-0.0002503451 -0.13059987 0.02063328 1.2440576e-38
0.0014724433 -0.12973903 0.023673296 2.3509828e-38
0.0031846706 -0.1289102 0.026600361 2.3509852e-38
0.0048943311 -0.1289102 0.026600361 2.3234362e-38
0.0066039916 -0.1289102 0.026600361 2.2775183e-38
0.0083136521 -0.1289102 0.026600361 2.2682636e-38
0.010007007 -0.128325 0.028667033 2.3142544e-38
0.011713044 -0.128325 0.028667033 2.3050707e-38
0.013442634 -0.1289102 0.026600361 2.3050701e-38
0.015152295 -0.1289102 0.026600361 2.3142531e-38
0.016861957 -0.1289102 0.026600361 2.2867012e-38
0.018620372 -0.12973903 0.023673296 2.2775169e-38
0.020335164 -0.12973903 0.023673296 2.2220915e-38
0.021990938 -0.1289102 0.026600361 2.1482633e-38
0.023700599 -0.1289102 0.026600361 2.350987e-38
0.025410259 -0.1289102 0.026600361 2.2863429e-38
0.02711992 -0.1289102 0.026600361 2.3509168e-38
-0.0074687172 -0.14230286 -0.014404535 1.2066018e-38
-0.0056871623 -0.14230286 -0.014404535 1.2528083e-38
-0.0038681943 -0.14056583 -0.0083079338 1.0961848e-38
-0.0020973273 -0.14056583 -0.0083079338 8.2896137e-39
-0.0002503451 -0.13231997 0.02063328 1.0503381e-38
0.0014724433 -0.13145383 0.023673296 2.3508742e-38
0.0031846706 -0.13061987 0.026600361 2.3509856e-38
0.0048943311 -0.13061987 0.026600361 2.341804e-38
0.0066039916 -0.13061987 0.026600361 2.2681916e-38
0.0083136521 -0.13061987 0.026600361 2.2129462e-38
0.010023313 -0.13061987 0.026600361 2.2498245e-38
0.011732973 -0.13061987 0.026600361 2.2314931e-38
0.013442634 -0.13061987 0.026600361 2.2316e-38
0.015152295 -0.13061987 0.026600361 2.2867018e-38
0.016861957 -0.13061987 0.026600361 2.2683335e-38
0.018620372 -0.13145383 0.023673296 2.2958843e-38
0.020335164 -0.13145383 0.023673296 2.3050677e-38
0.021990938 -0.13061987 0.026600361 2.0009303e-38
0.023700599 -0.13061987 0.026600361 2.3141808e-38
0.025410259 -0.13061987 0.026600361 2.258721e-38
0.02711992 -0.13061987 0.026600361 2.2954568e-38
-0.0056871623 -0.14408441 -0.014404535 1.1973825e-38
-0.0038868431 -0.14320792 -0.011347055 1.1144441e-38
-0.0021106489 -0.14320792 -0.011347055 9.3945221e-39
-0.00033445284 -0.14320792 -0.011347055 1.059449e-38
0.0014697779 -0.1340401 0.02063328 2.3507652e-38
0.0031872354 -0.13316862 0.023673296 2.3509848e-38
0.0048943311 -0.13232954 0.026600361 2.3509866e-38
0.0066039916 -0.13232954 0.026600361 2.2496434e-38
0.0083316145 -0.13316862 0.023673296 1.963981e-38
0.010023313 -0.13232954 0.026600361 1.9917116e-38
0.011732973 -0.13232954 0.026600361 2.1854302e-38
0.013442634 -0.13232954 0.026600361 2.2407832e-38
0.015152295 -0.13232954 0.026600361 2.2040477e-38
0.016861957 -0.13232954 0.026600361 2.2499656e-38
0.018571617 -0.13232954 0.026600361 2.2775162e-38
0.020281278 -0.13232954 0.026600361 2.2958838e-38
0.021990938 -0.13232954 0.026600361 2.1208561e-38
0.023700599 -0.13232954 0.026600361 2.3050327e-38
0.025410259 -0.13232954 0.026600361 2.350988e-38
0.02711992 -0.13232954 0.026600361 2.3509168e-38
-0.0056871623 -0.14586596 -0.014404535 1.1235533e-38
-0.0038868431 -0.14498411 -0.011347055 1.1328104e-38
-0.0021106489 -0.14498411 -0.011347055 1.1329186e-38
-0.00033445284 -0.14498411 -0.011347055 1.1238774e-38
0.0014697779 -0.13576023 0.02063328 2.1935991e-38
0.0031899009 -0.13576023 0.02063328 2.3508741e-38
0.0049020294 -0.13488342 0.023673296 2.3509841e-38
0.0066168215 -0.13488342 0.023673296 2.2772636e-38
0.0083316145 -0.13488342 0.023673296 1.8809664e-38
0.010046408 -0.13488342 0.023673296 1.8073544e-38
0.011732973 -0.13403918 0.026600361 2.0287681e-38
0.013442634 -0.13403918 0.026600361 2.2315985e-38
0.015152295 -0.13403918 0.026600361 2.2591496e-38
0.016861957 -0.13403918 0.026600361 2.2591491e-38
0.018571617 -0.13403918 0.026600361 2.1581283e-38
0.020281278 -0.13403918 0.026600361 2.2040463e-38
0.021990938 -0.13403918 0.026600361 2.3142504e-38
0.023700599 -0.13403918 0.026600361 2.2129073e-38
0.025410259 -0.13403918 0.026600361 2.350986e-38
0.02711992 -0.13403918 0.026600361 2.3509144e-38
0.0014671795 -0.13834016 0.017670214 1.6218054e-38
0.0031899009 -0.13748036 0.02063328 2.184488e-38
0.0049020294 -0.13659821 0.023673296 2.3509811e-38
0.0066168215 -0.13659821 0.023673296 2.3509824e-38
0.0083316145 -0.13659821 0.023673296 2.2127252e-38
0.010046408 -0.13659821 0.023673296 1.9363193e-38
0.011732973 -0.13574885 0.026600361 1.8443043e-38
0.013442634 -0.13574885 0.026600361 1.9643031e-38
0.015152295 -0.13574885 0.026600361 2.1671695e-38
0.016861957 -0.13574885 0.026600361 2.0105445e-38
0.018571617 -0.13574885 0.026600361 2.0565697e-38
0.020281278 -0.13574885 0.026600361 2.0749727e-38
0.021990938 -0.13574885 0.026600361 2.31425e-38
0.023655305 -0.13514914 0.028667033 2.2589321e-38
0.02536134 -0.13514914 0.028667033 2.3509841e-38
0.02711992 -0.13574885 0.026600361 2.2309497e-38
0.0014671795 -0.14006548 0.017670214 1.2158568e-38
0.0031899009 -0.13920046 0.02063328 1.6956691e-38
0.0049020294 -0.13831301 0.023673296 2.212181e-38
0.0066168215 -0.13831301 0.023673296 2.3509806e-38
0.0083316145 -0.13831301 0.023673296 2.3509821e-38
0.010046408 -0.13831301 0.023673296 2.2126901e-38
0.011732973 -0.13745852 0.026600361 2.0100053e-38
0.013442634 -0.13745852 0.026600361 1.9548691e-38
0.015125118 -0.13685517 0.028667033 2.0194785e-38
0.016831156 -0.13685517 0.028667033 1.9089153e-38
0.018571617 -0.13745852 0.026600361 2.074831e-38
0.020281278 -0.13745852 0.026600361 2.1116003e-38
0.021949267 -0.13685517 0.028667033 2.3418009e-38
0.023655305 -0.13685517 0.028667033 2.3509837e-38
0.02536134 -0.13685517 0.028667033 2.2033249e-38
0.02711992 -0.13745852 0.026600361 1.889751e-38
0.0031899009 -0.14092059 0.02063328 1.2804642e-38
0.0049020294 -0.14002781 0.023673296 1.962928e-38
0.0066168215 -0.14002781 0.023673296 2.3506552e-38
0.0083316145 -0.14002781 0.023673296 2.3508372e-38
0.010023313 -0.13916816 0.026600361 2.3508396e-38
0.011732973 -0.13916816 0.026600361 2.3509859e-38
0.013442634 -0.13916816 0.026600361 2.3509873e-38
0.015125118 -0.13856123 0.028667033 2.2773034e-38
0.016831156 -0.13856123 0.028667033 2.3418047e-38
0.018537192 -0.13856123 0.028667033 2.3418043e-38
0.020243229 -0.13856123 0.028667033 2.295705e-38
0.021949267 -0.13856123 0.028667033 2.3509851e-38
0.023655305 -0.13856123 0.028667033 2.3322559e-38
0.02536134 -0.13856123 0.028667033 1.069102e-38
0.0031872354 -0.1417426 0.023673296 1.1787618e-38
0.0049020294 -0.1417426 0.023673296 1.5200298e-38
0.0066168215 -0.1417426 0.023673296 1.8612273e-38
0.0083316145 -0.1417426 0.023673296 2.35055e-38
0.010023313 -0.14087783 0.026600361 2.3506241e-38
0.011732973 -0.14087783 0.026600361 2.3509139e-38
0.013419081 -0.14026727 0.028667033 2.341372e-38
0.015125118 -0.14026727 0.028667033 2.3508446e-38
0.016831156 -0.14026727 0.028667033 2.3507369e-38
0.018537192 -0.14026727 0.028667033 2.3506646e-38
0.020243229 -0.14026727 0.028667033 2.3509153e-38
0.021949267 -0.14026727 0.028667033 2.3506618e-38
0.0066168215 -0.14345737 0.023673296 1.0958231e-38
0.0083316145 -0.14345737 0.023673296 1.3264575e-38
0.010046408 -0.14345737 0.023673296 1.5478726e-38
0.011732973 -0.1425875 0.026600361 1.8983972e-38
0.013419081 -0.1419733 0.028667033 2.0737503e-38
0.015125118 -0.1419733 0.028667033 2.2305558e-38
0.016831156 -0.1419733 0.028667033 1.8709933e-38
0.018537192 -0.1419733 0.028667033 1.6958216e-38
0.020243229 -0.1419733 0.028667033 1.419198e-38
