# .PCD v0.7 - Point Cloud Data file format
VERSION 0.7
FIELDS x y z rgb
SIZE 4 4 4 4
TYPE F F F F
COUNT 1 1 1 1
WIDTH 934
HEIGHT 1
VIEWPOINT 0 0 0 1 0 0 0
POINTS 934
DATA ascii
-0.02185259 -0.09662199 -0.042819291 2.3509168e-38
-0.019909784 -0.09662199 -0.042819291 2.3509527e-38
-0.018075917 -0.095955089 -0.039788514 2.3509168e-38
-0.016138427 -0.095955089 -0.039788514 2.3509168e-38
-0.01408137 -0.09662199 -0.042819291 2.3509168e-38
-0.012138568 -0.09662199 -0.042819291 2.3509165e-38
-0.010195762 -0.09662199 -0.042819291 2.3509527e-38
-0.008252956 -0.09662199 -0.042819291 2.3509527e-38
0.013375562 -0.097507954 -0.046845585 2.268334e-38
0.015060697 -0.09662199 -0.042819291 2.1580581e-38
0.017003503 -0.09662199 -0.042819291 1.7985311e-38
0.018946309 -0.09662199 -0.042819291 1.3929783e-38
0.020889115 -0.09662199 -0.042819291 1.0241957e-38
-0.03182587 -0.096135467 -0.031866342 2.2957425e-38
-0.02990227 -0.096135467 -0.031866342 2.2865232e-38
-0.02776337 -0.097892582 -0.039788514 2.304927e-38
-0.025738198 -0.098564804 -0.042819291 2.2681212e-38
-0.023795396 -0.098564804 -0.042819291 2.3049991e-38
-0.02185259 -0.098564804 -0.042819291 2.3417333e-38
-0.020013407 -0.097892582 -0.039788514 2.3325497e-38
-0.018218804 -0.097010851 -0.035813123 2.3509167e-38
-0.016288284 -0.097010851 -0.035813123 2.3509521e-38
-0.014200937 -0.097892582 -0.039788514 2.350916e-38
-0.012589864 -0.096135467 -0.031866342 2.3415881e-38
-0.010798991 -0.095450163 -0.028776556 2.3509879e-38
-0.0090602897 -0.094559789 -0.024762183 2.3417323e-38
-0.007149145 -0.094559789 -0.024762183 2.3049261e-38
-0.0052380003 -0.094559789 -0.024762183 2.2774116e-38
0.0090489574 -0.097892582 -0.039788514 2.2958853e-38
0.010986444 -0.097892582 -0.039788514 2.2223801e-38
0.012923937 -0.097892582 -0.039788514 2.2775179e-38
0.015060697 -0.098564804 -0.042819291 2.2591505e-38
0.017003503 -0.098564804 -0.042819291 2.2315999e-38
0.018946309 -0.098564804 -0.042819291 2.0476393e-38
0.020889115 -0.098564804 -0.042819291 1.4298929e-38
0.022831921 -0.098564804 -0.042819291 8.6757177e-39
-0.03182587 -0.098059073 -0.031866342 2.341805e-38
-0.02990227 -0.098059073 -0.031866342 2.3234018e-38
-0.02776337 -0.099830076 -0.039788514 2.3418047e-38
-0.025738198 -0.1005076 -0.042819291 2.3234379e-38
-0.023795396 -0.1005076 -0.042819291 2.341805e-38
-0.02185259 -0.1005076 -0.042819291 2.341805e-38
-0.020013407 -0.099830076 -0.039788514 2.3509886e-38
-0.018360667 -0.098059073 -0.031866342 2.3509879e-38
-0.016437065 -0.098059073 -0.031866342 2.3509876e-38
-0.014513467 -0.098059073 -0.031866342 2.3509879e-38
-0.012717173 -0.097368345 -0.028776556 2.3509158e-38
-0.010971434 -0.096470937 -0.024762183 2.3417324e-38
-0.0091914199 -0.095815286 -0.021829277 2.350988e-38
-0.0072854199 -0.095815286 -0.021829277 2.350988e-38
-0.005379416 -0.095815286 -0.021829277 2.3234376e-38
-0.0034734122 -0.095815286 -0.021829277 2.3142544e-38
-0.0015674122 -0.095815286 -0.021829277 2.2775202e-38
0.00033859164 -0.095815286 -0.021829277 2.2683366e-38
0.0022445917 -0.095815286 -0.021829277 2.27752e-38
0.0045464747 -0.097368345 -0.028776556 2.3234374e-38
0.0064646564 -0.097368345 -0.028776556 2.3234369e-38
0.0088084824 -0.098941371 -0.035813123 2.3234367e-38
0.010739002 -0.098941371 -0.035813123 2.3142531e-38
0.012669522 -0.098941371 -0.035813123 2.2591511e-38
0.014600042 -0.098941371 -0.035813123 2.2316e-38
0.016798917 -0.099830076 -0.039788514 2.240784e-38
0.018461082 -0.098941371 -0.035813123 2.2316007e-38
0.020111348 -0.098059073 -0.031866342 2.1856824e-38
0.022034947 -0.098059073 -0.031866342 1.7526146e-38
0.023958545 -0.098059073 -0.031866342 1.2732697e-38
-0.029801929 -0.10087189 -0.035813123 2.341805e-38
-0.027871409 -0.10087189 -0.035813123 2.3234012e-38
-0.02582588 -0.10176755 -0.039788514 2.3326213e-38
-0.023888391 -0.10176755 -0.039788514 2.2864883e-38
-0.023086317 -0.093881011 -0.0047843754 2.3325138e-38
-0.021310695 -0.093218774 -0.001845032 2.2864526e-38
-0.019439731 -0.093218774 -0.001845032 2.3509879e-38
-0.017457966 -0.093881011 -0.0047843754 2.2865221e-38
-0.015184596 -0.096149758 -0.014854103 2.3325492e-38
-0.013290826 -0.096149758 -0.014854103 2.3509527e-38
-0.011397053 -0.096149758 -0.014854103 2.3509527e-38
-0.0095032789 -0.096149758 -0.014854103 2.3509527e-38
-0.0076095089 -0.096149758 -0.014854103 2.341805e-38
-0.0057157353 -0.096149758 -0.014854103 2.341805e-38
-0.0038219616 -0.096149758 -0.014854103 2.3233662e-38
-0.0019281916 -0.096149758 -0.014854103 2.3233662e-38
-3.4417957e-05 -0.096149758 -0.014854103 2.3142544e-38
0.0018593557 -0.096149758 -0.014854103 2.3142539e-38
0.0037531257 -0.096149758 -0.014854103 2.3509879e-38
0.005878415 -0.097037792 -0.018795639 2.3509876e-38
0.0077790953 -0.097037792 -0.018795639 2.3509879e-38
0.0098686032 -0.097721294 -0.021829277 2.3418043e-38
0.011962298 -0.098382086 -0.024762183 2.3418045e-38
0.014137391 -0.099286526 -0.028776556 2.3234376e-38
0.016264144 -0.099982664 -0.031866342 2.3142541e-38
0.018187743 -0.099982664 -0.031866342 2.2867034e-38
0.020111348 -0.099982664 -0.031866342 2.2591528e-38
0.022034947 -0.099982664 -0.031866342 2.1396573e-38
0.023958545 -0.099982664 -0.031866342 1.9923959e-38
0.02588214 -0.099982664 -0.031866342 1.2181318e-38
0.027805746 -0.099982664 -0.031866342 4.8985793e-39
-0.029801929 -0.10280241 -0.035813123 2.3509886e-38
-0.027871409 -0.10280241 -0.035813123 2.350988e-38
-0.02683855 -0.095757127 -0.0047843754 2.3418047e-38
-0.025176685 -0.094171658 0.0021983087 2.341805e-38
-0.023312811 -0.094171658 0.0021983087 2.3417691e-38
-0.021310695 -0.095089734 -0.001845032 2.341805e-38
-0.019585062 -0.094171658 0.0021983087 2.323436e-38
-0.017721191 -0.094171658 0.0021983087 2.3418028e-38
-0.015697807 -0.095089734 -0.001845032 2.3418045e-38
-0.013826843 -0.095089734 -0.001845032 2.3325856e-38
-0.01195588 -0.095089734 -0.001845032 2.3325497e-38
-0.0099534988 -0.095757127 -0.0047843754 2.3325497e-38
-0.0080773793 -0.095757127 -0.0047843754 2.3418047e-38
-0.0062012635 -0.095757127 -0.0047843754 2.341805e-38
-0.0041717626 -0.096454084 -0.0078538954 2.3417333e-38
-0.0022902638 -0.096454084 -0.0078538954 2.3417333e-38
-0.00040876493 -0.096454084 -0.0078538954 2.341805e-38
0.0016939454 -0.097363517 -0.011859208 2.3418045e-38
0.0035824664 -0.097363517 -0.011859208 2.3509879e-38
0.0056468956 -0.098043531 -0.014854103 2.3509879e-38
0.0075406693 -0.098043531 -0.014854103 2.350988e-38
0.0096797757 -0.09893848 -0.018795639 2.3509883e-38
0.011774603 -0.099627286 -0.021829277 2.3509886e-38
0.014137391 -0.10120471 -0.028776556 2.3509886e-38
0.016055573 -0.10120471 -0.028776556 2.341805e-38
0.018187743 -0.10190627 -0.031866342 2.3142544e-38
0.020111348 -0.10190627 -0.031866342 2.2958873e-38
0.022034947 -0.10190627 -0.031866342 2.2499694e-38
0.023958545 -0.10190627 -0.031866342 2.2316019e-38
0.02588214 -0.10190627 -0.031866342 1.8541019e-38
0.027805746 -0.10190627 -0.031866342 1.2550096e-38
-0.028714666 -0.097633243 -0.0047843754 2.2587562e-38
-0.027040558 -0.09603554 0.0021983087 2.3325843e-38
-0.025176685 -0.09603554 0.0021983087 2.3234367e-38
-0.023312811 -0.09603554 0.0021983087 2.2773034e-38
-0.021448936 -0.09603554 0.0021983087 2.3418038e-38
-0.019693341 -0.095346272 0.0052107275 2.2313817e-38
-0.017834749 -0.095346272 0.0052107275 2.3234338e-38
-0.015857317 -0.09603554 0.0021983087 2.2958131e-38
-0.014117561 -0.095346272 0.0052107275 2.3418045e-38
-0.012258969 -0.095346272 0.0052107275 2.3325856e-38
-0.010265693 -0.09603554 0.0021983087 2.332621e-38
-0.0082139522 -0.096960694 -0.001845032 2.3326196e-38
-0.0063429885 -0.096960694 -0.001845032 2.3326198e-38
-0.0044720247 -0.096960694 -0.001845032 2.3325856e-38
-0.0024490319 -0.097633243 -0.0047843754 2.341805e-38
-0.0005729124 -0.097633243 -0.0047843754 2.3418045e-38
0.0013032034 -0.097633243 -0.0047843754 2.3418043e-38
0.0033542328 -0.098335579 -0.0078538954 2.350988e-38
0.0052357279 -0.098335579 -0.0078538954 2.3509883e-38
0.0073595084 -0.099252045 -0.011859208 2.3509883e-38
0.0092480294 -0.099252045 -0.011859208 2.3509886e-38
0.011328217 -0.099937305 -0.014854103 2.3509527e-38
0.013481144 -0.10083917 -0.018795639 2.3509886e-38
0.015784588 -0.10220437 -0.024762183 2.3509527e-38
0.017973755 -0.1031229 -0.028776556 2.341805e-38
0.019891936 -0.1031229 -0.028776556 2.2958154e-38
0.021810126 -0.1031229 -0.028776556 2.2497892e-38
0.023728307 -0.1031229 -0.028776556 2.2867034e-38
0.025646493 -0.1031229 -0.028776556 2.2499687e-38
0.027564675 -0.1031229 -0.028776556 1.9276426e-38
0.029482856 -0.1031229 -0.028776556 9.5966006e-39
0.031401038 -0.1031229 -0.028776556 3.9744636e-39
0.03331922 -0.1031229 -0.028776556 4.3414525e-39
0.035237402 -0.1031229 -0.028776556 2.8623805e-39
-0.030512746 -0.10021709 -0.0078538954 2.3509873e-38
-0.028714666 -0.099509358 -0.0047843754 2.3509873e-38
-0.027040558 -0.097899407 0.0021983087 2.3326195e-38
-0.025176685 -0.097899407 0.0021983087 2.3418031e-38
-0.023312811 -0.097899407 0.0021983087 2.3418035e-38
-0.021448936 -0.097899407 0.0021983087 2.3418025e-38
-0.019693341 -0.097204864 0.0052107275 2.2958821e-38
-0.017834749 -0.097204864 0.0052107275 2.3418005e-38
-0.015976157 -0.097204864 0.0052107275 2.3418023e-38
-0.014240984 -0.09651424 0.0082060993 2.3418035e-38
-0.012387641 -0.09651424 0.0082060993 2.3418043e-38
-0.010534301 -0.09651424 0.0082060993 2.341804e-38
-0.0085417852 -0.097204864 0.0052107275 2.3418028e-38
-0.0066831931 -0.097204864 0.0052107275 2.3326194e-38
-0.0046740733 -0.097899407 0.0021983087 2.332621e-38
-0.0026010647 -0.098831654 -0.001845032 2.341805e-38
-0.00073010102 -0.098831654 -0.001845032 2.341804e-38
0.0011408627 -0.098831654 -0.001845032 2.341804e-38
0.0031793192 -0.099509358 -0.0047843754 2.3509883e-38
0.0050554387 -0.099509358 -0.0047843754 2.3509886e-38
0.0071172304 -0.10021709 -0.0078538954 2.3509886e-38
0.0089987256 -0.10021709 -0.0078538954 2.3509886e-38
0.010880228 -0.10021709 -0.0078538954 2.3509527e-38
0.013025071 -0.10114056 -0.011859208 2.3509527e-38
0.015381832 -0.10273984 -0.018795639 2.3509527e-38
0.017492611 -0.10343929 -0.021829277 2.3509886e-38
0.019606877 -0.1041155 -0.024762183 2.3509886e-38
0.021518026 -0.1041155 -0.024762183 2.3141819e-38
0.023429167 -0.1041155 -0.024762183 2.3234376e-38
0.025340319 -0.1041155 -0.024762183 2.3142538e-38
0.027251452 -0.1041155 -0.024762183 2.2775192e-38
0.029482856 -0.10504107 -0.028776556 1.6599518e-38
0.031401038 -0.10504107 -0.028776556 1.0054347e-38
0.03331922 -0.10504107 -0.028776556 4.0612768e-39
0.035237402 -0.10504107 -0.028776556 2.953144e-39
0.037155584 -0.10504107 -0.028776556 2.9531454e-39
-0.03263218 -0.099763289 0.0021983087 2.3139962e-38
-0.030768307 -0.099763289 0.0021983087 2.3324739e-38
-0.028794548 -0.10070263 -0.001845032 2.2218759e-38
-0.027040558 -0.099763289 0.0021983087 2.350986e-38
-0.025269117 -0.099063456 0.0052107275 2.3418025e-38
-0.023410525 -0.099063456 0.0052107275 2.3418031e-38
-0.021551933 -0.099063456 0.0052107275 2.2128721e-38
-0.019801002 -0.098367572 0.0082060993 2.3142497e-38
-0.017947663 -0.098367572 0.0082060993 2.3418005e-38
-0.016094323 -0.098367572 0.0082060993 2.3418018e-38
-0.014240984 -0.098367572 0.0082060993 2.1944333e-38
-0.012387641 -0.098367572 0.0082060993 2.3418035e-38
-0.010534301 -0.098367572 0.0082060993 2.3418035e-38
-0.008680962 -0.098367572 0.0082060993 2.3418031e-38
-0.0068276227 -0.098367572 0.0082060993 2.3418035e-38
-0.0048246011 -0.099063456 0.0052107275 2.341805e-38
-0.0028101988 -0.099763289 0.0021983087 2.341805e-38
-0.00094632432 -0.099763289 0.0021983087 2.341804e-38
0.0011408627 -0.10070263 -0.001845032 2.341804e-38
0.0030118264 -0.10070263 -0.001845032 2.341805e-38
0.0050554387 -0.10138547 -0.0047843754 2.341805e-38
0.0069315545 -0.10138547 -0.0047843754 2.341805e-38
0.0088076703 -0.10138547 -0.0047843754 2.3509886e-38
0.010683786 -0.10138547 -0.0047843754 2.3509527e-38
0.012559902 -0.10138547 -0.0047843754 2.3509527e-38
0.014913592 -0.10302909 -0.011859208 2.3509883e-38
0.017282512 -0.10464053 -0.018795639 2.3509521e-38
0.019398611 -0.10534529 -0.021829277 2.3509521e-38
0.021518026 -0.10602666 -0.024762183 2.3509158e-38
0.023429167 -0.10602666 -0.024762183 2.3509879e-38
0.025340319 -0.10602666 -0.024762183 2.3509879e-38
0.027251452 -0.10602666 -0.024762183 2.350988e-38
0.029162601 -0.10602666 -0.024762183 2.1758522e-38
0.031073749 -0.10602666 -0.024762183 1.6688122e-38
0.032984897 -0.10602666 -0.024762183 5.5324567e-39
0.034896031 -0.10602666 -0.024762183 4.0584168e-39
-0.03263218 -0.10162716 0.0021983087 1.5948701e-38
-0.030768307 -0.10162716 0.0021983087 1.4842373e-38
-0.028904432 -0.10162716 0.0021983087 1.2446376e-38
-0.027040558 -0.10162716 0.0021983087 1.2908796e-38
-0.025269117 -0.10092205 0.0052107275 1.1434031e-38
-0.023410525 -0.10092205 0.0052107275 1.2723699e-38
-0.021654345 -0.10022092 0.0082060993 1.5582478e-38
-0.019801002 -0.10022092 0.0082060993 2.1667376e-38
-0.018059939 -0.099523753 0.011184543 2.2221621e-38
-0.016211823 -0.099523753 0.011184543 2.332618e-38
-0.014363702 -0.099523753 0.011184543 2.3418023e-38
-0.012515586 -0.099523753 0.011184543 2.3509866e-38
-0.010667469 -0.099523753 0.011184543 2.3418035e-38
-0.0088193491 -0.099523753 0.011184543 2.3509873e-38
-0.0069712326 -0.099523753 0.011184543 2.3418045e-38
-0.0049742796 -0.10022092 0.0082060993 2.3509527e-38
-0.0031209402 -0.10022092 0.0082060993 2.341805e-38
-0.001107417 -0.10092205 0.0052107275 2.3509879e-38
0.00091755018 -0.10162716 0.0021983087 2.3326206e-38
0.0030118264 -0.10257359 -0.001845032 2.341805e-38
0.0048827864 -0.10257359 -0.001845032 2.3417691e-38
0.0067537539 -0.10257359 -0.001845032 2.341805e-38
0.0086247139 -0.10257359 -0.001845032 2.3509886e-38
0.010495681 -0.10257359 -0.001845032 2.3509886e-38
0.012559902 -0.1032616 -0.0047843754 2.350988e-38
0.014643226 -0.10398008 -0.0078538954 2.3509876e-38
0.017009538 -0.10561861 -0.014854103 2.3509873e-38
0.019183192 -0.1065412 -0.018795639 2.3509869e-38
0.021304619 -0.1072513 -0.021829277 2.3048169e-38
0.023429167 -0.1079378 -0.024762183 2.350987e-38
0.025340319 -0.1079378 -0.024762183 2.350987e-38
0.027251452 -0.1079378 -0.024762183 2.3324401e-38
0.029162601 -0.1079378 -0.024762183 2.2955622e-38
0.031073749 -0.1079378 -0.024762183 2.0374144e-38
0.032984897 -0.1079378 -0.024762183 8.481635e-39
0.034896031 -0.1079378 -0.024762183 5.2562411e-39
0.036807179 -0.1079378 -0.024762183 4.3346478e-39
-0.032703482 -0.10278064 0.0052107275 1.4472168e-38
-0.030844891 -0.10278064 0.0052107275 1.428957e-38
-0.028904432 -0.10349102 0.0021983087 1.4013702e-38
-0.027127707 -0.10278064 0.0052107275 1.4290658e-38
-0.025269117 -0.10278064 0.0052107275 1.4752003e-38
-0.023410525 -0.10278064 0.0052107275 1.6041674e-38
-0.021654345 -0.10207425 0.0082060993 1.9453631e-38
-0.019908059 -0.10137187 0.011184543 2.3418031e-38
-0.018059939 -0.10137187 0.011184543 2.1482633e-38
-0.016211823 -0.10137187 0.011184543 2.0099337e-38
-0.014363702 -0.10137187 0.011184543 2.2312751e-38
-0.012515586 -0.10137187 0.011184543 2.3141441e-38
-0.010667469 -0.10137187 0.011184543 2.3141452e-38
-0.0088193491 -0.10137187 0.011184543 2.3509168e-38
-0.0069712326 -0.10137187 0.011184543 2.3509168e-38
-0.0053257197 -0.10041572 0.01523909 2.3508809e-38
-0.0034847111 -0.10041572 0.01523909 2.3509168e-38
-0.0014268793 -0.10137187 0.011184543 2.3509523e-38
0.00058573857 -0.10207425 0.0082060993 2.3325492e-38
0.002609767 -0.10278064 0.0052107275 2.3509527e-38
0.0046452992 -0.10349102 0.0021983087 2.3509168e-38
0.0067537539 -0.10444455 -0.001845032 2.3509527e-38
0.0086247139 -0.10444455 -0.001845032 2.3509886e-38
0.010495681 -0.10444455 -0.001845032 2.350988e-38
0.012366641 -0.10444455 -0.001845032 2.3509873e-38
0.014643226 -0.10586159 -0.0078538954 2.3509869e-38
0.016802121 -0.10680611 -0.011859208 2.350986e-38
0.018903304 -0.1075124 -0.014854103 2.3418022e-38
0.021304619 -0.10915731 -0.021829277 2.3509856e-38
0.023429167 -0.10984896 -0.024762183 2.3509856e-38
0.025340319 -0.10984896 -0.024762183 2.3509859e-38
0.027251452 -0.10984896 -0.024762183 2.350986e-38
0.029162601 -0.10984896 -0.024762183 2.3509863e-38
0.031073749 -0.10984896 -0.024762183 2.2035093e-38
0.032984897 -0.10984896 -0.024762183 1.1893941e-38
0.034896031 -0.10984896 -0.024762183 6.454057e-39
0.036807179 -0.10984896 -0.024762183 4.7030645e-39
-0.032703482 -0.10463922 0.0052107275 2.3508432e-38
-0.030844891 -0.10463922 0.0052107275 1.8807156e-38
-0.028986299 -0.10463922 0.0052107275 1.4013699e-38
-0.027127707 -0.10463922 0.0052107275 1.585691e-38
-0.025269117 -0.10463922 0.0052107275 2.2956701e-38
-0.023410525 -0.10463922 0.0052107275 2.3509521e-38
-0.021654345 -0.1039276 0.0082060993 2.3509518e-38
-0.019908059 -0.10322 0.011184543 2.2863779e-38
-0.018212784 -0.10225673 0.01523909 2.1574115e-38
-0.016371775 -0.10225673 0.01523909 1.7701173e-38
-0.014530767 -0.10225673 0.01523909 1.7333113e-38
-0.012689754 -0.10225673 0.01523909 2.2771582e-38
-0.010667469 -0.10322 0.011184543 2.2864149e-38
-0.009007737 -0.10225673 0.01523909 2.3415895e-38
-0.0073084421 -0.10155846 0.018178195 2.3508809e-38
-0.0054725856 -0.10155846 0.018178195 2.3508809e-38
-0.0036367327 -0.10155846 0.018178195 2.3509168e-38
-0.0018008761 -0.10155846 0.018178195 2.3509167e-38
3.4980476e-05 -0.10155846 0.018178195 2.3416974e-38
0.0020383149 -0.10225673 0.01523909 2.3509168e-38
0.0038793236 -0.10225673 0.01523909 2.3509168e-38
0.0061457567 -0.1039276 0.0082060993 2.3509527e-38
0.0083730482 -0.10535492 0.0021983087 2.3509886e-38
0.010236923 -0.10535492 0.0021983087 2.341804e-38
0.01210079 -0.10535492 0.0021983087 2.323436e-38
0.014237609 -0.10631551 -0.001845032 2.323435e-38
0.016524721 -0.10774307 -0.0078538954 2.3142506e-38
0.018690642 -0.10869466 -0.011859208 2.2499643e-38
0.02108388 -0.11034258 -0.018795639 2.3142499e-38
0.023210619 -0.11106332 -0.021829277 2.2407801e-38
0.025340319 -0.11176009 -0.024762183 2.12089e-38
0.027251452 -0.11176009 -0.024762183 2.3050663e-38
0.029162601 -0.11176009 -0.024762183 2.3418011e-38
0.031073749 -0.11176009 -0.024762183 2.203723e-38
0.032984897 -0.11176009 -0.024762183 1.2724765e-38
0.034896031 -0.11176009 -0.024762183 7.5611122e-39
0.036807179 -0.11176009 -0.024762183 5.440261e-39
-0.032703482 -0.10649781 0.0052107275 2.3139274e-38
-0.030844891 -0.10649781 0.0052107275 1.8715662e-38
-0.028986299 -0.10649781 0.0052107275 1.7148704e-38
-0.027127707 -0.10649781 0.0052107275 1.8161449e-38
-0.025269117 -0.10649781 0.0052107275 2.3047466e-38
-0.019908059 -0.1050681 0.011184543 1.723983e-38
-0.018212784 -0.10409774 0.01523909 1.963728e-38
-0.016371775 -0.10409774 0.01523909 1.7608261e-38
-0.014530767 -0.10409774 0.01523909 1.9083757e-38
-0.012689754 -0.10409774 0.01523909 2.3324041e-38
-0.010848746 -0.10409774 0.01523909 2.2863426e-38
-0.0091442987 -0.10339431 0.018178195 2.3509517e-38
-0.0074545667 -0.10266902 0.021208733 2.3509156e-38
-0.0056240223 -0.10266902 0.021208733 2.3323685e-38
-0.0037934817 -0.10266902 0.021208733 2.3509879e-38
-0.0019629374 -0.10266902 0.021208733 2.3508088e-38
-0.00013239682 -0.10266902 0.021208733 2.3508809e-38
0.0016981475 -0.10266902 0.021208733 2.3508809e-38
0.0037066936 -0.10339431 0.018178195 2.3509168e-38
0.005720336 -0.10409774 0.01523909 2.3417691e-38
0.0081855394 -0.10649781 0.0052107275 2.3141816e-38
0.010236923 -0.10721879 0.0021983087 2.3234362e-38
0.01210079 -0.10721879 0.0021983087 2.2958843e-38
0.014237609 -0.10818647 -0.001845032 2.2591487e-38
0.016524721 -0.10962458 -0.0078538954 2.1764947e-38
0.018690642 -0.11058317 -0.011859208 2.1764941e-38
0.020797078 -0.11129995 -0.014854103 2.0475992e-38
0.023210619 -0.11296929 -0.021829277 1.8816468e-38
0.025116619 -0.11296929 -0.021829277 1.8908663e-38
0.027251452 -0.11367123 -0.024762183 2.093697e-38
0.029162601 -0.11367123 -0.024762183 2.1304675e-38
0.031073749 -0.11367123 -0.024762183 2.0474914e-38
0.032984897 -0.11367123 -0.024762183 1.4203469e-38
0.034896031 -0.11367123 -0.024762183 9.4990015e-39
0.036807179 -0.11367123 -0.024762183 5.7168339e-39
-0.032703482 -0.1083564 0.0052107275 2.0926567e-38
-0.030844891 -0.1083564 0.0052107275 2.3047781e-38
-0.028986299 -0.1083564 0.0052107275 2.350913e-38
-0.027040558 -0.10908265 0.0021983087 2.3414456e-38
-0.014530767 -0.10593875 0.01523909 2.3509511e-38
-0.012689754 -0.10593875 0.01523909 2.3509514e-38
-0.010848746 -0.10593875 0.01523909 2.3509511e-38
-0.0091442987 -0.10523017 0.018178195 2.3415858e-38
-0.0075998493 -0.10377313 0.024221867 2.3324371e-38
-0.0057745874 -0.10377313 0.024221867 2.3509841e-38
-0.0039493293 -0.10377313 0.024221867 2.3508767e-38
-0.0021240711 -0.10377313 0.024221867 2.350736e-38
-0.00029881299 -0.10377313 0.024221867 2.3508809e-38
0.0016981475 -0.10449956 0.021208733 2.3415898e-38
0.0035286881 -0.10449956 0.021208733 2.3416971e-38
0.0055425502 -0.10523017 0.018178195 2.3509879e-38
0.0075613447 -0.10593875 0.01523909 2.3234364e-38
0.010044131 -0.1083564 0.0052107275 2.2958846e-38
0.011902723 -0.1083564 0.0052107275 2.2224141e-38
0.014237609 -0.11005743 -0.001845032 1.9554047e-38
0.016524721 -0.11150609 -0.0078538954 1.7066193e-38
0.018690642 -0.11247168 -0.011859208 1.8634587e-38
0.020797078 -0.11319371 -0.014854103 1.817468e-38
0.023210619 -0.1148753 -0.021829277 1.7805895e-38
0.025116619 -0.1148753 -0.021829277 1.5961982e-38
0.027251452 -0.11558239 -0.024762183 1.5777591e-38
0.029162601 -0.11558239 -0.024762183 1.6330048e-38
0.031073749 -0.11558239 -0.024762183 1.7620787e-38
0.03331922 -0.11655019 -0.028776556 1.503645e-38
0.035237402 -0.11655019 -0.028776556 1.1435812e-38
0.037155584 -0.11655019 -0.028776556 5.8093785e-39
-0.0075998493 -0.10559841 0.024221867 2.2772231e-38
-0.0057745874 -0.10559841 0.024221867 2.3509796e-38
-0.0039493293 -0.10559841 0.024221867 2.3509814e-38
-0.0021240711 -0.10559841 0.024221867 2.3509863e-38
-0.00029881299 -0.10559841 0.024221867 2.3508807e-38
0.0015264489 -0.10559841 0.024221867 2.3509879e-38
0.0035286881 -0.10633011 0.021208733 2.350987e-38
0.0053592287 -0.10633011 0.021208733 2.3234357e-38
0.0073784031 -0.10706602 0.018178195 2.2958843e-38
0.0096618272 -0.10876434 0.011184543 2.2591491e-38
0.011705782 -0.10948761 0.0082060993 2.1581277e-38
0.014237609 -0.11192839 -0.001845032 1.9648749e-38
0.016524721 -0.11338757 -0.0078538954 1.7806983e-38
0.018690642 -0.1143602 -0.011859208 1.7900608e-38
0.02108388 -0.11604463 -0.018795639 1.7071199e-38
0.022984561 -0.11604463 -0.018795639 1.7900957e-38
0.025116619 -0.11678131 -0.021829277 1.5319836e-38
0.027251452 -0.11749353 -0.024762183 1.4674466e-38
0.029162601 -0.11749353 -0.024762183 1.5871933e-38
0.031073749 -0.11749353 -0.024762183 1.6885366e-38
0.03331922 -0.11846836 -0.028776556 1.5776156e-38
0.035237402 -0.11846836 -0.028776556 1.3003841e-38
0.037155584 -0.11846836 -0.028776556 6.2703426e-39
0.039073765 -0.11846836 -0.028776556 5.8090141e-39
-0.0075998493 -0.10742365 0.024221867 1.8991825e-38
-0.0057745874 -0.10742365 0.024221867 2.1389615e-38
-0.004104279 -0.10669093 0.027217597 2.2863691e-38
-0.0022842735 -0.10669093 0.027217597 2.3509848e-38
-0.00029881299 -0.10742365 0.024221867 2.3506995e-38
0.0015264489 -0.10742365 0.024221867 2.350986e-38
0.003351707 -0.10742365 0.024221867 2.3050672e-38
0.0051769651 -0.10742365 0.024221867 2.2131943e-38
0.0071897767 -0.10816063 0.021208733 2.0475288e-38
0.0092142634 -0.10890187 0.018178195 1.9094145e-38
0.011243362 -0.10962076 0.01523909 1.8173619e-38
0.013964664 -0.11281042 0.0021983087 1.743928e-38
0.016524721 -0.11526908 -0.0078538954 1.7255958e-38
0.018690642 -0.11624874 -0.011859208 1.8178626e-38
0.020797078 -0.11698125 -0.014854103 1.6242871e-38
0.022984561 -0.11794533 -0.018795639 1.725738e-38
0.025116619 -0.11868732 -0.021829277 1.4490792e-38
0.027251452 -0.11940466 -0.024762183 1.4213487e-38
0.029162601 -0.11940466 -0.024762183 1.5871929e-38
0.031073749 -0.11940466 -0.024762183 1.6240351e-38
0.03331922 -0.12038656 -0.028776556 1.5775431e-38
0.035237402 -0.12038656 -0.028776556 1.3280777e-38
0.037155584 -0.12038656 -0.028776556 6.5476343e-39
0.039073765 -0.12038656 -0.028776556 7.1001033e-39
-0.0057745874 -0.10924892 0.024221867 1.5949704e-38
-0.004104279 -0.10851096 0.027217597 2.1296351e-38
-0.0022842735 -0.10851096 0.027217597 2.3509837e-38
-0.00029881299 -0.10924892 0.024221867 2.3509856e-38
0.0015264489 -0.10924892 0.024221867 2.3142492e-38
0.003351707 -0.10924892 0.024221867 2.1948612e-38
0.0051769651 -0.10924892 0.024221867 2.1028808e-38
0.0070022233 -0.10924892 0.024221867 2.0017169e-38
0.0090203173 -0.10999118 0.021208733 1.91892e-38
0.011050116 -0.11073773 0.018178195 1.8545625e-38
0.013358068 -0.11246057 0.011184543 1.827047e-38
0.016524721 -0.11715056 -0.0078538954 1.8087512e-38
0.018690642 -0.11813726 -0.011859208 1.8271901e-38
0.020797078 -0.11887501 -0.014854103 1.587517e-38
0.022690851 -0.11887501 -0.014854103 1.6519458e-38
0.025116619 -0.12059332 -0.021829277 1.3475923e-38
0.027251452 -0.12131582 -0.024762183 1.2920951e-38
0.029162601 -0.12131582 -0.024762183 1.4487557e-38
0.031073749 -0.12131582 -0.024762183 1.5776858e-38
0.03331922 -0.12230472 -0.028776556 1.6234968e-38
0.035237402 -0.12230472 -0.028776556 1.3187852e-38
0.037155584 -0.12230472 -0.028776556 6.4547114e-39
0.039073765 -0.12230472 -0.028776556 7.0071804e-39
-0.004104279 -0.11033095 0.027217597 1.7146472e-38
-0.0022842735 -0.11033095 0.027217597 2.1937817e-38
-0.00029881299 -0.11107419 0.024221867 2.2863024e-38
0.0015264489 -0.11107419 0.024221867 2.0749336e-38
0.003351707 -0.11107419 0.024221867 1.8817533e-38
0.0051769651 -0.11107419 0.024221867 1.7620787e-38
0.0070022233 -0.11107419 0.024221867 1.7806974e-38
0.0090203173 -0.11182173 0.021208733 1.8545978e-38
0.011050116 -0.11257361 0.018178195 1.8916197e-38
0.013084371 -0.11330278 0.01523909 1.854849e-38
0.015828539 -0.11653815 0.0021983087 1.8088231e-38
0.018406224 -0.11903207 -0.0078538954 1.8272619e-38
0.020579163 -0.12002577 -0.011859208 1.5782619e-38
0.022690851 -0.1207688 -0.014854103 1.5965571e-38
0.024885248 -0.12174667 -0.018795639 1.4396087e-38
0.027022615 -0.1224993 -0.021829277 1.4670876e-38
0.029162601 -0.12322696 -0.024762183 1.5406286e-38
0.031073749 -0.12322696 -0.024762183 1.5958381e-38
0.03331922 -0.12422292 -0.028776556 1.4757324e-38
0.035237402 -0.12422292 -0.028776556 1.2910901e-38
0.037155584 -0.12422292 -0.028776556 5.994085e-39
0.039073765 -0.12422292 -0.028776556 5.8089931e-39
-0.004104279 -0.11215095 0.027217597 1.4563928e-38
-0.0022842735 -0.11215095 0.027217597 1.9355975e-38
-0.00029881299 -0.11289944 0.024221867 2.1941771e-38
0.0015264489 -0.11289944 0.024221867 2.1673076e-38
0.003351707 -0.11289944 0.024221867 1.9742708e-38
0.0051769651 -0.11289944 0.024221867 1.8453408e-38
0.0070022233 -0.11289944 0.024221867 1.8086065e-38
0.0088274814 -0.11289944 0.024221867 1.8271178e-38
0.010850858 -0.11365227 0.021208733 1.7903474e-38
0.013084371 -0.11514379 0.01523909 1.7442859e-38
0.015412461 -0.11690097 0.0082060993 1.725847e-38
0.017979529 -0.11941226 -0.001845032 1.6612026e-38
0.020287719 -0.12091358 -0.0078538954 1.5319848e-38
0.022467684 -0.12191428 -0.011859208 1.5410247e-38
0.024885248 -0.12364738 -0.018795639 1.5500285e-38
0.027022615 -0.12440531 -0.021829277 1.6234613e-38
0.029162601 -0.12513812 -0.024762183 1.5311581e-38
0.031073749 -0.12513812 -0.024762183 1.5494174e-38
0.03331922 -0.12614109 -0.028776556 1.263467e-38
0.035237402 -0.12614109 -0.028776556 1.1988585e-38
0.037155584 -0.12614109 -0.028776556 6.3632235e-39
-0.0043076687 -0.1129816 0.031149834 1.152077e-38
-0.002494555 -0.1129816 0.031149834 1.6222039e-38
-0.0004642643 -0.11397095 0.027217597 2.037551e-38
0.0015264489 -0.11472471 0.024221867 1.8265415e-38
0.003351707 -0.11472471 0.024221867 1.7717988e-38
0.0051769651 -0.11472471 0.024221867 1.8363003e-38
0.0070022233 -0.11472471 0.024221867 1.8455204e-38
0.0088274814 -0.11472471 0.024221867 1.7532894e-38
0.010850858 -0.11548282 0.021208733 1.6242518e-38
0.013084371 -0.1169848 0.01523909 1.578154e-38
0.015412461 -0.11875431 0.0082060993 1.6150325e-38
0.0174785 -0.11950795 0.0052107275 1.5596797e-38
0.020064373 -0.12202276 -0.0047843754 1.5964863e-38
0.022169221 -0.12279506 -0.0078538954 1.6516601e-38
0.024584625 -0.12455635 -0.014854103 1.6421891e-38
0.026785925 -0.12554805 -0.018795639 1.5221187e-38
0.029162601 -0.12704925 -0.024762183 1.3191444e-38
0.031073749 -0.12704925 -0.024762183 1.5494171e-38
0.03331922 -0.12805928 -0.028776556 1.4017602e-38
0.035237402 -0.12805928 -0.028776556 1.0973351e-38
0.037155584 -0.12805928 -0.028776556 7.1922653e-39
-0.0043076687 -0.11479472 0.031149834 1.1520784e-38
-0.002494555 -0.11479472 0.031149834 1.2812596e-38
-0.0004642643 -0.11579098 0.027217597 1.8073845e-38
0.0015264489 -0.11654995 0.024221867 1.7716546e-38
0.003351707 -0.11654995 0.024221867 1.6798543e-38
0.0051769651 -0.11654995 0.024221867 1.7718355e-38
0.0070022233 -0.11654995 0.024221867 1.8360859e-38
0.0090203173 -0.11731337 0.021208733 1.7252721e-38
0.011050116 -0.11808117 0.018178195 1.6145654e-38
0.013084371 -0.11882581 0.01523909 1.5685394e-38
0.015412461 -0.12060766 0.0082060993 1.5225495e-38
0.0174785 -0.12136655 0.0052107275 1.4950348e-38
0.020064373 -0.12389888 -0.0047843754 1.6057062e-38
0.022169221 -0.12467657 -0.0078538954 1.6334016e-38
0.024584625 -0.12645011 -0.014854103 1.5687927e-38
0.026785925 -0.12744872 -0.018795639 1.4026245e-38
0.028928623 -0.12821732 -0.021829277 1.4025155e-38
0.031073749 -0.12896039 -0.024762183 1.4945302e-38
0.032984897 -0.12896039 -0.024762183 1.291412e-38
0.034896031 -0.12896039 -0.024762183 1.0512373e-38
0.036807179 -0.12896039 -0.024762183 7.5596143e-39
-0.004104279 -0.11761098 0.027217597 1.0505921e-38
-0.0022842735 -0.11761098 0.027217597 1.1245989e-38
-0.00029881299 -0.11837523 0.024221867 1.5678194e-38
0.0015264489 -0.11837523 0.024221867 1.40298e-38
0.003351707 -0.11837523 0.024221867 1.3111797e-38
0.0051769651 -0.11837523 0.024221867 1.4860294e-38
0.0070022233 -0.11837523 0.024221867 1.6977212e-38
0.0090203173 -0.11914389 0.021208733 1.6882506e-38
0.011050116 -0.11991702 0.018178195 1.6051667e-38
0.013084371 -0.12066682 0.01523909 1.6513718e-38
0.015206184 -0.12170117 0.011184543 1.7621502e-38
0.017692413 -0.12399365 0.0021983087 1.59645e-38
0.020064373 -0.12577499 -0.0047843754 1.6057424e-38
0.022169221 -0.12655805 -0.0078538954 1.5689372e-38
0.024584625 -0.1283439 -0.014854103 1.5044003e-38
0.027022615 -0.13012333 -0.021829277 1.3198645e-38
0.028928623 -0.13012333 -0.021829277 1.2920605e-38
0.03083463 -0.13012333 -0.021829277 1.3656716e-38
0.032984897 -0.13087155 -0.024762183 1.2085434e-38
0.034896031 -0.13087155 -0.024762183 1.1434332e-38
0.037155584 -0.13189565 -0.028776556 7.8354851e-39
0.039073765 -0.13189565 -0.028776556 7.4660033e-39
-0.004104279 -0.11943097 0.027217597 1.0228974e-38
-0.0022842735 -0.11943097 0.027217597 1.0599899e-38
-0.0004642643 -0.11943097 0.027217597 1.4478932e-38
0.0015264489 -0.12020047 0.024221867 1.5042519e-38
0.003351707 -0.12020047 0.024221867 1.3479147e-38
0.0051769651 -0.12020047 0.024221867 1.4582633e-38
0.0070022233 -0.12020047 0.024221867 1.7069409e-38
0.0088274814 -0.12020047 0.024221867 1.7343844e-38
0.010850858 -0.12097444 0.021208733 1.5592128e-38
0.012885969 -0.12175287 0.018178195 1.5224416e-38
0.015206184 -0.1235493 0.011184543 1.6148167e-38
0.017692413 -0.12585752 0.0021983087 1.5412045e-38
0.020064373 -0.12765111 -0.0047843754 1.550533e-38
0.022169221 -0.12843956 -0.0078538954 1.5228754e-38
0.024584625 -0.13023765 -0.014854103 1.4398276e-38
0.026785925 -0.1312501 -0.018795639 1.2275973e-38
0.028928623 -0.13202934 -0.021829277 1.1997217e-38
0.03083463 -0.13202934 -0.021829277 1.3746759e-38
0.032984897 -0.13278268 -0.024762183 1.3098511e-38
0.034896031 -0.13278268 -0.024762183 1.1342139e-38
0.037155584 -0.13381381 -0.028776556 7.2823141e-39
0.039073765 -0.13381381 -0.028776556 6.7287998e-39
-0.0043076687 -0.12023406 0.031149834 1.0136779e-38
-0.002494555 -0.12023406 0.031149834 1.0138921e-38
-0.0004642643 -0.121251 0.027217597 1.4201629e-38
0.0013557412 -0.121251 0.027217597 1.411877e-38
0.003351707 -0.12202574 0.024221867 1.2924186e-38
0.0051769651 -0.12202574 0.024221867 1.3475217e-38
0.0070022233 -0.12202574 0.024221867 1.5686121e-38
0.0088274814 -0.12202574 0.024221867 1.7067979e-38
0.010850858 -0.12280498 0.021208733 1.5869789e-38
0.012885969 -0.12358873 0.018178195 1.4119863e-38
0.015206184 -0.1253974 0.011184543 1.3936548e-38
0.017692413 -0.12772138 0.0021983087 1.3661766e-38
0.019850496 -0.12876706 -0.001845032 1.5321657e-38
0.021940488 -0.12952723 -0.0047843754 1.596632e-38
0.024584625 -0.13213144 -0.014854103 1.4950376e-38
0.026785925 -0.13315077 -0.018795639 1.2182702e-38
0.028928623 -0.13393532 -0.021829277 1.1812111e-38
0.03083463 -0.13393532 -0.021829277 1.3930077e-38
0.032984897 -0.13469382 -0.024762183 1.3189635e-38
0.034896031 -0.13469382 -0.024762183 1.124887e-38
0.036807179 -0.13469382 -0.024762183 7.1901213e-39
0.038718328 -0.13469382 -0.024762183 6.7287998e-39
-0.0044660158 -0.12125005 0.034211248 9.6750789e-39
-0.0026582703 -0.12125005 0.034211248 9.2162447e-39
-0.0004642643 -0.123071 0.027217597 1.3738856e-38
0.0013557412 -0.123071 0.027217597 1.356381e-38
0.0031757466 -0.123071 0.027217597 1.4305333e-38
0.0051769651 -0.12385099 0.024221867 1.4857079e-38
0.0070022233 -0.12385099 0.024221867 1.5040397e-38
0.0090203173 -0.12463553 0.021208733 1.6054906e-38
0.011050116 -0.12542458 0.018178195 1.5871228e-38
0.013084371 -0.12618984 0.01523909 1.4398245e-38
0.015206184 -0.12724553 0.011184543 1.3662119e-38
0.017692413 -0.12958528 0.0021983087 1.3478094e-38
0.019850496 -0.13063805 -0.001845032 1.4861758e-38
0.021940488 -0.13140334 -0.0047843754 1.5228758e-38
0.024584625 -0.1340252 -0.014854103 1.4027707e-38
0.027022615 -0.13584132 -0.021829277 1.1905044e-38
0.028928623 -0.13584132 -0.021829277 1.2547528e-38
0.03083463 -0.13584132 -0.021829277 1.383645e-38
0.032984897 -0.13660498 -0.024762183 1.180527e-38
0.034896031 -0.13660498 -0.024762183 1.1893886e-38
0.036807179 -0.13660498 -0.024762183 7.9280507e-39
0.038718328 -0.13660498 -0.024762183 7.374172e-39
-0.0044660158 -0.1230578 0.034211248 9.582163e-39
-0.0026582703 -0.1230578 0.034211248 8.8467405e-39
-0.0004642643 -0.124891 0.027217597 1.3645582e-38
0.0013557412 -0.124891 0.027217597 1.5220461e-38
0.0031757466 -0.124891 0.027217597 1.7991009e-38
0.0051769651 -0.12567626 0.024221867 1.8359443e-38
0.0070022233 -0.12567626 0.024221867 1.5962356e-38
0.0090203173 -0.12646608 0.021208733 1.5409898e-38
0.011050116 -0.12726043 0.018178195 1.5596081e-38
0.013084371 -0.12803085 0.01523909 1.5320561e-38
0.015206184 -0.12909363 0.011184543 1.5137965e-38
0.017692413 -0.13144915 0.0021983087 1.4124542e-38
0.019850496 -0.13250901 -0.001845032 1.3386271e-38
0.021940488 -0.13327946 -0.0047843754 1.1724252e-38
0.024356205 -0.13513394 -0.011859208 1.0799786e-38
0.026785925 -0.13695215 -0.018795639 1.0889101e-38
0.028928623 -0.13774733 -0.021829277 1.3007791e-38
0.03083463 -0.13774733 -0.021829277 1.4572585e-38
0.032740623 -0.13774733 -0.021829277 1.1804556e-38
0.034896031 -0.13851611 -0.024762183 1.1801695e-38
0.036807179 -0.13851611 -0.024762183 8.2042816e-39
0.038718328 -0.13851611 -0.024762183 7.4663705e-39
-0.0022842735 -0.126711 0.027217597 9.3073557e-39
-0.0004642643 -0.126711 0.027217597 1.392109e-38
0.0015264489 -0.1275015 0.024221867 1.420488e-38
0.003351707 -0.1275015 0.024221867 1.7988862e-38
0.0051769651 -0.1275015 0.024221867 1.8450206e-38
0.0071897767 -0.1282966 0.021208733 1.5593221e-38
0.0090203173 -0.1282966 0.021208733 1.5134391e-38
0.011243362 -0.12987186 0.01523909 1.5688992e-38
0.013358068 -0.13094176 0.011184543 1.5506388e-38
0.015619908 -0.1325181 0.0052107275 1.5507824e-38
0.017692413 -0.13331302 0.0021983087 1.32955e-38
0.019850496 -0.13437997 -0.001845032 1.1726752e-38
0.021940488 -0.13515557 -0.0047843754 1.080122e-38
0.024356205 -0.13702248 -0.011859208 1.1997256e-38
0.026478395 -0.13781275 -0.014854103 1.3008531e-38
0.028686613 -0.13885282 -0.018795639 1.4480773e-38
0.030587301 -0.13885282 -0.018795639 1.512361e-38
0.032740623 -0.13965334 -0.021829277 1.235666e-38
0.034896031 -0.14042725 -0.024762183 1.0879386e-38
0.036807179 -0.14042725 -0.024762183 8.0206162e-39
0.038718328 -0.14042725 -0.024762183 7.5592892e-39
-0.0021240711 -0.12932678 0.024221867 9.5828608e-39
-0.00029881299 -0.12932678 0.024221867 1.3827814e-38
0.0015264489 -0.12932678 0.024221867 1.5032844e-38
0.003351707 -0.12932678 0.024221867 1.8355852e-38
0.0051769651 -0.12932678 0.024221867 1.8265097e-38
0.0071897767 -0.13012715 0.021208733 1.5777612e-38
0.0090203173 -0.13012715 0.021208733 1.596415e-38
0.011050116 -0.13093217 0.018178195 1.6058132e-38
0.013084371 -0.13171287 0.01523909 1.4400756e-38
0.015412461 -0.13358103 0.0082060993 1.3663911e-38
0.017979529 -0.13625093 -0.001845032 1.1543066e-38
0.020064373 -0.13703169 -0.0047843754 1.1632761e-38
0.022169221 -0.13784705 -0.0078538954 1.3842242e-38
0.024356205 -0.13891099 -0.011859208 1.7803787e-38
0.026478395 -0.13970654 -0.014854103 1.8353728e-38
0.028372169 -0.13970654 -0.014854103 1.6507286e-38
0.030265942 -0.13970654 -0.014854103 1.4569722e-38
0.032159716 -0.13970654 -0.014854103 1.1433629e-38
0.034896031 -0.14233841 -0.024762183 1.051097e-38
0.036807179 -0.14233841 -0.024762183 8.4819587e-39
-0.00029881299 -0.13115202 0.024221867 1.3458669e-38
0.0015264489 -0.13115202 0.024221867 1.5123963e-38
0.003351707 -0.13115202 0.024221867 1.7893437e-38
0.0051769651 -0.13115202 0.024221867 1.8633164e-38
0.0071897767 -0.13195769 0.021208733 1.6515177e-38
0.0090203173 -0.13195769 0.021208733 1.5226585e-38
0.010850858 -0.13195769 0.021208733 1.4768114e-38
0.012885969 -0.13276802 0.018178195 1.3755387e-38
0.015412461 -0.13543437 0.0082060993 1.2557567e-38
0.017979529 -0.13812189 -0.001845032 1.1264684e-38
0.020064373 -0.13890781 -0.0047843754 1.199975e-38
0.022169221 -0.13972856 -0.0078538954 1.4946799e-38
0.024356205 -0.14079951 -0.011859208 2.0198006e-38
0.026478395 -0.1416003 -0.014854103 2.2591501e-38
0.028372169 -0.1416003 -0.014854103 1.8534519e-38
0.030265942 -0.1416003 -0.014854103 1.5675356e-38
0.032159716 -0.1416003 -0.014854103 1.1156689e-38
0.035237402 -0.14532293 -0.028776556 1.0141835e-38
-0.00029881299 -0.13297729 0.024221867 1.3918924e-38
0.0015264489 -0.13297729 0.024221867 1.521508e-38
0.003351707 -0.13297729 0.024221867 1.8077109e-38
0.0051769651 -0.13297729 0.024221867 1.8448049e-38
0.0071897767 -0.13378824 0.021208733 1.5500302e-38
0.0090203173 -0.13378824 0.021208733 1.3474865e-38
0.010850858 -0.13378824 0.021208733 1.3200065e-38
0.012885969 -0.13460387 0.018178195 1.2740516e-38
0.015412461 -0.13728772 0.0082060993 1.2556127e-38
0.017692413 -0.13890465 0.0021983087 1.2277041e-38
0.020064373 -0.14078392 -0.0047843754 1.6238238e-38
0.022467684 -0.14268802 -0.011859208 1.8447724e-38
0.024584625 -0.14349405 -0.014854103 2.1025976e-38
0.026478395 -0.14349405 -0.014854103 2.2498948e-38
0.028686613 -0.14455487 -0.018795639 1.8810033e-38
0.030587301 -0.14455487 -0.018795639 1.5859392e-38
0.032487974 -0.14455487 -0.018795639 9.2216621e-39
-0.00029881299 -0.13480256 0.024221867 1.3273189e-38
0.0015264489 -0.13480256 0.024221867 1.5398747e-38
0.003351707 -0.13480256 0.024221867 1.8721758e-38
0.0051769651 -0.13480256 0.024221867 1.8909026e-38
0.0071897767 -0.13561879 0.021208733 1.5315908e-38
0.0090203173 -0.13561879 0.021208733 1.3013164e-38
0.010850858 -0.13561879 0.021208733 1.2277746e-38
0.012681399 -0.13561879 0.021208733 1.227774e-38
0.015412461 -0.13914107 0.0082060993 1.28302e-38
0.017692413 -0.14076851 0.0021983087 1.3011014e-38
0.020064373 -0.14266007 -0.0047843754 1.9369301e-38
0.022467684 -0.14457656 -0.011859208 2.0933418e-38
0.024356205 -0.14457656 -0.011859208 2.1853227e-38
0.026478395 -0.14538784 -0.014854103 2.2404959e-38
0.028686613 -0.14645557 -0.018795639 1.8348339e-38
0.030587301 -0.14645557 -0.018795639 1.6043784e-38
0.032487974 -0.14645557 -0.018795639 9.1291106e-39
0.0015264489 -0.13662781 0.024221867 1.5122157e-38
0.003351707 -0.13662781 0.024221867 1.881431e-38
0.0051769651 -0.13662781 0.024221867 1.9093052e-38
0.0071897767 -0.13744931 0.021208733 1.5684326e-38
0.0090203173 -0.13744931 0.021208733 1.3658169e-38
0.010850858 -0.13744931 0.021208733 1.264473e-38
0.012681399 -0.13744931 0.021208733 1.2184105e-38
0.015412461 -0.14099441 0.0082060993 1.3380859e-38
0.017692413 -0.14263238 0.0021983087 1.5129005e-38
0.020064373 -0.14453618 -0.0047843754 2.0934115e-38
0.022169221 -0.14537306 -0.0078538954 2.1207136e-38
0.024356205 -0.14646508 -0.011859208 2.1389739e-38
0.02624473 -0.14646508 -0.011859208 2.0559614e-38
0.028372169 -0.1472816 -0.014854103 1.5120774e-38
0.030265942 -0.1472816 -0.014854103 1.3370111e-38
0.032159716 -0.1472816 -0.014854103 7.6547008e-39
0.0015264489 -0.13845308 0.024221867 1.4845922e-38
0.003351707 -0.13845308 0.024221867 1.7984901e-38
0.0051769651 -0.13845308 0.024221867 1.7710472e-38
0.0071897767 -0.13927986 0.021208733 1.4946395e-38
0.0090203173 -0.13927986 0.021208733 1.3749641e-38
0.010850858 -0.13927986 0.021208733 1.2459976e-38
0.012681399 -0.13927986 0.021208733 1.2274146e-38
0.015412461 -0.14284773 0.0082060993 1.4208107e-38
0.0174785 -0.14366965 0.0052107275 1.7338828e-38
0.019850496 -0.14560573 -0.001845032 2.1299668e-38
0.021940488 -0.1464123 -0.0047843754 2.0835125e-38
0.024356205 -0.14835359 -0.011859208 2.0004294e-38
0.02624473 -0.14835359 -0.011859208 1.8806104e-38
0.028372169 -0.14917539 -0.014854103 1.4289937e-38
0.030265942 -0.14917539 -0.014854103 1.3278634e-38
0.032159716 -0.14917539 -0.014854103 8.4848216e-39
-0.080391288 -0.13751976 0.034211248 1.2621719e-38
-0.078583539 -0.13751976 0.034211248 1.2807188e-38
0.0015264489 -0.14027832 0.024221867 1.5307253e-38
0.003351707 -0.14027832 0.024221867 1.7247689e-38
0.0051769651 -0.14027832 0.024221867 1.5959108e-38
0.0071897767 -0.14111041 0.021208733 1.3471262e-38
0.0090203173 -0.14111041 0.021208733 1.3012074e-38
0.010850858 -0.14111041 0.021208733 1.1997559e-38
0.012885969 -0.14194728 0.018178195 1.2364543e-38
0.015206184 -0.14387859 0.011184543 1.595731e-38
0.0174785 -0.14552824 0.0052107275 1.6967174e-38
0.019556288 -0.14636014 0.0021983087 1.7793367e-38
0.021721456 -0.14747669 -0.001845032 1.6960396e-38
0.023816604 -0.14828841 -0.0047843754 1.5023937e-38
-0.087710828 -0.14017828 0.031149834 1.2990851e-38
-0.085897714 -0.14017828 0.031149834 1.3082696e-38
-0.084006771 -0.13932751 0.034211248 1.3359285e-38
-0.08219903 -0.13932751 0.034211248 1.2990502e-38
-0.080391288 -0.13932751 0.034211248 1.2806111e-38
-0.078583539 -0.13932751 0.034211248 1.299158e-38
0.0015264489 -0.1421036 0.024221867 1.5583837e-38
0.003351707 -0.1421036 0.024221867 1.6694511e-38
0.0051769651 -0.1421036 0.024221867 1.4668366e-38
0.0071897767 -0.14294095 0.021208733 1.2365272e-38
0.0090203173 -0.14294095 0.021208733 1.2274146e-38
0.010850858 -0.14294095 0.021208733 1.0890492e-38
0.012885969 -0.14378314 0.018178195 1.2086517e-38
0.015206184 -0.1457267 0.011184543 1.7246254e-38
0.0174785 -0.14738683 0.0052107275 2.0191507e-38
0.019556288 -0.14822401 0.0021983087 1.6039493e-38
0.021721456 -0.14934768 -0.001845032 1.5022493e-38
-0.089430004 -0.14113526 0.034211248 1.3360375e-38
-0.087622263 -0.14113526 0.034211248 1.2530601e-38
-0.085897714 -0.14199139 0.031149834 1.3360008e-38
-0.084006771 -0.14113526 0.034211248 1.36366e-38
-0.08219903 -0.14113526 0.034211248 1.3175265e-38
-0.080391288 -0.14113526 0.034211248 1.2714644e-38
-0.078583539 -0.14113526 0.034211248 1.280719e-38
-0.076775797 -0.14113526 0.034211248 1.2254731e-38
-0.074919105 -0.14031343 0.037149876 1.179375e-38
-0.07307142 -0.13946722 0.040175766 1.2254368e-38
-0.071274132 -0.13946722 0.040175766 1.2530601e-38
0.0015264489 -0.14392884 0.024221867 1.5123214e-38
0.003351707 -0.14392884 0.024221867 1.5957296e-38
0.0051769651 -0.14392884 0.024221867 1.4114468e-38
0.0071897767 -0.1447715 0.021208733 1.2087243e-38
0.0090203173 -0.1447715 0.021208733 1.1995048e-38
0.010850858 -0.1447715 0.021208733 9.9667437e-39
0.012885969 -0.14561899 0.018178195 1.125497e-38
0.015206184 -0.14757483 0.011184543 1.7428854e-38
0.0174785 -0.14924543 0.0052107275 1.7978095e-38
0.019337092 -0.14924543 0.0052107275 9.7701892e-39
-0.089430004 -0.14294298 0.034211248 1.3175635e-38
-0.087622263 -0.14294298 0.034211248 1.3175267e-38
-0.085897714 -0.14380451 0.031149834 1.2622457e-38
-0.084006771 -0.14294298 0.034211248 1.2622461e-38
-0.08219903 -0.14294298 0.034211248 1.3636262e-38
-0.080391288 -0.14294298 0.034211248 1.206965e-38
-0.078524292 -0.14211603 0.037149876 1.2623524e-38
-0.076721698 -0.14211603 0.037149876 1.3453987e-38
-0.074919105 -0.14211603 0.037149876 1.2256152e-38
-0.07307142 -0.14126451 0.040175766 1.3269948e-38
-0.071274132 -0.14126451 0.040175766 1.2807907e-38
0.0015264489 -0.14575411 0.024221867 1.3833546e-38
0.003351707 -0.14575411 0.024221867 1.4666186e-38
0.0051769651 -0.14575411 0.024221867 1.5312283e-38
0.0071897767 -0.14660202 0.021208733 1.3652411e-38
0.0090203173 -0.14660202 0.021208733 1.1069503e-38
0.010850858 -0.14660202 0.021208733 1.088476e-38
0.012885969 -0.14745484 0.018178195 1.3003467e-38
0.015206184 -0.14942293 0.011184543 1.4384612e-38
-0.091464601 -0.14673109 0.027217597 1.1610491e-38
-0.089644596 -0.14673109 0.027217597 1.2437719e-38
-0.087824591 -0.14673109 0.027217597 1.262174e-38
-0.086004585 -0.14673109 0.027217597 1.2899043e-38
-0.084184572 -0.14673109 0.027217597 1.3729526e-38
-0.082364567 -0.14673109 0.027217597 1.3544431e-38
-0.080391288 -0.14475073 0.034211248 1.3267843e-38
-0.078524292 -0.14391862 0.037149876 1.3176346e-38
-0.076721698 -0.14391862 0.037149876 1.2440565e-38
-0.074919105 -0.14391862 0.037149876 1.2901889e-38
-0.073116511 -0.14391862 0.037149876 1.3546183e-38
-0.071313918 -0.14391862 0.037149876 1.3821705e-38
-0.069511324 -0.14391862 0.037149876 1.3360013e-38
-0.067708731 -0.14391862 0.037149876 1.2898306e-38
-0.00029881299 -0.14757936 0.024221867 1.29966e-38
0.0015264489 -0.14757936 0.024221867 1.3464766e-38
0.003351707 -0.14757936 0.024221867 1.4666186e-38
0.0051769651 -0.14757936 0.024221867 1.5311206e-38
0.0071897767 -0.14843257 0.021208733 1.3097085e-38
0.0090203173 -0.14843257 0.021208733 1.0790769e-38
0.010850858 -0.14843257 0.021208733 1.0974811e-38
0.012885969 -0.14929073 0.018178195 1.1711307e-38
-0.089644596 -0.14855109 0.027217597 1.2160776e-38
-0.087824591 -0.14855109 0.027217597 1.2806488e-38
-0.086004585 -0.14855109 0.027217597 1.3083777e-38
-0.084184572 -0.14855109 0.027217597 1.5665614e-38
-0.082364567 -0.14855109 0.027217597 1.538833e-38
-0.080544561 -0.14855109 0.027217597 1.6033349e-38
-0.078583539 -0.14655848 0.034211248 1.4189433e-38
-0.076721698 -0.14572121 0.037149876 1.2161846e-38
-0.074919105 -0.14572121 0.037149876 1.3637327e-38
-0.073116511 -0.14572121 0.037149876 1.3545129e-38
-0.071313918 -0.14572121 0.037149876 1.2991239e-38
-0.069511324 -0.14572121 0.037149876 1.2068917e-38
-0.067650542 -0.14400201 0.043184012 1.1884154e-38
-0.065858528 -0.14400201 0.043184012 1.2620629e-38
-0.064066522 -0.14400201 0.043184012 1.2528069e-38
-0.00029881299 -0.14940463 0.024221867 1.3549774e-38
0.0015264489 -0.14940463 0.024221867 1.2634653e-38
0.003351707 -0.14940463 0.024221867 1.4112307e-38
0.0051769651 -0.14940463 0.024221867 1.4756609e-38
-0.089339837 -0.14752381 0.037149876 1.1977105e-38
-0.087537244 -0.14752381 0.037149876 1.3359661e-38
-0.085734658 -0.14752381 0.037149876 1.7048535e-38
-0.083932064 -0.14752381 0.037149876 2.1289891e-38
-0.082129471 -0.14752381 0.037149876 2.2395182e-38
-0.080326878 -0.14752381 0.037149876 2.0550929e-38
-0.078524292 -0.14752381 0.037149876 1.4649344e-38
-0.076721698 -0.14752381 0.037149876 1.1515058e-38
-0.074919105 -0.14752381 0.037149876 1.2160425e-38
-0.073116511 -0.14752381 0.037149876 1.2806147e-38
-0.071313918 -0.14752381 0.037149876 1.2344799e-38
-0.069511324 -0.14752381 0.037149876 1.2344428e-38
-0.067650542 -0.14579402 0.043184012 1.2805749e-38
-0.065858528 -0.14579402 0.043184012 1.3543665e-38
-0.064066522 -0.14579402 0.043184012 1.363406e-38
-0.089246996 -0.14845367 0.040175766 1.1609409e-38
-0.087449707 -0.14845367 0.040175766 1.3544413e-38
-0.085652426 -0.14845367 0.040175766 1.6771577e-38
-0.083855137 -0.14845367 0.040175766 2.0644142e-38
-0.082057849 -0.14845367 0.040175766 2.3504394e-38
