# .PCD v0.7 - Point Cloud Data file format
VERSION 0.7
FIELDS x y z rgb
SIZE 4 4 4 4
TYPE F F F F
COUNT 1 1 1 1
WIDTH 815
HEIGHT 1
VIEWPOINT 0 0 0 1 0 0 0
POINTS 815
DATA ascii
0.031760115 -0.095558092 -0.045288447 2.0747231e-38
0.033709981 -0.095558092 -0.045288447 1.9456495e-38
0.025910523 -0.097507954 -0.045288447 2.2775183e-38
0.027860388 -0.097507954 -0.045288447 2.2958857e-38
0.029810254 -0.097507954 -0.045288447 2.3142528e-38
0.031622458 -0.09662199 -0.041262154 2.2775181e-38
0.03356526 -0.09662199 -0.041262154 2.2867018e-38
0.035508066 -0.09662199 -0.041262154 2.3142528e-38
-0.0072240373 -0.096135467 -0.030309204 1.8807869e-38
-0.0053031454 -0.095450163 -0.027219418 1.7796234e-38
-0.0033849617 -0.095450163 -0.027219418 2.2683306e-38
0.0022597397 -0.09236221 -0.013296966 2.2775088e-38
0.0041535124 -0.09236221 -0.013296966 2.1671633e-38
0.023851238 -0.098564804 -0.041262154 2.3234372e-38
0.025794044 -0.098564804 -0.041262154 2.3142534e-38
0.027860388 -0.099457815 -0.045288447 2.3142534e-38
0.029810254 -0.099457815 -0.045288447 2.3142534e-38
0.031518836 -0.097892582 -0.038231377 2.286702e-38
0.033456326 -0.097892582 -0.038231377 2.314253e-38
0.035393815 -0.097892582 -0.038231377 2.3234367e-38
0.037331305 -0.097892582 -0.038231377 2.3142531e-38
0.039104998 -0.097010851 -0.034255985 2.2958863e-38
-0.0091476375 -0.098059073 -0.030309204 2.3233614e-38
-0.0072240373 -0.098059073 -0.030309204 2.3509841e-38
-0.0053031454 -0.097368345 -0.027219418 2.2775151e-38
-0.0033849617 -0.097368345 -0.027219418 2.2866977e-38
-0.0015105279 -0.095137119 -0.017238501 1.9830234e-38
0.00039015524 -0.095137119 -0.017238501 1.9646189e-38
0.0022597397 -0.094255984 -0.013296966 2.1764895e-38
0.0041246312 -0.093586475 -0.010302071 2.1856749e-38
0.0060131531 -0.093586475 -0.010302071 2.3142496e-38
0.0079016741 -0.093586475 -0.010302071 2.3142521e-38
0.0098348288 -0.094255984 -0.013296966 2.3326208e-38
0.011728602 -0.094255984 -0.013296966 2.3418047e-38
0.013622374 -0.094255984 -0.013296966 2.350987e-38
0.020130675 -0.1020664 -0.048235063 2.3509863e-38
0.022085708 -0.1020664 -0.048235063 2.3418043e-38
0.023851238 -0.1005076 -0.041262154 2.341805e-38
0.025794044 -0.1005076 -0.041262154 2.341805e-38
0.027860388 -0.10140768 -0.045288447 2.3234376e-38
0.029810254 -0.10140768 -0.045288447 2.314253e-38
0.031518836 -0.099830076 -0.038231377 2.3142527e-38
0.033313438 -0.098941371 -0.034255985 2.3234367e-38
0.035243958 -0.098941371 -0.034255985 2.3234372e-38
0.037174478 -0.098941371 -0.034255985 2.3234376e-38
-0.012994838 -0.099982664 -0.030309204 2.3509856e-38
-0.011071238 -0.099982664 -0.030309204 2.3050299e-38
-0.0091395108 -0.099286526 -0.027219418 2.3234323e-38
-0.0072213272 -0.099286526 -0.027219418 2.3050646e-38
-0.0053031454 -0.099286526 -0.027219418 2.1948612e-38
-0.0033849617 -0.099286526 -0.027219418 2.0754731e-38
-0.0015105279 -0.097037792 -0.017238501 1.9557258e-38
0.00036596786 -0.096149758 -0.013296966 1.8912242e-38
0.0022597397 -0.096149758 -0.013296966 1.9372504e-38
0.0041246312 -0.095475003 -0.010302071 2.0661093e-38
0.0059675053 -0.094572589 -0.0062967576 2.2040455e-38
0.0078490041 -0.094572589 -0.0062967576 2.2866997e-38
0.0097305039 -0.094572589 -0.0062967576 2.3326185e-38
0.011678717 -0.095475003 -0.010302071 2.3509144e-38
0.013622374 -0.096149758 -0.013296966 2.3509149e-38
0.015516146 -0.096149758 -0.013296966 2.3509514e-38
0.018175647 -0.10402142 -0.048235063 2.3508801e-38
0.020130675 -0.10402142 -0.048235063 2.3508088e-38
0.021551419 -0.099286526 -0.027219418 2.3508809e-38
0.023469601 -0.099286526 -0.027219418 2.3508809e-38
0.025387786 -0.099286526 -0.027219418 2.3508451e-38
0.027521875 -0.10087189 -0.034255985 2.3140391e-38
0.029581346 -0.10176755 -0.038231377 2.3509869e-38
0.031142335 -0.099286526 -0.027219418 2.3418023e-38
0.033060521 -0.099286526 -0.027219418 2.323436e-38
0.035243958 -0.10087189 -0.034255985 2.2866308e-38
0.037174478 -0.10087189 -0.034255985 2.3234379e-38
-0.016918436 -0.10370506 -0.038231377 1.8528778e-38
-0.014980945 -0.10370506 -0.038231377 2.3509496e-38
-0.012994838 -0.10190627 -0.030309204 2.3509848e-38
-0.011071238 -0.10190627 -0.030309204 2.3050653e-38
-0.0091395108 -0.10120471 -0.027219418 2.2591461e-38
-0.0072213272 -0.10120471 -0.027219418 2.1764929e-38
-0.0053031454 -0.10120471 -0.027219418 2.0846567e-38
-0.0033955192 -0.10029322 -0.023205046 2.0111876e-38
-0.0015278058 -0.098043531 -0.013296966 1.9375034e-38
0.00036596786 -0.098043531 -0.013296966 1.9374313e-38
0.0022361102 -0.097363517 -0.010302071 1.9834575e-38
0.0040860064 -0.096454084 -0.0062967576 2.0754379e-38
0.0059325229 -0.095757127 -0.0032272376 2.1673107e-38
0.0078086406 -0.095757127 -0.0032272376 2.2315967e-38
0.0096847573 -0.095757127 -0.0032272376 2.2774434e-38
0.011612003 -0.096454084 -0.0062967576 2.3509853e-38
0.013567238 -0.097363517 -0.010302071 2.3509507e-38
0.015455759 -0.097363517 -0.010302071 2.3509156e-38
0.017562792 -0.099627286 -0.020272139 2.3508807e-38
0.019633237 -0.10120471 -0.027219418 2.3508451e-38
0.021449361 -0.10029322 -0.023205046 2.3508809e-38
0.023280799 -0.099627286 -0.020272139 2.304748e-38
0.025099039 -0.09893848 -0.017238501 2.3508092e-38
0.026999723 -0.09893848 -0.017238501 2.3324062e-38
0.029581346 -0.10370506 -0.038231377 2.3509869e-38
0.031142335 -0.10120471 -0.027219418 2.3418019e-38
0.033060521 -0.10120471 -0.027219418 2.3418033e-38
0.034978703 -0.10120471 -0.027219418 2.3141819e-38
0.036896884 -0.10120471 -0.027219418 2.3417333e-38
-0.018855926 -0.10564254 -0.038231377 1.9821305e-38
-0.016918436 -0.10564254 -0.038231377 2.2495694e-38
-0.014980945 -0.10564254 -0.038231377 2.3509846e-38
-0.013019058 -0.10473295 -0.034255985 2.3050653e-38
-0.011071238 -0.10382988 -0.030309204 2.1948609e-38
-0.0091395108 -0.1031229 -0.027219418 2.1396503e-38
-0.0072213272 -0.1031229 -0.027219418 2.0384507e-38
-0.0053066639 -0.10220437 -0.023205046 2.0017885e-38
-0.003411212 -0.10083917 -0.017238501 1.9835291e-38
-0.0015278058 -0.099937305 -0.013296966 1.9927131e-38
0.00034758914 -0.099252045 -0.010302071 2.0203721e-38
0.0022361102 -0.099252045 -0.010302071 2.0662905e-38
0.0040860064 -0.098335579 -0.0062967576 2.1213925e-38
0.0059325229 -0.097633243 -0.0032272376 2.1764944e-38
0.0078086406 -0.097633243 -0.0032272376 2.2039377e-38
0.0096847573 -0.097633243 -0.0032272376 2.3234333e-38
0.011560873 -0.097633243 -0.0032272376 2.3509851e-38
0.0134935 -0.098335579 -0.0062967576 2.3509859e-38
0.015374999 -0.098335579 -0.0062967576 2.3508065e-38
0.017409921 -0.099937305 -0.013296966 2.3324041e-38
0.019538216 -0.10220437 -0.023205046 2.3417323e-38
0.021374796 -0.10153329 -0.020272139 2.3326208e-38
0.023091238 -0.099937305 -0.013296966 2.2773408e-38
0.024898365 -0.099252045 -0.010302071 2.3508809e-38
0.02678689 -0.099252045 -0.010302071 2.3509168e-38
0.028675411 -0.099252045 -0.010302071 2.350987e-38
0.033319458 -0.093051672 0.016796228 2.3049626e-38
-0.024668399 -0.10758002 -0.038231377 1.1525856e-38
-0.022730906 -0.10758002 -0.038231377 1.0696449e-38
-0.020793416 -0.10758002 -0.038231377 1.1803151e-38
-0.018855926 -0.10758002 -0.038231377 2.1945023e-38
-0.016918436 -0.10758002 -0.038231377 2.3142493e-38
-0.01494958 -0.10666345 -0.034255985 2.2224117e-38
-0.012994838 -0.10575347 -0.030309204 2.1027724e-38
-0.011071238 -0.10575347 -0.030309204 2.0568538e-38
-0.0091395108 -0.10504107 -0.027219418 1.9924962e-38
-0.0072178086 -0.1041155 -0.023205046 1.9740931e-38
-0.0053118942 -0.10273984 -0.017238501 1.9742377e-38
-0.0034215776 -0.10183108 -0.013296966 1.9834936e-38
-0.0015409337 -0.10114056 -0.010302071 2.038739e-38
0.00034758914 -0.10114056 -0.010302071 2.0754741e-38
0.0022045085 -0.10021709 -0.0062967576 2.1305761e-38
0.0040860064 -0.10021709 -0.0062967576 2.1581274e-38
0.0058990242 -0.098831654 -0.00028789416 2.2040453e-38
0.0077699879 -0.098831654 -0.00028789416 2.2315245e-38
0.0096409516 -0.098831654 -0.00028789416 2.2865908e-38
0.011511914 -0.098831654 -0.00028789416 2.2496049e-38
0.013197836 -0.09651424 0.0097632371 2.2587174e-38
0.014850105 -0.094215035 0.019735333 2.3233265e-38
0.016685963 -0.094215035 0.019735333 2.3509863e-38
0.018687356 -0.09582752 0.012741681 2.323436e-38
0.021019496 -0.10021709 -0.0062967576 2.286702e-38
0.022900995 -0.10021709 -0.0062967576 2.286703e-38
0.024317879 -0.09651424 0.0097632371 2.258902e-38
0.02607983 -0.09582752 0.012741681 2.3417333e-38
0.027927946 -0.09582752 0.012741681 2.3509866e-38
0.029776067 -0.09582752 0.012741681 2.2865922e-38
0.03147845 -0.094892681 0.016796228 2.3509866e-38
0.033319458 -0.094892681 0.016796228 2.3141456e-38
-0.026605889 -0.10951753 -0.038231377 1.0695744e-38
-0.024668399 -0.10951753 -0.038231377 1.1526575e-38
-0.022730906 -0.10951753 -0.038231377 1.1896786e-38
-0.020793416 -0.10951753 -0.038231377 1.3188592e-38
-0.018855926 -0.10951753 -0.038231377 2.2132279e-38
-0.016880099 -0.10859399 -0.034255985 2.2040436e-38
-0.01491844 -0.10767709 -0.030309204 2.0661445e-38
-0.012975876 -0.10695927 -0.027219418 2.0110066e-38
-0.011057694 -0.10695927 -0.027219418 2.0110784e-38
-0.0091289533 -0.10602666 -0.023205046 1.9467212e-38
-0.0072178086 -0.10602666 -0.023205046 1.9927833e-38
-0.0053153494 -0.10372485 -0.013296966 2.0111514e-38
-0.0034294548 -0.10302909 -0.010302071 2.0295551e-38
-0.0015584892 -0.10209858 -0.0062967576 2.0662898e-38
0.00032300968 -0.10209858 -0.0062967576 2.0938412e-38
0.0022045085 -0.10209858 -0.0062967576 2.1305758e-38
0.0040564062 -0.10138547 -0.0032272376 2.1764944e-38
0.0058990242 -0.10070263 -0.00028789416 2.2315963e-38
0.0077168178 -0.099763289 0.0037554465 2.2866981e-38
0.0094911559 -0.098367572 0.0097632371 2.2404927e-38
0.011344495 -0.098367572 0.0097632371 2.2680437e-38
0.013143002 -0.097675636 0.012741681 2.2772636e-38
0.014788999 -0.095346853 0.022765871 2.2774076e-38
0.016619541 -0.095346853 0.022765871 2.2866998e-38
0.018521816 -0.096050888 0.019735333 2.2683333e-38
0.020611197 -0.098367572 0.0097632371 2.1948644e-38
0.022737693 -0.10070263 -0.00028789416 2.1580942e-38
0.024317879 -0.098367572 0.0097632371 2.3142537e-38
0.02607983 -0.097675636 0.012741681 2.3509873e-38
0.027927946 -0.097675636 0.012741681 2.3509851e-38
0.029776067 -0.097675636 0.012741681 2.3509844e-38
0.03147845 -0.096733689 0.016796228 2.3509853e-38
0.033319458 -0.096733689 0.016796228 2.3140362e-38
0.035160467 -0.096733689 0.016796228 2.3508085e-38
-0.026605889 -0.11145501 -0.038231377 1.0234769e-38
-0.024668399 -0.11145501 -0.038231377 1.0513502e-38
-0.022730906 -0.11145501 -0.038231377 1.2820534e-38
-0.020793416 -0.11145501 -0.038231377 1.485026e-38
-0.018855926 -0.11145501 -0.038231377 2.1764926e-38
-0.016880099 -0.11052449 -0.034255985 2.0662875e-38
-0.01491844 -0.10960068 -0.030309204 1.9927819e-38
-0.012951243 -0.1079378 -0.023205046 2.0203689e-38
-0.011040098 -0.1079378 -0.023205046 2.0020019e-38
-0.0091212401 -0.1072513 -0.020272139 1.9652673e-38
-0.0072091231 -0.10561861 -0.013296966 2.0203703e-38
-0.0053179758 -0.1049176 -0.010302071 2.0387378e-38
-0.003439988 -0.10398008 -0.0062967576 2.0662891e-38
-0.0015719431 -0.1032616 -0.0032272376 2.075473e-38
0.00030417275 -0.1032616 -0.0032272376 2.0938405e-38
0.0021570986 -0.10257359 -0.00028789416 2.1305754e-38
0.0040280614 -0.10257359 -0.00028789416 2.1764938e-38
0.0058529442 -0.10162716 0.0037554465 2.2407794e-38
0.0076772049 -0.10092205 0.0067678653 2.2958817e-38
0.0094467672 -0.099523753 0.012741681 2.2313087e-38
0.01122735 -0.098574698 0.016796228 2.3509834e-38
0.01301425 -0.097886756 0.019735333 2.3142492e-38
0.014788999 -0.097177386 0.022765871 2.2037582e-38
0.016619541 -0.097177386 0.022765871 2.2040463e-38
0.018450085 -0.097177386 0.022765871 2.2315982e-38
0.020280626 -0.097177386 0.022765871 2.194864e-38
0.022273403 -0.098574698 0.016796228 2.0569652e-38
0.024114411 -0.098574698 0.016796228 1.8904744e-38
0.02607983 -0.099523753 0.012741681 1.761076e-38
0.028024558 -0.10022092 0.0097632371 1.6872818e-38
0.03147845 -0.098574698 0.016796228 1.5856873e-38
0.033319458 -0.098574698 0.016796228 1.576361e-38
0.035160467 -0.098574698 0.016796228 1.6500472e-38
0.038716231 -0.097886756 0.019735333 1.5947296e-38
0.040552087 -0.097886756 0.019735333 1.6963243e-38
0.042387944 -0.097886756 0.019735333 1.6872487e-38
-0.026605889 -0.11339252 -0.038231377 9.9581846e-39
-0.024668399 -0.11339252 -0.038231377 9.5915461e-39
-0.022730906 -0.11339252 -0.038231377 1.3927599e-38
-0.020793416 -0.11339252 -0.038231377 1.5774725e-38
-0.018810619 -0.11245503 -0.034255985 2.1030224e-38
-0.016880099 -0.11245503 -0.034255985 1.928352e-38
-0.01491844 -0.11152427 -0.030309204 1.8548105e-38
-0.012951243 -0.10984896 -0.023205046 1.8640661e-38
-0.011027242 -0.10915731 -0.020272139 1.8826134e-38
-0.0091132605 -0.1084419 -0.017238501 1.9101651e-38
-0.0072064968 -0.10680611 -0.010302071 1.9836348e-38
-0.0053214869 -0.10586159 -0.0062967576 2.0203697e-38
-0.0034480607 -0.10513772 -0.0032272376 2.066288e-38
-0.0015848288 -0.10444455 -0.00028789416 2.0938392e-38
0.00028613489 -0.10444455 -0.00028789416 2.0938398e-38
0.0021251962 -0.10349102 0.0037554465 2.1213909e-38
0.0039890697 -0.10349102 0.0037554465 2.1489062e-38
0.0057844752 -0.10207425 0.0097632371 2.2039723e-38
0.0075986488 -0.10137187 0.012741681 2.2590745e-38
0.0093425382 -0.099722609 0.019735333 2.2497833e-38
0.011178394 -0.099722609 0.019735333 2.2681868e-38
0.012958457 -0.099007934 0.022765871 2.2774784e-38
0.014788999 -0.099007934 0.022765871 2.2683311e-38
0.016619541 -0.099007934 0.022765871 2.2315975e-38
0.018450085 -0.099007934 0.022765871 2.148945e-38
0.020280626 -0.099007934 0.022765871 1.9466892e-38
0.022193529 -0.099722609 0.019735333 1.835874e-38
0.024114411 -0.10041572 0.016796228 1.466443e-38
0.02607983 -0.10137187 0.012741681 1.281655e-38
0.031624183 -0.10137187 0.012741681 1.5302593e-38
0.033319458 -0.10041572 0.016796228 1.5946894e-38
0.035160467 -0.10041572 0.016796228 1.5207904e-38
0.038716231 -0.099722609 0.019735333 1.7329128e-38
0.040552087 -0.099722609 0.019735333 1.8713504e-38
0.042387944 -0.099722609 0.019735333 1.8346527e-38
-0.026532702 -0.11438553 -0.034255985 9.9574685e-39
-0.024602178 -0.11438553 -0.034255985 9.1305679e-39
-0.022671659 -0.11438553 -0.034255985 1.485063e-38
-0.020741139 -0.11438553 -0.034255985 1.5868714e-38
-0.018810619 -0.11438553 -0.034255985 2.0295526e-38
-0.016842037 -0.11344786 -0.030309204 1.7902736e-38
-0.014894062 -0.1127138 -0.027219418 1.6613786e-38
-0.012933244 -0.11106332 -0.020272139 1.6245367e-38
-0.011013945 -0.11034258 -0.017238501 1.7167326e-38
-0.0091132605 -0.11034258 -0.017238501 1.8272603e-38
-0.0072029857 -0.10774307 -0.0062967576 1.9192767e-38
-0.0053241784 -0.10701384 -0.0032272376 1.9928177e-38
-0.0034557907 -0.10631551 -0.00028789416 2.0571032e-38
-0.0016025519 -0.10535492 0.0037554465 2.0938382e-38
0.0002613226 -0.10535492 0.0037554465 2.1213897e-38
0.0021014279 -0.10463922 0.0067678653 2.1213902e-38
0.0039311349 -0.1039276 0.0097632371 2.1305022e-38
0.0057505313 -0.10322 0.012741681 2.1579097e-38
0.0075453315 -0.10225673 0.016796228 2.1946087e-38
0.0092973728 -0.10083848 0.022765871 2.3509828e-38
0.011127916 -0.10083848 0.022765871 2.2129048e-38
0.012958457 -0.10083848 0.022765871 2.2314521e-38
0.014728245 -0.10012263 0.025779005 2.3142495e-38
0.016553503 -0.10012263 0.025779005 2.0844431e-38
0.018378764 -0.10012263 0.025779005 1.4025191e-38
0.020204023 -0.10012263 0.025779005 8.4034159e-39
0.022029281 -0.10012263 0.025779005 7.110868e-39
0.024114411 -0.10225673 0.016796228 1.1621234e-38
-0.026532702 -0.11631607 -0.034255985 1.0418444e-38
-0.024602178 -0.11631607 -0.034255985 1.0052521e-38
-0.022671659 -0.11631607 -0.034255985 1.5588193e-38
-0.020741139 -0.11631607 -0.034255985 1.7897374e-38
-0.01876564 -0.11537148 -0.030309204 1.6794961e-38
-0.016812243 -0.114632 -0.027219418 1.689002e-38
-0.014862387 -0.11367123 -0.023205046 1.6891091e-38
-0.012933244 -0.11296929 -0.020272139 1.7075483e-38
-0.011013945 -0.11224325 -0.017238501 1.7535389e-38
-0.0091028949 -0.11129995 -0.013296966 1.7810904e-38
-0.0072029857 -0.10962458 -0.0062967576 1.8915817e-38
-0.0053267544 -0.10818647 -0.00028789416 2.0019644e-38
-0.0034664245 -0.10721879 0.0037554465 2.0295151e-38
-0.0016025519 -0.10721879 0.0037554465 2.1122045e-38
0.00024283584 -0.10649781 0.0067678653 2.1213888e-38
0.0020777946 -0.10578094 0.0097632371 2.14894e-38
0.0039311349 -0.10578094 0.0097632371 2.1948588e-38
0.0057505313 -0.1050681 0.012741681 2.1304296e-38
0.0075066825 -0.10339431 0.019735333 2.1394343e-38
0.0092524672 -0.10194789 0.025779005 2.29588e-38
0.011077727 -0.10194789 0.025779005 2.2498543e-38
0.012902985 -0.10194789 0.025779005 2.2037931e-38
0.014728245 -0.10194789 0.025779005 2.1856063e-38
0.016553503 -0.10194789 0.025779005 2.1764954e-38
0.018378764 -0.10194789 0.025779005 1.3194357e-38
0.020204023 -0.10194789 0.025779005 7.3885507e-39
0.022029281 -0.10194789 0.025779005 9.4143197e-39
-0.028463222 -0.11824657 -0.034255985 1.1615193e-38
-0.026532702 -0.11824657 -0.034255985 1.106309e-38
-0.024602178 -0.11824657 -0.034255985 1.0973757e-38
-0.022671659 -0.11824657 -0.034255985 1.6140648e-38
-0.020741139 -0.11824657 -0.034255985 1.6514084e-38
-0.01876564 -0.11729507 -0.030309204 1.6057401e-38
-0.016812243 -0.11655019 -0.027219418 1.5968069e-38
-0.014862387 -0.11558239 -0.023205046 1.5876587e-38
-0.012914629 -0.11414395 -0.017238501 1.6797824e-38
-0.010996667 -0.11319371 -0.013296966 1.8087127e-38
-0.0091028949 -0.11319371 -0.013296966 1.8269366e-38
-0.0072002942 -0.11076607 -0.0032272376 1.8544513e-38
-0.0053267544 -0.11005743 -0.00028789416 1.9097323e-38
-0.0034664245 -0.10908265 0.0037554465 1.9741973e-38
-0.0016025519 -0.10908265 0.0037554465 2.084653e-38
0.00022445433 -0.10763429 0.0097632371 2.1122042e-38
0.0020777946 -0.10763429 0.0097632371 2.1122048e-38
0.003902413 -0.10691623 0.012741681 2.139756e-38
0.0057043228 -0.10593875 0.016796228 2.1305008e-38
0.0075066825 -0.10523017 0.019735333 2.1487606e-38
0.0092524672 -0.10377313 0.025779005 2.2223382e-38
0.011077727 -0.10377313 0.025779005 2.3142475e-38
0.012902985 -0.10377313 0.025779005 2.2499265e-38
0.014728245 -0.10377313 0.025779005 2.259147e-38
0.016553503 -0.10377313 0.025779005 2.2224135e-38
0.018378764 -0.10377313 0.025779005 1.6235378e-38
0.020204023 -0.10377313 0.025779005 1.4208155e-38
0.022029281 -0.10377313 0.025779005 1.3468416e-38
-0.026532702 -0.12017711 -0.034255985 1.1339313e-38
-0.024602178 -0.12017711 -0.034255985 1.1249623e-38
-0.022671659 -0.12017711 -0.034255985 1.595554e-38
-0.020741139 -0.12017711 -0.034255985 1.5038242e-38
-0.01876564 -0.11921866 -0.030309204 1.4765235e-38
-0.016773529 -0.11749353 -0.023205046 1.4490435e-38
-0.014839248 -0.11678131 -0.020272139 1.5229071e-38
-0.01289044 -0.11508749 -0.013296966 1.6703122e-38
-0.010996667 -0.11508749 -0.013296966 1.7530364e-38
-0.0090950178 -0.1143602 -0.010302071 1.7988829e-38
-0.0071977181 -0.11192839 -0.00028789416 1.8726031e-38
-0.005330299 -0.11094652 0.0037554465 1.7712949e-38
-0.0034664245 -0.11094652 0.0037554465 1.909696e-38
-0.0016157562 -0.11021499 0.0067678653 2.0479181e-38
0.00022445433 -0.10948761 0.0097632371 2.0938366e-38
0.0020542946 -0.10876434 0.012741681 2.0846533e-38
0.0038633132 -0.10777976 0.016796228 2.0938371e-38
0.0057043228 -0.10777976 0.016796228 2.1122048e-38
0.0074668312 -0.10633011 0.022765871 2.1305364e-38
0.0092524672 -0.10559841 0.025779005 2.0750041e-38
0.011027827 -0.10487093 0.028774735 2.2866957e-38
0.012847834 -0.10487093 0.028774735 2.2222674e-38
0.014667842 -0.10487093 0.028774735 2.2314518e-38
0.016553503 -0.10559841 0.025779005 2.3142499e-38
0.018378764 -0.10559841 0.025779005 2.2866999e-38
0.020204023 -0.10559841 0.025779005 2.2591496e-38
-0.028543379 -0.12307997 -0.038231377 1.1060928e-38
-0.026605889 -0.12307997 -0.038231377 1.1338587e-38
-0.024602178 -0.12210761 -0.034255985 1.0880479e-38
-0.022671659 -0.12210761 -0.034255985 1.5124703e-38
-0.020741139 -0.12210761 -0.034255985 1.5774376e-38
-0.018730428 -0.12038656 -0.027219418 1.5500296e-38
-0.016773529 -0.11940466 -0.023205046 1.4211707e-38
-0.014815311 -0.11794533 -0.017238501 1.4488646e-38
-0.01289044 -0.11698125 -0.013296966 1.4302094e-38
-0.010983539 -0.11624874 -0.010302071 1.2179433e-38
-0.0090950178 -0.11624874 -0.010302071 1.2914117e-38
-0.0071977181 -0.11379938 -0.00028789416 1.5034615e-38
-0.005330299 -0.11281042 0.0037554465 1.6605531e-38
-0.0034743482 -0.11207359 0.0067678653 1.8635629e-38
-0.001628886 -0.11134095 0.0097632371 1.965086e-38
0.00020617712 -0.11061247 0.012741681 2.0020004e-38
0.0020542946 -0.11061247 0.012741681 1.9928167e-38
0.0038633132 -0.10962076 0.016796228 2.0111841e-38
0.0056708269 -0.10890187 0.019735333 2.1030207e-38
0.0074668312 -0.10816063 0.022765871 2.0938371e-38
0.0092078215 -0.10669093 0.028774735 2.1673066e-38
0.010962329 -0.10572915 0.032706972 1.6323932e-38
0.012775443 -0.10572915 0.032706972 1.7797274e-38
0.014667842 -0.10669093 0.028774735 2.332615e-38
0.016487848 -0.10669093 0.028774735 2.3509838e-38
0.018307853 -0.10669093 0.028774735 2.2590042e-38
0.020204023 -0.10742365 0.025779005 2.3418018e-38
-0.028543379 -0.12501745 -0.038231377 1.1430064e-38
-0.026605889 -0.12501745 -0.038231377 1.1799199e-38
-0.024602178 -0.12403814 -0.034255985 1.1155624e-38
-0.022671659 -0.12403814 -0.034255985 1.4938516e-38
-0.020689238 -0.12306587 -0.030309204 1.4205261e-38
-0.018730428 -0.12230472 -0.027219418 1.6420471e-38
-0.016745247 -0.12059332 -0.020272139 1.5684339e-38
-0.014815311 -0.119846 -0.017238501 1.5222996e-38
-0.01289044 -0.11887501 -0.013296966 1.4482546e-38
-0.010983539 -0.11813726 -0.010302071 1.2636107e-38
-0.0090844845 -0.11715056 -0.0062967576 1.502995e-38
-0.0071977181 -0.11567034 -0.00028789416 1.7888731e-38
-0.0053329403 -0.11393218 0.0067678653 1.7064362e-38
-0.0034743482 -0.11393218 0.0067678653 1.8634922e-38
-0.001628886 -0.1131943 0.0097632371 1.8451965e-38
0.00020617712 -0.11246057 0.012741681 1.8177173e-38
0.0020223046 -0.11146177 0.016796228 1.7993856e-38
0.0038633132 -0.11146177 0.016796228 1.8639582e-38
0.0056362888 -0.10999118 0.022765871 2.0662859e-38
0.0074272081 -0.10924892 0.025779005 2.0479184e-38
0.0092078215 -0.10851096 0.028774735 2.029228e-38
0.010962329 -0.10754226 0.032706972 1.3836076e-38
0.012775443 -0.10754226 0.032706972 1.752032e-38
0.014667842 -0.10851096 0.028774735 2.1205998e-38
0.016487848 -0.10851096 0.028774735 2.2679703e-38
0.018307853 -0.10851096 0.028774735 2.3509844e-38
-0.028543379 -0.12695493 -0.038231377 1.2167263e-38
-0.026605889 -0.12695493 -0.038231377 1.25364e-38
-0.024602178 -0.12596865 -0.034255985 1.1984302e-38
-0.02261284 -0.12498946 -0.030309204 1.5675365e-38
-0.020689238 -0.12498946 -0.030309204 1.7522517e-38
-0.018730428 -0.12422292 -0.027219418 2.2591486e-38
-0.016745247 -0.1224993 -0.020272139 2.1673118e-38
-0.014815311 -0.12174667 -0.017238501 1.8815766e-38
-0.01289044 -0.1207688 -0.013296966 1.6599821e-38
-0.010983539 -0.12002577 -0.010302071 1.4660825e-38
-0.0090844845 -0.11903207 -0.0062967576 1.6870274e-38
-0.0071941735 -0.11653815 0.0037554465 1.8347198e-38
-0.0053329403 -0.11579077 0.0067678653 1.8260759e-38
-0.0034822254 -0.11504765 0.0097632371 1.9279944e-38
-0.0016419413 -0.1143087 0.012741681 1.7714051e-38
0.00018129591 -0.11330278 0.016796228 1.6794964e-38
0.0019991146 -0.11257361 0.019735333 1.6611642e-38
0.0038349703 -0.11257361 0.019735333 1.7349922e-38
0.0056019491 -0.11107419 0.025779005 1.9652655e-38
0.0073878141 -0.11033095 0.028774735 1.8822531e-38
0.0092078215 -0.11033095 0.028774735 1.8633831e-38
0.010962329 -0.10935538 0.032706972 7.8437121e-39
0.012775443 -0.10935538 0.032706972 1.1251366e-38
0.014667842 -0.11033095 0.028774735 1.8070259e-38
0.016487848 -0.11033095 0.028774735 2.2400953e-38
0.018307853 -0.11033095 0.028774735 2.3509478e-38
-0.028543379 -0.12889244 -0.038231377 1.2074343e-38
-0.026605889 -0.12889244 -0.038231377 1.2535674e-38
-0.024602178 -0.12789918 -0.034255985 1.2352722e-38
-0.02261284 -0.12691309 -0.030309204 1.6872469e-38
-0.02064861 -0.12614109 -0.027219418 1.7521084e-38
-0.018684674 -0.12513812 -0.023205046 2.2775167e-38
-0.016745247 -0.12440531 -0.020272139 2.2407825e-38
-0.014815311 -0.12364738 -0.017238501 2.0933401e-38
-0.01289044 -0.12266256 -0.013296966 1.9086239e-38
-0.010983539 -0.12191428 -0.010302071 1.5948338e-38
-0.0090764118 -0.12014665 -0.0032272376 1.7604609e-38
-0.0071915323 -0.11764936 0.0067678653 1.9082251e-38
-0.0053355666 -0.11690097 0.0097632371 1.8997256e-38
-0.0034822254 -0.11690097 0.0097632371 2.0108997e-38
-0.0016419413 -0.1161568 0.012741681 1.81754e-38
0.00016325898 -0.11440946 0.019735333 1.7532896e-38
0.0019752039 -0.11365227 0.022765871 1.7257377e-38
0.00377669 -0.11289944 0.025779005 1.7074414e-38
0.0055678077 -0.11215095 0.028774735 1.8272231e-38
0.0073361052 -0.11116849 0.032706972 1.6057375e-38
0.009149218 -0.11116849 0.032706972 1.5684643e-38
0.010911337 -0.11040358 0.035768386 8.5816289e-39
0.012719081 -0.11040358 0.035768386 1.0513432e-38
-0.028543379 -0.13082992 -0.038231377 1.1060918e-38
-0.026605889 -0.13082992 -0.038231377 1.1797756e-38
-0.024602178 -0.12982969 -0.034255985 1.2076138e-38
-0.02261284 -0.12883668 -0.030309204 1.7149056e-38
-0.02064861 -0.12805928 -0.027219418 1.8995852e-38
-0.018684674 -0.12704925 -0.023205046 2.2958838e-38
-0.016745247 -0.12631132 -0.020272139 2.2224149e-38
-0.014815311 -0.12554805 -0.017238501 2.2775164e-38
-0.01289044 -0.12455635 -0.013296966 2.083832e-38
-0.010965983 -0.12279506 -0.0062967576 1.4751955e-38
-0.009058048 -0.12026589 0.0037554465 1.52104e-38
-0.007188906 -0.11875431 0.0097632371 1.7885865e-38
-0.005338178 -0.11800493 0.012741681 1.863027e-38
-0.0034900596 -0.11800493 0.012741681 2.066289e-38
-0.0016597146 -0.1169848 0.016796228 1.9281748e-38
0.00016325898 -0.11624531 0.019735333 1.9192418e-38
0.00195143 -0.11472471 0.025779005 1.8916901e-38
0.00377669 -0.11472471 0.025779005 1.7810903e-38
0.0055229934 -0.1129816 0.032706972 1.7533231e-38
0.0073361052 -0.1129816 0.032706972 1.4026916e-38
0.009149218 -0.1129816 0.032706972 1.2179051e-38
0.010911337 -0.11221133 0.035768386 7.3805703e-39
0.012719081 -0.11221133 0.035768386 8.7595573e-39
-0.026735809 -0.13455538 -0.045288447 1.1799212e-38
-0.024668399 -0.13276742 -0.038231377 1.1707721e-38
-0.022671659 -0.13176022 -0.034255985 1.7610031e-38
-0.02064861 -0.12997745 -0.027219418 1.8718175e-38
-0.018684674 -0.12896039 -0.023205046 2.3234331e-38
-0.016745247 -0.12821732 -0.020272139 2.2224138e-38
-0.014815311 -0.12744872 -0.017238501 2.1856072e-38
-0.01289044 -0.12645011 -0.013296966 2.0750077e-38
-0.010965983 -0.12467657 -0.0062967576 1.2914154e-38
-0.0090501243 -0.12136655 0.0067678653 1.3929009e-38
-0.007188906 -0.12060766 0.0097632371 1.5958383e-38
-0.005338178 -0.11985306 0.012741681 1.706617e-38
-0.0035007233 -0.11882581 0.016796228 1.7713335e-38
-0.0016725967 -0.11808117 0.019735333 1.9098064e-38
0.0001446614 -0.11731337 0.022765871 1.9376443e-38
0.00195143 -0.11654995 0.025779005 1.8823268e-38
0.0037478004 -0.11579098 0.028774735 1.7992063e-38
0.0054881033 -0.11401908 0.035768386 1.7621478e-38
0.0072572045 -0.11327456 0.038707014 1.0795046e-38
0.009059797 -0.11327456 0.038707014 1.0697818e-38
-0.026735809 -0.13650523 -0.045288447 1.1615545e-38
-0.024668399 -0.1347049 -0.038231377 1.1708443e-38
-0.02261284 -0.13268389 -0.030309204 1.7517835e-38
-0.02064861 -0.13189565 -0.027219418 1.8533421e-38
-0.018684674 -0.13087155 -0.023205046 2.2314521e-38
-0.016773529 -0.13087155 -0.023205046 2.1854633e-38
-0.014815311 -0.12934943 -0.017238501 2.1118507e-38
-0.01289044 -0.1283439 -0.013296966 1.9369304e-38
-0.010965983 -0.12655805 -0.0062967576 1.2272387e-38
-0.0090501243 -0.12322514 0.0067678653 1.2642234e-38
-0.007188906 -0.12246101 0.0097632371 1.4303184e-38
-0.005338178 -0.12170117 0.012741681 1.4302459e-38
-0.0035007233 -0.12066682 0.016796228 1.4579402e-38
-0.0016725967 -0.11991702 0.019735333 1.6055969e-38
0.0001446614 -0.11914389 0.022765871 1.6979001e-38
0.00195143 -0.11837523 0.025779005 1.6057401e-38
0.0037478004 -0.11761098 0.028774735 1.4764142e-38
0.0054881033 -0.11582683 0.035768386 1.5774694e-38
0.0072572045 -0.11507715 0.038707014 1.0792174e-38
0.009059797 -0.11507715 0.038707014 9.4038505e-39
-0.028745089 -0.13921197 -0.048235063 9.1259142e-39
-0.026790056 -0.13921197 -0.048235063 1.1338958e-38
-0.024668399 -0.13664238 -0.038231377 1.1616247e-38
-0.02261284 -0.13460748 -0.030309204 1.7149053e-38
-0.02064861 -0.13381381 -0.027219418 1.9086595e-38
-0.018684674 -0.13278268 -0.023205046 2.0839036e-38
-0.016773529 -0.13278268 -0.023205046 2.0747931e-38
-0.014815311 -0.1312501 -0.017238501 2.0288394e-38
-0.01289044 -0.13023765 -0.013296966 1.9184564e-38
-0.010965983 -0.12843956 -0.0062967576 1.4392182e-38
-0.0090501243 -0.12508373 0.0067678653 1.347129e-38
-0.007188906 -0.12431435 0.0097632371 1.3934055e-38
-0.005338178 -0.1235493 0.012741681 1.3658181e-38
-0.0035007233 -0.12250783 0.016796228 1.3567063e-38
-0.0016725967 -0.12175287 0.019735333 1.4305345e-38
0.0001446614 -0.12097444 0.022765871 1.467484e-38
0.00195143 -0.12020047 0.025779005 1.4305693e-38
0.0037478004 -0.11943097 0.028774735 1.4211696e-38
0.0054546129 -0.11687975 0.038707014 1.5775063e-38
0.0072572045 -0.11687975 0.038707014 1.0883655e-38
0.009059797 -0.11687975 0.038707014 8.0201958e-39
-0.028745089 -0.141167 -0.048235063 8.5727376e-39
-0.026790056 -0.141167 -0.048235063 1.0693586e-38
-0.024668399 -0.13857989 -0.038231377 1.1339659e-38
-0.022671659 -0.1375518 -0.034255985 1.6595878e-38
-0.02064861 -0.13573201 -0.027219418 1.8349029e-38
-0.018684674 -0.13469382 -0.023205046 1.844195e-38
-0.016745247 -0.13393532 -0.020272139 1.8166456e-38
-0.014815311 -0.13315077 -0.017238501 1.8167545e-38
-0.012872062 -0.13135691 -0.010302071 1.8077507e-38
-0.010952529 -0.12952723 -0.0032272376 1.5682572e-38
-0.0090501243 -0.12694232 0.0067678653 1.3931922e-38
-0.007188906 -0.12616767 0.0097632371 1.3196504e-38
-0.005338178 -0.1253974 0.012741681 1.3658556e-38
-0.0035007233 -0.12434883 0.016796228 1.3843662e-38
-0.0016858811 -0.12280498 0.022765871 1.3107892e-38
0.0001446614 -0.12280498 0.022765871 1.1817506e-38
0.001927794 -0.121251 0.028774735 1.2462151e-38
0.0037478004 -0.121251 0.028774735 1.4672682e-38
0.0054546129 -0.11868234 0.038707014 1.6051655e-38
0.0072174147 -0.11789979 0.041732904 8.8549956e-39
0.0090147015 -0.11789979 0.041732904 9.3102186e-39
-0.028745089 -0.14312203 -0.048235063 8.2039537e-39
-0.026790056 -0.14312203 -0.048235063 1.0325161e-38
-0.024668399 -0.14051737 -0.038231377 1.1247816e-38
-0.022671659 -0.1394823 -0.034255985 1.6319647e-38
-0.02064861 -0.13765021 -0.027219418 1.7795853e-38
-0.018684674 -0.13660498 -0.023205046 1.8810732e-38
-0.016745247 -0.13584132 -0.020272139 1.8719632e-38
-0.014815311 -0.13505147 -0.017238501 1.8628524e-38
-0.012872062 -0.13324542 -0.010302071 1.7984599e-38
-0.010952529 -0.13140334 -0.0032272376 1.6511264e-38
-0.0090501243 -0.12880091 0.0067678653 1.5129398e-38
-0.007188906 -0.12802102 0.0097632371 1.4855321e-38
-0.005338178 -0.12724553 0.012741681 1.4580526e-38
-0.0035007233 -0.12618984 0.016796228 1.4397928e-38
-0.0016858811 -0.12463553 0.022765871 1.338449e-38
0.00012617093 -0.12385099 0.025779005 1.1633126e-38
0.001927794 -0.123071 0.028774735 1.2093737e-38
0.0037478004 -0.123071 0.028774735 1.4395745e-38
0.0054546129 -0.12048493 0.038707014 1.5681439e-38
0.0072174147 -0.11969708 0.041732904 8.0245216e-39
0.0090147015 -0.11969708 0.041732904 8.8481614e-39
-0.028745089 -0.14507706 -0.048235063 8.2039537e-39
-0.026790056 -0.14507706 -0.048235063 1.0325158e-38
-0.024668399 -0.14245488 -0.038231377 1.1155618e-38
-0.022671659 -0.14141284 -0.034255985 1.5582076e-38
-0.020689238 -0.14037828 -0.030309204 1.7334872e-38
-0.018684674 -0.13851611 -0.023205046 2.1576958e-38
-0.016745247 -0.13774733 -0.020272139 2.166989e-38
-0.014815311 -0.13695215 -0.017238501 2.1117806e-38
-0.012872062 -0.13513394 -0.010302071 1.8629969e-38
-0.010952529 -0.13327946 -0.0032272376 1.6419069e-38
-0.0090501243 -0.13065951 0.0067678653 1.6235389e-38
-0.0071862945 -0.12909363 0.012741681 1.7436081e-38
-0.005338178 -0.12909363 0.012741681 1.6054943e-38
-0.0035007233 -0.12803085 0.016796228 1.5411005e-38
-0.0016858811 -0.12646608 0.022765871 1.5043298e-38
0.00012617093 -0.12567626 0.025779005 1.4490477e-38
0.001927794 -0.124891 0.028774735 1.3936577e-38
0.0037478004 -0.124891 0.028774735 1.3934052e-38
0.0054546129 -0.12228753 0.038707014 1.5128271e-38
0.0072572045 -0.12228753 0.038707014 9.4063799e-39
-0.024718881 -0.1451921 -0.041262154 1.0694997e-38
-0.02261284 -0.14230187 -0.030309204 1.4199496e-38
-0.02064861 -0.14148657 -0.027219418 1.5491314e-38
-0.018684674 -0.14042725 -0.023205046 2.2591461e-38
-0.016773529 -0.14042725 -0.023205046 2.2130501e-38
-0.014839248 -0.13965334 -0.020272139 2.1670613e-38
-0.01289044 -0.13781275 -0.013296966 1.8353734e-38
-0.010965983 -0.13596557 -0.0062967576 1.494429e-38
-0.0090501243 -0.1325181 0.0067678653 1.5313783e-38
-0.0071862945 -0.13094176 0.012741681 1.7158769e-38
-0.005338178 -0.13094176 0.012741681 1.6421925e-38
-0.0035007233 -0.12987186 0.016796228 1.6146054e-38
-0.0016858811 -0.1282966 0.022765871 1.6240402e-38
0.00012617093 -0.1275015 0.025779005 1.6332595e-38
0.001927794 -0.126711 0.028774735 1.5594664e-38
0.0037478004 -0.126711 0.028774735 1.4946409e-38
0.0054881033 -0.12486555 0.035768386 1.5403066e-38
0.0072572045 -0.12409012 0.038707014 9.5900565e-39
0.009059797 -0.12409012 0.038707014 1.1059427e-38
-0.02261284 -0.14422549 -0.030309204 1.2816918e-38
-0.02064861 -0.14340474 -0.027219418 1.4754102e-38
-0.018684674 -0.14233841 -0.023205046 2.2958804e-38
-0.016773529 -0.14233841 -0.023205046 2.1669874e-38
-0.014815311 -0.14075352 -0.017238501 2.1855356e-38
-0.01289044 -0.13970654 -0.013296966 1.8999451e-38
-0.010965983 -0.13784705 -0.0062967576 1.5220147e-38
-0.009058048 -0.13517688 0.0037554465 1.5221577e-38
-0.0071862945 -0.13278987 0.012741681 1.651303e-38
-0.005338178 -0.13278987 0.012741681 1.743427e-38
-0.0035084533 -0.13093217 0.019735333 1.7803769e-38
-0.0016858811 -0.13012715 0.022765871 1.8081075e-38
0.00012617093 -0.12932678 0.025779005 1.762117e-38
0.001927794 -0.12853102 0.028774735 1.7712642e-38
0.0037478004 -0.12853102 0.028774735 1.789523e-38
0.0054881033 -0.1266733 0.035768386 1.7430649e-38
0.0072572045 -0.12589271 0.038707014 9.4975049e-39
0.009059797 -0.12589271 0.038707014 9.4917442e-39
-0.02064861 -0.14532293 -0.027219418 1.5491663e-38
-0.018684674 -0.14424954 -0.023205046 2.166949e-38
-0.016745247 -0.14346536 -0.020272139 2.2866974e-38
-0.014815311 -0.1426542 -0.017238501 2.1856061e-38
-0.012872062 -0.14079951 -0.010302071 1.8261513e-38
-0.010965983 -0.13972856 -0.0062967576 1.485207e-38
-0.009058048 -0.13704078 0.0037554465 1.669741e-38
-0.007188906 -0.13543437 0.0097632371 1.7249861e-38
-0.005338178 -0.134638 0.012741681 1.7524653e-38
-0.0035084533 -0.13276802 0.019735333 1.8354413e-38
-0.0016858811 -0.13195769 0.022765871 1.798707e-38
0.00012617093 -0.13115202 0.025779005 1.6973994e-38
0.001927794 -0.13035102 0.028774735 1.7342054e-38
0.0037478004 -0.13035102 0.028774735 1.7709394e-38
0.0054881033 -0.12848105 0.035768386 1.7521047e-38
0.0072572045 -0.12769531 0.038707014 1.0233991e-38
0.009059797 -0.12769531 0.038707014 9.9527251e-39
0.010911337 -0.12848105 0.035768386 1.0594495e-38
-0.02064861 -0.1472411 -0.027219418 1.3924337e-38
-0.018684674 -0.14616071 -0.023205046 1.8073859e-38
-0.016745247 -0.14537133 -0.020272139 1.8812515e-38
-0.014815311 -0.14455487 -0.017238501 1.9090545e-38
-0.012872062 -0.14268802 -0.010302071 1.6049168e-38
-0.010939644 -0.13999285 -0.00028789416 1.1993994e-38
-0.009058048 -0.13890465 0.0037554465 1.3746776e-38
-0.007188906 -0.13728772 0.0097632371 1.5313739e-38
-0.005338178 -0.13648613 0.012741681 1.6786355e-38
-0.0035084533 -0.13460387 0.019735333 1.7430648e-38
-0.0016858811 -0.13378824 0.022765871 1.7432446e-38
0.00010778662 -0.13217102 0.028774735 1.7156219e-38
0.001927794 -0.13217102 0.028774735 1.6787436e-38
0.0037478004 -0.13217102 0.028774735 1.568001e-38
0.0055229934 -0.13111271 0.032706972 1.5492382e-38
0.0072958479 -0.13028879 0.035768386 9.5879055e-39
0.0091035925 -0.13028879 0.035768386 9.8601736e-39
0.010911337 -0.13028879 0.035768386 1.0594139e-38
-0.02064861 -0.1491593 -0.027219418 1.4016537e-38
-0.018684674 -0.14807184 -0.023205046 1.6690926e-38
-0.016745247 -0.14727734 -0.020272139 1.6507624e-38
-0.014839248 -0.14727734 -0.020272139 1.660126e-38
-0.012872062 -0.14457656 -0.010302071 1.485026e-38
-0.010939644 -0.14186381 -0.00028789416 1.1809953e-38
-0.009058048 -0.14076851 0.0037554465 1.3101758e-38
-0.007188906 -0.13914107 0.0097632371 1.4299936e-38
-0.005338178 -0.13833423 0.012741681 1.5955504e-38
-0.0035084533 -0.13643973 0.019735333 1.6415406e-38
-0.0016858811 -0.13561879 0.022765871 1.6971099e-38
0.00010778662 -0.13399105 0.028774735 1.7709027e-38
0.001927794 -0.13399105 0.028774735 1.6971462e-38
0.0037098806 -0.13292582 0.032706972 1.4481464e-38
0.0054881033 -0.13209651 0.035768386 1.4570425e-38
0.0072958479 -0.13209651 0.035768386 9.8644924e-39
0.0091035925 -0.13209651 0.035768386 9.6757851e-39
0.010911337 -0.13209651 0.035768386 1.059486e-38
-0.020595819 -0.14998297 -0.023205046 8.8532299e-39
-0.018684674 -0.14998297 -0.023205046 1.1343229e-38
-0.016745247 -0.14918335 -0.020272139 1.079114e-38
-0.014839248 -0.14918335 -0.020272139 1.0516351e-38
-0.01289044 -0.1472816 -0.013296966 1.1254631e-38
-0.010939644 -0.14373477 -0.00028789416 1.1625562e-38
-0.009058048 -0.14263238 0.0037554465 1.300956e-38
-0.007188906 -0.14099441 0.0097632371 1.2825159e-38
-0.005338178 -0.14018236 0.012741681 1.4572922e-38
-0.0035084533 -0.13827558 0.019735333 1.5493803e-38
-0.0016858811 -0.13744931 0.022765871 1.6694867e-38
0.00010778662 -0.13581105 0.028774735 1.7985968e-38
0.001927794 -0.13581105 0.028774735 1.7433156e-38
0.0037098806 -0.13473894 0.032706972 1.5219385e-38
0.0054881033 -0.13390426 0.035768386 1.5400186e-38
0.0072958479 -0.13390426 0.035768386 1.0878644e-38
0.009059797 -0.13310309 0.038707014 9.6757851e-39
0.010862389 -0.13310309 0.038707014 1.0778896e-38
-0.01289044 -0.14917539 -0.013296966 1.0608913e-38
-0.010939644 -0.14560573 -0.00028789416 1.2270578e-38
-0.009058048 -0.14449625 0.0037554465 1.3101759e-38
-0.007188906 -0.14284773 0.0097632371 1.2640414e-38
-0.005338178 -0.14203046 0.012741681 1.291484e-38
-0.0035084533 -0.14011143 0.019735333 1.4297778e-38
-0.0016858811 -0.13927986 0.022765871 1.5958381e-38
0.00012617093 -0.13845308 0.025779005 1.6788864e-38
0.001927794 -0.13763104 0.028774735 1.6881061e-38
0.0037098806 -0.13655205 0.032706972 1.595731e-38
0.0054881033 -0.13571201 0.035768386 1.6415057e-38
0.0072958479 -0.13571201 0.035768386 1.1248146e-38
0.009059797 -0.13490568 0.038707014 9.8601764e-39
0.010862389 -0.13490568 0.038707014 1.105512e-38
0.012664982 -0.13490568 0.038707014 1.2158946e-38
-0.010939644 -0.14747669 -0.00028789416 1.0241925e-38
-0.009058048 -0.14636014 0.0037554465 1.07958e-38
-0.007188906 -0.14470108 0.0097632371 1.1625909e-38
-0.005338178 -0.14387859 0.012741681 1.2178357e-38
-0.0035007233 -0.14275892 0.016796228 1.356237e-38
-0.0016858811 -0.14111041 0.022765871 1.4485769e-38
0.00012617093 -0.14027832 0.025779005 1.4762358e-38
0.001927794 -0.13945107 0.028774735 1.5130786e-38
0.0037098806 -0.13836516 0.032706972 1.5405578e-38
0.0054881033 -0.13751976 0.035768386 1.6507973e-38
0.0072572045 -0.13670824 0.038707014 1.1340341e-38
0.009059797 -0.13670824 0.038707014 1.0044568e-38
0.010811987 -0.13587265 0.041732904 1.1147315e-38
0.012609274 -0.13587265 0.041732904 1.2158583e-38
-0.010921921 -0.14822401 0.0037554465 9.6880437e-39
-0.009058048 -0.14822401 0.0037554465 1.0703255e-38
-0.0071915323 -0.14738683 0.0067678653 1.2456037e-38
-0.0053355666 -0.14655443 0.0097632371 1.1443316e-38
-0.0035007233 -0.14459993 0.016796228 1.2273792e-38
-0.0016725967 -0.14378314 0.019735333 1.2551821e-38
0.00012617093 -0.1421036 0.025779005 1.2367431e-38
0.001927794 -0.14127107 0.028774735 1.2735138e-38
0.0036803586 -0.13932751 0.035768386 1.3562385e-38
0.0054546129 -0.13851084 0.038707014 1.5771127e-38
0.0072572045 -0.13851084 0.038707014 1.134142e-38
0.0090147015 -0.13766994 0.041732904 1.0321152e-38
0.01076188 -0.13683395 0.04474115 1.1238788e-38
0.012498836 -0.13600285 0.047731753 1.1973472e-38
0.014285604 -0.13600285 0.047731753 1.2433364e-38
-0.0090501243 -0.14924543 0.0067678653 9.3181822e-39
-0.0071915323 -0.14924543 0.0067678653 1.0241922e-38
-0.0053329403 -0.14924543 0.0067678653 1.0980555e-38
-0.0034900596 -0.14757483 0.012741681 1.1166021e-38
-0.0016725967 -0.14561899 0.019735333 1.1075261e-38
0.0001446614 -0.1447715 0.022765871 1.0706478e-38
0.00195143 -0.14392884 0.025779005 1.0798676e-38
0.0036803586 -0.14113526 0.035768386 1.1718475e-38
0.0054546129 -0.14031343 0.038707014 1.4848456e-38
0.0072572045 -0.14031343 0.038707014 1.1616214e-38
0.0090147015 -0.13946722 0.041732904 1.0688143e-38
0.01076188 -0.13862596 0.04474115 1.1421028e-38
0.012444102 -0.13695817 0.050704833 1.1879837e-38
0.014225657 -0.13695817 0.050704833 1.2248247e-38
-0.0034900596 -0.14942293 0.012741681 1.2174443e-38
-0.0016597146 -0.14828195 0.016796228 1.2453174e-38
0.0001446614 -0.14660202 0.022765871 1.0426663e-38
0.00195143 -0.14575411 0.025779005 1.0150076e-38
0.0036803586 -0.14294298 0.035768386 1.2084029e-38
0.0054201279 -0.14126451 0.041732904 1.3277188e-38
0.0072174147 -0.14126451 0.041732904 1.2811897e-38
0.0090147015 -0.14126451 0.041732904 1.1422848e-38
0.01076188 -0.14041798 0.04474115 1.2063891e-38
0.012444102 -0.13873972 0.050704833 1.2615606e-38
0.014225657 -0.13873972 0.050704833 1.3169484e-38
0.0001446614 -0.14843257 0.022765871 6.3675451e-39
0.00195143 -0.14757936 0.025779005 6.1842272e-39
0.0036803586 -0.14475073 0.035768386 8.3944084e-39
0.0054201279 -0.1430618 0.041732904 1.0326209e-38
0.0072174147 -0.1430618 0.041732904 1.115058e-38
0.0090147015 -0.1430618 0.041732904 1.1697637e-38
0.010811987 -0.1430618 0.041732904 1.2063172e-38
0.012444102 -0.14052127 0.050704833 1.2614887e-38
0.014225657 -0.14052127 0.050704833 1.3077287e-38
0.0037098806 -0.14743073 0.032706972 7.1962183e-39
0.0054546129 -0.14572121 0.038707014 9.2202146e-39
0.0072572045 -0.14572121 0.038707014 1.0782145e-38
0.009059797 -0.14572121 0.038707014 1.160651e-38
0.0073361052 -0.14924385 0.032706972 1.0137849e-38
0.009149218 -0.14924385 0.032706972 1.1791251e-38
