# .PCD v0.7 - Point Cloud Data file format
VERSION 0.7
FIELDS x y z rgb
SIZE 4 4 4 4
TYPE F F F F
COUNT 1 1 1 1
WIDTH 940
HEIGHT 1
VIEWPOINT 0 0 0 1 0 0 0
POINTS 940
DATA ascii
0.0080195572 -0.11775221 0.013026647 2.2774783e-38
0.0097800381 -0.11775221 0.013026647 2.0102899e-38
0.011540517 -0.11775221 0.013026647 1.6880727e-38
0.013293145 -0.11696436 0.016012363 1.4668729e-38
0.01504839 -0.11696436 0.016012363 1.5865431e-38
0.016803635 -0.11696436 0.016012363 1.770574e-38
0.018558878 -0.11696436 0.016012363 1.7054647e-38
0.020284552 -0.11615516 0.019078963 1.0320426e-38
0.022034422 -0.11615516 0.019078963 1.1792687e-38
0.023784289 -0.11615516 0.019078963 1.2252221e-38
0.025534157 -0.11615516 0.019078963 1.20671e-38
0.071396835 -0.11775221 0.013026647 2.3508802e-38
0.072971471 -0.11696436 0.016012363 2.3509168e-38
0.074726716 -0.11696436 0.016012363 2.2864513e-38
0.076481961 -0.11696436 0.016012363 2.3234376e-38
0.078237206 -0.11696436 0.016012363 2.1944365e-38
0.079992451 -0.11696436 0.016012363 2.3142544e-38
0.081529938 -0.11615516 0.019078963 2.341805e-38
0.083279803 -0.11615516 0.019078963 2.31411e-38
0.084809862 -0.11537679 0.022028737 2.3509876e-38
0.086554557 -0.11537679 0.022028737 2.3509879e-38
0.08829926 -0.11537679 0.022028737 2.3508809e-38
0.090043955 -0.11537679 0.022028737 2.3509168e-38
0.09178865 -0.11537679 0.022028737 2.2496436e-38
0.093533345 -0.11537679 0.022028737 1.9639439e-38
0.09527804 -0.11537679 0.022028737 1.9178108e-38
0.097544909 -0.11696436 0.016012363 1.8624938e-38
0.099300146 -0.11696436 0.016012363 1.3461627e-38
0.1010554 -0.11696436 0.016012363 6.4547591e-39
0.10281064 -0.11696436 0.016012363 6.2703706e-39
-0.061229989 -0.12853102 -0.020924039 1.0962547e-38
-0.059144542 -0.12748651 -0.016991802 9.212628e-39
-0.057331428 -0.12748651 -0.016991802 9.3984612e-39
-0.055518314 -0.12748651 -0.016991802 1.2720381e-38
-0.053705201 -0.12748651 -0.016991802 1.6597273e-38
-0.051892087 -0.12748651 -0.016991802 1.7891609e-38
-0.050078981 -0.12748651 -0.016991802 1.9093032e-38
-0.047923967 -0.12589271 -0.01099176 2.1030228e-38
-0.046121374 -0.12589271 -0.01099176 2.1305748e-38
-0.044156969 -0.12508895 -0.0079658702 1.8079621e-38
-0.04235968 -0.12508895 -0.0079658702 1.6974346e-38
-0.040562391 -0.12508895 -0.0079658702 1.8265435e-38
-0.038765103 -0.12508895 -0.0079658702 1.8635288e-38
-0.036967814 -0.12508895 -0.0079658702 1.87282e-38
-0.035170533 -0.12508895 -0.0079658702 1.8267224e-38
-0.033373244 -0.12508895 -0.0079658702 1.6516233e-38
-0.031575963 -0.12508895 -0.0079658702 1.6054906e-38
-0.02966 -0.12428986 -0.0049576238 1.3380879e-38
-0.027867986 -0.12428986 -0.0049576238 1.4762381e-38
-0.025968483 -0.12349547 -0.0019670203 1.5407387e-38
-0.024181714 -0.12349547 -0.0019670203 1.5038238e-38
-0.022298509 -0.12270571 0.0010060593 1.7804457e-38
-0.020516952 -0.12270571 0.0010060593 1.9832392e-38
-0.018735396 -0.12270571 0.0010060593 1.9003708e-38
-0.016953839 -0.12270571 0.0010060593 1.8452342e-38
-0.01509455 -0.12189357 0.0040635392 1.9559054e-38
-0.013318358 -0.12189357 0.0040635392 1.8821488e-38
-0.011542162 -0.12189357 0.0040635392 1.7806623e-38
-0.0097659696 -0.12189357 0.0040635392 1.7989584e-38
-0.0079897735 -0.12189357 0.0040635392 1.6882517e-38
-0.0062135775 -0.12189357 0.0040635392 1.5130789e-38
-0.0044373814 -0.12189357 0.0040635392 1.5037498e-38
-0.0026212204 -0.12108628 0.0071026608 1.4207717e-38
-0.00085035525 -0.12108628 0.0071026608 1.6050911e-38
0.00092051178 -0.12108628 0.0071026608 1.5680715e-38
0.0027144197 -0.1203105 0.010023169 1.6323951e-38
0.0044801664 -0.1203105 0.010023169 1.7520719e-38
0.0062590782 -0.11951269 0.013026647 1.7519643e-38
0.0080195572 -0.11951269 0.013026647 1.7520701e-38
0.0097800381 -0.11951269 0.013026647 1.7061514e-38
0.011540517 -0.11951269 0.013026647 1.5404875e-38
0.013300998 -0.11951269 0.013026647 1.4576534e-38
0.01504839 -0.11871959 0.016012363 1.6142018e-38
0.016803635 -0.11871959 0.016012363 1.770574e-38
0.018534685 -0.11790501 0.019078963 1.7239039e-38
0.020284552 -0.11790501 0.019078963 1.0504457e-38
0.022000803 -0.11712147 0.022028737 1.1699413e-38
0.023705658 -0.11631663 0.02505862 1.2160025e-38
0.02544504 -0.11631663 0.02505862 1.2344042e-38
0.071396835 -0.11951269 0.013026647 2.3413368e-38
0.072971471 -0.11871959 0.016012363 2.3508092e-38
0.074726716 -0.11871959 0.016012363 2.3325494e-38
0.076481961 -0.11871959 0.016012363 2.3234376e-38
0.078030199 -0.11790501 0.019078963 2.259009e-38
0.079780065 -0.11790501 0.019078963 2.3234379e-38
0.081320472 -0.11712147 0.022028737 2.341805e-38
0.083065167 -0.11712147 0.022028737 2.2864869e-38
0.084584087 -0.11631663 0.02505862 2.3509516e-38
0.08632347 -0.11631663 0.02505862 2.3509521e-38
0.088062853 -0.11631663 0.02505862 2.3323345e-38
0.089802243 -0.11631663 0.02505862 2.3509168e-38
0.09178865 -0.11712147 0.022028737 2.350986e-38
0.093533345 -0.11712147 0.022028737 2.0930167e-38
0.09527804 -0.11712147 0.022028737 2.000822e-38
0.097544909 -0.11871959 0.016012363 1.8348703e-38
0.099564508 -0.11951269 0.013026647 1.4568326e-38
0.10132499 -0.11951269 0.013026647 9.4053738e-39
0.10308547 -0.11951269 0.013026647 7.6536582e-39
-0.061229989 -0.13035102 -0.020924039 1.0040591e-38
-0.059144542 -0.1292996 -0.016991802 1.0226424e-38
-0.057331428 -0.1292996 -0.016991802 9.2155118e-39
-0.055518314 -0.1292996 -0.016991802 1.2721467e-38
-0.053705201 -0.1292996 -0.016991802 1.3740653e-38
-0.051892087 -0.1292996 -0.016991802 1.6878903e-38
-0.050078981 -0.1292996 -0.016991802 1.7435677e-38
-0.047923967 -0.12769531 -0.01099176 2.0387022e-38
-0.045954257 -0.12688623 -0.0079658702 2.0569272e-38
-0.044156969 -0.12688623 -0.0079658702 1.8171465e-38
-0.04235968 -0.12688623 -0.0079658702 1.7249861e-38
-0.040562391 -0.12688623 -0.0079658702 1.743568e-38
-0.038765103 -0.12688623 -0.0079658702 1.7344196e-38
-0.036967814 -0.12688623 -0.0079658702 1.7898442e-38
-0.035170533 -0.12688623 -0.0079658702 1.8082836e-38
-0.033373244 -0.12688623 -0.0079658702 1.6791743e-38
-0.031575963 -0.12688623 -0.0079658702 1.5685045e-38
-0.02966 -0.12608187 -0.0049576238 1.4117365e-38
-0.027867986 -0.12608187 -0.0049576238 1.4485428e-38
-0.025968483 -0.12528224 -0.0019670203 1.4946762e-38
-0.024181714 -0.12528224 -0.0019670203 1.4762004e-38
-0.022298509 -0.1244873 0.0010060593 1.7066167e-38
-0.020516952 -0.1244873 0.0010060593 1.9556157e-38
-0.018735396 -0.1244873 0.0010060593 1.9188454e-38
-0.016953839 -0.1244873 0.0010060593 1.9096632e-38
-0.01509455 -0.12366976 0.0040635392 1.8544183e-38
-0.013318358 -0.12366976 0.0040635392 1.7714422e-38
-0.011542162 -0.12366976 0.0040635392 1.9557261e-38
-0.0097659696 -0.12366976 0.0040635392 1.7712641e-38
-0.0079897735 -0.12366976 0.0040635392 1.5591779e-38
-0.0062135775 -0.12366976 0.0040635392 1.6882506e-38
-0.0043920893 -0.12285714 0.0071026608 1.4207737e-38
-0.0026212204 -0.12285714 0.0071026608 1.4023326e-38
-0.00081706978 -0.12207626 0.010023169 1.586652e-38
0.00094867498 -0.12207626 0.010023169 1.6050213e-38
0.0027144197 -0.12207626 0.010023169 1.6232829e-38
0.0044801664 -0.12207626 0.010023169 1.669203e-38
0.0062590782 -0.12127317 0.013026647 1.7060094e-38
0.0080195572 -0.12127317 0.013026647 1.7429577e-38
0.0097800381 -0.12127317 0.013026647 1.5771128e-38
0.011540517 -0.12127317 0.013026647 1.5497428e-38
0.013300998 -0.12127317 0.013026647 1.485276e-38
0.01504839 -0.12047486 0.016012363 1.6694473e-38
0.016803635 -0.12047486 0.016012363 1.853514e-38
0.018534685 -0.11965488 0.019078963 1.7514902e-38
0.020284552 -0.11965488 0.019078963 1.1702999e-38
0.022000803 -0.11886616 0.022028737 1.1330628e-38
0.023705658 -0.11805601 0.02505862 1.2343338e-38
0.02544504 -0.11805601 0.02505862 1.2158929e-38
0.071216226 -0.12047486 0.016012363 2.3507719e-38
0.072780594 -0.11965488 0.019078963 2.3508451e-38
0.07453046 -0.11965488 0.019078963 2.3509886e-38
0.076280333 -0.11965488 0.019078963 2.2589724e-38
0.078030199 -0.11965488 0.019078963 2.2866677e-38
0.079575777 -0.11886616 0.022028737 2.3142544e-38
0.081320472 -0.11886616 0.022028737 2.3418047e-38
0.082844704 -0.11805601 0.02505862 2.350988e-38
0.084584087 -0.11805601 0.02505862 2.3509156e-38
0.08632347 -0.11805601 0.02505862 2.3508804e-38
0.088062853 -0.11805601 0.02505862 2.3508809e-38
0.089802243 -0.11805601 0.02505862 2.3509527e-38
0.09178865 -0.11886616 0.022028737 2.2773726e-38
0.093533345 -0.11886616 0.022028737 2.1853191e-38
0.095528886 -0.11965488 0.019078963 2.0930883e-38
0.097544909 -0.12047486 0.016012363 1.7795878e-38
0.099564508 -0.12127317 0.013026647 1.6505142e-38
0.10159619 -0.12207626 0.010023169 9.5901153e-39
0.10336195 -0.12207626 0.010023169 9.0362283e-39
-0.059144542 -0.13111271 -0.016991802 1.0319338e-38
-0.057331428 -0.13111271 -0.016991802 8.7545337e-39
-0.055518314 -0.13111271 -0.016991802 1.2722547e-38
-0.053705201 -0.13111271 -0.016991802 1.5123952e-38
-0.05170691 -0.13028879 -0.013930388 1.8447311e-38
-0.049899161 -0.13028879 -0.013930388 1.7897737e-38
-0.047923967 -0.1294979 -0.01099176 1.9557986e-38
-0.045954257 -0.12868352 -0.0079658702 2.0292691e-38
-0.044156969 -0.12868352 -0.0079658702 1.8078917e-38
-0.04235968 -0.12868352 -0.0079658702 1.7157311e-38
-0.040562391 -0.12868352 -0.0079658702 1.7342051e-38
-0.038765103 -0.12868352 -0.0079658702 1.6974696e-38
-0.036967814 -0.12868352 -0.0079658702 1.789737e-38
-0.035170533 -0.12868352 -0.0079658702 1.8727131e-38
-0.033373244 -0.12868352 -0.0079658702 1.7990289e-38
-0.031575963 -0.12868352 -0.0079658702 1.6053827e-38
-0.02966 -0.12787388 -0.0049576238 1.4670538e-38
-0.027867986 -0.12787388 -0.0049576238 1.549958e-38
-0.025968483 -0.12706901 -0.0019670203 1.7158739e-38
-0.024181714 -0.12706901 -0.0019670203 1.7342403e-38
-0.022298509 -0.12626885 0.0010060593 1.7527501e-38
-0.020516952 -0.12626885 0.0010060593 1.8449807e-38
-0.018735396 -0.12626885 0.0010060593 1.8450886e-38
-0.016953839 -0.12626885 0.0010060593 1.9372856e-38
-0.01509455 -0.12544595 0.0040635392 1.9557614e-38
-0.013318358 -0.12544595 0.0040635392 1.8359071e-38
-0.011542162 -0.12544595 0.0040635392 1.9279955e-38
-0.0097659696 -0.12544595 0.0040635392 1.7435694e-38
-0.0079897735 -0.12544595 0.0040635392 1.5314476e-38
-0.0062135775 -0.12544595 0.0040635392 1.660484e-38
-0.0043920893 -0.12462802 0.0071026608 1.4853825e-38
-0.0026212204 -0.12462802 0.0071026608 1.4116601e-38
-0.00081706978 -0.12384202 0.010023169 1.6236021e-38
0.00094867498 -0.12384202 0.010023169 1.6603747e-38
0.0027144197 -0.12384202 0.010023169 1.7432091e-38
0.0044985991 -0.12303366 0.013026647 1.7891651e-38
0.0062590782 -0.12303366 0.013026647 1.7061891e-38
0.0080195572 -0.12303366 0.013026647 1.5586737e-38
0.0097800381 -0.12303366 0.013026647 1.2729747e-38
0.011540517 -0.12303366 0.013026647 1.5774012e-38
0.013300998 -0.12303366 0.013026647 1.549813e-38
0.01504839 -0.1222301 0.016012363 1.6971417e-38
0.016803635 -0.1222301 0.016012363 1.8074162e-38
0.018534685 -0.12140475 0.019078963 1.6961729e-38
0.020256106 -0.12061088 0.022028737 1.1978507e-38
0.021966271 -0.1197954 0.02505862 1.1975278e-38
0.023705658 -0.1197954 0.02505862 1.2527726e-38
0.02544504 -0.1197954 0.02505862 1.3173439e-38
0.069460981 -0.1222301 0.016012363 2.1845619e-38
0.071216226 -0.1222301 0.016012363 2.3508432e-38
0.072780594 -0.12140475 0.019078963 2.3507732e-38
0.07453046 -0.12140475 0.019078963 2.3509527e-38
0.076280333 -0.12140475 0.019078963 2.3049624e-38
0.077831082 -0.12061088 0.022028737 2.3234379e-38
0.079575777 -0.12061088 0.022028737 2.3234379e-38
0.081105322 -0.1197954 0.02505862 2.3141819e-38
0.082844704 -0.1197954 0.02505862 2.3325847e-38
0.084584087 -0.1197954 0.02505862 2.3509518e-38
0.086093783 -0.11898489 0.028070144 2.3509527e-38
0.087827884 -0.11898489 0.028070144 2.3509168e-38
0.089802243 -0.1197954 0.02505862 2.3509886e-38
0.09178865 -0.12061088 0.022028737 2.2774798e-38
0.093533345 -0.12061088 0.022028737 2.1945741e-38
0.095528886 -0.12140475 0.019078963 2.1392213e-38
0.097544909 -0.1222301 0.016012363 1.7519643e-38
0.099564508 -0.12303366 0.013026647 1.5583539e-38
0.10132499 -0.12303366 0.013026647 9.2216874e-39
0.10308547 -0.12303366 0.013026647 9.4050052e-39
0.10484596 -0.12303366 0.013026647 9.4968505e-39
-0.059144542 -0.13292582 -0.016991802 1.0503011e-38
-0.057331428 -0.13292582 -0.016991802 8.38647e-39
-0.055322394 -0.13209651 -0.013930388 1.2354125e-38
-0.053514645 -0.13209651 -0.013930388 1.5032117e-38
-0.05170691 -0.13209651 -0.013930388 1.8355838e-38
-0.049899161 -0.13209651 -0.013930388 1.7714428e-38
-0.047923967 -0.13130049 -0.01099176 1.9097371e-38
-0.045954257 -0.13048081 -0.0079658702 2.0753313e-38
-0.044156969 -0.13048081 -0.0079658702 1.872357e-38
-0.04235968 -0.13048081 -0.0079658702 1.7710487e-38
-0.040562391 -0.13048081 -0.0079658702 1.7434249e-38
-0.038765103 -0.13048081 -0.0079658702 1.6605916e-38
-0.036967814 -0.13048081 -0.0079658702 1.7436393e-38
-0.035170533 -0.13048081 -0.0079658702 1.8819328e-38
-0.033373244 -0.13048081 -0.0079658702 1.8634583e-38
-0.031575963 -0.13048081 -0.0079658702 1.5592132e-38
-0.02966 -0.1296659 -0.0049576238 1.4485431e-38
-0.027867986 -0.1296659 -0.0049576238 1.5222277e-38
-0.025968483 -0.12885578 -0.0019670203 1.7250934e-38
-0.024181714 -0.12885578 -0.0019670203 1.7526794e-38
-0.022298509 -0.1280504 0.0010060593 1.586798e-38
-0.020516952 -0.1280504 0.0010060593 1.5406632e-38
-0.018735396 -0.1280504 0.0010060593 1.6144916e-38
-0.016953839 -0.1280504 0.0010060593 1.7251635e-38
-0.01509455 -0.12722217 0.0040635392 1.8727132e-38
-0.013318358 -0.12722217 0.0040635392 1.7897371e-38
-0.011542162 -0.12722217 0.0040635392 1.8449832e-38
-0.0097659696 -0.12722217 0.0040635392 1.7434975e-38
-0.0079897735 -0.12722217 0.0040635392 1.5221201e-38
-0.0061629545 -0.12639888 0.0071026608 1.5590691e-38
-0.0043920893 -0.12639888 0.0071026608 1.5130415e-38
-0.0026212204 -0.12639888 0.0071026608 1.5499179e-38
-0.00081706978 -0.12560774 0.010023169 1.6697723e-38
0.00094867498 -0.12560774 0.010023169 1.6143848e-38
0.0027144197 -0.12560774 0.010023169 1.6879634e-38
0.0044985991 -0.12479414 0.013026647 1.7985282e-38
0.0062590782 -0.12479414 0.013026647 1.7800891e-38
0.0080195572 -0.12479414 0.013026647 1.6879272e-38
0.0097800381 -0.12479414 0.013026647 1.4943877e-38
0.011540517 -0.12479414 0.013026647 1.5220835e-38
0.013300998 -0.12479414 0.013026647 1.5681439e-38
0.01504839 -0.12398534 0.016012363 1.7246925e-38
0.016803635 -0.12398534 0.016012363 1.807308e-38
0.018534685 -0.12315463 0.019078963 1.6961366e-38
0.020256106 -0.12235557 0.022028737 1.2255449e-38
0.021966271 -0.12153481 0.02505862 1.2160025e-38
0.023705658 -0.12153481 0.02505862 1.2527364e-38
0.02544504 -0.12153481 0.02505862 1.2711739e-38
0.069280863 -0.12315463 0.019078963 2.138463e-38
0.071030729 -0.12315463 0.019078963 2.3509495e-38
0.07259699 -0.12235557 0.022028737 2.3508078e-38
0.074341685 -0.12235557 0.022028737 2.3509161e-38
0.076280333 -0.12315463 0.019078963 2.3417687e-38
0.077831082 -0.12235557 0.022028737 2.3234376e-38
0.079365939 -0.12153481 0.02505862 2.3142539e-38
0.081105322 -0.12153481 0.02505862 2.3326208e-38
0.082844704 -0.12153481 0.02505862 2.350988e-38
0.084584087 -0.12153481 0.02505862 2.3509524e-38
0.086093783 -0.120719 0.028070144 2.3509527e-38
0.087827884 -0.120719 0.028070144 2.3509168e-38
0.089802243 -0.12153481 0.02505862 2.3141456e-38
0.09178865 -0.12235557 0.022028737 2.1852842e-38
0.093533345 -0.12235557 0.022028737 2.0471332e-38
0.095528886 -0.12315463 0.019078963 2.139221e-38
0.097544909 -0.12398534 0.016012363 1.6874629e-38
0.099300146 -0.12398534 0.016012363 1.447647e-38
0.10132499 -0.12479414 0.013026647 9.1287701e-39
0.10308547 -0.12479414 0.013026647 9.8659834e-39
-0.059144542 -0.13473894 -0.016991802 1.0318976e-38
-0.057331428 -0.13473894 -0.016991802 8.5701396e-39
-0.055322394 -0.13390426 -0.013930388 1.1892785e-38
-0.053514645 -0.13390426 -0.013930388 1.3280756e-38
-0.05170691 -0.13390426 -0.013930388 1.6419007e-38
-0.049899161 -0.13390426 -0.013930388 1.6515159e-38
-0.047923967 -0.13310309 -0.01099176 1.8820421e-38
-0.045954257 -0.1322781 -0.0079658702 1.9185264e-38
-0.044156969 -0.1322781 -0.0079658702 1.7432831e-38
-0.04235968 -0.1322781 -0.0079658702 1.6880005e-38
-0.040412068 -0.13145791 -0.0049576238 1.6512293e-38
-0.038620055 -0.13145791 -0.0049576238 1.5406294e-38
-0.036828041 -0.13145791 -0.0049576238 1.5776153e-38
-0.035036035 -0.13145791 -0.0049576238 1.7251286e-38
-0.033244021 -0.13145791 -0.0049576238 1.7251649e-38
-0.031452008 -0.13145791 -0.0049576238 1.6513732e-38
-0.02966 -0.13145791 -0.0049576238 1.5960564e-38
-0.027867986 -0.13145791 -0.0049576238 1.5959845e-38
-0.026075976 -0.13145791 -0.0049576238 1.6973994e-38
-0.024181714 -0.13064255 -0.0019670203 1.7342405e-38
-0.022298509 -0.12983195 0.0010060593 1.559104e-38
-0.020516952 -0.12983195 0.0010060593 1.4576876e-38
-0.018735396 -0.12983195 0.0010060593 1.5406635e-38
-0.016953839 -0.12983195 0.0010060593 1.6605545e-38
-0.01509455 -0.12899835 0.0040635392 1.9371061e-38
-0.013318358 -0.12899835 0.0040635392 1.9278865e-38
-0.011542162 -0.12899835 0.0040635392 1.9831687e-38
-0.0097659696 -0.12899835 0.0040635392 1.9830982e-38
-0.0079897735 -0.12899835 0.0040635392 1.7065114e-38
-0.0061629545 -0.12816976 0.0071026608 1.5682887e-38
-0.0043920893 -0.12816976 0.0071026608 1.5406646e-38
-0.0026212204 -0.12816976 0.0071026608 1.4761614e-38
-0.00081706978 -0.1273735 0.010023169 1.6697723e-38
0.00094867498 -0.1273735 0.010023169 1.6512633e-38
0.0027144197 -0.1273735 0.010023169 1.6881075e-38
0.0044985991 -0.12655462 0.013026647 1.7433547e-38
0.0062590782 -0.12655462 0.013026647 1.6142806e-38
0.0080195572 -0.12655462 0.013026647 1.49446e-38
0.0097800381 -0.12655462 0.013026647 1.374641e-38
0.0115379 -0.12574057 0.016012363 1.4576185e-38
0.013293145 -0.12574057 0.016012363 1.4852036e-38
0.01504839 -0.12574057 0.016012363 1.687814e-38
0.016803635 -0.12574057 0.016012363 1.8534416e-38
0.018534685 -0.1249045 0.019078963 1.7606735e-38
0.020256106 -0.12410025 0.022028737 1.2346926e-38
0.021966271 -0.12327419 0.02505862 1.179124e-38
0.023639366 -0.12189974 0.030099802 1.234297e-38
0.025369909 -0.12189974 0.030099802 1.2527348e-38
0.069280863 -0.1249045 0.019078963 2.1015119e-38
0.071030729 -0.1249045 0.019078963 2.3509838e-38
0.07259699 -0.12410025 0.022028737 2.3508781e-38
0.074341685 -0.12410025 0.022028737 2.3508797e-38
0.076086387 -0.12410025 0.022028737 2.3325492e-38
0.077626556 -0.12327419 0.02505862 2.3418047e-38
0.079365939 -0.12327419 0.02505862 2.3049624e-38
0.081105322 -0.12327419 0.02505862 2.350988e-38
0.082844704 -0.12327419 0.02505862 2.3509883e-38
0.084359676 -0.12245311 0.028070144 2.3509527e-38
0.086093783 -0.12245311 0.028070144 2.3509527e-38
0.087827884 -0.12245311 0.028070144 2.3509886e-38
0.089802243 -0.12327419 0.02505862 2.2773386e-38
0.09178865 -0.12410025 0.022028737 2.0747217e-38
0.093533345 -0.12410025 0.022028737 1.8811814e-38
0.095528886 -0.1249045 0.019078963 2.0285865e-38
0.097544909 -0.12574057 0.016012363 1.5583891e-38
0.099300146 -0.12574057 0.016012363 1.3370122e-38
0.1010554 -0.12574057 0.016012363 9.4053597e-39
0.10281064 -0.12574057 0.016012363 1.0142573e-38
-0.059409976 -0.13763104 -0.020924039 1.0409729e-38
-0.057589978 -0.13763104 -0.020924039 9.0296758e-39
-0.055518314 -0.13655205 -0.016991802 1.2076087e-38
-0.053705201 -0.13655205 -0.016991802 1.2725776e-38
-0.05170691 -0.13571201 -0.013930388 1.5035345e-38
-0.049899161 -0.13571201 -0.013930388 1.5130059e-38
-0.047923967 -0.13490568 -0.01099176 1.7620071e-38
-0.045954257 -0.13407536 -0.0079658702 1.8631725e-38
-0.044156969 -0.13407536 -0.0079658702 1.7248793e-38
-0.04235968 -0.13407536 -0.0079658702 1.7249145e-38
-0.040412068 -0.13324992 -0.0049576238 1.7250213e-38
-0.038620055 -0.13324992 -0.0049576238 1.6236411e-38
-0.036828041 -0.13324992 -0.0049576238 1.642188e-38
-0.035036035 -0.13324992 -0.0049576238 1.7712261e-38
-0.033244021 -0.13324992 -0.0049576238 1.752752e-38
-0.031452008 -0.13324992 -0.0049576238 1.6789603e-38
-0.02966 -0.13324992 -0.0049576238 1.715839e-38
-0.027867986 -0.13324992 -0.0049576238 1.6972922e-38
-0.025968483 -0.13242932 -0.0019670203 1.6696332e-38
-0.024181714 -0.13242932 -0.0019670203 1.6880359e-38
-0.022298509 -0.13161351 0.0010060593 1.641973e-38
-0.020516952 -0.13161351 0.0010060593 1.5866188e-38
-0.018735396 -0.13161351 0.0010060593 1.5773987e-38
-0.016953839 -0.13161351 0.0010060593 1.6973609e-38
-0.01509455 -0.13077454 0.0040635392 1.9923869e-38
-0.013318358 -0.13077454 0.0040635392 2.0107907e-38
-0.011542162 -0.13077454 0.0040635392 2.0476338e-38
-0.0097659696 -0.13077454 0.0040635392 2.1029166e-38
-0.0079897735 -0.13077454 0.0040635392 1.8078905e-38
-0.0062135775 -0.13077454 0.0040635392 1.4944964e-38
-0.0043920893 -0.12994061 0.0071026608 1.4392497e-38
-0.0025828164 -0.12913923 0.010023169 1.4116965e-38
-0.00081706978 -0.12913923 0.010023169 1.6698443e-38
0.00094867498 -0.12913923 0.010023169 1.6420801e-38
0.0027144197 -0.12913923 0.010023169 1.6144233e-38
0.0044985991 -0.12831511 0.013026647 1.6420118e-38
0.0062590782 -0.12831511 0.013026647 1.4945344e-38
0.0080195572 -0.12831511 0.013026647 1.4946042e-38
0.0097800381 -0.12831511 0.013026647 1.5776156e-38
0.0115379 -0.12749584 0.016012363 1.5682529e-38
0.013293145 -0.12749584 0.016012363 1.4666926e-38
0.01504839 -0.12749584 0.016012363 1.6324603e-38
0.016803635 -0.12749584 0.016012363 1.8994672e-38
0.018534685 -0.12665437 0.019078963 1.806771e-38
0.020256106 -0.12584494 0.022028737 1.1978141e-38
0.021966271 -0.12501357 0.02505862 1.1330619e-38
0.023639366 -0.12363027 0.030099802 1.2619913e-38
0.025369909 -0.12363027 0.030099802 1.3173073e-38
0.069460981 -0.12749584 0.016012363 1.9907684e-38
0.070852295 -0.12584494 0.022028737 2.3506218e-38
0.07259699 -0.12584494 0.022028737 2.3508765e-38
0.074341685 -0.12584494 0.022028737 2.3509151e-38
0.076086387 -0.12584494 0.022028737 2.3325131e-38
0.077626556 -0.12501357 0.02505862 2.3233652e-38
0.079365939 -0.12501357 0.02505862 2.3326208e-38
0.081105322 -0.12501357 0.02505862 2.3417687e-38
0.082844704 -0.12501357 0.02505862 2.341769e-38
0.084359676 -0.12418722 0.028070144 2.332478e-38
0.086093783 -0.12418722 0.028070144 2.3324778e-38
0.088062853 -0.12501357 0.02505862 2.3509876e-38
0.089802243 -0.12501357 0.02505862 2.3326194e-38
0.09178865 -0.12584494 0.022028737 2.0839776e-38
0.093533345 -0.12584494 0.022028737 1.8350844e-38
0.095528886 -0.12665437 0.019078963 1.9179166e-38
0.097544909 -0.12749584 0.016012363 1.4476473e-38
0.099300146 -0.12749584 0.016012363 1.2263424e-38
0.1010554 -0.12749584 0.016012363 9.4050052e-39
-0.057589978 -0.13945107 -0.020924039 9.5814063e-39
-0.055518314 -0.13836516 -0.016991802 1.2720014e-38
-0.053705201 -0.13836516 -0.016991802 1.355409e-38
-0.05170691 -0.13751976 -0.013930388 1.5493797e-38
-0.049899161 -0.13751976 -0.013930388 1.4482882e-38
-0.047923967 -0.13670824 -0.01099176 1.6051299e-38
-0.045954257 -0.13587265 -0.0079658702 2.0013932e-38
-0.044156969 -0.13587265 -0.0079658702 1.8631002e-38
-0.04235968 -0.13587265 -0.0079658702 1.8632429e-38
-0.040562391 -0.13587265 -0.0079658702 1.8909368e-38
-0.038620055 -0.13504194 -0.0049576238 1.8080322e-38
-0.036828041 -0.13504194 -0.0049576238 1.8356906e-38
-0.035036035 -0.13504194 -0.0049576238 1.9003e-38
-0.033244021 -0.13504194 -0.0049576238 1.8541672e-38
-0.031452008 -0.13504194 -0.0049576238 1.5683258e-38
-0.02966 -0.13504194 -0.0049576238 1.6604863e-38
-0.027867986 -0.13504194 -0.0049576238 1.6972569e-38
-0.025968483 -0.13421609 -0.0019670203 1.6142808e-38
-0.024181714 -0.13421609 -0.0019670203 1.6142443e-38
-0.022298509 -0.13339506 0.0010060593 1.6972555e-38
-0.020516952 -0.13339506 0.0010060593 1.6787436e-38
-0.018735396 -0.13339506 0.0010060593 1.5404852e-38
-0.016953839 -0.13339506 0.0010060593 1.6511552e-38
-0.015172282 -0.13339506 0.0010060593 1.8908994e-38
-0.013318358 -0.13255073 0.0040635392 1.9461815e-38
-0.011542162 -0.13255073 0.0040635392 1.9830245e-38
-0.0097659696 -0.13255073 0.0040635392 2.0659301e-38
-0.0079897735 -0.13255073 0.0040635392 1.8262939e-38
-0.0062135775 -0.13255073 0.0040635392 1.4759857e-38
-0.0043920893 -0.1317115 0.0071026608 1.3747129e-38
-0.0025828164 -0.13090499 0.010023169 1.4301001e-38
-0.00081706978 -0.13090499 0.010023169 1.6791362e-38
0.00094867498 -0.13090499 0.010023169 1.605274e-38
0.0027381182 -0.13007559 0.013026647 1.5591781e-38
0.0044985991 -0.13007559 0.013026647 1.6144252e-38
0.0062590782 -0.13007559 0.013026647 1.5223013e-38
0.0080195572 -0.13007559 0.013026647 1.6698839e-38
0.0097800381 -0.13007559 0.013026647 1.9649091e-38
0.0115379 -0.12925108 0.016012363 1.7710833e-38
0.013293145 -0.12925108 0.016012363 1.5312292e-38
0.01504839 -0.12925108 0.016012363 1.6048016e-38
0.016803635 -0.12925108 0.016012363 1.8718085e-38
0.018558878 -0.12925108 0.016012363 1.7975513e-38
0.020284552 -0.12840421 0.019078963 1.170191e-38
0.021966271 -0.12675296 0.02505862 1.1513929e-38
0.023666054 -0.12592132 0.028070144 1.3173087e-38
0.025400158 -0.12592132 0.028070144 1.2343309e-38
0.069460981 -0.12925108 0.016012363 1.8708775e-38
0.070852295 -0.12758966 0.022028737 2.2766836e-38
0.07259699 -0.12758966 0.022028737 2.3508027e-38
0.074341685 -0.12758966 0.022028737 2.3509866e-38
0.076086387 -0.12758966 0.022028737 2.3509883e-38
0.077626556 -0.12675296 0.02505862 2.350988e-38
0.079365939 -0.12675296 0.02505862 2.3418045e-38
0.081105322 -0.12675296 0.02505862 2.3509883e-38
0.082844704 -0.12675296 0.02505862 2.3509886e-38
0.084584087 -0.12675296 0.02505862 2.3416615e-38
0.08632347 -0.12675296 0.02505862 2.3325497e-38
0.088062853 -0.12675296 0.02505862 2.3418033e-38
0.089802243 -0.12675296 0.02505862 2.3234353e-38
0.09178865 -0.12758966 0.022028737 2.1025249e-38
0.093533345 -0.12758966 0.022028737 1.8534885e-38
0.095528886 -0.12840421 0.019078963 1.9455402e-38
0.097544909 -0.12925108 0.016012363 1.4199535e-38
0.099300146 -0.12925108 0.016012363 1.1433312e-38
0.1010554 -0.12925108 0.016012363 9.0358724e-39
-0.055518314 -0.14017828 -0.016991802 1.3179547e-38
-0.053514645 -0.13932751 -0.013930388 1.3736677e-38
-0.05170691 -0.13932751 -0.013930388 1.5676382e-38
-0.049899161 -0.13932751 -0.013930388 1.4573271e-38
-0.047923967 -0.13851084 -0.01099176 1.6234239e-38
-0.045954257 -0.13766994 -0.0079658702 1.8630989e-38
-0.044156969 -0.13766994 -0.0079658702 1.6879636e-38
-0.04235968 -0.13766994 -0.0079658702 1.6788513e-38
-0.040412068 -0.13683395 -0.0049576238 1.7434234e-38
-0.038620055 -0.13683395 -0.0049576238 1.7250915e-38
-0.036828041 -0.13683395 -0.0049576238 1.8080319e-38
-0.035036035 -0.13683395 -0.0049576238 1.8818609e-38
-0.033244021 -0.13683395 -0.0049576238 1.8172889e-38
-0.03132879 -0.13600285 -0.0019670203 1.6328629e-38
-0.02954202 -0.13600285 -0.0019670203 1.6697061e-38
-0.027867986 -0.13683395 -0.0049576238 1.7525391e-38
-0.026075976 -0.13683395 -0.0049576238 1.6787826e-38
-0.024181714 -0.13600285 -0.0019670203 1.6142092e-38
-0.022298509 -0.13517661 0.0010060593 1.7433184e-38
-0.020516952 -0.13517661 0.0010060593 1.7985631e-38
-0.018735396 -0.13517661 0.0010060593 1.5865836e-38
-0.016953839 -0.13517661 0.0010060593 1.6234605e-38
-0.015172282 -0.13517661 0.0010060593 1.8262903e-38
-0.013390729 -0.13517661 0.0010060593 1.9645843e-38
-0.011542162 -0.13432692 0.0040635392 2.0106829e-38
-0.0097659696 -0.13432692 0.0040635392 2.0751497e-38
-0.0079897735 -0.13432692 0.0040635392 1.9000504e-38
-0.0062135775 -0.13432692 0.0040635392 1.5681813e-38
-0.0043920893 -0.13348235 0.0071026608 1.4392498e-38
-0.0025828164 -0.13267075 0.010023169 1.3379047e-38
-0.00081706978 -0.13267075 0.010023169 1.6514777e-38
0.00097763725 -0.13183604 0.013026647 1.651444e-38
0.0027381182 -0.13183604 0.013026647 1.6975077e-38
0.0044985991 -0.13183604 0.013026647 1.7619745e-38
0.0062590782 -0.13183604 0.013026647 1.5223733e-38
0.0080195572 -0.13183604 0.013026647 1.476381e-38
0.0097800381 -0.13183604 0.013026647 1.6791745e-38
0.0115379 -0.13100632 0.016012363 1.8264007e-38
0.013293145 -0.13100632 0.016012363 1.5681431e-38
0.01504839 -0.13100632 0.016012363 1.5863622e-38
0.016803635 -0.13100632 0.016012363 1.8165267e-38
0.018558878 -0.13100632 0.016012363 1.7882955e-38
0.020314123 -0.13100632 0.016012363 1.2255081e-38
0.022000803 -0.12933435 0.022028737 1.1974904e-38
0.023705658 -0.12849234 0.02505862 1.3264561e-38
0.02544504 -0.12849234 0.02505862 1.188161e-38
0.0691076 -0.12933435 0.022028737 1.8063041e-38
0.070852295 -0.12933435 0.022028737 2.2122174e-38
0.07259699 -0.12933435 0.022028737 2.3506573e-38
0.074341685 -0.12933435 0.022028737 2.35095e-38
0.076086387 -0.12933435 0.022028737 2.3509521e-38
0.077831082 -0.12933435 0.022028737 2.3140737e-38
0.079365939 -0.12849234 0.02505862 2.350988e-38
0.081105322 -0.12849234 0.02505862 2.31411e-38
0.082844704 -0.12849234 0.02505862 2.3509886e-38
0.084584087 -0.12849234 0.02505862 2.3509527e-38
0.08632347 -0.12849234 0.02505862 2.3417691e-38
0.088062853 -0.12849234 0.02505862 2.3234357e-38
0.089802243 -0.12849234 0.02505862 2.3142511e-38
0.09178865 -0.12933435 0.022028737 2.1210002e-38
0.093779013 -0.13015409 0.019078963 1.8996591e-38
0.095789656 -0.13100632 0.016012363 1.9823833e-38
0.097544909 -0.13100632 0.016012363 1.4291379e-38
0.099300146 -0.13100632 0.016012363 1.1248569e-38
0.1010554 -0.13100632 0.016012363 9.4964988e-39
0.10281064 -0.13100632 0.016012363 9.4035885e-39
-0.059815601 -0.1447715 -0.026932903 1.1883413e-38
-0.057589978 -0.14309107 -0.020924039 1.0503353e-38
-0.055518314 -0.14199139 -0.016991802 1.299551e-38
-0.053514645 -0.14113526 -0.013930388 1.2815072e-38
-0.05170691 -0.14113526 -0.013930388 1.4662582e-38
-0.049899161 -0.14113526 -0.013930388 1.4573979e-38
-0.047923967 -0.14031343 -0.01099176 1.6972516e-38
-0.045954257 -0.13946722 -0.0079658702 1.6234613e-38
-0.044156969 -0.13946722 -0.0079658702 1.4299231e-38
-0.04235968 -0.13946722 -0.0079658702 1.4391779e-38
-0.040412068 -0.13862596 -0.0049576238 1.5682873e-38
-0.038620055 -0.13862596 -0.0049576238 1.6512631e-38
-0.036828041 -0.13862596 -0.0049576238 1.8264348e-38
-0.035036035 -0.13862596 -0.0049576238 1.9739125e-38
-0.033244021 -0.13862596 -0.0049576238 1.9370346e-38
-0.03132879 -0.13778962 -0.0019670203 1.7156943e-38
-0.02954202 -0.13778962 -0.0019670203 1.6603418e-38
-0.027755251 -0.13778962 -0.0019670203 1.7156597e-38
-0.025968483 -0.13778962 -0.0019670203 1.6510872e-38
-0.024181714 -0.13778962 -0.0019670203 1.5220489e-38
-0.022394946 -0.13778962 -0.0019670203 1.6695616e-38
-0.020516952 -0.13695817 0.0010060593 1.7525732e-38
-0.018735396 -0.13695817 0.0010060593 1.5588893e-38
-0.017034637 -0.13778962 -0.0019670203 1.5404844e-38
-0.015247868 -0.13778962 -0.0019670203 1.7433142e-38
-0.013390729 -0.13695817 0.0010060593 1.9553645e-38
-0.011609172 -0.13695817 0.0010060593 2.0106465e-38
-0.0097659696 -0.13610314 0.0040635392 2.0198312e-38
-0.0079897735 -0.13610314 0.0040635392 1.8446959e-38
-0.0062135775 -0.13610314 0.0040635392 1.494388e-38
-0.0043920893 -0.13525321 0.0071026608 1.3376906e-38
-0.0025828164 -0.13443647 0.010023169 1.3931506e-38
-0.00081706978 -0.13443647 0.010023169 1.6697738e-38
0.00097763725 -0.13359652 0.013026647 1.6144941e-38
0.0027381182 -0.13359652 0.013026647 1.6974716e-38
0.0044985991 -0.13359652 0.013026647 1.8449857e-38
0.0062590782 -0.13359652 0.013026647 1.6698137e-38
0.0080195572 -0.13359652 0.013026647 1.6054906e-38
0.0097800381 -0.13359652 0.013026647 1.8082482e-38
0.0115379 -0.13276155 0.016012363 1.7251286e-38
0.013293145 -0.13276155 0.016012363 1.5313362e-38
0.01504839 -0.13276155 0.016012363 1.567995e-38
0.016803635 -0.13276155 0.016012363 1.7796848e-38
0.018558878 -0.13276155 0.016012363 1.7975153e-38
0.020314123 -0.13276155 0.016012363 1.2991927e-38
0.022034422 -0.13190396 0.019078963 1.2527712e-38
0.023705658 -0.13023172 0.02505862 1.298725e-38
0.02544504 -0.13023172 0.02505862 1.3448217e-38
0.0691076 -0.13107903 0.022028737 1.7418402e-38
0.070852295 -0.13107903 0.022028737 2.1753038e-38
0.07259699 -0.13107903 0.022028737 2.2676455e-38
0.074341685 -0.13107903 0.022028737 2.2953799e-38
0.076086387 -0.13107903 0.022028737 2.2955256e-38
0.077831082 -0.13107903 0.022028737 2.1941467e-38
0.079365939 -0.13023172 0.02505862 2.1849271e-38
0.081105322 -0.13023172 0.02505862 2.2033665e-38
0.082844704 -0.13023172 0.02505862 2.286415e-38
0.084584087 -0.13023172 0.02505862 2.3508451e-38
0.08632347 -0.13023172 0.02505862 2.3325131e-38
0.088062853 -0.13023172 0.02505862 2.3509863e-38
0.090043955 -0.13107903 0.022028737 2.3418021e-38
0.09178865 -0.13107903 0.022028737 2.2222359e-38
0.093779013 -0.13190396 0.019078963 2.0470647e-38
0.095789656 -0.13276155 0.016012363 1.9362502e-38
0.097544909 -0.13276155 0.016012363 1.3922242e-38
0.099300146 -0.13276155 0.016012363 1.1432607e-38
0.1010554 -0.13276155 0.016012363 1.078724e-38
0.10281064 -0.13276155 0.016012363 1.1063473e-38
-0.061856031 -0.14745484 -0.029963441 1.1881982e-38
-0.059815601 -0.14660202 -0.026932903 1.1053655e-38
-0.057589978 -0.14491107 -0.020924039 1.0411517e-38
-0.055769965 -0.14491107 -0.020924039 1.2628523e-38
-0.053705201 -0.14380451 -0.016991802 1.2633192e-38
-0.051892087 -0.14380451 -0.016991802 1.337471e-38
-0.049899161 -0.14294298 -0.013930388 1.3747088e-38
-0.047923967 -0.14211603 -0.01099176 1.5869034e-38
-0.046121374 -0.14211603 -0.01099176 1.6421151e-38
-0.044156969 -0.14126451 -0.0079658702 1.4115193e-38
-0.04235968 -0.14126451 -0.0079658702 1.245567e-38
-0.040562391 -0.14126451 -0.0079658702 1.3469099e-38
-0.038620055 -0.14041798 -0.0049576238 1.5773626e-38
-0.036828041 -0.14041798 -0.0049576238 1.7432426e-38
-0.035036035 -0.14041798 -0.0049576238 1.8261467e-38
-0.033244021 -0.14041798 -0.0049576238 1.8629174e-38
-0.03132879 -0.13957639 -0.0019670203 1.8813571e-38
-0.02954202 -0.13957639 -0.0019670203 1.6785629e-38
-0.027755251 -0.13957639 -0.0019670203 1.6786355e-38
-0.025968483 -0.13957639 -0.0019670203 1.6971468e-38
-0.024181714 -0.13957639 -0.0019670203 1.5496698e-38
-0.022394946 -0.13957639 -0.0019670203 1.5774364e-38
-0.020516952 -0.13873972 0.0010060593 1.6880711e-38
-0.018735396 -0.13873972 0.0010060593 1.6051304e-38
-0.017034637 -0.13957639 -0.0019670203 1.5129696e-38
-0.015247868 -0.13957639 -0.0019670203 1.6327514e-38
-0.013390729 -0.13873972 0.0010060593 1.8079229e-38
-0.011609172 -0.13873972 0.0010060593 1.9553999e-38
-0.0098276157 -0.13873972 0.0010060593 1.9738033e-38
-0.0079897735 -0.13787933 0.0040635392 1.8446578e-38
-0.0062135775 -0.13787933 0.0040635392 1.614169e-38
-0.0043920893 -0.13702409 0.0071026608 1.4389973e-38
-0.0025828164 -0.13620223 0.010023169 1.4390336e-38
-0.00081706978 -0.13620223 0.010023169 1.65112e-38
0.00097763725 -0.13535701 0.013026647 1.7064023e-38
0.0027381182 -0.13535701 0.013026647 1.7064748e-38
0.0044985991 -0.13535701 0.013026647 1.8079621e-38
0.0062590782 -0.13535701 0.013026647 1.697435e-38
0.0080195572 -0.13535701 0.013026647 1.6237497e-38
0.0097800381 -0.13535701 0.013026647 1.8082117e-38
0.0115379 -0.13451682 0.016012363 1.7990991e-38
0.013293145 -0.13451682 0.016012363 1.4302434e-38
0.01504839 -0.13451682 0.016012363 1.5312609e-38
0.016803635 -0.13451682 0.016012363 1.8350749e-38
0.018558878 -0.13451682 0.016012363 1.7791124e-38
0.020314123 -0.13451682 0.016012363 1.2807893e-38
0.022069369 -0.13451682 0.016012363 1.3173073e-38
0.023784289 -0.13365383 0.019078963 1.3815921e-38
0.025534157 -0.13365383 0.019078963 1.3354582e-38
0.0691076 -0.13282375 0.022028737 1.6959251e-38
0.070669018 -0.13197111 0.02505862 1.9633645e-38
0.0724084 -0.13197111 0.02505862 2.0279743e-38
0.074341685 -0.13282375 0.022028737 2.1109517e-38
0.076086387 -0.13282375 0.022028737 2.018793e-38
0.077831082 -0.13282375 0.022028737 1.9819869e-38
0.079575777 -0.13282375 0.022028737 2.1663427e-38
0.081105322 -0.13197111 0.02505862 2.0833669e-38
0.082844704 -0.13197111 0.02505862 2.092623e-38
0.084584087 -0.13197111 0.02505862 2.1847113e-38
0.08632347 -0.13197111 0.02505862 2.2493202e-38
0.08829926 -0.13282375 0.022028737 2.3231121e-38
0.090043955 -0.13282375 0.022028737 2.3509869e-38
0.09178865 -0.13282375 0.022028737 2.3416234e-38
0.093779013 -0.13365383 0.019078963 2.1204981e-38
0.095789656 -0.13451682 0.016012363 1.8716418e-38
0.097544909 -0.13451682 0.016012363 1.3553823e-38
0.099300146 -0.13451682 0.016012363 1.1986502e-38
0.1010554 -0.13451682 0.016012363 1.1340776e-38
-0.061856031 -0.14929073 -0.029963441 1.1420648e-38
-0.0596122 -0.14757936 -0.023919769 1.1422441e-38
-0.057589978 -0.14673109 -0.020924039 1.1242e-38
-0.055769965 -0.14673109 -0.020924039 1.2721081e-38
-0.053705201 -0.14561762 -0.016991802 1.1435372e-38
-0.051892087 -0.14561762 -0.016991802 1.1992499e-38
-0.050078981 -0.14561762 -0.016991802 1.3379386e-38
-0.048091419 -0.14475073 -0.013930388 1.6422931e-38
-0.046121374 -0.14391862 -0.01099176 1.6698817e-38
-0.04431878 -0.14391862 -0.01099176 1.4945671e-38
-0.04235968 -0.1430618 -0.0079658702 1.3193235e-38
-0.040562391 -0.1430618 -0.0079658702 1.3284707e-38
-0.038620055 -0.14220999 -0.0049576238 1.4943147e-38
-0.036828041 -0.14220999 -0.0049576238 1.6694141e-38
-0.035036035 -0.14220999 -0.0049576238 1.7983082e-38
-0.033244021 -0.14220999 -0.0049576238 1.844406e-38
-0.03132879 -0.14136316 -0.0019670203 1.632356e-38
-0.02954202 -0.14136316 -0.0019670203 1.5032824e-38
-0.027755251 -0.14136316 -0.0019670203 1.5218658e-38
-0.025968483 -0.14136316 -0.0019670203 1.5127541e-38
-0.024181714 -0.14136316 -0.0019670203 1.3837527e-38
-0.022394946 -0.14136316 -0.0019670203 1.4391779e-38
-0.020608177 -0.14136316 -0.0019670203 1.5590686e-38
-0.018821405 -0.14136316 -0.0019670203 1.4853476e-38
-0.017115915 -0.14220999 -0.0049576238 1.5406283e-38
-0.015247868 -0.14136316 -0.0019670203 1.5867614e-38
-0.013390729 -0.14052127 0.0010060593 1.6972882e-38
-0.011609172 -0.14052127 0.0010060593 1.8171062e-38
-0.0098276157 -0.14052127 0.0010060593 1.8723873e-38
-0.0079897735 -0.13965552 0.0040635392 1.7801916e-38
-0.0062135775 -0.13965552 0.0040635392 1.6233158e-38
-0.0043920893 -0.13879494 0.0071026608 1.4482169e-38
-0.0025828164 -0.13796796 0.010023169 1.4666208e-38
-0.00081706978 -0.13796796 0.010023169 1.6141704e-38
0.00094867498 -0.13796796 0.010023169 1.6233903e-38
0.0027381182 -0.13711749 0.013026647 1.6695242e-38
0.0044985991 -0.13711749 0.013026647 1.7802667e-38
0.0062590782 -0.13711749 0.013026647 1.6789232e-38
0.0080195572 -0.13711749 0.013026647 1.5868351e-38
0.0097800381 -0.13711749 0.013026647 1.7713332e-38
0.0115379 -0.13627206 0.016012363 1.7254498e-38
0.013293145 -0.13627206 0.016012363 1.3842169e-38
0.01504839 -0.13627206 0.016012363 1.4667963e-38
0.016803635 -0.13627206 0.016012363 1.7981613e-38
0.018558878 -0.13627206 0.016012363 1.779077e-38
0.020314123 -0.13627206 0.016012363 1.2991927e-38
0.022069369 -0.13627206 0.016012363 1.3356382e-38
0.023784289 -0.13540371 0.019078963 1.3631529e-38
0.025534157 -0.13540371 0.019078963 1.344606e-38
0.070669018 -0.13371049 0.02505862 1.7328772e-38
0.0724084 -0.13371049 0.02505862 1.6407537e-38
0.074341685 -0.13456844 0.022028737 1.6684127e-38
0.076086387 -0.13456844 0.022028737 1.60384e-38
0.077831082 -0.13456844 0.022028737 1.5208287e-38
0.079575777 -0.13456844 0.022028737 1.5762542e-38
0.081320472 -0.13456844 0.022028737 1.5669992e-38
0.082844704 -0.13371049 0.02505862 1.5301212e-38
0.084584087 -0.13371049 0.02505862 1.5485248e-38
0.086554557 -0.13456844 0.022028737 1.6222817e-38
0.08829926 -0.13456844 0.022028737 1.75132e-38
0.090043955 -0.13456844 0.022028737 1.9173443e-38
0.092029147 -0.13540371 0.019078963 1.9357478e-38
0.093779013 -0.13540371 0.019078963 1.7607556e-38
0.095789656 -0.13627206 0.016012363 1.5027874e-38
0.097544909 -0.13627206 0.016012363 1.170991e-38
0.099028617 -0.13540371 0.019078963 1.161772e-38
0.10077849 -0.13540371 0.019078963 1.1709558e-38
-0.0596122 -0.14940463 -0.023919769 1.1607554e-38
-0.057589978 -0.14855109 -0.020924039 1.1794101e-38
-0.055769965 -0.14855109 -0.020924039 1.2720011e-38
-0.053705201 -0.14743073 -0.016991802 1.088077e-38
-0.051892087 -0.14743073 -0.016991802 1.0793251e-38
-0.049899161 -0.14655848 -0.013930388 1.1902472e-38
-0.048091419 -0.14655848 -0.013930388 1.4486474e-38
-0.046121374 -0.14572121 -0.01099176 1.5315529e-38
-0.04431878 -0.14572121 -0.01099176 1.3563815e-38
-0.04235968 -0.14485909 -0.0079658702 1.1811019e-38
-0.040562391 -0.14485909 -0.0079658702 1.1534069e-38
-0.038620055 -0.14400201 -0.0049576238 1.3376184e-38
-0.036828041 -0.14400201 -0.0049576238 1.5219734e-38
-0.035036035 -0.14400201 -0.0049576238 1.6048416e-38
-0.033244021 -0.14400201 -0.0049576238 1.5863305e-38
-0.03132879 -0.14314993 -0.0019670203 1.5494523e-38
-0.02954202 -0.14314993 -0.0019670203 1.5126459e-38
-0.027755251 -0.14314993 -0.0019670203 1.5680715e-38
-0.025968483 -0.14314993 -0.0019670203 1.5588879e-38
-0.024181714 -0.14314993 -0.0019670203 1.4483975e-38
-0.022394946 -0.14314993 -0.0019670203 1.5314455e-38
-0.020608177 -0.14314993 -0.0019670203 1.6052743e-38
-0.018821405 -0.14314993 -0.0019670203 1.4946392e-38
-0.017115915 -0.14400201 -0.0049576238 1.595946e-38
-0.015247868 -0.14314993 -0.0019670203 1.6235321e-38
-0.0134611 -0.14314993 -0.0019670203 1.678813e-38
-0.011609172 -0.14230286 0.0010060593 1.7617888e-38
-0.0098276157 -0.14230286 0.0010060593 1.8078147e-38
-0.0080460627 -0.14230286 0.0010060593 1.7248387e-38
-0.0062135775 -0.1414317 0.0040635392 1.5496674e-38
-0.0044373814 -0.1414317 0.0040635392 1.4021191e-38
-0.0026212204 -0.14056583 0.0071026608 1.337547e-38
-0.00081706978 -0.13973372 0.010023169 1.5311943e-38
0.00094867498 -0.13973372 0.010023169 1.4943164e-38
0.0027381182 -0.13887797 0.013026647 1.4759134e-38
0.0044985991 -0.13887797 0.013026647 1.6604124e-38
0.0062590782 -0.13887797 0.013026647 1.6881427e-38
0.0080274101 -0.1380273 0.016012363 1.5960547e-38
0.0097826552 -0.1380273 0.016012363 1.651551e-38
0.0115379 -0.1380273 0.016012363 1.6793522e-38
0.013293145 -0.1380273 0.016012363 1.4026563e-38
0.01504839 -0.1380273 0.016012363 1.4852357e-38
0.016803635 -0.1380273 0.016012363 1.7796867e-38
0.018558878 -0.1380273 0.016012363 1.7882969e-38
0.020314123 -0.1380273 0.016012363 1.3084126e-38
0.022034422 -0.13715358 0.019078963 1.3079798e-38
0.0237455 -0.13631313 0.022028737 1.3262748e-38
0.025490195 -0.13631313 0.022028737 1.3538256e-38
0.07259699 -0.13631313 0.022028737 1.4472157e-38
0.074341685 -0.13631313 0.022028737 1.4563996e-38
0.076086387 -0.13631313 0.022028737 1.3457651e-38
0.077831082 -0.13631313 0.022028737 1.3181067e-38
0.079575777 -0.13631313 0.022028737 1.4840231e-38
0.081320472 -0.13631313 0.022028737 1.4839878e-38
0.083065167 -0.13631313 0.022028737 1.3549861e-38
0.084809862 -0.13631313 0.022028737 1.2811939e-38
0.086554557 -0.13631313 0.022028737 1.2996336e-38
0.088529408 -0.13715358 0.019078963 1.4194523e-38
0.090279274 -0.13715358 0.019078963 1.6315741e-38
0.092029147 -0.13715358 0.019078963 1.7237699e-38
0.093779013 -0.13715358 0.019078963 1.6132429e-38
0.095789656 -0.1380273 0.016012363 1.2722983e-38
0.097544909 -0.1380273 0.016012363 1.1432963e-38
0.099028617 -0.13715358 0.019078963 1.226237e-38
0.10077849 -0.13715358 0.019078963 1.272335e-38
0.10252836 -0.13715358 0.019078963 1.2354212e-38
-0.053705201 -0.14924385 -0.016991802 1.0971898e-38
-0.051892087 -0.14924385 -0.016991802 1.0698908e-38
-0.049899161 -0.14836623 -0.013930388 1.0056779e-38
-0.048091419 -0.14836623 -0.013930388 1.0980896e-38
-0.046121374 -0.14752381 -0.01099176 1.1903937e-38
-0.04431878 -0.14752381 -0.01099176 1.0613201e-38
-0.04235968 -0.14665638 -0.0079658702 9.3213827e-39
-0.040562391 -0.14665638 -0.0079658702 9.7819979e-39
-0.038765103 -0.14665638 -0.0079658702 1.2362397e-38
-0.036828041 -0.14579402 -0.0049576238 1.4851317e-38
-0.035036035 -0.14579402 -0.0049576238 1.4942794e-38
-0.033244021 -0.14579402 -0.0049576238 1.3835723e-38
-0.03132879 -0.1449367 -0.0019670203 1.4020114e-38
-0.02954202 -0.1449367 -0.0019670203 1.4021193e-38
-0.027755251 -0.1449367 -0.0019670203 1.4482535e-38
-0.025968483 -0.1449367 -0.0019670203 1.4206309e-38
-0.024181714 -0.1449367 -0.0019670203 1.3654217e-38
-0.022298509 -0.14408441 0.0010060593 1.4576534e-38
-0.020516952 -0.14408441 0.0010060593 1.448542e-38
-0.018821405 -0.1449367 -0.0019670203 1.2918091e-38
-0.017034637 -0.1449367 -0.0019670203 1.328543e-38
-0.015247868 -0.1449367 -0.0019670203 1.4298496e-38
-0.0134611 -0.1449367 -0.0019670203 1.5589232e-38
-0.011609172 -0.14408441 0.0010060593 1.7064717e-38
-0.0098276157 -0.14408441 0.0010060593 1.7985954e-38
-0.0079897735 -0.14320792 0.0040635392 1.7617172e-38
-0.0062135775 -0.14320792 0.0040635392 1.6326079e-38
-0.0044373814 -0.14320792 0.0040635392 1.5127538e-38
-0.0026212204 -0.14233668 0.0071026608 1.356058e-38
-0.00085035525 -0.14233668 0.0071026608 1.6418291e-38
0.00094867498 -0.14149947 0.010023169 1.5773285e-38
0.0027381182 -0.14063846 0.013026647 1.4207038e-38
0.0044985991 -0.14063846 0.013026647 1.6328256e-38
0.0062590782 -0.14063846 0.013026647 1.7988851e-38
0.0080274101 -0.13978253 0.016012363 1.6975415e-38
0.0097826552 -0.13978253 0.016012363 1.6238923e-38
0.0115379 -0.13978253 0.016012363 1.5502429e-38
0.013293145 -0.13978253 0.016012363 1.3841817e-38
0.015034948 -0.13890342 0.019078963 1.4852002e-38
0.016784817 -0.13890342 0.019078963 1.7428088e-38
0.018534685 -0.13890342 0.019078963 1.7698579e-38
0.020284552 -0.13890342 0.019078963 1.3084128e-38
0.022000803 -0.13805781 0.022028737 1.2988326e-38
0.023705658 -0.13718925 0.02505862 1.363153e-38
0.025400158 -0.13632594 0.028070144 1.3907401e-38
0.027134262 -0.13632594 0.028070144 1.3907048e-38
0.083065167 -0.13805781 0.022028737 1.281266e-38
0.084809862 -0.13805781 0.022028737 1.1521206e-38
0.092279166 -0.13978253 0.016012363 1.4010496e-38
0.094034418 -0.13978253 0.016012363 1.3458757e-38
0.095789656 -0.13978253 0.016012363 1.2907374e-38
0.097544909 -0.13978253 0.016012363 1.207833e-38
0.099028617 -0.13890342 0.019078963 1.2446399e-38
0.10077849 -0.13890342 0.019078963 1.2354566e-38
-0.046121374 -0.1493264 -0.01099176 1.061177e-38
-0.04431878 -0.1493264 -0.01099176 9.8752838e-39
-0.04235968 -0.14845367 -0.0079658702 9.321031e-39
-0.040562391 -0.14845367 -0.0079658702 9.7816476e-39
-0.038765103 -0.14845367 -0.0079658702 1.1993264e-38
-0.036828041 -0.14758603 -0.0049576238 1.4297792e-38
-0.035036035 -0.14758603 -0.0049576238 1.4850246e-38
-0.033244021 -0.14758603 -0.0049576238 1.4205233e-38
-0.03132879 -0.14672346 -0.0019670203 1.5403776e-38
-0.02954202 -0.14672346 -0.0019670203 1.5219385e-38
-0.027755251 -0.14672346 -0.0019670203 1.4666574e-38
-0.025968483 -0.14672346 -0.0019670203 1.4021924e-38
-0.024181714 -0.14672346 -0.0019670203 1.4114842e-38
-0.022298509 -0.14586596 0.0010060593 1.5221909e-38
-0.020516952 -0.14586596 0.0010060593 1.5038238e-38
-0.018735396 -0.14586596 0.0010060593 1.3931167e-38
-0.017034637 -0.14672346 -0.0019670203 1.2546788e-38
-0.015247868 -0.14672346 -0.0019670203 1.3560215e-38
-0.0134611 -0.14672346 -0.0019670203 1.4850951e-38
-0.011609172 -0.14586596 0.0010060593 1.6049492e-38
-0.0098276157 -0.14586596 0.0010060593 1.6603021e-38
-0.0079897735 -0.14498411 0.0040635392 1.6234239e-38
-0.0062135775 -0.14498411 0.0040635392 1.5219731e-38
-0.0044373814 -0.14498411 0.0040635392 1.4389976e-38
-0.0026212204 -0.14410757 0.0071026608 1.4021202e-38
-0.00085035525 -0.14410757 0.0071026608 1.62339e-38
0.00092051178 -0.14410757 0.0071026608 1.5404502e-38
0.0027381182 -0.14239894 0.013026647 1.4207038e-38
0.0044985991 -0.14239894 0.013026647 1.6051669e-38
0.0062590782 -0.14239894 0.013026647 1.6790308e-38
0.0080274101 -0.14153777 0.016012363 1.5869068e-38
0.0097826552 -0.14153777 0.016012363 1.5962337e-38
0.0115379 -0.14153777 0.016012363 1.4303891e-38
0.01328508 -0.1406533 0.019078963 1.3841104e-38
0.015034948 -0.1406533 0.019078963 1.4944204e-38
0.016784817 -0.1406533 0.019078963 1.7058952e-38
0.018534685 -0.1406533 0.019078963 1.7421636e-38
0.020256106 -0.13980253 0.022028737 1.3176324e-38
0.021966271 -0.13892864 0.02505862 1.3264913e-38
0.023705658 -0.13892864 0.02505862 1.4369094e-38
0.025369909 -0.13747464 0.030099802 1.4183985e-38
0.027100455 -0.13747464 0.030099802 1.4183635e-38
-0.035036035 -0.14937802 -0.0049576238 1.3834667e-38
-0.033244021 -0.14937802 -0.0049576238 1.4572229e-38
-0.03132879 -0.14851023 -0.0019670203 1.475662e-38
-0.02954202 -0.14851023 -0.0019670203 1.3927938e-38
-0.027755251 -0.14851023 -0.0019670203 1.26372e-38
