# .PCD v0.7 - Point Cloud Data file format
VERSION 0.7
FIELDS x y z rgb
SIZE 4 4 4 4
TYPE F F F F
COUNT 1 1 1 1
WIDTH 922
HEIGHT 1
VIEWPOINT 0 0 0 1 0 0 0
POINTS 922
DATA ascii
0.017664997 -0.093051672 -0.010035537 2.3509527e-38
0.019506006 -0.093051672 -0.010035537 2.3509527e-38
0.021620711 -0.093979403 -0.014090084 2.3509527e-38
0.023468828 -0.093979403 -0.014090084 2.3509527e-38
0.025316944 -0.093979403 -0.014090084 2.3509886e-38
0.027165061 -0.093979403 -0.014090084 2.2957065e-38
-0.054165184 -0.09651424 -0.017068528 1.1246679e-38
-0.052311845 -0.09651424 -0.017068528 1.6870997e-38
-0.050458506 -0.09651424 -0.017068528 2.3416916e-38
-0.048605166 -0.09651424 -0.017068528 2.3509869e-38
-0.046751823 -0.09651424 -0.017068528 2.3509883e-38
-0.044898484 -0.09651424 -0.017068528 2.3509883e-38
-0.043045145 -0.09651424 -0.017068528 2.3509883e-38
-0.041191801 -0.09651424 -0.017068528 2.3509883e-38
-0.039309576 -0.097204864 -0.020063899 2.3509886e-38
-0.037450984 -0.097204864 -0.020063899 2.3509886e-38
-0.035592392 -0.097204864 -0.020063899 2.3509886e-38
-0.033778444 -0.09651424 -0.017068528 2.3509886e-38
-0.031925105 -0.09651424 -0.017068528 2.3509886e-38
-0.029961158 -0.097899407 -0.023076318 2.3509886e-38
-0.028541353 -0.092821583 -0.0010527596 2.3509883e-38
-0.026716094 -0.092821583 -0.0010527596 2.3509883e-38
-0.024131602 -0.10021709 -0.033128522 2.350988e-38
-0.022250103 -0.10021709 -0.033128522 2.350988e-38
-0.020368604 -0.10021709 -0.033128522 2.350988e-38
-0.018777914 -0.097899407 -0.023076318 2.3509883e-38
-0.01709838 -0.09651424 -0.017068528 2.3509883e-38
-0.015245041 -0.09651424 -0.017068528 2.3509883e-38
-0.013391702 -0.09651424 -0.017068528 2.3509883e-38
-0.011645416 -0.09582752 -0.014090084 2.3509883e-38
-0.0099501405 -0.094892681 -0.010035537 2.3509883e-38
-0.0081091318 -0.094892681 -0.010035537 2.3509886e-38
-0.0062681232 -0.094892681 -0.010035537 2.3509883e-38
-0.0044271108 -0.094892681 -0.010035537 2.3509883e-38
-0.0025861021 -0.094892681 -0.010035537 2.3509883e-38
-0.00055670552 -0.09582752 -0.014090084 2.3509883e-38
0.001291411 -0.09582752 -0.014090084 2.3509883e-38
0.0031395312 -0.09582752 -0.014090084 2.3509883e-38
0.0049876478 -0.09582752 -0.014090084 2.3509883e-38
0.0068357643 -0.09582752 -0.014090084 2.3509883e-38
0.0086838845 -0.09582752 -0.014090084 2.350988e-38
0.010532001 -0.09582752 -0.014090084 2.3509873e-38
0.012380121 -0.09582752 -0.014090084 2.3509873e-38
0.01398298 -0.094892681 -0.010035537 2.350988e-38
0.015823988 -0.094892681 -0.010035537 2.3509886e-38
0.017664997 -0.094892681 -0.010035537 2.3509527e-38
0.019506006 -0.094892681 -0.010035537 2.3509527e-38
0.021347014 -0.094892681 -0.010035537 2.3509527e-38
0.023188023 -0.094892681 -0.010035537 2.3509886e-38
0.024820326 -0.094215035 -0.0070964321 2.2587927e-38
0.026656179 -0.094215035 -0.0070964321 2.3509879e-38
0.028492039 -0.094215035 -0.0070964321 2.3509879e-38
0.030327892 -0.094215035 -0.0070964321 2.350988e-38
-0.054178312 -0.099063456 -0.020063899 1.3550876e-38
-0.052311845 -0.098367572 -0.017068528 1.7147249e-38
-0.050458506 -0.098367572 -0.017068528 2.350949e-38
-0.048605166 -0.098367572 -0.017068528 2.3509873e-38
-0.046759658 -0.097675636 -0.014090084 2.3509883e-38
-0.044911541 -0.097675636 -0.014090084 2.3509883e-38
-0.043063421 -0.097675636 -0.014090084 2.3509883e-38
-0.041191801 -0.098367572 -0.017068528 2.3509883e-38
-0.039338462 -0.098367572 -0.017068528 2.350988e-38
-0.037485123 -0.098367572 -0.017068528 2.350988e-38
-0.035631783 -0.098367572 -0.017068528 2.350988e-38
-0.033822831 -0.097675636 -0.014090084 2.350988e-38
-0.031974711 -0.097675636 -0.014090084 2.350988e-38
-0.030071761 -0.098367572 -0.017068528 2.350988e-38
-0.028541353 -0.094646841 -0.0010527596 2.3509883e-38
-0.026716094 -0.094646841 -0.0010527596 2.3509883e-38
-0.024582241 -0.097675636 -0.014090084 2.3509883e-38
-0.022734122 -0.097675636 -0.014090084 2.3509883e-38
-0.020723656 -0.099063456 -0.020063899 2.3509883e-38
-0.019155186 -0.096733689 -0.010035537 2.350988e-38
-0.017314175 -0.096733689 -0.010035537 2.350988e-38
-0.015473166 -0.096733689 -0.010035537 2.350988e-38
-0.013493532 -0.097675636 -0.014090084 2.350988e-38
-0.011791149 -0.096733689 -0.010035537 2.350988e-38
-0.0099501405 -0.096733689 -0.010035537 2.350988e-38
-0.0081091318 -0.096733689 -0.010035537 2.3509883e-38
-0.0062681232 -0.096733689 -0.010035537 2.350988e-38
-0.0044271108 -0.096733689 -0.010035537 2.350988e-38
-0.0025861021 -0.096733689 -0.010035537 2.350988e-38
-0.00074509345 -0.096733689 -0.010035537 2.3509883e-38
0.0010959152 -0.096733689 -0.010035537 2.3509883e-38
0.0031395312 -0.097675636 -0.014090084 2.3509883e-38
0.0049876478 -0.097675636 -0.014090084 2.3509883e-38
0.0068357643 -0.097675636 -0.014090084 2.3509883e-38
0.0086838845 -0.097675636 -0.014090084 2.350988e-38
0.010532001 -0.097675636 -0.014090084 2.3509876e-38
0.012141967 -0.096733689 -0.010035537 2.3509876e-38
0.01398298 -0.096733689 -0.010035537 2.350988e-38
0.015823988 -0.096733689 -0.010035537 2.3509527e-38
0.017664997 -0.096733689 -0.010035537 2.3509527e-38
0.019506006 -0.096733689 -0.010035537 2.3509527e-38
0.021347014 -0.096733689 -0.010035537 2.3509527e-38
0.023188023 -0.096733689 -0.010035537 2.3509886e-38
0.024820326 -0.096050888 -0.0070964321 2.350988e-38
0.026656179 -0.096050888 -0.0070964321 2.3509879e-38
0.028492039 -0.096050888 -0.0070964321 2.3509876e-38
0.030327892 -0.096050888 -0.0070964321 2.2772669e-38
-0.054178312 -0.10092205 -0.020063899 1.4012228e-38
-0.052304011 -0.099523753 -0.014090084 1.5856519e-38
-0.050455891 -0.099523753 -0.014090084 2.3509139e-38
-0.048607774 -0.099523753 -0.014090084 2.3509879e-38
-0.046759658 -0.099523753 -0.014090084 2.3509886e-38
-0.044929311 -0.098574698 -0.010035537 2.3509886e-38
-0.043088302 -0.098574698 -0.010035537 2.3509883e-38
-0.041247293 -0.098574698 -0.010035537 2.350988e-38
-0.039367184 -0.099523753 -0.014090084 2.350988e-38
-0.037519068 -0.099523753 -0.014090084 2.3509879e-38
-0.035724267 -0.098574698 -0.010035537 2.3509879e-38
-0.033883259 -0.098574698 -0.010035537 2.3509879e-38
-0.03204225 -0.098574698 -0.010035537 2.3509879e-38
-0.030255347 -0.097886756 -0.0070964321 2.350988e-38
-0.028541353 -0.096472099 -0.0010527596 2.3509883e-38
-0.026716094 -0.096472099 -0.0010527596 2.3509886e-38
-0.024819514 -0.097177386 -0.0040658936 2.3509886e-38
-0.023065574 -0.096472099 -0.0010527596 2.3509886e-38
-0.021240316 -0.096472099 -0.0010527596 2.3509886e-38
-0.019415056 -0.096472099 -0.0010527596 2.350988e-38
-0.017404357 -0.097886756 -0.0070964321 2.3509879e-38
-0.0155685 -0.097886756 -0.0070964321 2.3509879e-38
-0.013632158 -0.098574698 -0.010035537 2.350988e-38
-0.011896791 -0.097886756 -0.0070964321 2.350988e-38
-0.010060934 -0.097886756 -0.0070964321 2.350988e-38
-0.0081091318 -0.098574698 -0.010035537 2.350988e-38
-0.0062681232 -0.098574698 -0.010035537 2.350988e-38
-0.0044271108 -0.098574698 -0.010035537 2.350988e-38
-0.0027175117 -0.097886756 -0.0070964321 2.3509883e-38
-0.00088165514 -0.097886756 -0.0070964321 2.3509883e-38
0.0010959152 -0.098574698 -0.010035537 2.3509883e-38
0.0029369239 -0.098574698 -0.010035537 2.3509886e-38
0.0049876478 -0.099523753 -0.014090084 2.3509883e-38
0.0066189412 -0.098574698 -0.010035537 2.3509886e-38
0.0084599499 -0.098574698 -0.010035537 2.3509883e-38
0.010300959 -0.098574698 -0.010035537 2.350988e-38
0.012141967 -0.098574698 -0.010035537 2.350988e-38
0.01398298 -0.098574698 -0.010035537 2.3509883e-38
0.015823988 -0.098574698 -0.010035537 2.3509527e-38
0.017664997 -0.098574698 -0.010035537 2.3509886e-38
0.019506006 -0.098574698 -0.010035537 2.3509527e-38
0.021148613 -0.097886756 -0.0070964321 2.3509886e-38
0.022984473 -0.097886756 -0.0070964321 2.3509886e-38
0.024820326 -0.097886756 -0.0070964321 2.3233652e-38
0.026435671 -0.097177386 -0.0040658936 2.175852e-38
0.028041681 -0.096472099 -0.0010527596 2.3509876e-38
0.029866947 -0.096472099 -0.0010527596 2.3509876e-38
-0.056055393 -0.10349102 -0.023076318 1.3827467e-38
-0.054165184 -0.10207425 -0.017068528 1.2353423e-38
-0.052304011 -0.10137187 -0.014090084 1.3368313e-38
-0.050455891 -0.10137187 -0.014090084 2.2771931e-38
-0.048611328 -0.10041572 -0.010035537 2.350988e-38
-0.046770319 -0.10041572 -0.010035537 2.3509527e-38
-0.044942193 -0.099722609 -0.0070964321 2.3509886e-38
-0.04310634 -0.099722609 -0.0070964321 2.3509886e-38
-0.041270483 -0.099722609 -0.0070964321 2.3509883e-38
-0.039406285 -0.10041572 -0.010035537 2.350988e-38
-0.037565276 -0.10041572 -0.010035537 2.3509879e-38
-0.035762914 -0.099722609 -0.0070964321 2.3509879e-38
-0.033927061 -0.099722609 -0.0070964321 2.3509879e-38
-0.032091204 -0.099722609 -0.0070964321 2.3509879e-38
-0.030255347 -0.099722609 -0.0070964321 2.350988e-38
-0.028480599 -0.099007934 -0.0040658936 2.3509886e-38
-0.026650056 -0.099007934 -0.0040658936 2.3509886e-38
-0.024819514 -0.099007934 -0.0040658936 2.3509527e-38
-0.023065574 -0.098297372 -0.0010527596 2.3509527e-38
-0.021240316 -0.098297372 -0.0010527596 2.3509527e-38
-0.019415056 -0.098297372 -0.0010527596 2.3509883e-38
-0.017497344 -0.099007934 -0.0040658936 2.350988e-38
-0.0155685 -0.099722609 -0.0070964321 2.350988e-38
-0.013632158 -0.10041572 -0.010035537 2.3509883e-38
-0.011896791 -0.099722609 -0.0070964321 2.3509883e-38
-0.010060934 -0.099722609 -0.0070964321 2.3509883e-38
-0.0082250778 -0.099722609 -0.0070964321 2.3509883e-38
-0.0063892212 -0.099722609 -0.0070964321 2.3509883e-38
-0.0045533683 -0.099722609 -0.0070964321 2.3509883e-38
-0.0027175117 -0.099722609 -0.0070964321 2.3509886e-38
-0.00088165514 -0.099722609 -0.0070964321 2.3509886e-38
0.00095420144 -0.099722609 -0.0070964321 2.3509886e-38
0.0029369239 -0.10041572 -0.010035537 2.3509886e-38
0.0047779325 -0.10041572 -0.010035537 2.3509886e-38
0.0064617675 -0.099722609 -0.0070964321 2.3509886e-38
0.0082976241 -0.099722609 -0.0070964321 2.3509886e-38
0.010133481 -0.099722609 -0.0070964321 2.3509527e-38
0.011969337 -0.099722609 -0.0070964321 2.3509527e-38
0.01398298 -0.10041572 -0.010035537 2.3509527e-38
0.015823988 -0.10041572 -0.010035537 2.3509527e-38
0.017476907 -0.099722609 -0.0070964321 2.3509527e-38
0.01931276 -0.099722609 -0.0070964321 2.3509527e-38
0.021148613 -0.099722609 -0.0070964321 2.3509886e-38
0.022774583 -0.099007934 -0.0040658936 2.3509886e-38
0.024605131 -0.099007934 -0.0040658936 2.3509883e-38
0.026216423 -0.098297372 -0.0010527596 2.350988e-38
0.028041681 -0.098297372 -0.0010527596 2.3418045e-38
0.029866947 -0.098297372 -0.0010527596 2.3418043e-38
-0.056055393 -0.10535492 -0.023076318 1.5763219e-38
-0.054165184 -0.1039276 -0.017068528 1.4197338e-38
-0.052304011 -0.10322 -0.014090084 1.4659052e-38
-0.050452337 -0.10225673 -0.010035537 2.3509859e-38
-0.048611328 -0.10225673 -0.010035537 2.350988e-38
-0.046778053 -0.10155846 -0.0070964321 2.3509527e-38
-0.044955477 -0.10083848 -0.0040658936 2.3509527e-38
-0.043124937 -0.10083848 -0.0040658936 2.3509886e-38
-0.041294396 -0.10083848 -0.0040658936 2.3509883e-38
-0.039463852 -0.10083848 -0.0040658936 2.350988e-38
-0.037633307 -0.10083848 -0.0040658936 2.350988e-38
-0.035802767 -0.10083848 -0.0040658936 2.350988e-38
-0.033972226 -0.10083848 -0.0040658936 2.350988e-38
-0.032141682 -0.10083848 -0.0040658936 2.350988e-38
-0.030311141 -0.10083848 -0.0040658936 2.3509883e-38
-0.028480599 -0.10083848 -0.0040658936 2.3509886e-38
-0.026650056 -0.10083848 -0.0040658936 2.3509527e-38
-0.024819514 -0.10083848 -0.0040658936 2.3509527e-38
-0.023065574 -0.10012263 -0.0010527596 2.3509168e-38
-0.021240316 -0.10012263 -0.0010527596 2.3509527e-38
-0.019327886 -0.10083848 -0.0040658936 2.3509886e-38
-0.017497344 -0.10083848 -0.0040658936 2.3509883e-38
-0.015666803 -0.10083848 -0.0040658936 2.3509883e-38
-0.013732648 -0.10155846 -0.0070964321 2.3509883e-38
-0.012005718 -0.10083848 -0.0040658936 2.3509886e-38
-0.010175174 -0.10083848 -0.0040658936 2.3509883e-38
-0.0083446335 -0.10083848 -0.0040658936 2.3509886e-38
-0.0063892212 -0.10155846 -0.0070964321 2.3509886e-38
-0.0045533683 -0.10155846 -0.0070964321 2.3509886e-38
-0.0028530043 -0.10083848 -0.0040658936 2.3509886e-38
-0.0010224637 -0.10083848 -0.0040658936 2.3509886e-38
0.00095420144 -0.10155846 -0.0070964321 2.3509886e-38
0.002790058 -0.10155846 -0.0070964321 2.3509886e-38
0.0046259109 -0.10155846 -0.0070964321 2.3509886e-38
0.0064617675 -0.10155846 -0.0070964321 2.3509886e-38
0.0081302468 -0.10083848 -0.0040658936 2.3509886e-38
0.0099607911 -0.10083848 -0.0040658936 2.3509527e-38
0.011791332 -0.10083848 -0.0040658936 2.3509527e-38
0.013805194 -0.10155846 -0.0070964321 2.3509527e-38
0.015641047 -0.10155846 -0.0070964321 2.3509527e-38
0.017282961 -0.10083848 -0.0040658936 2.3509527e-38
0.019113502 -0.10083848 -0.0040658936 2.3509527e-38
0.020740649 -0.10012263 -0.0010527596 2.3509886e-38
0.022565907 -0.10012263 -0.0010527596 2.3509886e-38
0.024391165 -0.10012263 -0.0010527596 2.2587929e-38
0.025998449 -0.099410906 0.0019429699 2.3509883e-38
0.027818454 -0.099410906 0.0019429699 2.2035472e-38
0.02963846 -0.099410906 0.0019429699 2.3418047e-38
-0.052304011 -0.1050681 -0.014090084 1.5673209e-38
-0.050452337 -0.10409774 -0.010035537 2.350986e-38
-0.048613906 -0.10339431 -0.0070964321 2.3509883e-38
-0.046778053 -0.10339431 -0.0070964321 2.3509527e-38
-0.044955477 -0.10266902 -0.0040658936 2.3509527e-38
-0.043124937 -0.10266902 -0.0040658936 2.3509886e-38
-0.041294396 -0.10266902 -0.0040658936 2.3509886e-38
-0.039463852 -0.10266902 -0.0040658936 2.3509886e-38
-0.037667647 -0.10194789 -0.0010527596 2.3509886e-38
-0.035842389 -0.10194789 -0.0010527596 2.3509883e-38
-0.034017131 -0.10194789 -0.0010527596 2.3509883e-38
-0.032191873 -0.10194789 -0.0010527596 2.3509886e-38
-0.030366613 -0.10194789 -0.0010527596 2.3509886e-38
-0.028541353 -0.10194789 -0.0010527596 2.3509527e-38
-0.026716094 -0.10194789 -0.0010527596 2.3509527e-38
-0.024890834 -0.10194789 -0.0010527596 2.3509168e-38
-0.023065574 -0.10194789 -0.0010527596 2.3509168e-38
-0.021240316 -0.10194789 -0.0010527596 2.3509168e-38
-0.019415056 -0.10194789 -0.0010527596 2.3325138e-38
-0.017589798 -0.10194789 -0.0010527596 2.3509886e-38
-0.015666803 -0.10266902 -0.0040658936 2.3509886e-38
-0.013836259 -0.10266902 -0.0040658936 2.3233299e-38
-0.012005718 -0.10266902 -0.0040658936 2.3325497e-38
-0.010175174 -0.10266902 -0.0040658936 2.3509886e-38
-0.0083446335 -0.10266902 -0.0040658936 2.3509886e-38
-0.0065140892 -0.10266902 -0.0040658936 2.3141106e-38
-0.0046835486 -0.10266902 -0.0040658936 2.3509886e-38
-0.0028530043 -0.10266902 -0.0040658936 2.3509527e-38
-0.0010224637 -0.10266902 -0.0040658936 2.3509527e-38
0.00080807693 -0.10266902 -0.0040658936 2.3417333e-38
0.0026386213 -0.10266902 -0.0040658936 2.3417333e-38
0.0044691619 -0.10266902 -0.0040658936 2.3509527e-38
0.0062997062 -0.10266902 -0.0040658936 2.3509527e-38
0.0081302468 -0.10266902 -0.0040658936 2.3509527e-38
0.0099607911 -0.10266902 -0.0040658936 2.3324421e-38
0.011791332 -0.10266902 -0.0040658936 2.3416615e-38
0.013621872 -0.10266902 -0.0040658936 2.3509168e-38
0.01545242 -0.10266902 -0.0040658936 2.3509168e-38
0.017282961 -0.10266902 -0.0040658936 2.3509527e-38
0.019113502 -0.10266902 -0.0040658936 2.3509527e-38
0.020740649 -0.10194789 -0.0010527596 2.3509886e-38
0.022565907 -0.10194789 -0.0010527596 2.3509886e-38
0.024391165 -0.10194789 -0.0010527596 2.3325497e-38
0.025998449 -0.10123092 0.0019429699 2.3048907e-38
0.027818454 -0.10123092 0.0019429699 2.3509886e-38
0.02963846 -0.10123092 0.0019429699 2.3509886e-38
-0.052304011 -0.10691623 -0.014090084 1.6963594e-38
-0.050449762 -0.10523017 -0.0070964321 2.35095e-38
-0.048616566 -0.10449956 -0.0040658936 2.3509883e-38
-0.046793945 -0.10377313 -0.0010527596 2.3509527e-38
-0.044968687 -0.10377313 -0.0010527596 2.3509886e-38
-0.043143429 -0.10377313 -0.0010527596 2.3417691e-38
-0.041318167 -0.10377313 -0.0010527596 2.3417691e-38
-0.039492909 -0.10377313 -0.0010527596 2.3509886e-38
-0.037667647 -0.10377313 -0.0010527596 2.3509886e-38
-0.035842389 -0.10377313 -0.0010527596 2.3509886e-38
-0.034017131 -0.10377313 -0.0010527596 2.3509886e-38
-0.032191873 -0.10377313 -0.0010527596 2.3509886e-38
-0.030366613 -0.10377313 -0.0010527596 2.3509527e-38
-0.028541353 -0.10377313 -0.0010527596 2.3509527e-38
-0.026716094 -0.10377313 -0.0010527596 2.3509527e-38
-0.024890834 -0.10377313 -0.0010527596 2.3509168e-38
-0.023065574 -0.10377313 -0.0010527596 2.3509168e-38
-0.021240316 -0.10377313 -0.0010527596 2.3509168e-38
-0.019415056 -0.10377313 -0.0010527596 2.3325138e-38
-0.017589798 -0.10377313 -0.0010527596 2.3417691e-38
-0.015764536 -0.10377313 -0.0010527596 2.3509886e-38
-0.013939278 -0.10377313 -0.0010527596 2.3509886e-38
-0.01211402 -0.10377313 -0.0010527596 2.3417691e-38
-0.010288762 -0.10377313 -0.0010527596 2.3417691e-38
-0.0084635001 -0.10377313 -0.0010527596 2.3509886e-38
-0.0066382419 -0.10377313 -0.0010527596 2.3509886e-38
-0.0048129838 -0.10377313 -0.0010527596 2.3509886e-38
-0.0029877219 -0.10377313 -0.0010527596 2.3509886e-38
-0.0011624638 -0.10377313 -0.0010527596 2.3417691e-38
0.00066279434 -0.10377313 -0.0010527596 2.3417691e-38
0.0024880562 -0.10377313 -0.0010527596 2.3417691e-38
0.0043133143 -0.10377313 -0.0010527596 2.3417691e-38
0.0061385725 -0.10377313 -0.0010527596 2.3417691e-38
0.0079638306 -0.10377313 -0.0010527596 2.3417333e-38
0.0097890925 -0.10377313 -0.0010527596 2.3509527e-38
0.011614351 -0.10377313 -0.0010527596 2.3509527e-38
0.013439609 -0.10377313 -0.0010527596 2.3509168e-38
0.015264867 -0.10377313 -0.0010527596 2.3509527e-38
0.017090125 -0.10377313 -0.0010527596 2.3509886e-38
0.018915391 -0.10377313 -0.0010527596 2.341769e-38
0.020740649 -0.10377313 -0.0010527596 2.341769e-38
0.022565907 -0.10377313 -0.0010527596 2.341769e-38
0.024391165 -0.10377313 -0.0010527596 2.3509886e-38
0.025998449 -0.10305093 0.0019429699 2.3233302e-38
0.027818454 -0.10305093 0.0019429699 2.3509886e-38
0.02963846 -0.10305093 0.0019429699 2.3233299e-38
-0.052304011 -0.10876434 -0.014090084 1.8160708e-38
-0.050449762 -0.10706602 -0.0070964321 2.3509144e-38
-0.048616566 -0.10633011 -0.0040658936 2.3509879e-38
-0.046793945 -0.10559841 -0.0010527596 2.3509883e-38
-0.044968687 -0.10559841 -0.0010527596 2.3509883e-38
-0.043143429 -0.10559841 -0.0010527596 2.3417687e-38
-0.041341804 -0.10487093 0.0019429699 2.341769e-38
-0.039521798 -0.10487093 0.0019429699 2.341769e-38
-0.037701789 -0.10487093 0.0019429699 2.3417691e-38
-0.035881784 -0.10487093 0.0019429699 2.3417691e-38
-0.034061775 -0.10487093 0.0019429699 2.3417691e-38
-0.032241769 -0.10487093 0.0019429699 2.3417333e-38
-0.030421764 -0.10487093 0.0019429699 2.3417333e-38
-0.028601756 -0.10487093 0.0019429699 2.3417333e-38
-0.026781751 -0.10487093 0.0019429699 2.3509527e-38
-0.024961744 -0.10487093 0.0019429699 2.3509527e-38
-0.023141736 -0.10487093 0.0019429699 2.3509527e-38
-0.021321731 -0.10487093 0.0019429699 2.3509527e-38
-0.019415056 -0.10559841 -0.0010527596 2.3509527e-38
-0.017589798 -0.10559841 -0.0010527596 2.3417691e-38
-0.015764536 -0.10559841 -0.0010527596 2.3509886e-38
-0.013939278 -0.10559841 -0.0010527596 2.3509886e-38
-0.01211402 -0.10559841 -0.0010527596 2.3509886e-38
-0.01040169 -0.10487093 0.0019429699 2.3141103e-38
-0.0085816812 -0.10487093 0.0019429699 2.3325494e-38
-0.0067616757 -0.10487093 0.0019429699 2.3509886e-38
-0.0049416702 -0.10487093 0.0019429699 2.341769e-38
-0.003121661 -0.10487093 0.0019429699 2.3509886e-38
-0.0013016555 -0.10487093 0.0019429699 2.3509886e-38
0.00051834993 -0.10487093 0.0019429699 2.3509886e-38
0.0023383591 -0.10487093 0.0019429699 2.3509883e-38
0.0043133143 -0.10559841 -0.0010527596 2.3417687e-38
0.0061385725 -0.10559841 -0.0010527596 2.3325492e-38
0.0079638306 -0.10559841 -0.0010527596 2.3325494e-38
0.0097890925 -0.10559841 -0.0010527596 2.3232944e-38
0.011614351 -0.10559841 -0.0010527596 2.3233662e-38
0.013439609 -0.10559841 -0.0010527596 2.3417333e-38
0.015264867 -0.10559841 -0.0010527596 2.341805e-38
0.017090125 -0.10559841 -0.0010527596 2.3418045e-38
0.018915391 -0.10559841 -0.0010527596 2.3418045e-38
0.020538425 -0.10487093 0.0019429699 2.350988e-38
0.022358431 -0.10487093 0.0019429699 2.3509883e-38
0.024178436 -0.10487093 0.0019429699 2.3509886e-38
0.025998449 -0.10487093 0.0019429699 2.3509886e-38
0.027818454 -0.10487093 0.0019429699 2.3509527e-38
0.02963846 -0.10487093 0.0019429699 2.3324775e-38
0.084466331 -0.11604463 -0.044070266 1.5491401e-38
0.086367019 -0.11604463 -0.044070266 1.4754555e-38
0.088653319 -0.11678131 -0.047103904 1.521553e-38
0.088362746 -0.11264218 -0.030059002 1.1251471e-38
0.090238862 -0.11264218 -0.030059002 9.4993897e-39
-0.048616566 -0.10816063 -0.0040658936 2.3509869e-38
-0.046801824 -0.10669093 0.0019429699 2.3509873e-38
-0.044981815 -0.10669093 0.0019429699 2.3509876e-38
-0.043161809 -0.10669093 0.0019429699 2.3509879e-38
-0.041341804 -0.10669093 0.0019429699 2.350988e-38
-0.039521798 -0.10669093 0.0019429699 2.3509883e-38
-0.037701789 -0.10669093 0.0019429699 2.341769e-38
-0.035881784 -0.10669093 0.0019429699 2.3417691e-38
-0.034061775 -0.10669093 0.0019429699 2.3509886e-38
-0.032241769 -0.10669093 0.0019429699 2.3509527e-38
-0.030421764 -0.10669093 0.0019429699 2.3509527e-38
-0.028601756 -0.10669093 0.0019429699 2.3509886e-38
-0.026781751 -0.10669093 0.0019429699 2.3509886e-38
-0.024961744 -0.10669093 0.0019429699 2.3509886e-38
-0.023141736 -0.10669093 0.0019429699 2.3509886e-38
-0.021321731 -0.10669093 0.0019429699 2.3509886e-38
-0.019501723 -0.10669093 0.0019429699 2.3509886e-38
-0.017681716 -0.10669093 0.0019429699 2.3509886e-38
-0.015861711 -0.10669093 0.0019429699 2.3509883e-38
-0.014041701 -0.10669093 0.0019429699 2.3509883e-38
-0.012221696 -0.10669093 0.0019429699 2.3509883e-38
-0.01040169 -0.10669093 0.0019429699 2.3509883e-38
-0.0085816812 -0.10669093 0.0019429699 2.3418043e-38
-0.006923696 -0.10572915 0.0058752075 2.3418043e-38
-0.0051105861 -0.10572915 0.0058752075 2.350988e-38
-0.0032974724 -0.10572915 0.0058752075 2.3509879e-38
-0.0014843587 -0.10572915 0.0058752075 2.3509879e-38
0.00032875128 -0.10572915 0.0058752075 2.3509876e-38
0.002141865 -0.10572915 0.0058752075 2.3509876e-38
0.0041583646 -0.10669093 0.0019429699 2.3509876e-38
0.0059783701 -0.10669093 0.0019429699 2.3509876e-38
0.0077983793 -0.10669093 0.0019429699 2.3509879e-38
0.0096183848 -0.10669093 0.0019429699 2.3233662e-38
0.01143839 -0.10669093 0.0019429699 2.2958154e-38
0.013258396 -0.10669093 0.0019429699 2.3050703e-38
0.015078409 -0.10669093 0.0019429699 2.3326206e-38
0.016898414 -0.10669093 0.0019429699 2.3418038e-38
0.01871842 -0.10669093 0.0019429699 2.3418035e-38
0.020538425 -0.10669093 0.0019429699 2.3509873e-38
0.022358431 -0.10669093 0.0019429699 2.3509876e-38
0.024178436 -0.10669093 0.0019429699 2.3049261e-38
0.025998449 -0.10669093 0.0019429699 2.3509883e-38
0.027818454 -0.10669093 0.0019429699 2.3417327e-38
0.02963846 -0.10669093 0.0019429699 2.3509883e-38
0.031458467 -0.10669093 0.0019429699 2.3509879e-38
0.084466331 -0.11794533 -0.044070266 2.2958873e-38
0.086367019 -0.11794533 -0.044070266 2.1761422e-38
0.088267691 -0.11794533 -0.044070266 2.2775202e-38
0.088362746 -0.1145183 -0.030059002 2.2499336e-38
0.090238862 -0.1145183 -0.030059002 2.2591169e-38
0.092114978 -0.1145183 -0.030059002 1.2541843e-38
0.093991093 -0.1145183 -0.030059002 5.9026755e-39
-0.046812166 -0.10754226 0.0058752075 2.3418023e-38
-0.044999056 -0.10754226 0.0058752075 2.3509863e-38
-0.043161809 -0.10851096 0.0019429699 2.3509869e-38
-0.041341804 -0.10851096 0.0019429699 2.3509873e-38
-0.039521798 -0.10851096 0.0019429699 2.3509879e-38
-0.037701789 -0.10851096 0.0019429699 2.3509883e-38
-0.035881784 -0.10851096 0.0019429699 2.3509886e-38
-0.034061775 -0.10851096 0.0019429699 2.3509886e-38
-0.032241769 -0.10851096 0.0019429699 2.3509886e-38
-0.030421764 -0.10851096 0.0019429699 2.3509886e-38
-0.028601756 -0.10851096 0.0019429699 2.3509883e-38
-0.026781751 -0.10851096 0.0019429699 2.3509879e-38
-0.024961744 -0.10851096 0.0019429699 2.3509876e-38
-0.023141736 -0.10851096 0.0019429699 2.3509873e-38
-0.021321731 -0.10851096 0.0019429699 2.3509873e-38
-0.019501723 -0.10851096 0.0019429699 2.3509879e-38
-0.017681716 -0.10851096 0.0019429699 2.3509879e-38
-0.015861711 -0.10851096 0.0019429699 2.3509879e-38
-0.014041701 -0.10851096 0.0019429699 2.3141455e-38
-0.012221696 -0.10851096 0.0019429699 2.3418039e-38
-0.010549923 -0.10754226 0.0058752075 2.3509876e-38
-0.0087368097 -0.10754226 0.0058752075 2.3509873e-38
-0.006923696 -0.10754226 0.0058752075 2.304961e-38
-0.0051105861 -0.10754226 0.0058752075 2.350987e-38
-0.0032974724 -0.10754226 0.0058752075 2.3418032e-38
-0.0014843587 -0.10754226 0.0058752075 2.3326195e-38
0.00032875128 -0.10754226 0.0058752075 2.3234355e-38
0.002141865 -0.10754226 0.0058752075 2.3326192e-38
0.0041583646 -0.10851096 0.0019429699 2.3418026e-38
0.0059783701 -0.10851096 0.0019429699 2.3509863e-38
0.0077983793 -0.10851096 0.0019429699 2.3418033e-38
0.0096183848 -0.10851096 0.0019429699 2.3234372e-38
0.01143839 -0.10851096 0.0019429699 2.3142537e-38
0.013258396 -0.10851096 0.0019429699 2.3142531e-38
0.015078409 -0.10851096 0.0019429699 2.3142523e-38
0.016898414 -0.10851096 0.0019429699 2.3234354e-38
0.01871842 -0.10851096 0.0019429699 2.3234354e-38
0.020538425 -0.10851096 0.0019429699 2.3234354e-38
0.022358431 -0.10851096 0.0019429699 2.3234355e-38
0.024178436 -0.10851096 0.0019429699 2.350987e-38
0.025712324 -0.10754226 0.0058752075 2.3509876e-38
0.027525438 -0.10754226 0.0058752075 2.3508798e-38
0.029338544 -0.10754226 0.0058752075 2.3509876e-38
0.031151658 -0.10754226 0.0058752075 2.3416953e-38
0.082565643 -0.119846 -0.044070266 2.2773763e-38
0.083979122 -0.11887501 -0.04012873 2.3050708e-38
0.085872896 -0.11887501 -0.04012873 2.2867037e-38
0.08776667 -0.11887501 -0.04012873 2.2498978e-38
0.088362746 -0.11639442 -0.030059002 2.2775202e-38
0.090238862 -0.11639442 -0.030059002 2.2867037e-38
0.092114978 -0.11639442 -0.030059002 2.2958873e-38
0.094402812 -0.11715056 -0.033128522 7.1934171e-39
0.096284308 -0.11715056 -0.033128522 4.2424381e-39
0.09774334 -0.11639442 -0.030059002 2.6743921e-39
-0.046820216 -0.10859586 0.0089366212 2.3234337e-38
-0.045012474 -0.10859586 0.0089366212 2.3418016e-38
-0.043185942 -0.10935538 0.0058752075 2.3509859e-38
-0.041341804 -0.11033095 0.0019429699 2.3509866e-38
-0.039521798 -0.11033095 0.0019429699 2.3509873e-38
-0.037746605 -0.10935538 0.0058752075 2.3509879e-38
-0.035933495 -0.10935538 0.0058752075 2.3509883e-38
-0.034120381 -0.10935538 0.0058752075 2.3509886e-38
-0.032307267 -0.10935538 0.0058752075 2.3509883e-38
-0.030494155 -0.10935538 0.0058752075 2.350988e-38
-0.028681044 -0.10935538 0.0058752075 2.3509876e-38
-0.026867932 -0.10935538 0.0058752075 2.350987e-38
-0.02505482 -0.10935538 0.0058752075 2.3509866e-38
-0.023241706 -0.10935538 0.0058752075 2.3509863e-38
-0.021321731 -0.11033095 0.0019429699 2.3509863e-38
-0.019615483 -0.10935538 0.0058752075 2.3234001e-38
-0.017802371 -0.10935538 0.0058752075 2.3326199e-38
-0.015989257 -0.10935538 0.0058752075 2.3141808e-38
-0.014176147 -0.10935538 0.0058752075 2.304961e-38
-0.012363033 -0.10935538 0.0058752075 2.3234001e-38
-0.010549923 -0.10935538 0.0058752075 2.3509869e-38
-0.0087368097 -0.10935538 0.0058752075 2.3509866e-38
-0.0070498381 -0.10859586 0.0089366212 2.3049961e-38
-0.0052420925 -0.10859586 0.0089366212 2.3326189e-38
-0.003434347 -0.10859586 0.0089366212 2.323435e-38
-0.0016266052 -0.10859586 0.0089366212 2.3142511e-38
0.00032875128 -0.10935538 0.0058752075 2.3050313e-38
0.002141865 -0.10935538 0.0058752075 2.2958117e-38
0.0039549749 -0.10935538 0.0058752075 2.305031e-38
0.0059783701 -0.11033095 0.0019429699 2.3234343e-38
0.0077983793 -0.11033095 0.0019429699 2.323435e-38
0.0096183848 -0.11033095 0.0019429699 2.3142527e-38
0.01143839 -0.11033095 0.0019429699 2.2775183e-38
0.013258396 -0.11033095 0.0019429699 2.2499666e-38
0.015078409 -0.11033095 0.0019429699 2.268333e-38
0.016898414 -0.11033095 0.0019429699 2.3050672e-38
0.01871842 -0.11033095 0.0019429699 2.3234344e-38
0.020272983 -0.10935538 0.0058752075 2.3418018e-38
0.022086097 -0.10935538 0.0058752075 2.3418023e-38
0.024178436 -0.11033095 0.0019429699 2.3509863e-38
0.025712324 -0.10935538 0.0058752075 2.2957052e-38
0.027297309 -0.10859586 0.0089366212 2.350987e-38
0.02910505 -0.10859586 0.0089366212 2.350987e-38
0.0309128 -0.10859586 0.0089366212 2.3324393e-38
0.032720543 -0.10859586 0.0089366212 2.2309514e-38
0.077469327 -0.11903207 -0.033128522 2.3417302e-38
0.079350822 -0.11903207 -0.033128522 2.3049612e-38
0.081232317 -0.11903207 -0.033128522 2.3234379e-38
0.083608918 -0.12002577 -0.037133835 2.3142544e-38
0.085497446 -0.12002577 -0.037133835 2.2683366e-38
0.086876817 -0.11903207 -0.033128522 2.2314589e-38
0.088362746 -0.11827053 -0.030059002 2.2315307e-38
0.090238862 -0.11827053 -0.030059002 2.2867037e-38
0.092521317 -0.11903207 -0.033128522 2.1761769e-38
0.094402812 -0.11903207 -0.033128522 1.81647e-38
0.095867224 -0.11827053 -0.030059002 3.0446166e-39
-0.048627961 -0.11040358 0.0089366212 2.286661e-38
-0.046820216 -0.11040358 0.0089366212 2.2866978e-38
-0.045012474 -0.11040358 0.0089366212 2.3142496e-38
-0.043204729 -0.11040358 0.0089366212 2.3326177e-38
-0.041372828 -0.11116849 0.0058752075 2.3509859e-38
-0.039559718 -0.11116849 0.0058752075 2.3509869e-38
-0.037746605 -0.11116849 0.0058752075 2.3509876e-38
-0.035933495 -0.11116849 0.0058752075 2.3418043e-38
-0.034120381 -0.11116849 0.0058752075 2.350988e-38
-0.032307267 -0.11116849 0.0058752075 2.350988e-38
-0.030494155 -0.11116849 0.0058752075 2.3509876e-38
-0.028742772 -0.11040358 0.0089366212 2.3418033e-38
-0.026935028 -0.11040358 0.0089366212 2.3326189e-38
-0.02505482 -0.11116849 0.0058752075 2.3326185e-38
-0.023241706 -0.11116849 0.0058752075 2.323434e-38
-0.021428594 -0.11116849 0.0058752075 2.3234343e-38
-0.019615483 -0.11116849 0.0058752075 2.3509863e-38
-0.017802371 -0.11116849 0.0058752075 2.2957412e-38
-0.015989257 -0.11116849 0.0058752075 2.3049964e-38
-0.014176147 -0.11116849 0.0058752075 2.3509866e-38
-0.012363033 -0.11116849 0.0058752075 2.2957768e-38
-0.010549923 -0.11116849 0.0058752075 2.1851418e-38
-0.0087368097 -0.11116849 0.0058752075 2.1943611e-38
-0.0070498381 -0.11040358 0.0089366212 2.295812e-38
-0.0052420925 -0.11040358 0.0089366212 2.332618e-38
-0.003434347 -0.11040358 0.0089366212 2.3326177e-38
-0.0016266052 -0.11040358 0.0089366212 2.3326174e-38
0.00018114038 -0.11040358 0.0089366212 2.3234336e-38
0.0019888859 -0.11040358 0.0089366212 2.3050662e-38
0.0039549749 -0.11116849 0.0058752075 2.2866629e-38
0.0057680886 -0.11116849 0.0058752075 2.2682235e-38
0.0077983793 -0.11215095 0.0019429699 2.2406013e-38
0.0096183848 -0.11215095 0.0019429699 2.2683337e-38
0.01143839 -0.11215095 0.0019429699 2.2131958e-38
0.013258396 -0.11215095 0.0019429699 2.1671332e-38
0.015078409 -0.11215095 0.0019429699 2.1855357e-38
0.016646763 -0.11116849 0.0058752075 2.2407804e-38
0.018459877 -0.11116849 0.0058752075 2.2958824e-38
0.020272983 -0.11116849 0.0058752075 2.3326171e-38
0.022086097 -0.11116849 0.0058752075 2.3418012e-38
0.023899211 -0.11116849 0.0058752075 2.3509859e-38
0.025489567 -0.11040358 0.0089366212 2.2772655e-38
0.027297309 -0.11040358 0.0089366212 2.3509866e-38
0.028880922 -0.10966937 0.011875249 2.3509865e-38
0.030683516 -0.10966937 0.011875249 2.3509859e-38
0.032486111 -0.10966937 0.011875249 2.2401344e-38
0.034528278 -0.11040358 0.0089366212 1.7423129e-38
0.077469327 -0.12091358 -0.033128522 2.3416937e-38
0.078982167 -0.12014665 -0.030059002 2.350987e-38
0.080858283 -0.12014665 -0.030059002 2.3418045e-38
0.083113827 -0.12091358 -0.033128522 2.3142544e-38
0.084995322 -0.12091358 -0.033128522 2.1945808e-38
0.08648663 -0.12014665 -0.030059002 2.2867037e-38
0.088362746 -0.12014665 -0.030059002 2.2315307e-38
0.090238862 -0.12014665 -0.030059002 2.2407141e-38
0.092114978 -0.12014665 -0.030059002 2.2867037e-38
0.093991093 -0.12014665 -0.030059002 2.1852169e-38
0.095867224 -0.12014665 -0.030059002 2.8598694e-39
-0.050433129 -0.11147197 0.011875249 2.1390018e-38
-0.048630536 -0.11147197 0.011875249 2.2498531e-38
-0.046827946 -0.11147197 0.011875249 2.2591091e-38
-0.045012474 -0.11221133 0.0089366212 2.2866966e-38
-0.043204729 -0.11221133 0.0089366212 2.3142483e-38
-0.041372828 -0.1129816 0.0058752075 2.3326167e-38
-0.039559718 -0.1129816 0.0058752075 2.3418014e-38
-0.037746605 -0.1129816 0.0058752075 2.3418022e-38
-0.035933495 -0.1129816 0.0058752075 2.3326192e-38
-0.034120381 -0.1129816 0.0058752075 2.3509869e-38
-0.032307267 -0.1129816 0.0058752075 2.3509866e-38
-0.030550517 -0.11221133 0.0089366212 2.3418026e-38
-0.028742772 -0.11221133 0.0089366212 2.3326182e-38
-0.026935028 -0.11221133 0.0089366212 2.31425e-38
-0.025127282 -0.11221133 0.0089366212 2.3050656e-38
-0.023241706 -0.1129816 0.0058752075 2.2958812e-38
-0.021428594 -0.1129816 0.0058752075 2.2958817e-38
-0.019615483 -0.1129816 0.0058752075 2.3509851e-38
-0.017802371 -0.1129816 0.0058752075 2.295812e-38
-0.015989257 -0.1129816 0.0058752075 2.3050316e-38
-0.014176147 -0.1129816 0.0058752075 2.3509859e-38
-0.012363033 -0.1129816 0.0058752075 2.2773726e-38
-0.010549923 -0.1129816 0.0058752075 2.0008576e-38
-0.0087368097 -0.1129816 0.0058752075 2.0101125e-38
-0.006923696 -0.1129816 0.0058752075 2.2590404e-38
-0.0052420925 -0.11221133 0.0089366212 2.3326171e-38
-0.003434347 -0.11221133 0.0089366212 2.3234331e-38
-0.0016266052 -0.11221133 0.0089366212 2.323433e-38
0.00018114038 -0.11221133 0.0089366212 2.3234327e-38
0.0019888859 -0.11221133 0.0089366212 2.3050653e-38
0.0037966277 -0.11221133 0.0089366212 2.2591469e-38
0.0057680886 -0.1129816 0.0058752075 2.2222325e-38
0.0075812023 -0.1129816 0.0058752075 2.1670595e-38
0.0093943123 -0.1129816 0.0058752075 2.2775167e-38
0.011207426 -0.1129816 0.0058752075 2.2040473e-38
0.013020536 -0.1129816 0.0058752075 2.1305764e-38
0.015078409 -0.11397095 0.0019429699 2.0845136e-38
0.016646763 -0.1129816 0.0058752075 2.1029163e-38
0.018459877 -0.1129816 0.0058752075 2.1121356e-38
0.020272983 -0.1129816 0.0058752075 2.1305027e-38
0.022086097 -0.1129816 0.0058752075 2.1395787e-38
0.023899211 -0.1129816 0.0058752075 2.1578751e-38
0.025489567 -0.11221133 0.0089366212 2.2775143e-38
0.027297309 -0.11221133 0.0089366212 2.3142489e-38
0.028880922 -0.11147197 0.011875249 2.2956661e-38
0.030683516 -0.11147197 0.011875249 2.3509844e-38
0.032486111 -0.11147197 0.011875249 1.6315695e-38
0.034528278 -0.11221133 0.0089366212 1.2351269e-38
0.077469327 -0.12279506 -0.033128522 2.3509853e-38
0.078982167 -0.12202276 -0.030059002 2.350987e-38
0.080858283 -0.12202276 -0.030059002 2.2680841e-38
0.083113827 -0.12279506 -0.033128522 2.2313147e-38
0.084995322 -0.12279506 -0.033128522 2.2958873e-38
0.08648663 -0.12202276 -0.030059002 2.185325e-38
0.088362746 -0.12202276 -0.030059002 2.2958873e-38
0.090238862 -0.12202276 -0.030059002 2.2774479e-38
0.092114978 -0.12202276 -0.030059002 2.3142544e-38
0.093991093 -0.12202276 -0.030059002 2.3234379e-38
-0.050433129 -0.11327456 0.011875249 2.0376218e-38
-0.048630536 -0.11327456 0.011875249 2.2039327e-38
-0.046827946 -0.11327456 0.011875249 2.2040044e-38
-0.045025356 -0.11327456 0.011875249 2.1947494e-38
-0.043222763 -0.11327456 0.011875249 2.2958782e-38
-0.041396983 -0.11401908 0.0089366212 2.3142464e-38
-0.039589241 -0.11401908 0.0089366212 2.3234308e-38
-0.037781496 -0.11401908 0.0089366212 2.3509831e-38
-0.03597375 -0.11401908 0.0089366212 2.3050653e-38
-0.034166005 -0.11401908 0.0089366212 2.3050299e-38
-0.032358259 -0.11401908 0.0089366212 2.3326168e-38
-0.030550517 -0.11401908 0.0089366212 2.3418004e-38
-0.028742772 -0.11401908 0.0089366212 2.3142489e-38
-0.026935028 -0.11401908 0.0089366212 2.2958804e-38
-0.025127282 -0.11401908 0.0089366212 2.2958797e-38
-0.023319539 -0.11401908 0.0089366212 2.2958787e-38
-0.021511793 -0.11401908 0.0089366212 2.2958793e-38
-0.019615483 -0.11479472 0.0058752075 2.3509837e-38
-0.017802371 -0.11479472 0.0058752075 2.3142497e-38
-0.015989257 -0.11479472 0.0058752075 2.3509848e-38
-0.014176147 -0.11479472 0.0058752075 2.3509848e-38
-0.012363033 -0.11479472 0.0058752075 2.2590404e-38
-0.010549923 -0.11479472 0.0058752075 2.01022e-38
-0.0087368097 -0.11479472 0.0058752075 2.0102913e-38
-0.006923696 -0.11479472 0.0058752075 2.1856061e-38
-0.0052420925 -0.11401908 0.0089366212 2.2499631e-38
-0.003434347 -0.11401908 0.0089366212 2.2775139e-38
-0.0016266052 -0.11401908 0.0089366212 2.2775133e-38
0.00018114038 -0.11401908 0.0089366212 2.2407785e-38
0.0019888859 -0.11401908 0.0089366212 2.2407785e-38
0.0037966277 -0.11401908 0.0089366212 2.2407788e-38
0.0057680886 -0.11479472 0.0058752075 2.1579823e-38
0.0075812023 -0.11479472 0.0058752075 2.0014662e-38
0.0093943123 -0.11479472 0.0058752075 2.1489451e-38
0.011207426 -0.11479472 0.0058752075 2.0571078e-38
0.013020536 -0.11479472 0.0058752075 1.9006955e-38
0.01483365 -0.11479472 0.0058752075 1.8546681e-38
0.016646763 -0.11479472 0.0058752075 1.8363009e-38
0.018459877 -0.11479472 0.0058752075 1.6795678e-38
0.020272983 -0.11479472 0.0058752075 1.6980058e-38
0.022086097 -0.11479472 0.0058752075 1.9836321e-38
0.023899211 -0.11479472 0.0058752075 1.9373195e-38
0.025489567 -0.11401908 0.0089366212 2.0384473e-38
0.027297309 -0.11401908 0.0089366212 2.2040403e-38
0.02910505 -0.11401908 0.0089366212 2.3509796e-38
0.0309128 -0.11401908 0.0089366212 2.3509087e-38
0.032486111 -0.11327456 0.011875249 1.4746545e-38
0.034288697 -0.11327456 0.011875249 1.2809697e-38
0.077469327 -0.12467657 -0.033128522 2.3509136e-38
0.078982167 -0.12389888 -0.030059002 2.3509879e-38
0.080858283 -0.12389888 -0.030059002 2.3234379e-38
0.083113827 -0.12467657 -0.033128522 2.286632e-38
0.084610514 -0.12389888 -0.030059002 2.3142544e-38
0.08648663 -0.12389888 -0.030059002 2.3234379e-38
0.087983958 -0.12315418 -0.027119659 2.3141816e-38
0.089854918 -0.12315418 -0.027119659 2.3509876e-38
0.091725878 -0.12315418 -0.027119659 2.3509873e-38
0.093596853 -0.12315418 -0.027119659 2.3509879e-38
0.095467813 -0.12315418 -0.027119659 4.516867e-39
0.09774334 -0.12389888 -0.030059002 3.2261338e-39
-0.050433129 -0.11507715 0.011875249 2.0837193e-38
-0.048630536 -0.11507715 0.011875249 2.0380873e-38
-0.046827946 -0.11507715 0.011875249 2.0382667e-38
-0.045025356 -0.11507715 0.011875249 2.0013168e-38
-0.043222763 -0.11507715 0.011875249 2.0474148e-38
-0.041396983 -0.11582683 0.0089366212 2.0473797e-38
-0.039589241 -0.11582683 0.0089366212 2.1026261e-38
-0.037781496 -0.11582683 0.0089366212 2.2866952e-38
-0.03597375 -0.11582683 0.0089366212 2.2591448e-38
-0.034166005 -0.11582683 0.0089366212 2.3326149e-38
-0.032358259 -0.11582683 0.0089366212 2.2222675e-38
-0.030550517 -0.11582683 0.0089366212 2.2407067e-38
-0.028742772 -0.11582683 0.0089366212 2.3234317e-38
-0.026935028 -0.11582683 0.0089366212 2.2591448e-38
-0.025127282 -0.11582683 0.0089366212 2.0288347e-38
-0.023319539 -0.11582683 0.0089366212 2.0195424e-38
-0.021511793 -0.11582683 0.0089366212 2.1762754e-38
-0.019704049 -0.11582683 0.0089366212 2.2958803e-38
-0.017896304 -0.11582683 0.0089366212 2.2682584e-38
-0.015989257 -0.11660783 0.0058752075 2.3050655e-38
-0.014176147 -0.11660783 0.0058752075 2.3234331e-38
-0.012363033 -0.11660783 0.0058752075 2.2223768e-38
-0.010549923 -0.11660783 0.0058752075 2.0565325e-38
-0.0087368097 -0.11660783 0.0058752075 2.0842625e-38
-0.006923696 -0.11660783 0.0058752075 2.2407794e-38
-0.0051105861 -0.11660783 0.0058752075 2.1764931e-38
-0.003434347 -0.11582683 0.0089366212 2.1948601e-38
-0.0016266052 -0.11582683 0.0089366212 2.1856763e-38
0.00018114038 -0.11582683 0.0089366212 2.1673089e-38
0.0019888859 -0.11582683 0.0089366212 2.1581253e-38
0.0037966277 -0.11582683 0.0089366212 2.1305744e-38
0.0057680886 -0.11660783 0.0058752075 2.066038e-38
0.0075812023 -0.11660783 0.0058752075 1.9739511e-38
0.0093943123 -0.11660783 0.0058752075 1.9373257e-38
0.011207426 -0.11660783 0.0058752075 1.7808075e-38
0.013020536 -0.11660783 0.0058752075 1.6058834e-38
0.01483365 -0.11660783 0.0058752075 1.5876584e-38
0.016646763 -0.11660783 0.0058752075 1.6614155e-38
0.018459877 -0.11660783 0.0058752075 1.5693269e-38
0.020272983 -0.11660783 0.0058752075 1.6062035e-38
0.022086097 -0.11660783 0.0058752075 1.8549872e-38
0.023899211 -0.11660783 0.0058752075 1.8178224e-38
0.025489567 -0.11582683 0.0089366212 1.7068282e-38
0.027297309 -0.11582683 0.0089366212 1.8816043e-38
0.02910505 -0.11582683 0.0089366212 2.2130784e-38
0.030683516 -0.11507715 0.011875249 2.1848474e-38
0.032486111 -0.11507715 0.011875249 1.2163977e-38
0.034288697 -0.11507715 0.011875249 1.1056527e-38
0.036336027 -0.11582683 0.0089366212 1.216215e-38
0.075587831 -0.12655805 -0.033128522 2.0557414e-38
0.077106051 -0.12577499 -0.030059002 2.2863767e-38
0.078982167 -0.12577499 -0.030059002 2.3509879e-38
0.080858283 -0.12577499 -0.030059002 2.3234379e-38
0.082734399 -0.12577499 -0.030059002 2.3142544e-38
0.084610514 -0.12577499 -0.030059002 2.3142544e-38
0.08648663 -0.12577499 -0.030059002 2.341805e-38
0.087983958 -0.12502514 -0.027119659 2.3509879e-38
0.089854918 -0.12502514 -0.027119659 2.350987e-38
0.091725878 -0.12502514 -0.027119659 2.3508788e-38
0.093596853 -0.12502514 -0.027119659 2.3508793e-38
0.095867224 -0.12577499 -0.030059002 5.3455417e-39
0.09774334 -0.12577499 -0.030059002 4.0548155e-39
-0.052235723 -0.11687975 0.011875249 1.1707319e-38
-0.050433129 -0.11687975 0.011875249 1.9731928e-38
-0.048630536 -0.11687975 0.011875249 1.9829141e-38
-0.046827946 -0.11687975 0.011875249 2.0108238e-38
-0.045025356 -0.11687975 0.011875249 1.9369954e-38
-0.043204729 -0.11763458 0.0089366212 1.9093367e-38
-0.041396983 -0.11763458 0.0089366212 1.9001174e-38
-0.039589241 -0.11763458 0.0089366212 1.9461798e-38
-0.037781496 -0.11763458 0.0089366212 2.1212802e-38
-0.03597375 -0.11763458 0.0089366212 2.121245e-38
-0.034166005 -0.11763458 0.0089366212 2.2591444e-38
-0.032358259 -0.11763458 0.0089366212 2.1673079e-38
-0.030550517 -0.11763458 0.0089366212 2.1948595e-38
-0.028742772 -0.11763458 0.0089366212 2.2683293e-38
-0.026935028 -0.11763458 0.0089366212 2.158053e-38
-0.025127282 -0.11763458 0.0089366212 1.9368551e-38
-0.023319539 -0.11763458 0.0089366212 1.955258e-38
-0.021511793 -0.11763458 0.0089366212 2.1580527e-38
-0.019704049 -0.11763458 0.0089366212 2.2407781e-38
-0.017896304 -0.11763458 0.0089366212 2.231595e-38
-0.016088562 -0.11763458 0.0089366212 2.2315954e-38
-0.014280817 -0.11763458 0.0089366212 2.1948609e-38
-0.012363033 -0.11842094 0.0058752075 2.1119212e-38
-0.010549923 -0.11842094 0.0058752075 2.029017e-38
-0.0087368097 -0.11842094 0.0058752075 2.0475634e-38
-0.006923696 -0.11842094 0.0058752075 2.1305751e-38
-0.0051105861 -0.11842094 0.0058752075 2.0662172e-38
-0.003434347 -0.11763458 0.0089366212 2.0386303e-38
-0.0016266052 -0.11763458 0.0089366212 2.0478496e-38
0.00018114038 -0.11763458 0.0089366212 2.0754724e-38
0.0019888859 -0.11763458 0.0089366212 2.0754368e-38
0.0037966277 -0.11763458 0.0089366212 2.0385232e-38
0.0057680886 -0.11842094 0.0058752075 2.0200845e-38
0.0075812023 -0.11842094 0.0058752075 2.0201211e-38
0.0093943123 -0.11842094 0.0058752075 1.8635692e-38
0.011207426 -0.11842094 0.0058752075 1.5964161e-38
0.013020536 -0.11842094 0.0058752075 1.3753943e-38
0.01483365 -0.11842094 0.0058752075 1.4217063e-38
0.016646763 -0.11842094 0.0058752075 1.587659e-38
0.018459877 -0.11842094 0.0058752075 1.5785467e-38
0.020272983 -0.11842094 0.0058752075 1.6430461e-38
0.022086097 -0.11842094 0.0058752075 1.8457323e-38
0.023681818 -0.11763458 0.0089366212 1.8362621e-38
0.025489567 -0.11763458 0.0089366212 1.5869386e-38
0.027297309 -0.11763458 0.0089366212 1.7432755e-38
0.02910505 -0.11763458 0.0089366212 2.1208111e-38
0.030683516 -0.11687975 0.011875249 2.0465182e-38
0.032486111 -0.11687975 0.011875249 1.1241666e-38
0.034288697 -0.11687975 0.011875249 1.1148369e-38
0.036336027 -0.11763458 0.0089366212 1.2161795e-38
0.038993232 -0.12020047 -0.0010527596 1.2161446e-38
0.075587831 -0.12843956 -0.033128522 1.8620582e-38
0.077106051 -0.12765111 -0.030059002 2.3509849e-38
0.078982167 -0.12765111 -0.030059002 2.3509873e-38
0.080858283 -0.12765111 -0.030059002 2.3234018e-38
0.082734399 -0.12765111 -0.030059002 2.2773765e-38
0.084610514 -0.12765111 -0.030059002 2.268157e-38
0.08648663 -0.12765111 -0.030059002 2.3509883e-38
0.087983958 -0.1268961 -0.027119659 2.3509879e-38
0.089854918 -0.1268961 -0.027119659 2.350987e-38
0.091725878 -0.1268961 -0.027119659 2.3509509e-38
0.093596853 -0.1268961 -0.027119659 2.3508432e-38
0.095867224 -0.12765111 -0.030059002 6.4518878e-39
-0.052235723 -0.11868234 0.011875249 1.0231833e-38
-0.050433129 -0.11868234 0.011875249 1.7519597e-38
-0.048630536 -0.11868234 0.011875249 1.9000822e-38
-0.046827946 -0.11868234 0.011875249 1.9925288e-38
-0.045025356 -0.11868234 0.011875249 1.9003688e-38
-0.043222763 -0.11868234 0.011875249 1.8358316e-38
-0.041420169 -0.11868234 0.011875249 1.808101e-38
-0.039617576 -0.11868234 0.011875249 1.7712946e-38
-0.037814986 -0.11868234 0.011875249 1.8265404e-38
-0.036012392 -0.11868234 0.011875249 1.7620399e-38
-0.034209803 -0.11868234 0.011875249 1.9555435e-38
-0.032407209 -0.11868234 0.011875249 2.0569954e-38
-0.030604616 -0.11868234 0.011875249 2.1029863e-38
-0.028802024 -0.11868234 0.011875249 1.9831685e-38
-0.026935028 -0.11944233 0.0089366212 1.8816817e-38
-0.025127282 -0.11944233 0.0089366212 1.8725343e-38
-0.023319539 -0.11944233 0.0089366212 1.9554384e-38
-0.021511793 -0.11944233 0.0089366212 2.0015363e-38
-0.019704049 -0.11944233 0.0089366212 2.093624e-38
-0.017896304 -0.11944233 0.0089366212 2.1028437e-38
-0.016088562 -0.11944233 0.0089366212 2.0751853e-38
-0.014280817 -0.11944233 0.0089366212 1.983062e-38
-0.012363033 -0.12023406 0.0058752075 1.9093417e-38
-0.010549923 -0.12023406 0.0058752075 1.881791e-38
-0.0087368097 -0.12023406 0.0058752075 1.909521e-38
-0.0070498381 -0.11944233 0.0089366212 1.9280317e-38
-0.0052420925 -0.11944233 0.0089366212 1.9005166e-38
-0.003434347 -0.11944233 0.0089366212 1.845199e-38
-0.0016266052 -0.11944233 0.0089366212 1.8544186e-38
0.00018114038 -0.11944233 0.0089366212 1.9373949e-38
0.0019888859 -0.11944233 0.0089366212 2.0110078e-38
0.0037966277 -0.11944233 0.0089366212 2.0017888e-38
0.0057680886 -0.12023406 0.0058752075 2.0201927e-38
0.0075812023 -0.12023406 0.0058752075 2.0387044e-38
0.0093943123 -0.12023406 0.0058752075 1.9281061e-38
0.011207426 -0.12023406 0.0058752075 1.568793e-38
0.013020536 -0.12023406 0.0058752075 1.320077e-38
0.01483365 -0.12023406 0.0058752075 1.3940116e-38
0.016450843 -0.11944233 0.0089366212 1.5507451e-38
0.018258585 -0.11944233 0.0089366212 1.578547e-38
0.020066334 -0.11944233 0.0089366212 1.6891444e-38
0.021874076 -0.11944233 0.0089366212 1.8733913e-38
0.023681818 -0.11944233 0.0089366212 1.8638852e-38
0.025489567 -0.11944233 0.0089366212 1.6330365e-38
0.027078329 -0.11868234 0.011875249 1.7893735e-38
0.028880922 -0.11868234 0.011875249 2.0746779e-38
0.030683516 -0.11868234 0.011875249 1.9819816e-38
0.032486111 -0.11868234 0.011875249 1.2255824e-38
0.034288697 -0.11868234 0.011875249 1.2807536e-38
0.03609129 -0.11868234 0.011875249 1.2346189e-38
0.038993232 -0.12202574 -0.0010527596 1.2806814e-38
0.075587831 -0.13032107 -0.033128522 1.7329833e-38
0.077106051 -0.12952723 -0.030059002 2.3509846e-38
0.078982167 -0.12952723 -0.030059002 2.3509866e-38
0.080858283 -0.12952723 -0.030059002 2.3325847e-38
0.082734399 -0.12952723 -0.030059002 2.341805e-38
0.084610514 -0.12952723 -0.030059002 2.341805e-38
0.08648663 -0.12952723 -0.030059002 2.3417327e-38
0.087983958 -0.12876706 -0.027119659 2.3509158e-38
0.089854918 -0.12876706 -0.027119659 2.350987e-38
0.091725878 -0.12876706 -0.027119659 2.350987e-38
0.093596853 -0.12876706 -0.027119659 2.3231843e-38
0.095867224 -0.12952723 -0.030059002 6.3604083e-39
-0.052235723 -0.12048493 0.011875249 9.4020765e-39
-0.050433129 -0.12048493 0.011875249 1.5859719e-38
-0.048630536 -0.12048493 0.011875249 1.7895918e-38
-0.046827946 -0.12048493 0.011875249 1.946647e-38
-0.045025356 -0.12048493 0.011875249 1.8544512e-38
-0.043222763 -0.12048493 0.011875249 1.7622909e-38
-0.041420169 -0.12048493 0.011875249 1.7714742e-38
-0.039617576 -0.12048493 0.011875249 1.6977893e-38
-0.037814986 -0.12048493 0.011875249 1.6516196e-38
-0.036012392 -0.12048493 0.011875249 1.5410211e-38
