# .PCD v0.7 - Point Cloud Data file format
VERSION 0.7
FIELDS x y z rgb
SIZE 4 4 4 4
TYPE F F F F
COUNT 1 1 1 1
WIDTH 937
HEIGHT 1
VIEWPOINT 0 0 0 1 0 0 0
POINTS 937
DATA ascii
0.030619971 -0.11182173 -0.0034633093 2.2223365e-38
0.032450512 -0.11182173 -0.0034633093 2.1486893e-38
0.034281053 -0.11182173 -0.0034633093 2.1395061e-38
0.036111601 -0.11182173 -0.0034633093 2.176457e-38
0.037942141 -0.11182173 -0.0034633093 2.1856778e-38
0.03997194 -0.11257361 -0.0064938478 2.1673117e-38
0.041807793 -0.11257361 -0.0064938478 2.2040476e-38
0.043643653 -0.11257361 -0.0064938478 2.2224151e-38
0.045479506 -0.11257361 -0.0064938478 2.1305771e-38
0.047529221 -0.11330278 -0.0094329529 1.6789956e-38
0.049672365 -0.1143087 -0.013487499 1.6513344e-38
0.051520482 -0.1143087 -0.013487499 1.8726382e-38
0.053368598 -0.1143087 -0.013487499 1.9646891e-38
0.055216711 -0.1143087 -0.013487499 1.7617871e-38
0.057064828 -0.1143087 -0.013487499 1.5957276e-38
0.059410479 -0.11579077 -0.019461315 1.0697818e-38
-0.020760987 -0.10966937 0.012477834 2.3508745e-38
-0.018958397 -0.10966937 0.012477834 1.5118605e-38
-0.017155804 -0.10966937 0.012477834 1.687175e-38
-0.015393002 -0.10891335 0.015503723 2.2403499e-38
-0.013595715 -0.10891335 0.015503723 2.3509521e-38
-0.011798429 -0.10891335 0.015503723 2.3233999e-38
-0.0099454345 -0.10966937 0.012477834 2.2683283e-38
-0.0082038557 -0.10891335 0.015503723 2.2775111e-38
-0.0064065689 -0.10891335 0.015503723 2.3142488e-38
-0.0045376597 -0.10966937 0.012477834 2.2958808e-38
-0.0027350662 -0.10966937 0.012477834 2.1764893e-38
-0.00085261185 -0.11040358 0.0095392056 1.9834519e-38
0.00095513184 -0.11040358 0.0095392056 1.8183277e-38
0.0027628774 -0.11040358 0.0095392056 1.6896497e-38
0.0046699243 -0.11116849 0.0064777918 1.6526635e-38
0.0064830342 -0.11116849 0.0064777918 1.6523044e-38
0.0082961479 -0.11116849 0.0064777918 1.7349576e-38
0.010109258 -0.11116849 0.0064777918 1.9466847e-38
0.0120775 -0.11215095 0.0025455542 2.1030228e-38
0.013897506 -0.11215095 0.0025455542 2.1027718e-38
0.01571751 -0.11215095 0.0025455542 2.07479e-38
0.017537519 -0.11215095 0.0025455542 1.9455003e-38
0.019357525 -0.11215095 0.0025455542 1.7795114e-38
0.021321975 -0.11289944 -0.00045017526 1.8070611e-38
0.023147237 -0.11289944 -0.00045017526 2.0190739e-38
0.024972495 -0.11289944 -0.00045017526 1.9730467e-38
0.026958887 -0.11365227 -0.0034633093 1.9085804e-38
0.028789427 -0.11365227 -0.0034633093 2.2774358e-38
0.030619971 -0.11365227 -0.0034633093 2.3234291e-38
0.032450512 -0.11365227 -0.0034633093 2.2591454e-38
0.034281053 -0.11365227 -0.0034633093 2.1948607e-38
0.036111601 -0.11365227 -0.0034633093 2.1948611e-38
0.037942141 -0.11365227 -0.0034633093 2.1948612e-38
0.03997194 -0.11440946 -0.0064938478 2.2132296e-38
0.041807793 -0.11440946 -0.0064938478 2.2040485e-38
0.043643653 -0.11440946 -0.0064938478 2.1948653e-38
0.045479506 -0.11440946 -0.0064938478 2.0477812e-38
0.047529221 -0.11514379 -0.0094329529 1.4670536e-38
0.049370229 -0.11514379 -0.0094329529 1.4210952e-38
0.051520482 -0.1161568 -0.013487499 1.7253748e-38
0.053368598 -0.1161568 -0.013487499 1.8911476e-38
0.055216711 -0.1161568 -0.013487499 1.7896248e-38
0.057064828 -0.1161568 -0.013487499 1.6327848e-38
0.059410479 -0.11764936 -0.019461315 1.0422659e-38
0.061525237 -0.11840202 -0.022473734 1.1980288e-38
-0.020760987 -0.11147197 0.012477834 1.5209343e-38
-0.018987576 -0.11071064 0.015503723 8.4794378e-39
-0.017190289 -0.11071064 0.015503723 1.0140376e-38
-0.015393002 -0.11071064 0.015503723 2.3509834e-38
-0.013595715 -0.11071064 0.015503723 2.3509862e-38
-0.011798429 -0.11071064 0.015503723 2.2774079e-38
-0.010001143 -0.11071064 0.015503723 2.1948573e-38
-0.0082038557 -0.11071064 0.015503723 2.1581215e-38
-0.0064065689 -0.11071064 0.015503723 2.167308e-38
-0.0045376597 -0.11147197 0.012477834 2.1397571e-38
-0.0027350662 -0.11147197 0.012477834 2.0569213e-38
-0.00093247462 -0.11147197 0.012477834 1.9098388e-38
0.00095513184 -0.11221133 0.0095392056 1.7262032e-38
0.0027628774 -0.11221133 0.0095392056 1.6527351e-38
0.0045706192 -0.11221133 0.0095392056 1.7172721e-38
0.0064830342 -0.1129816 0.0064777918 1.7631907e-38
0.0082961479 -0.1129816 0.0064777918 1.7721237e-38
0.010109258 -0.1129816 0.0064777918 1.8916547e-38
0.0120775 -0.11397095 0.0025455542 1.8727837e-38
0.013897506 -0.11397095 0.0025455542 1.6693785e-38
0.01571751 -0.11397095 0.0025455542 1.9269519e-38
0.017537519 -0.11397095 0.0025455542 1.9912014e-38
0.019357525 -0.11397095 0.0025455542 1.9909129e-38
0.02117753 -0.11397095 0.0025455542 2.0461581e-38
0.023147237 -0.11472471 -0.00045017526 2.2306209e-38
0.024972495 -0.11472471 -0.00045017526 2.0280057e-38
0.026797753 -0.11472471 -0.00045017526 1.9359888e-38
0.028789427 -0.11548282 -0.0034633093 2.3509789e-38
0.030619971 -0.11548282 -0.0034633093 2.2591444e-38
0.032450512 -0.11548282 -0.0034633093 2.1948604e-38
0.034464374 -0.11624531 -0.0064938478 2.1581262e-38
0.036300227 -0.11624531 -0.0064938478 2.1305754e-38
0.038136087 -0.11624531 -0.0064938478 2.1489419e-38
0.03997194 -0.11624531 -0.0064938478 2.1305754e-38
0.041807793 -0.11624531 -0.0064938478 2.0202297e-38
0.043643653 -0.11624531 -0.0064938478 1.9095954e-38
0.045479506 -0.11624531 -0.0064938478 1.7529696e-38
0.047529221 -0.1169848 -0.0094329529 1.4764881e-38
0.049370229 -0.1169848 -0.0094329529 1.605558e-38
0.051520482 -0.11800493 -0.013487499 1.6977523e-38
0.053368598 -0.11800493 -0.013487499 1.6422559e-38
0.055216711 -0.11800493 -0.013487499 1.6237451e-38
0.057064828 -0.11800493 -0.013487499 1.6604435e-38
0.059661355 -0.12026589 -0.022473734 1.1159148e-38
0.061525237 -0.12026589 -0.022473734 1.2441266e-38
-0.020784862 -0.11250792 0.015503723 1.6035881e-38
-0.019016586 -0.11174576 0.01851197 1.05967e-38
-0.017224573 -0.11174576 0.01851197 1.142966e-38
-0.015393002 -0.11250792 0.015503723 2.2680038e-38
-0.013595715 -0.11250792 0.015503723 2.3509831e-38
-0.011798429 -0.11250792 0.015503723 2.268329e-38
-0.010001143 -0.11250792 0.015503723 2.066176e-38
-0.0082038557 -0.11250792 0.015503723 2.0662834e-38
-0.0064065689 -0.11250792 0.015503723 2.0571024e-38
-0.0045376597 -0.11327456 0.012477834 1.9559391e-38
-0.0027350662 -0.11327456 0.012477834 1.956009e-38
-0.00093247462 -0.11327456 0.012477834 1.8548091e-38
0.00087011699 -0.11327456 0.012477834 1.7534663e-38
0.0027628774 -0.11401908 0.0095392056 1.8181478e-38
0.0045706192 -0.11401908 0.0095392056 1.6985818e-38
0.0064830342 -0.11479472 0.0064777918 1.6249343e-38
0.0082961479 -0.11479472 0.0064777918 1.6340834e-38
0.010109258 -0.11479472 0.0064777918 1.7905632e-38
0.0120775 -0.11579098 0.0025455542 1.9098391e-38
0.013735485 -0.11479472 0.0064777918 1.7338755e-38
0.015548595 -0.11479472 0.0064777918 2.1476791e-38
0.017361708 -0.11479472 0.0064777918 2.1562522e-38
0.019357525 -0.11579098 0.0025455542 2.1834433e-38
0.02117753 -0.11579098 0.0025455542 2.3032268e-38
0.023147237 -0.11654995 -0.00045017526 2.3498667e-38
0.024972495 -0.11654995 -0.00045017526 2.1196654e-38
0.026797753 -0.11654995 -0.00045017526 1.9266289e-38
0.028789427 -0.11731337 -0.0034633093 2.3050623e-38
0.030619971 -0.11731337 -0.0034633093 2.1948602e-38
0.032450512 -0.11731337 -0.0034633093 1.9469016e-38
0.034464374 -0.11808117 -0.0064938478 1.9008389e-38
0.036300227 -0.11808117 -0.0064938478 1.845485e-38
0.038136087 -0.11808117 -0.0064938478 1.7993507e-38
0.03997194 -0.11808117 -0.0064938478 1.9836341e-38
0.041807793 -0.11808117 -0.0064938478 2.011186e-38
0.043643653 -0.11808117 -0.0064938478 1.725631e-38
0.045479506 -0.11808117 -0.0064938478 1.5228006e-38
0.047529221 -0.11882581 -0.0094329529 1.5320196e-38
0.049370229 -0.11882581 -0.0094329529 1.6241065e-38
0.051520482 -0.11985306 -0.013487499 1.7162658e-38
0.053368598 -0.11985306 -0.013487499 1.7989905e-38
0.055216711 -0.11985306 -0.013487499 1.7066509e-38
0.057064828 -0.11985306 -0.013487499 1.6234591e-38
0.059661355 -0.12212978 -0.022473734 1.0328319e-38
0.061525237 -0.12212978 -0.022473734 1.2532387e-38
-0.020784862 -0.11430521 0.015503723 1.7785801e-38
-0.019016586 -0.11353777 0.01851197 1.0226474e-38
-0.017224573 -0.11353777 0.01851197 1.1151984e-38
-0.015393002 -0.11430521 0.015503723 2.0836111e-38
-0.013595715 -0.11430521 0.015503723 2.2682199e-38
-0.011798429 -0.11430521 0.015503723 2.1948577e-38
-0.010001143 -0.11430521 0.015503723 2.0202212e-38
-0.0082038557 -0.11430521 0.015503723 2.0111807e-38
-0.0064065689 -0.11430521 0.015503723 1.992816e-38
-0.0045376597 -0.11507715 0.012477834 1.8639945e-38
-0.0027350662 -0.11507715 0.012477834 1.8271512e-38
-0.00093247462 -0.11507715 0.012477834 1.7533234e-38
0.00087011699 -0.11507715 0.012477834 1.6148156e-38
0.0027628774 -0.11582683 0.0095392056 1.6610221e-38
0.0045706192 -0.11582683 0.0095392056 1.50465e-38
0.0064830342 -0.11660783 0.0064777918 1.4034516e-38
0.0081861103 -0.11582683 0.0095392056 1.4588419e-38
0.0099938558 -0.11582683 0.0095392056 1.6982971e-38
0.011922372 -0.11660783 0.0064777918 1.8268631e-38
0.013735485 -0.11660783 0.0064777918 1.6140209e-38
0.015548595 -0.11660783 0.0064777918 1.8432889e-38
0.017361708 -0.11660783 0.0064777918 2.0361811e-38
0.019357525 -0.11761098 0.0025455542 2.1187256e-38
0.02117753 -0.11761098 0.0025455542 2.0449705e-38
0.023147237 -0.11837523 -0.00045017526 2.0361134e-38
0.024972495 -0.11837523 -0.00045017526 1.9075799e-38
0.026797753 -0.11837523 -0.00045017526 1.7516012e-38
0.028789427 -0.11914389 -0.0034633093 1.9184157e-38
0.030619971 -0.11914389 -0.0034633093 1.7256321e-38
0.032450512 -0.11914389 -0.0034633093 1.394123e-38
0.034464374 -0.11991702 -0.0064938478 1.375611e-38
0.036300227 -0.11991702 -0.0064938478 1.4769174e-38
0.038136087 -0.11991702 -0.0064938478 1.4584057e-38
0.03997194 -0.11991702 -0.0064938478 1.4952119e-38
0.041807793 -0.11991702 -0.0064938478 1.4952475e-38
0.043643653 -0.11991702 -0.0064938478 1.3384794e-38
0.045479506 -0.11991702 -0.0064938478 1.3661026e-38
0.047529221 -0.12066682 -0.0094329529 1.5228357e-38
0.049370229 -0.12066682 -0.0094329529 1.5596067e-38
0.051520482 -0.12170117 -0.013487499 1.596341e-38
0.053368598 -0.12170117 -0.013487499 1.6606265e-38
0.055216711 -0.12170117 -0.013487499 1.6143125e-38
0.057064828 -0.12170117 -0.013487499 1.5956573e-38
0.059661355 -0.12399365 -0.022473734 9.3130927e-39
0.061525237 -0.12399365 -0.022473734 1.2071053e-38
0.06374003 -0.12502514 -0.026517075 1.2713901e-38
-0.083689898 -0.1161025 0.015503723 1.8438036e-38
-0.08189261 -0.1161025 0.015503723 2.3509869e-38
-0.018987576 -0.1161025 0.015503723 1.0872551e-38
-0.017224573 -0.11532979 0.01851197 1.0598813e-38
-0.015432561 -0.11532979 0.01851197 2.028294e-38
-0.013595715 -0.1161025 0.015503723 2.1299616e-38
-0.011798429 -0.1161025 0.015503723 2.1579788e-38
-0.010001143 -0.1161025 0.015503723 1.9924551e-38
-0.0082038557 -0.1161025 0.015503723 1.9282416e-38
-0.0064065689 -0.1161025 0.015503723 1.9283153e-38
-0.0045376597 -0.11687975 0.012477834 1.8545955e-38
-0.0027350662 -0.11687975 0.012477834 1.8545955e-38
-0.00093247462 -0.11687975 0.012477834 1.8083556e-38
0.00087011699 -0.11687975 0.012477834 1.7804122e-38
0.0026727105 -0.11687975 0.012477834 1.8633899e-38
0.0045706192 -0.11763458 0.0095392056 1.7807739e-38
0.0063783647 -0.11763458 0.0095392056 1.6980498e-38
0.0081861103 -0.11763458 0.0095392056 1.5782317e-38
0.0099938558 -0.11763458 0.0095392056 1.5689386e-38
0.011922372 -0.11842094 0.0064777918 1.6976133e-38
0.013609343 -0.11763458 0.0095392056 1.6324991e-38
0.015417089 -0.11763458 0.0095392056 1.714612e-38
0.017361708 -0.11842094 0.0064777918 1.8615136e-38
0.019357525 -0.11943097 0.0025455542 1.8981393e-38
0.02117753 -0.11943097 0.0025455542 1.7322236e-38
0.022997539 -0.11943097 0.0025455542 1.6772316e-38
0.024972495 -0.12020047 -0.00045017526 1.6777714e-38
0.026797753 -0.12020047 -0.00045017526 1.5861503e-38
0.028789427 -0.12097444 -0.0034633093 1.6236041e-38
0.030619971 -0.12097444 -0.0034633093 1.5780828e-38
0.032450512 -0.12097444 -0.0034633093 1.237175e-38
0.034464374 -0.12175287 -0.0064938478 1.3016397e-38
0.036300227 -0.12175287 -0.0064938478 1.6057766e-38
0.038136087 -0.12175287 -0.0064938478 1.6148517e-38
0.03997194 -0.12175287 -0.0064938478 1.4765221e-38
0.041807793 -0.12175287 -0.0064938478 1.4119852e-38
0.043643653 -0.12175287 -0.0064938478 1.3659235e-38
0.045479506 -0.12175287 -0.0064938478 1.3658882e-38
0.047529221 -0.12250783 -0.0094329529 1.6148167e-38
0.049370229 -0.12250783 -0.0094329529 1.6331842e-38
0.051211238 -0.12250783 -0.0094329529 1.7620783e-38
0.053368598 -0.1235493 -0.013487499 1.7895568e-38
0.055216711 -0.1235493 -0.013487499 1.5772908e-38
0.057064828 -0.1235493 -0.013487499 1.6046971e-38
0.059410479 -0.12508373 -0.019461315 9.6811563e-39
0.061869066 -0.1268961 -0.026517075 1.2071409e-38
0.06374003 -0.1268961 -0.026517075 1.2621704e-38
0.06561099 -0.1268961 -0.026517075 1.3729121e-38
-0.094281092 -0.1171218 0.01851197 1.8900471e-38
-0.088905066 -0.1171218 0.01851197 2.3418045e-38
-0.087113053 -0.1171218 0.01851197 2.3509886e-38
-0.085321039 -0.1171218 0.01851197 2.3509524e-38
-0.083529025 -0.1171218 0.01851197 2.3509879e-38
-0.081737012 -0.1171218 0.01851197 2.2587913e-38
-0.079944998 -0.1171218 0.01851197 2.2128371e-38
-0.017224573 -0.1171218 0.01851197 1.0782486e-38
-0.015432561 -0.1171218 0.01851197 1.7423797e-38
-0.013595715 -0.11789979 0.015503723 2.0285096e-38
-0.011798429 -0.11789979 0.015503723 2.1302473e-38
-0.010001143 -0.11789979 0.015503723 1.9370307e-38
-0.0082038557 -0.11789979 0.015503723 1.8173922e-38
-0.0064065689 -0.11789979 0.015503723 1.8728189e-38
-0.0046092821 -0.11789979 0.015503723 1.9189178e-38
-0.0027350662 -0.11868234 0.012477834 2.0203336e-38
-0.00093247462 -0.11868234 0.012477834 2.0570345e-38
0.00087011699 -0.11868234 0.012477834 2.2132321e-38
0.0026727105 -0.11868234 0.012477834 2.2132339e-38
0.0044753002 -0.11868234 0.012477834 2.1856835e-38
0.0063783647 -0.11944233 0.0095392056 2.1673166e-38
0.0081861103 -0.11944233 0.0095392056 2.0019023e-38
0.0099938558 -0.11944233 0.0095392056 1.7252778e-38
0.011801598 -0.11944233 0.0095392056 1.6974008e-38
0.013609343 -0.11944233 0.0095392056 1.6602328e-38
0.015417089 -0.11944233 0.0095392056 1.8625225e-38
0.017224833 -0.11944233 0.0095392056 1.8714173e-38
0.019174822 -0.12023406 0.0064777918 1.9449929e-38
0.020987932 -0.12023406 0.0064777918 1.9081861e-38
0.022997539 -0.121251 0.0025455542 1.8992548e-38
0.024817545 -0.121251 0.0025455542 1.8904308e-38
0.026797753 -0.12202574 -0.00045017526 1.7340935e-38
0.028789427 -0.12280498 -0.0034633093 1.6883563e-38
0.030619971 -0.12280498 -0.0034633093 1.5872307e-38
0.032450512 -0.12280498 -0.0034633093 1.3660338e-38
0.034464374 -0.12358873 -0.0064938478 1.5410973e-38
0.036300227 -0.12358873 -0.0064938478 1.9466855e-38
0.038136087 -0.12358873 -0.0064938478 2.0295175e-38
0.03997194 -0.12358873 -0.0064938478 1.8358704e-38
0.041807793 -0.12358873 -0.0064938478 1.7344196e-38
0.043643653 -0.12358873 -0.0064938478 1.7344916e-38
0.045479506 -0.12358873 -0.0064938478 1.9372867e-38
0.047529221 -0.12434883 -0.0094329529 2.1030239e-38
0.049370229 -0.12434883 -0.0094329529 2.0754728e-38
0.051211238 -0.12434883 -0.0094329529 2.2315947e-38
0.053368598 -0.1253974 -0.013487499 2.1764916e-38
0.055216711 -0.1253974 -0.013487499 1.6325005e-38
0.057064828 -0.1253974 -0.013487499 1.5677472e-38
0.059410479 -0.12694232 -0.019461315 1.0510555e-38
0.061525237 -0.12772138 -0.022473734 1.2255798e-38
0.06374003 -0.12876706 -0.026517075 1.2622057e-38
0.06561099 -0.12876706 -0.026517075 1.3544728e-38
-0.094281092 -0.11891381 0.01851197 2.2956359e-38
-0.092489094 -0.11891381 0.01851197 2.350987e-38
-0.090697072 -0.11891381 0.01851197 2.3418033e-38
-0.088905066 -0.11891381 0.01851197 2.3509879e-38
-0.087113053 -0.11891381 0.01851197 2.2956709e-38
-0.085321039 -0.11891381 0.01851197 2.3509167e-38
-0.083529025 -0.11891381 0.01851197 2.3509524e-38
-0.081737012 -0.11891381 0.01851197 2.3509873e-38
-0.079944998 -0.11891381 0.01851197 2.3418035e-38
-0.078152984 -0.11891381 0.01851197 2.249788e-38
-0.076360971 -0.11891381 0.01851197 2.2774476e-38
-0.074568965 -0.11891381 0.01851197 2.2867037e-38
-0.072906174 -0.11969708 0.015503723 2.2221678e-38
-0.017190289 -0.11969708 0.015503723 1.3731664e-38
-0.015393002 -0.11969708 0.015503723 1.5025992e-38
-0.013595715 -0.11969708 0.015503723 1.8348619e-38
-0.011798429 -0.11969708 0.015503723 2.0380153e-38
-0.010001143 -0.11969708 0.015503723 1.8722791e-38
-0.0082038557 -0.11969708 0.015503723 1.734202e-38
-0.0064065689 -0.11969708 0.015503723 1.8817519e-38
-0.0046092821 -0.11969708 0.015503723 2.0384858e-38
-0.0027350662 -0.12048493 0.012477834 2.1948609e-38
-0.00093247462 -0.12048493 0.012477834 2.2591493e-38
0.00087011699 -0.12048493 0.012477834 2.2958873e-38
0.0026727105 -0.12048493 0.012477834 2.2958873e-38
0.0044753002 -0.12048493 0.012477834 2.2314948e-38
0.0063783647 -0.12125005 0.0095392056 2.2316024e-38
0.0081861103 -0.12125005 0.0095392056 2.213235e-38
0.0099938558 -0.12125005 0.0095392056 2.1213972e-38
0.011801598 -0.12125005 0.0095392056 1.9277133e-38
0.013488264 -0.12048493 0.012477834 1.6141386e-38
0.015290854 -0.12048493 0.012477834 1.6047007e-38
0.017224833 -0.12125005 0.0095392056 1.7152616e-38
0.019174822 -0.12204717 0.0064777918 1.8627732e-38
0.020987932 -0.12204717 0.0064777918 1.8260018e-38
0.022997539 -0.123071 0.0025455542 1.8354363e-38
0.024817545 -0.123071 0.0025455542 1.8908976e-38
0.026797753 -0.12385099 -0.00045017526 1.7343812e-38
0.028623011 -0.12385099 -0.00045017526 1.6423309e-38
0.030619971 -0.12463553 -0.0034633093 1.6147462e-38
0.032450512 -0.12463553 -0.0034633093 1.5041842e-38
0.034464374 -0.12542458 -0.0064938478 1.6792117e-38
0.036300227 -0.12542458 -0.0064938478 2.0017522e-38
0.038136087 -0.12542458 -0.0064938478 2.0846562e-38
0.03997194 -0.12542458 -0.0064938478 1.983169e-38
0.041807793 -0.12542458 -0.0064938478 1.9001572e-38
0.043643653 -0.12542458 -0.0064938478 1.8910102e-38
0.045479506 -0.12542458 -0.0064938478 2.0846213e-38
0.047529221 -0.12618984 -0.0094329529 2.2224127e-38
0.049370229 -0.12618984 -0.0094329529 2.1948612e-38
0.051520482 -0.12724553 -0.013487499 2.2407787e-38
0.053368598 -0.12724553 -0.013487499 2.1396492e-38
0.055216711 -0.12724553 -0.013487499 1.669199e-38
0.057064828 -0.12724553 -0.013487499 1.5677112e-38
0.059410479 -0.12880091 -0.019461315 1.1063726e-38
0.061525237 -0.12958528 -0.022473734 1.1702978e-38
0.06374003 -0.13063805 -0.026517075 1.2161794e-38
0.06561099 -0.13063805 -0.026517075 1.3085182e-38
-0.094281092 -0.12070583 0.01851197 2.3509886e-38
-0.092489094 -0.12070583 0.01851197 2.3233999e-38
-0.090697072 -0.12070583 0.01851197 2.350986e-38
-0.088905066 -0.12070583 0.01851197 2.3418033e-38
-0.087113053 -0.12070583 0.01851197 2.350988e-38
-0.085155867 -0.11992194 0.021502573 2.3509527e-38
-0.083369099 -0.11992194 0.021502573 2.2863797e-38
-0.081737012 -0.12070583 0.01851197 2.3509876e-38
-0.079944998 -0.12070583 0.01851197 2.3418038e-38
-0.078152984 -0.12070583 0.01851197 2.2497525e-38
-0.076360971 -0.12070583 0.01851197 2.3142544e-38
-0.074568965 -0.12070583 0.01851197 2.2958873e-38
-0.072776951 -0.12070583 0.01851197 2.2312796e-38
-0.070984937 -0.12070583 0.01851197 2.341805e-38
-0.015393002 -0.12149437 0.015503723 1.2812571e-38
-0.013595715 -0.12149437 0.015503723 1.6042644e-38
-0.011798429 -0.12149437 0.015503723 1.9548953e-38
-0.010001143 -0.12149437 0.015503723 1.8168904e-38
-0.0082038557 -0.12149437 0.015503723 1.7063644e-38
-0.0064065689 -0.12149437 0.015503723 1.9368548e-38
-0.0046092821 -0.12149437 0.015503723 2.1396866e-38
-0.0027350662 -0.12228753 0.012477834 2.2683317e-38
-0.00093247462 -0.12228753 0.012477834 2.295885e-38
0.00087011699 -0.12228753 0.012477834 2.2957796e-38
0.0026727105 -0.12228753 0.012477834 2.3416974e-38
0.0045706192 -0.1230578 0.0095392056 2.2957796e-38
0.0063783647 -0.1230578 0.0095392056 2.2406066e-38
0.0081861103 -0.1230578 0.0095392056 2.2683359e-38
0.0099938558 -0.1230578 0.0095392056 2.2591524e-38
0.011801598 -0.1230578 0.0095392056 2.2132345e-38
0.013488264 -0.12228753 0.012477834 1.7616901e-38
0.015290854 -0.12228753 0.012477834 1.7433198e-38
0.017224833 -0.1230578 0.0095392056 2.001645e-38
0.019174822 -0.12386028 0.0064777918 2.038594e-38
0.020987932 -0.12386028 0.0064777918 1.6975404e-38
0.022801045 -0.12386028 0.0064777918 1.6699522e-38
0.024817545 -0.124891 0.0025455542 1.9096608e-38
0.02663755 -0.124891 0.0025455542 1.8912231e-38
0.028623011 -0.12567626 -0.00045017526 1.8543462e-38
0.030619971 -0.12646608 -0.0034633093 1.8912619e-38
0.032450512 -0.12646608 -0.0034633093 1.8727872e-38
0.034464374 -0.12726043 -0.0064938478 1.9187771e-38
0.036300227 -0.12726043 -0.0064938478 2.0200841e-38
0.038136087 -0.12726043 -0.0064938478 2.0568903e-38
0.03997194 -0.12726043 -0.0064938478 1.9830622e-38
0.041807793 -0.12726043 -0.0064938478 1.9000504e-38
0.043847203 -0.12803085 -0.0094329529 1.8816479e-38
0.045688212 -0.12803085 -0.0094329529 1.9185264e-38
0.047529221 -0.12803085 -0.0094329529 2.1673111e-38
0.049370229 -0.12803085 -0.0094329529 2.0568549e-38
0.051520482 -0.12909363 -0.013487499 1.7249142e-38
0.053368598 -0.12909363 -0.013487499 1.7062942e-38
0.055216711 -0.12909363 -0.013487499 1.6323207e-38
0.057064828 -0.12909363 -0.013487499 1.567603e-38
0.059410479 -0.13065951 -0.019461315 1.0878612e-38
0.061525237 -0.13144915 -0.022473734 1.0873213e-38
0.06374003 -0.13250901 -0.026517075 1.188556e-38
0.06561099 -0.13250901 -0.026517075 1.3085177e-38
0.067747369 -0.13327946 -0.029456418 1.4192246e-38
0.069623485 -0.13327946 -0.029456418 1.4284091e-38
-0.096270904 -0.12329166 0.015503723 1.7793038e-38
-0.094281092 -0.12249784 0.01851197 2.2771953e-38
-0.092489094 -0.12249784 0.01851197 2.350986e-38
-0.090697072 -0.12249784 0.01851197 2.3509853e-38
-0.088905066 -0.12249784 0.01851197 2.3509862e-38
-0.087113053 -0.12249784 0.01851197 2.3417676e-38
-0.085155867 -0.12170871 0.021502573 2.3324775e-38
-0.083369099 -0.12170871 0.021502573 2.3509527e-38
-0.081737012 -0.12249784 0.01851197 2.3509879e-38
-0.079944998 -0.12249784 0.01851197 2.341804e-38
-0.078152984 -0.12249784 0.01851197 2.3234372e-38
-0.076360971 -0.12249784 0.01851197 2.2866674e-38
-0.074568965 -0.12249784 0.01851197 2.240499e-38
-0.072776951 -0.12249784 0.01851197 2.3142544e-38
-0.070984937 -0.12249784 0.01851197 2.341805e-38
-0.069192931 -0.12249784 0.01851197 2.0190829e-38
-0.015393002 -0.12329166 0.015503723 1.327354e-38
-0.013595715 -0.12329166 0.015503723 1.5211802e-38
-0.011798429 -0.12329166 0.015503723 1.9363844e-38
-0.010001143 -0.12329166 0.015503723 1.8443693e-38
-0.0082038557 -0.12329166 0.015503723 1.7246243e-38
-0.0064065689 -0.12329166 0.015503723 2.0103969e-38
-0.0045376597 -0.12409012 0.012477834 2.222413e-38
-0.0027350662 -0.12409012 0.012477834 2.3142514e-38
-0.00093247462 -0.12409012 0.012477834 2.314253e-38
0.00087011699 -0.12409012 0.012477834 2.2771967e-38
0.0026727105 -0.12409012 0.012477834 2.3509168e-38
0.0045706192 -0.12486555 0.0095392056 2.3509527e-38
0.0063783647 -0.12486555 0.0095392056 2.3417687e-38
0.0081861103 -0.12486555 0.0095392056 2.2498232e-38
0.0099938558 -0.12486555 0.0095392056 2.2958857e-38
0.011801598 -0.12486555 0.0095392056 2.2775202e-38
0.013488264 -0.12409012 0.012477834 2.0382071e-38
0.015290854 -0.12409012 0.012477834 1.891086e-38
0.017224833 -0.12486555 0.0095392056 2.1122105e-38
0.019174822 -0.1256734 0.0064777918 1.9928219e-38
0.020987932 -0.1256734 0.0064777918 1.5595369e-38
0.022801045 -0.1256734 0.0064777918 1.6055969e-38
0.024817545 -0.126711 0.0025455542 1.863601e-38
0.02663755 -0.126711 0.0025455542 1.8356931e-38
0.028623011 -0.1275015 -0.00045017526 1.8633167e-38
0.030619971 -0.1282966 -0.0034633093 2.0203003e-38
0.032450512 -0.1282966 -0.0034633093 2.0571067e-38
0.034464374 -0.12909628 -0.0064938478 2.0846574e-38
0.036300227 -0.12909628 -0.0064938478 2.1122083e-38
0.038136087 -0.12909628 -0.0064938478 2.1305755e-38
0.03997194 -0.12909628 -0.0064938478 2.0475637e-38
0.041807793 -0.12909628 -0.0064938478 1.9461132e-38
0.043847203 -0.12987186 -0.0094329529 1.9277463e-38
0.045688212 -0.12987186 -0.0094329529 2.1489442e-38
0.047529221 -0.12987186 -0.0094329529 2.2315975e-38
0.049370229 -0.12987186 -0.0094329529 2.1581272e-38
0.051520482 -0.13094176 -0.013487499 1.5220838e-38
0.053368598 -0.13094176 -0.013487499 1.5034638e-38
0.055216711 -0.13094176 -0.013487499 1.6416479e-38
0.057064828 -0.13094176 -0.013487499 1.5032094e-38
0.059161004 -0.13172771 -0.016465943 1.06031e-38
0.061525237 -0.13331302 -0.022473734 1.124163e-38
0.06374003 -0.13437997 -0.026517075 1.2622759e-38
0.06561099 -0.13437997 -0.026517075 1.3637629e-38
0.067747369 -0.13515557 -0.029456418 1.400785e-38
0.069623485 -0.13515557 -0.029456418 1.3915306e-38
-0.096270904 -0.12508895 0.015503723 1.8254368e-38
-0.094473615 -0.12508895 0.015503723 1.5581045e-38
-0.092676327 -0.12508895 0.015503723 1.9638709e-38
-0.090697072 -0.12428986 0.01851197 2.2220538e-38
-0.088905066 -0.12428986 0.01851197 2.3234341e-38
-0.087113053 -0.12428986 0.01851197 2.3509866e-38
-0.085321039 -0.12428986 0.01851197 2.3416971e-38
-0.083529025 -0.12428986 0.01851197 2.3509527e-38
-0.081737012 -0.12428986 0.01851197 2.3141816e-38
-0.079944998 -0.12428986 0.01851197 2.2589e-38
-0.078152984 -0.12428986 0.01851197 2.3234374e-38
-0.076222017 -0.12349547 0.021502573 2.3142544e-38
-0.074435249 -0.12349547 0.021502573 2.2865961e-38
-0.072648481 -0.12349547 0.021502573 2.3234379e-38
-0.07086172 -0.12349547 0.021502573 2.3417691e-38
-0.069074951 -0.12349547 0.021502573 2.350987e-38
-0.067400917 -0.12428986 0.01851197 2.0004246e-38
-0.015393002 -0.12508895 0.015503723 1.1982435e-38
-0.013595715 -0.12508895 0.015503723 1.5580589e-38
-0.011798429 -0.12508895 0.015503723 2.0100336e-38
-0.010001143 -0.12508895 0.015503723 1.8904308e-38
-0.0082038557 -0.12508895 0.015503723 1.7521751e-38
-0.0064065689 -0.12508895 0.015503723 2.0379489e-38
-0.0046092821 -0.12508895 0.015503723 2.2866999e-38
-0.0028119953 -0.12508895 0.015503723 2.323436e-38
-0.00093247462 -0.12589271 0.012477834 2.341804e-38
0.00087011699 -0.12589271 0.012477834 2.350988e-38
0.0026727105 -0.12589271 0.012477834 2.3232936e-38
0.0045706192 -0.1266733 0.0095392056 2.304782e-38
0.0063783647 -0.1266733 0.0095392056 2.3509869e-38
0.0081861103 -0.1266733 0.0095392056 2.3509853e-38
0.0099938558 -0.1266733 0.0095392056 2.3234354e-38
0.011801598 -0.1266733 0.0095392056 2.2867037e-38
0.013609343 -0.1266733 0.0095392056 2.1395869e-38
0.015417089 -0.1266733 0.0095392056 1.9187812e-38
0.017224833 -0.1266733 0.0095392056 2.038742e-38
0.019174822 -0.12748651 0.0064777918 1.9191747e-38
0.020987932 -0.12748651 0.0064777918 1.7531851e-38
0.022801045 -0.12748651 0.0064777918 1.9835643e-38
0.024817545 -0.12853102 0.0025455542 2.0662891e-38
0.02663755 -0.12853102 0.0025455542 1.8262237e-38
0.028623011 -0.12932678 -0.00045017526 1.8354438e-38
0.030448273 -0.12932678 -0.00045017526 1.7252387e-38
0.032450512 -0.13012715 -0.0034633093 1.8175414e-38
0.034464374 -0.13093217 -0.0064938478 1.9464714e-38
0.036300227 -0.13093217 -0.0064938478 2.0754015e-38
0.038136087 -0.13093217 -0.0064938478 2.1581266e-38
0.03997194 -0.13093217 -0.0064938478 2.0660747e-38
0.041807793 -0.13093217 -0.0064938478 1.9646242e-38
0.043847203 -0.13171287 -0.0094329529 1.9738083e-38
0.045688212 -0.13171287 -0.0094329529 2.1213934e-38
0.047529221 -0.13171287 -0.0094329529 2.1948628e-38
0.049370229 -0.13171287 -0.0094329529 2.066147e-38
0.051520482 -0.13278987 -0.013487499 1.4575469e-38
0.053368598 -0.13278987 -0.013487499 1.5127549e-38
0.055216711 -0.13278987 -0.013487499 1.7338791e-38
0.057064828 -0.13278987 -0.013487499 1.549307e-38
0.058912959 -0.13278987 -0.013487499 1.2447369e-38
0.061014351 -0.13358103 -0.016465943 1.2256138e-38
0.06374003 -0.13625093 -0.026517075 1.3728385e-38
0.06561099 -0.13625093 -0.026517075 1.4006764e-38
0.067747369 -0.13703169 -0.029456418 1.37309e-38
0.069623485 -0.13703169 -0.029456418 1.3638356e-38
-0.098470822 -0.12848105 0.0095392056 1.5305528e-38
-0.096270904 -0.12688623 0.015503723 1.6779945e-38
-0.094473615 -0.12688623 0.015503723 1.4475405e-38
-0.092676327 -0.12688623 0.015503723 1.3369755e-38
-0.090697072 -0.12608187 0.01851197 2.1760268e-38
-0.088905066 -0.12608187 0.01851197 2.3509841e-38
-0.086942635 -0.12528224 0.021502573 2.3509859e-38
-0.085155867 -0.12528224 0.021502573 2.3509883e-38
-0.083369099 -0.12528224 0.021502573 2.3509527e-38
-0.08158233 -0.12528224 0.021502573 2.3418047e-38
-0.079795562 -0.12528224 0.021502573 2.3418043e-38
-0.078008786 -0.12528224 0.021502573 2.3234374e-38
-0.076222017 -0.12528224 0.021502573 2.3234379e-38
-0.074302331 -0.1244873 0.024475653 2.3234379e-38
-0.07252077 -0.1244873 0.024475653 2.3417691e-38
-0.07086172 -0.12528224 0.021502573 2.3509527e-38
-0.069074951 -0.12528224 0.021502573 2.3231841e-38
-0.067176104 -0.1244873 0.024475653 1.8897898e-38
-0.065284654 -0.12366976 0.027533133 1.6314956e-38
-0.063508458 -0.12366976 0.027533133 1.6866316e-38
-0.015393002 -0.12688623 0.015503723 1.2166454e-38
-0.013640548 -0.12608187 0.01851197 1.530293e-38
-0.011848536 -0.12608187 0.01851197 1.9270223e-38
-0.010056525 -0.12608187 0.01851197 1.7613566e-38
-0.0082645109 -0.12608187 0.01851197 1.807528e-38
-0.0064724991 -0.12608187 0.01851197 2.1853188e-38
-0.0046804873 -0.12608187 0.01851197 2.3418028e-38
-0.0028119953 -0.12688623 0.015503723 2.341804e-38
-0.0010147085 -0.12688623 0.015503723 2.3233648e-38
0.00087011699 -0.12769531 0.012477834 2.3418033e-38
0.0026727105 -0.12769531 0.012477834 2.3509866e-38
0.0044753002 -0.12769531 0.012477834 2.3509862e-38
0.0063783647 -0.12848105 0.0095392056 2.3509853e-38
0.0081861103 -0.12848105 0.0095392056 2.3509841e-38
0.0099938558 -0.12848105 0.0095392056 2.295847e-38
0.011801598 -0.12848105 0.0095392056 2.2591166e-38
0.013609343 -0.12848105 0.0095392056 2.1948318e-38
0.015417089 -0.12848105 0.0095392056 1.8542441e-38
0.017224833 -0.12848105 0.0095392056 1.8268714e-38
0.019174822 -0.1292996 0.0064777918 1.9468336e-38
0.020987932 -0.1292996 0.0064777918 2.0479248e-38
0.022801045 -0.1292996 0.0064777918 2.0387388e-38
0.024817545 -0.13035102 0.0025455542 2.1213918e-38
0.02663755 -0.13035102 0.0025455542 2.1854284e-38
0.028623011 -0.13115202 -0.00045017526 2.0104006e-38
0.030448273 -0.13115202 -0.00045017526 1.7805917e-38
0.032273531 -0.13115202 -0.00045017526 1.891441e-38
0.034464374 -0.13276802 -0.0064938478 1.9834927e-38
0.036300227 -0.13276802 -0.0064938478 2.0017882e-38
0.038136087 -0.13276802 -0.0064938478 2.0385232e-38
0.03997194 -0.13276802 -0.0064938478 1.9832063e-38
0.042006195 -0.13355388 -0.0094329529 1.918634e-38
0.043847203 -0.13355388 -0.0094329529 1.9278902e-38
0.045688212 -0.13355388 -0.0094329529 2.1030261e-38
0.047529221 -0.13355388 -0.0094329529 2.2040466e-38
0.049370229 -0.13355388 -0.0094329529 2.0569994e-38
0.051520482 -0.134638 -0.013487499 1.8817186e-38
0.053368598 -0.134638 -0.013487499 1.6971818e-38
0.055216711 -0.134638 -0.013487499 1.6786334e-38
0.057064828 -0.134638 -0.013487499 1.6323546e-38
0.058912959 -0.134638 -0.013487499 1.1894192e-38
0.060761075 -0.134638 -0.013487499 1.2532003e-38
0.062609196 -0.134638 -0.013487499 1.3451077e-38
0.06561099 -0.13812189 -0.026517075 1.3729456e-38
0.06748195 -0.13812189 -0.026517075 1.409896e-38
-0.10049058 -0.13111271 0.0064777918 8.3912078e-39
-0.098470822 -0.13028879 0.0095392056 1.5859057e-38
-0.096270904 -0.12868352 0.015503723 1.6042375e-38
-0.094473615 -0.12868352 0.015503723 1.6319669e-38
-0.092676327 -0.12868352 0.015503723 1.4937788e-38
-0.090697072 -0.12787388 0.01851197 1.9455726e-38
-0.088905066 -0.12787388 0.01851197 2.2958808e-38
-0.086942635 -0.12706901 0.021502573 2.3509851e-38
-0.084991664 -0.12626885 0.024475653 2.3509883e-38
-0.083210111 -0.12626885 0.024475653 2.341805e-38
-0.08142855 -0.12626885 0.024475653 2.3418047e-38
-0.079795562 -0.12706901 0.021502573 2.3418043e-38
-0.078008786 -0.12706901 0.021502573 2.3234374e-38
-0.076083884 -0.12626885 0.024475653 2.3234379e-38
-0.074302331 -0.12626885 0.024475653 2.3234379e-38
-0.07252077 -0.12626885 0.024475653 2.341805e-38
-0.070739217 -0.12626885 0.024475653 2.3509527e-38
-0.069074951 -0.12706901 0.021502573 2.3508786e-38
-0.067176104 -0.12626885 0.024475653 1.7606078e-38
-0.065284654 -0.12544595 0.027533133 1.2073236e-38
-0.063508458 -0.12544595 0.027533133 1.2624955e-38
-0.015393002 -0.12868352 0.015503723 1.2443036e-38
-0.013640548 -0.12787388 0.01851197 1.4934152e-38
-0.011848536 -0.12787388 0.01851197 1.9177675e-38
-0.010056525 -0.12787388 0.01851197 1.8258214e-38
-0.0082645109 -0.12787388 0.01851197 1.8996515e-38
-0.0064724991 -0.12787388 0.01851197 2.2498563e-38
-0.0046804873 -0.12787388 0.01851197 2.3418035e-38
-0.0028884755 -0.12787388 0.01851197 2.3509879e-38
-0.0010147085 -0.12868352 0.015503723 2.3141452e-38
0.00078257825 -0.12868352 0.015503723 2.2404595e-38
0.0026727105 -0.1294979 0.012477834 2.3509859e-38
0.0044753002 -0.1294979 0.012477834 2.3324745e-38
0.0062778937 -0.1294979 0.012477834 2.2956312e-38
0.0080804871 -0.1294979 0.012477834 2.3233245e-38
0.0099938558 -0.13028879 0.0095392056 2.3509846e-38
0.011801598 -0.13028879 0.0095392056 2.2867023e-38
0.013609343 -0.13028879 0.0095392056 1.9920003e-38
0.015417089 -0.13028879 0.0095392056 1.7988178e-38
0.017361708 -0.13111271 0.0064777918 1.7530423e-38
0.019174822 -0.13111271 0.0064777918 1.8729326e-38
0.020987932 -0.13111271 0.0064777918 2.0111174e-38
0.022801045 -0.13111271 0.0064777918 2.0109362e-38
0.024817545 -0.13217102 0.0025455542 2.0382717e-38
0.02663755 -0.13217102 0.0025455542 2.2221621e-38
0.02845756 -0.13217102 0.0025455542 2.2958835e-38
0.030448273 -0.13297729 -0.00045017526 2.038739e-38
0.032273531 -0.13297729 -0.00045017526 2.0020034e-38
0.034281053 -0.13378824 -0.0034633093 1.9282467e-38
0.036300227 -0.13460387 -0.0064938478 1.845199e-38
0.038136087 -0.13460387 -0.0064938478 1.9279957e-38
0.040165186 -0.13539489 -0.0094329529 2.020156e-38
0.042006195 -0.13539489 -0.0094329529 2.0754379e-38
0.043847203 -0.13539489 -0.0094329529 2.1305765e-38
0.045688212 -0.13539489 -0.0094329529 2.158128e-38
0.047529221 -0.13539489 -0.0094329529 2.1489443e-38
0.049370229 -0.13539489 -0.0094329529 2.0016817e-38
0.051520482 -0.13648613 -0.013487499 1.9278162e-38
0.053368598 -0.13648613 -0.013487499 1.8078166e-38
0.055216711 -0.13648613 -0.013487499 1.7338789e-38
0.057064828 -0.13648613 -0.013487499 1.5954764e-38
0.058912959 -0.13648613 -0.013487499 1.1893113e-38
0.060761075 -0.13648613 -0.013487499 1.2900065e-38
0.062609196 -0.13648613 -0.013487499 1.3542912e-38
0.06561099 -0.13999285 -0.026517075 1.3820212e-38
0.06748195 -0.13999285 -0.026517075 1.3821651e-38
-0.1023037 -0.13292582 0.0064777918 9.4975582e-39
-0.10049058 -0.13292582 0.0064777918 8.6677919e-39
-0.098470822 -0.13209651 0.0095392056 1.650442e-38
-0.096270904 -0.13048081 0.015503723 1.5213687e-38
-0.094473615 -0.13048081 0.015503723 1.8072099e-38
-0.092676327 -0.13048081 0.015503723 1.687461e-38
-0.090697072 -0.1296659 0.01851197 1.669057e-38
-0.088905066 -0.1296659 0.01851197 2.13e-38
-0.086942635 -0.12885578 0.021502573 2.3509846e-38
-0.084991664 -0.1280504 0.024475653 2.3509883e-38
-0.083210111 -0.1280504 0.024475653 2.3417691e-38
-0.08142855 -0.1280504 0.024475653 2.3418047e-38
-0.079795562 -0.12885578 0.021502573 2.3234372e-38
-0.078008786 -0.12885578 0.021502573 2.3234372e-38
-0.076083884 -0.1280504 0.024475653 2.3234376e-38
-0.074302331 -0.1280504 0.024475653 2.341805e-38
-0.072389431 -0.12722217 0.027533133 2.3509527e-38
-0.070613235 -0.12722217 0.027533133 2.3509164e-38
-0.068837047 -0.12722217 0.027533133 2.3509863e-38
-0.067176104 -0.1280504 0.024475653 1.8159606e-38
-0.065284654 -0.12722217 0.027533133 1.0321516e-38
-0.063508458 -0.12722217 0.027533133 1.0965431e-38
-0.049863134 -0.13480256 -0.00045017526 1.2527715e-38
-0.048037875 -0.13480256 -0.00045017526 1.2251125e-38
-0.017190289 -0.13048081 0.015503723 1.0781356e-38
-0.015393002 -0.13048081 0.015503723 1.2351196e-38
-0.013640548 -0.1296659 0.01851197 1.4657209e-38
-0.011848536 -0.1296659 0.01851197 1.8992929e-38
-0.010056525 -0.1296659 0.01851197 1.8442605e-38
-0.0082645109 -0.1296659 0.01851197 1.9734436e-38
-0.0064724991 -0.1296659 0.01851197 2.3142497e-38
-0.0046804873 -0.1296659 0.01851197 2.3418035e-38
-0.0028884755 -0.1296659 0.01851197 2.3509879e-38
-0.0010147085 -0.13048081 0.015503723 2.3141092e-38
0.00078257825 -0.13048081 0.015503723 2.2496434e-38
0.002579865 -0.13048081 0.015503723 2.3141438e-38
0.0044753002 -0.13130049 0.012477834 2.3232913e-38
0.0062778937 -0.13130049 0.012477834 2.3141069e-38
0.0080804871 -0.13130049 0.012477834 2.2864831e-38
0.0099938558 -0.13209651 0.0095392056 2.3509848e-38
0.011801598 -0.13209651 0.0095392056 2.3234357e-38
0.013609343 -0.13209651 0.0095392056 1.9734872e-38
0.015417089 -0.13209651 0.0095392056 1.8356228e-38
0.017361708 -0.13292582 0.0064777918 1.8542403e-38
0.019174822 -0.13292582 0.0064777918 1.955691e-38
0.020987932 -0.13292582 0.0064777918 2.04785e-38
0.022997539 -0.13399105 0.0025455542 1.964693e-38
0.024817545 -0.13399105 0.0025455542 1.7616115e-38
0.02663755 -0.13399105 0.0025455542 1.8719244e-38
0.02845756 -0.13399105 0.0025455542 2.1395436e-38
0.030448273 -0.13480256 -0.00045017526 2.1122077e-38
0.032273531 -0.13480256 -0.00045017526 1.9193501e-38
0.034281053 -0.13561879 -0.0034633093 1.7163398e-38
0.036300227 -0.13643973 -0.0064938478 1.6701344e-38
0.038136087 -0.13643973 -0.0064938478 1.9373223e-38
0.040165186 -0.13723589 -0.0094329529 2.1489422e-38
0.042006195 -0.13723589 -0.0094329529 2.1030242e-38
0.043847203 -0.13723589 -0.0094329529 2.0017172e-38
0.045688212 -0.13723589 -0.0094329529 1.7897036e-38
0.047824241 -0.13833423 -0.013487499 1.6698493e-38
0.049672365 -0.13833423 -0.013487499 1.5591424e-38
0.051520482 -0.13833423 -0.013487499 1.6420097e-38
0.053368598 -0.13833423 -0.013487499 1.6879266e-38
0.055216711 -0.13833423 -0.013487499 1.6416479e-38
0.057064828 -0.13833423 -0.013487499 1.5308681e-38
0.058912959 -0.13833423 -0.013487499 1.2998747e-38
0.060761075 -0.13833423 -0.013487499 1.3452523e-38
-0.1023037 -0.13473894 0.0064777918 1.0603906e-38
-0.10049058 -0.13473894 0.0064777918 9.7741395e-39
-0.098470822 -0.13390426 0.0095392056 1.6412225e-38
-0.096270904 -0.1322781 0.015503723 1.5213687e-38
-0.094473615 -0.1322781 0.015503723 1.8533077e-38
-0.092676327 -0.1322781 0.015503723 1.7981315e-38
-0.090697072 -0.13145791 0.01851197 1.5861526e-38
-0.088905066 -0.13145791 0.01851197 1.954864e-38
-0.086773217 -0.12983195 0.024475653 2.305066e-38
-0.084991664 -0.12983195 0.024475653 2.3418047e-38
-0.083210111 -0.12983195 0.024475653 2.3417691e-38
-0.08142855 -0.12983195 0.024475653 2.3234376e-38
-0.07964699 -0.12983195 0.024475653 2.3234372e-38
-0.077865437 -0.12983195 0.024475653 2.3234372e-38
-0.076083884 -0.12983195 0.024475653 2.3234374e-38
-0.074165627 -0.12899835 0.027533133 2.3509527e-38
-0.072389431 -0.12899835 0.027533133 2.3509527e-38
-0.070613235 -0.12899835 0.027533133 2.3324407e-38
-0.068837047 -0.12899835 0.027533133 2.350986e-38
-0.067176104 -0.12983195 0.024475653 1.90812e-38
-0.065284654 -0.12899835 0.027533133 1.078213e-38
-0.063508458 -0.12899835 0.027533133 1.1425686e-38
-0.061732266 -0.12899835 0.027533133 1.1793384e-38
-0.057164174 -0.13662781 -0.00045017526 1.2251833e-38
-0.055338915 -0.13662781 -0.00045017526 1.2067086e-38
-0.053584974 -0.13744931 -0.0034633093 1.2158579e-38
-0.051754434 -0.13744931 -0.0034633093 1.2435169e-38
-0.049863134 -0.13662781 -0.00045017526 1.2435522e-38
-0.048037875 -0.13662781 -0.00045017526 1.1974538e-38
-0.017190289 -0.1322781 0.015503723 1.0320381e-38
-0.015393002 -0.1322781 0.015503723 1.1982058e-38
-0.013640548 -0.13145791 0.01851197 1.4565014e-38
-0.011848536 -0.13145791 0.01851197 1.8624504e-38
-0.010056525 -0.13145791 0.01851197 1.7798315e-38
-0.0082645109 -0.13145791 0.01851197 1.9550405e-38
-0.0064724991 -0.13145791 0.01851197 2.3326168e-38
-0.0046804873 -0.13145791 0.01851197 2.3418033e-38
-0.0028884755 -0.13145791 0.01851197 2.3509873e-38
-0.0010147085 -0.1322781 0.015503723 2.3141089e-38
0.00078257825 -0.1322781 0.015503723 2.3509872e-38
0.002579865 -0.1322781 0.015503723 2.3048891e-38
0.0044753002 -0.13310309 0.012477834 2.3233639e-38
0.0062778937 -0.13310309 0.012477834 2.3509863e-38
0.0080804871 -0.13310309 0.012477834 2.2865925e-38
0.0099938558 -0.13390426 0.0095392056 2.3142504e-38
0.011801598 -0.13390426 0.0095392056 2.3142509e-38
0.013735485 -0.13473894 0.0064777918 2.0381298e-38
0.015548595 -0.13473894 0.0064777918 2.0291601e-38
0.017361708 -0.13473894 0.0064777918 2.1489415e-38
0.019357525 -0.13581105 0.0025455542 2.213227e-38
0.02117753 -0.13581105 0.0025455542 2.2132266e-38
0.022997539 -0.13581105 0.0025455542 2.0292651e-38
0.024817545 -0.13581105 0.0025455542 1.6510836e-38
0.02663755 -0.13581105 0.0025455542 1.5588167e-38
0.02845756 -0.13581105 0.0025455542 1.7895216e-38
0.030448273 -0.13662781 -0.00045017526 1.6425833e-38
0.032273531 -0.13662781 -0.00045017526 1.5045054e-38
0.034281053 -0.13744931 -0.0034633093 1.347557e-38
0.036300227 -0.13827558 -0.0064938478 1.3658882e-38
0.038324177 -0.1390769 -0.0094329529 1.660735e-38
0.040165186 -0.1390769 -0.0094329529 1.835835e-38
0.042006195 -0.1390769 -0.0094329529 1.7250933e-38
0.043847203 -0.1390769 -0.0094329529 1.549922e-38
0.045688212 -0.1390769 -0.0094329529 1.5775815e-38
0.047824241 -0.14018236 -0.013487499 1.3747151e-38
0.049672365 -0.14018236 -0.013487499 1.2547529e-38
0.051520482 -0.14018236 -0.013487499 1.3191455e-38
0.053368598 -0.14018236 -0.013487499 1.3374037e-38
0.055216711 -0.14018236 -0.013487499 1.2358079e-38
0.057064828 -0.14018236 -0.013487499 1.1803098e-38
0.058912959 -0.14018236 -0.013487499 1.1982802e-38
0.060761075 -0.14018236 -0.013487499 1.4188293e-38
-0.10049058 -0.13655205 0.0064777918 1.0696099e-38
-0.098470822 -0.13571201 0.0095392056 1.4937098e-38
-0.096469849 -0.13490568 0.012477834 1.5306244e-38
-0.094473615 -0.13407536 0.015503723 1.7335256e-38
-0.092676327 -0.13407536 0.015503723 1.7797285e-38
-0.090697072 -0.13324992 0.01851197 1.6507974e-38
-0.088905066 -0.13324992 0.01851197 1.8350457e-38
-0.086773217 -0.13161351 0.024475653 2.2775153e-38
-0.084991664 -0.13161351 0.024475653 2.3234376e-38
-0.083210111 -0.13161351 0.024475653 2.3234379e-38
-0.08142855 -0.13161351 0.024475653 2.3234376e-38
-0.07964699 -0.13161351 0.024475653 2.3234372e-38
-0.077865437 -0.13161351 0.024475653 2.3234369e-38
-0.076083884 -0.13161351 0.024475653 2.3234374e-38
-0.074165627 -0.13077454 0.027533133 2.3509886e-38
-0.072389431 -0.13077454 0.027533133 2.3509527e-38
-0.070613235 -0.13077454 0.027533133 2.3508437e-38
-0.068837047 -0.13077454 0.027533133 2.3508054e-38
-0.067176104 -0.13161351 0.024475653 1.7974846e-38
-0.065284654 -0.13077454 0.027533133 1.0229312e-38
-0.063508458 -0.13077454 0.027533133 1.0688118e-38
-0.061732266 -0.13077454 0.027533133 1.1056173e-38
-0.06023287 -0.13324992 0.01851197 1.1330967e-38
-0.058527883 -0.13407536 0.015503723 1.2436593e-38
-0.057164174 -0.13845308 -0.00045017526 1.1883049e-38
-0.055338915 -0.13845308 -0.00045017526 1.1790499e-38
-0.053513654 -0.13845308 -0.00045017526 1.2066032e-38
-0.051688392 -0.13845308 -0.00045017526 1.2619211e-38
-0.049863134 -0.13845308 -0.00045017526 1.2896144e-38
-0.048037875 -0.13845308 -0.00045017526 1.2620265e-38
-0.017190289 -0.13407536 0.015503723 1.0412225e-38
-0.015432561 -0.13324992 0.01851197 1.1981706e-38
-0.013685118 -0.13242932 0.021502573 1.4657925e-38
-0.011898349 -0.13242932 0.021502573 1.8347911e-38
-0.010056525 -0.13324992 0.01851197 1.7152588e-38
-0.0082645109 -0.13324992 0.01851197 1.8628451e-38
-0.0064724991 -0.13324992 0.01851197 2.2683303e-38
-0.0046804873 -0.13324992 0.01851197 2.3418023e-38
-0.0028884755 -0.13324992 0.01851197 2.3509866e-38
-0.0010964619 -0.13324992 0.01851197 2.3233282e-38
0.00069554988 -0.13324992 0.01851197 2.3509518e-38
0.002579865 -0.13407536 0.015503723 2.3140737e-38
0.0043771537 -0.13407536 0.015503723 2.3049259e-38
0.0062778937 -0.13490568 0.012477834 2.341804e-38
0.0080804871 -0.13490568 0.012477834 2.2958853e-38
0.0099938558 -0.13571201 0.0095392056 2.3142514e-38
0.011801598 -0.13571201 0.0095392056 2.2958824e-38
0.013735485 -0.13655205 0.0064777918 1.8538439e-38
0.015548595 -0.13655205 0.0064777918 1.9277072e-38
0.017537519 -0.13763104 0.0025455542 2.0752551e-38
0.019357525 -0.13763104 0.0025455542 2.093837e-38
0.02117753 -0.13763104 0.0025455542 2.0109325e-38
0.022997539 -0.13763104 0.0025455542 1.8634201e-38
0.024817545 -0.13763104 0.0025455542 1.568502e-38
0.02663755 -0.13763104 0.0025455542 1.4394278e-38
0.02845756 -0.13763104 0.0025455542 1.5593903e-38
0.030448273 -0.13845308 -0.00045017526 1.4674826e-38
0.032273531 -0.13845308 -0.00045017526 1.4675548e-38
0.034281053 -0.13927986 -0.0034633093 1.4396803e-38
0.036300227 -0.14011143 -0.0064938478 1.448828e-38
0.038136087 -0.14011143 -0.0064938478 1.6146006e-38
0.040165186 -0.14091791 -0.0094329529 1.6790662e-38
0.042006195 -0.14091791 -0.0094329529 1.5959471e-38
0.043847203 -0.14091791 -0.0094329529 1.5129356e-38
0.045688212 -0.14091791 -0.0094329529 1.4760223e-38
0.047824241 -0.14203046 -0.013487499 1.3284375e-38
0.049672365 -0.14203046 -0.013487499 1.2638286e-38
0.051520482 -0.14203046 -0.013487499 1.2636846e-38
0.053368598 -0.14203046 -0.013487499 1.2449571e-38
0.055216711 -0.14203046 -0.013487499 1.1341418e-38
0.057064828 -0.14203046 -0.013487499 1.1524004e-38
0.058912959 -0.14203046 -0.013487499 1.4101154e-38
0.060761075 -0.14203046 -0.013487499 1.4739674e-38
-0.10049058 -0.13836516 0.0064777918 1.0695744e-38
-0.098470822 -0.13751976 0.0095392056 1.2724767e-38
-0.096469849 -0.13670824 0.012477834 1.5214052e-38
-0.094473615 -0.13587265 0.015503723 1.5953045e-38
-0.092676327 -0.13587265 0.015503723 1.6691661e-38
-0.090697072 -0.13504194 0.01851197 1.6876759e-38
-0.08855477 -0.13339506 0.024475653 1.7706167e-38
-0.086773217 -0.13339506 0.024475653 2.3050666e-38
-0.084822804 -0.13255073 0.027533133 2.3234376e-38
-0.0830466 -0.13255073 0.027533133 2.3234379e-38
-0.081270412 -0.13255073 0.027533133 2.3234376e-38
-0.07964699 -0.13339506 0.024475653 2.3234369e-38
-0.077865437 -0.13339506 0.024475653 2.3234369e-38
-0.076083884 -0.13339506 0.024475653 2.3418043e-38
-0.074302331 -0.13339506 0.024475653 2.3509886e-38
-0.07252077 -0.13339506 0.024475653 2.3509883e-38
-0.070739217 -0.13339506 0.024475653 2.3509153e-38
-0.068957664 -0.13339506 0.024475653 2.1755255e-38
-0.067176104 -0.13339506 0.024475653 1.7236558e-38
-0.065284654 -0.13255073 0.027533133 1.0598092e-38
-0.063508458 -0.13255073 0.027533133 1.0872865e-38
-0.061831441 -0.13339506 0.024475653 1.1148366e-38
-0.06023287 -0.13504194 0.01851197 1.123877e-38
-0.058527883 -0.13587265 0.015503723 1.2252198e-38
-0.056812834 -0.13670824 0.012477834 1.19756e-38
-0.055162784 -0.13836516 0.0064777918 1.1790499e-38
-0.053513654 -0.14027832 -0.00045017526 1.1973842e-38
-0.051688392 -0.14027832 -0.00045017526 1.2434465e-38
-0.049802732 -0.13945107 0.0025455542 1.2711756e-38
-0.047982726 -0.13945107 0.0025455542 1.2528066e-38
-0.019016586 -0.13504194 0.01851197 1.1882711e-38
-0.017258655 -0.13421609 0.021502573 1.0964691e-38
-0.015471887 -0.13421609 0.021502573 1.2259021e-38
-0.013685118 -0.13421609 0.021502573 1.4842671e-38
-0.011898349 -0.13421609 0.021502573 1.8441539e-38
-0.010056525 -0.13504194 0.01851197 1.6784527e-38
-0.0083248122 -0.13421609 0.021502573 1.7338435e-38
-0.0065380437 -0.13421609 0.021502573 2.1301442e-38
-0.0047512753 -0.13421609 0.021502573 2.2866994e-38
-0.002964505 -0.13421609 0.021502573 2.3418023e-38
-0.0011777366 -0.13421609 0.021502573 2.3326195e-38
0.00069554988 -0.13504194 0.01851197 2.3416603e-38
0.002579865 -0.13587265 0.015503723 2.3509524e-38
0.0043771537 -0.13587265 0.015503723 2.3233296e-38
0.0061744386 -0.13587265 0.015503723 2.3050703e-38
0.0080804871 -0.13670824 0.012477834 2.2958867e-38
0.0099938558 -0.13751976 0.0095392056 2.2867012e-38
0.011801598 -0.13751976 0.0095392056 2.1580897e-38
0.013735485 -0.13836516 0.0064777918 1.5681075e-38
0.015548595 -0.13836516 0.0064777918 1.7156561e-38
0.017537519 -0.13945107 0.0025455542 1.7525695e-38
0.019357525 -0.13945107 0.0025455542 1.6789195e-38
0.02117753 -0.13945107 0.0025455542 1.5500254e-38
0.022997539 -0.13945107 0.0025455542 1.4855975e-38
