# .PCD v0.7 - Point Cloud Data file format
VERSION 0.7
FIELDS x y z rgb
SIZE 4 4 4 4
TYPE F F F F
COUNT 1 1 1 1
WIDTH 925
HEIGHT 1
VIEWPOINT 0 0 0 1 0 0 0
POINTS 925
DATA ascii
0.018853776 -0.093979403 -0.017116766 2.3325138e-38
0.020701893 -0.093979403 -0.017116766 2.323436e-38
0.02234789 -0.091685757 -0.0070925765 2.3418023e-38
0.024178432 -0.091685757 -0.0070925765 2.3418031e-38
0.026080707 -0.092379183 -0.010123115 2.3418035e-38
0.027916564 -0.092379183 -0.010123115 2.3326206e-38
0.02967006 -0.091685757 -0.0070925765 2.3142537e-38
-0.048283871 -0.098831654 -0.030146342 2.2039409e-38
-0.04623213 -0.097899407 -0.026103001 2.2683338e-38
-0.044368256 -0.097899407 -0.026103001 2.2499673e-38
-0.042504381 -0.097899407 -0.026103001 2.2407494e-38
-0.040640507 -0.097899407 -0.026103001 2.2590813e-38
-0.038776632 -0.097899407 -0.026103001 2.3050707e-38
-0.036912762 -0.097899407 -0.026103001 2.3142534e-38
-0.03494589 -0.097204864 -0.023090582 2.3234357e-38
-0.033087298 -0.097204864 -0.023090582 2.3418025e-38
-0.031535391 -0.099509358 -0.033085685 2.3509873e-38
-0.029574238 -0.098831654 -0.030146342 2.3233296e-38
-0.027703274 -0.098831654 -0.030146342 2.3234379e-38
-0.02590704 -0.099509358 -0.033085685 2.3234379e-38
-0.024030924 -0.099509358 -0.033085685 2.341805e-38
-0.022222079 -0.10021709 -0.036155205 2.341805e-38
-0.020278689 -0.099509358 -0.033085685 2.3509527e-38
-0.01827402 -0.097899407 -0.026103001 2.3509527e-38
-0.01635997 -0.097204864 -0.023090582 2.3509168e-38
-0.014501378 -0.097204864 -0.023090582 2.3509168e-38
-0.012682401 -0.097899407 -0.026103001 2.3509168e-38
-0.010818526 -0.097899407 -0.026103001 2.3509168e-38
-0.0089546517 -0.097899407 -0.026103001 2.3509168e-38
-0.0070670098 -0.097204864 -0.023090582 2.3509527e-38
-0.0052084178 -0.097204864 -0.023090582 2.3509527e-38
-0.0033498257 -0.097204864 -0.023090582 2.341805e-38
-0.0014833566 -0.09651424 -0.020095211 2.3234379e-38
0.00036998466 -0.09651424 -0.020095211 2.341805e-38
0.002223324 -0.09651424 -0.020095211 2.3417691e-38
0.0040766653 -0.09651424 -0.020095211 2.3509168e-38
0.0059300046 -0.09651424 -0.020095211 2.3325138e-38
0.0077833449 -0.09651424 -0.020095211 2.3325846e-38
0.0096366853 -0.09651424 -0.020095211 2.332617e-38
0.011490026 -0.09651424 -0.020095211 2.3326163e-38
0.013343366 -0.09651424 -0.020095211 2.3234343e-38
0.015157539 -0.09582752 -0.017116766 2.3234004e-38
0.017005658 -0.09582752 -0.017116766 2.3232944e-38
0.01878624 -0.094892681 -0.01306222 2.3509886e-38
0.020573141 -0.094215035 -0.010123115 2.350986e-38
0.02234789 -0.093516305 -0.0070925765 2.3326175e-38
0.024112394 -0.092821583 -0.0040794425 2.2589685e-38
0.025937654 -0.092821583 -0.0040794425 2.3142507e-38
0.027839517 -0.093516305 -0.0070925765 2.3049958e-38
0.02967006 -0.093516305 -0.0070925765 2.2498583e-38
0.031413432 -0.092821583 -0.0040794425 1.8536683e-38
-0.048096005 -0.099763289 -0.026103001 2.2958863e-38
-0.04623213 -0.099763289 -0.026103001 2.2958857e-38
-0.044368256 -0.099763289 -0.026103001 2.2867023e-38
-0.042504381 -0.099763289 -0.026103001 2.295887e-38
-0.040640507 -0.099763289 -0.026103001 2.2958873e-38
-0.038663074 -0.099063456 -0.023090582 2.3142538e-38
-0.036804482 -0.099063456 -0.023090582 2.3050697e-38
-0.03494589 -0.099063456 -0.023090582 2.3142525e-38
-0.033087298 -0.099063456 -0.023090582 2.3418038e-38
-0.031321138 -0.099763289 -0.026103001 2.3325856e-38
-0.029457267 -0.099763289 -0.026103001 2.3233303e-38
-0.027511526 -0.099063456 -0.023090582 2.341805e-38
-0.025652934 -0.099063456 -0.023090582 2.341805e-38
-0.023865644 -0.099763289 -0.026103001 2.3509527e-38
-0.022090387 -0.10070263 -0.030146342 2.3509527e-38
-0.020137895 -0.099763289 -0.026103001 2.3509527e-38
-0.018218562 -0.099063456 -0.023090582 2.3509527e-38
-0.016310077 -0.098367572 -0.020095211 2.3509168e-38
-0.014456738 -0.098367572 -0.020095211 2.3509168e-38
-0.012603398 -0.098367572 -0.020095211 2.3509168e-38
-0.010750059 -0.098367572 -0.020095211 2.3509168e-38
-0.0088967159 -0.098367572 -0.020095211 2.3509527e-38
-0.0070198774 -0.097675636 -0.017116766 2.3509527e-38
-0.0051717591 -0.097675636 -0.017116766 2.3509527e-38
-0.0033236407 -0.097675636 -0.017116766 2.341805e-38
-0.0014755223 -0.097675636 -0.017116766 2.3234379e-38
0.00037259609 -0.097675636 -0.017116766 2.341805e-38
0.0022171587 -0.096733689 -0.01306222 2.3417687e-38
0.0040581673 -0.096733689 -0.01306222 2.3417687e-38
0.0059169494 -0.097675636 -0.017116766 2.3325497e-38
0.0077650677 -0.097675636 -0.017116766 2.3325843e-38
0.0096131852 -0.097675636 -0.017116766 2.3326173e-38
0.011461304 -0.097675636 -0.017116766 2.3326164e-38
0.013309422 -0.097675636 -0.017116766 2.3234345e-38
0.015104222 -0.096733689 -0.01306222 2.3234001e-38
0.016856264 -0.095346853 -0.0070925765 2.2679772e-38
0.018686807 -0.095346853 -0.0070925765 2.2680122e-38
0.020517347 -0.095346853 -0.0070925765 2.2865919e-38
0.022287136 -0.094646841 -0.0040794425 2.3234326e-38
0.024046738 -0.093950883 -0.001083713 2.3509831e-38
0.025866745 -0.093950883 -0.001083713 2.3509834e-38
0.027762914 -0.094646841 -0.0040794425 2.3418005e-38
0.029588172 -0.094646841 -0.0040794425 2.2498207e-38
-0.050154839 -0.10257359 -0.030146342 2.3141466e-38
-0.048096005 -0.10162716 -0.026103001 2.2774116e-38
-0.04623213 -0.10162716 -0.026103001 2.3142537e-38
-0.044368256 -0.10162716 -0.026103001 2.2313852e-38
-0.042504381 -0.10162716 -0.026103001 2.2866671e-38
-0.040640507 -0.10162716 -0.026103001 2.2682636e-38
-0.038663074 -0.10092205 -0.023090582 2.2774111e-38
-0.036804482 -0.10092205 -0.023090582 2.2866663e-38
-0.034843478 -0.10022092 -0.020095211 2.3234367e-38
-0.032990139 -0.10022092 -0.020095211 2.3418047e-38
-0.031228706 -0.10092205 -0.023090582 2.3417691e-38
-0.02928346 -0.10022092 -0.020095211 2.3509168e-38
-0.027430121 -0.10022092 -0.020095211 2.3509527e-38
-0.025576781 -0.10022092 -0.020095211 2.3509527e-38
-0.023723438 -0.10022092 -0.020095211 2.3509527e-38
-0.021870099 -0.10022092 -0.020095211 2.3509527e-38
-0.020016756 -0.10022092 -0.020095211 2.3509527e-38
-0.018163417 -0.10022092 -0.020095211 2.3509527e-38
-0.016260467 -0.099523753 -0.017116766 2.3509168e-38
-0.014412347 -0.099523753 -0.017116766 2.3509527e-38
-0.012564231 -0.099523753 -0.017116766 2.3509168e-38
-0.010716114 -0.099523753 -0.017116766 2.3509527e-38
-0.008867994 -0.099523753 -0.017116766 2.3509527e-38
-0.0069878865 -0.098574698 -0.01306222 2.3509886e-38
-0.0051468778 -0.098574698 -0.01306222 2.3509886e-38
-0.0033058673 -0.098574698 -0.01306222 2.341805e-38
-0.0014571287 -0.097886756 -0.010123115 2.341805e-38
0.00037872605 -0.097886756 -0.010123115 2.3418047e-38
0.0022119246 -0.097177386 -0.0070925765 2.3418043e-38
0.0040424671 -0.097177386 -0.0070925765 2.3418043e-38
0.0058862939 -0.097886756 -0.010123115 2.341769e-38
0.0077221496 -0.097886756 -0.010123115 2.3418039e-38
0.0095811952 -0.098574698 -0.01306222 2.3326177e-38
0.011422204 -0.098574698 -0.01306222 2.3326173e-38
0.013229718 -0.097886756 -0.010123115 2.3326185e-38
0.015025722 -0.097177386 -0.0070925765 2.3326199e-38
0.016811358 -0.096472099 -0.0040794425 2.3509886e-38
0.018636618 -0.096472099 -0.0040794425 2.3140736e-38
0.020461876 -0.096472099 -0.0040794425 2.3418009e-38
0.022226732 -0.095770895 -0.001083713 2.3509824e-38
0.024046738 -0.095770895 -0.001083713 2.3509818e-38
0.025866745 -0.095770895 -0.001083713 1.9363883e-38
0.027686752 -0.095770895 -0.001083713 1.5950859e-38
0.029506758 -0.095770895 -0.001083713 1.2817652e-38
-0.051823754 -0.10349102 -0.026103001 2.3509879e-38
-0.049959879 -0.10349102 -0.026103001 2.3509527e-38
-0.048096005 -0.10349102 -0.026103001 2.3141106e-38
-0.04623213 -0.10349102 -0.026103001 2.3418047e-38
-0.044368256 -0.10349102 -0.026103001 2.3418045e-38
-0.042504381 -0.10349102 -0.026103001 2.3326208e-38
-0.040521666 -0.10278064 -0.023090582 2.3418043e-38
-0.038663074 -0.10278064 -0.023090582 2.341804e-38
-0.036804482 -0.10278064 -0.023090582 2.341804e-38
-0.034843478 -0.10207425 -0.020095211 2.3509883e-38
-0.032990139 -0.10207425 -0.020095211 2.3509527e-38
-0.0311368 -0.10207425 -0.020095211 2.3324421e-38
-0.02928346 -0.10207425 -0.020095211 2.3231509e-38
-0.027349178 -0.10137187 -0.017116766 2.3509527e-38
-0.025501058 -0.10137187 -0.017116766 2.3509521e-38
-0.023652937 -0.10137187 -0.017116766 2.3509524e-38
-0.021804821 -0.10137187 -0.017116766 2.3509521e-38
-0.019956704 -0.10137187 -0.017116766 2.3509521e-38
-0.018108584 -0.10137187 -0.017116766 2.3509879e-38
-0.016260467 -0.10137187 -0.017116766 2.3509521e-38
-0.014412347 -0.10137187 -0.017116766 2.3509879e-38
-0.012510914 -0.10041572 -0.01306222 2.350988e-38
-0.010669906 -0.10041572 -0.01306222 2.3509879e-38
-0.0088288952 -0.10041572 -0.01306222 2.350988e-38
-0.0069646966 -0.099722609 -0.010123115 2.3509879e-38
-0.0051288418 -0.099722609 -0.010123115 2.3509879e-38
-0.0032797009 -0.099007934 -0.0070925765 2.3418043e-38
-0.0014491584 -0.099007934 -0.0070925765 2.3418043e-38
0.00038138404 -0.099007934 -0.0070925765 2.3418043e-38
0.0022119246 -0.099007934 -0.0070925765 2.3509879e-38
0.0040424671 -0.099007934 -0.0070925765 2.350988e-38
0.0058598034 -0.098297372 -0.0040794425 2.3509886e-38
0.0076850615 -0.098297372 -0.0040794425 2.3509879e-38
0.0095340945 -0.099007934 -0.0070925765 2.3418023e-38
0.011393861 -0.099722609 -0.010123115 2.3418019e-38
0.01316084 -0.098297372 -0.0040794425 2.3509865e-38
0.014986099 -0.098297372 -0.0040794425 2.3509874e-38
0.016766712 -0.097590908 -0.001083713 2.3509527e-38
0.018586718 -0.097590908 -0.001083713 2.3416603e-38
0.020406725 -0.097590908 -0.001083713 2.3509846e-38
0.022226732 -0.097590908 -0.001083713 2.2036481e-38
0.023960557 -0.096663594 0.0028485246 2.2774392e-38
0.025773669 -0.096663594 0.0028485246 1.8533749e-38
0.027686752 -0.097590908 -0.001083713 1.6688412e-38
0.029506758 -0.097590908 -0.001083713 1.3001677e-38
-0.055551503 -0.10535492 -0.026103001 2.3509824e-38
-0.053687621 -0.10535492 -0.026103001 2.3509481e-38
-0.051823754 -0.10535492 -0.026103001 2.2586102e-38
-0.049959879 -0.10535492 -0.026103001 2.3509163e-38
-0.047956038 -0.10463922 -0.023090582 2.3509168e-38
-0.046097446 -0.10463922 -0.023090582 2.2586138e-38
-0.044238854 -0.10463922 -0.023090582 2.3509527e-38
-0.042380262 -0.10463922 -0.023090582 2.3416971e-38
-0.040521666 -0.10463922 -0.023090582 2.3509523e-38
-0.038550161 -0.1039276 -0.020095211 2.3509879e-38
-0.036696821 -0.1039276 -0.020095211 2.3417324e-38
-0.034741648 -0.10322 -0.017116766 2.3324775e-38
-0.032893527 -0.10322 -0.017116766 2.3507733e-38
-0.031045411 -0.10322 -0.017116766 2.3507733e-38
-0.029197294 -0.10322 -0.017116766 2.3508451e-38
-0.027349178 -0.10322 -0.017116766 2.3509168e-38
-0.025501058 -0.10322 -0.017116766 2.3509879e-38
-0.023652937 -0.10322 -0.017116766 2.3509521e-38
-0.021804821 -0.10322 -0.017116766 2.3509879e-38
-0.019956704 -0.10322 -0.017116766 2.3509879e-38
-0.01803394 -0.10225673 -0.01306222 2.3509879e-38
-0.016192932 -0.10225673 -0.01306222 2.3509879e-38
-0.014308121 -0.10155846 -0.010123115 2.3509879e-38
-0.012472264 -0.10155846 -0.010123115 2.3509879e-38
-0.010636408 -0.10155846 -0.010123115 2.3509879e-38
-0.0087713283 -0.10083848 -0.0070925765 2.3509879e-38
-0.0069407858 -0.10083848 -0.0070925765 2.3509879e-38
-0.0051102433 -0.10083848 -0.0070925765 2.3509879e-38
-0.0032664947 -0.10012263 -0.0040794425 2.3509879e-38
-0.0014412347 -0.10012263 -0.0040794425 2.3418043e-38
0.00038402528 -0.10012263 -0.0040794425 2.3418043e-38
0.0022092834 -0.10012263 -0.0040794425 2.350988e-38
0.0040345434 -0.10012263 -0.0040794425 2.3509883e-38
0.0058598034 -0.10012263 -0.0040794425 2.3509886e-38
0.0076666772 -0.099410906 -0.001083713 2.3509883e-38
0.0094866846 -0.099410906 -0.001083713 2.3509869e-38
0.011335581 -0.10012263 -0.0040794425 2.3509866e-38
0.013126698 -0.099410906 -0.001083713 2.3509872e-38
0.014894996 -0.098476708 0.0028485246 2.350952e-38
0.01670811 -0.098476708 0.0028485246 2.3231504e-38
0.018521219 -0.098476708 0.0028485246 2.3509879e-38
0.020334333 -0.098476708 0.0028485246 2.3509844e-38
0.022226732 -0.099410906 -0.001083713 1.5397676e-38
0.023960557 -0.098476708 0.0028485246 1.4845559e-38
0.025773669 -0.098476708 0.0028485246 1.3278231e-38
0.027586782 -0.098476708 0.0028485246 1.5489146e-38
0.029506758 -0.099410906 -0.001083713 1.2447425e-38
-0.064038485 -0.11129995 -0.043155413 8.9393033e-39
-0.062144715 -0.11129995 -0.043155413 1.0967942e-38
-0.055551503 -0.10721879 -0.026103001 2.2125763e-38
-0.053687621 -0.10721879 -0.026103001 2.3509811e-38
-0.051823754 -0.10721879 -0.026103001 2.3509838e-38
-0.04981463 -0.10649781 -0.023090582 2.3508431e-38
-0.047956038 -0.10649781 -0.023090582 2.3506295e-38
-0.046097446 -0.10649781 -0.023090582 2.3508092e-38
-0.044238854 -0.10649781 -0.023090582 2.3507374e-38
-0.042380262 -0.10649781 -0.023090582 2.3508451e-38
-0.0404035 -0.10578094 -0.020095211 2.3509168e-38
-0.038437884 -0.1050681 -0.017116766 2.3509527e-38
-0.036589764 -0.1050681 -0.017116766 2.3509524e-38
-0.034603022 -0.10409774 -0.01306222 2.3509527e-38
-0.032762013 -0.10409774 -0.01306222 2.3508809e-38
-0.030921005 -0.10409774 -0.01306222 2.3508451e-38
-0.029079992 -0.10409774 -0.01306222 2.3508809e-38
-0.027238984 -0.10409774 -0.01306222 2.3509527e-38
-0.025397975 -0.10409774 -0.01306222 2.3509521e-38
-0.023556966 -0.10409774 -0.01306222 2.3509883e-38
-0.021715958 -0.10409774 -0.01306222 2.350952e-38
-0.019874949 -0.10409774 -0.01306222 2.3325129e-38
-0.01803394 -0.10409774 -0.01306222 2.3417324e-38
-0.016143974 -0.10339431 -0.010123115 2.3509883e-38
-0.014262956 -0.10266902 -0.0070925765 2.3509883e-38
-0.012432415 -0.10266902 -0.0070925765 2.3509883e-38
-0.010601871 -0.10266902 -0.0070925765 2.3509883e-38
-0.0087713283 -0.10266902 -0.0070925765 2.3509883e-38
-0.006917011 -0.10194789 -0.0040794425 2.3417687e-38
-0.0050917529 -0.10194789 -0.0040794425 2.3417687e-38
-0.0032664947 -0.10194789 -0.0040794425 2.3509883e-38
-0.0014412347 -0.10194789 -0.0040794425 2.3509886e-38
0.00038402528 -0.10194789 -0.0040794425 2.3233299e-38
0.0022066571 -0.10123092 -0.001083713 2.3418047e-38
0.0040266644 -0.10123092 -0.001083713 2.341805e-38
0.0058466718 -0.10123092 -0.001083713 2.341805e-38
0.0076666772 -0.10123092 -0.001083713 2.341805e-38
0.0094866846 -0.10123092 -0.001083713 2.3418043e-38
0.011306691 -0.10123092 -0.001083713 2.3325846e-38
0.013013504 -0.098853827 0.0088485666 2.350952e-38
0.014816095 -0.098853827 0.0088485666 2.3509527e-38
0.016618688 -0.098853827 0.0088485666 2.3508809e-38
0.018370878 -0.098129645 0.011874456 2.3508079e-38
0.020168165 -0.098129645 0.011874456 2.3509851e-38
0.022026464 -0.098853827 0.0088485666 1.3737079e-38
0.023893461 -0.099557132 0.0059099384 1.0880068e-38
0.025701206 -0.099557132 0.0059099384 1.4752282e-38
0.027586782 -0.10028981 0.0028485246 1.4289887e-38
-0.063857332 -0.11247168 -0.040160518 1.2534569e-38
-0.061733548 -0.11150609 -0.036155205 1.1705499e-38
-0.059677143 -0.11076607 -0.033085685 9.1247231e-39
-0.057638686 -0.11005743 -0.030146342 1.0785675e-38
-0.055551503 -0.10908265 -0.026103001 1.8715224e-38
-0.053687621 -0.10908265 -0.026103001 2.2770776e-38
-0.051823754 -0.10908265 -0.026103001 2.3509817e-38
-0.04981463 -0.1083564 -0.023090582 2.3509851e-38
-0.047956038 -0.1083564 -0.023090582 2.3507362e-38
-0.046097446 -0.1083564 -0.023090582 2.3508451e-38
-0.044238854 -0.1083564 -0.023090582 2.3507016e-38
-0.042256836 -0.10763429 -0.020095211 2.3508809e-38
-0.0404035 -0.10763429 -0.020095211 2.3509167e-38
-0.038437884 -0.10691623 -0.017116766 2.3508801e-38
-0.036444031 -0.10593875 -0.01306222 2.3508801e-38
-0.034603022 -0.10593875 -0.01306222 2.3508445e-38
-0.032762013 -0.10593875 -0.01306222 2.3508445e-38
-0.030921005 -0.10593875 -0.01306222 2.3508441e-38
-0.029079992 -0.10593875 -0.01306222 2.3508441e-38
-0.027238984 -0.10593875 -0.01306222 2.3324052e-38
-0.025397975 -0.10593875 -0.01306222 2.3417327e-38
-0.023556966 -0.10593875 -0.01306222 2.3509527e-38
-0.021715958 -0.10593875 -0.01306222 2.3509886e-38
-0.019815687 -0.10523017 -0.010123115 2.3509886e-38
-0.017979834 -0.10523017 -0.010123115 2.3509886e-38
-0.016093496 -0.10449956 -0.0070925765 2.3509886e-38
-0.014262956 -0.10449956 -0.0070925765 2.3325856e-38
-0.012392789 -0.10377313 -0.0040794425 2.3325497e-38
-0.010567531 -0.10377313 -0.0040794425 2.3509886e-38
-0.0087422729 -0.10377313 -0.0040794425 2.3509886e-38
-0.006917011 -0.10377313 -0.0040794425 2.3232944e-38
-0.0050917529 -0.10377313 -0.0040794425 2.3325138e-38
-0.0032533631 -0.10305093 -0.001083713 2.3509527e-38
-0.0014333557 -0.10305093 -0.001083713 2.3509527e-38
0.00038665161 -0.10305093 -0.001083713 2.3509527e-38
0.0022066571 -0.10305093 -0.001083713 2.341805e-38
0.0040266644 -0.10305093 -0.001083713 2.3325856e-38
0.0058466718 -0.10305093 -0.001083713 2.3325856e-38
0.0076666772 -0.10305093 -0.001083713 2.341805e-38
0.0094556594 -0.10210292 0.0028485246 2.3509886e-38
0.011268771 -0.10210292 0.0028485246 2.3509527e-38
0.013013504 -0.10065642 0.0088485666 2.3509527e-38
0.014776305 -0.099926919 0.011874456 2.3509168e-38
0.016573593 -0.099926919 0.011874456 2.3507374e-38
0.018320771 -0.099201679 0.014882702 2.3509163e-38
0.020112783 -0.099201679 0.014882702 2.0650346e-38
0.021965452 -0.099926919 0.011874456 1.4104788e-38
0.023829056 -0.10065642 0.0088485666 1.2538871e-38
0.025701206 -0.10136487 0.0059099384 1.4658651e-38
-0.063857332 -0.1143602 -0.040160518 1.3362882e-38
-0.061733548 -0.11338757 -0.036155205 1.2441982e-38
-0.059677143 -0.11264218 -0.033085685 9.5857013e-39
-0.05741537 -0.11094652 -0.026103001 8.9417654e-39
-0.055551503 -0.11094652 -0.026103001 1.7056421e-38
-0.053687621 -0.11094652 -0.026103001 2.1666932e-38
-0.051823754 -0.11094652 -0.026103001 2.3509797e-38
-0.04981463 -0.11021499 -0.023090582 2.3509828e-38
-0.047956038 -0.11021499 -0.023090582 2.3324739e-38
-0.046097446 -0.11021499 -0.023090582 2.350987e-38
-0.044110183 -0.10948761 -0.020095211 2.3509876e-38
-0.042256836 -0.10948761 -0.020095211 2.3509866e-38
-0.040286001 -0.10876434 -0.017116766 2.3509863e-38
-0.038285039 -0.10777976 -0.01306222 2.3509863e-38
-0.036444031 -0.10777976 -0.01306222 2.3509869e-38
-0.034603022 -0.10777976 -0.01306222 2.3509876e-38
-0.032666679 -0.10706602 -0.010123115 2.3509879e-38
-0.030830823 -0.10706602 -0.010123115 2.350987e-38
-0.028994966 -0.10706602 -0.010123115 2.3509513e-38
-0.027238984 -0.10777976 -0.01306222 2.3325492e-38
-0.025323253 -0.10706602 -0.010123115 2.341769e-38
-0.0234874 -0.10706602 -0.010123115 2.3509886e-38
-0.021651544 -0.10706602 -0.010123115 2.341805e-38
-0.019815687 -0.10706602 -0.010123115 2.341805e-38
-0.017924037 -0.10633011 -0.0070925765 2.341805e-38
-0.016043309 -0.10559841 -0.0040794425 2.341805e-38
-0.014218051 -0.10559841 -0.0040794425 2.3234379e-38
-0.012392789 -0.10559841 -0.0040794425 2.3325856e-38
-0.010567531 -0.10559841 -0.0040794425 2.3417691e-38
-0.0087133832 -0.10487093 -0.001083713 2.3417691e-38
-0.0068933759 -0.10487093 -0.001083713 2.3416974e-38
-0.0050733685 -0.10487093 -0.001083713 2.3416974e-38
-0.0032533631 -0.10487093 -0.001083713 2.3509168e-38
-0.0014333557 -0.10487093 -0.001083713 2.3508809e-38
0.00038665161 -0.10487093 -0.001083713 2.3509168e-38
0.0022066571 -0.10487093 -0.001083713 2.3509527e-38
0.004016323 -0.10391603 0.0028485246 2.341805e-38
0.0058294348 -0.10391603 0.0028485246 2.3325856e-38
0.0076425467 -0.10391603 0.0028485246 2.341805e-38
0.0094556594 -0.10391603 0.0028485246 2.3509527e-38
0.011210911 -0.10245901 0.0088485666 2.3509168e-38
0.013013504 -0.10245901 0.0088485666 2.3509168e-38
0.014776305 -0.10172421 0.011874456 2.3508451e-38
0.016573593 -0.10172421 0.011874456 2.3508809e-38
0.018320771 -0.10099369 0.014882702 2.3509163e-38
0.020112783 -0.10099369 0.014882702 1.7791209e-38
0.021904796 -0.10099369 0.014882702 1.2444553e-38
0.023829056 -0.10245901 0.0088485666 1.2906937e-38
-0.063857332 -0.11624874 -0.040160518 1.1518605e-38
-0.061380614 -0.11379938 -0.030146342 1.1703698e-38
-0.059279252 -0.11281042 -0.026103001 1.0322913e-38
-0.05741537 -0.11281042 -0.026103001 9.0346953e-39
-0.055551503 -0.11281042 -0.026103001 1.7427014e-38
-0.053687621 -0.11281042 -0.026103001 2.1484698e-38
-0.051673222 -0.11207359 -0.023090582 2.2866922e-38
-0.04981463 -0.11207359 -0.023090582 2.2774392e-38
-0.047816861 -0.11134095 -0.020095211 2.2037205e-38
-0.045963522 -0.11134095 -0.020095211 2.3326167e-38
-0.044110183 -0.11134095 -0.020095211 2.3050659e-38
-0.042134125 -0.11061247 -0.017116766 2.2406716e-38
-0.040286001 -0.11061247 -0.017116766 2.2958814e-38
-0.038285039 -0.10962076 -0.01306222 2.3418008e-38
-0.036444031 -0.10962076 -0.01306222 2.3509853e-38
-0.034603022 -0.10962076 -0.01306222 2.3509866e-38
-0.032666679 -0.10890187 -0.010123115 2.3509869e-38
-0.030830823 -0.10890187 -0.010123115 2.350986e-38
-0.028994966 -0.10890187 -0.010123115 2.350986e-38
-0.027238984 -0.10962076 -0.01306222 2.3418035e-38
-0.025323253 -0.10890187 -0.010123115 2.3234372e-38
-0.0234874 -0.10890187 -0.010123115 2.3234372e-38
-0.021651544 -0.10890187 -0.010123115 2.3142535e-38
-0.019754581 -0.10816063 -0.0070925765 2.3142538e-38
-0.017924037 -0.10816063 -0.0070925765 2.3142538e-38
-0.016043309 -0.10742365 -0.0040794425 2.3142541e-38
-0.014218051 -0.10742365 -0.0040794425 2.3142544e-38
-0.012353394 -0.10669093 -0.001083713 2.3142544e-38
-0.010533389 -0.10669093 -0.001083713 2.3234379e-38
-0.0087133832 -0.10669093 -0.001083713 2.341805e-38
-0.0068933759 -0.10669093 -0.001083713 2.341805e-38
-0.005049238 -0.10572915 0.0028485246 2.3416615e-38
-0.0032361262 -0.10572915 0.0028485246 2.3416615e-38
-0.0014230143 -0.10572915 0.0028485246 2.3508451e-38
0.0003900975 -0.10572915 0.0028485246 2.3508809e-38
0.0022032112 -0.10572915 0.0028485246 2.3509527e-38
0.004016323 -0.10572915 0.0028485246 2.341805e-38
0.0058294348 -0.10572915 0.0028485246 2.3418047e-38
0.00762376 -0.10498036 0.0059099384 2.3234018e-38
0.0094083194 -0.10426159 0.0088485666 2.3324421e-38
0.011210911 -0.10426159 0.0088485666 2.3508809e-38
0.013013504 -0.10426159 0.0088485666 2.3509167e-38
0.014776305 -0.10352151 0.011874456 2.3508085e-38
0.016573593 -0.10352151 0.011874456 2.3230062e-38
0.018320771 -0.10278571 0.014882702 2.3508802e-38
0.020112783 -0.10278571 0.014882702 2.3506981e-38
0.021904796 -0.10278571 0.014882702 1.428739e-38
-0.061143119 -0.11467429 -0.026103001 1.1426391e-38
-0.059279252 -0.11467429 -0.026103001 1.0506956e-38
-0.05741537 -0.11467429 -0.026103001 9.2205495e-39
-0.055551503 -0.11467429 -0.026103001 1.6968217e-38
-0.053531814 -0.11393218 -0.023090582 1.9735504e-38
-0.051673222 -0.11393218 -0.023090582 1.9828054e-38
-0.049670201 -0.1131943 -0.020095211 2.0381599e-38
-0.047816861 -0.1131943 -0.020095211 2.1396118e-38
-0.045830358 -0.11246057 -0.017116766 2.2224098e-38
-0.043982241 -0.11246057 -0.017116766 2.0382337e-38
-0.041967053 -0.11146177 -0.01306222 1.9829515e-38
-0.040126048 -0.11146177 -0.01306222 2.1120257e-38
-0.038285039 -0.11146177 -0.01306222 2.2315944e-38
-0.036444031 -0.11146177 -0.01306222 2.2775144e-38
-0.034502532 -0.11073773 -0.010123115 2.2683327e-38
-0.032666679 -0.11073773 -0.010123115 2.2775165e-38
-0.030830823 -0.11073773 -0.010123115 2.2958829e-38
-0.028994966 -0.11073773 -0.010123115 2.2866989e-38
-0.027159113 -0.11073773 -0.010123115 2.3142509e-38
-0.025323253 -0.11073773 -0.010123115 2.3050677e-38
-0.023415666 -0.10999118 -0.0070925765 2.2683333e-38
-0.021585125 -0.10999118 -0.0070925765 2.2683335e-38
-0.019754581 -0.10999118 -0.0070925765 2.2775175e-38
-0.017868567 -0.10924892 -0.0040794425 2.2867012e-38
-0.016043309 -0.10924892 -0.0040794425 2.295885e-38
-0.014173403 -0.10851096 -0.001083713 2.2958853e-38
-0.012353394 -0.10851096 -0.001083713 2.2683347e-38
-0.010533389 -0.10851096 -0.001083713 2.2958857e-38
-0.0087133832 -0.10851096 -0.001083713 2.3234369e-38
-0.0068623498 -0.10754226 0.0028485246 2.3418043e-38
-0.005049238 -0.10754226 0.0028485246 2.3417324e-38
-0.0032227077 -0.10678811 0.0059099384 2.3232933e-38
-0.0014149621 -0.10678811 0.0059099384 2.3416248e-38
0.00039278157 -0.10678811 0.0059099384 2.3508804e-38
0.0022005271 -0.10678811 0.0059099384 2.3234018e-38
0.0040082708 -0.10678811 0.0059099384 2.3234376e-38
0.0058160163 -0.10678811 0.0059099384 2.3418043e-38
0.0076057268 -0.10606419 0.0088485666 2.3141816e-38
0.0094083194 -0.10606419 0.0088485666 2.3047837e-38
0.011210911 -0.10606419 0.0088485666 2.3324421e-38
0.012979019 -0.1053188 0.011874456 2.3509521e-38
0.014736746 -0.10457774 0.014882702 2.350952e-38
0.016528759 -0.10457774 0.014882702 2.3508802e-38
0.018320771 -0.10457774 0.014882702 2.3509158e-38
0.020112783 -0.10457774 0.014882702 2.3509502e-38
-0.060966183 -0.11579077 -0.023090582 1.1610066e-38
-0.05910759 -0.11579077 -0.023090582 1.0783551e-38
-0.057248998 -0.11579077 -0.023090582 9.4067512e-39
-0.055551503 -0.11653815 -0.026103001 1.604879e-38
-0.053531814 -0.11579077 -0.023090582 1.7433131e-38
-0.051673222 -0.11579077 -0.023090582 1.7249805e-38
-0.049670201 -0.11504765 -0.020095211 1.9371026e-38
-0.047816861 -0.11504765 -0.020095211 2.1856729e-38
-0.045830358 -0.1143087 -0.017116766 2.2224086e-38
-0.043808069 -0.11330278 -0.01306222 1.8818589e-38
-0.041967053 -0.11330278 -0.01306222 1.8265048e-38
-0.040126048 -0.11330278 -0.01306222 1.9832378e-38
-0.038174246 -0.11257361 -0.010123115 2.1122056e-38
-0.036338389 -0.11257361 -0.010123115 2.1673092e-38
-0.034502532 -0.11257361 -0.010123115 2.1672751e-38
-0.032568377 -0.11182173 -0.0070925765 2.1948619e-38
-0.030737836 -0.11182173 -0.0070925765 2.1948601e-38
-0.028907295 -0.11182173 -0.0070925765 2.1764923e-38
-0.027076751 -0.11182173 -0.0070925765 2.139615e-38
-0.025246207 -0.11182173 -0.0070925765 2.1580187e-38
-0.023415666 -0.11182173 -0.0070925765 2.1948614e-38
-0.021519084 -0.11107419 -0.0040794425 2.2407799e-38
-0.019693825 -0.11107419 -0.0040794425 2.277515e-38
-0.017868567 -0.11107419 -0.0040794425 2.2683316e-38
-0.015993409 -0.11033095 -0.001083713 2.2224135e-38
-0.014173403 -0.11033095 -0.001083713 2.1856072e-38
-0.012301687 -0.10935538 0.0028485246 2.2132304e-38
-0.010488573 -0.10935538 0.0028485246 2.2499653e-38
-0.0086754635 -0.10935538 0.0028485246 2.314251e-38
-0.0068623498 -0.10935538 0.0028485246 2.3418021e-38
-0.0050304513 -0.10859586 0.0059099384 2.3509859e-38
-0.0032227077 -0.10859586 0.0059099384 2.350986e-38
-0.001407234 -0.10786678 0.0088485666 2.3509863e-38
0.00039535761 -0.10786678 0.0088485666 2.3509869e-38
0.0021979511 -0.10786678 0.0088485666 2.2957782e-38
0.0040005427 -0.10786678 0.0088485666 2.3234374e-38
0.0058031343 -0.10786678 0.0088485666 2.3418038e-38
0.0076057268 -0.10786678 0.0088485666 2.3234369e-38
0.0093844449 -0.10711606 0.011874456 2.332478e-38
0.011181732 -0.10711606 0.011874456 2.3509527e-38
0.012944735 -0.10636975 0.014882702 2.350952e-38
0.014736746 -0.10636975 0.014882702 2.3509873e-38
0.016528759 -0.10636975 0.014882702 2.3509158e-38
-0.060966183 -0.11764936 -0.023090582 1.0687754e-38
-0.05910759 -0.11764936 -0.023090582 1.0323294e-38
-0.057248998 -0.11764936 -0.023090582 9.4089092e-39
-0.055551503 -0.11840202 -0.026103001 1.5314455e-38
-0.053531814 -0.11764936 -0.023090582 1.6237816e-38
-0.051673222 -0.11764936 -0.023090582 1.5593872e-38
-0.049670201 -0.11690097 -0.020095211 1.7345955e-38
-0.047678474 -0.1161568 -0.017116766 1.9834885e-38
-0.045830358 -0.1161568 -0.017116766 2.1122049e-38
-0.043808069 -0.11514379 -0.01306222 1.8728552e-38
-0.041967053 -0.11514379 -0.01306222 1.7898782e-38
-0.040126048 -0.11514379 -0.01306222 1.9004773e-38
-0.038174246 -0.11440946 -0.010123115 1.9833831e-38
-0.036338389 -0.11440946 -0.010123115 2.0201546e-38
-0.034502532 -0.11440946 -0.010123115 2.0477784e-38
-0.032568377 -0.11365227 -0.0070925765 2.1122065e-38
-0.030645382 -0.11289944 -0.0040794425 2.0846529e-38
-0.028820124 -0.11289944 -0.0040794425 2.0293705e-38
-0.027076751 -0.11365227 -0.0070925765 2.0293003e-38
-0.025169607 -0.11289944 -0.0040794425 2.0568515e-38
-0.023344345 -0.11289944 -0.0040794425 2.1029138e-38
-0.021453429 -0.11215095 -0.001083713 2.1397567e-38
-0.019633424 -0.11215095 -0.001083713 2.1764917e-38
-0.017813418 -0.11215095 -0.001083713 2.1581245e-38
-0.015993409 -0.11215095 -0.001083713 2.084512e-38
-0.014173403 -0.11215095 -0.001083713 2.0383066e-38
-0.012301687 -0.11116849 0.0028485246 2.1396503e-38
-0.010488573 -0.11116849 0.0028485246 2.176457e-38
-0.0086754635 -0.11116849 0.0028485246 2.2683297e-38
-0.0068623498 -0.11116849 0.0028485246 2.3417993e-38
-0.0050304513 -0.11040358 0.0059099384 2.3509832e-38
-0.0032098256 -0.10966937 0.0088485666 2.3326156e-38
-0.001407234 -0.10966937 0.0088485666 2.3417994e-38
0.00039535761 -0.10966937 0.0088485666 2.3509846e-38
0.0021979511 -0.10966937 0.0088485666 2.2865936e-38
0.0040005427 -0.10966937 0.0088485666 2.3142532e-38
0.0057898723 -0.10891335 0.011874456 2.3418033e-38
0.0075871581 -0.10891335 0.011874456 2.3234364e-38
0.0093607092 -0.10816176 0.014882702 2.3509527e-38
0.011152722 -0.10816176 0.014882702 2.3509527e-38
0.012876768 -0.10667174 0.020846386 2.3509873e-38
0.014658324 -0.10667174 0.020846386 2.2770863e-38
0.016439881 -0.10667174 0.020846386 2.3508793e-38
-0.060966183 -0.11950795 -0.023090582 1.0226776e-38
-0.05910759 -0.11950795 -0.023090582 1.0322938e-38
-0.057248998 -0.11950795 -0.023090582 9.0408428e-39
-0.055390406 -0.11950795 -0.023090582 1.4762719e-38
-0.053531814 -0.11950795 -0.023090582 1.5686085e-38
-0.05152354 -0.11875431 -0.020095211 1.4396414e-38
-0.049670201 -0.11875431 -0.020095211 1.4397135e-38
-0.047678474 -0.11800493 -0.017116766 1.5964467e-38
-0.045830358 -0.11800493 -0.017116766 1.8729628e-38
-0.043808069 -0.1169848 -0.01306222 1.8453407e-38
-0.041967053 -0.1169848 -0.01306222 1.7623999e-38
-0.040126048 -0.1169848 -0.01306222 1.817682e-38
-0.038174246 -0.11624531 -0.010123115 1.854489e-38
-0.036338389 -0.11624531 -0.010123115 1.8636734e-38
-0.034502532 -0.11624531 -0.010123115 1.9465419e-38
-0.032568377 -0.11548282 -0.0070925765 2.0111134e-38
-0.030645382 -0.11472471 -0.0040794425 1.9650847e-38
-0.028820124 -0.11472471 -0.0040794425 1.8637047e-38
-0.027076751 -0.11548282 -0.0070925765 2.0111112e-38
-0.025169607 -0.11472471 -0.0040794425 2.0018563e-38
-0.023344345 -0.11472471 -0.0040794425 1.9926013e-38
-0.021453429 -0.11397095 -0.001083713 2.0110407e-38
-0.019633424 -0.11397095 -0.001083713 2.0294798e-38
-0.017813418 -0.11397095 -0.001083713 2.011041e-38
-0.015993409 -0.11397095 -0.001083713 1.9740191e-38
-0.014173403 -0.11397095 -0.001083713 1.9187017e-38
-0.012301687 -0.1129816 0.0028485246 2.0016065e-38
-0.010488573 -0.1129816 0.0028485246 2.0475969e-38
-0.0086754635 -0.1129816 0.0028485246 2.1304657e-38
-0.006838195 -0.11221133 0.0059099384 2.1948592e-38
-0.0050304513 -0.11221133 0.0059099384 2.1948231e-38
-0.0032098256 -0.11147197 0.0088485666 2.1486893e-38
-0.001407234 -0.11147197 0.0088485666 2.1578362e-38
0.00039535761 -0.11147197 0.0088485666 2.194644e-38
0.0021952987 -0.11071064 0.011874456 2.2866992e-38
0.0039925836 -0.11071064 0.011874456 2.305068e-38
0.0057898723 -0.11071064 0.011874456 2.314252e-38
0.0075686974 -0.10995375 0.014882702 2.3142523e-38
0.0093607092 -0.10995375 0.014882702 2.3509876e-38
0.011123883 -0.10920133 0.017873306 2.3509876e-38
0.012876768 -0.10845329 0.020846386 2.3138568e-38
0.014618118 -0.107684 0.023903865 2.1570512e-38
0.016394313 -0.107684 0.023903865 1.640754e-38
-0.062824771 -0.12136655 -0.023090582 9.4906288e-39
-0.060966183 -0.12136655 -0.023090582 1.0226416e-38
-0.058936898 -0.12060766 -0.020095211 1.0045991e-38
-0.057083566 -0.12060766 -0.020095211 7.8426555e-39
-0.055230219 -0.12060766 -0.020095211 1.4762719e-38
-0.053376887 -0.12060766 -0.020095211 1.504001e-38
-0.05152354 -0.12060766 -0.020095211 1.5686449e-38
-0.049526591 -0.11985306 -0.017116766 1.4673372e-38
-0.047678474 -0.11985306 -0.017116766 1.4766289e-38
-0.045649078 -0.11882581 -0.01306222 1.7070825e-38
-0.043808069 -0.11882581 -0.01306222 1.7809116e-38
-0.041845959 -0.11808117 -0.010123115 1.8361935e-38
-0.040010102 -0.11808117 -0.010123115 1.8638528e-38
-0.038174246 -0.11808117 -0.010123115 1.8083923e-38
-0.036338389 -0.11808117 -0.010123115 1.7161967e-38
-0.034398921 -0.11731337 -0.0070925765 1.7069409e-38
-0.032568377 -0.11731337 -0.0070925765 1.7346347e-38
-0.030645382 -0.11654995 -0.0040794425 1.8452321e-38
-0.028820124 -0.11654995 -0.0040794425 1.9744131e-38
-0.027076751 -0.11731337 -0.0070925765 1.9836327e-38
-0.025169607 -0.11654995 -0.0040794425 1.9744136e-38
-0.023344345 -0.11654995 -0.0040794425 1.900622e-38
-0.021453429 -0.11579098 -0.001083713 1.928173e-38
-0.019633424 -0.11579098 -0.001083713 2.0295523e-38
-0.017813418 -0.11579098 -0.001083713 2.0203684e-38
-0.015993409 -0.11579098 -0.001083713 1.9557949e-38
-0.014173403 -0.11579098 -0.001083713 1.9373555e-38
-0.012301687 -0.11479472 0.0028485246 1.9834539e-38
-0.010488573 -0.11479472 0.0028485246 1.8359054e-38
-0.0086754635 -0.11479472 0.0028485246 1.9003355e-38
-0.006838195 -0.11401908 0.0059099384 2.0294456e-38
-0.0050124191 -0.11327456 0.0088485666 2.1489407e-38
-0.0032098256 -0.11327456 0.0088485666 1.85438e-38
-0.0013992749 -0.11250792 0.011874456 1.8636698e-38
0.00039801002 -0.11250792 0.011874456 2.0938364e-38
0.0021952987 -0.11250792 0.011874456 2.2775126e-38
0.0039925836 -0.11250792 0.011874456 2.2407799e-38
0.0057635754 -0.1109881 0.017873306 2.2867006e-38
0.0075503448 -0.1109881 0.017873306 2.3418031e-38
0.0093371142 -0.1109881 0.017873306 2.3509856e-38
0.011095212 -0.11023484 0.020846386 2.3509859e-38
0.012841923 -0.10946019 0.023903865 2.3508074e-38
0.014618118 -0.10946019 0.023903865 1.5574911e-38
0.016394313 -0.10946019 0.023903865 1.4653259e-38
0.079478629 -0.11250792 0.011874456 7.7444469e-39
0.081041202 -0.11174576 0.014882702 7.4675083e-39
0.082833216 -0.11174576 0.014882702 6.9150604e-39
0.084139004 -0.11023484 0.020846386 6.7306705e-39
0.085920572 -0.11023484 0.020846386 6.3633272e-39
-0.064870864 -0.12399365 -0.026103001 1.1150858e-38
-0.062824771 -0.12322514 -0.023090582 9.5824601e-39
-0.060966183 -0.12322514 -0.023090582 1.0226416e-38
-0.058936898 -0.12246101 -0.020095211 9.8612442e-39
-0.057083566 -0.12246101 -0.020095211 7.9348484e-39
-0.055230219 -0.12246101 -0.020095211 1.3840764e-38
-0.053376887 -0.12246101 -0.020095211 1.374892e-38
-0.051374707 -0.12170117 -0.017116766 1.4671948e-38
-0.049526591 -0.12170117 -0.017116766 1.3658871e-38
-0.047490086 -0.12066682 -0.01306222 1.2829829e-38
-0.045649078 -0.12066682 -0.01306222 1.4673386e-38
-0.043681812 -0.11991702 -0.010123115 1.5688262e-38
-0.041845959 -0.11991702 -0.010123115 1.6149246e-38
-0.040010102 -0.11991702 -0.010123115 1.660987e-38
-0.038060006 -0.11914389 -0.0070925765 1.6056699e-38
-0.036229461 -0.11914389 -0.0070925765 1.5226938e-38
-0.034398921 -0.11914389 -0.0070925765 1.5594996e-38
-0.032470644 -0.11837523 -0.0040794425 1.6332555e-38
-0.030645382 -0.11837523 -0.0040794425 1.8083907e-38
-0.028820124 -0.11837523 -0.0040794425 2.0111848e-38
-0.026994865 -0.11837523 -0.0040794425 1.8084977e-38
-0.025169607 -0.11837523 -0.0040794425 1.8177896e-38
-0.023344345 -0.11837523 -0.0040794425 1.7992077e-38
-0.021453429 -0.11761098 -0.001083713 1.8176474e-38
-0.019633424 -0.11761098 -0.001083713 1.9835276e-38
-0.017813418 -0.11761098 -0.001083713 2.0754716e-38
-0.015993409 -0.11761098 -0.001083713 2.0662866e-38
-0.014173403 -0.11761098 -0.001083713 2.0571026e-38
-0.012301687 -0.11660783 0.0028485246 1.9466117e-38
-0.010488573 -0.11660783 0.0028485246 1.7622931e-38
-0.0086754635 -0.11660783 0.0028485246 1.7622582e-38
-0.006838195 -0.11582683 0.0059099384 1.8176119e-38
-0.0050124191 -0.11507715 0.0088485666 1.900731e-38
-0.0032098256 -0.11507715 0.0088485666 1.6058112e-38
-0.0013992749 -0.11430521 0.011874456 1.5966976e-38
0.00039801002 -0.11430521 0.011874456 1.7808731e-38
0.0021952987 -0.11430521 0.011874456 2.0845454e-38
0.0039925836 -0.11430521 0.011874456 2.2407777e-38
0.0057635754 -0.11277486 0.017873306 2.3142506e-38
0.0075503448 -0.11277486 0.017873306 2.3418021e-38
0.009313656 -0.11201639 0.020846386 2.3417998e-38
0.011095212 -0.11201639 0.020846386 2.3509838e-38
0.012841923 -0.11123641 0.023903865 2.3505546e-38
0.014618118 -0.11123641 0.023903865 1.4836256e-38
0.074301638 -0.11507715 0.0088485666 2.3509869e-38
0.076104231 -0.11507715 0.0088485666 2.3509879e-38
0.077906817 -0.11507715 0.0088485666 2.3509886e-38
0.079478629 -0.11430521 0.011874456 2.3417691e-38
0.081041202 -0.11353777 0.014882702 2.175891e-38
0.082833216 -0.11353777 0.014882702 1.7610472e-38
0.084139004 -0.11201639 0.020846386 1.2262768e-38
0.085920572 -0.11201639 0.020846386 7.9317347e-39
-0.066541955 -0.12508373 -0.023090582 1.1520728e-38
-0.064683363 -0.12508373 -0.023090582 1.1427445e-38
-0.063006997 -0.12585752 -0.026103001 1.004344e-38
-0.060966183 -0.12508373 -0.023090582 1.0503e-38
-0.058936898 -0.12431435 -0.020095211 1.0045273e-38
-0.057083566 -0.12431435 -0.020095211 8.9482814e-39
-0.055230219 -0.12431435 -0.020095211 1.4301023e-38
-0.053222824 -0.1235493 -0.017116766 1.4116989e-38
-0.051374707 -0.1235493 -0.017116766 1.5592835e-38
-0.049331095 -0.12250783 -0.01306222 1.4579399e-38
-0.047490086 -0.12250783 -0.01306222 1.2736566e-38
-0.045517672 -0.12175287 -0.010123115 1.3382295e-38
-0.043681812 -0.12175287 -0.010123115 1.4212059e-38
-0.041845959 -0.12175287 -0.010123115 1.6055971e-38
-0.040010102 -0.12175287 -0.010123115 1.6793539e-38
-0.038060006 -0.12097444 -0.0070925765 1.6424757e-38
-0.036229461 -0.12097444 -0.0070925765 1.5318409e-38
-0.034398921 -0.12097444 -0.0070925765 1.4948905e-38
-0.032470644 -0.12020047 -0.0040794425 1.5041456e-38
-0.030553464 -0.11943097 -0.001083713 1.6423309e-38
-0.028733458 -0.11943097 -0.001083713 1.8176102e-38
-0.026994865 -0.12020047 -0.0040794425 1.6793887e-38
-0.025169607 -0.12020047 -0.0040794425 1.771549e-38
-0.023344345 -0.12020047 -0.0040794425 1.7530031e-38
-0.021453429 -0.11943097 -0.001083713 1.7069058e-38
-0.019633424 -0.11943097 -0.001083713 1.8358718e-38
-0.017813418 -0.11943097 -0.001083713 1.9465063e-38
-0.015993409 -0.11943097 -0.001083713 1.9557966e-38
-0.014173403 -0.11943097 -0.001083713 1.9373572e-38
-0.012301687 -0.11842094 0.0028485246 1.9558689e-38
-0.010488573 -0.11842094 0.0028485246 1.8175403e-38
-0.0086754635 -0.11842094 0.0028485246 1.7805916e-38
-0.0068623498 -0.11842094 0.0028485246 1.7622245e-38
-0.0050124191 -0.11687975 0.0088485666 1.8268686e-38
-0.0032098256 -0.11687975 0.0088485666 1.6057415e-38
-0.0013992749 -0.1161025 0.011874456 1.6058115e-38
0.00039801002 -0.1161025 0.011874456 1.743996e-38
0.0021952987 -0.1161025 0.011874456 1.9002613e-38
0.0039846729 -0.11532979 0.014882702 2.1581229e-38
0.0057635754 -0.11456163 0.017873306 2.2866975e-38
0.0075503448 -0.11456163 0.017873306 2.2407795e-38
0.009313656 -0.11379795 0.020846386 2.2958794e-38
0.011095212 -0.11379795 0.020846386 2.3509818e-38
0.012841923 -0.1130126 0.023903865 2.3507688e-38
0.014618118 -0.1130126 0.023903865 1.4652572e-38
0.074301638 -0.11687975 0.0088485666 2.3509873e-38
0.075884052 -0.1161025 0.011874456 2.3232933e-38
0.07768134 -0.1161025 0.011874456 2.2864163e-38
0.079709411 -0.11687975 0.0088485666 2.3417691e-38
0.081275918 -0.1161025 0.011874456 2.323402e-38
0.083073199 -0.1161025 0.011874456 2.3142185e-38
0.084381402 -0.11456163 0.017873306 2.194366e-38
0.08616817 -0.11456163 0.017873306 1.9916799e-38
0.087954938 -0.11456163 0.017873306 1.2913171e-38
-0.068400547 -0.12694232 -0.023090582 1.087394e-38
-0.066541955 -0.12694232 -0.023090582 1.2073185e-38
-0.064683363 -0.12694232 -0.023090582 1.2165012e-38
-0.063006997 -0.12772138 -0.026103001 1.0781005e-38
-0.060966183 -0.12694232 -0.023090582 1.114729e-38
-0.058936898 -0.12616767 -0.020095211 1.0137465e-38
-0.057083566 -0.12616767 -0.020095211 9.5007349e-39
-0.05507094 -0.1253974 -0.017116766 1.5406294e-38
-0.053222824 -0.1253974 -0.017116766 1.5682884e-38
-0.051172104 -0.12434883 -0.01306222 1.7251289e-38
-0.049331095 -0.12434883 -0.01306222 1.6421888e-38
-0.047353525 -0.12358873 -0.010123115 1.4486499e-38
-0.045517672 -0.12358873 -0.010123115 1.4026597e-38
-0.043681812 -0.12358873 -0.010123115 1.3381944e-38
-0.041845959 -0.12358873 -0.010123115 1.5594993e-38
-0.039890546 -0.12280498 -0.0070925765 1.6977925e-38
-0.038060006 -0.12280498 -0.0070925765 1.7254512e-38
-0.036229461 -0.12280498 -0.0070925765 1.6240716e-38
-0.034398921 -0.12280498 -0.0070925765 1.5225845e-38
-0.032470644 -0.12202574 -0.0040794425 1.4211696e-38
-0.030553464 -0.121251 -0.001083713 1.4671595e-38
-0.028733458 -0.121251 -0.001083713 1.5962334e-38
-0.026994865 -0.12202574 -0.0040794425 1.5963407e-38
-0.025169607 -0.12202574 -0.0040794425 1.7531099e-38
-0.023344345 -0.12202574 -0.0040794425 1.7530031e-38
-0.021453429 -0.121251 -0.001083713 1.6147102e-38
-0.019633424 -0.121251 -0.001083713 1.6237861e-38
-0.017813418 -0.121251 -0.001083713 1.6883585e-38
-0.015993409 -0.121251 -0.001083713 1.6883937e-38
-0.014114801 -0.12023406 0.0028485246 1.6699902e-38
-0.012301687 -0.12023406 0.0028485246 1.6239648e-38
-0.010488573 -0.12023406 0.0028485246 1.5593571e-38
-0.0086754635 -0.12023406 0.0028485246 1.5501389e-38
-0.006838195 -0.11944233 0.0059099384 1.4580159e-38
-0.0050124191 -0.11868234 0.0088485666 1.5134402e-38
-0.0032098256 -0.11868234 0.0088485666 1.3383751e-38
-0.0013992749 -0.11789979 0.011874456 1.4122374e-38
0.00039801002 -0.11789979 0.011874456 1.559677e-38
0.0021926612 -0.1171218 0.014882702 1.7160846e-38
0.0039846729 -0.1171218 0.014882702 1.8909695e-38
0.0057505444 -0.1155795 0.020846386 1.9000122e-38
0.0075321002 -0.1155795 0.020846386 1.8537349e-38
0.009313656 -0.1155795 0.020846386 2.0380165e-38
0.011095212 -0.1155795 0.020846386 2.2682185e-38
0.012841923 -0.11478879 0.023903865 2.1847784e-38
0.014618118 -0.11478879 0.023903865 1.2532419e-38
0.016394313 -0.11478879 0.023903865 1.207139e-38
0.072499044 -0.11868234 0.0088485666 2.3509869e-38
0.07408677 -0.11789979 0.011874456 2.3509879e-38
0.075884052 -0.11789979 0.011874456 2.3509886e-38
0.07768134 -0.11789979 0.011874456 2.341805e-38
0.079709411 -0.11868234 0.0088485666 2.3325497e-38
0.081512004 -0.11868234 0.0088485666 2.3234379e-38
0.083073199 -0.11789979 0.011874456 2.323402e-38
0.084625229 -0.1171218 0.014882702 2.323402e-38
0.086417243 -0.1171218 0.014882702 2.2958873e-38
0.088209257 -0.1171218 0.014882702 2.2316024e-38
0.093721852 -0.11247079 0.032866973 1.742929e-38
0.095482334 -0.11247079 0.032866973 6.7338809e-39
-0.07046248 -0.12958528 -0.026103001 1.179412e-38
-0.068400547 -0.12880091 -0.023090582 1.1242723e-38
-0.066541955 -0.12880091 -0.023090582 1.2534164e-38
-0.064870864 -0.12958528 -0.026103001 1.2533795e-38
-0.063006997 -0.12958528 -0.026103001 1.08732e-38
-0.061143119 -0.12958528 -0.026103001 1.0871059e-38
-0.05910759 -0.12880091 -0.023090582 9.8601554e-39
-0.057083566 -0.12802102 -0.020095211 9.0390365e-39
-0.05507094 -0.12724553 -0.017116766 1.6050225e-38
-0.053222824 -0.12724553 -0.017116766 1.6418655e-38
-0.051172104 -0.12618984 -0.01306222 1.7525729e-38
-0.049331095 -0.12618984 -0.01306222 1.6881801e-38
-0.047353525 -0.12542458 -0.010123115 1.5868368e-38
-0.045517672 -0.12542458 -0.010123115 1.5223712e-38
-0.043681812 -0.12542458 -0.010123115 1.3289035e-38
-0.041845959 -0.12542458 -0.010123115 1.4119144e-38
-0.039890546 -0.12463553 -0.0070925765 1.596341e-38
-0.038060006 -0.12463553 -0.0070925765 1.6977916e-38
-0.036229461 -0.12463553 -0.0070925765 1.6516935e-38
-0.034295902 -0.12385099 -0.0040794425 1.5870491e-38
-0.032470644 -0.12385099 -0.0040794425 1.4855986e-38
-0.030553464 -0.123071 -0.001083713 1.5039305e-38
-0.028733458 -0.123071 -0.001083713 1.6146725e-38
-0.026994865 -0.12385099 -0.0040794425 1.5318392e-38
-0.025169607 -0.12385099 -0.0040794425 1.762328e-38
-0.023344345 -0.12385099 -0.0040794425 1.8082833e-38
-0.021519084 -0.12385099 -0.0040794425 1.6422959e-38
-0.019633424 -0.123071 -0.001083713 1.5685395e-38
-0.017741024 -0.12204717 0.0028485246 1.5870141e-38
-0.015927911 -0.12204717 0.0028485246 1.6054882e-38
-0.014114801 -0.12204717 0.0028485246 1.6331469e-38
-0.012301687 -0.12204717 0.0028485246 1.6793173e-38
-0.010453686 -0.12125005 0.0059099384 1.6700989e-38
-0.0086459406 -0.12125005 0.0059099384 1.6885757e-38
-0.006838195 -0.12125005 0.0059099384 1.5503184e-38
-0.0050124191 -0.12048493 0.0088485666 1.5227312e-38
-0.0032098256 -0.12048493 0.0088485666 1.3108596e-38
-0.0013992749 -0.11969708 0.011874456 1.4123449e-38
0.00039801002 -0.11969708 0.011874456 1.6058817e-38
0.0021926612 -0.11891381 0.014882702 1.6793489e-38
0.003976807 -0.11813517 0.017873306 1.789804e-38
0.0057505444 -0.11736105 0.020846386 1.7250896e-38
0.0075321002 -0.11736105 0.020846386 1.6511894e-38
0.009313656 -0.11736105 0.020846386 1.8354352e-38
0.011095212 -0.11736105 0.020846386 2.0009928e-38
0.012841923 -0.11656497 0.023903865 1.9267005e-38
0.014618118 -0.11656497 0.023903865 1.0689934e-38
0.016394313 -0.11656497 0.023903865 1.0411509e-38
0.072289482 -0.11969708 0.011874456 2.3140013e-38
0.073873155 -0.11891381 0.014882702 2.2310979e-38
0.075447559 -0.11813517 0.017873306 2.2956359e-38
0.077234328 -0.11813517 0.017873306 2.341805e-38
0.079478629 -0.11969708 0.011874456 2.3417691e-38
0.081275918 -0.11969708 0.011874456 2.3234379e-38
0.083073199 -0.11969708 0.011874456 2.2865602e-38
0.084625229 -0.11891381 0.014882702 2.2773408e-38
0.086417243 -0.11891381 0.014882702 2.2774125e-38
0.088209257 -0.11891381 0.014882702 2.2775202e-38
0.090725422 -0.11577369 0.026942987 2.2683362e-38
0.092496291 -0.11577369 0.026942987 2.2775192e-38
0.093721852 -0.11423124 0.032866973 2.1394054e-38
0.095482334 -0.11423124 0.032866973 7.1959311e-39
-0.07046248 -0.13144915 -0.026103001 1.2069985e-38
-0.068598613 -0.13144915 -0.026103001 1.1610782e-38
-0.066734746 -0.13144915 -0.026103001 1.2717476e-38
-0.06512253 -0.13250901 -0.030146342 1.2440525e-38
-0.06325157 -0.13250901 -0.030146342 1.0503699e-38
-0.061143119 -0.13144915 -0.026103001 1.0317883e-38
-0.05910759 -0.13065951 -0.023090582 9.2147832e-39
-0.057248998 -0.13065951 -0.023090582 9.3152605e-39
-0.05507094 -0.12909363 -0.017116766 1.6602682e-38
-0.053222824 -0.12909363 -0.017116766 1.687892e-38
-0.051172104 -0.12803085 -0.01306222 1.7800885e-38
-0.049331095 -0.12803085 -0.01306222 1.7525027e-38
-0.047353525 -0.12726043 -0.010123115 1.6973292e-38
-0.045517672 -0.12726043 -0.010123115 1.6513383e-38
-0.043681812 -0.12726043 -0.010123115 1.4301753e-38
-0.041845959 -0.12726043 -0.010123115 1.5316967e-38
-0.039890546 -0.12646608 -0.0070925765 1.6793525e-38
-0.037946418 -0.12567626 -0.0040794425 1.7439245e-38
-0.03612116 -0.12567626 -0.0040794425 1.6886071e-38
-0.034295902 -0.12567626 -0.0040794425 1.623927e-38
-0.032373469 -0.124891 -0.001083713 1.5409157e-38
-0.030553464 -0.124891 -0.001083713 1.5776872e-38
-0.028733458 -0.124891 -0.001083713 1.7160161e-38
-0.026994865 -0.12567626 -0.0040794425 1.614743e-38
-0.025169607 -0.12567626 -0.0040794425 1.7900222e-38
-0.023344345 -0.12567626 -0.0040794425 1.8544165e-38
-0.021519084 -0.12567626 -0.0040794425 1.7160877e-38
-0.019633424 -0.124891 -0.001083713 1.6423315e-38
-0.017741024 -0.12386028 0.0028485246 1.6331113e-38
-0.015927911 -0.12386028 0.0028485246 1.6700248e-38
-0.014114801 -0.12386028 0.0028485246 1.7345617e-38
-0.012261432 -0.1230578 0.0059099384 1.7622928e-38
-0.010453686 -0.1230578 0.0059099384 1.7715495e-38
-0.0086459406 -0.1230578 0.0059099384 1.7900259e-38
-0.0068150107 -0.12228753 0.0088485666 1.6149268e-38
-0.0050124191 -0.12228753 0.0088485666 1.4767765e-38
-0.0032098256 -0.12228753 0.0088485666 1.1818928e-38
-0.0013992749 -0.12149437 0.011874456 1.2557192e-38
0.00039801002 -0.12149437 0.011874456 1.4769149e-38
0.0021926612 -0.12070583 0.014882702 1.5596735e-38
0.003976807 -0.11992194 0.017873306 1.8083859e-38
0.0057505444 -0.11914261 0.020846386 1.7989882e-38
0.0075321002 -0.11914261 0.020846386 1.67899e-38
0.0092895329 -0.11834116 0.023903865 1.7894436e-38
0.011065728 -0.11834116 0.023903865 1.8720971e-38
0.012841923 -0.11834116 0.023903865 1.8254634e-38
0.014618118 -0.11834116 0.023903865 1.1059424e-38
0.016394313 -0.11834116 0.023903865 1.1333109e-38
0.072289482 -0.12149437 0.011874456 2.350988e-38
0.073449671 -0.11914261 0.020846386 2.3509886e-38
0.075231224 -0.11914261 0.020846386 2.341805e-38
0.076784946 -0.11834116 0.023903865 2.3417691e-38
0.078561142 -0.11834116 0.023903865 2.3233662e-38
