# .PCD v0.7 - Point Cloud Data file format
VERSION 0.7
FIELDS x y z rgb
SIZE 4 4 4 4
TYPE F F F F
COUNT 1 1 1 1
WIDTH 928
HEIGHT 1
VIEWPOINT 0 0 0 1 0 0 0
POINTS 928
DATA ascii
-0.032527931 -0.097633243 -0.020485491 2.3509879e-38
-0.030651812 -0.097633243 -0.020485491 2.3509883e-38
-0.028775696 -0.097633243 -0.020485491 2.3509883e-38
-0.026899578 -0.097633243 -0.020485491 2.3509883e-38
-0.02522547 -0.09603554 -0.013502806 2.3418047e-38
-0.023361597 -0.09603554 -0.013502806 2.3418047e-38
-0.021497723 -0.09603554 -0.013502806 2.3418047e-38
-0.019736845 -0.095346272 -0.010490388 2.3418047e-38
-0.017985914 -0.094660893 -0.0074950159 2.3418047e-38
-0.016132575 -0.094660893 -0.0074950159 2.3418047e-38
-0.014279235 -0.094660893 -0.0074950159 2.3418047e-38
-0.012425896 -0.094660893 -0.0074950159 2.3418047e-38
-0.010572553 -0.094660893 -0.0074950159 2.3509886e-38
-0.008450605 -0.09603554 -0.013502806 2.3509886e-38
-0.0063988641 -0.096960694 -0.017546147 2.3509886e-38
-0.0045279004 -0.096960694 -0.017546147 2.3509886e-38
-0.0026569366 -0.096960694 -0.017546147 2.3509886e-38
-0.00078597665 -0.096960694 -0.017546147 2.3509886e-38
0.0010849871 -0.096960694 -0.017546147 2.3509883e-38
0.0029559508 -0.096960694 -0.017546147 2.3509886e-38
0.0048269145 -0.096960694 -0.017546147 2.3509168e-38
0.0068705268 -0.097633243 -0.020485491 2.3509527e-38
0.0087466426 -0.097633243 -0.020485491 2.3509879e-38
0.010622758 -0.097633243 -0.020485491 2.350987e-38
0.012498874 -0.097633243 -0.020485491 2.3509869e-38
0.01437499 -0.097633243 -0.020485491 2.3418038e-38
0.016728681 -0.099252045 -0.027560323 2.341805e-38
0.018617209 -0.099252045 -0.027560323 2.341805e-38
0.02050573 -0.099252045 -0.027560323 2.341805e-38
0.022394251 -0.099252045 -0.027560323 2.3142542e-38
0.024282772 -0.099252045 -0.027560323 2.3234369e-38
0.026399713 -0.099937305 -0.030555218 2.2958854e-38
0.028059818 -0.099252045 -0.027560323 2.2590789e-38
0.029948331 -0.099252045 -0.027560323 2.2958866e-38
0.03183686 -0.099252045 -0.027560323 2.2958873e-38
0.033391796 -0.098335579 -0.023555011 2.0379187e-38
-0.045660749 -0.099509358 -0.020485491 2.295877e-38
-0.043818131 -0.098831654 -0.017546147 2.3509841e-38
-0.042000335 -0.097899407 -0.013502806 2.3509158e-38
-0.040136464 -0.097899407 -0.013502806 2.3508451e-38
-0.038272589 -0.097899407 -0.013502806 2.3508451e-38
-0.036464173 -0.097204864 -0.010490388 2.3509524e-38
-0.034665979 -0.09651424 -0.0074950159 2.3509876e-38
-0.032812636 -0.09651424 -0.0074950159 2.3509527e-38
-0.030888395 -0.097204864 -0.010490388 2.3509886e-38
-0.028953219 -0.097899407 -0.013502806 2.3509886e-38
-0.026979459 -0.098831654 -0.017546147 2.3509886e-38
-0.02522547 -0.097899407 -0.013502806 2.3509883e-38
-0.023361597 -0.097899407 -0.013502806 2.3418045e-38
-0.021497723 -0.097899407 -0.013502806 2.350988e-38
-0.019736845 -0.097204864 -0.010490388 2.3418045e-38
-0.018092971 -0.09582752 -0.0045165718 2.350988e-38
-0.016244851 -0.09582752 -0.0045165718 2.3418045e-38
-0.014396735 -0.09582752 -0.0045165718 2.350988e-38
-0.012548614 -0.09582752 -0.0045165718 2.350988e-38
-0.010700498 -0.09582752 -0.0045165718 2.350988e-38
-0.0087192133 -0.09651424 -0.0074950159 2.350988e-38
-0.0067266971 -0.097204864 -0.010490388 2.3509883e-38
-0.004722856 -0.097899407 -0.013502806 2.350988e-38
-0.0028589852 -0.097899407 -0.013502806 2.3509883e-38
-0.00099511072 -0.097899407 -0.013502806 2.350988e-38
0.00086876377 -0.097899407 -0.013502806 2.350988e-38
0.0029559508 -0.098831654 -0.017546147 2.3509883e-38
0.0048269145 -0.098831654 -0.017546147 2.3509527e-38
0.0066978745 -0.098831654 -0.017546147 2.3509527e-38
0.008568842 -0.098831654 -0.017546147 2.350988e-38
0.010439802 -0.098831654 -0.017546147 2.3509876e-38
0.012310769 -0.098831654 -0.017546147 2.3509873e-38
0.014181729 -0.098831654 -0.017546147 2.3509873e-38
0.016251106 -0.099509358 -0.020485491 2.3509879e-38
0.018127229 -0.099509358 -0.020485491 2.3418043e-38
0.020003345 -0.099509358 -0.020485491 2.3509879e-38
0.021879461 -0.099509358 -0.020485491 2.341804e-38
0.023755576 -0.099509358 -0.020485491 2.3418035e-38
0.025865804 -0.10021709 -0.023555011 2.3418033e-38
0.027747311 -0.10021709 -0.023555011 2.2682623e-38
0.029628806 -0.10021709 -0.023555011 2.314253e-38
0.031510301 -0.10021709 -0.023555011 2.3142537e-38
0.033391796 -0.10021709 -0.023555011 2.2406401e-38
-0.045660749 -0.10138547 -0.020485491 2.019467e-38
-0.043818131 -0.10070263 -0.017546147 2.0929411e-38
-0.042000335 -0.099763289 -0.013502806 2.2955605e-38
-0.040136464 -0.099763289 -0.013502806 2.3508809e-38
-0.038272589 -0.099763289 -0.013502806 2.3508451e-38
-0.036519319 -0.098367572 -0.0074950159 2.3509527e-38
-0.034726031 -0.097675636 -0.0045165718 2.3509524e-38
-0.032877915 -0.097675636 -0.0045165718 2.3509168e-38
-0.031029796 -0.097675636 -0.0045165718 2.3509168e-38
-0.029105956 -0.098367572 -0.0074950159 2.3509527e-38
-0.027171211 -0.099063456 -0.010490388 2.3509886e-38
-0.025399275 -0.098367572 -0.0074950159 2.3509883e-38
-0.023637325 -0.097675636 -0.0045165718 2.350988e-38
-0.021789208 -0.097675636 -0.0045165718 2.3509879e-38
-0.019941088 -0.097675636 -0.0045165718 2.3509879e-38
-0.018344346 -0.096050888 0.0024770796 2.3509879e-38
-0.01650849 -0.096050888 0.0024770796 2.3509879e-38
-0.014556687 -0.096733689 -0.0004620254 2.3509879e-38
-0.012715679 -0.096733689 -0.0004620254 2.3509879e-38
-0.010874666 -0.096733689 -0.0004620254 2.3509879e-38
-0.0088523813 -0.097675636 -0.0045165718 2.3509879e-38
-0.007004261 -0.097675636 -0.0045165718 2.350988e-38
-0.0050125346 -0.098367572 -0.0074950159 2.3509879e-38
-0.0031591915 -0.098367572 -0.0074950159 2.350988e-38
-0.001150921 -0.099063456 -0.010490388 2.3509879e-38
0.00070767105 -0.099063456 -0.010490388 2.3509879e-38
0.0027326383 -0.099763289 -0.013502806 2.350988e-38
0.0045965128 -0.099763289 -0.013502806 2.3509527e-38
0.0064603873 -0.099763289 -0.013502806 2.3509527e-38
0.008568842 -0.10070263 -0.017546147 2.3509527e-38
0.010439802 -0.10070263 -0.017546147 2.3509527e-38
0.012310769 -0.10070263 -0.017546147 2.3509883e-38
0.014181729 -0.10070263 -0.017546147 2.3509879e-38
0.016052697 -0.10070263 -0.017546147 2.3509876e-38
0.017923657 -0.10070263 -0.017546147 2.3509873e-38
0.020003345 -0.10138547 -0.020485491 2.3417673e-38
0.021879461 -0.10138547 -0.020485491 2.3234001e-38
0.023755576 -0.10138547 -0.020485491 2.350987e-38
0.025631692 -0.10138547 -0.020485491 2.350987e-38
0.027507804 -0.10138547 -0.020485491 2.350987e-38
0.029149435 -0.10070263 -0.017546147 2.350987e-38
0.030690752 -0.099763289 -0.013502806 2.350987e-38
0.032554619 -0.099763289 -0.013502806 2.3418033e-38
-0.043818131 -0.10257359 -0.017546147 2.350982e-38
-0.042000335 -0.10162716 -0.013502806 2.3509859e-38
-0.040136464 -0.10162716 -0.013502806 2.3508809e-38
-0.038422268 -0.099523753 -0.0045165718 2.3508451e-38
-0.036702901 -0.097886756 0.0024770796 2.3509168e-38
-0.034928154 -0.097177386 0.0055076182 2.3509524e-38
-0.03309761 -0.097177386 0.0055076182 2.3509168e-38
-0.031267069 -0.097177386 0.0055076182 2.3509168e-38
-0.02951313 -0.096472099 0.0085207522 2.3509886e-38
-0.027687872 -0.096472099 0.0085207522 2.3509883e-38
-0.025862612 -0.096472099 0.0085207522 2.3509883e-38
-0.023944899 -0.097177386 0.0055076182 2.3509883e-38
-0.022114359 -0.097177386 0.0055076182 2.3509883e-38
-0.020283815 -0.097177386 0.0055076182 2.350988e-38
-0.018453274 -0.097177386 0.0055076182 2.350988e-38
-0.01662273 -0.097177386 0.0055076182 2.350988e-38
-0.014672633 -0.097886756 0.0024770796 2.350988e-38
-0.012836777 -0.097886756 0.0024770796 2.350988e-38
-0.010874666 -0.098574698 -0.0004620254 2.350988e-38
-0.0090336576 -0.098574698 -0.0004620254 2.350988e-38
-0.0071926489 -0.098574698 -0.0004620254 2.350988e-38
-0.0051561445 -0.099523753 -0.0045165718 2.350988e-38
-0.0033080243 -0.099523753 -0.0045165718 2.350988e-38
-0.0013058521 -0.10022092 -0.0074950159 2.350988e-38
0.00054748729 -0.10022092 -0.0074950159 2.350988e-38
0.0025662631 -0.10092205 -0.010490388 2.3509883e-38
0.0044248551 -0.10092205 -0.010490388 2.3509527e-38
0.0064603873 -0.10162716 -0.013502806 2.3509168e-38
0.0083242618 -0.10162716 -0.013502806 2.3509527e-38
0.010188136 -0.10162716 -0.013502806 2.3509527e-38
0.012052011 -0.10162716 -0.013502806 2.3509527e-38
0.013915878 -0.10162716 -0.013502806 2.3509883e-38
0.016052697 -0.10257359 -0.017546147 2.3509879e-38
0.017923657 -0.10257359 -0.017546147 2.3509876e-38
0.019794617 -0.10257359 -0.017546147 2.3509872e-38
0.021665584 -0.10257359 -0.017546147 2.3509872e-38
0.023536544 -0.10257359 -0.017546147 2.3509874e-38
0.025407512 -0.10257359 -0.017546147 2.3509518e-38
0.027278475 -0.10257359 -0.017546147 2.3509879e-38
0.029149435 -0.10257359 -0.017546147 2.3509876e-38
0.030690752 -0.10162716 -0.013502806 2.3509876e-38
0.032554619 -0.10162716 -0.013502806 2.3509876e-38
0.034418501 -0.10162716 -0.013502806 2.3509879e-38
-0.040374614 -0.099722609 0.0024770796 2.3508451e-38
-0.038538761 -0.099722609 0.0024770796 2.3508451e-38
-0.036758699 -0.099007934 0.0055076182 2.3509165e-38
-0.034928154 -0.099007934 0.0055076182 2.3509521e-38
-0.033163652 -0.098297372 0.0085207522 2.3509527e-38
-0.03133839 -0.098297372 0.0085207522 2.3509527e-38
-0.02951313 -0.098297372 0.0085207522 2.350987e-38
-0.027687872 -0.098297372 0.0085207522 2.350987e-38
-0.025862612 -0.098297372 0.0085207522 2.3509883e-38
-0.024037354 -0.098297372 0.0085207522 2.3509168e-38
-0.022212092 -0.098297372 0.0085207522 2.3509168e-38
-0.020283815 -0.099007934 0.0055076182 2.3509168e-38
-0.018453274 -0.099007934 0.0055076182 2.3509527e-38
-0.01662273 -0.099007934 0.0055076182 2.3509527e-38
-0.014672633 -0.099722609 0.0024770796 2.3509883e-38
-0.012836777 -0.099722609 0.0024770796 2.3509883e-38
-0.011000924 -0.099722609 0.0024770796 2.3509883e-38
-0.0090336576 -0.10041572 -0.0004620254 2.3509883e-38
-0.0071926489 -0.10041572 -0.0004620254 2.3509883e-38
-0.0053516403 -0.10041572 -0.0004620254 2.3509883e-38
-0.0033080243 -0.10137187 -0.0045165718 2.3509886e-38
-0.0014599077 -0.10137187 -0.0045165718 2.3509886e-38
0.00038820878 -0.10137187 -0.0045165718 2.3509886e-38
0.002236329 -0.10137187 -0.0045165718 2.3509886e-38
0.004254166 -0.10207425 -0.0074950159 2.3509168e-38
0.0061075091 -0.10207425 -0.0074950159 2.3509168e-38
0.0081420355 -0.10278064 -0.010490388 2.3509527e-38
0.010188136 -0.10349102 -0.013502806 2.3509527e-38
0.012052011 -0.10349102 -0.013502806 2.3509527e-38
0.013915878 -0.10349102 -0.013502806 2.3509527e-38
0.015779752 -0.10349102 -0.013502806 2.3509886e-38
0.017923657 -0.10444455 -0.017546147 2.3509886e-38
0.019794617 -0.10444455 -0.017546147 2.3509527e-38
0.021371376 -0.10349102 -0.013502806 2.3509883e-38
0.02323525 -0.10349102 -0.013502806 2.3509167e-38
0.025407512 -0.10444455 -0.017546147 2.3416251e-38
0.027278475 -0.10444455 -0.017546147 2.3508807e-38
0.029149435 -0.10444455 -0.017546147 2.3508091e-38
0.030690752 -0.10349102 -0.013502806 2.3415535e-38
0.032554619 -0.10349102 -0.013502806 2.3508092e-38
0.034418501 -0.10349102 -0.013502806 2.3509168e-38
-0.040374614 -0.10155846 0.0024770796 2.3509156e-38
-0.038538761 -0.10155846 0.0024770796 2.3509511e-38
-0.036758699 -0.10083848 0.0055076182 2.3509863e-38
-0.03498891 -0.10012263 0.0085207522 2.3509869e-38
-0.033163652 -0.10012263 0.0085207522 2.3509168e-38
-0.03133839 -0.10012263 0.0085207522 2.3509527e-38
-0.02951313 -0.10012263 0.0085207522 2.350988e-38
-0.027687872 -0.10012263 0.0085207522 2.350988e-38
-0.025862612 -0.10012263 0.0085207522 2.3509527e-38
-0.024037354 -0.10012263 0.0085207522 2.3508809e-38
-0.022212092 -0.10012263 0.0085207522 2.3508809e-38
-0.020386834 -0.10012263 0.0085207522 2.3509168e-38
-0.018561576 -0.10012263 0.0085207522 2.3509527e-38
-0.016736317 -0.10012263 0.0085207522 2.3509527e-38
-0.014792189 -0.10083848 0.0055076182 2.3509527e-38
-0.012961645 -0.10083848 0.0055076182 2.3509527e-38
-0.011000924 -0.10155846 0.0024770796 2.3509527e-38
-0.0091650672 -0.10155846 0.0024770796 2.3509527e-38
-0.0071926489 -0.10225673 -0.0004620254 2.3509527e-38
-0.0053516403 -0.10225673 -0.0004620254 2.3509886e-38
-0.0035106316 -0.10225673 -0.0004620254 2.3509527e-38
-0.0014599077 -0.10322 -0.0045165718 2.3509527e-38
0.00038820878 -0.10322 -0.0045165718 2.3509527e-38
0.002236329 -0.10322 -0.0045165718 2.3509527e-38
0.0040844455 -0.10322 -0.0045165718 2.3509168e-38
0.0059325658 -0.10322 -0.0045165718 2.3509527e-38
0.0079608448 -0.1039276 -0.0074950159 2.350988e-38
0.0098141916 -0.1039276 -0.0074950159 2.3509876e-38
0.01185922 -0.10463922 -0.010490388 2.3509876e-38
0.013717812 -0.10463922 -0.010490388 2.3509879e-38
0.015576404 -0.10463922 -0.010490388 2.3509886e-38
0.017434996 -0.10463922 -0.010490388 2.341805e-38
0.019507501 -0.10535492 -0.013502806 2.3048554e-38
0.021371376 -0.10535492 -0.013502806 2.3509886e-38
0.02323525 -0.10535492 -0.013502806 2.3509883e-38
0.025099125 -0.10535492 -0.013502806 2.3508801e-38
0.026962999 -0.10535492 -0.013502806 2.3509524e-38
0.02882687 -0.10535492 -0.013502806 2.3509168e-38
0.030690752 -0.10535492 -0.013502806 2.3507733e-38
0.032303743 -0.10463922 -0.010490388 2.3508092e-38
0.034162335 -0.10463922 -0.010490388 2.3508092e-38
-0.040374614 -0.10339431 0.0024770796 2.0374447e-38
-0.038639426 -0.10194789 0.0085207522 1.9729795e-38
-0.036814168 -0.10194789 0.0085207522 2.3509824e-38
-0.03498891 -0.10194789 0.0085207522 2.3325807e-38
-0.033163652 -0.10194789 0.0085207522 2.3509524e-38
-0.031409301 -0.10123092 0.011516482 2.3415898e-38
-0.029589292 -0.10123092 0.011516482 2.3508451e-38
-0.027769286 -0.10123092 0.011516482 2.3508451e-38
-0.025949279 -0.10123092 0.011516482 2.3508451e-38
-0.024129272 -0.10123092 0.011516482 2.3508809e-38
-0.022212092 -0.10194789 0.0085207522 2.3508809e-38
-0.020386834 -0.10194789 0.0085207522 2.3508809e-38
-0.018561576 -0.10194789 0.0085207522 2.3416615e-38
-0.016736317 -0.10194789 0.0085207522 2.3324421e-38
-0.014911056 -0.10194789 0.0085207522 2.3416615e-38
-0.012961645 -0.10266902 0.0055076182 2.3509168e-38
-0.011131104 -0.10266902 0.0055076182 2.3509527e-38
-0.0093005598 -0.10266902 0.0055076182 2.3417333e-38
-0.0071926489 -0.10409774 -0.0004620254 2.3232944e-38
-0.0053516403 -0.10409774 -0.0004620254 2.3325138e-38
-0.0035106316 -0.10409774 -0.0004620254 2.3509527e-38
-0.001669623 -0.10409774 -0.0004620254 2.3325856e-38
0.00017138571 -0.10409774 -0.0004620254 2.3325497e-38
0.0020123944 -0.10409774 -0.0004620254 2.3325138e-38
0.003853403 -0.10409774 -0.0004620254 2.3417691e-38
0.0056944117 -0.10409774 -0.0004620254 2.3418039e-38
0.0077806823 -0.1050681 -0.0045165718 2.3509859e-38
0.0096287988 -0.1050681 -0.0045165718 2.3418015e-38
0.011667531 -0.10578094 -0.0074950159 2.3418015e-38
0.01352087 -0.10578094 -0.0074950159 2.3234354e-38
0.015576404 -0.10649781 -0.010490388 2.3050698e-38
0.017434996 -0.10649781 -0.010490388 2.2958154e-38
0.019507501 -0.10721879 -0.013502806 2.3234379e-38
0.021371376 -0.10721879 -0.013502806 2.3234379e-38
0.02323525 -0.10721879 -0.013502806 2.3418038e-38
0.025099125 -0.10721879 -0.013502806 2.3509869e-38
0.026962999 -0.10721879 -0.013502806 2.3417673e-38
0.02882687 -0.10721879 -0.013502806 2.3509521e-38
0.030690752 -0.10721879 -0.013502806 2.3508809e-38
0.032303743 -0.10649781 -0.010490388 2.3414822e-38
0.034162335 -0.10649781 -0.010490388 2.3508092e-38
0.036282368 -0.10721879 -0.013502806 2.3138945e-38
0.037879519 -0.10649781 -0.010490388 1.7884474e-38
0.039738111 -0.10649781 -0.010490388 1.216868e-38
-0.038689326 -0.10305093 0.011516482 1.6594778e-38
-0.036869317 -0.10305093 0.011516482 2.1297469e-38
-0.035049312 -0.10305093 0.011516482 2.2588228e-38
-0.033229306 -0.10305093 0.011516482 2.3416953e-38
-0.031409301 -0.10305093 0.011516482 2.3509168e-38
-0.029589292 -0.10305093 0.011516482 2.3508451e-38
-0.027769286 -0.10305093 0.011516482 2.3508451e-38
-0.025949279 -0.10305093 0.011516482 2.3415898e-38
-0.024129272 -0.10305093 0.011516482 2.3508092e-38
-0.022309266 -0.10305093 0.011516482 2.3508451e-38
-0.020386834 -0.10377313 0.0085207522 2.3509168e-38
-0.018561576 -0.10377313 0.0085207522 2.3509168e-38
-0.016736317 -0.10377313 0.0085207522 2.3509168e-38
-0.014911056 -0.10377313 0.0085207522 2.3509527e-38
-0.013085797 -0.10377313 0.0085207522 2.3509886e-38
-0.011260539 -0.10377313 0.0085207522 2.3509886e-38
-0.0093005598 -0.10449956 0.0055076182 2.3509886e-38
-0.0073292106 -0.10523017 0.0024770796 2.3509886e-38
-0.0053516403 -0.10593875 -0.0004620254 2.341805e-38
-0.0035106316 -0.10593875 -0.0004620254 2.341805e-38
-0.001669623 -0.10593875 -0.0004620254 2.3234379e-38
0.00017138571 -0.10593875 -0.0004620254 2.341805e-38
0.0020123944 -0.10593875 -0.0004620254 2.341805e-38
0.003853403 -0.10593875 -0.0004620254 2.341804e-38
0.0056944117 -0.10593875 -0.0004620254 2.3418021e-38
0.0075354241 -0.10593875 -0.0004620254 2.2958814e-38
0.0096287988 -0.10691623 -0.0045165718 2.2591456e-38
0.011476915 -0.10691623 -0.0045165718 2.2591461e-38
0.013325039 -0.10691623 -0.0045165718 2.2499639e-38
0.01537421 -0.10763429 -0.0074950159 2.2683337e-38
0.017227549 -0.10763429 -0.0074950159 2.277519e-38
0.019293588 -0.1083564 -0.010490388 2.2499324e-38
0.02115218 -0.1083564 -0.010490388 2.1762111e-38
0.023010772 -0.1083564 -0.010490388 2.2130871e-38
0.024869364 -0.1083564 -0.010490388 2.2775155e-38
0.026962999 -0.10908265 -0.013502806 2.3142502e-38
0.02882687 -0.10908265 -0.013502806 2.3509866e-38
0.030690752 -0.10908265 -0.013502806 2.3509527e-38
0.032554619 -0.10908265 -0.013502806 2.3508809e-38
0.034418501 -0.10908265 -0.013502806 2.3508809e-38
0.036282368 -0.10908265 -0.013502806 2.3509161e-38
0.037879519 -0.1083564 -0.010490388 2.0649978e-38
0.039738111 -0.1083564 -0.010490388 1.3274663e-38
0.041596703 -0.1083564 -0.010490388 1.345832e-38
-0.038754825 -0.10391603 0.015448719 1.7422782e-38
-0.036941711 -0.10391603 0.015448719 1.9360658e-38
-0.035128601 -0.10391603 0.015448719 2.3049559e-38
-0.033229306 -0.10487093 0.011516482 2.3509848e-38
-0.031409301 -0.10487093 0.011516482 2.3509869e-38
-0.029589292 -0.10487093 0.011516482 2.3325846e-38
-0.027769286 -0.10487093 0.011516482 2.3509886e-38
-0.025949279 -0.10487093 0.011516482 2.3509168e-38
-0.024129272 -0.10487093 0.011516482 2.3509168e-38
-0.022309266 -0.10487093 0.011516482 2.3509168e-38
-0.020489257 -0.10487093 0.011516482 2.3509168e-38
-0.018669251 -0.10487093 0.011516482 2.3509527e-38
-0.016849246 -0.10487093 0.011516482 2.3509886e-38
-0.015029237 -0.10487093 0.011516482 2.3509883e-38
-0.013085797 -0.10559841 0.0085207522 2.3418043e-38
-0.011260539 -0.10559841 0.0085207522 2.2957065e-38
-0.0094352774 -0.10559841 0.0085207522 2.3049621e-38
-0.0074700192 -0.10633011 0.0055076182 2.3234012e-38
-0.0056394786 -0.10633011 0.0055076182 2.3050703e-38
-0.0036574975 -0.10706602 0.0024770796 2.3050703e-38
-0.001669623 -0.10777976 -0.0004620254 2.2866674e-38
0.00017138571 -0.10777976 -0.0004620254 2.2958154e-38
0.0020123944 -0.10777976 -0.0004620254 2.2958503e-38
0.003853403 -0.10777976 -0.0004620254 2.323435e-38
0.0056944117 -0.10777976 -0.0004620254 2.2958815e-38
0.0075354241 -0.10777976 -0.0004620254 2.204042e-38
0.0096287988 -0.10876434 -0.0045165718 2.1304994e-38
0.011476915 -0.10876434 -0.0045165718 2.121352e-38
0.013325039 -0.10876434 -0.0045165718 2.1764916e-38
0.015173156 -0.10876434 -0.0045165718 2.2315971e-38
0.017227549 -0.10948761 -0.0074950159 2.2499663e-38
0.019080888 -0.10948761 -0.0074950159 2.2591504e-38
0.02115218 -0.11021499 -0.010490388 2.1764961e-38
0.023010772 -0.11021499 -0.010490388 2.1489066e-38
0.024869364 -0.11021499 -0.010490388 2.2315946e-38
0.026962999 -0.11094652 -0.013502806 2.2775134e-38
0.02882687 -0.11094652 -0.013502806 2.3142496e-38
0.030690752 -0.11094652 -0.013502806 2.3234362e-38
0.032554619 -0.11094652 -0.013502806 2.3234015e-38
0.034418501 -0.11094652 -0.013502806 2.3324407e-38
0.036282368 -0.11094652 -0.013502806 2.3509863e-38
0.037879519 -0.11021499 -0.010490388 2.1295697e-38
0.039738111 -0.11021499 -0.010490388 1.2167589e-38
0.041596703 -0.11021499 -0.010490388 1.2166855e-38
-0.038754825 -0.10572915 0.015448719 2.156981e-38
-0.036941711 -0.10572915 0.015448719 2.0650332e-38
-0.035128601 -0.10572915 0.015448719 2.350982e-38
-0.033315487 -0.10572915 0.015448719 2.3509838e-38
-0.031502374 -0.10572915 0.015448719 2.3509848e-38
-0.029689262 -0.10572915 0.015448719 2.3234345e-38
-0.027769286 -0.10669093 0.011516482 2.314252e-38
-0.025949279 -0.10669093 0.011516482 2.350988e-38
-0.024129272 -0.10669093 0.011516482 2.3509527e-38
-0.022309266 -0.10669093 0.011516482 2.3509883e-38
-0.020489257 -0.10669093 0.011516482 2.350988e-38
-0.018669251 -0.10669093 0.011516482 2.3509876e-38
-0.016849246 -0.10669093 0.011516482 2.3509873e-38
-0.015029237 -0.10669093 0.011516482 2.350987e-38
-0.013209231 -0.10669093 0.011516482 2.323436e-38
-0.011260539 -0.10742365 0.0085207522 2.3418031e-38
-0.0094352774 -0.10742365 0.0085207522 2.323436e-38
-0.0076100193 -0.10742365 0.0085207522 2.3234362e-38
-0.0056394786 -0.10816063 0.0055076182 2.3142527e-38
-0.0036574975 -0.10890187 0.0024770796 2.3142528e-38
-0.001669623 -0.10962076 -0.0004620254 2.295886e-38
1.4211982e-05 -0.10890187 0.0024770796 2.3142534e-38
0.0018500686 -0.10890187 0.0024770796 2.295885e-38
0.0036859252 -0.10890187 0.0024770796 2.2866988e-38
0.0055217817 -0.10890187 0.0024770796 2.2224103e-38
0.0073576383 -0.10890187 0.0024770796 2.1121319e-38
0.0093764327 -0.10962076 -0.0004620254 2.0200787e-38
0.011217441 -0.10962076 -0.0004620254 1.992492e-38
0.01305845 -0.10962076 -0.0004620254 2.0202603e-38
0.015173156 -0.11061247 -0.0045165718 2.0662891e-38
0.017021272 -0.11061247 -0.0045165718 2.0754748e-38
0.019080888 -0.11134095 -0.0074950159 2.0109381e-38
0.020934228 -0.11134095 -0.0074950159 1.8449489e-38
0.023010772 -0.11207359 -0.010490388 1.8357988e-38
0.024869364 -0.11207359 -0.010490388 1.9832387e-38
0.026962999 -0.11281042 -0.013502806 2.0845825e-38
0.02882687 -0.11281042 -0.013502806 2.1856763e-38
0.030690752 -0.11281042 -0.013502806 2.2683321e-38
0.032554619 -0.11281042 -0.013502806 2.305068e-38
0.034418501 -0.11281042 -0.013502806 2.3233985e-38
0.036282368 -0.11281042 -0.013502806 2.3509846e-38
0.037879519 -0.11207359 -0.010490388 2.157299e-38
0.039738111 -0.11207359 -0.010490388 1.1338181e-38
0.041596703 -0.11207359 -0.010490388 1.19821e-38
0.043455295 -0.11207359 -0.010490388 1.3455077e-38
-0.038754825 -0.10754226 0.015448719 2.0647499e-38
-0.036998071 -0.10678811 0.018510133 1.9174848e-38
-0.035190329 -0.10678811 0.018510133 2.0375533e-38
-0.033382583 -0.10678811 0.018510133 2.332616e-38
-0.031502374 -0.10754226 0.015448719 2.323433e-38
-0.029689262 -0.10754226 0.015448719 2.3509844e-38
-0.02787615 -0.10754226 0.015448719 2.3234341e-38
-0.026063038 -0.10754226 0.015448719 2.3326189e-38
-0.024249926 -0.10754226 0.015448719 2.3326196e-38
-0.022309266 -0.10851096 0.011516482 2.3326192e-38
-0.020489257 -0.10851096 0.011516482 2.3418026e-38
-0.018669251 -0.10851096 0.011516482 2.3509859e-38
-0.016849246 -0.10851096 0.011516482 2.3418021e-38
-0.015029237 -0.10851096 0.011516482 2.3418015e-38
-0.013209231 -0.10851096 0.011516482 2.3142504e-38
-0.011389226 -0.10851096 0.011516482 2.323434e-38
-0.0094352774 -0.10924892 0.0085207522 2.3142504e-38
-0.0076100193 -0.10924892 0.0085207522 2.3142506e-38
-0.0056394786 -0.10999118 0.0055076182 2.249965e-38
-0.0038089342 -0.10999118 0.0055076182 2.2315979e-38
-0.0018216446 -0.11073773 0.0024770796 2.2499657e-38
1.4211982e-05 -0.11073773 0.0024770796 2.2775169e-38
0.0016826913 -0.10999118 0.0055076182 2.2591487e-38
0.0035132356 -0.10999118 0.0055076182 2.1764933e-38
0.0053437762 -0.10999118 0.0055076182 2.1489404e-38
0.0073576383 -0.11073773 0.0024770796 2.0662136e-38
0.0091934912 -0.11073773 0.0024770796 1.9741248e-38
0.011029352 -0.11073773 0.0024770796 1.9097676e-38
0.01305845 -0.11146177 -0.0004620254 1.9189881e-38
0.014899459 -0.11146177 -0.0004620254 1.882184e-38
0.017021272 -0.11246057 -0.0045165718 1.8361233e-38
0.018869389 -0.11246057 -0.0045165718 1.9744171e-38
0.020934228 -0.1131943 -0.0074950159 1.8085e-38
0.022787567 -0.1131943 -0.0074950159 1.7900589e-38
0.024869364 -0.11393218 -0.010490388 1.8822178e-38
0.026962999 -0.11467429 -0.013502806 1.9650861e-38
0.02882687 -0.11467429 -0.013502806 2.0662872e-38
0.030690752 -0.11467429 -0.013502806 2.1673099e-38
0.032554619 -0.11467429 -0.013502806 2.2224123e-38
0.034418501 -0.11467429 -0.013502806 2.1760978e-38
0.036282368 -0.11467429 -0.013502806 2.2681131e-38
0.038146235 -0.11467429 -0.013502806 2.1481143e-38
0.039738111 -0.11393218 -0.010490388 1.1522925e-38
0.041596703 -0.11393218 -0.010490388 1.207429e-38
0.043455295 -0.11393218 -0.010490388 1.3455069e-38
-0.038754825 -0.10935538 0.015448719 1.5300861e-38
-0.036998071 -0.10859586 0.018510133 1.4472871e-38
-0.035190329 -0.10859586 0.018510133 1.4567211e-38
-0.033382583 -0.10859586 0.018510133 1.9546142e-38
-0.031574838 -0.10859586 0.018510133 2.2958819e-38
-0.029767094 -0.10859586 0.018510133 2.3509837e-38
-0.027959349 -0.10859586 0.018510133 2.3418002e-38
-0.026151605 -0.10859586 0.018510133 2.3509851e-38
-0.024249926 -0.10935538 0.015448719 2.3509853e-38
-0.022436813 -0.10935538 0.015448719 2.3509851e-38
-0.020489257 -0.11033095 0.011516482 2.3050663e-38
-0.018810589 -0.10935538 0.015448719 2.2682951e-38
-0.016997479 -0.10935538 0.015448719 2.2223049e-38
-0.015029237 -0.11033095 0.011516482 2.2131208e-38
-0.013209231 -0.11033095 0.011516482 2.2131922e-38
-0.011389226 -0.11033095 0.011516482 2.2499628e-38
-0.0095692165 -0.11033095 0.011516482 2.2315957e-38
-0.0076100193 -0.11107419 0.0085207522 2.1856058e-38
-0.0057847612 -0.11107419 0.0085207522 2.1027016e-38
-0.0038089342 -0.11182173 0.0055076182 2.0842627e-38
-0.0019783936 -0.11182173 0.0055076182 2.1211054e-38
-0.00014784932 -0.11182173 0.0055076182 2.111886e-38
0.0016826913 -0.11182173 0.0055076182 2.0566759e-38
0.0035132356 -0.11182173 0.0055076182 2.0659654e-38
0.0053437762 -0.11182173 0.0055076182 2.0845472e-38
0.0071743168 -0.11182173 0.0055076182 2.07547e-38
0.0090048648 -0.11182173 0.0055076182 2.011112e-38
0.011029352 -0.11257361 0.0024770796 1.9744134e-38
0.012865204 -0.11257361 0.0024770796 1.9652664e-38
0.014899459 -0.11330278 -0.0004620254 1.9192412e-38
0.016740467 -0.11330278 -0.0004620254 1.8455213e-38
0.018869389 -0.1143087 -0.0045165718 1.8456292e-38
0.020717505 -0.1143087 -0.0045165718 1.6889319e-38
0.022787567 -0.11504765 -0.0074950159 1.6059187e-38
0.024869364 -0.11579077 -0.010490388 1.5874432e-38
0.026962999 -0.11653815 -0.013502806 1.5873357e-38
0.02882687 -0.11653815 -0.013502806 1.6794238e-38
0.030690752 -0.11653815 -0.013502806 1.7345991e-38
0.032554619 -0.11653815 -0.013502806 1.7342757e-38
0.034418501 -0.11653815 -0.013502806 1.8628098e-38
0.036282368 -0.11653815 -0.013502806 2.0653884e-38
0.038146235 -0.11653815 -0.013502806 2.0928676e-38
0.040010117 -0.11653815 -0.013502806 1.1983539e-38
0.041596703 -0.11579077 -0.010490388 1.1613303e-38
0.043455295 -0.11579077 -0.010490388 1.2809694e-38
-0.038754825 -0.11116849 0.015448719 1.4194135e-38
-0.036998071 -0.11040358 0.018510133 1.2444918e-38
-0.035190329 -0.11040358 0.018510133 1.0879031e-38
-0.033382583 -0.11040358 0.018510133 1.5304435e-38
-0.031574838 -0.11040358 0.018510133 2.2866272e-38
-0.029767094 -0.11040358 0.018510133 2.3326163e-38
-0.027959349 -0.11040358 0.018510133 2.3050651e-38
-0.026151605 -0.11040358 0.018510133 2.3418001e-38
-0.024343859 -0.11040358 0.018510133 2.3418002e-38
-0.022536118 -0.11040358 0.018510133 2.3326164e-38
-0.020623703 -0.11116849 0.015448719 2.2591105e-38
-0.018810589 -0.11116849 0.015448719 2.1761697e-38
-0.016997479 -0.11116849 0.015448719 2.1025207e-38
-0.015029237 -0.11215095 0.011516482 2.1117756e-38
-0.013209231 -0.11215095 0.011516482 2.1302864e-38
-0.011389226 -0.11215095 0.011516482 2.2224103e-38
-0.0095692165 -0.11215095 0.011516482 2.2132266e-38
-0.0076100193 -0.11289944 0.0085207522 2.1764922e-38
-0.0057847612 -0.11289944 0.0085207522 2.1212109e-38
-0.0039594993 -0.11289944 0.0085207522 2.1396503e-38
-0.0019783936 -0.11365227 0.0055076182 2.1764931e-38
-0.00014784932 -0.11365227 0.0055076182 2.1396869e-38
0.0016826913 -0.11365227 0.0055076182 2.0291598e-38
0.0035132356 -0.11365227 0.0055076182 2.0384146e-38
0.0053437762 -0.11365227 0.0055076182 2.0938035e-38
0.0071743168 -0.11365227 0.0055076182 2.0846558e-38
0.0090048648 -0.11365227 0.0055076182 2.0387371e-38
0.011029352 -0.11440946 0.0024770796 2.0203698e-38
0.012865204 -0.11440946 0.0024770796 2.0111863e-38
0.014701057 -0.11440946 0.0024770796 1.9285332e-38
0.016740467 -0.11514379 -0.0004620254 1.8365168e-38
0.018581476 -0.11514379 -0.0004620254 1.6982954e-38
0.020717505 -0.1161568 -0.0045165718 1.5692573e-38
0.022565629 -0.1161568 -0.0045165718 1.4862086e-38
0.024640907 -0.11690097 -0.0074950159 1.458478e-38
0.026494253 -0.11690097 -0.0074950159 1.5413462e-38
0.028586544 -0.11764936 -0.010490388 1.716446e-38
0.030690752 -0.11840202 -0.013502806 1.7716921e-38
0.032554619 -0.11840202 -0.013502806 1.7160866e-38
0.034418501 -0.11840202 -0.013502806 1.7616082e-38
0.036282368 -0.11840202 -0.013502806 1.9917737e-38
0.038146235 -0.11840202 -0.013502806 2.0468048e-38
0.040010117 -0.11840202 -0.013502806 1.2721457e-38
0.041320972 -0.11690097 -0.0074950159 1.1428906e-38
0.043174319 -0.11690097 -0.0074950159 1.3085556e-38
0.045313887 -0.11764936 -0.010490388 1.2806111e-38
-0.036998071 -0.11221133 0.018510133 1.4195191e-38
-0.035190329 -0.11221133 0.018510133 1.0785751e-38
-0.033382583 -0.11221133 0.018510133 1.2815858e-38
-0.031574838 -0.11221133 0.018510133 2.2866978e-38
-0.029767094 -0.11221133 0.018510133 2.1670576e-38
-0.027959349 -0.11221133 0.018510133 2.1672726e-38
-0.026151605 -0.11221133 0.018510133 2.1948597e-38
-0.024343859 -0.11221133 0.018510133 2.2040435e-38
-0.022536118 -0.11221133 0.018510133 2.2132266e-38
-0.020623703 -0.1129816 0.015448719 2.1764196e-38
-0.018810589 -0.1129816 0.015448719 2.1026631e-38
-0.016997479 -0.1129816 0.015448719 2.0749688e-38
-0.015029237 -0.11397095 0.011516482 2.1119549e-38
-0.013209231 -0.11397095 0.011516482 2.1581244e-38
-0.011389226 -0.11397095 0.011516482 2.0660361e-38
-0.0095692165 -0.11397095 0.011516482 2.0753632e-38
-0.007749211 -0.11397095 0.011516482 2.0569604e-38
-0.0057847612 -0.11472471 0.0085207522 2.047741e-38
-0.0039594993 -0.11472471 0.0085207522 2.1122065e-38
-0.0021342412 -0.11472471 0.0085207522 2.1856763e-38
-0.00030898303 -0.11472471 0.0085207522 2.1305736e-38
0.0016826913 -0.11548282 0.0055076182 2.0108271e-38
0.0035132356 -0.11548282 0.0055076182 2.1122077e-38
0.0053437762 -0.11548282 0.0055076182 2.1397589e-38
0.0071743168 -0.11548282 0.0055076182 2.1122077e-38
0.0090048648 -0.11548282 0.0055076182 2.0019316e-38
0.011029352 -0.11624531 0.0024770796 1.9283541e-38
0.012865204 -0.11624531 0.0024770796 1.8916191e-38
0.014701057 -0.11624531 0.0024770796 1.7903471e-38
0.016740467 -0.1169848 -0.0004620254 1.6521976e-38
0.018581476 -0.1169848 -0.0004620254 1.7167345e-38
0.020422485 -0.1169848 -0.0004620254 1.5876609e-38
0.022565629 -0.11800493 -0.0045165718 1.4493675e-38
0.024413746 -0.11800493 -0.0045165718 1.4123813e-38
0.026494253 -0.11875431 -0.0074950159 1.5046124e-38
0.028586544 -0.11950795 -0.010490388 1.7166258e-38
0.030445151 -0.11950795 -0.010490388 1.7534316e-38
0.032554619 -0.12026589 -0.013502806 1.6332173e-38
0.034418501 -0.12026589 -0.013502806 1.7524599e-38
0.036282368 -0.12026589 -0.013502806 1.9087975e-38
0.038146235 -0.12026589 -0.013502806 1.8993269e-38
0.040010117 -0.12026589 -0.013502806 1.1892411e-38
0.041320972 -0.11875431 -0.0074950159 1.0507667e-38
0.043174319 -0.11875431 -0.0074950159 1.2256872e-38
0.045313887 -0.11950795 -0.010490388 1.087108e-38
-0.036998071 -0.11401908 0.018510133 1.4376334e-38
-0.03524958 -0.11327456 0.021448761 1.2259422e-38
-0.03344699 -0.11327456 0.021448761 1.1525809e-38
-0.031574838 -0.11401908 0.018510133 2.1301771e-38
-0.029767094 -0.11401908 0.018510133 2.0844735e-38
-0.027959349 -0.11401908 0.018510133 1.9741978e-38
-0.026151605 -0.11401908 0.018510133 2.0662869e-38
-0.024343859 -0.11401908 0.018510133 1.9467196e-38
-0.022536118 -0.11401908 0.018510133 2.0295147e-38
-0.020623703 -0.11479472 0.015448719 2.1581221e-38
-0.018810589 -0.11479472 0.015448719 2.1489394e-38
-0.016997479 -0.11479472 0.015448719 2.0844034e-38
-0.015029237 -0.11579098 0.011516482 2.075185e-38
-0.013209231 -0.11579098 0.011516482 2.047706e-38
-0.011389226 -0.11579098 0.011516482 1.983455e-38
-0.0095692165 -0.11579098 0.011516482 1.9651951e-38
-0.007749211 -0.11579098 0.011516482 1.9469002e-38
-0.0057847612 -0.11654995 0.0085207522 1.9652681e-38
-0.0039594993 -0.11654995 0.0085207522 2.0479216e-38
-0.0021342412 -0.11654995 0.0085207522 2.0754723e-38
-0.00030898303 -0.11654995 0.0085207522 2.0571031e-38
0.0015162751 -0.11654995 0.0085207522 1.9833468e-38
0.003341537 -0.11654995 0.0085207522 2.1581266e-38
0.0051667951 -0.11654995 0.0085207522 2.0846576e-38
0.0071743168 -0.11731337 0.0055076182 2.0295547e-38
0.0090048648 -0.11731337 0.0055076182 1.8729647e-38
0.011029352 -0.11808117 0.0024770796 1.8270096e-38
0.012865204 -0.11808117 0.0024770796 1.891618e-38
0.014701057 -0.11808117 0.0024770796 1.8087138e-38
0.016536918 -0.11808117 0.0024770796 1.771908e-38
0.018581476 -0.11882581 -0.0004620254 1.7994961e-38
0.020422485 -0.11882581 -0.0004620254 1.532201e-38
0.022565629 -0.11985306 -0.0045165718 1.4307503e-38
0.024413746 -0.11985306 -0.0045165718 1.4307858e-38
0.026261862 -0.11985306 -0.0045165718 1.4492599e-38
0.028347589 -0.12060766 -0.0074950159 1.689039e-38
0.030445151 -0.12136655 -0.010490388 1.7996723e-38
0.032554619 -0.12212978 -0.013502806 1.6333246e-38
0.034418501 -0.12212978 -0.013502806 1.7154752e-38
0.036282368 -0.12212978 -0.013502806 1.9086908e-38
0.038146235 -0.12212978 -0.013502806 1.7887641e-38
0.040010117 -0.12212978 -0.013502806 1.041871e-38
0.041320972 -0.12060766 -0.0074950159 9.494956e-39
0.043174319 -0.12060766 -0.0074950159 1.0967934e-38
0.045313887 -0.12136655 -0.010490388 1.2347291e-38
-0.036998071 -0.11582683 0.018510133 1.225403e-38
-0.03524958 -0.11507715 0.021448761 1.0691009e-38
-0.03344699 -0.11507715 0.021448761 1.0788226e-38
-0.031574838 -0.11582683 0.018510133 1.9275604e-38
-0.029767094 -0.11582683 0.018510133 1.9186635e-38
-0.027959349 -0.11582683 0.018510133 1.7992045e-38
-0.026151605 -0.11582683 0.018510133 1.6427603e-38
-0.024343859 -0.11582683 0.018510133 1.6704187e-38
-0.022536118 -0.11582683 0.018510133 1.8915073e-38
-0.020623703 -0.11660783 0.015448719 2.1122025e-38
-0.018810589 -0.11660783 0.015448719 2.1397551e-38
-0.016997479 -0.11660783 0.015448719 2.1305727e-38
-0.015184365 -0.11660783 0.015448719 2.1030231e-38
-0.013209231 -0.11761098 0.011516482 2.0662887e-38
-0.011389226 -0.11761098 0.011516482 1.8361215e-38
-0.0095692165 -0.11761098 0.011516482 1.7994945e-38
-0.007749211 -0.11761098 0.011516482 1.8272973e-38
-0.0057847612 -0.11837523 0.0085207522 1.9285339e-38
-0.0039594993 -0.11837523 0.0085207522 1.9744527e-38
-0.0021342412 -0.11837523 0.0085207522 1.9282821e-38
-0.00030898303 -0.11837523 0.0085207522 1.8728189e-38
0.0015162751 -0.11837523 0.0085207522 1.8451249e-38
0.003341537 -0.11837523 0.0085207522 1.8727146e-38
0.0051667951 -0.11837523 0.0085207522 1.7713721e-38
0.0071743168 -0.11914389 0.0055076182 1.7991015e-38
0.0090048648 -0.11914389 0.0055076182 1.7531104e-38
0.010835405 -0.11914389 0.0055076182 1.7900234e-38
0.012865204 -0.11991702 0.0024770796 1.873107e-38
0.014701057 -0.11991702 0.0024770796 1.8916183e-38
0.016536918 -0.11991702 0.0024770796 1.9928188e-38
0.018581476 -0.12066682 -0.0004620254 1.9100231e-38
0.020422485 -0.12066682 -0.0004620254 1.5874109e-38
0.022565629 -0.12170117 -0.0045165718 1.4583373e-38
0.024413746 -0.12170117 -0.0045165718 1.4215663e-38
0.026261862 -0.12170117 -0.0045165718 1.4215293e-38
0.028347589 -0.12246101 -0.0074950159 1.6152825e-38
0.030200936 -0.12246101 -0.0074950159 1.7167679e-38
0.032554619 -0.12399365 -0.013502806 1.568824e-38
0.034418501 -0.12399365 -0.013502806 1.6694138e-38
0.036282368 -0.12399365 -0.013502806 1.85341e-38
0.038146235 -0.12399365 -0.013502806 1.7611774e-38
0.040010117 -0.12399365 -0.013502806 1.0880407e-38
0.041320972 -0.12246101 -0.0074950159 1.023324e-38
0.043174319 -0.12246101 -0.0074950159 1.1337079e-38
0.045313887 -0.12322514 -0.010490388 1.1794117e-38
-0.037052169 -0.11687975 0.021448761 1.1793048e-38
-0.03524958 -0.11687975 0.021448761 1.0322224e-38
-0.03344699 -0.11687975 0.021448761 1.0880421e-38
-0.031644396 -0.11687975 0.021448761 1.7800118e-38
-0.029841803 -0.11687975 0.021448761 1.8079931e-38
-0.027959349 -0.11763458 0.018510133 1.7254479e-38
-0.026151605 -0.11763458 0.018510133 1.6796019e-38
-0.024343859 -0.11763458 0.018510133 1.6796737e-38
-0.022536118 -0.11763458 0.018510133 1.8638486e-38
-0.020728372 -0.11763458 0.018510133 2.0479169e-38
-0.018810589 -0.11842094 0.015448719 2.1122035e-38
-0.016997479 -0.11842094 0.015448719 2.130572e-38
-0.015184365 -0.11842094 0.015448719 2.0753993e-38
-0.013371252 -0.11842094 0.015448719 1.9372856e-38
-0.011558142 -0.11842094 0.015448719 1.7623647e-38
-0.0095692165 -0.11943097 0.011516482 1.7072989e-38
-0.007749211 -0.11943097 0.011516482 1.7626887e-38
-0.0059292056 -0.11943097 0.011516482 1.8917273e-38
-0.0039594993 -0.12020047 0.0085207522 1.909987e-38
-0.0021342412 -0.12020047 0.0085207522 1.7992082e-38
-0.00030898303 -0.12020047 0.0085207522 1.7621489e-38
0.0015162751 -0.12020047 0.0085207522 1.8081751e-38
0.003341537 -0.12020047 0.0085207522 1.9372151e-38
0.0051667951 -0.12020047 0.0085207522 1.8173975e-38
0.0071743168 -0.12097444 0.0055076182 1.8450914e-38
0.0090048648 -0.12097444 0.0055076182 1.817468e-38
0.010835405 -0.12097444 0.0055076182 1.7806972e-38
0.012865204 -0.12175287 0.0024770796 1.799208e-38
0.014701057 -0.12175287 0.0024770796 1.8360862e-38
0.016536918 -0.12175287 0.0024770796 1.9928191e-38
0.018581476 -0.12250783 -0.0004620254 1.974452e-38
0.020422485 -0.12250783 -0.0004620254 1.6149609e-38
0.022263493 -0.12250783 -0.0004620254 1.4306415e-38
0.024413746 -0.1235493 -0.0045165718 1.3754315e-38
0.026261862 -0.1235493 -0.0045165718 1.3753946e-38
0.028347589 -0.12431435 -0.0074950159 1.5598929e-38
0.030200936 -0.12431435 -0.0074950159 1.7074414e-38
0.032303743 -0.12508373 -0.010490388 1.6149224e-38
0.034418501 -0.12585752 -0.013502806 1.6234239e-38
0.036282368 -0.12585752 -0.013502806 1.7705416e-38
0.038146235 -0.12585752 -0.013502806 1.7335906e-38
0.040010117 -0.12585752 -0.013502806 1.1433225e-38
0.042246185 -0.1268961 -0.017546147 1.0970452e-38
0.043737866 -0.12585752 -0.013502806 1.1889535e-38
0.045601733 -0.12585752 -0.013502806 1.1332777e-38
-0.037052169 -0.11868234 0.021448761 1.1701208e-38
-0.03524958 -0.11868234 0.021448761 9.7690485e-39
-0.03344699 -0.11868234 0.021448761 1.0327247e-38
-0.031644396 -0.11868234 0.021448761 1.6139518e-38
-0.029841803 -0.11868234 0.021448761 1.6881391e-38
-0.028039211 -0.11868234 0.021448761 1.6792782e-38
-0.026151605 -0.11944233 0.018510133 1.6150649e-38
-0.024343859 -0.11944233 0.018510133 1.5229411e-38
-0.022536118 -0.11944233 0.018510133 1.587262e-38
-0.020728372 -0.11944233 0.018510133 1.7345955e-38
-0.018810589 -0.12023406 0.015448719 1.9188077e-38
-0.016997479 -0.12023406 0.015448719 2.075469e-38
-0.015184365 -0.12023406 0.015448719 2.0662863e-38
-0.013371252 -0.12023406 0.015448719 1.9097337e-38
-0.011558142 -0.12023406 0.015448719 1.7715842e-38
-0.0095692165 -0.121251 0.011516482 1.7348857e-38
-0.007749211 -0.121251 0.011516482 1.73503e-38
-0.0059292056 -0.121251 0.011516482 1.7902042e-38
-0.0041091964 -0.121251 0.011516482 1.7900607e-38
-0.0021342412 -0.12202574 0.0085207522 1.7622581e-38
-0.00030898303 -0.12202574 0.0085207522 1.7897726e-38
0.0015162751 -0.12202574 0.0085207522 1.8542379e-38
0.003341537 -0.12202574 0.0085207522 1.9095201e-38
0.0051667951 -0.12202574 0.0085207522 1.8726782e-38
0.0071743168 -0.12280498 0.0055076182 1.9648738e-38
0.0090048648 -0.12280498 0.0055076182 1.9279955e-38
0.010835405 -0.12280498 0.0055076182 1.9004087e-38
0.012865204 -0.12358873 0.0024770796 1.9373946e-38
0.014701057 -0.12358873 0.0024770796 1.9558335e-38
0.016536918 -0.12358873 0.0024770796 2.0846561e-38
0.018581476 -0.12434883 -0.0004620254 2.0387372e-38
0.020422485 -0.12434883 -0.0004620254 1.614924e-38
0.022263493 -0.12434883 -0.0004620254 1.4029457e-38
0.024413746 -0.1253974 -0.0045165718 1.3661748e-38
0.026261862 -0.1253974 -0.0045165718 1.3477354e-38
0.028109975 -0.1253974 -0.0045165718 1.5413818e-38
0.030200936 -0.12616767 -0.0074950159 1.7166612e-38
0.032303743 -0.12694232 -0.010490388 1.6978627e-38
0.034162335 -0.12694232 -0.010490388 1.6051281e-38
0.036020927 -0.12694232 -0.010490388 1.7245871e-38
0.038146235 -0.12772138 -0.013502806 1.7060398e-38
0.040010117 -0.12772138 -0.013502806 1.1526142e-38
0.042246185 -0.12876706 -0.017546147 1.1061933e-38
0.044117145 -0.12876706 -0.017546147 1.1981734e-38
-0.03524958 -0.12048493 0.021448761 9.8616001e-39
-0.03344699 -0.12048493 0.021448761 1.0234333e-38
-0.031644396 -0.12048493 0.021448761 1.5678543e-38
-0.029841803 -0.12048493 0.021448761 1.697287e-38
-0.028039211 -0.12048493 0.021448761 1.7529994e-38
-0.026151605 -0.12125005 0.018510133 1.5966257e-38
-0.024343859 -0.12125005 0.018510133 1.504502e-38
-0.022536118 -0.12125005 0.018510133 1.5135422e-38
-0.020728372 -0.12125005 0.018510133 1.5963388e-38
-0.018810589 -0.12204717 0.015448719 1.7160849e-38
-0.016997479 -0.12204717 0.015448719 1.9096957e-38
-0.015184365 -0.12204717 0.015448719 2.0203668e-38
-0.013371252 -0.12204717 0.015448719 1.965086e-38
-0.011558142 -0.12204717 0.015448719 1.8269371e-38
-0.0097450279 -0.12204717 0.015448719 1.817826e-38
-0.007749211 -0.123071 0.011516482 1.7901676e-38
-0.0059292056 -0.123071 0.011516482 1.725631e-38
-0.0041091964 -0.123071 0.011516482 1.734671e-38
-0.0022891909 -0.123071 0.011516482 1.8174676e-38
-0.00030898303 -0.12385099 0.0085207522 1.8634223e-38
0.0015162751 -0.12385099 0.0085207522 1.8633144e-38
0.003341537 -0.12385099 0.0085207522 1.8541302e-38
0.0051667951 -0.12385099 0.0085207522 1.9187749e-38
0.0071743168 -0.12463553 0.0055076182 2.038594e-38
0.0090048648 -0.12463553 0.0055076182 1.9372153e-38
0.011029352 -0.12542458 0.0024770796 1.909521e-38
0.012865204 -0.12542458 0.0024770796 2.0017885e-38
0.014701057 -0.12542458 0.0024770796 1.96491e-38
0.016740467 -0.12618984 -0.0004620254 1.9558335e-38
0.018581476 -0.12618984 -0.0004620254 1.9375011e-38
0.020422485 -0.12618984 -0.0004620254 1.5135443e-38
0.022263493 -0.12618984 -0.0004620254 1.3752859e-38
0.024104502 -0.12618984 -0.0004620254 1.4122715e-38
0.026261862 -0.12724553 -0.0045165718 1.3846491e-38
0.028109975 -0.12724553 -0.0045165718 1.513723e-38
0.029958092 -0.12724553 -0.0045165718 1.6520886e-38
0.032303743 -0.12880091 -0.010490388 1.6242144e-38
0.034162335 -0.12880091 -0.010490388 1.5960878e-38
0.036020927 -0.12880091 -0.010490388 1.6786685e-38
0.038146235 -0.12958528 -0.013502806 1.6968566e-38
0.040010117 -0.12958528 -0.013502806 1.1433592e-38
0.042246185 -0.13063805 -0.017546147 1.0600601e-38
0.044117145 -0.13063805 -0.017546147 1.1980299e-38
-0.037052169 -0.12228753 0.021448761 1.1609358e-38
-0.03524958 -0.12228753 0.021448761 1.023038e-38
-0.03344699 -0.12228753 0.021448761 9.6811591e-39
-0.031644396 -0.12228753 0.021448761 1.5677827e-38
-0.029841803 -0.12228753 0.021448761 1.687996e-38
-0.028039211 -0.12228753 0.021448761 1.7990259e-38
-0.02623662 -0.12228753 0.021448761 1.5964827e-38
-0.024343859 -0.1230578 0.018510133 1.5782236e-38
-0.022536118 -0.1230578 0.018510133 1.6702043e-38
-0.020728372 -0.1230578 0.018510133 1.679352e-38
-0.018810589 -0.12386028 0.015448719 1.642365e-38
-0.016997479 -0.12386028 0.015448719 1.7161565e-38
-0.015184365 -0.12386028 0.015448719 1.8821804e-38
-0.013371252 -0.12386028 0.015448719 1.9560093e-38
-0.011558142 -0.12386028 0.015448719 1.9006936e-38
-0.0097450279 -0.12386028 0.015448719 1.90995e-38
-0.0079319142 -0.12386028 0.015448719 1.8638522e-38
-0.0059292056 -0.124891 0.011516482 1.7716566e-38
-0.0041091964 -0.124891 0.011516482 1.8176105e-38
-0.0022891909 -0.124891 0.011516482 1.9281023e-38
-0.00030898303 -0.12567626 0.0085207522 1.9279238e-38
0.0015162751 -0.12567626 0.0085207522 1.8356203e-38
0.003341537 -0.12567626 0.0085207522 1.8450181e-38
0.0051667951 -0.12567626 0.0085207522 1.9187743e-38
0.0071743168 -0.12646608 0.0055076182 1.9832761e-38
0.0090048648 -0.12646608 0.0055076182 1.8081412e-38
0.011029352 -0.12726043 0.0024770796 1.7712275e-38
0.012865204 -0.12726043 0.0024770796 1.8542758e-38
0.014701057 -0.12726043 0.0024770796 1.75286e-38
0.016740467 -0.12803085 -0.0004620254 1.6423683e-38
0.018581476 -0.12803085 -0.0004620254 1.624036e-38
0.020422485 -0.12803085 -0.0004620254 1.2737633e-38
0.022263493 -0.12803085 -0.0004620254 1.2277727e-38
0.024104502 -0.12803085 -0.0004620254 1.4030516e-38
0.026261862 -0.12909363 -0.0045165718 1.4030879e-38
0.028109975 -0.12909363 -0.0045165718 1.4492936e-38
0.029958092 -0.12909363 -0.0045165718 1.5506734e-38
0.032054268 -0.12987436 -0.0074950159 1.5136512e-38
0.033907615 -0.12987436 -0.0074950159 1.5685366e-38
0.035760947 -0.12987436 -0.0074950159 1.6235305e-38
0.038146235 -0.13144915 -0.013502806 1.6877089e-38
0.040010117 -0.13144915 -0.013502806 1.1525435e-38
0.041873984 -0.13144915 -0.013502806 1.050733e-38
0.044117145 -0.13250901 -0.017546147 1.2255449e-38
-0.037052169 -0.12409012 0.021448761 1.0595562e-38
-0.03524958 -0.12409012 0.021448761 9.4002562e-39
-0.03344699 -0.12409012 0.021448761 7.9287205e-39
-0.031644396 -0.12409012 0.021448761 1.5032457e-38
-0.029841803 -0.12409012 0.021448761 1.6418629e-38
-0.028039211 -0.12409012 0.021448761 1.8357611e-38
-0.02623662 -0.12409012 0.021448761 1.5779368e-38
-0.024343859 -0.12486555 0.018510133 1.5596422e-38
-0.022536118 -0.12486555 0.018510133 1.6977573e-38
-0.020623703 -0.1256734 0.015448719 1.7622581e-38
-0.018920626 -0.12486555 0.018510133 1.6701324e-38
-0.017112881 -0.12486555 0.018510133 1.6702029e-38
-0.015184365 -0.1256734 0.015448719 1.8177511e-38
-0.013371252 -0.1256734 0.015448719 1.9376418e-38
-0.011558142 -0.1256734 0.015448719 1.9099852e-38
-0.0097450279 -0.1256734 0.015448719 1.8546327e-38
-0.0079319142 -0.1256734 0.015448719 1.7716566e-38
-0.0059292056 -0.126711 0.011516482 1.7715843e-38
-0.0041091964 -0.126711 0.011516482 1.8637438e-38
-0.0022891909 -0.126711 0.011516482 1.9650159e-38
-0.00030898303 -0.1275015 0.0085207522 1.9371436e-38
0.0015162751 -0.1275015 0.0085207522 1.8265089e-38
0.003341537 -0.1275015 0.0085207522 1.7344552e-38
0.0053437762 -0.1282966 0.0055076182 1.725271e-38
0.0073576383 -0.12909628 0.0024770796 1.7621139e-38
0.0091934912 -0.12909628 0.0024770796 1.6699547e-38
0.011029352 -0.12909628 0.0024770796 1.7160172e-38
0.012865204 -0.12909628 0.0024770796 1.8543109e-38
0.014701057 -0.12909628 0.0024770796 1.7897737e-38
0.016740467 -0.12987186 -0.0004620254 1.7345995e-38
0.018581476 -0.12987186 -0.0004620254 1.5318403e-38
0.020422485 -0.12987186 -0.0004620254 1.1632009e-38
0.022263493 -0.12987186 -0.0004620254 1.1540883e-38
0.024104502 -0.12987186 -0.0004620254 1.36621e-38
0.026261862 -0.13094176 -0.0045165718 1.3663176e-38
0.028109975 -0.13094176 -0.0045165718 1.3940479e-38
0.029958092 -0.13094176 -0.0045165718 1.4954631e-38
0.032054268 -0.13172771 -0.0074950159 1.4860996e-38
0.033907615 -0.13172771 -0.0074950159 1.5041428e-38
0.035760947 -0.13172771 -0.0074950159 1.5682848e-38
0.037879519 -0.1325181 -0.010490388 1.6876731e-38
0.039738111 -0.1325181 -0.010490388 1.1986416e-38
0.041873984 -0.13331302 -0.013502806 1.0967592e-38
0.044117145 -0.13437997 -0.017546147 1.2623513e-38
0.048177995 -0.14042725 -0.040463299 1.2897213e-38
0.050089143 -0.14042725 -0.040463299 1.2066737e-38
0.052397959 -0.14148657 -0.044477671 1.1605054e-38
0.054316141 -0.14148657 -0.044477671 1.1790183e-38
-0.036998071 -0.1266733 0.018510133 1.0687036e-38
-0.03524958 -0.12589271 0.021448761 9.5835685e-39
-0.03344699 -0.12589271 0.021448761 7.559938e-39
-0.031644396 -0.12589271 0.021448761 1.6230283e-38
-0.029841803 -0.12589271 0.021448761 1.8353659e-38
-0.028039211 -0.12589271 0.021448761 2.1030211e-38
-0.02623662 -0.12589271 0.021448761 2.0571042e-38
-0.024434026 -0.12589271 0.021448761 1.9190271e-38
-0.022536118 -0.1266733 0.018510133 1.9373957e-38
