# .PCD v0.7 - Point Cloud Data file format
VERSION 0.7
FIELDS x y z rgb
SIZE 4 4 4 4
TYPE F F F F
COUNT 1 1 1 1
WIDTH 940
HEIGHT 1
VIEWPOINT 0 0 0 1 0 0 0
POINTS 940
DATA ascii
0.042397492 -0.11094652 -0.01746954 1.4861698e-38
0.044261366 -0.11094652 -0.01746954 1.2926667e-38
0.046298929 -0.11192839 -0.021512881 1.3294404e-38
0.048169896 -0.11192839 -0.021512881 1.6982234e-38
0.050040856 -0.11192839 -0.021512881 1.7534313e-38
0.051911823 -0.11192839 -0.021512881 1.5412005e-38
0.053782783 -0.11192839 -0.021512881 1.4487527e-38
0.055653743 -0.11192839 -0.021512881 1.5959069e-38
0.057524711 -0.11192839 -0.021512881 1.4849507e-38
0.059395671 -0.11192839 -0.021512881 1.0326529e-38
0.061266638 -0.11192839 -0.021512881 1.1425669e-38
-0.015009725 -0.10669093 0.0075497478 1.1607301e-38
-0.013189716 -0.10669093 0.0075497478 1.2811846e-38
-0.011403853 -0.10742365 0.0045540184 2.0006314e-38
-0.0095785949 -0.10742365 0.0045540184 2.3049188e-38
-0.0077533331 -0.10742365 0.0045540184 1.9181999e-38
-0.0059280749 -0.10742365 0.0045540184 1.7253374e-38
-0.0040896852 -0.10669093 0.0075497478 1.8088864e-38
-0.0022696778 -0.10669093 0.0075497478 1.7169807e-38
-0.00044967048 -0.10669093 0.0075497478 1.5511742e-38
0.001370335 -0.10669093 0.0075497478 1.6524467e-38
0.0031903423 -0.10669093 0.0075497478 1.3942634e-38
0.0050234813 -0.10742365 0.0045540184 1.2745877e-38
0.0068672299 -0.10816063 0.0015408844 1.2008678e-38
0.0087216832 -0.10890187 -0.0014896542 1.2561871e-38
0.010557539 -0.10890187 -0.0014896542 1.4129916e-38
0.012426891 -0.10962076 -0.0044287592 1.367e-38
0.0142679 -0.10962076 -0.0044287592 1.3025338e-38
0.01610891 -0.10962076 -0.0044287592 1.3301205e-38
0.017949918 -0.10962076 -0.0044287592 1.3392686e-38
0.019736819 -0.10890187 -0.0014896542 1.3760043e-38
0.021572674 -0.10890187 -0.0014896542 1.4311422e-38
0.023472946 -0.10962076 -0.0044287592 1.477167e-38
0.025313955 -0.10962076 -0.0044287592 1.5507441e-38
0.027258044 -0.11061247 -0.0084833056 1.5229076e-38
0.029106162 -0.11061247 -0.0084833056 1.4121653e-38
0.030954279 -0.11061247 -0.0084833056 1.4581892e-38
0.032893784 -0.11134095 -0.01146175 1.4304942e-38
0.034747124 -0.11134095 -0.01146175 1.3750341e-38
0.036702879 -0.11207359 -0.014457121 1.4671948e-38
0.038561471 -0.11207359 -0.014457121 1.6699546e-38
0.040533617 -0.11281042 -0.01746954 1.614852e-38
0.042397492 -0.11281042 -0.01746954 1.4306736e-38
0.044261366 -0.11281042 -0.01746954 1.3662447e-38
0.046298929 -0.11379938 -0.021512881 1.4584075e-38
0.048169896 -0.11379938 -0.021512881 1.6059208e-38
0.050040856 -0.11379938 -0.021512881 1.5413454e-38
0.051911823 -0.11379938 -0.021512881 1.3475896e-38
0.053782783 -0.11379938 -0.021512881 1.3104596e-38
0.055653743 -0.11379938 -0.021512881 1.4853084e-38
0.057524711 -0.11379938 -0.021512881 1.4205211e-38
0.059172362 -0.11281042 -0.01746954 9.6822297e-39
0.061036237 -0.11281042 -0.01746954 1.1887355e-38
-0.015054373 -0.10924892 0.0045540184 1.5663524e-38
-0.013229111 -0.10924892 0.0045540184 9.4913588e-39
-0.011403853 -0.10924892 0.0045540184 1.687022e-38
-0.0095785949 -0.10924892 0.0045540184 2.1482197e-38
-0.007729698 -0.10851096 0.0075497478 2.0011019e-38
-0.0059096906 -0.10851096 0.0075497478 1.6792396e-38
-0.0040896852 -0.10851096 0.0075497478 1.6336796e-38
-0.0022696778 -0.10851096 0.0075497478 1.6801028e-38
-0.00044967048 -0.10851096 0.0075497478 1.6065272e-38
0.001370335 -0.10851096 0.0075497478 1.6063841e-38
0.0031903423 -0.10851096 0.0075497478 1.3666755e-38
0.0050103497 -0.10851096 0.0075497478 1.2746226e-38
0.0068487395 -0.10924892 0.0045540184 1.1640244e-38
0.0086977724 -0.10999118 0.0015408844 1.1271484e-38
0.010528315 -0.10999118 0.0015408844 1.2101608e-38
0.012393395 -0.11073773 -0.0014896542 1.1549855e-38
0.014229251 -0.11073773 -0.0014896542 1.1457292e-38
0.016065106 -0.11073773 -0.0014896542 1.3484157e-38
0.017900962 -0.11073773 -0.0014896542 1.3943344e-38
0.019736819 -0.11073773 -0.0014896542 1.4954277e-38
0.021572674 -0.11073773 -0.0014896542 1.4951402e-38
0.023472946 -0.11146177 -0.0044287592 1.4487541e-38
0.025313955 -0.11146177 -0.0044287592 1.5038203e-38
0.027154963 -0.11146177 -0.0044287592 1.5219381e-38
0.029106162 -0.11246057 -0.0084833056 1.3560575e-38
0.030954279 -0.11246057 -0.0084833056 1.3471231e-38
0.032893784 -0.1131943 -0.01146175 1.4855961e-38
0.034747124 -0.1131943 -0.01146175 1.4946021e-38
0.036702879 -0.11393218 -0.014457121 1.4485772e-38
0.038561471 -0.11393218 -0.014457121 1.5592119e-38
0.040420063 -0.11393218 -0.014457121 1.5316599e-38
0.042397492 -0.11467429 -0.01746954 1.4397141e-38
0.044261366 -0.11467429 -0.01746954 1.4951401e-38
0.046125241 -0.11467429 -0.01746954 1.5320213e-38
0.048169896 -0.11567034 -0.021512881 1.3384102e-38
0.050040856 -0.11567034 -0.021512881 1.1725623e-38
0.051911823 -0.11567034 -0.021512881 1.2369899e-38
0.053782783 -0.11567034 -0.021512881 1.3104241e-38
0.055653743 -0.11567034 -0.021512881 1.420772e-38
0.057524711 -0.11567034 -0.021512881 1.3744227e-38
0.059172362 -0.11467429 -0.01746954 1.0235752e-38
0.061036237 -0.11467429 -0.01746954 1.0504769e-38
0.063137598 -0.11567034 -0.021512881 1.1699364e-38
-0.015054373 -0.11107419 0.0045540184 1.4833027e-38
-0.013229111 -0.11107419 0.0045540184 9.1207813e-39
-0.011403853 -0.11107419 0.0045540184 1.3457544e-38
-0.0095785949 -0.11107419 0.0045540184 1.899146e-38
-0.007729698 -0.11033095 0.0075497478 2.1116632e-38
-0.0059096906 -0.11033095 0.0075497478 1.7619647e-38
-0.0040896852 -0.11033095 0.0075497478 1.5411619e-38
-0.0022593364 -0.10935538 0.011481985 1.6798878e-38
-0.00044622459 -0.10935538 0.011481985 1.6892516e-38
0.0013668891 -0.10935538 0.011481985 1.6430814e-38
0.0031800009 -0.10935538 0.011481985 1.4218117e-38
0.0050103497 -0.11033095 0.0075497478 1.3297238e-38
0.0068303552 -0.11033095 0.0075497478 1.1915387e-38
0.0086739985 -0.11107419 0.0045540184 1.1086e-38
0.010499259 -0.11107419 0.0045540184 1.1732091e-38
0.012358857 -0.11182173 0.0015408844 1.1824281e-38
0.014229251 -0.11257361 -0.0014896542 1.2377092e-38
0.016065106 -0.11257361 -0.0014896542 1.182176e-38
0.017900962 -0.11257361 -0.0014896542 1.1541586e-38
0.019736819 -0.11257361 -0.0014896542 1.1537281e-38
0.021572674 -0.11257361 -0.0014896542 1.0426626e-38
0.02340853 -0.11257361 -0.0014896542 9.5925522e-39
0.025244385 -0.11257361 -0.0014896542 1.1616911e-38
0.027154963 -0.11330278 -0.0044287592 1.3733831e-38
0.028995972 -0.11330278 -0.0044287592 1.244596e-38
0.030954279 -0.1143087 -0.0084833056 1.3282884e-38
0.032802396 -0.1143087 -0.0084833056 1.7342369e-38
0.034747124 -0.11504765 -0.01146175 1.8723895e-38
0.036702879 -0.11579077 -0.014457121 1.7893784e-38
0.038561471 -0.11579077 -0.014457121 1.8172152e-38
0.040420063 -0.11579077 -0.014457121 1.7988829e-38
0.042278655 -0.11579077 -0.014457121 1.753e-38
0.044261366 -0.11653815 -0.01746954 1.8545602e-38
0.046125241 -0.11653815 -0.01746954 1.7624033e-38
0.048169896 -0.1175413 -0.021512881 1.2461429e-38
0.050040856 -0.1175413 -0.021512881 9.6051148e-39
0.051911823 -0.1175413 -0.021512881 1.1264262e-38
0.053782783 -0.1175413 -0.021512881 1.2274127e-38
0.055653743 -0.1175413 -0.021512881 1.2732233e-38
0.057524711 -0.1175413 -0.021512881 1.2914821e-38
0.059395671 -0.1175413 -0.021512881 1.0881471e-38
0.061266638 -0.1175413 -0.021512881 1.0136343e-38
0.063137598 -0.1175413 -0.021512881 1.0962513e-38
-0.015054373 -0.11289944 0.0045540184 1.2804e-38
-0.013229111 -0.11289944 0.0045540184 9.8562023e-39
-0.011403853 -0.11289944 0.0045540184 9.8590511e-39
-0.0095785949 -0.11289944 0.0045540184 1.5486222e-38
-0.007729698 -0.11215095 0.0075497478 2.22201e-38
-0.0059096906 -0.11215095 0.0075497478 1.9458901e-38
-0.0040724482 -0.11116849 0.011481985 1.5406966e-38
-0.0022593364 -0.11116849 0.011481985 1.6885696e-38
-0.00044622459 -0.11116849 0.011481985 1.670453e-38
0.0013668891 -0.11116849 0.011481985 1.6519759e-38
0.0031800009 -0.11116849 0.011481985 1.4124106e-38
0.0049931128 -0.11116849 0.011481985 1.3478751e-38
0.0068303552 -0.11215095 0.0075497478 1.2281648e-38
0.0086503625 -0.11215095 0.0075497478 1.1636996e-38
0.010499259 -0.11289944 0.0045540184 1.2098696e-38
0.012324518 -0.11289944 0.0045540184 1.2282737e-38
0.0141894 -0.11365227 0.0015408844 1.32029e-38
0.01601994 -0.11365227 0.0015408844 1.3659925e-38
0.017850485 -0.11365227 0.0015408844 1.2826211e-38
0.019681025 -0.11365227 0.0015408844 1.2452754e-38
0.021511568 -0.11365227 0.0015408844 1.1340666e-38
0.02340853 -0.11440946 -0.0014896542 1.1057629e-38
0.025244385 -0.11440946 -0.0014896542 1.4463485e-38
0.027080242 -0.11440946 -0.0014896542 1.7318679e-38
0.028995972 -0.11514379 -0.0044287592 1.5755652e-38
0.030954279 -0.1161568 -0.0084833056 1.3832455e-38
0.032802396 -0.1161568 -0.0084833056 1.8724224e-38
0.034747124 -0.11690097 -0.01146175 2.0105043e-38
0.036600463 -0.11690097 -0.01146175 1.7707962e-38
0.038561471 -0.11764936 -0.014457121 1.7340947e-38
0.040420063 -0.11764936 -0.014457121 1.7250896e-38
0.042278655 -0.11764936 -0.014457121 1.6883913e-38
0.044261366 -0.11840202 -0.01746954 1.7899521e-38
0.046125241 -0.11840202 -0.01746954 1.6332583e-38
0.048169896 -0.11941226 -0.021512881 1.117069e-38
0.050040856 -0.11941226 -0.021512881 8.9600944e-39
0.051911823 -0.11941226 -0.021512881 1.0988027e-38
0.053782783 -0.11941226 -0.021512881 1.144437e-38
0.055653743 -0.11941226 -0.021512881 1.1718087e-38
0.057681896 -0.12014665 -0.024452224 1.2269804e-38
0.059558012 -0.12014665 -0.024452224 1.0237529e-38
0.061266638 -0.11941226 -0.021512881 1.0506196e-38
0.063137598 -0.11941226 -0.021512881 1.0501891e-38
0.065008566 -0.11941226 -0.021512881 9.7632878e-39
-0.015054373 -0.11472471 0.0045540184 1.1328855e-38
-0.013229111 -0.11472471 0.0045540184 1.068525e-38
-0.011403853 -0.11472471 0.0045540184 7.0910635e-39
-0.0095497053 -0.11397095 0.0075497478 1.2165387e-38
-0.007729698 -0.11397095 0.0075497478 2.1665134e-38
-0.0059096906 -0.11397095 0.0075497478 1.9732627e-38
-0.0040724482 -0.1129816 0.011481985 1.4850932e-38
-0.0022593364 -0.1129816 0.011481985 1.6422561e-38
-0.00044622459 -0.1129816 0.011481985 1.6149556e-38
0.0013668891 -0.1129816 0.011481985 1.5137179e-38
0.0031800009 -0.1129816 0.011481985 1.2834083e-38
0.0049931128 -0.1129816 0.011481985 1.246496e-38
0.0068062246 -0.1129816 0.011481985 1.1728121e-38
0.0086503625 -0.11397095 0.0075497478 1.1267862e-38
0.010470369 -0.11397095 0.0075497478 1.1820681e-38
0.012324518 -0.11472471 0.0045540184 1.1634872e-38
0.014149777 -0.11472471 0.0045540184 1.2278448e-38
0.015975036 -0.11472471 0.0045540184 1.3196805e-38
0.017850485 -0.11548282 0.0015408844 1.300809e-38
0.019681025 -0.11548282 0.0015408844 1.3832807e-38
0.021511568 -0.11548282 0.0015408844 1.3919256e-38
0.02334211 -0.11548282 0.0015408844 1.4005006e-38
0.025244385 -0.11624531 -0.0014896542 1.6858052e-38
0.027080242 -0.11624531 -0.0014896542 1.8421786e-38
0.028995972 -0.1169848 -0.0044287592 1.5108479e-38
0.030954279 -0.11800493 -0.0084833056 1.3463301e-38
0.032802396 -0.11800493 -0.0084833056 1.780333e-38
0.034747124 -0.11875431 -0.01146175 1.7524992e-38
0.036600463 -0.11875431 -0.01146175 1.3007056e-38
0.038561471 -0.11950795 -0.014457121 1.1718438e-38
0.040420063 -0.11950795 -0.014457121 1.1628388e-38
0.042397492 -0.12026589 -0.01746954 1.1352535e-38
0.044261366 -0.12026589 -0.01746954 1.2367778e-38
0.046125241 -0.12026589 -0.01746954 1.034093e-38
0.048169896 -0.12128322 -0.021512881 7.9445481e-39
0.050040856 -0.12128322 -0.021512881 8.4998351e-39
0.051911823 -0.12128322 -0.021512881 1.1817436e-38
0.053782783 -0.12128322 -0.021512881 1.245817e-38
0.05580578 -0.12202276 -0.024452224 1.2731887e-38
0.057681896 -0.12202276 -0.024452224 1.2638231e-38
0.059558012 -0.12202276 -0.024452224 9.6832779e-39
0.061266638 -0.12128322 -0.021512881 1.0229613e-38
0.062900111 -0.12026589 -0.01746954 1.0409697e-38
0.064763986 -0.12026589 -0.01746954 1.0224974e-38
0.066440351 -0.11950795 -0.014457121 1.059412e-38
0.068298943 -0.11950795 -0.014457121 1.0595897e-38
-0.013229111 -0.11654995 0.0045540184 1.2712472e-38
-0.011403853 -0.11654995 0.0045540184 9.0260759e-39
-0.0095497053 -0.11579098 0.0075497478 1.0596277e-38
-0.007729698 -0.11579098 0.0075497478 2.0741395e-38
-0.0059096906 -0.11579098 0.0075497478 1.9915237e-38
-0.0040724482 -0.11479472 0.011481985 1.4204494e-38
-0.0022512842 -0.11401908 0.014543399 1.3287905e-38
-0.00044354051 -0.11401908 0.014543399 1.2739388e-38
0.001364205 -0.11401908 0.014543399 1.3020636e-38
0.0031719487 -0.11401908 0.014543399 1.1085968e-38
0.0049796943 -0.11401908 0.014543399 1.0532455e-38
0.0068062246 -0.11479472 0.011481985 1.0256244e-38
0.0086193373 -0.11479472 0.011481985 1.0807636e-38
0.010432449 -0.11479472 0.011481985 1.1083165e-38
0.012290376 -0.11579098 0.0075497478 1.0896994e-38
0.014110383 -0.11579098 0.0075497478 1.2277052e-38
0.015975036 -0.11654995 0.0045540184 1.3841481e-38
0.017850485 -0.11731337 0.0015408844 1.0796125e-38
0.019681025 -0.11731337 0.0015408844 1.1253127e-38
0.021511568 -0.11731337 0.0015408844 1.2078206e-38
0.02334211 -0.11731337 0.0015408844 1.4192962e-38
0.025244385 -0.11808117 -0.0014896542 1.7599542e-38
0.027080242 -0.11808117 -0.0014896542 1.7687807e-38
0.028995972 -0.11882581 -0.0044287592 1.56656e-38
0.030836981 -0.11882581 -0.0044287592 1.1900267e-38
0.032802396 -0.11985306 -0.0084833056 1.4487854e-38
0.034747124 -0.12060766 -0.01146175 1.4854529e-38
0.036702879 -0.12136655 -0.014457121 1.0798648e-38
0.038561471 -0.12136655 -0.014457121 8.9557896e-39
0.040420063 -0.12136655 -0.014457121 1.0524547e-38
0.042397492 -0.12212978 -0.01746954 1.0525287e-38
0.044261366 -0.12212978 -0.01746954 8.1296428e-39
0.046125241 -0.12212978 -0.01746954 7.8541252e-39
0.048169896 -0.12315418 -0.021512881 7.5786131e-39
0.050040856 -0.12315418 -0.021512881 8.9601056e-39
0.051911823 -0.12315418 -0.021512881 1.126285e-38
0.053782783 -0.12315418 -0.021512881 1.1720253e-38
0.05580578 -0.12389888 -0.024452224 1.2362032e-38
0.057681896 -0.12389888 -0.024452224 1.2359497e-38
0.059558012 -0.12389888 -0.024452224 9.2205159e-39
0.061266638 -0.12315418 -0.021512881 9.5831775e-39
0.062900111 -0.12212978 -0.01746954 1.0594085e-38
0.064763986 -0.12212978 -0.01746954 1.0133476e-38
0.066440351 -0.12136655 -0.014457121 1.0134196e-38
0.068298943 -0.12136655 -0.014457121 1.1057227e-38
0.069960594 -0.12060766 -0.01146175 1.1610401e-38
0.071813934 -0.12060766 -0.01146175 1.1426013e-38
-0.079518929 -0.11430521 0.020507917 5.8094149e-39
-0.077492207 -0.11353777 0.023516163 6.0845739e-39
-0.075700194 -0.11353777 0.023516163 7.5597067e-39
-0.07390818 -0.11353777 0.023516163 1.1801779e-38
-0.07190381 -0.11277486 0.026506767 1.6872902e-38
-0.070117041 -0.11277486 0.026506767 1.2632629e-38
-0.068330273 -0.11277486 0.026506767 8.3919855e-39
-0.013229111 -0.11837523 0.0045540184 1.1145149e-38
-0.011369711 -0.11761098 0.0075497478 7.9200941e-39
-0.0095497053 -0.11761098 0.0075497478 9.5821265e-39
-0.007729698 -0.11761098 0.0075497478 1.935846e-38
-0.0058855601 -0.11660783 0.011481985 1.8901811e-38
-0.0040724482 -0.11660783 0.011481985 1.4020463e-38
-0.0022512842 -0.11582683 0.014543399 1.3196061e-38
-0.00044354051 -0.11582683 0.014543399 1.2831937e-38
0.001364205 -0.11582683 0.014543399 1.2927364e-38
0.0031719487 -0.11582683 0.014543399 1.0255502e-38
0.0049796943 -0.11582683 0.014543399 8.5945713e-39
0.0068062246 -0.11660783 0.011481985 9.8849724e-39
0.0086193373 -0.11660783 0.011481985 1.2096249e-38
0.010432449 -0.11660783 0.011481985 1.2464334e-38
0.012290376 -0.11761098 0.0075497478 1.1908662e-38
0.014110383 -0.11761098 0.0075497478 1.1168939e-38
0.015975036 -0.11837523 0.0045540184 1.172065e-38
0.017800296 -0.11837523 0.0045540184 8.6760049e-39
0.019681025 -0.11914389 0.0015408844 9.2269843e-39
0.021511568 -0.11914389 0.0015408844 9.6836324e-39
0.02334211 -0.11914389 0.0015408844 1.0416893e-38
0.025244385 -0.11991702 -0.0014896542 1.3548318e-38
0.027080242 -0.11991702 -0.0014896542 1.492839e-38
0.028995972 -0.12066682 -0.0044287592 1.410365e-38
0.030836981 -0.12066682 -0.0044287592 9.8751969e-39
0.032677993 -0.12066682 -0.0044287592 1.0617435e-38
0.034650512 -0.12170117 -0.0084833056 1.0615678e-38
0.036600463 -0.12246101 -0.01146175 9.4164272e-39
0.038561471 -0.12322514 -0.014457121 9.9710205e-39
0.040420063 -0.12322514 -0.014457121 1.1539425e-38
0.042397492 -0.12399365 -0.01746954 1.0617486e-38
0.044261366 -0.12399365 -0.01746954 7.6690206e-39
0.046125241 -0.12399365 -0.01746954 7.6704373e-39
0.048169896 -0.12502514 -0.021512881 1.0068603e-38
0.050040856 -0.12502514 -0.021512881 1.3569185e-38
0.051911823 -0.12502514 -0.021512881 1.633219e-38
0.053929664 -0.12577499 -0.024452224 1.6052015e-38
0.05580578 -0.12577499 -0.024452224 1.4482169e-38
0.057681896 -0.12577499 -0.024452224 1.3004151e-38
0.059558012 -0.12577499 -0.024452224 9.8658909e-39
0.061266638 -0.12502514 -0.021512881 9.8594015e-39
0.062900111 -0.12399365 -0.01746954 1.0778474e-38
0.064763986 -0.12399365 -0.01746954 1.0502609e-38
0.066440351 -0.12322514 -0.014457121 1.0687722e-38
0.068298943 -0.12322514 -0.014457121 1.1518203e-38
0.069960594 -0.12246101 -0.01146175 1.1703313e-38
0.071813934 -0.12246101 -0.01146175 1.1886985e-38
-0.081316218 -0.1161025 0.020507917 7.9291731e-39
-0.079518929 -0.1161025 0.020507917 8.4812819e-39
-0.077492207 -0.11532979 0.023516163 9.4025347e-39
-0.075700194 -0.11532979 0.023516163 1.2906334e-38
-0.07390818 -0.11532979 0.023516163 1.8438788e-38
-0.07190381 -0.11456163 0.026506767 2.2127688e-38
-0.070117041 -0.11456163 0.026506767 2.2775202e-38
-0.068330273 -0.11456163 0.026506767 1.4293925e-38
-0.021742107 -0.1130126 0.032537326 1.0501731e-38
-0.019965915 -0.1130126 0.032537326 8.7503298e-39
-0.011369711 -0.11943097 0.0075497478 7.2758107e-39
-0.0095117856 -0.11842094 0.011481985 8.8456335e-39
-0.0076986719 -0.11842094 0.011481985 1.742378e-38
-0.0058855601 -0.11842094 0.011481985 1.7519943e-38
-0.0040724482 -0.11842094 0.011481985 1.3376522e-38
-0.0022512842 -0.11763458 0.014543399 1.2275534e-38
-0.00044354051 -0.11763458 0.014543399 1.2371312e-38
0.001364205 -0.11763458 0.014543399 1.1541198e-38
0.0031719487 -0.11763458 0.014543399 1.2001845e-38
0.0049796943 -0.11763458 0.014543399 1.1907539e-38
0.0068062246 -0.11842094 0.011481985 1.4856746e-38
0.0086193373 -0.11842094 0.011481985 1.6701025e-38
0.010432449 -0.11842094 0.011481985 1.6239698e-38
0.012290376 -0.11943097 0.0075497478 1.6237922e-38
0.014110383 -0.11943097 0.0075497478 1.4485127e-38
0.015975036 -0.12020047 0.0045540184 1.0704368e-38
0.017800296 -0.12020047 0.0045540184 6.739203e-39
0.019625554 -0.12020047 0.0045540184 7.4770736e-39
0.021511568 -0.12097444 0.0015408844 9.4106468e-39
0.02334211 -0.12097444 0.0015408844 9.6840206e-39
0.025244385 -0.12175287 -0.0014896542 1.1710164e-38
0.027080242 -0.12175287 -0.0014896542 1.3276749e-38
0.028916098 -0.12175287 -0.0014896542 1.2542773e-38
0.030836981 -0.12250783 -0.0044287592 1.1259943e-38
0.032677993 -0.12250783 -0.0044287592 1.0985528e-38
0.034650512 -0.1235493 -0.0084833056 1.0707532e-38
0.036600463 -0.12431435 -0.01146175 1.0430593e-38
0.038561471 -0.12508373 -0.014457121 1.1260343e-38
0.040420063 -0.12508373 -0.014457121 1.1998624e-38
0.042278655 -0.12508373 -0.014457121 1.1169592e-38
0.044261366 -0.12585752 -0.01746954 9.5118598e-39
0.046125241 -0.12585752 -0.01746954 9.4210837e-39
0.047989115 -0.12585752 -0.01746954 1.3201109e-38
0.050040856 -0.1268961 -0.021512881 1.5596069e-38
0.051911823 -0.1268961 -0.021512881 1.6515879e-38
0.053929664 -0.12765111 -0.024452224 1.586798e-38
0.05580578 -0.12765111 -0.024452224 1.4205934e-38
0.057681896 -0.12765111 -0.024452224 1.2543889e-38
0.059558012 -0.12765111 -0.024452224 1.0050998e-38
0.061266638 -0.1268961 -0.021512881 9.7672072e-39
0.063137598 -0.1268961 -0.021512881 1.0594085e-38
0.064763986 -0.12585752 -0.01746954 1.0410416e-38
0.066440351 -0.12508373 -0.014457121 1.0871757e-38
0.068298943 -0.12508373 -0.014457121 1.142601e-38
0.070157535 -0.12508373 -0.014457121 1.1333814e-38
0.072016127 -0.12508373 -0.014457121 1.1886265e-38
-0.081316218 -0.11789979 0.020507917 2.3509157e-38
-0.079518929 -0.11789979 0.020507917 2.3509165e-38
-0.07772164 -0.11789979 0.020507917 2.2861653e-38
-0.075700194 -0.1171218 0.023516163 2.3046403e-38
-0.07390818 -0.1171218 0.023516163 2.3509168e-38
-0.072116166 -0.1171218 0.023516163 2.3234379e-38
-0.070117041 -0.1163484 0.026506767 2.2591519e-38
-0.068330273 -0.1163484 0.026506767 2.286703e-38
-0.066740125 -0.1171218 0.023516163 2.1393705e-38
-0.064948112 -0.1171218 0.023516163 1.5400274e-38
-0.025372228 -0.1155795 0.029479846 1.9353612e-38
-0.023590675 -0.1155795 0.029479846 1.8984118e-38
-0.021742107 -0.11478879 0.032537326 1.197652e-38
-0.019904634 -0.11400281 0.035576448 6.4454517e-39
-0.018024707 -0.11247079 0.041500434 9.0272516e-39
-0.016264228 -0.11247079 0.041500434 1.0778583e-38
-0.0095117856 -0.12023406 0.011481985 8.5704913e-39
-0.0076986719 -0.12023406 0.011481985 1.5765704e-38
-0.0058855601 -0.12023406 0.011481985 1.613809e-38
-0.0040724482 -0.12023406 0.011481985 1.2455286e-38
-0.0022512842 -0.11944233 0.014543399 1.070929e-38
-0.00044096448 -0.11868234 0.017482027 1.1817069e-38
0.001361629 -0.11868234 0.017482027 1.1537264e-38
0.0031719487 -0.11944233 0.014543399 1.6513347e-38
0.0049796943 -0.11944233 0.014543399 1.8816133e-38
0.0068062246 -0.12023406 0.011481985 2.1948654e-38
0.0086193373 -0.12023406 0.011481985 2.2315999e-38
0.010432449 -0.12023406 0.011481985 2.1581308e-38
0.012245562 -0.12023406 0.011481985 2.2132336e-38
0.014110383 -0.121251 0.0075497478 1.9369337e-38
0.01593039 -0.121251 0.0075497478 1.3745758e-38
0.017800296 -0.12202574 0.0045540184 7.5693379e-39
0.019625554 -0.12202574 0.0045540184 8.0313376e-39
0.021450814 -0.12202574 0.0045540184 1.2640745e-38
0.02334211 -0.12280498 0.0015408844 1.4113389e-38
0.025244385 -0.12358873 -0.0014896542 1.4573641e-38
0.027080242 -0.12358873 -0.0014896542 1.5312242e-38
0.028916098 -0.12358873 -0.0014896542 1.4669022e-38
0.030836981 -0.12434883 -0.0044287592 1.2183004e-38
0.032677993 -0.12434883 -0.0044287592 1.163093e-38
0.034650512 -0.1253974 -0.0084833056 1.1261082e-38
0.036600463 -0.12616767 -0.01146175 1.1444396e-38
0.03845381 -0.12616767 -0.01146175 1.2642219e-38
0.040420063 -0.12694232 -0.014457121 1.4117705e-38
0.042278655 -0.12694232 -0.014457121 1.4487204e-38
0.044137247 -0.12694232 -0.014457121 1.3935461e-38
0.045995839 -0.12694232 -0.014457121 1.3844683e-38
0.047989115 -0.12772138 -0.01746954 1.7255214e-38
0.04985299 -0.12772138 -0.01746954 1.6700637e-38
0.051911823 -0.12876706 -0.021512881 1.448615e-38
0.053782783 -0.12876706 -0.021512881 1.3839673e-38
0.05580578 -0.12952723 -0.024452224 1.4114807e-38
0.057681896 -0.12952723 -0.024452224 1.3190689e-38
0.059727542 -0.13032107 -0.027521744 1.0789279e-38
0.061434127 -0.12952723 -0.024452224 9.675013e-39
0.063137598 -0.12876706 -0.021512881 1.0501532e-38
0.065008566 -0.12876706 -0.021512881 1.0502614e-38
0.06662786 -0.12772138 -0.01746954 1.0871757e-38
0.068298943 -0.12694232 -0.014457121 1.1332735e-38
0.070157535 -0.12694232 -0.014457121 1.1056148e-38
-0.081076235 -0.11891381 0.023516163 2.3508445e-38
-0.079284221 -0.11891381 0.023516163 2.3508448e-38
-0.077492207 -0.11891381 0.023516163 2.3508092e-38
-0.075700194 -0.11891381 0.023516163 2.3507016e-38
-0.07390818 -0.11891381 0.023516163 2.3509527e-38
-0.072116166 -0.11891381 0.023516163 2.3234376e-38
-0.070324153 -0.11891381 0.023516163 2.2958857e-38
-0.068532139 -0.11891381 0.023516163 2.2775189e-38
-0.066740125 -0.11891381 0.023516163 2.2591531e-38
-0.064948112 -0.11891381 0.023516163 1.7613335e-38
-0.063156113 -0.11891381 0.023516163 8.5774474e-39
-0.025372228 -0.11736105 0.029479846 2.2583639e-38
-0.023590675 -0.11736105 0.029479846 2.1845009e-38
-0.021742107 -0.11656497 0.032537326 1.4192403e-38
-0.019904634 -0.11577369 0.035576448 7.4620853e-39
-0.018024707 -0.11423124 0.041500434 9.2134183e-39
-0.016264228 -0.11423124 0.041500434 1.0042086e-38
-0.0095117856 -0.12204717 0.011481985 8.2013711e-39
-0.0076986719 -0.12204717 0.011481985 1.419804e-38
-0.0058855601 -0.12204717 0.011481985 1.4939208e-38
-0.0040590297 -0.12125005 0.014543399 1.1717382e-38
-0.0022435561 -0.12048493 0.017482027 9.8788277e-39
-0.00044096448 -0.12048493 0.017482027 1.2460305e-38
0.001361629 -0.12048493 0.017482027 1.3837518e-38
0.0031719487 -0.12125005 0.014543399 2.0102904e-38
0.0049796943 -0.12125005 0.014543399 2.2129092e-38
0.0068062246 -0.12204717 0.011481985 2.3142544e-38
0.0086193373 -0.12204717 0.011481985 2.2958866e-38
0.010432449 -0.12204717 0.011481985 2.2315999e-38
0.012245562 -0.12204717 0.011481985 2.2775172e-38
0.014110383 -0.123071 0.0075497478 1.9275684e-38
0.01593039 -0.123071 0.0075497478 1.5403835e-38
0.017800296 -0.12385099 0.0045540184 8.0303202e-39
0.019625554 -0.12385099 0.0045540184 7.6636452e-39
0.021450814 -0.12385099 0.0045540184 1.3841467e-38
0.02334211 -0.12463553 0.0015408844 1.5314843e-38
0.025244385 -0.12542458 -0.0014896542 1.310286e-38
0.027080242 -0.12542458 -0.0014896542 1.310496e-38
0.028916098 -0.12542458 -0.0014896542 1.3291142e-38
0.030836981 -0.12618984 -0.0044287592 1.1816051e-38
0.032677993 -0.12618984 -0.0044287592 1.1722796e-38
0.034650512 -0.12724553 -0.0084833056 1.1445489e-38
0.036600463 -0.12802102 -0.01146175 1.1904669e-38
0.03845381 -0.12802102 -0.01146175 1.4116286e-38
0.040307149 -0.12802102 -0.01146175 1.6144585e-38
0.042278655 -0.12880091 -0.014457121 1.5683957e-38
0.044137247 -0.12880091 -0.014457121 1.3749276e-38
0.045995839 -0.12880091 -0.014457121 1.3381558e-38
0.047854431 -0.12880091 -0.014457121 1.7437461e-38
0.04985299 -0.12958528 -0.01746954 1.6052774e-38
0.051716864 -0.12958528 -0.01746954 1.1811056e-38
0.053782783 -0.13063805 -0.021512881 1.0705022e-38
0.055653743 -0.13063805 -0.021512881 1.2087215e-38
0.057524711 -0.13063805 -0.021512881 1.1808826e-38
0.059558012 -0.13140334 -0.024452224 8.7620516e-39
0.061266638 -0.13063805 -0.021512881 9.8597658e-39
0.063137598 -0.13063805 -0.021512881 1.0962516e-38
0.065186366 -0.13140334 -0.024452224 1.0871041e-38
0.06662786 -0.12958528 -0.01746954 1.1056151e-38
0.068491735 -0.12958528 -0.01746954 1.1240542e-38
0.070355602 -0.12958528 -0.01746954 1.0871757e-38
-0.084660247 -0.12070583 0.023516163 2.35088e-38
-0.082868248 -0.12070583 0.023516163 2.3508086e-38
-0.081076235 -0.12070583 0.023516163 2.3507366e-38
-0.079284221 -0.12070583 0.023516163 2.3508089e-38
-0.077492207 -0.12070583 0.023516163 2.3508092e-38
-0.075700194 -0.12070583 0.023516163 2.3508809e-38
-0.07390818 -0.12070583 0.023516163 2.3509879e-38
-0.072116166 -0.12070583 0.023516163 2.3234364e-38
-0.070324153 -0.12070583 0.023516163 2.2958857e-38
-0.068532139 -0.12070583 0.023516163 2.1670997e-38
-0.066740125 -0.12070583 0.023516163 2.2591531e-38
-0.064948112 -0.12070583 0.023516163 2.2316024e-38
-0.063156113 -0.12070583 0.023516163 1.300248e-38
-0.061364092 -0.12070583 0.023516163 6.2711077e-39
-0.030899884 -0.12070583 0.023516163 8.3803534e-39
-0.029107871 -0.12070583 0.023516163 9.8572925e-39
-0.027397612 -0.12149437 0.020507917 7.8333299e-39
-0.025447814 -0.11992194 0.026506767 8.664192e-39
-0.023590675 -0.11914261 0.029479846 1.23506e-38
-0.021809118 -0.11914261 0.029479846 1.234952e-38
-0.020027561 -0.11914261 0.029479846 1.0506301e-38
-0.0076986719 -0.12386028 0.011481985 1.2630361e-38
-0.0058667734 -0.1230578 0.014543399 1.3832506e-38
-0.0040590297 -0.1230578 0.014543399 1.1256049e-38
-0.0022435561 -0.12228753 0.017482027 9.9710247e-39
-0.00044096448 -0.12228753 0.017482027 1.4579737e-38
0.001361629 -0.12228753 0.017482027 1.7522492e-38
0.0031719487 -0.1230578 0.014543399 2.268153e-38
0.0049796943 -0.1230578 0.014543399 2.3509879e-38
0.0068062246 -0.12386028 0.011481985 2.2957075e-38
0.0086193373 -0.12386028 0.011481985 2.0560344e-38
0.010432449 -0.12386028 0.011481985 1.9086994e-38
0.012245562 -0.12386028 0.011481985 2.0103269e-38
0.014110383 -0.124891 0.0075497478 1.8629576e-38
0.01593039 -0.124891 0.0075497478 1.7891676e-38
0.017800296 -0.12567626 0.0045540184 1.245428e-38
0.019625554 -0.12567626 0.0045540184 1.2273085e-38
0.021450814 -0.12567626 0.0045540184 1.8358715e-38
0.02334211 -0.12646608 0.0015408844 1.8081813e-38
0.025244385 -0.12726043 -0.0014896542 1.2274922e-38
0.027080242 -0.12726043 -0.0014896542 1.0341637e-38
0.028916098 -0.12726043 -0.0014896542 1.0988077e-38
0.030836981 -0.12803085 -0.0044287592 1.0801922e-38
0.032802396 -0.12909363 -0.0084833056 1.2553293e-38
0.034650512 -0.12909363 -0.0084833056 1.3841868e-38
0.036498636 -0.12909363 -0.0084833056 1.4024816e-38
0.038346753 -0.12909363 -0.0084833056 1.4853495e-38
0.040307149 -0.12987436 -0.01146175 1.6050952e-38
0.042160489 -0.12987436 -0.01146175 1.4944956e-38
0.044137247 -0.13065951 -0.014457121 1.2733329e-38
0.045995839 -0.13065951 -0.014457121 1.3379047e-38
0.047854431 -0.13065951 -0.014457121 1.7620066e-38
0.049713023 -0.13065951 -0.014457121 1.6972943e-38
0.051716864 -0.13144915 -0.01746954 1.254755e-38
0.053782783 -0.13250901 -0.021512881 1.0335523e-38
0.055653743 -0.13250901 -0.021512881 1.190318e-38
0.057524711 -0.13250901 -0.021512881 1.245527e-38
0.059395671 -0.13250901 -0.021512881 9.7761994e-39
0.061266638 -0.13250901 -0.021512881 9.4909847e-39
0.063137598 -0.13250901 -0.021512881 1.1053994e-38
0.065186366 -0.13327946 -0.024452224 1.1054355e-38
0.06662786 -0.13144915 -0.01746954 1.0686651e-38
0.068491735 -0.13144915 -0.01746954 1.0871042e-38
-0.088244274 -0.12249784 0.023516163 2.0560316e-38
-0.086452261 -0.12249784 0.023516163 2.3509856e-38
-0.084660247 -0.12249784 0.023516163 2.304636e-38
-0.082624421 -0.12170871 0.026506767 2.3508428e-38
-0.080837652 -0.12170871 0.026506767 2.3507369e-38
-0.079050884 -0.12170871 0.026506767 2.3507014e-38
-0.077492207 -0.12249784 0.023516163 2.3508448e-38
-0.075700194 -0.12249784 0.023516163 2.3509517e-38
-0.07390818 -0.12249784 0.023516163 2.3509863e-38
-0.072116166 -0.12249784 0.023516163 2.3050324e-38
-0.070324153 -0.12249784 0.023516163 2.2958866e-38
-0.068532139 -0.12249784 0.023516163 2.2315664e-38
-0.066740125 -0.12249784 0.023516163 2.1947247e-38
-0.064948112 -0.12249784 0.023516163 2.2591531e-38
-0.063156113 -0.12249784 0.023516163 1.991714e-38
-0.061364092 -0.12249784 0.023516163 1.2448202e-38
-0.059572086 -0.12249784 0.023516163 1.2723699e-38
-0.058123916 -0.12409012 0.017482027 1.0508459e-38
-0.056321323 -0.12409012 0.017482027 1.0504104e-38
-0.030899884 -0.12249784 0.023516163 7.8268237e-39
-0.029107871 -0.12249784 0.023516163 6.723004e-39
-0.027397612 -0.12329166 0.020507917 6.9116973e-39
-0.025523847 -0.12249784 0.023516163 6.9134951e-39
-0.023590675 -0.12092416 0.029479846 8.7556351e-39
-0.021809118 -0.12092416 0.029479846 1.0967255e-38
-0.020027561 -0.12092416 0.029479846 1.096724e-38
-0.0076745171 -0.12486555 0.014543399 1.16162e-38
-0.0058667734 -0.12486555 0.014543399 1.3094932e-38
-0.0040590297 -0.12486555 0.014543399 1.0887255e-38
-0.0022435561 -0.12409012 0.017482027 1.0431273e-38
-0.00044096448 -0.12409012 0.017482027 1.6976458e-38
0.001361629 -0.12409012 0.017482027 1.9735564e-38
0.0031719487 -0.12486555 0.014543399 2.2498229e-38
0.0049796943 -0.12486555 0.014543399 2.3234357e-38
0.0068062246 -0.1256734 0.011481985 2.3142524e-38
0.0086193373 -0.1256734 0.011481985 2.0283755e-38
0.010432449 -0.1256734 0.011481985 1.8440545e-38
0.012245562 -0.1256734 0.011481985 1.8720319e-38
0.014110383 -0.126711 0.0075497478 1.94586e-38
0.01593039 -0.126711 0.0075497478 1.7890595e-38
0.017800296 -0.1275015 0.0045540184 1.5310199e-38
0.019625554 -0.1275015 0.0045540184 1.4944618e-38
0.021450814 -0.1275015 0.0045540184 1.9556202e-38
0.02334211 -0.1282966 0.0015408844 1.9187812e-38
0.025244385 -0.12909628 -0.0014896542 1.2366774e-38
0.027080242 -0.12909628 -0.0014896542 9.6033828e-39
0.028916098 -0.12909628 -0.0014896542 1.0066152e-38
0.030836981 -0.12987186 -0.0044287592 1.0249841e-38
0.032802396 -0.13094176 -0.0084833056 1.2830604e-38
0.034650512 -0.13094176 -0.0084833056 1.4948941e-38
0.036498636 -0.13094176 -0.0084833056 1.5131163e-38
0.038346753 -0.13094176 -0.0084833056 1.5129356e-38
0.040194869 -0.13094176 -0.0084833056 1.5773638e-38
0.042160489 -0.13172771 -0.01146175 1.5773273e-38
0.044137247 -0.1325181 -0.014457121 1.4944226e-38
0.045867167 -0.13172771 -0.01146175 1.3746036e-38
0.047720507 -0.13172771 -0.01146175 1.6050948e-38
0.049713023 -0.1325181 -0.014457121 1.5865521e-38
0.051571615 -0.1325181 -0.014457121 1.3007454e-38
0.053580739 -0.13331302 -0.01746954 1.0427366e-38
0.055444613 -0.13331302 -0.01746954 1.134965e-38
0.057308488 -0.13331302 -0.01746954 1.2178681e-38
0.059395671 -0.13437997 -0.021512881 9.5925242e-39
0.061266638 -0.13437997 -0.021512881 9.0292947e-39
0.063137598 -0.13437997 -0.021512881 1.0961443e-38
0.065186366 -0.13515557 -0.024452224 1.0869966e-38
0.067062482 -0.13515557 -0.024452224 1.0316789e-38
0.068938598 -0.13515557 -0.024452224 1.0685572e-38
-0.094446257 -0.1266733 0.014543399 8.4816308e-39
-0.092099935 -0.12508895 0.020507917 9.8649156e-39
-0.090302646 -0.12508895 0.020507917 1.8439817e-38
-0.088244274 -0.12428986 0.023516163 1.4383561e-38
-0.086452261 -0.12428986 0.023516163 1.08794e-38
-0.084660247 -0.12428986 0.023516163 1.8254681e-38
-0.082624421 -0.12349547 0.026506767 2.3139262e-38
-0.080837652 -0.12349547 0.026506767 2.3509158e-38
-0.079050884 -0.12349547 0.026506767 2.3508091e-38
-0.077264115 -0.12349547 0.026506767 2.3414805e-38
-0.075700194 -0.12428986 0.023516163 2.3324037e-38
-0.073690578 -0.12349547 0.026506767 2.3233988e-38
-0.07190381 -0.12349547 0.026506767 2.3418031e-38
-0.070117041 -0.12349547 0.026506767 2.3142544e-38
-0.068330273 -0.12349547 0.026506767 2.2867037e-38
-0.066543505 -0.12349547 0.026506767 2.2314231e-38
-0.064756736 -0.12349547 0.026506767 2.2867037e-38
-0.062969968 -0.12349547 0.026506767 2.2866308e-38
-0.061183192 -0.12349547 0.026506767 1.2723699e-38
-0.059572086 -0.12428986 0.023516163 1.3459458e-38
-0.058123916 -0.12589271 0.017482027 1.3272886e-38
-0.056321323 -0.12589271 0.017482027 1.0411185e-38
-0.034790687 -0.1266733 0.014543399 1.0684873e-38
-0.032887623 -0.12589271 0.017482027 9.5785224e-39
-0.030899884 -0.12428986 0.023516163 7.4580467e-39
-0.029107871 -0.12428986 0.023516163 8.4739769e-39
-0.027397612 -0.12508895 0.020507917 8.5704759e-39
-0.025600327 -0.12508895 0.020507917 7.2808329e-39
-0.023731833 -0.12428986 0.023516163 6.0812318e-39
-0.021874277 -0.12349547 0.026506767 7.3708916e-39
-0.020087508 -0.12349547 0.026506767 6.9099036e-39
-0.0076745171 -0.1266733 0.014543399 1.1522563e-38
-0.0058487412 -0.12589271 0.017482027 1.2817264e-38
-0.0040461477 -0.12589271 0.017482027 1.0793621e-38
-0.0022435561 -0.12589271 0.017482027 1.0706065e-38
-0.00044096448 -0.12589271 0.017482027 1.8174648e-38
0.001361629 -0.12589271 0.017482027 1.798565e-38
0.0031719487 -0.1266733 0.014543399 1.7798766e-38
0.0049796943 -0.1266733 0.014543399 1.9458271e-38
0.0068062246 -0.12748651 0.011481985 2.0840132e-38
0.0086193373 -0.12748651 0.011481985 2.0469221e-38
0.010432449 -0.12748651 0.011481985 1.8809328e-38
0.012245562 -0.12748651 0.011481985 1.6875329e-38
0.014110383 -0.12853102 0.0075497478 1.7152993e-38
0.01593039 -0.12853102 0.0075497478 1.8533817e-38
0.017800296 -0.12932678 0.0045540184 1.6691348e-38
0.019625554 -0.12932678 0.0045540184 1.5034667e-38
0.021450814 -0.12932678 0.0045540184 1.863209e-38
0.023276072 -0.12932678 0.0045540184 1.9555154e-38
0.025244385 -0.13093217 -0.0014896542 1.4946811e-38
0.027080242 -0.13093217 -0.0014896542 1.3290139e-38
0.028995972 -0.13171287 -0.0044287592 1.4305359e-38
0.030836981 -0.13171287 -0.0044287592 1.4030215e-38
0.032802396 -0.13278987 -0.0084833056 1.4306086e-38
0.034747124 -0.13358103 -0.01146175 1.4303928e-38
0.036498636 -0.13278987 -0.0084833056 1.4117367e-38
0.038346753 -0.13278987 -0.0084833056 1.4300298e-38
0.040194869 -0.13278987 -0.0084833056 1.4944579e-38
0.042160489 -0.13358103 -0.01146175 1.4943147e-38
0.044013828 -0.13358103 -0.01146175 1.4297778e-38
0.045867167 -0.13358103 -0.01146175 1.5681428e-38
0.047720507 -0.13358103 -0.01146175 1.6050227e-38
0.049713023 -0.13437669 -0.014457121 1.6141743e-38
0.051571615 -0.13437669 -0.014457121 1.5404178e-38
0.053580739 -0.13517688 -0.01746954 1.346875e-38
0.055444613 -0.13517688 -0.01746954 1.3377242e-38
0.057308488 -0.13517688 -0.01746954 1.3100637e-38
0.059395671 -0.13625093 -0.021512881 9.7765511e-39
0.061266638 -0.13625093 -0.021512881 9.0292947e-39
0.063137598 -0.13625093 -0.021512881 1.1237311e-38
0.065186366 -0.13703169 -0.024452224 1.123803e-38
0.067502841 -0.13891099 -0.031527057 1.0408985e-38
-0.094446257 -0.12848105 0.014543399 9.5883343e-39
-0.092638507 -0.12848105 0.014543399 1.4106269e-38
-0.090302646 -0.12688623 0.020507917 1.4844183e-38
-0.088244274 -0.12608187 0.023516163 1.1802078e-38
-0.086452261 -0.12608187 0.023516163 7.3773936e-39
-0.084660247 -0.12608187 0.023516163 1.1158116e-38
-0.082624421 -0.12528224 0.026506767 2.1668067e-38
-0.080837652 -0.12528224 0.026506767 2.3509859e-38
-0.079050884 -0.12528224 0.026506767 2.3509153e-38
-0.077264115 -0.12528224 0.026506767 2.3324401e-38
-0.075477347 -0.12528224 0.026506767 2.3509869e-38
-0.073690578 -0.12528224 0.026506767 2.3509863e-38
-0.07190381 -0.12528224 0.026506767 2.3050328e-38
-0.070117041 -0.12528224 0.026506767 2.3142544e-38
-0.068330273 -0.12528224 0.026506767 2.3142185e-38
-0.066348016 -0.1244873 0.029479846 2.2865602e-38
-0.064566463 -0.1244873 0.029479846 2.3234379e-38
-0.06278491 -0.1244873 0.029479846 2.2956698e-38
-0.06100335 -0.1244873 0.029479846 1.2997752e-38
-0.059396423 -0.12528224 0.026506767 1.2166541e-38
-0.057951488 -0.12688623 0.020507917 1.3732408e-38
-0.056321323 -0.12769531 0.017482027 1.1609361e-38
-0.04021392 -0.12848105 0.014543399 9.5785224e-39
-0.038295396 -0.12769531 0.017482027 9.5778035e-39
-0.03649281 -0.12769531 0.017482027 9.3937682e-39
-0.034790687 -0.12848105 0.014543399 9.209021e-39
-0.032887623 -0.12769531 0.017482027 8.9327957e-39
-0.030992186 -0.12688623 0.020507917 8.7484072e-39
-0.029194897 -0.12688623 0.020507917 8.3810652e-39
-0.027397612 -0.12688623 0.020507917 8.4750629e-39
-0.025600327 -0.12688623 0.020507917 8.3836016e-39
-0.023731833 -0.12608187 0.023516163 7.7375315e-39
-0.021809118 -0.1244873 0.029479846 7.3680273e-39
-0.020027561 -0.1244873 0.029479846 7.5534724e-39
-0.0076745171 -0.12848105 0.014543399 1.2074295e-38
-0.0058487412 -0.12769531 0.017482027 1.2630363e-38
-0.0040461477 -0.12769531 0.017482027 1.1344292e-38
-0.0022435561 -0.12769531 0.017482027 1.1256738e-38
-0.00044096448 -0.12769531 0.017482027 1.8081024e-38
0.001361629 -0.12769531 0.017482027 1.8172554e-38
0.0031719487 -0.12848105 0.014543399 1.6235742e-38
0.0049796943 -0.12848105 0.014543399 1.6051692e-38
0.0068062246 -0.1292996 0.011481985 1.9461136e-38
0.0086193373 -0.1292996 0.011481985 2.0103305e-38
0.010470369 -0.13035102 0.0075497478 1.5860508e-38
0.012290376 -0.13035102 0.0075497478 1.4570459e-38
0.014110383 -0.13035102 0.0075497478 1.8165014e-38
0.01593039 -0.13035102 0.0075497478 2.0099013e-38
0.017800296 -0.13115202 0.0045540184 1.8440568e-38
0.019625554 -0.13115202 0.0045540184 1.6784226e-38
0.021450814 -0.13115202 0.0045540184 1.8261499e-38
0.023276072 -0.13115202 0.0045540184 2.001431e-38
0.025172653 -0.13195769 0.0015408844 1.5682555e-38
0.027080242 -0.13276802 -0.0014896542 1.5130798e-38
0.028916098 -0.13276802 -0.0014896542 1.5041468e-38
0.030954279 -0.134638 -0.0084833056 1.5690074e-38
0.032893784 -0.13543437 -0.01146175 1.5413134e-38
0.034747124 -0.13543437 -0.01146175 1.5041845e-38
0.036600463 -0.13543437 -0.01146175 1.4578694e-38
0.03845381 -0.13543437 -0.01146175 1.4393551e-38
0.040307149 -0.13543437 -0.01146175 1.4576853e-38
0.042278655 -0.13623528 -0.014457121 1.4943496e-38
0.044013828 -0.13543437 -0.01146175 1.503534e-38
0.045867167 -0.13543437 -0.01146175 1.5497037e-38
0.047720507 -0.13543437 -0.01146175 1.4390703e-38
0.049713023 -0.13623528 -0.014457121 1.5864428e-38
0.051571615 -0.13623528 -0.014457121 1.5771876e-38
0.053580739 -0.13704078 -0.01746954 1.5496346e-38
0.055444613 -0.13704078 -0.01746954 1.3653124e-38
0.057308488 -0.13704078 -0.01746954 1.2638583e-38
0.059395671 -0.13812189 -0.021512881 1.0513396e-38
0.061266638 -0.13812189 -0.021512881 9.3977129e-39
0.063137598 -0.13812189 -0.021512881 1.1698645e-38
0.065186366 -0.13890781 -0.024452224 1.1514254e-38
-0.094728068 -0.13111271 0.011481985 1.0418089e-38
-0.092638507 -0.13028879 0.014543399 1.4291013e-38
-0.090570569 -0.1294979 0.017482027 1.3461602e-38
-0.088244274 -0.12787388 0.023516163 1.0419498e-38
-0.086452261 -0.12787388 0.023516163 7.0096803e-39
-0.084411189 -0.12706901 0.026506767 8.1174445e-39
-0.082624421 -0.12706901 0.026506767 1.7337733e-38
-0.08060047 -0.12626885 0.029479846 2.2590756e-38
-0.078818917 -0.12626885 0.029479846 2.3509859e-38
-0.077037349 -0.12626885 0.029479846 2.3141804e-38
-0.075477347 -0.12706901 0.026506767 2.3509873e-38
-0.073474243 -0.12626885 0.029479846 2.3049972e-38
-0.07169269 -0.12626885 0.029479846 2.3141816e-38
-0.069911137 -0.12626885 0.029479846 2.3234379e-38
-0.068129569 -0.12626885 0.029479846 2.3141826e-38
-0.066348016 -0.12626885 0.029479846 2.3049632e-38
-0.064566463 -0.12626885 0.029479846 2.3509527e-38
-0.062594593 -0.12544595 0.032537326 2.2032221e-38
-0.060818404 -0.12544595 0.032537326 9.9534889e-39
-0.059221789 -0.12626885 0.029479846 7.4631054e-39
-0.057951488 -0.12868352 0.020507917 8.8445825e-39
-0.056154206 -0.12868352 0.020507917 1.1054743e-38
-0.050913543 -0.1294979 0.017482027 9.4874086e-39
-0.049110949 -0.1294979 0.017482027 1.0040582e-38
-0.04021392 -0.13028879 0.014543399 9.5788783e-39
-0.038295396 -0.1294979 0.017482027 9.6703551e-39
-0.03649281 -0.1294979 0.017482027 9.6703551e-39
-0.034790687 -0.13028879 0.014543399 9.6703551e-39
-0.032887623 -0.1294979 0.017482027 9.5781595e-39
-0.030992186 -0.12868352 0.020507917 9.5781581e-39
-0.029194897 -0.12868352 0.020507917 9.3941311e-39
-0.027479848 -0.1294979 0.017482027 9.3952242e-39
-0.025600327 -0.12868352 0.020507917 9.211207e-39
-0.023803039 -0.12868352 0.020507917 8.380387e-39
-0.021809118 -0.12626885 0.029479846 8.0119604e-39
-0.020027561 -0.12626885 0.029479846 8.6576619e-39
-0.0076745171 -0.13028879 0.014543399 1.2164338e-38
-0.0058487412 -0.1294979 0.017482027 1.2629649e-38
-0.0040461477 -0.1294979 0.017482027 1.1527252e-38
-0.0022435561 -0.1294979 0.017482027 1.2361298e-38
-0.00044096448 -0.1294979 0.017482027 1.9647998e-38
0.001361629 -0.1294979 0.017482027 1.974132e-38
0.0031642206 -0.1294979 0.017482027 1.6053509e-38
0.0049931128 -0.13111271 0.011481985 1.4762032e-38
0.0068062246 -0.13111271 0.011481985 1.6143533e-38
0.0086193373 -0.13111271 0.011481985 1.6693858e-38
0.010470369 -0.13217102 0.0075497478 1.4294979e-38
0.012290376 -0.13217102 0.0075497478 1.475522e-38
0.014110383 -0.13217102 0.0075497478 2.0008224e-38
0.01593039 -0.13217102 0.0075497478 2.0559639e-38
0.017800296 -0.13297729 0.0045540184 1.8716429e-38
0.019625554 -0.13297729 0.0045540184 1.6691292e-38
0.021450814 -0.13297729 0.0045540184 1.623281e-38
0.023276072 -0.13297729 0.0045540184 1.6786006e-38
0.025172653 -0.13378824 0.0015408844 1.3652073e-38
0.027080242 -0.13460387 -0.0014896542 1.2915925e-38
0.028916098 -0.13460387 -0.0014896542 1.0799011e-38
0.030954279 -0.13648613 -0.0084833056 1.0065402e-38
0.032802396 -0.13648613 -0.0084833056 1.2186989e-38
0.034747124 -0.13728772 -0.01146175 1.3289399e-38
0.036600463 -0.13728772 -0.01146175 1.181246e-38
0.03845381 -0.13728772 -0.01146175 1.1627668e-38
0.040307149 -0.13728772 -0.01146175 1.3839637e-38
0.042278655 -0.13809387 -0.014457121 1.540519e-38
0.044137247 -0.13809387 -0.014457121 1.522045e-38
0.045995839 -0.13809387 -0.014457121 1.2546777e-38
0.047854431 -0.13809387 -0.014457121 1.1348245e-38
0.049713023 -0.13809387 -0.014457121 1.1900367e-38
0.051716864 -0.13890465 -0.01746954 1.1254646e-38
0.053580739 -0.13890465 -0.01746954 1.1991841e-38
0.055444613 -0.13890465 -0.01746954 1.2268046e-38
0.057308488 -0.13890465 -0.01746954 1.2176893e-38
0.059172362 -0.13890465 -0.01746954 1.0143896e-38
0.061266638 -0.13999285 -0.021512881 9.6742955e-39
0.063137598 -0.13999285 -0.021512881 1.1974151e-38
0.065186366 -0.14078392 -0.024452224 1.178976e-38
-0.096541166 -0.13292582 0.011481985 7.7440658e-39
-0.094728068 -0.13292582 0.011481985 1.0602838e-38
-0.092638507 -0.13209651 0.014543399 1.2815879e-38
-0.090302646 -0.13048081 0.020507917 1.2171217e-38
-0.088244274 -0.1296659 0.023516163 1.1157414e-38
-0.086452261 -0.1296659 0.023516163 9.5915124e-39
-0.084411189 -0.12885578 0.026506767 8.4880221e-39
-0.082624421 -0.12885578 0.026506767 1.337547e-38
-0.08060047 -0.1280504 0.029479846 1.9919578e-38
-0.078818917 -0.1280504 0.029479846 2.3234334e-38
-0.077037349 -0.1280504 0.029479846 2.2865933e-38
-0.075255796 -0.1280504 0.029479846 2.3326208e-38
-0.073474243 -0.1280504 0.029479846 2.2957075e-38
-0.07169269 -0.1280504 0.029479846 2.341805e-38
-0.069911137 -0.1280504 0.029479846 2.3050349e-38
-0.068129569 -0.1280504 0.029479846 2.2773408e-38
-0.066146985 -0.12722217 0.032537326 2.3232585e-38
-0.064370796 -0.12722217 0.032537326 2.3509168e-38
-0.062594593 -0.12722217 0.032537326 2.2030786e-38
-0.060818404 -0.12722217 0.032537326 1.0044244e-38
-0.059221789 -0.1280504 0.029479846 7.3701685e-39
-0.057609655 -0.12885578 0.026506767 9.1207841e-39
-0.055822887 -0.12885578 0.026506767 9.9483867e-39
-0.054518729 -0.13130049 0.017482027 9.8551093e-39
-0.052716136 -0.13130049 0.017482027 9.670718e-39
-0.050913543 -0.13130049 0.017482027 9.7629137e-39
-0.048965052 -0.13048081 0.020507917 1.0131696e-38
-0.047167763 -0.13048081 0.020507917 1.0316443e-38
-0.045370482 -0.13048081 0.020507917 1.0131333e-38
-0.040097989 -0.13130049 0.017482027 9.7625507e-39
-0.038295396 -0.13130049 0.017482027 9.854745e-39
-0.03649281 -0.13130049 0.017482027 9.9469406e-39
-0.034790687 -0.13209651 0.014543399 1.0038417e-38
-0.032887623 -0.13130049 0.017482027 1.0038417e-38
-0.031085031 -0.13130049 0.017482027 1.0038417e-38
-0.029282438 -0.13130049 0.017482027 9.9469406e-39
-0.027479848 -0.13130049 0.017482027 9.6710726e-39
-0.025677254 -0.13130049 0.017482027 9.394857e-39
-0.023874661 -0.13130049 0.017482027 8.4718469e-39
-0.02200575 -0.13048081 0.020507917 8.1952601e-39
-0.020208465 -0.13048081 0.020507917 8.9338831e-39
-0.0076513328 -0.13130049 0.017482027 1.2532053e-38
-0.0058487412 -0.13130049 0.017482027 1.290409e-38
-0.0040461477 -0.13130049 0.017482027 1.16173e-38
-0.0022435561 -0.13130049 0.017482027 1.2727931e-38
-0.00044096448 -0.13130049 0.017482027 2.0292654e-38
0.001361629 -0.13130049 0.017482027 1.8173642e-38
0.0031642206 -0.13130049 0.017482027 1.457875e-38
0.0049796943 -0.13209651 0.014543399 1.4946448e-38
0.0068062246 -0.13292582 0.011481985 1.6235745e-38
0.0086193373 -0.13292582 0.011481985 1.6602733e-38
0.010470369 -0.13399105 0.0075497478 1.5033609e-38
0.012290376 -0.13399105 0.0075497478 1.5032533e-38
0.014110383 -0.13399105 0.0075497478 2.0285537e-38
0.01593039 -0.13399105 0.0075497478 2.341805e-38
0.017800296 -0.13480256 0.0045540184 1.9270656e-38
0.019625554 -0.13480256 0.0045540184 1.7245866e-38
0.021450814 -0.13480256 0.0045540184 1.7248001e-38
0.023276072 -0.13480256 0.0045540184 1.7154766e-38
0.025172653 -0.13561879 0.0015408844 1.4204151e-38
0.027080242 -0.13643973 -0.0014896542 1.3468722e-38
0.028916098 -0.13643973 -0.0014896542 1.1074142e-38
0.030954279 -0.13833423 -0.0084833056 9.8813472e-39
0.032802396 -0.13833423 -0.0084833056 1.1909665e-38
0.034747124 -0.13914107 -0.01146175 1.2275596e-38
0.036600463 -0.13914107 -0.01146175 1.0245489e-38
0.03845381 -0.13914107 -0.01146175 1.0060695e-38
0.040420063 -0.13995247 -0.014457121 1.2088275e-38
0.042278655 -0.13995247 -0.014457121 1.2823712e-38
0.044137247 -0.13995247 -0.014457121 1.1532625e-38
0.045995839 -0.13995247 -0.014457121 1.2270906e-38
0.047989115 -0.14076851 -0.01746954 1.0150059e-38
0.04985299 -0.14076851 -0.01746954 1.0056807e-38
0.051716864 -0.14076851 -0.01746954 1.0147934e-38
0.053580739 -0.14076851 -0.01746954 1.1345759e-38
0.055444613 -0.14076851 -0.01746954 1.1068435e-38
0.057308488 -0.14076851 -0.01746954 1.1344985e-38
0.059172362 -0.14076851 -0.01746954 1.0603805e-38
0.061036237 -0.14076851 -0.01746954 1.0318583e-38
0.063137598 -0.14186381 -0.021512881 1.2158899e-38
