# .PCD v0.7 - Point Cloud Data file format
VERSION 0.7
FIELDS x y z rgb
SIZE 4 4 4 4
TYPE F F F F
COUNT 1 1 1 1
WIDTH 937
HEIGHT 1
VIEWPOINT 0 0 0 1 0 0 0
POINTS 937
DATA ascii
-0.0064504575 -0.099937305 -0.040690478 2.3322627e-38
-0.0047469269 -0.098335579 -0.03369027 2.3508451e-38
-0.0031562373 -0.09603554 -0.023638066 2.3508451e-38
-0.0012923647 -0.09603554 -0.023638066 2.3508801e-38
0.00070266239 -0.096960694 -0.027681407 2.3325478e-38
0.0025736261 -0.096960694 -0.027681407 2.3326189e-38
0.0044445898 -0.096960694 -0.027681407 2.314252e-38
0.0063155536 -0.096960694 -0.027681407 2.3050687e-38
0.0081865136 -0.096960694 -0.027681407 2.295886e-38
0.010057477 -0.096960694 -0.027681407 2.2958503e-38
0.012054706 -0.097633243 -0.03062075 2.2958503e-38
0.014068061 -0.098335579 -0.03369027 2.3234361e-38
0.01594956 -0.098335579 -0.03369027 2.3326185e-38
0.017831059 -0.098335579 -0.03369027 2.3326177e-38
0.019912703 -0.099252045 -0.037695583 2.3234333e-38
0.021801224 -0.099252045 -0.037695583 2.2958824e-38
0.023689745 -0.099252045 -0.037695583 2.2591483e-38
0.025578266 -0.099252045 -0.037695583 2.26826e-38
0.027466787 -0.099252045 -0.037695583 2.2957749e-38
0.029531216 -0.099937305 -0.040690478 2.314142e-38
0.031424992 -0.099937305 -0.040690478 2.2589332e-38
0.033564098 -0.10083917 -0.044632014 2.1946112e-38
0.035464786 -0.10083917 -0.044632014 2.1579827e-38
0.037365466 -0.10083917 -0.044632014 2.1856764e-38
0.039470933 -0.10153329 -0.047665652 2.1948608e-38
0.041376933 -0.10153329 -0.047665652 2.2040442e-38
0.0446814 -0.099937305 -0.040690478 1.7063676e-38
-0.010303639 -0.10114056 -0.037695583 2.3324775e-38
-0.0084151179 -0.10114056 -0.037695583 2.3324421e-38
-0.0064504575 -0.10183108 -0.040690478 2.3508809e-38
-0.0050201118 -0.097899407 -0.023638066 2.3415898e-38
-0.0032433867 -0.097204864 -0.020625647 2.3508451e-38
-0.0014767032 -0.09651424 -0.017630275 2.3415539e-38
0.00037663616 -0.09651424 -0.017630275 2.2680122e-38
0.0023323875 -0.097204864 -0.020625647 2.2404958e-38
0.0041909795 -0.097204864 -0.020625647 2.2314909e-38
0.0060495716 -0.097204864 -0.020625647 2.2775161e-38
0.0079081636 -0.097204864 -0.020625647 2.295884e-38
0.0097667594 -0.097204864 -0.020625647 2.295884e-38
0.011625351 -0.097204864 -0.020625647 2.2407102e-38
0.013799405 -0.098831654 -0.027681407 2.2407102e-38
0.015670368 -0.098831654 -0.027681407 2.259113e-38
0.017541332 -0.098831654 -0.027681407 2.2591482e-38
0.019559173 -0.099509358 -0.03062075 2.2499639e-38
0.021435289 -0.099509358 -0.03062075 2.2407795e-38
0.023311408 -0.099509358 -0.03062075 2.2131924e-38
0.025357055 -0.10021709 -0.03369027 2.2039373e-38
0.027238553 -0.10021709 -0.03369027 2.2313816e-38
0.029355308 -0.10114056 -0.037695583 2.2498208e-38
0.031243829 -0.10114056 -0.037695583 2.2223415e-38
0.033318765 -0.10183108 -0.040690478 2.1764228e-38
0.035464786 -0.10273984 -0.044632014 2.1489062e-38
0.037365466 -0.10273984 -0.044632014 2.1213907e-38
0.039470933 -0.10343929 -0.047665652 2.121391e-38
0.041376933 -0.10343929 -0.047665652 2.1305747e-38
0.043282934 -0.10343929 -0.047665652 2.0845842e-38
0.0446814 -0.10183108 -0.040690478 1.6788161e-38
0.046575174 -0.10183108 -0.040690478 1.4480407e-38
0.048468947 -0.10183108 -0.040690478 1.4755558e-38
0.050906934 -0.10343929 -0.047665652 1.4752671e-38
0.052812941 -0.10343929 -0.047665652 1.3737076e-38
-0.0126568 -0.097675636 -0.014651831 2.3509866e-38
-0.010808682 -0.097675636 -0.014651831 2.350988e-38
-0.0091261044 -0.096050888 -0.0076581798 2.2403549e-38
-0.0072902478 -0.096050888 -0.0076581798 2.3233662e-38
-0.0051019788 -0.099063456 -0.020625647 2.3233662e-38
-0.0035335086 -0.096733689 -0.010597285 2.3508451e-38
-0.0017826799 -0.096050888 -0.0076581798 2.3416615e-38
5.3176656e-05 -0.096050888 -0.0076581798 2.2864882e-38
0.0019895192 -0.096733689 -0.010597285 2.2497878e-38
0.0038305279 -0.096733689 -0.010597285 2.2499653e-38
0.0056715365 -0.096733689 -0.010597285 2.2683314e-38
0.007672498 -0.097675636 -0.014651831 2.2866982e-38
0.0095206182 -0.097675636 -0.014651831 2.2866977e-38
0.01149668 -0.098367572 -0.017630275 2.1764584e-38
0.013483943 -0.099063456 -0.020625647 2.1856425e-38
0.015482502 -0.099763289 -0.023638066 2.1856072e-38
0.017346377 -0.099763289 -0.023638066 2.20401e-38
0.019412296 -0.10070263 -0.027681407 2.1948259e-38
0.021283256 -0.10070263 -0.027681407 2.1856409e-38
0.023311408 -0.10138547 -0.03062075 2.1764919e-38
0.025187524 -0.10138547 -0.03062075 2.1672369e-38
0.02706364 -0.10138547 -0.03062075 2.1763865e-38
0.029120049 -0.10209858 -0.03369027 2.1671315e-38
0.031243829 -0.10302909 -0.037695583 2.158126e-38
0.033132352 -0.10302909 -0.037695583 2.1397582e-38
0.035212539 -0.10372485 -0.040690478 2.1213907e-38
0.037106313 -0.10372485 -0.040690478 2.0662883e-38
0.039266154 -0.10464053 -0.044632014 2.0111863e-38
0.041166835 -0.10464053 -0.044632014 1.9835277e-38
0.043282934 -0.10534529 -0.047665652 2.0479218e-38
0.0446814 -0.10372485 -0.040690478 1.9554746e-38
0.046575174 -0.10372485 -0.040690478 1.5680726e-38
0.048468947 -0.10372485 -0.040690478 1.3097088e-38
0.050906934 -0.10534529 -0.047665652 1.4200198e-38
0.052570932 -0.10464053 -0.044632014 1.4935602e-38
0.054471619 -0.10464053 -0.044632014 1.5486975e-38
-0.012858922 -0.097177386 -0.0046276413 2.2588972e-38
-0.011094417 -0.096472099 -0.0016145073 2.2958133e-38
-0.0092691574 -0.096472099 -0.0016145073 2.2405699e-38
-0.0074438974 -0.096472099 -0.0016145073 2.2958873e-38
-0.0056186393 -0.096472099 -0.0016145073 2.1944736e-38
-0.0037062094 -0.097177386 -0.0046276413 2.3417333e-38
-0.0018756669 -0.097177386 -0.0046276413 2.3417691e-38
-4.5126304e-05 -0.097177386 -0.0046276413 2.3325856e-38
0.001785418 -0.097177386 -0.0046276413 2.314253e-38
0.0036159586 -0.097177386 -0.0046276413 2.2867001e-38
0.0054465029 -0.097177386 -0.0046276413 2.2315963e-38
0.0073965993 -0.097886756 -0.0076581798 2.1673089e-38
0.0093535539 -0.098574698 -0.010597285 2.1121707e-38
0.011368735 -0.099523753 -0.014651831 2.1305743e-38
0.013350019 -0.10022092 -0.017630275 2.1397587e-38
0.015203359 -0.10022092 -0.017630275 2.1489436e-38
0.017201127 -0.10092205 -0.020625647 2.1581273e-38
0.01905972 -0.10092205 -0.020625647 2.1764938e-38
0.021074122 -0.10162716 -0.023638066 2.1673089e-38
0.02315422 -0.10257359 -0.027681407 2.1673068e-38
0.025025183 -0.10257359 -0.027681407 2.1581234e-38
0.026896147 -0.10257359 -0.027681407 2.1673094e-38
0.028939759 -0.1032616 -0.03062075 2.1029163e-38
0.031001551 -0.10398008 -0.03369027 2.0661797e-38
0.033132352 -0.1049176 -0.037695583 2.0662869e-38
0.035020873 -0.1049176 -0.037695583 2.0479202e-38
0.037106313 -0.10561861 -0.040690478 2.0020022e-38
0.039000086 -0.10561861 -0.040690478 1.9468999e-38
0.041166835 -0.1065412 -0.044632014 1.9376093e-38
0.043282934 -0.1072513 -0.047665652 1.8821137e-38
0.044968203 -0.1065412 -0.044632014 2.1122076e-38
0.046575174 -0.10561861 -0.040690478 1.8078877e-38
0.048468947 -0.10561861 -0.040690478 1.3927908e-38
0.050906934 -0.1072513 -0.047665652 1.5122506e-38
0.052570932 -0.1065412 -0.044632014 1.705574e-38
0.054471619 -0.1065412 -0.044632014 1.7698593e-38
-0.012858922 -0.099007934 -0.0046276413 2.1758833e-38
-0.011094417 -0.098297372 -0.0016145073 2.3418021e-38
-0.0092691574 -0.098297372 -0.0016145073 2.2867023e-38
-0.0074438974 -0.098297372 -0.0016145073 2.2499334e-38
-0.0056186393 -0.098297372 -0.0016145073 2.2867037e-38
-0.0037062094 -0.099007934 -0.0046276413 2.2958504e-38
-0.0019681212 -0.098297372 -0.0016145073 2.3326203e-38
-0.0001428593 -0.098297372 -0.0016145073 2.341804e-38
0.001785418 -0.099007934 -0.0046276413 2.3234362e-38
0.0036159586 -0.099007934 -0.0046276413 2.2867001e-38
0.0054465029 -0.099007934 -0.0046276413 2.1948259e-38
0.0073965993 -0.099722609 -0.0076581798 2.093624e-38
0.0093535539 -0.10041572 -0.010597285 2.001643e-38
0.011194566 -0.10041572 -0.010597285 2.0754713e-38
0.013216851 -0.10137187 -0.014651831 2.0754721e-38
0.015064972 -0.10137187 -0.014651831 2.0846571e-38
0.016913088 -0.10137187 -0.014651831 2.093841e-38
0.018910041 -0.10207425 -0.017630275 2.103024e-38
0.020918312 -0.10278064 -0.020625647 2.1305734e-38
0.022937996 -0.10349102 -0.023638066 2.1397549e-38
0.024801871 -0.10349102 -0.023638066 2.1305709e-38
0.026896147 -0.10444455 -0.027681407 2.1397567e-38
0.028767107 -0.10444455 -0.027681407 2.0662873e-38
0.030815875 -0.10513772 -0.03062075 2.0203669e-38
0.033132352 -0.10680611 -0.037695583 2.0111829e-38
0.035020873 -0.10680611 -0.037695583 1.9928172e-38
0.037106313 -0.1075124 -0.040690478 1.9468996e-38
0.039000086 -0.1075124 -0.040690478 1.9009812e-38
0.041166835 -0.1084419 -0.044632014 1.9193134e-38
0.043282934 -0.10915731 -0.047665652 1.9282841e-38
0.045188941 -0.10915731 -0.047665652 2.1030246e-38
0.046868883 -0.1084419 -0.044632014 1.891007e-38
0.048769571 -0.1084419 -0.044632014 1.5587423e-38
0.050906934 -0.10915731 -0.047665652 1.6136658e-38
0.052570932 -0.1084419 -0.044632014 1.871491e-38
0.054471619 -0.1084419 -0.044632014 1.9448886e-38
-0.011094417 -0.10012263 -0.0016145073 2.26826e-38
-0.0092691574 -0.10012263 -0.0016145073 9.9614216e-39
-0.0074438974 -0.10012263 -0.0016145073 1.0607167e-38
-0.0056186393 -0.10012263 -0.0016145073 2.249968e-38
-0.0037933793 -0.10012263 -0.0016145073 2.3234344e-38
-0.0019681212 -0.10012263 -0.0016145073 2.3509846e-38
-0.0001428593 -0.10012263 -0.0016145073 2.3509859e-38
0.0016823988 -0.10012263 -0.0016145073 2.3418025e-38
0.0036159586 -0.10083848 -0.0046276413 2.2958839e-38
0.0054465029 -0.10083848 -0.0046276413 2.2315608e-38
0.0072770435 -0.10083848 -0.0046276413 2.1212831e-38
0.0092324559 -0.10155846 -0.0076581798 2.0385213e-38
0.011068309 -0.10155846 -0.0076581798 2.0295526e-38
0.013035575 -0.10225673 -0.010597285 2.0203694e-38
0.015064972 -0.10322 -0.014651831 2.0203705e-38
0.016913088 -0.10322 -0.014651831 2.0295545e-38
0.018910041 -0.1039276 -0.017630275 2.0662886e-38
0.020918312 -0.10463922 -0.020625647 2.075471e-38
0.022776904 -0.10463922 -0.020625647 2.093836e-38
0.024801871 -0.10535492 -0.023638066 2.0938357e-38
0.026665745 -0.10535492 -0.023638066 2.1122049e-38
0.028767107 -0.10631551 -0.027681407 2.0571025e-38
0.030638075 -0.10631551 -0.027681407 2.0295496e-38
0.032883048 -0.10774307 -0.03369027 2.0295496e-38
0.034764551 -0.10774307 -0.03369027 1.9928171e-38
0.036909394 -0.10869466 -0.037695583 1.8917976e-38
0.039000086 -0.10940616 -0.040690478 1.8549911e-38
0.04089386 -0.10940616 -0.040690478 1.8641402e-38
0.043067515 -0.11034258 -0.044632014 1.9099533e-38
0.044968203 -0.11034258 -0.044632014 1.9465437e-38
0.046868883 -0.11034258 -0.044632014 1.9463961e-38
0.049000941 -0.11106332 -0.047665652 1.8722791e-38
0.050906934 -0.11106332 -0.047665652 1.8810331e-38
0.052570932 -0.11034258 -0.044632014 2.0188965e-38
0.054150261 -0.10940616 -0.040690478 1.824999e-38
0.056044035 -0.10940616 -0.040690478 1.3639491e-38
-0.011094417 -0.10194789 -0.0016145073 2.3509846e-38
-0.0092691574 -0.10194789 -0.0016145073 1.4938904e-38
-0.0075200591 -0.10123092 0.0013812222 1.0053274e-38
-0.0057000536 -0.10123092 0.0013812222 1.6047049e-38
-0.0038800463 -0.10123092 0.0013812222 2.2958798e-38
-0.002060039 -0.10123092 0.0013812222 2.2591077e-38
-0.00024003349 -0.10123092 0.0013812222 2.3326159e-38
0.0016823988 -0.10194789 -0.0016145073 2.3509848e-38
0.003507657 -0.10194789 -0.0016145073 2.3418022e-38
0.0053329151 -0.10194789 -0.0016145073 2.2683323e-38
0.007158177 -0.10194789 -0.0016145073 2.1580187e-38
0.0091075879 -0.10266902 -0.0046276413 2.0293744e-38
0.010938128 -0.10266902 -0.0046276413 1.8360496e-38
0.012904165 -0.10339431 -0.0076581798 1.9468999e-38
0.014876584 -0.10409774 -0.010597285 1.9744517e-38
0.016913088 -0.1050681 -0.014651831 1.9928189e-38
0.018761208 -0.1050681 -0.014651831 2.066288e-38
0.02076338 -0.10578094 -0.017630275 2.0111489e-38
0.022776904 -0.10649781 -0.020625647 1.9741973e-38
0.024635496 -0.10649781 -0.020625647 2.1122035e-38
0.026665745 -0.10721879 -0.023638066 2.1581231e-38
0.02852962 -0.10721879 -0.023638066 2.0294795e-38
0.030638075 -0.10818647 -0.027681407 1.9928146e-38
0.032691993 -0.10888995 -0.03062075 1.9652642e-38
0.034764551 -0.10962458 -0.03369027 2.0295523e-38
0.036909394 -0.11058317 -0.037695583 1.7719797e-38
0.038797915 -0.11058317 -0.037695583 1.8550639e-38
0.04089386 -0.11129995 -0.040690478 1.8642128e-38
0.043067515 -0.11224325 -0.044632014 1.9376843e-38
0.044968203 -0.11224325 -0.044632014 1.9005899e-38
0.046868883 -0.11224325 -0.044632014 2.0294801e-38
0.049000941 -0.11296929 -0.047665652 1.6879957e-38
0.050906934 -0.11296929 -0.047665652 1.6597636e-38
0.052812941 -0.11296929 -0.047665652 1.7054314e-38
0.054150261 -0.11129995 -0.040690478 1.5483404e-38
0.056044035 -0.11129995 -0.040690478 1.2716814e-38
-0.0092691574 -0.10377313 -0.0016145073 2.3418033e-38
-0.0075200591 -0.10305093 0.0013812222 2.3142541e-38
-0.0057000536 -0.10305093 0.0013812222 1.1620216e-38
-0.0038800463 -0.10305093 0.0013812222 1.6691261e-38
-0.002060039 -0.10305093 0.0013812222 2.2314459e-38
-0.00024003349 -0.10305093 0.0013812222 2.3509811e-38
0.0015799757 -0.10305093 0.0013812222 2.3509837e-38
0.0033999812 -0.10305093 0.0013812222 2.2955957e-38
0.0052199867 -0.10305093 0.0013812222 2.1851767e-38
0.0070399959 -0.10305093 0.0013812222 2.2315965e-38
0.0089834351 -0.10377313 -0.0016145073 2.0016806e-38
0.010808693 -0.10377313 -0.0016145073 1.919062e-38
0.012768673 -0.10449956 -0.0046276413 1.9193486e-38
0.014876584 -0.10593875 -0.010597285 1.9009816e-38
0.016717592 -0.10593875 -0.010597285 1.9009816e-38
0.018558601 -0.10593875 -0.010597285 1.9560832e-38
0.02076338 -0.10763429 -0.017630275 1.974378e-38
0.02261672 -0.10763429 -0.017630275 2.0018563e-38
0.024635496 -0.1083564 -0.020625647 2.0754332e-38
0.026665745 -0.10908265 -0.023638066 2.1489395e-38
0.02852962 -0.10908265 -0.023638066 2.0568512e-38
0.030638075 -0.11005743 -0.027681407 1.8543786e-38
0.032509036 -0.11005743 -0.027681407 1.7716183e-38
0.034568109 -0.11076607 -0.03062075 1.7718004e-38
0.036646046 -0.11150609 -0.03369027 1.7165919e-38
0.038797915 -0.11247168 -0.037695583 1.8550648e-38
0.04089386 -0.11319371 -0.040690478 1.8734329e-38
0.043067515 -0.11414395 -0.044632014 1.9377203e-38
0.044968203 -0.11414395 -0.044632014 1.6794278e-38
0.046868883 -0.11414395 -0.044632014 1.8082466e-38
0.049000941 -0.1148753 -0.047665652 1.5865804e-38
0.050906934 -0.1148753 -0.047665652 1.5860424e-38
0.052570932 -0.11414395 -0.044632014 1.4658299e-38
0.054150261 -0.11319371 -0.040690478 1.4377408e-38
0.056044035 -0.11319371 -0.040690478 1.2809362e-38
-0.0075200591 -0.10487093 0.0013812222 2.3509527e-38
-0.0058069173 -0.10391603 0.0053134598 1.3645644e-38
-0.0039938055 -0.10391603 0.0053134598 1.2633562e-38
-0.0021806937 -0.10391603 0.0053134598 2.1115174e-38
-0.00036757998 -0.10391603 0.0053134598 2.3509785e-38
0.00144553 -0.10391603 0.0053134598 2.3509824e-38
0.0033999812 -0.10487093 0.0013812222 2.3509846e-38
0.0052199867 -0.10487093 0.0013812222 2.267937e-38
0.0070399959 -0.10487093 0.0013812222 2.3234334e-38
0.0088600013 -0.10487093 0.0013812222 2.1397591e-38
0.010680007 -0.10487093 0.0013812222 1.9560484e-38
0.012633955 -0.10559841 -0.0016145073 1.8088933e-38
0.014876584 -0.10777976 -0.010597285 1.7814137e-38
0.016717592 -0.10777976 -0.010597285 1.8090721e-38
0.018558601 -0.10777976 -0.010597285 1.827296e-38
0.020609325 -0.10876434 -0.014651831 1.96523e-38
0.02261672 -0.10948761 -0.017630275 2.0571025e-38
0.024635496 -0.11021499 -0.020625647 2.019973e-38
0.026494088 -0.11021499 -0.020625647 2.139541e-38
0.02852962 -0.11094652 -0.023638066 2.0750044e-38
0.030393494 -0.11094652 -0.023638066 1.9000834e-38
0.032509036 -0.11192839 -0.027681407 1.992603e-38
0.034380004 -0.11192839 -0.027681407 1.9375388e-38
0.036444224 -0.11264218 -0.03062075 1.8639627e-38
0.038527548 -0.11338757 -0.03369027 1.8918007e-38
0.040686443 -0.1143602 -0.037695583 1.9193521e-38
0.042787626 -0.11508749 -0.040690478 2.0203731e-38
0.044968203 -0.11604463 -0.044632014 1.5042912e-38
0.046868883 -0.11604463 -0.044632014 1.6238909e-38
0.049000941 -0.11678131 -0.047665652 1.5313346e-38
0.050906934 -0.11678131 -0.047665652 1.5216486e-38
0.052570932 -0.11604463 -0.044632014 1.2170441e-38
0.054150261 -0.11508749 -0.040690478 1.3088447e-38
0.055794604 -0.1143602 -0.037695583 1.2626753e-38
0.057683133 -0.1143602 -0.037695583 1.2903337e-38
-0.0075200591 -0.10669093 0.0013812222 2.3508809e-38
-0.0058069173 -0.10572915 0.0053134598 1.6685578e-38
-0.0039938055 -0.10572915 0.0053134598 1.3184934e-38
-0.0021806937 -0.10572915 0.0053134598 1.7701775e-38
-0.00036757998 -0.10572915 0.0053134598 1.9358452e-38
0.00144553 -0.10572915 0.0053134598 2.193852e-38
0.0032586437 -0.10572915 0.0053134598 2.3509112e-38
0.0050717536 -0.10572915 0.0053134598 2.3138897e-38
0.0068848673 -0.10572915 0.0053134598 2.2037218e-38
0.0088600013 -0.10669093 0.0013812222 2.093697e-38
0.010680007 -0.10669093 0.0013812222 2.0111862e-38
0.012500016 -0.10669093 0.0013812222 1.7443561e-38
0.014740022 -0.10890187 -0.0076581798 1.7169837e-38
0.016717592 -0.10962076 -0.010597285 1.7538618e-38
0.018558601 -0.10962076 -0.010597285 1.7167323e-38
0.020609325 -0.11061247 -0.014651831 1.8823617e-38
0.02261672 -0.11134095 -0.017630275 1.9926735e-38
0.024470059 -0.11134095 -0.017630275 1.8078517e-38
0.026494088 -0.11207359 -0.020625647 1.6506887e-38
0.02835268 -0.11207359 -0.020625647 1.6690206e-38
0.030211268 -0.11207359 -0.020625647 1.6692365e-38
0.032257371 -0.11281042 -0.023638066 2.1120635e-38
0.034380004 -0.11379938 -0.027681407 2.1305761e-38
0.036250964 -0.11379938 -0.027681407 2.047924e-38
0.038527548 -0.11526908 -0.03369027 1.9836383e-38
0.040686443 -0.11624874 -0.037695583 2.0571078e-38
0.042787626 -0.11698125 -0.040690478 2.0020048e-38
0.0446814 -0.11698125 -0.040690478 1.4490449e-38
0.046868883 -0.11794533 -0.044632014 1.5686099e-38
0.049000941 -0.11868732 -0.047665652 1.5405906e-38
0.050906934 -0.11868732 -0.047665652 1.503281e-38
0.052570932 -0.11794533 -0.044632014 1.0972969e-38
0.054471619 -0.11794533 -0.044632014 1.2535984e-38
0.055794604 -0.11624874 -0.037695583 1.2258321e-38
0.057683133 -0.11624874 -0.037695583 1.2719299e-38
-0.0075200591 -0.10851096 0.0013812222 2.3508078e-38
-0.0058901161 -0.10678811 0.0083748735 1.6222073e-38
-0.0040823724 -0.10678811 0.0083748735 1.659223e-38
-0.0023647938 -0.10606419 0.011313502 1.6039391e-38
-0.00056220405 -0.10606419 0.011313502 1.6590066e-38
0.0012403894 -0.10606419 0.011313502 1.8616948e-38
0.003148606 -0.10678811 0.0083748735 2.3504055e-38
0.0049563516 -0.10678811 0.0083748735 2.3509825e-38
0.0068848673 -0.10754226 0.0053134598 2.2497104e-38
0.008697981 -0.10754226 0.0053134598 2.2407783e-38
0.010511091 -0.10754226 0.0053134598 2.0754717e-38
0.012500016 -0.10851096 0.0013812222 1.7536834e-38
0.014599213 -0.10999118 -0.0046276413 1.7355303e-38
0.016575878 -0.11073773 -0.0076581798 1.726346e-38
0.018558601 -0.11146177 -0.010597285 1.62468e-38
0.020609325 -0.11246057 -0.014651831 1.781054e-38
0.02261672 -0.1131943 -0.017630275 1.8359054e-38
0.024470059 -0.1131943 -0.017630275 1.5496324e-38
0.026323399 -0.1131943 -0.017630275 1.7057178e-38
0.028176742 -0.1131943 -0.017630275 1.8253932e-38
0.030030077 -0.1131943 -0.017630275 1.8256104e-38
0.032069862 -0.11393218 -0.020625647 2.1578751e-38
0.034121245 -0.11467429 -0.023638066 2.1489437e-38
0.036250964 -0.11567034 -0.027681407 2.1213937e-38
0.03832034 -0.11639442 -0.03062075 2.0387407e-38
0.040686443 -0.11813726 -0.037695583 2.0203728e-38
0.042787626 -0.11887501 -0.040690478 1.7073725e-38
0.0446814 -0.11887501 -0.040690478 1.3937627e-38
0.046575174 -0.11887501 -0.040690478 1.5041454e-38
0.048769571 -0.119846 -0.044632014 1.4945658e-38
0.050670244 -0.119846 -0.044632014 1.4480002e-38
0.052570932 -0.119846 -0.044632014 1.0697102e-38
0.054471619 -0.119846 -0.044632014 1.2168279e-38
0.056044035 -0.11887501 -0.040690478 1.1705862e-38
0.057937808 -0.11887501 -0.040690478 1.2534905e-38
-0.0058901161 -0.10859586 0.0083748735 1.1609762e-38
-0.0041673873 -0.10786678 0.011313502 1.2993738e-38
-0.0023647938 -0.10786678 0.011313502 1.207176e-38
-0.00056220405 -0.10786678 0.011313502 1.2807893e-38
0.0012403894 -0.10786678 0.011313502 1.2438756e-38
0.0030429829 -0.10786678 0.011313502 1.8155254e-38
0.0049563516 -0.10859586 0.0083748735 2.3508724e-38
0.0067640934 -0.10859586 0.0083748735 2.2680404e-38
0.008571839 -0.10859586 0.0083748735 2.22241e-38
0.010379585 -0.10859586 0.0083748735 2.0846547e-38
0.01218733 -0.10859586 0.0083748735 1.7997809e-38
0.014459213 -0.11107419 -0.0016145073 1.7632246e-38
0.016575878 -0.11257361 -0.0076581798 1.7171982e-38
0.018558601 -0.11330278 -0.010597285 1.6155318e-38
0.02039961 -0.11330278 -0.010597285 1.771906e-38
0.022457441 -0.1143087 -0.014651831 1.8174666e-38
0.024305562 -0.1143087 -0.014651831 1.5310853e-38
0.026323399 -0.11504765 -0.017630275 1.7792931e-38
0.028176742 -0.11504765 -0.017630275 2.0464092e-38
0.030030077 -0.11504765 -0.017630275 2.00053e-38
0.032069862 -0.11579077 -0.020625647 1.9916355e-38
0.033928454 -0.11579077 -0.020625647 1.8722125e-38
0.035985112 -0.11653815 -0.023638066 1.7988516e-38
0.038121931 -0.1175413 -0.027681407 1.6332595e-38
0.040409043 -0.11903207 -0.03369027 1.3661784e-38
0.042574964 -0.12002577 -0.037695583 1.3570642e-38
0.0446814 -0.1207688 -0.040690478 1.393798e-38
0.046575174 -0.1207688 -0.040690478 1.4672322e-38
0.048769571 -0.12174667 -0.044632014 1.4484338e-38
0.050670244 -0.12174667 -0.044632014 1.3466222e-38
0.052570932 -0.12174667 -0.044632014 1.088186e-38
0.054471619 -0.12174667 -0.044632014 1.1892056e-38
0.056372292 -0.12174667 -0.044632014 1.1614028e-38
-0.0059699789 -0.10966937 0.011313502 1.0594153e-38
-0.0041673873 -0.10966937 0.011313502 1.0317922e-38
-0.0023647938 -0.10966937 0.011313502 1.1055117e-38
-0.00056220405 -0.10966937 0.011313502 1.2160374e-38
0.0012403894 -0.10966937 0.011313502 1.123877e-38
0.0030429829 -0.10966937 0.011313502 1.5757072e-38
0.0048455726 -0.10966937 0.011313502 2.3043766e-38
0.0066481661 -0.10966937 0.011313502 2.3509797e-38
0.0084507596 -0.10966937 0.011313502 2.2958779e-38
0.010253349 -0.10966937 0.011313502 2.0295521e-38
0.01218733 -0.11040358 0.0083748735 1.8089282e-38
0.014137318 -0.11116849 0.0053134598 1.7079788e-38
0.016284471 -0.11289944 -0.0016145073 1.5973436e-38
0.018558601 -0.11514379 -0.010597285 1.5141163e-38
0.02039961 -0.11514379 -0.010597285 1.68893e-38
0.022457441 -0.1161568 -0.014651831 1.7437101e-38
0.024305562 -0.1161568 -0.014651831 1.5310488e-38
0.026323399 -0.11690097 -0.017630275 1.6870232e-38
0.028176742 -0.11690097 -0.017630275 1.9264447e-38
0.030030077 -0.11690097 -0.017630275 1.9910935e-38
0.031883426 -0.11690097 -0.017630275 1.9361734e-38
0.033928454 -0.11764936 -0.020625647 1.8721038e-38
0.035985112 -0.11840202 -0.023638066 1.6420823e-38
0.038121931 -0.11941226 -0.027681407 1.5225881e-38
0.040409043 -0.12091358 -0.03369027 1.2831302e-38
0.042574964 -0.12191428 -0.037695583 1.301782e-38
0.044463485 -0.12191428 -0.037695583 1.6243228e-38
0.046352006 -0.12191428 -0.037695583 1.5686488e-38
0.048468947 -0.12266256 -0.040690478 1.5405594e-38
0.050362714 -0.12266256 -0.040690478 1.3281846e-38
0.052256487 -0.12266256 -0.040690478 1.1251017e-38
0.054150261 -0.12266256 -0.040690478 1.1523648e-38
-0.0059699789 -0.11147197 0.011313502 1.0041331e-38
-0.0041673873 -0.11147197 0.011313502 1.0040979e-38
-0.0024576392 -0.11071064 0.014339391 1.1607942e-38
-0.00066035055 -0.11071064 0.014339391 1.2251139e-38
0.0011369344 -0.11071064 0.014339391 1.2067453e-38
0.0030429829 -0.11147197 0.011313502 1.5019144e-38
0.0048455726 -0.11147197 0.011313502 2.064703e-38
0.0066481661 -0.11147197 0.011313502 2.3417942e-38
0.0084507596 -0.11147197 0.011313502 2.1580861e-38
0.010253349 -0.11147197 0.011313502 2.0111838e-38
0.01218733 -0.11221133 0.0083748735 1.8088916e-38
0.013995072 -0.11221133 0.0083748735 1.6615577e-38
0.016140027 -0.11397095 0.0013812222 1.4679472e-38
0.018260298 -0.11548282 -0.0046276413 1.3478787e-38
0.02039961 -0.1169848 -0.010597285 1.4858856e-38
0.022457441 -0.11800493 -0.014651831 1.5132576e-38
0.024305562 -0.11800493 -0.014651831 1.3376174e-38
0.026153678 -0.11800493 -0.014651831 1.5582369e-38
0.028001798 -0.11800493 -0.014651831 1.5671689e-38
0.030030077 -0.11875431 -0.017630275 1.6227049e-38
0.031883426 -0.11875431 -0.017630275 1.7059342e-38
0.033928454 -0.11950795 -0.020625647 1.6879266e-38
0.035985112 -0.12026589 -0.023638066 1.2918457e-38
0.038121931 -0.12128322 -0.027681407 1.3013186e-38
0.040409043 -0.12279506 -0.03369027 1.301462e-38
0.042574964 -0.12380283 -0.037695583 1.4951785e-38
0.044463485 -0.12380283 -0.037695583 1.928426e-38
0.046352006 -0.12380283 -0.037695583 1.7804837e-38
0.048468947 -0.12455635 -0.040690478 1.7155516e-38
0.050362714 -0.12455635 -0.040690478 1.4109809e-38
0.052256487 -0.12455635 -0.040690478 1.2079338e-38
0.054150261 -0.12455635 -0.040690478 1.1615123e-38
-0.0060522128 -0.11250792 0.014339391 1.0412627e-38
-0.004254926 -0.11250792 0.014339391 1.0504467e-38
-0.0024576392 -0.11250792 0.014339391 9.8576597e-39
-0.00066035055 -0.11250792 0.014339391 1.0591269e-38
0.0011369344 -0.11250792 0.014339391 1.2342619e-38
0.0030429829 -0.11327456 0.011313502 1.4650727e-38
0.0048455726 -0.11327456 0.011313502 1.8066271e-38
0.0066481661 -0.11327456 0.011313502 2.0285803e-38
0.0084507596 -0.11327456 0.011313502 2.0384109e-38
0.010253349 -0.11327456 0.011313502 1.9835956e-38
0.01218733 -0.11401908 0.0083748735 1.7809444e-38
0.013995072 -0.11401908 0.0083748735 1.6518352e-38
0.016140027 -0.11579098 0.0013812222 1.6424737e-38
0.018109733 -0.11654995 -0.0016145073 1.5868363e-38
0.02039961 -0.11882581 -0.010597285 1.6328989e-38
0.022457441 -0.11985306 -0.014651831 1.6239648e-38
0.024305562 -0.11985306 -0.014651831 1.2826955e-38
0.026153678 -0.11985306 -0.014651831 1.3928621e-38
0.028001798 -0.11985306 -0.014651831 1.4204843e-38
0.029849915 -0.11985306 -0.014651831 1.5036043e-38
0.031883426 -0.12060766 -0.017630275 1.5499184e-38
0.033928454 -0.12136655 -0.020625647 1.4948534e-38
0.035985112 -0.12212978 -0.023638066 1.4858151e-38
0.038121931 -0.12315418 -0.027681407 1.5042569e-38
0.040409043 -0.12467657 -0.03369027 1.4489045e-38
0.042574964 -0.12569134 -0.037695583 1.58709e-38
0.044463485 -0.12569134 -0.037695583 2.0109376e-38
0.046575174 -0.12645011 -0.040690478 1.9093057e-38
0.048468947 -0.12645011 -0.040690478 1.6231386e-38
0.050362714 -0.12645011 -0.040690478 1.5583124e-38
0.052256487 -0.12645011 -0.040690478 1.2076087e-38
0.054471619 -0.12744872 -0.044632014 1.2534555e-38
0.056869216 -0.12896039 -0.050598558 1.4007164e-38
-0.0060522128 -0.11430521 0.014339391 8.4765161e-39
-0.004254926 -0.11430521 0.014339391 1.0228233e-38
-0.0023647938 -0.11507715 0.011313502 9.8576555e-39
-0.00056220405 -0.11507715 0.011313502 1.0960054e-38
0.0011369344 -0.11430521 0.014339391 1.2250429e-38
0.002934223 -0.11430521 0.014339391 1.3451469e-38
0.0048455726 -0.11507715 0.011313502 1.5484441e-38
0.0066481661 -0.11507715 0.011313502 1.7980559e-38
0.0084507596 -0.11507715 0.011313502 1.9369958e-38
0.010253349 -0.11507715 0.011313502 1.8175717e-38
0.012055943 -0.11507715 0.011313502 1.7346319e-38
0.013995072 -0.11582683 0.0083748735 1.8541999e-38
0.015950428 -0.11660783 0.0053134598 2.1305743e-38
0.017960036 -0.11761098 0.0013812222 2.2132311e-38
0.020247588 -0.11991702 -0.0076581798 2.130471e-38
0.022240618 -0.12066682 -0.010597285 1.8726794e-38
0.024081627 -0.12066682 -0.010597285 1.34727e-38
0.026153678 -0.12170117 -0.014651831 1.4485046e-38
0.028001798 -0.12170117 -0.014651831 1.6052004e-38
0.029849915 -0.12170117 -0.014651831 1.7713672e-38
0.031883426 -0.12246101 -0.017630275 1.7715107e-38
0.033928454 -0.12322514 -0.020625647 1.5872282e-38
0.035985112 -0.12399365 -0.023638066 1.4951066e-38
0.03832034 -0.12577499 -0.03062075 1.5964881e-38
0.040409043 -0.12655805 -0.03369027 1.7162004e-38
0.042574964 -0.12757985 -0.037695583 1.7713028e-38
0.044463485 -0.12757985 -0.037695583 2.0661482e-38
0.046575174 -0.1283439 -0.040690478 1.8630283e-38
0.048468947 -0.1283439 -0.040690478 1.4939205e-38
0.050670244 -0.12934943 -0.044632014 1.4751563e-38
0.052570932 -0.12934943 -0.044632014 1.2535984e-38
0.054471619 -0.12934943 -0.044632014 1.400824e-38
0.056869216 -0.13087155 -0.050598558 1.5481209e-38
0.0011369344 -0.1161025 0.014339391 1.2342259e-38
0.002934223 -0.1161025 0.014339391 1.2251494e-38
0.0048455726 -0.11687975 0.011313502 1.2440917e-38
0.0066481661 -0.11687975 0.011313502 1.521326e-38
0.0084507596 -0.11687975 0.011313502 1.8445858e-38
0.010253349 -0.11687975 0.011313502 1.6974677e-38
0.012055943 -0.11687975 0.011313502 1.7251991e-38
0.013995072 -0.11763458 0.0083748735 1.9461114e-38
0.015802817 -0.11763458 0.0083748735 2.2775161e-38
0.017960036 -0.11943097 0.0013812222 2.2958867e-38
0.020247588 -0.12175287 -0.0076581798 2.2867037e-38
0.022240618 -0.12250783 -0.010597285 2.0843377e-38
0.024081627 -0.12250783 -0.010597285 1.6051336e-38
0.026153678 -0.1235493 -0.014651831 1.4114842e-38
0.028001798 -0.1235493 -0.014651831 1.5590674e-38
0.029849915 -0.1235493 -0.014651831 1.7435658e-38
0.031883426 -0.12431435 -0.017630275 1.7806598e-38
0.034121245 -0.12585752 -0.023638066 1.6517303e-38
0.036250964 -0.1268961 -0.027681407 1.5135102e-38
0.03832034 -0.12765111 -0.03062075 1.5503184e-38
0.040409043 -0.12843956 -0.03369027 1.651627e-38
0.042574964 -0.1294684 -0.037695583 1.7804859e-38
0.044463485 -0.1294684 -0.037695583 2.0200141e-38
0.046575174 -0.13023765 -0.040690478 1.8261144e-38
0.048468947 -0.13023765 -0.040690478 1.4109449e-38
0.050670244 -0.1312501 -0.044632014 1.3737059e-38
0.052570932 -0.1312501 -0.044632014 1.2167207e-38
0.054471619 -0.1312501 -0.044632014 1.3178482e-38
0.056869216 -0.13278268 -0.050598558 1.3913883e-38
-0.054398052 -0.1155795 0.023311321 1.0412664e-38
-0.052616499 -0.1155795 0.023311321 1.0319746e-38
0.0011369344 -0.11789979 0.014339391 1.2710314e-38
0.002934223 -0.11789979 0.014339391 1.1881996e-38
0.0048455726 -0.11868234 0.011313502 1.068705e-38
0.0066481661 -0.11868234 0.011313502 1.309169e-38
0.0084507596 -0.11868234 0.011313502 1.752283e-38
0.010253349 -0.11868234 0.011313502 1.7341668e-38
0.012055943 -0.11868234 0.011313502 1.9462542e-38
0.013995072 -0.11944233 0.0083748735 2.176351e-38
0.015802817 -0.11944233 0.0083748735 2.3142527e-38
0.017610563 -0.11944233 0.0083748735 2.3141109e-38
0.020247588 -0.12358873 -0.0076581798 2.3050349e-38
0.022083445 -0.12358873 -0.0076581798 2.2775199e-38
0.024081627 -0.12434883 -0.010597285 1.9921059e-38
0.026153678 -0.1253974 -0.014651831 1.7524653e-38
0.028001798 -0.1253974 -0.014651831 1.6788864e-38
0.029849915 -0.1253974 -0.014651831 1.6512996e-38
0.031883426 -0.12616767 -0.017630275 1.7528587e-38
0.034121245 -0.12772138 -0.023638066 1.8821126e-38
0.036250964 -0.12876706 -0.027681407 1.8637823e-38
0.038527548 -0.13032107 -0.03369027 1.7715515e-38
0.040686443 -0.13135691 -0.037695583 1.7438576e-38
0.042574964 -0.13135691 -0.037695583 1.7897406e-38
0.044463485 -0.13135691 -0.037695583 2.0384886e-38
0.046575174 -0.13213144 -0.040690478 1.9551883e-38
0.048468947 -0.13213144 -0.040690478 1.5123247e-38
0.050670244 -0.13315077 -0.044632014 1.4105847e-38
0.052570932 -0.13315077 -0.044632014 1.2535636e-38
0.054471619 -0.13315077 -0.044632014 1.2994451e-38
0.056624942 -0.13393532 -0.047665652 1.3453624e-38
-0.056045994 -0.11577369 0.029407922 1.2994875e-38
-0.054275125 -0.11577369 0.029407922 1.3087074e-38
-0.052504256 -0.11577369 0.029407922 1.3179623e-38
0.0011369344 -0.11969708 0.014339391 1.3170923e-38
0.002934223 -0.11969708 0.014339391 1.2157867e-38
0.004731508 -0.11969708 0.014339391 1.0040971e-38
0.0065287929 -0.11969708 0.014339391 1.189171e-38
0.0084507596 -0.12048493 0.011313502 1.6875665e-38
0.010253349 -0.12048493 0.011313502 1.6510473e-38
0.012055943 -0.12048493 0.011313502 2.0935522e-38
0.013995072 -0.12125005 0.0083748735 2.3234344e-38
0.015802817 -0.12125005 0.0083748735 2.3418045e-38
0.017610563 -0.12125005 0.0083748735 2.304748e-38
0.019934991 -0.12385099 -0.0016145073 2.3325138e-38
0.021921383 -0.12463553 -0.0046276413 2.2958873e-38
0.024081627 -0.12618984 -0.010597285 2.1301847e-38
0.026153678 -0.12724553 -0.014651831 1.8446257e-38
0.028001798 -0.12724553 -0.014651831 1.7341686e-38
0.030030077 -0.12802102 -0.017630275 1.5774725e-38
0.031883426 -0.12802102 -0.017630275 1.5868719e-38
0.034121245 -0.12958528 -0.023638066 1.7621875e-38
0.036250964 -0.13063805 -0.027681407 1.7991376e-38
0.03832034 -0.13140334 -0.03062075 1.7161618e-38
0.040409043 -0.13220255 -0.03369027 1.6976871e-38
0.042574964 -0.13324542 -0.037695583 1.835801e-38
0.044463485 -0.13324542 -0.037695583 2.0384158e-38
0.046575174 -0.1340252 -0.040690478 2.0196892e-38
0.048468947 -0.1340252 -0.040690478 1.539948e-38
0.050670244 -0.13505147 -0.044632014 1.3644517e-38
0.052570932 -0.13505147 -0.044632014 1.2167578e-38
0.054471619 -0.13505147 -0.044632014 1.2718943e-38
0.056624942 -0.13584132 -0.047665652 1.3823124e-38
-0.057816856 -0.11754455 0.029407922 2.3509149e-38
-0.055981986 -0.11677901 0.032328431 2.3508432e-38
-0.054216236 -0.11677901 0.032328431 2.3508797e-38
-0.052450493 -0.11677901 0.032328431 2.3508431e-38
-0.050634719 -0.11599173 0.035331909 2.2492826e-38
-0.048874237 -0.11599173 0.035331909 2.1018412e-38
0.0011369344 -0.12149437 0.014339391 1.3079082e-38
0.002934223 -0.12149437 0.014339391 1.2341903e-38
0.004731508 -0.12149437 0.014339391 9.6718335e-39
0.0065287929 -0.12149437 0.014339391 1.0969754e-38
0.0084507596 -0.12228753 0.011313502 1.6137734e-38
0.010253349 -0.12228753 0.011313502 1.6233883e-38
0.012055943 -0.12228753 0.011313502 2.093588e-38
0.013995072 -0.1230578 0.0083748735 2.3418018e-38
0.015802817 -0.1230578 0.0083748735 2.350988e-38
0.017763542 -0.12386028 0.0053134598 2.3415898e-38
0.019934991 -0.12567626 -0.0016145073 2.3509527e-38
0.02176025 -0.12567626 -0.0016145073 2.3234379e-38
0.023919301 -0.12726043 -0.0076581798 2.1301844e-38
0.025922636 -0.12803085 -0.010597285 1.8814321e-38
0.028001798 -0.12909363 -0.014651831 2.0568538e-38
0.030030077 -0.12987436 -0.017630275 2.0476352e-38
0.032069862 -0.13065951 -0.020625647 1.9187054e-38
0.034121245 -0.13144915 -0.023638066 1.8911184e-38
0.036250964 -0.13250901 -0.027681407 1.7806269e-38
0.03832034 -0.13327946 -0.03062075 1.6792469e-38
0.040409043 -0.13408406 -0.03369027 1.7253444e-38
0.042574964 -0.13513394 -0.037695583 1.8450195e-38
0.044463485 -0.13513394 -0.037695583 1.955403e-38
0.046575174 -0.13591899 -0.040690478 2.0288006e-38
0.048468947 -0.13591899 -0.040690478 1.6044133e-38
0.050670244 -0.13695215 -0.044632014 1.4105142e-38
0.052570932 -0.13695215 -0.044632014 1.2167581e-38
0.054471619 -0.13695215 -0.044632014 1.1889538e-38
0.056624942 -0.13774733 -0.047665652 1.2624578e-38
-0.059361212 -0.11696436 0.038317624 2.3509869e-38
-0.057605967 -0.11696436 0.038317624 2.3509163e-38
-0.055916153 -0.11775221 0.035331909 2.3508809e-38
-0.054155678 -0.11775221 0.035331909 2.3509168e-38
-0.052395195 -0.11775221 0.035331909 2.3509521e-38
-0.050584987 -0.11696436 0.038317624 2.3509869e-38
-0.048829742 -0.11696436 0.038317624 2.3140718e-38
-0.047074497 -0.11696436 0.038317624 1.8622776e-38
-0.045353279 -0.11775221 0.035331909 1.86235e-38
-0.04362176 -0.11854477 0.032328431 2.3509527e-38
-0.041856013 -0.11854477 0.032328431 2.3509527e-38
-0.040126838 -0.12011738 0.026368801 2.3416615e-38
-0.036582492 -0.12092416 0.023311321 1.2169812e-38
-0.034800936 -0.12092416 0.023311321 1.1800291e-38
-0.00066035055 -0.12329166 0.014339391 1.1698658e-38
0.0011369344 -0.12329166 0.014339391 1.2526625e-38
0.002934223 -0.12329166 0.014339391 1.1881646e-38
0.004731508 -0.12329166 0.014339391 9.3034139e-39
0.0065287929 -0.12329166 0.014339391 1.0600967e-38
0.0084507596 -0.12409012 0.011313502 1.5862218e-38
0.010253349 -0.12409012 0.011313502 1.7156544e-38
0.01218733 -0.12486555 0.0083748735 2.1120617e-38
0.014137318 -0.1256734 0.0053134598 2.3418008e-38
0.015950428 -0.1256734 0.0053134598 2.3509869e-38
0.017763542 -0.1256734 0.0053134598 2.3509149e-38
0.019934991 -0.1275015 -0.0016145073 2.2957414e-38
0.02176025 -0.1275015 -0.0016145073 2.2958849e-38
0.023751924 -0.1282966 -0.0046276413 2.176388e-38
0.025922636 -0.12987186 -0.010597285 1.8722478e-38
0.028001798 -0.13094176 -0.014651831 2.1856768e-38
0.030030077 -0.13172771 -0.017630275 2.1948616e-38
0.032257371 -0.13331302 -0.023638066 1.9462927e-38
0.034380004 -0.13437997 -0.027681407 1.8172902e-38
0.036444224 -0.13515557 -0.03062075 1.6975426e-38
0.03832034 -0.13515557 -0.03062075 1.5961981e-38
0.040409043 -0.13596557 -0.03369027 1.6792094e-38
0.042574964 -0.13702248 -0.037695583 1.7712616e-38
0.044463485 -0.13702248 -0.037695583 1.7340963e-38
0.046575174 -0.13781275 -0.040690478 1.807495e-38
0.048468947 -0.13781275 -0.040690478 1.5214372e-38
0.050670244 -0.13885282 -0.044632014 1.4658316e-38
0.052570932 -0.13885282 -0.044632014 1.3365768e-38
0.054471619 -0.13885282 -0.044632014 1.2350514e-38
0.056372292 -0.13885282 -0.044632014 1.2441263e-38
-0.062522866 -0.11551671 0.050375406 2.3508793e-38
-0.060788766 -0.11551671 0.050375406 2.3509514e-38
-0.05913122 -0.11631663 0.047363881 2.3509521e-38
-0.057533376 -0.11790501 0.041384224 2.3508809e-38
-0.055850722 -0.11871959 0.038317624 2.3508092e-38
-0.054095477 -0.11871959 0.038317624 2.3508092e-38
-0.052340232 -0.11871959 0.038317624 2.3509168e-38
-0.050584987 -0.11871959 0.038317624 2.3509879e-38
-0.048829742 -0.11871959 0.038317624 2.350987e-38
-0.047074497 -0.11871959 0.038317624 2.323436e-38
-0.045319252 -0.11871959 0.038317624 2.3418038e-38
-0.043592796 -0.11951269 0.035331909 2.3234015e-38
-0.041856013 -0.1203105 0.032328431 2.2956715e-38
-0.040108189 -0.12108628 0.029407922 2.3048907e-38
-0.038337324 -0.12108628 0.029407922 2.3509879e-38
-0.036582492 -0.12270571 0.023311321 2.0284095e-38
-0.034800936 -0.12270571 0.023311321 1.2538206e-38
-0.033019379 -0.12270571 0.023311321 1.2626426e-38
-0.00066035055 -0.12508895 0.014339391 1.1330591e-38
0.0011369344 -0.12508895 0.014339391 1.1698659e-38
0.002934223 -0.12508895 0.014339391 1.1328834e-38
0.004731508 -0.12508895 0.014339391 8.9353502e-39
0.0065287929 -0.12508895 0.014339391 1.0417652e-38
0.0084507596 -0.12589271 0.011313502 1.6047325e-38
0.010253349 -0.12589271 0.011313502 1.5958716e-38
0.01218733 -0.1266733 0.0083748735 1.9830231e-38
0.014137318 -0.12748651 0.0053134598 2.2315248e-38
0.015950428 -0.12748651 0.0053134598 2.3326187e-38
0.017960036 -0.12853102 0.0013812222 2.2219838e-38
0.019780042 -0.12853102 0.0013812222 2.0192251e-38
0.02176025 -0.12932678 -0.0016145073 2.0010371e-38
0.023751924 -0.13012715 -0.0046276413 2.0104711e-38
0.025755158 -0.13093217 -0.0076581798 1.9737345e-38
0.028001798 -0.13278987 -0.014651831 2.1489418e-38
0.030211268 -0.13437669 -0.020625647 1.9185617e-38
0.032257371 -0.13517688 -0.023638066 1.5314124e-38
0.034380004 -0.13625093 -0.027681407 1.5130803e-38
0.036250964 -0.13625093 -0.027681407 1.5685045e-38
0.03832034 -0.13703169 -0.03062075 1.577758e-38
0.040196463 -0.13703169 -0.03062075 1.6791364e-38
0.042574964 -0.13891099 -0.037695583 1.5314439e-38
0.044463485 -0.13891099 -0.037695583 1.282301e-38
0.046575174 -0.13970654 -0.040690478 1.3003467e-38
0.048468947 -0.13970654 -0.040690478 1.097265e-38
0.050362714 -0.13970654 -0.040690478 1.2168315e-38
0.052256487 -0.13970654 -0.040690478 1.2904067e-38
0.054150261 -0.13970654 -0.040690478 1.2627099e-38
0.056372292 -0.14075352 -0.044632014 1.3271024e-38
-0.067452557 -0.11511876 0.058349136 2.3509521e-38
-0.065732434 -0.11511876 0.058349136 2.3508798e-38
-0.064103231 -0.11591102 0.05538607 2.2955622e-38
-0.062522866 -0.11725079 0.050375406 2.3509876e-38
-0.060788766 -0.11725079 0.050375406 2.3509521e-38
-0.05913122 -0.11805601 0.047363881 2.3508809e-38
-0.057391837 -0.11805601 0.047363881 2.3508809e-38
-0.055718862 -0.11886616 0.044333998 2.3508809e-38
-0.054033644 -0.11965488 0.041384224 2.3508809e-38
-0.052340232 -0.12047486 0.038317624 2.3325497e-38
-0.050533906 -0.11965488 0.041384224 2.3142542e-38
-0.04878404 -0.11965488 0.041384224 2.3234369e-38
-0.047034167 -0.11965488 0.041384224 2.3234364e-38
-0.045319252 -0.12047486 0.038317624 2.3234364e-38
-0.043592796 -0.12127317 0.035331909 2.0469221e-38
-0.041856013 -0.12207626 0.032328431 2.2220217e-38
-0.04009027 -0.12207626 0.032328431 2.2588634e-38
-0.03832452 -0.12207626 0.032328431 2.3509863e-38
-0.036566459 -0.12285714 0.029407922 2.3509846e-38
-0.034798257 -0.12366976 0.026368801 1.2722219e-38
-0.033019379 -0.1244873 0.023311321 1.2811167e-38
0.0012403894 -0.12769531 0.011313502 1.206816e-38
0.002934223 -0.12688623 0.014339391 1.1145522e-38
0.004731508 -0.12688623 0.014339391 9.6743572e-39
0.0066481661 -0.12769531 0.011313502 9.589332e-39
0.0084507596 -0.12769531 0.011313502 1.5403038e-38
0.010253349 -0.12769531 0.011313502 1.5222592e-38
0.01218733 -0.12848105 0.0083748735 2.0384847e-38
0.014137318 -0.1292996 0.0053134598 2.1579122e-38
0.015950428 -0.1292996 0.0053134598 2.1945409e-38
0.017763542 -0.1292996 0.0053134598 2.1483352e-38
0.019780042 -0.13035102 0.0013812222 1.9825264e-38
0.02176025 -0.13115202 -0.0016145073 2.0564981e-38
0.023585508 -0.13115202 -0.0016145073 2.0383093e-38
0.025755158 -0.13276802 -0.0076581798 2.0107923e-38
0.027763644 -0.13355388 -0.010597285 2.1122073e-38
0.030211268 -0.13623528 -0.020625647 1.8356931e-38
0.032257371 -0.13704078 -0.023638066 1.356312e-38
0.034380004 -0.13812189 -0.027681407 1.4762015e-38
0.036250964 -0.13812189 -0.027681407 1.4209549e-38
0.03832034 -0.13890781 -0.03062075 1.3748911e-38
0.040196463 -0.13890781 -0.03062075 1.3932574e-38
0.042574964 -0.14079951 -0.037695583 1.5129322e-38
0.044463485 -0.14079951 -0.037695583 1.2453142e-38
0.046575174 -0.1416003 -0.040690478 1.1712362e-38
0.048468947 -0.1416003 -0.040690478 1.0787895e-38
0.050362714 -0.1416003 -0.040690478 1.1706611e-38
0.052256487 -0.1416003 -0.040690478 1.1613325e-38
0.054150261 -0.1416003 -0.040690478 1.0875738e-38
0.056044035 -0.1416003 -0.040690478 1.3086632e-38
-0.069279179 -0.11763634 0.05538607 2.3418047e-38
-0.067452557 -0.11683889 0.058349136 2.3418047e-38
-0.065732434 -0.11683889 0.058349136 2.3234374e-38
-0.064103231 -0.11763634 0.05538607 2.3234369e-38
-0.062522866 -0.11898489 0.050375406 2.3049975e-38
-0.060788766 -0.11898489 0.050375406 2.350952e-38
-0.05913122 -0.1197954 0.047363881 2.3508809e-38
-0.057391837 -0.1197954 0.047363881 2.3508451e-38
-0.055718862 -0.12061088 0.044333998 2.3508809e-38
-0.053974167 -0.12061088 0.044333998 2.3416974e-38
-0.052283771 -0.12140475 0.041384224 2.323402e-38
-0.050533906 -0.12140475 0.041384224 2.3050708e-38
-0.04878404 -0.12140475 0.041384224 2.30507e-38
-0.047034167 -0.12140475 0.041384224 2.3050691e-38
-0.045284301 -0.12140475 0.041384224 2.3142528e-38
-0.043564007 -0.1222301 0.038317624 2.2497878e-38
-0.041832317 -0.12303366 0.035331909 2.0745438e-38
-0.040071838 -0.12303366 0.035331909 2.3049598e-38
-0.038311355 -0.12303366 0.035331909 2.3509846e-38
-0.036558777 -0.12384202 0.032328431 2.1390041e-38
-0.034798257 -0.12544595 0.026368801 1.4012578e-38
-0.033019379 -0.12626885 0.023311321 1.4931652e-38
0.0012403894 -0.1294979 0.011313502 1.151571e-38
0.0030429829 -0.1294979 0.011313502 1.0869298e-38
0.0048455726 -0.1294979 0.011313502 9.7665542e-39
0.0066481661 -0.1294979 0.011313502 9.4975049e-39
0.0084507596 -0.1294979 0.011313502 1.5219734e-38
0.010253349 -0.1294979 0.011313502 1.5222962e-38
0.01218733 -0.13028879 0.0083748735 2.0570329e-38
0.014137318 -0.13111271 0.0053134598 2.1302902e-38
0.015950428 -0.13111271 0.0053134598 2.0378094e-38
0.017763542 -0.13111271 0.0053134598 2.0653962e-38
0.019780042 -0.13217102 0.0013812222 2.166919e-38
0.021600047 -0.13217102 0.0013812222 2.2775176e-38
0.023585508 -0.13297729 -0.0016145073 2.1673121e-38
0.025582468 -0.13378824 -0.0046276413 2.0477784e-38
0.027591014 -0.13460387 -0.0076581798 1.9372504e-38
0.030211268 -0.13809387 -0.020625647 1.6329341e-38
0.032257371 -0.13890465 -0.023638066 1.254932e-38
0.034380004 -0.13999285 -0.027681407 1.3195044e-38
0.036250964 -0.13999285 -0.027681407 1.2365272e-38
0.03832034 -0.14078392 -0.03062075 1.3010265e-38
0.040409043 -0.14161004 -0.03369027 1.4299559e-38
0.042574964 -0.14268802 -0.037695583 1.2362018e-38
0.044463485 -0.14268802 -0.037695583 8.9486331e-39
0.046575174 -0.14349405 -0.040690478 8.1160124e-39
0.048468947 -0.14349405 -0.040690478 8.3897266e-39
0.050362714 -0.14349405 -0.040690478 1.0507705e-38
0.052256487 -0.14349405 -0.040690478 1.2811506e-38
0.054150261 -0.14349405 -0.040690478 1.3179553e-38
0.056044035 -0.14349405 -0.040690478 1.410079e-38
-0.074577965 -0.12016918 0.052405063 8.6681815e-39
-0.072847418 -0.12016918 0.052405063 2.3234376e-38
-0.071116872 -0.12016918 0.052405063 2.3142541e-38
-0.069279179 -0.11936165 0.05538607 2.3142541e-38
-0.067553863 -0.11936165 0.05538607 2.2407127e-38
-0.065828547 -0.11936165 0.05538607 2.1854669e-38
-0.064194694 -0.12016918 0.052405063 2.2775186e-38
-0.062522866 -0.120719 0.050375406 2.2958857e-38
-0.060788766 -0.120719 0.050375406 2.3509872e-38
-0.05913122 -0.12153481 0.047363881 2.3509164e-38
-0.057391837 -0.12153481 0.047363881 2.3508809e-38
-0.055718862 -0.12235557 0.044333998 2.3416615e-38
-0.053974167 -0.12235557 0.044333998 2.3417333e-38
-0.052229472 -0.12235557 0.044333998 2.323402e-38
-0.050533906 -0.12315463 0.041384224 2.3050708e-38
-0.048740074 -0.12235557 0.044333998 2.2683356e-38
-0.046995379 -0.12235557 0.044333998 2.286702e-38
-0.045250684 -0.12235557 0.044333998 2.3234362e-38
-0.043564007 -0.12398534 0.038317624 2.3418033e-38
-0.041808762 -0.12398534 0.038317624 1.6780295e-38
-0.040053517 -0.12398534 0.038317624 1.7424572e-38
-0.038298272 -0.12398534 0.038317624 1.6686987e-38
-0.036550879 -0.12479414 0.035331909 1.4658299e-38
-0.034790397 -0.12479414 0.035331909 1.4657209e-38
0.0030429829 -0.13130049 0.011313502 1.0592711e-38
0.0048455726 -0.13130049 0.011313502 9.7661983e-39
0.0066481661 -0.13130049 0.011313502 9.5893488e-39
0.0084507596 -0.13130049 0.011313502 1.5311227e-38
0.010253349 -0.13130049 0.011313502 1.4576534e-38
0.01218733 -0.13209651 0.0083748735 2.0293041e-38
0.014137318 -0.13292582 0.0053134598 2.1486952e-38
0.015950428 -0.13292582 0.0053134598 2.0931645e-38
0.017763542 -0.13292582 0.0053134598 2.1759978e-38
0.019780042 -0.13399105 0.0013812222 2.2775202e-38
0.021600047 -0.13399105 0.0013812222 2.2499692e-38
0.023585508 -0.13480256 -0.0016145073 1.9093457e-38
0.025582468 -0.13561879 -0.0046276413 1.8542402e-38
0.027591014 -0.13643973 -0.0076581798 1.6791743e-38
0.030211268 -0.13995247 -0.020625647 1.4947477e-38
0.032257371 -0.14076851 -0.023638066 1.2826977e-38
0.034121245 -0.14076851 -0.023638066 1.3932959e-38
0.036250964 -0.14186381 -0.027681407 1.3563812e-38
0.03832034 -0.14266007 -0.03062075 1.3470527e-38
0.040409043 -0.14349155 -0.03369027 1.2178349e-38
0.042574964 -0.14457656 -0.037695583 1.0609229e-38
0.044463485 -0.14457656 -0.037695583 8.1170802e-39
0.046352006 -0.14457656 -0.037695583 8.2989645e-39
0.048468947 -0.14538784 -0.040690478 9.3106039e-39
0.050362714 -0.14538784 -0.040690478 1.0322235e-38
0.052256487 -0.14538784 -0.040690478 1.3271768e-38
0.054150261 -0.14538784 -0.040690478 1.4100433e-38
-0.076395698 -0.12245311 0.050375406 8.5752614e-39
-0.074577965 -0.12189974 0.052405063 1.5120797e-38
-0.072847418 -0.12189974 0.052405063 2.2774113e-38
-0.071116872 -0.12189974 0.052405063 2.2774832e-38
-0.069386326 -0.12189974 0.052405063 2.2867027e-38
-0.067655787 -0.12189974 0.052405063 2.0472451e-38
-0.065925241 -0.12189974 0.052405063 1.7708013e-38
-0.064194694 -0.12189974 0.052405063 2.0013617e-38
-0.062522866 -0.12245311 0.050375406 2.2775175e-38
-0.060788766 -0.12245311 0.050375406 2.350986e-38
-0.05913122 -0.12327419 0.047363881 2.350987e-38
-0.057391837 -0.12327419 0.047363881 2.3509168e-38
-0.055652454 -0.12327419 0.047363881 2.332478e-38
-0.053913072 -0.12327419 0.047363881 2.3325138e-38
-0.052173689 -0.12327419 0.047363881 2.323402e-38
-0.050484769 -0.12410025 0.044333998 2.3142544e-38
-0.048740074 -0.12410025 0.044333998 2.2866671e-38
-0.046995379 -0.12410025 0.044333998 2.3050697e-38
-0.045250684 -0.12410025 0.044333998 2.3418035e-38
-0.043534432 -0.1249045 0.041384224 2.3509869e-38
-0.041808762 -0.12574057 0.038317624 1.4473964e-38
-0.040053517 -0.12574057 0.038317624 1.1246377e-38
