# .PCD v0.7 - Point Cloud Data file format
VERSION 0.7
FIELDS x y z rgb
SIZE 4 4 4 4
TYPE F F F F
COUNT 1 1 1 1
WIDTH 926
HEIGHT 1
VIEWPOINT 0 0 0 1 0 0 0
POINTS 926
DATA ascii
0.01769438 -0.087777436 -0.040366855 2.2224189e-38
0.019612562 -0.087777436 -0.040366855 2.1213639e-38
0.021530751 -0.087777436 -0.040366855 1.9001309e-38
0.023448933 -0.087777436 -0.040366855 1.1443065e-38
-0.043803241 -0.080164611 0.0036487915 2.2774746e-38
-0.041962232 -0.080164611 0.0036487915 2.3509809e-38
-0.040096343 -0.081042573 -0.00040575489 2.3509824e-38
-0.038248222 -0.081042573 -0.00040575489 2.3509483e-38
-0.036400106 -0.081042573 -0.00040575489 2.3508781e-38
-0.034551986 -0.081042573 -0.00040575489 2.35088e-38
-0.032703869 -0.081042573 -0.00040575489 2.3508451e-38
-0.030811362 -0.08168751 -0.003384199 2.3230433e-38
-0.02890813 -0.082336128 -0.0063795708 2.3046762e-38
-0.026919641 -0.083863959 -0.01343533 2.3508809e-38
-0.025048677 -0.083863959 -0.01343533 2.3509168e-38
-0.02326633 -0.082988426 -0.0093919896 2.3509527e-38
-0.021544661 -0.08168751 -0.003384199 2.341805e-38
-0.01969132 -0.08168751 -0.003384199 2.2220586e-38
-0.017918924 -0.081042573 -0.00040575489 2.2773391e-38
-0.016070807 -0.081042573 -0.00040575489 2.3049248e-38
-0.014222689 -0.081042573 -0.00040575489 2.3325109e-38
-0.012374572 -0.081042573 -0.00040575489 2.3509144e-38
-0.010526452 -0.081042573 -0.00040575489 2.3509507e-38
-0.0081043579 -0.084500432 -0.016374674 2.3509513e-38
-0.0062282421 -0.084500432 -0.016374674 2.3509516e-38
-0.0044680834 -0.083863959 -0.01343533 2.3509518e-38
-0.0025971197 -0.083863959 -0.01343533 2.3509164e-38
-0.00072615594 -0.083863959 -0.01343533 2.3509527e-38
0.0012762249 -0.084500432 -0.016374674 2.3509168e-38
0.0032949634 -0.085165098 -0.019444194 2.3509168e-38
0.0051764622 -0.085165098 -0.019444194 2.3509168e-38
0.0074077621 -0.086680889 -0.026444402 2.3509168e-38
0.0093015321 -0.086680889 -0.026444402 2.3509168e-38
0.011568315 -0.088191271 -0.033419576 2.3509168e-38
0.013474315 -0.088191271 -0.033419576 2.3509527e-38
0.015547447 -0.088826358 -0.036352482 2.2958873e-38
0.01769438 -0.089695618 -0.040366855 2.1025294e-38
0.019612562 -0.089695618 -0.040366855 2.2316024e-38
0.021530751 -0.089695618 -0.040366855 2.0843779e-38
0.023448933 -0.089695618 -0.040366855 2.1489505e-38
0.025367115 -0.089695618 -0.040366855 1.0058689e-38
0.028028641 -0.092080101 -0.051378813 4.8035376e-39
-0.043803241 -0.08200562 0.0036487915 2.3509821e-38
-0.041962232 -0.08200562 0.0036487915 2.3509821e-38
-0.040096343 -0.082890689 -0.00040575489 2.3509818e-38
-0.038248222 -0.082890689 -0.00040575489 2.3509818e-38
-0.036400106 -0.082890689 -0.00040575489 2.3509825e-38
-0.034551986 -0.082890689 -0.00040575489 2.3509837e-38
-0.032703869 -0.082890689 -0.00040575489 2.3509488e-38
-0.030811362 -0.083540857 -0.003384199 2.3509869e-38
-0.028958023 -0.083540857 -0.003384199 2.3509521e-38
-0.027049538 -0.08419472 -0.0063795708 2.3508809e-38
-0.025130205 -0.084852293 -0.0093919896 2.3509527e-38
-0.023332352 -0.08419472 -0.0063795708 2.2495734e-38
-0.021615161 -0.082890689 -0.00040575489 2.3418045e-38
-0.019767042 -0.082890689 -0.00040575489 2.286666e-38
-0.017918924 -0.082890689 -0.00040575489 2.3234367e-38
-0.016188106 -0.08200562 0.0036487915 2.3325129e-38
-0.014347095 -0.08200562 0.0036487915 2.3508807e-38
-0.012374572 -0.082890689 -0.00040575489 2.3509167e-38
-0.010526452 -0.082890689 -0.00040575489 2.3509527e-38
-0.0085712783 -0.083540857 -0.003384199 2.3509527e-38
-0.0064914674 -0.084852293 -0.0093919896 2.3509527e-38
-0.0046275929 -0.084852293 -0.0093919896 2.3509167e-38
-0.0027637184 -0.084852293 -0.0093919896 2.3508807e-38
-0.00089984387 -0.084852293 -0.0093919896 2.3509524e-38
0.0011448078 -0.085734919 -0.01343533 2.3509521e-38
0.0030157715 -0.085734919 -0.01343533 2.3509879e-38
0.0050284602 -0.086376548 -0.016374674 2.3509876e-38
0.0070579611 -0.087046593 -0.019444194 2.350987e-38
0.009146627 -0.087920904 -0.023449507 2.3509869e-38
0.011195306 -0.088574663 -0.026444402 2.3509869e-38
0.01330677 -0.089435071 -0.030385938 2.3509873e-38
0.015380319 -0.090097278 -0.033419576 2.3325494e-38
0.017458592 -0.090737507 -0.036352482 2.3234379e-38
0.019612562 -0.091613799 -0.040366855 2.2406066e-38
0.021530751 -0.091613799 -0.040366855 2.2591531e-38
0.023448933 -0.091613799 -0.040366855 2.1488067e-38
0.025829766 -0.093149811 -0.047403421 1.7709125e-38
0.028028641 -0.094017595 -0.051378813 7.9363884e-39
0.029966135 -0.094017595 -0.051378813 4.5247899e-39
-0.038248222 -0.084738806 -0.00040575489 2.2219409e-38
-0.036400106 -0.084738806 -0.00040575489 2.2035018e-38
-0.034551986 -0.084738806 -0.00040575489 2.2864066e-38
-0.032664701 -0.085394189 -0.003384199 2.3509818e-38
-0.030811362 -0.085394189 -0.003384199 2.3508392e-38
-0.028958023 -0.085394189 -0.003384199 2.3509851e-38
-0.027104681 -0.085394189 -0.003384199 2.3140718e-38
-0.025251342 -0.085394189 -0.003384199 2.3509866e-38
-0.023398001 -0.085394189 -0.003384199 2.2774093e-38
-0.021615161 -0.084738806 -0.00040575489 2.3234353e-38
-0.019767042 -0.084738806 -0.00040575489 2.2683321e-38
-0.017918924 -0.084738806 -0.00040575489 2.259113e-38
-0.016188106 -0.083846629 0.0036487915 2.3418039e-38
-0.014347095 -0.083846629 0.0036487915 2.3509167e-38
-0.012506086 -0.083846629 0.0036487915 2.3509527e-38
-0.010665078 -0.083846629 0.0036487915 2.3509527e-38
-0.0086783357 -0.084738806 -0.00040575489 2.3509527e-38
-0.0066050254 -0.086053312 -0.0063795708 2.3509527e-38
-0.0047464333 -0.086053312 -0.0063795708 2.3509167e-38
-0.0028878376 -0.086053312 -0.0063795708 2.3417327e-38
-0.00089984387 -0.086716175 -0.0093919896 2.3509523e-38
0.00096403062 -0.086716175 -0.0093919896 2.350952e-38
0.0030157715 -0.087605879 -0.01343533 2.3509874e-38
0.0048867352 -0.087605879 -0.01343533 2.3509872e-38
0.006904576 -0.088252664 -0.016374674 2.3509869e-38
0.0089394599 -0.088928089 -0.019444194 2.3509867e-38
0.011035148 -0.089809433 -0.023449507 2.3509865e-38
0.013089079 -0.090468436 -0.026444402 2.3509869e-38
0.015207451 -0.091335744 -0.030385938 2.341445e-38
0.017108139 -0.091335744 -0.030385938 2.3509168e-38
0.019192327 -0.092003286 -0.033419576 2.2679772e-38
0.021280881 -0.09264864 -0.036352482 2.286632e-38
0.023192022 -0.09264864 -0.036352482 2.2775202e-38
0.02557027 -0.094211861 -0.04345664 2.2499695e-38
0.027760286 -0.095080331 -0.047403421 1.5679019e-38
0.029966135 -0.095955089 -0.051378813 6.3672606e-39
0.031903621 -0.095955089 -0.051378813 5.9048419e-39
-0.038248222 -0.086586922 -0.00040575489 1.5581312e-38
-0.036400106 -0.086586922 -0.00040575489 1.5396918e-38
-0.034518041 -0.087247536 -0.003384199 1.6870972e-38
-0.032664701 -0.087247536 -0.003384199 1.8531218e-38
-0.030811362 -0.087247536 -0.003384199 1.9637579e-38
-0.028958023 -0.087247536 -0.003384199 2.1297469e-38
-0.027104681 -0.087247536 -0.003384199 2.2773327e-38
-0.025251342 -0.087247536 -0.003384199 2.3326149e-38
-0.023398001 -0.087247536 -0.003384199 2.3417988e-38
-0.021615161 -0.086586922 -0.00040575489 2.0564229e-38
-0.019767042 -0.086586922 -0.00040575489 2.2499615e-38
-0.018029114 -0.085687637 0.0036487915 2.2499624e-38
-0.016273133 -0.085035756 0.0065878965 2.3234341e-38
-0.014437277 -0.085035756 0.0065878965 2.3326189e-38
-0.01260142 -0.085035756 0.0065878965 2.3418029e-38
-0.010765567 -0.085035756 0.0065878965 2.3509869e-38
-0.0086783357 -0.086586922 -0.00040575489 2.350987e-38
-0.0067179389 -0.087247536 -0.003384199 2.3509873e-38
-0.0047464333 -0.087911904 -0.0063795708 2.3509879e-38
-0.0028878376 -0.087911904 -0.0063795708 2.350988e-38
-0.0010292456 -0.087911904 -0.0063795708 2.3418043e-38
0.00096403062 -0.088580042 -0.0093919896 2.3417687e-38
0.0028279051 -0.088580042 -0.0093919896 2.3417687e-38
0.0046917796 -0.088580042 -0.0093919896 2.3417687e-38
0.006757699 -0.089476839 -0.01343533 2.3417687e-38
0.0087806918 -0.090128779 -0.016374674 2.3417687e-38
0.010820959 -0.090809584 -0.019444194 2.3417687e-38
0.012923669 -0.091697961 -0.023449507 2.3509164e-38
0.014982849 -0.09236221 -0.026444402 2.3507369e-38
0.017108139 -0.093236431 -0.030385938 2.3508089e-38
0.019192327 -0.093909279 -0.033419576 2.3508809e-38
0.021098327 -0.093909279 -0.033419576 2.3509527e-38
0.023192022 -0.094559789 -0.036352482 2.3050708e-38
0.025367115 -0.095450163 -0.040366855 2.2867037e-38
0.027760286 -0.097010851 -0.047403421 2.0010773e-38
0.029966135 -0.097892582 -0.051378813 9.6848599e-39
0.031903621 -0.097892582 -0.051378813 6.2725426e-39
0.033841114 -0.097892582 -0.051378813 5.9948739e-39
-0.038280211 -0.087528646 0.0036487915 1.2629607e-38
-0.036439203 -0.087528646 0.0036487915 1.3275329e-38
-0.034598194 -0.087528646 0.0036487915 1.3275684e-38
-0.032703869 -0.088435039 -0.00040575489 1.2629959e-38
-0.030916177 -0.087528646 0.0036487915 1.3275694e-38
-0.029075168 -0.087528646 0.0036487915 1.2908003e-38
-0.027159516 -0.088435039 -0.00040575489 1.2907667e-38
-0.025311397 -0.088435039 -0.00040575489 1.0143244e-38
-0.02355214 -0.087528646 0.0036487915 1.0882602e-38
-0.021711132 -0.087528646 0.0036487915 7.5649966e-39
-0.019870123 -0.087528646 0.0036487915 1.7154058e-38
-0.018029114 -0.087528646 0.0036487915 2.1302866e-38
-0.016360806 -0.086194143 0.0096184351 2.2683302e-38
-0.014622718 -0.085520551 0.012631569 2.2775154e-38
-0.012797456 -0.085520551 0.012631569 2.2867006e-38
-0.010869179 -0.086194143 0.0096184351 2.305068e-38
-0.0089297108 -0.086871609 0.0065878965 2.3142516e-38
-0.0070938542 -0.086871609 0.0065878965 2.3418023e-38
-0.0048645996 -0.089100882 -0.003384199 2.3418031e-38
-0.0030112602 -0.089100882 -0.003384199 2.350987e-38
-0.0010292456 -0.089770496 -0.0063795708 2.3418039e-38
0.00082934648 -0.089770496 -0.0063795708 2.3418043e-38
0.0028279051 -0.090443924 -0.0093919896 2.3417687e-38
0.0046917796 -0.090443924 -0.0093919896 2.3418043e-38
0.006757699 -0.091347814 -0.01343533 2.3418036e-38
0.008628659 -0.091347814 -0.01343533 2.3418039e-38
0.010656811 -0.092004895 -0.016374674 2.3417333e-38
0.012702458 -0.092691094 -0.019444194 2.3508809e-38
0.01481219 -0.093586475 -0.023449507 2.3508092e-38
0.016876619 -0.094255984 -0.026444402 2.3506651e-38
0.019008819 -0.095137119 -0.030385938 2.3507009e-38
0.021098327 -0.095815286 -0.033419576 2.3509883e-38
0.023192022 -0.096470937 -0.036352482 2.2957425e-38
0.02510317 -0.096470937 -0.036352482 2.3142538e-38
0.027285296 -0.097368345 -0.040366855 2.2498973e-38
0.029690806 -0.098941371 -0.047403421 1.0697933e-38
0.031903621 -0.099830076 -0.051378813 7.0090231e-39
0.033841114 -0.099830076 -0.051378813 6.8242717e-39
-0.038280211 -0.089369655 0.0036487915 1.2074997e-38
-0.036439203 -0.089369655 0.0036487915 1.1245583e-38
-0.034598194 -0.089369655 0.0036487915 1.2260442e-38
-0.032757185 -0.089369655 0.0036487915 1.2076048e-38
-0.030916177 -0.089369655 0.0036487915 1.3090563e-38
-0.029075168 -0.089369655 0.0036487915 1.3919996e-38
-0.027159516 -0.090283155 -0.00040575489 1.5302263e-38
-0.025311397 -0.090283155 -0.00040575489 1.4657274e-38
-0.023616556 -0.088707477 0.0065878965 1.3277562e-38
-0.021852434 -0.088024676 0.0096184351 1.3831807e-38
-0.020098494 -0.087345809 0.012631569 2.0286941e-38
-0.018273236 -0.087345809 0.012631569 2.1026297e-38
-0.016534643 -0.086670861 0.015627299 2.0659653e-38
-0.014714636 -0.086670861 0.015627299 1.9922818e-38
-0.01289463 -0.086670861 0.015627299 2.2407827e-38
-0.011074621 -0.086670861 0.015627299 2.1301844e-38
-0.00914694 -0.087345809 0.012631569 2.3142502e-38
-0.0073216818 -0.087345809 0.012631569 2.3234331e-38
-0.0052579977 -0.088707477 0.0065878965 2.2958468e-38
-0.0033010431 -0.089369655 0.0036487915 2.3509856e-38
-0.0011579171 -0.090954214 -0.003384199 2.3509144e-38
0.00082934648 -0.091629088 -0.0063795708 2.350987e-38
0.0026879385 -0.091629088 -0.0063795708 2.3509153e-38
0.0046917796 -0.092307791 -0.0093919896 2.3508781e-38
0.0065556504 -0.092307791 -0.0093919896 2.3509838e-38
0.008628659 -0.093218774 -0.01343533 2.3509848e-38
0.010499623 -0.093218774 -0.01343533 2.3416974e-38
0.012702458 -0.094572589 -0.019444194 2.3508809e-38
0.01481219 -0.095475003 -0.023449507 2.3508809e-38
0.016876619 -0.096149758 -0.026444402 2.3231508e-38
0.019008819 -0.097037792 -0.030385938 2.3509527e-38
0.020909499 -0.097037792 -0.030385938 2.350988e-38
0.023004327 -0.097721294 -0.033419576 2.3050327e-38
0.024910327 -0.097721294 -0.033419576 2.3234362e-38
0.027285296 -0.099286526 -0.040366855 2.277376e-38
0.029417466 -0.099982664 -0.04345664 1.3185417e-38
0.031341072 -0.099982664 -0.04345664 1.1157462e-38
0.033264671 -0.099982664 -0.04345664 6.8235472e-39
-0.034598194 -0.091210663 0.0036487915 1.9911256e-38
-0.032757185 -0.091210663 0.0036487915 2.2584929e-38
-0.030916177 -0.091210663 0.0036487915 2.3509765e-38
-0.029075168 -0.091210663 0.0036487915 2.3508717e-38
-0.027159516 -0.092131287 -0.00040575489 2.3509495e-38
-0.025311397 -0.092131287 -0.00040575489 2.3509153e-38
-0.023616556 -0.09054333 0.0065878965 2.3509859e-38
-0.021852434 -0.089855224 0.0096184351 2.2496773e-38
-0.020098494 -0.089171067 0.012631569 2.3418018e-38
-0.018273236 -0.089171067 0.012631569 2.2683311e-38
-0.016648402 -0.087598026 0.019559536 1.3008848e-38
-0.014835291 -0.087598026 0.019559536 1.4944964e-38
-0.013022177 -0.087598026 0.019559536 2.2591508e-38
-0.011209067 -0.087598026 0.019559536 2.2867022e-38
-0.0092546158 -0.088490874 0.015627299 2.1117065e-38
-0.0074346103 -0.088490874 0.015627299 2.3234322e-38
-0.00549642 -0.089171067 0.012631569 2.3142489e-38
-0.0035470091 -0.089855224 0.0096184351 2.2680437e-38
-0.0014600307 -0.091210663 0.0036487915 2.3509853e-38
0.00038097799 -0.091210663 0.0036487915 2.3509499e-38
0.0024103746 -0.092131287 -0.00040575489 2.3415507e-38
0.004402101 -0.092807561 -0.003384199 2.3048505e-38
0.0064051226 -0.09348768 -0.0063795708 2.3417976e-38
0.0084195249 -0.094171658 -0.0093919896 2.3509828e-38
0.010283399 -0.094171658 -0.0093919896 2.3509879e-38
0.012532927 -0.095757127 -0.016374674 2.3508809e-38
0.014583956 -0.096454084 -0.019444194 2.3509168e-38
0.016876619 -0.098043531 -0.026444402 2.3325497e-38
0.018770393 -0.098043531 -0.026444402 2.3417691e-38
0.020909499 -0.09893848 -0.030385938 2.341805e-38
0.023004327 -0.099627286 -0.033419576 2.3050327e-38
0.024910327 -0.099627286 -0.033419576 2.3418033e-38
0.027014311 -0.10029322 -0.036352482 2.341805e-38
0.029203478 -0.10120471 -0.040366855 1.6134598e-38
0.03112166 -0.10120471 -0.040366855 1.1433323e-38
-0.016648402 -0.089411139 0.019559536 7.4753177e-39
-0.014835291 -0.089411139 0.019559536 1.8170022e-38
-0.013022177 -0.089411139 0.019559536 2.1301847e-38
-0.011209067 -0.089411139 0.019559536 2.2958863e-38
-0.0093959533 -0.089411139 0.019559536 2.148478e-38
-0.0075828433 -0.089411139 0.019559536 2.1576956e-38
-0.0057697296 -0.089411139 0.019559536 2.3509825e-38
-0.0039566159 -0.089411139 0.019559536 2.3509828e-38
-0.0017164685 -0.091685757 0.0096184351 2.3509841e-38
0.00011407584 -0.091685757 0.0096184351 2.3140701e-38
0.0022219867 -0.093051672 0.0036487915 2.2956312e-38
0.0040629953 -0.093051672 0.0036487915 2.3049573e-38
0.0062554441 -0.094660893 -0.003384199 2.2866954e-38
0.0081087835 -0.094660893 -0.003384199 2.3326147e-38
0.010122307 -0.095346272 -0.0063795708 2.3418025e-38
0.012370586 -0.096960694 -0.01343533 2.3326208e-38
0.014409043 -0.097633243 -0.016374674 2.3325497e-38
0.016700711 -0.099252045 -0.023449507 2.3509527e-38
0.018770393 -0.099937305 -0.026444402 2.3509168e-38
0.020664167 -0.099937305 -0.026444402 2.3325138e-38
0.023004327 -0.10153329 -0.033419576 2.3325843e-38
0.024910327 -0.10153329 -0.033419576 2.3326199e-38
0.026816335 -0.10153329 -0.033419576 2.3509886e-38
0.02892546 -0.10220437 -0.036352482 1.8439123e-38
0.030836601 -0.10220437 -0.036352482 1.2355271e-38
0.032534342 -0.10153329 -0.033419576 7.6532939e-39
-0.011209067 -0.091224253 0.019559536 2.3234376e-38
-0.0093959533 -0.091224253 0.019559536 1.9362851e-38
-0.0075828433 -0.091224253 0.019559536 1.8348674e-38
-0.0058905035 -0.0905184 0.02262095 2.0930485e-38
-0.004082758 -0.0905184 0.02262095 2.3234296e-38
-0.0019745901 -0.092130885 0.015627299 2.3509824e-38
-2.0641834e-05 -0.092821583 0.012631569 2.2772985e-38
0.002085425 -0.094215035 0.0065878965 2.3049572e-38
0.0040629953 -0.094892681 0.0036487915 2.3234313e-38
0.0061066113 -0.09582752 -0.00040575489 2.2499604e-38
0.0081087835 -0.09651424 -0.003384199 2.2591449e-38
0.010122307 -0.097204864 -0.0063795708 2.3142499e-38
0.012370586 -0.098831654 -0.01343533 2.305068e-38
0.01424155 -0.098831654 -0.01343533 2.2957417e-38
0.016465452 -0.10021709 -0.019444194 2.3509527e-38
0.018589232 -0.10114056 -0.023449507 2.3508809e-38
0.020664167 -0.10183108 -0.026444402 2.332478e-38
0.023004327 -0.10343929 -0.033419576 2.3509527e-38
0.024910327 -0.10343929 -0.033419576 2.3049261e-38
0.026816335 -0.10343929 -0.033419576 2.3509527e-38
0.028722335 -0.10343929 -0.033419576 1.8531671e-38
0.030628335 -0.10343929 -0.033419576 1.3369053e-38
0.032534342 -0.10343929 -0.033419576 8.4834034e-39
-0.0093959533 -0.093037367 0.019559536 1.5765793e-38
-0.0075828433 -0.093037367 0.019559536 2.0191509e-38
-0.0058905035 -0.092326149 0.02262095 1.9363142e-38
-0.004082758 -0.092326149 0.02262095 2.212936e-38
-0.002143506 -0.093037367 0.019559536 2.3234299e-38
-0.00015458092 -0.093950883 0.015627299 2.3142472e-38
0.0018046163 -0.094646841 0.012631569 2.3050637e-38
0.0040629953 -0.096733689 0.0036487915 2.2866957e-38
0.005904004 -0.096733689 0.0036487915 2.1764191e-38
0.0079547279 -0.097675636 -0.00040575489 2.1304294e-38
0.0099621229 -0.098367572 -0.003384199 2.2040442e-38
0.012147274 -0.099763289 -0.0093919896 2.2958824e-38
0.01424155 -0.10070263 -0.01343533 2.332618e-38
0.016285162 -0.10138547 -0.016374674 2.3509876e-38
0.018346954 -0.10209858 -0.019444194 2.3508451e-38
0.020664167 -0.10372485 -0.026444402 2.3323703e-38
0.022810187 -0.10464053 -0.030385938 2.3508809e-38
0.024910327 -0.10534529 -0.033419576 2.3324775e-38
0.026611555 -0.10464053 -0.030385938 2.3509161e-38
0.028512236 -0.10464053 -0.030385938 1.8070681e-38
0.030133028 -0.10372485 -0.026444402 1.4475382e-38
0.032026801 -0.10372485 -0.026444402 8.5755851e-39
0.033920575 -0.10372485 -0.026444402 8.3897883e-39
-0.0058905035 -0.094133899 0.02262095 1.9823743e-38
-0.004082758 -0.094133899 0.02262095 2.1485049e-38
-0.002143506 -0.094850481 0.019559536 2.2682904e-38
-0.00033039227 -0.094850481 0.019559536 2.3234299e-38
0.0018046163 -0.096472099 0.012631569 2.2866952e-38
0.0039212815 -0.097886756 0.0065878965 2.1948584e-38
0.005904004 -0.098574698 0.0036487915 2.1028424e-38
0.0077450126 -0.098574698 0.0036487915 1.9831676e-38
0.0098028444 -0.099523753 -0.00040575489 2.0293017e-38
0.012147274 -0.10162716 -0.0093919896 2.2591458e-38
0.01424155 -0.10257359 -0.01343533 2.3418001e-38
0.01611251 -0.10257359 -0.01343533 2.3509863e-38
0.018161278 -0.1032616 -0.016374674 2.3508451e-38
0.020477753 -0.1049176 -0.023449507 2.3414822e-38
0.022810187 -0.1065412 -0.030385938 2.3508809e-38
0.024710868 -0.1065412 -0.030385938 2.3509168e-38
0.026611555 -0.1065412 -0.030385938 2.3509873e-38
0.028512236 -0.1065412 -0.030385938 1.7701524e-38
0.030133028 -0.10561861 -0.026444402 1.5121452e-38
0.032026801 -0.10561861 -0.026444402 8.6674037e-39
0.033920575 -0.10561861 -0.026444402 8.0202785e-39
-0.0039566159 -0.096663594 0.019559536 1.8995391e-38
-0.002143506 -0.096663594 0.019559536 2.1208123e-38
-0.00033039227 -0.096663594 0.019559536 2.2866946e-38
0.0016654246 -0.097590908 0.015627299 2.2315926e-38
0.0036298744 -0.098297372 0.012631569 2.1581235e-38
0.0057571381 -0.099722609 0.0065878965 2.1489407e-38
0.0077450126 -0.10041572 0.0036487915 1.909555e-38
0.0095860213 -0.10041572 0.0036487915 1.7898075e-38
0.011980899 -0.10278064 -0.0063795708 2.0385563e-38
0.014011148 -0.10349102 -0.0093919896 2.3234309e-38
0.01611251 -0.10444455 -0.01343533 2.3326171e-38
0.017983478 -0.10444455 -0.01343533 2.3509168e-38
0.020477753 -0.10680611 -0.023449507 2.3508451e-38
0.022810187 -0.1084419 -0.030385938 2.3507374e-38
0.024710868 -0.1084419 -0.030385938 2.3509168e-38
0.026611555 -0.1084419 -0.030385938 2.3509866e-38
0.028512236 -0.1084419 -0.030385938 1.6134182e-38
0.030412916 -0.1084419 -0.030385938 1.4384229e-38
0.032313604 -0.1084419 -0.030385938 8.9450528e-39
-0.0022750124 -0.097749382 0.02262095 1.9732625e-38
-0.00046726689 -0.097749382 0.02262095 2.2223362e-38
0.0016654246 -0.099410906 0.015627299 2.2040411e-38
0.0036298744 -0.10012263 0.012631569 2.1856747e-38
0.0057571381 -0.10155846 0.0065878965 2.2407781e-38
0.0077450126 -0.10225673 0.0036487915 1.9003718e-38
0.0095860213 -0.10225673 0.0036487915 1.6055234e-38
0.011815462 -0.1039276 -0.003384199 1.8082456e-38
0.013839491 -0.10463922 -0.0063795708 2.2224088e-38
0.015875023 -0.10535492 -0.0093919896 2.2682221e-38
0.017983478 -0.10631551 -0.01343533 2.3509876e-38
0.020477753 -0.10869466 -0.023449507 2.3508809e-38
0.022810187 -0.11034258 -0.030385938 2.3323702e-38
0.024710868 -0.11034258 -0.030385938 2.3508439e-38
0.026611555 -0.11034258 -0.030385938 2.3232543e-38
0.028512236 -0.11034258 -0.030385938 1.4106583e-38
0.030412916 -0.11034258 -0.030385938 1.2725054e-38
0.032313604 -0.11034258 -0.030385938 9.1290741e-39
-0.0022750124 -0.099557132 0.02262095 1.8902139e-38
-0.00046726689 -0.099557132 0.02262095 2.2038608e-38
0.0016654246 -0.10123092 0.015627299 2.1118456e-38
0.0036298744 -0.10194789 0.012631569 2.2132261e-38
0.0056057014 -0.10266902 0.0096184351 2.1029876e-38
0.0077450126 -0.10409774 0.0036487915 1.8912245e-38
0.0095860213 -0.10409774 0.0036487915 1.6609484e-38
0.011815462 -0.10578094 -0.003384199 1.5870473e-38
0.013839491 -0.10649781 -0.0063795708 1.8816068e-38
0.015875023 -0.10721879 -0.0093919896 2.2866957e-38
0.017983478 -0.10818647 -0.01343533 2.350986e-38
0.020228449 -0.10962458 -0.019444194 2.2956346e-38
0.022810187 -0.11224325 -0.030385938 2.3509879e-38
0.024710868 -0.11224325 -0.030385938 2.3232913e-38
0.026611555 -0.11224325 -0.030385938 2.1758121e-38
0.028512236 -0.11224325 -0.030385938 1.3277171e-38
0.030412916 -0.11224325 -0.030385938 1.2079313e-38
0.032313604 -0.11224325 -0.030385938 9.1297804e-39
0.034214284 -0.11224325 -0.030385938 8.8507328e-39
-0.0019745901 -0.10305093 0.015627299 1.6043358e-38
-0.00015458092 -0.10305093 0.015627299 2.0562401e-38
0.0016654246 -0.10305093 0.015627299 1.9826641e-38
0.0036298744 -0.10377313 0.012631569 1.9460747e-38
0.0056057014 -0.10449956 0.0096184351 1.8448401e-38
0.0077450126 -0.10593875 0.0036487915 1.7067258e-38
0.0095860213 -0.10593875 0.0036487915 1.4765216e-38
0.011650965 -0.10691623 -0.00040575489 1.4211308e-38
0.013668802 -0.10763429 -0.003384199 1.6604801e-38
0.015875023 -0.10908265 -0.0093919896 2.1303569e-38
0.017983478 -0.11005743 -0.01343533 2.31425e-38
0.020228449 -0.11150609 -0.019444194 2.3509863e-38
0.02255794 -0.11319371 -0.026444402 2.350986e-38
0.024710868 -0.11414395 -0.030385938 1.8715674e-38
0.026611555 -0.11414395 -0.030385938 1.6135255e-38
0.028512236 -0.11414395 -0.030385938 1.2171178e-38
0.030412916 -0.11414395 -0.030385938 1.2263702e-38
0.032313604 -0.11414395 -0.030385938 8.9443101e-39
0.034214284 -0.11414395 -0.030385938 8.2053606e-39
-0.00015458092 -0.10487093 0.015627299 2.0746077e-38
0.0016654246 -0.10487093 0.015627299 1.9918125e-38
0.0036298744 -0.10559841 0.012631569 1.7891627e-38
0.0056057014 -0.10633011 0.0096184351 1.687928e-38
0.0077450126 -0.10777976 0.0036487915 1.6882506e-38
0.0095860213 -0.10777976 0.0036487915 1.5317669e-38
0.011650965 -0.10876434 -0.00040575489 1.522546e-38
0.013668802 -0.10948761 -0.003384199 1.5222943e-38
0.015698083 -0.11021499 -0.0063795708 1.9277412e-38
0.017738897 -0.11094652 -0.0093919896 2.0842262e-38
0.020037394 -0.11264218 -0.016374674 2.2222699e-38
0.022366274 -0.1143602 -0.023449507 2.249856e-38
0.024710868 -0.11604463 -0.030385938 1.6505477e-38
0.026611555 -0.11604463 -0.030385938 1.4937063e-38
0.028512236 -0.11604463 -0.030385938 1.4660816e-38
0.030628335 -0.11678131 -0.033419576 1.2448096e-38
0.032534342 -0.11678131 -0.033419576 8.7595657e-39
0.034440342 -0.11678131 -0.033419576 7.6521868e-39
-0.00015458092 -0.10669093 0.015627299 1.8715978e-38
0.0016654246 -0.10669093 0.015627299 1.7888029e-38
0.0036298744 -0.10742365 0.012631569 1.3833948e-38
0.0054551363 -0.10742365 0.012631569 1.2729395e-38
0.007592991 -0.10890187 0.0065878965 1.4576171e-38
0.0095860213 -0.10962076 0.0036487915 1.3933297e-38
0.011650965 -0.11061247 -0.00040575489 1.4395699e-38
0.013668802 -0.11134095 -0.003384199 1.3012046e-38
0.015698083 -0.11207359 -0.0063795708 1.4393199e-38
0.017738897 -0.11281042 -0.0093919896 1.4390352e-38
0.019854438 -0.11379938 -0.01343533 1.4296372e-38
0.022366274 -0.11624874 -0.023449507 1.5586386e-38
0.024710868 -0.11794533 -0.030385938 1.4109814e-38
0.026611555 -0.11794533 -0.030385938 1.466155e-38
0.028512236 -0.11794533 -0.030385938 1.3739226e-38
0.030628335 -0.11868732 -0.033419576 1.2264076e-38
0.032534342 -0.11868732 -0.033419576 8.6670184e-39
-0.00033039227 -0.10754226 0.019559536 1.8714184e-38
0.0014827214 -0.10754226 0.019559536 1.8531246e-38
0.00348543 -0.10851096 0.015627299 1.3740313e-38
0.0054551363 -0.10924892 0.012631569 1.2175134e-38
0.007592991 -0.11073773 0.0065878965 1.4943866e-38
0.0095860213 -0.11146177 0.0036487915 1.466942e-38
0.011650965 -0.11246057 -0.00040575489 1.5040349e-38
0.013668802 -0.1131943 -0.003384199 1.4856321e-38
0.015698083 -0.11393218 -0.0063795708 1.3288646e-38
0.017738897 -0.11467429 -0.0093919896 1.3654933e-38
0.019854438 -0.11567034 -0.01343533 1.3377277e-38
0.02191351 -0.11639442 -0.016374674 1.4481817e-38
0.024710868 -0.119846 -0.030385938 1.5862956e-38
0.026816335 -0.12059332 -0.033419576 1.7151551e-38
0.028722335 -0.12059332 -0.033419576 1.3462287e-38
0.030628335 -0.12059332 -0.033419576 1.1894591e-38
0.032534342 -0.12059332 -0.033419576 8.3908084e-39
-0.00033039227 -0.10935538 0.019559536 1.6685164e-38
0.0014827214 -0.10935538 0.019559536 1.7700772e-38
0.00348543 -0.11033095 0.015627299 1.3646678e-38
0.0054551363 -0.11107419 0.012631569 1.125245e-38
0.007592991 -0.11257361 0.0065878965 1.429705e-38
0.0095860213 -0.11330278 0.0036487915 1.4114803e-38
0.01142703 -0.11330278 0.0036487915 1.3932923e-38
0.013668802 -0.11504765 -0.003384199 1.3842891e-38
0.015698083 -0.11579077 -0.0063795708 1.1630567e-38
0.017738897 -0.11653815 -0.0093919896 1.4486485e-38
0.019602772 -0.11653815 -0.0093919896 1.6052015e-38
0.02191351 -0.11827053 -0.016374674 1.6419709e-38
0.024451714 -0.1207688 -0.026444402 1.743135e-38
0.026816335 -0.1224993 -0.033419576 1.7982031e-38
0.028722335 -0.1224993 -0.033419576 1.337046e-38
0.030836601 -0.12322696 -0.036352482 1.1618018e-38
0.032747749 -0.12322696 -0.036352482 8.3901064e-39
0.03465889 -0.12322696 -0.036352482 7.8344481e-39
-0.0024012476 -0.10966937 0.025559578 1.0874328e-38
-0.00059865415 -0.10966937 0.025559578 1.5116762e-38
0.0014827214 -0.11116849 0.019559536 1.6962489e-38
0.00348543 -0.11215095 0.015627299 1.3738155e-38
0.0054551363 -0.11289944 0.012631569 1.0974779e-38
0.0072803944 -0.11289944 0.012631569 1.448143e-38
0.0092667863 -0.11365227 0.0096184351 1.5127869e-38
0.01142703 -0.11514379 0.0036487915 1.4761965e-38
0.013499081 -0.1161568 -0.00040575489 1.4120202e-38
0.015698083 -0.11764936 -0.0063795708 1.2922748e-38
0.017738897 -0.11840202 -0.0093919896 1.5686823e-38
0.019602772 -0.11840202 -0.0093919896 1.6146359e-38
0.02191351 -0.12014665 -0.016374674 1.6974311e-38
0.023991447 -0.12091358 -0.019444194 1.7801565e-38
0.026611555 -0.12364738 -0.030385938 1.7706167e-38
0.028722335 -0.12440531 -0.033419576 1.4108395e-38
0.030836601 -0.12513812 -0.036352482 1.2078292e-38
0.032747749 -0.12513812 -0.036352482 8.5737914e-39
-0.012032855 -0.10691936 0.043653999 1.1239156e-38
-0.01026199 -0.10691936 0.043653999 1.1699762e-38
-0.0043285154 -0.11071064 0.028585467 1.0778911e-38
-0.0025312304 -0.11071064 0.028585467 1.1518972e-38
-0.00059865415 -0.11147197 0.025559578 1.4010766e-38
0.0014827214 -0.1129816 0.019559536 1.6133078e-38
0.0032958314 -0.1129816 0.019559536 1.346192e-38
0.0053054392 -0.11397095 0.015627299 1.0606352e-38
0.0071254447 -0.11397095 0.015627299 1.4940975e-38
0.0091056526 -0.11472471 0.012631569 1.6417539e-38
0.011097327 -0.11548282 0.0096184351 1.6604089e-38
0.013499081 -0.11800493 -0.00040575489 1.7252345e-38
0.015698083 -0.11950795 -0.0063795708 1.6884287e-38
0.017738897 -0.12026589 -0.0093919896 1.6606631e-38
0.019602772 -0.12026589 -0.0093919896 1.3562736e-38
0.02191351 -0.12202276 -0.016374674 1.4667995e-38
0.023991447 -0.12279506 -0.019444194 1.641828e-38
0.026611555 -0.12554805 -0.030385938 1.6230314e-38
0.028722335 -0.12631132 -0.033419576 1.3094595e-38
0.030836601 -0.12704925 -0.036352482 1.2631821e-38
0.032747749 -0.12704925 -0.036352482 9.0347696e-39
-0.012032855 -0.10869022 0.043653999 1.2528816e-38
-0.01026199 -0.10869022 0.043653999 1.1421381e-38
-0.0084911212 -0.10869022 0.043653999 1.1513931e-38
-0.0064797439 -0.11023484 0.037557397 1.1238423e-38
-0.004452467 -0.11174576 0.031593714 1.1424251e-38
-0.0026604533 -0.11174576 0.031593714 1.050516e-38
-0.00059865415 -0.11327456 0.025559578 1.4564642e-38
0.0013404749 -0.11401908 0.02262095 1.465972e-38
0.0032958314 -0.11479472 0.019559536 1.3463338e-38
0.0053054392 -0.11579098 0.015627299 1.134428e-38
0.0071254447 -0.11579098 0.015627299 1.4018317e-38
0.0091056526 -0.11654995 0.012631569 1.7153692e-38
0.011097327 -0.11731337 0.0096184351 1.8260759e-38
0.013268039 -0.11882581 0.0036487915 1.8354388e-38
0.015522145 -0.12060766 -0.003384199 1.9368185e-38
0.017556671 -0.12136655 -0.0063795708 1.8998349e-38
0.019602772 -0.12212978 -0.0093919896 1.7337398e-38
0.022109952 -0.12467657 -0.019444194 1.6968253e-38
0.024254795 -0.12569134 -0.023449507 1.6690937e-38
0.026345488 -0.12645011 -0.026444402 1.7059707e-38
0.028722335 -0.12821732 -0.033419576 1.208078e-38
0.030836601 -0.12896039 -0.036352482 1.1527252e-38
0.032747749 -0.12896039 -0.036352482 8.5759382e-39
-0.015756356 -0.10894983 0.049577985 1.1056203e-38
-0.013995875 -0.10894983 0.049577985 1.068634e-38
-0.012235396 -0.10894983 0.049577985 1.1422104e-38
-0.010366961 -0.10971604 0.046574507 1.160541e-38
-0.0086012147 -0.10971604 0.046574507 1.2066021e-38
-0.0066003613 -0.11123641 0.040614877 1.0775995e-38
-0.0045756884 -0.11277486 0.034584317 9.395929e-39
-0.0026604533 -0.11353777 0.031593714 1.0597705e-38
-0.00059865415 -0.11507715 0.025559578 1.3643038e-38
0.0013404749 -0.11582683 0.02262095 1.502921e-38
0.0032958314 -0.11660783 0.019559536 1.7981278e-38
0.0053054392 -0.11761098 0.015627299 1.8904325e-38
0.0071254447 -0.11761098 0.015627299 2.0380545e-38
0.0091056526 -0.11837523 0.012631569 2.0287645e-38
0.011097327 -0.11914389 0.0096184351 1.9089818e-38
0.013268039 -0.12066682 0.0036487915 1.9643696e-38
0.015522145 -0.12246101 -0.003384199 2.0380909e-38
0.017556671 -0.12322514 -0.0063795708 2.0195111e-38
0.019602772 -0.12399365 -0.0093919896 1.8996219e-38
0.02191351 -0.12577499 -0.016374674 1.8811106e-38
0.023789626 -0.12577499 -0.016374674 1.7335959e-38
0.025665741 -0.12577499 -0.016374674 1.7152256e-38
0.028722335 -0.13012333 -0.033419576 1.3556975e-38
0.030836601 -0.13087155 -0.036352482 1.0975146e-38
0.032747749 -0.13087155 -0.036352482 8.0238322e-39
-0.015847968 -0.10994337 0.052563701 1.0226072e-38
-0.014092725 -0.10994337 0.052563701 1.1146589e-38
-0.01233748 -0.10994337 0.052563701 1.1698323e-38
-0.010474917 -0.11071031 0.049577985 1.1236263e-38
-0.0087144375 -0.11071031 0.049577985 1.1512844e-38
-0.0068354681 -0.11148177 0.046574507 1.0868548e-38
-0.0045756884 -0.11456163 0.034584317 9.8569072e-39
-0.0026604533 -0.11532979 0.031593714 9.2154908e-39
-0.00059865415 -0.11687975 0.025559578 1.2076434e-38
0.0013404749 -0.11763458 0.02262095 1.4752989e-38
0.0032958314 -0.11842094 0.019559536 1.908835e-38
0.0053054392 -0.11943097 0.015627299 2.0010681e-38
0.0071254447 -0.11943097 0.015627299 2.0380554e-38
0.0091056526 -0.12020047 0.012631569 2.0380207e-38
0.011097327 -0.12097444 0.0096184351 2.0012861e-38
0.013268039 -0.12250783 0.0036487915 1.8355487e-38
0.015522145 -0.12431435 -0.003384199 1.8448048e-38
0.017556671 -0.12508373 -0.0063795708 1.6787474e-38
0.019602772 -0.12585752 -0.0093919896 1.5311275e-38
0.02191351 -0.12765111 -0.016374674 1.7523247e-38
0.023789626 -0.12765111 -0.016374674 1.7338477e-38
0.025665741 -0.12765111 -0.016374674 1.5955868e-38
0.028722335 -0.13202934 -0.033419576 1.1807054e-38
0.030628335 -0.13202934 -0.033419576 1.162123e-38
-0.015847968 -0.11169861 0.052563701 1.087143e-38
-0.014092725 -0.11169861 0.052563701 1.1883787e-38
-0.01233748 -0.11169861 0.052563701 1.1882345e-38
-0.010474917 -0.11247079 0.049577985 1.1235537e-38
-0.0087144375 -0.11247079 0.049577985 1.1328809e-38
-0.0069539584 -0.11247079 0.049577985 1.1698309e-38
-0.0045756884 -0.1163484 0.034584317 1.0962899e-38
-0.00278892 -0.1163484 0.034584317 8.938548e-39
-0.00073394179 -0.11789979 0.028585467 1.2353026e-38
0.0013404749 -0.11944233 0.02262095 1.4937026e-38
0.0031482205 -0.11944233 0.02262095 1.8074564e-38
0.0053054392 -0.121251 0.015627299 1.7614322e-38
0.0071254447 -0.121251 0.015627299 1.8168586e-38
0.0091056526 -0.12202574 0.012631569 1.982776e-38
0.011264704 -0.12358873 0.0065878965 2.1028461e-38
0.013268039 -0.12434883 0.0036487915 1.7804838e-38
0.015522145 -0.12616767 -0.003384199 1.8543845e-38
0.01737548 -0.12616767 -0.003384199 1.605279e-38
0.019415263 -0.12694232 -0.0063795708 1.2271699e-38
0.021725405 -0.12876706 -0.01343533 1.503648e-38
0.023596365 -0.12876706 -0.01343533 1.697185e-38
0.025467332 -0.12876706 -0.01343533 1.5588882e-38
0.027754445 -0.13032107 -0.019444194 1.1438986e-38
0.029635947 -0.13032107 -0.019444194 1.0792902e-38
-0.014092725 -0.11345388 0.052563701 1.0961462e-38
-0.01233748 -0.11345388 0.052563701 1.1052939e-38
-0.010474917 -0.11423124 0.049577985 1.151212e-38
-0.0087144375 -0.11423124 0.049577985 1.2065293e-38
-0.0069539584 -0.11423124 0.049577985 1.160611e-38
-0.0045756884 -0.11813517 0.034584317 9.9487469e-39
-0.00278892 -0.11813517 0.034584317 8.6619639e-39
-0.00073394179 -0.11969708 0.028585467 1.2076083e-38
0.0013404749 -0.12125005 0.02262095 1.3831404e-38
0.0031482205 -0.12125005 0.02262095 1.678419e-38
0.0053054392 -0.123071 0.015627299 1.7245905e-38
0.0071254447 -0.123071 0.015627299 1.8814321e-38
0.0091056526 -0.12385099 0.012631569 1.9644096e-38
0.011097327 -0.12463553 0.0096184351 1.9185991e-38
0.013268039 -0.12618984 0.0036487915 1.7069797e-38
0.015347201 -0.12724553 -0.00040575489 1.8638204e-38
0.01737548 -0.12802102 -0.003384199 1.7438242e-38
0.019415263 -0.12880091 -0.0063795708 1.2641918e-38
0.021725405 -0.13063805 -0.01343533 1.3194003e-38
0.023596365 -0.13063805 -0.01343533 1.4115578e-38
0.025467332 -0.13063805 -0.01343533 1.4391055e-38
0.027754445 -0.13220255 -0.019444194 1.3099583e-38
0.029635947 -0.13220255 -0.019444194 1.0424835e-38
-0.012235396 -0.11599173 0.049577985 1.1605394e-38
-0.010474917 -0.11599173 0.049577985 1.1788346e-38
-0.0087144375 -0.11599173 0.049577985 1.1327728e-38
-0.0069539584 -0.11599173 0.049577985 1.1052939e-38
-0.0043285154 -0.12149437 0.028585467 9.5799643e-39
-0.0025312304 -0.12149437 0.028585467 8.4775726e-39
-0.00073394179 -0.12149437 0.028585467 1.1892412e-38
0.0012039393 -0.12228753 0.025559578 1.3278949e-38
0.0031482205 -0.1230578 0.02262095 1.558637e-38
0.0051089451 -0.12386028 0.019559536 1.6232832e-38
0.0071254447 -0.124891 0.015627299 1.8354062e-38
0.0089454502 -0.124891 0.015627299 1.8631023e-38
0.011097327 -0.12646608 0.0096184351 1.7250246e-38
0.013268039 -0.12803085 0.0036487915 1.6148203e-38
0.015347201 -0.12909363 -0.00040575489 1.5135491e-38
0.01737548 -0.12987436 -0.003384199 1.5317739e-38
0.019415263 -0.13065951 -0.0063795708 1.2643347e-38
0.021725405 -0.13250901 -0.01343533 1.2733376e-38
0.023789626 -0.13327946 -0.016374674 1.1995433e-38
0.02587295 -0.13408406 -0.019444194 1.2731531e-38
0.028239261 -0.13591899 -0.026444402 1.402154e-38
0.030133028 -0.13591899 -0.026444402 1.1623017e-38
-0.010582235 -0.11696436 0.052563701 1.2156771e-38
-0.0088269897 -0.11696436 0.052563701 1.0866033e-38
-0.0070717447 -0.11696436 0.052563701 1.1052582e-38
-0.0043285154 -0.12329166 0.028585467 1.0501923e-38
-0.0025312304 -0.12329166 0.028585467 9.3995317e-39
-0.00073394179 -0.12329166 0.028585467 1.2814369e-38
0.0012039393 -0.12409012 0.025559578 1.4017235e-38
0.0030065291 -0.12409012 0.025559578 1.5955868e-38
0.004955966 -0.12486555 0.02262095 1.595768e-38
0.006922055 -0.1256734 0.019559536 1.7710487e-38
0.0089454502 -0.126711 0.015627299 1.8448424e-38
0.011097327 -0.1282966 0.0096184351 1.7804133e-38
0.013268039 -0.12987186 0.0036487915 1.651662e-38
0.015347201 -0.13094176 -0.00040575489 1.3013549e-38
0.01737548 -0.13172771 -0.003384199 1.3380185e-38
0.019415263 -0.1325181 -0.0063795708 1.2364594e-38
0.021725405 -0.13437997 -0.01343533 1.2548258e-38
0.023991447 -0.13596557 -0.019444194 1.1901793e-38
0.026143316 -0.13702248 -0.023449507 1.2731168e-38
0.028239261 -0.13781275 -0.026444402 1.4666189e-38
0.030133028 -0.13781275 -0.026444402 1.2082559e-38
-0.010582235 -0.11871959 0.052563701 1.2985459e-38
-0.0088269897 -0.11871959 0.052563701 1.1787995e-38
-0.0070717447 -0.11871959 0.052563701 1.1697954e-38
-0.0022750124 -0.1266733 0.02262095 9.1236651e-39
-0.00059865415 -0.12589271 0.025559578 1.1893133e-38
0.0012039393 -0.12589271 0.025559578 1.318783e-38
0.0030065291 -0.12589271 0.025559578 1.586475e-38
0.004955966 -0.1266733 0.02262095 1.6696317e-38
0.006922055 -0.12748651 0.019559536 1.8264733e-38
0.0089454502 -0.12853102 0.015627299 1.8449491e-38
0.011097327 -0.13012715 0.0096184351 1.7712289e-38
0.013268039 -0.13171287 0.0036487915 1.6606293e-38
0.015347201 -0.13278987 -0.00040575489 1.3379446e-38
0.017556671 -0.13437669 -0.0063795708 1.4023385e-38
0.019415263 -0.13437669 -0.0063795708 1.162522e-38
0.021725405 -0.13625093 -0.01343533 1.0425589e-38
0.023789626 -0.13703169 -0.016374674 1.0424859e-38
0.026143316 -0.13891099 -0.023449507 1.2452423e-38
0.028239261 -0.13970654 -0.026444402 1.4572198e-38
0.030133028 -0.13970654 -0.026444402 1.281941e-38
-0.00059865415 -0.12769531 0.025559578 1.2816165e-38
0.0012039393 -0.12769531 0.025559578 1.1990003e-38
0.0031482205 -0.12848105 0.02262095 1.6694861e-38
0.004955966 -0.12848105 0.02262095 1.7249843e-38
0.006922055 -0.1292996 0.019559536 1.8542025e-38
0.0089454502 -0.13035102 0.015627299 1.8265805e-38
0.011097327 -0.13195769 0.0096184351 1.7251297e-38
0.013268039 -0.13355388 0.0036487915 1.5958755e-38
0.015522145 -0.13543437 -0.003384199 1.4574024e-38
0.017556671 -0.13623528 -0.0063795708 1.4296724e-38
0.019602772 -0.13704078 -0.0093919896 1.291271e-38
0.021725405 -0.13812189 -0.01343533 1.1712722e-38
0.023789626 -0.13890781 -0.016374674 1.2173692e-38
0.026143316 -0.14079951 -0.023449507 1.2910167e-38
0.028239261 -0.1416003 -0.026444402 1.3924319e-38
0.030133028 -0.1416003 -0.026444402 1.4015444e-38
-0.00046726689 -0.13028879 0.02262095 1.2355187e-38
0.0013404749 -0.13028879 0.02262095 1.3465132e-38
0.0031482205 -0.13028879 0.02262095 1.9277412e-38
0.0051089451 -0.13111271 0.019559536 1.8172149e-38
0.006922055 -0.13111271 0.019559536 1.5685031e-38
0.0089454502 -0.13217102 0.015627299 1.3932959e-38
0.010930911 -0.13297729 0.012631569 1.3840048e-38
0.013268039 -0.13539489 0.0036487915 1.3467668e-38
0.015522145 -0.13728772 -0.003384199 1.4111242e-38
0.017738897 -0.13890465 -0.0093919896 1.5676773e-38
0.020037394 -0.14078392 -0.016374674 1.4385317e-38
0.02191351 -0.14078392 -0.016374674 1.3001661e-38
0.024254795 -0.14268802 -0.023449507 1.3370077e-38
0.026345488 -0.14349405 -0.026444402 1.2908375e-38
0.028239261 -0.14349405 -0.026444402 1.2354125e-38
-0.0018459037 -0.13480256 0.012631569 9.215865e-39
-0.00046726689 -0.13209651 0.02262095 1.2355187e-38
0.0013404749 -0.13209651 0.02262095 1.3372933e-38
0.0031482205 -0.13209651 0.02262095 1.8078866e-38
0.0051089451 -0.13292582 0.019559536 1.6605178e-38
0.006922055 -0.13292582 0.019559536 1.3749273e-38
0.0089454502 -0.13399105 0.015627299 1.2458181e-38
0.010930911 -0.13480256 0.012631569 1.3470538e-38
0.013268039 -0.13723589 0.0036487915 1.3374391e-38
0.015522145 -0.13914107 -0.003384199 1.4847365e-38
0.017983478 -0.14186381 -0.01343533 1.6228505e-38
0.020037394 -0.14266007 -0.016374674 1.38307e-38
0.022109952 -0.14349155 -0.019444194 1.2077906e-38
0.024254795 -0.14457656 -0.023449507 1.2999144e-38
0.026345488 -0.14538784 -0.026444402 1.2630001e-38
0.028239261 -0.14538784 -0.026444402 1.1523299e-38
-0.0018459037 -0.13662781 0.012631569 1.0229661e-38
-0.00033039227 -0.13473894 0.019559536 1.2447025e-38
0.0014827214 -0.13473894 0.019559536 1.2082194e-38
0.0032958314 -0.13473894 0.019559536 1.4114091e-38
0.0051089451 -0.13473894 0.019559536 1.3654915e-38
0.006922055 -0.13473894 0.019559536 1.3656716e-38
0.0089454502 -0.13581105 0.015627299 1.3749276e-38
0.010930911 -0.13662781 0.012631569 1.4576885e-38
0.013268039 -0.1390769 0.0036487915 1.5587086e-38
0.015698083 -0.14181106 -0.0063795708 1.5953357e-38
0.017983478 -0.14373477 -0.01343533 1.5768606e-38
0.020037394 -0.14453618 -0.016374674 1.2356291e-38
0.02191351 -0.14453618 -0.016374674 1.01418e-38
0.023991447 -0.14537306 -0.019444194 1.1154879e-38
0.026143316 -0.14646508 -0.023449507 1.143075e-38
0.028239261 -0.1472816 -0.026444402 1.1061616e-38
-0.0019745901 -0.13763104 0.015627299 9.9530769e-39
-0.00033039227 -0.13655205 0.019559536 1.1893854e-38
0.0014827214 -0.13655205 0.019559536 1.1897806e-38
0.0032958314 -0.13655205 0.019559536 1.2822996e-38
0.0051089451 -0.13655205 0.019559536 1.2640766e-38
0.006922055 -0.13655205 0.019559536 1.3195738e-38
0.0089454502 -0.13763104 0.015627299 1.3749276e-38
0.010930911 -0.13845308 0.012631569 1.4762358e-38
0.013268039 -0.14091791 0.0036487915 1.6326458e-38
0.015698083 -0.14366965 -0.0063795708 1.5126482e-38
0.017983478 -0.14560573 -0.01343533 1.4479673e-38
0.020037394 -0.1464123 -0.016374674 1.1804205e-38
0.02191351 -0.1464123 -0.016374674 9.4975189e-39
0.023789626 -0.1464123 -0.016374674 9.5879237e-39
0.026143316 -0.14835359 -0.023449507 9.6790488e-39
-0.047444992 -0.13007559 0.049577985 2.1841268e-38
-0.045684516 -0.13007559 0.049577985 1.9351999e-38
-0.043924034 -0.13007559 0.049577985 1.6125876e-38
-0.042163555 -0.13007559 0.049577985 1.4926613e-38
-0.0034221411 -0.14194728 0.0065878965 1.1424618e-38
-0.0019745901 -0.13945107 0.015627299 9.7694045e-39
-0.00015458092 -0.13945107 0.015627299 1.1432876e-38
0.0016654246 -0.13945107 0.015627299 1.291124e-38
0.00348543 -0.13945107 0.015627299 1.3836072e-38
0.0053054392 -0.13945107 0.015627299 1.3285058e-38
0.0071254447 -0.13945107 0.015627299 1.264113e-38
0.0092667863 -0.14111041 0.0096184351 1.3471614e-38
0.011097327 -0.14111041 0.0096184351 1.5868349e-38
0.013499081 -0.14387859 -0.00040575489 1.5407024e-38
0.015698083 -0.14552824 -0.0063795708 1.2824116e-38
0.017983478 -0.14747669 -0.01343533 1.1624134e-38
0.020037394 -0.14828841 -0.016374674 9.8709818e-39
0.02191351 -0.14828841 -0.016374674 8.5773717e-39
0.023789626 -0.14828841 -0.016374674 8.4833866e-39
-0.049213372 -0.13267075 0.046574507 1.6031517e-38
-0.047444992 -0.13183604 0.049577985 1.8797381e-38
-0.045687132 -0.13100632 0.052563701 1.8982499e-38
-0.043931887 -0.13100632 0.052563701 1.5110648e-38
-0.042163555 -0.13183604 0.049577985 1.5294321e-38
-0.0034221411 -0.14378314 0.0065878965 1.1055836e-38
-0.002143506 -0.14017828 0.019559536 1.0230027e-38
-0.00033039227 -0.14017828 0.019559536 1.207789e-38
0.0016654246 -0.14127107 0.015627299 1.3833199e-38
0.00348543 -0.14127107 0.015627299 1.3559489e-38
0.0054551363 -0.1421036 0.012631569 1.3100313e-38
0.0072803944 -0.1421036 0.012631569 1.2640777e-38
0.0092667863 -0.14294095 0.0096184351 1.3010641e-38
0.011264704 -0.14378314 0.0065878965 1.4670174e-38
0.013268039 -0.14459993 0.0036487915 1.3196136e-38
0.015522145 -0.14655443 -0.003384199 9.6008745e-39
0.017983478 -0.14934768 -0.01343533 8.3083378e-39
-0.049205475 -0.13359652 0.049577985 1.5662017e-38
-0.047444992 -0.13359652 0.049577985 1.6307031e-38
-0.045687132 -0.13276155 0.052563701 1.5754579e-38
-0.043931887 -0.13276155 0.052563701 1.1605419e-38
-0.042163555 -0.13359652 0.049577985 1.3264578e-38
-0.004082758 -0.14113526 0.02262095 1.0501219e-38
-0.0022750124 -0.14113526 0.02262095 1.0596648e-38
-0.00033039227 -0.14199139 0.019559536 1.3274278e-38
0.0016654246 -0.14309107 0.015627299 1.4753008e-38
0.00348543 -0.14309107 0.015627299 1.2819778e-38
0.0054551363 -0.14392884 0.012631569 1.2729747e-38
0.0072803944 -0.14392884 0.012631569 1.3192887e-38
0.0092667863 -0.1447715 0.0096184351 1.199471e-38
0.011264704 -0.14561899 0.0065878965 1.0428469e-38
0.013100561 -0.14561899 0.0065878965 1.0614308e-38
0.015347201 -0.14757483 -0.00040575489 7.6636915e-39
-0.049205475 -0.13535701 0.049577985 1.5567678e-38
-0.047444992 -0.13535701 0.049577985 1.5568046e-38
-0.045687132 -0.13451682 0.052563701 1.593718e-38
-0.043931887 -0.13451682 0.052563701 1.2157514e-38
-0.042176642 -0.13451682 0.052563701 1.2617766e-38
-0.004082758 -0.14294298 0.02262095 1.1789431e-38
-0.0024012476 -0.14211603 0.025559578 1.1054745e-38
-0.00059865415 -0.14211603 0.025559578 1.3915695e-38
0.0016654246 -0.14491107 0.015627299 1.5117485e-38
0.00348543 -0.14491107 0.015627299 1.2631451e-38
0.0054551363 -0.14575411 0.012631569 1.2635058e-38
0.0072803944 -0.14575411 0.012631569 1.1346126e-38
0.0092667863 -0.14660202 0.0096184351 1.061037e-38
0.011264704 -0.14745484 0.0065878965 1.0058272e-38
0.013100561 -0.14745484 0.0065878965 9.7805952e-39
0.015347201 -0.14942293 -0.00040575489 7.2902328e-39
-0.052726433 -0.13711749 0.049577985 1.2710653e-38
-0.050965954 -0.13711749 0.049577985 1.344751e-38
-0.049205475 -0.13711749 0.049577985 1.4091826e-38
-0.047444992 -0.13711749 0.049577985 1.4276586e-38
-0.045687132 -0.13627206 0.052563701 1.418474e-38
-0.043931887 -0.13627206 0.052563701 1.3447527e-38
-0.042176642 -0.13627206 0.052563701 1.2433008e-38
-0.004082758 -0.14475073 0.02262095 1.2249686e-38
-0.0024012476 -0.14391862 0.025559578 1.1237339e-38
-0.00059865415 -0.14391862 0.025559578 1.1701205e-38
0.0012039393 -0.14391862 0.025559578 1.1243478e-38
0.0030065291 -0.14391862 0.025559578 8.757447e-39
0.0054551363 -0.14757936 0.012631569 8.2997198e-39
0.0072803944 -0.14757936 0.012631569 6.3668598e-39
0.0092667863 -0.14843257 0.0096184351 7.0136796e-39
0.011264704 -0.14929073 0.0065878965 8.4891628e-39
0.013100561 -0.14929073 0.0065878965 6.6437956e-39
-0.052726433 -0.13887797 0.049577985 1.2433713e-38
-0.050965954 -0.13887797 0.049577985 1.2157126e-38
-0.049205475 -0.13887797 0.049577985 1.2433361e-38
-0.047444992 -0.13887797 0.049577985 1.2986182e-38
-0.045687132 -0.1380273 0.052563701 1.363227e-38
-0.043931887 -0.1380273 0.052563701 1.4370188e-38
-0.042163555 -0.13887797 0.049577985 1.298725e-38
-0.004082758 -0.14655848 0.02262095 1.2526276e-38
-0.0024012476 -0.14572121 0.025559578 1.1882714e-38
-0.00059865415 -0.14572121 0.025559578 1.1239874e-38
0.0012039393 -0.14572121 0.025559578 1.0321167e-38
0.0030065291 -0.14572121 0.025559578 8.111723e-39
0.0054551363 -0.14940463 0.012631569 8.2993653e-39
0.0072803944 -0.14940463 0.012631569 6.6423733e-39
-0.054510612 -0.14149947 0.046574507 1.335568e-38
-0.052744865 -0.14149947 0.046574507 1.2710303e-38
-0.050979119 -0.14149947 0.046574507 1.1788341e-38
-0.049213372 -0.14149947 0.046574507 1.21564e-38
-0.047450185 -0.14233668 0.043653999 1.2893965e-38
-0.045679323 -0.14233668 0.043653999 1.418543e-38
-0.043924034 -0.14063846 0.049577985 1.5108102e-38
-0.042163555 -0.14063846 0.049577985 1.4094305e-38
-0.004082758 -0.14836623 0.02262095 1.2711393e-38
-0.0024012476 -0.14752381 0.025559578 1.1238069e-38
-0.00059865415 -0.14752381 0.025559578 1.0594869e-38
0.0013404749 -0.14836623 0.02262095 9.3066621e-39
0.0031482205 -0.14836623 0.02262095 6.5440442e-39
-0.059768353 -0.14239894 0.049577985 1.3174893e-38
-0.058007874 -0.14239894 0.049577985 1.3082333e-38
-0.056247395 -0.14239894 0.049577985 1.3265643e-38
-0.054486915 -0.14239894 0.049577985 1.3356757e-38
-0.052726433 -0.14239894 0.049577985 1.2710663e-38
-0.050965954 -0.14239894 0.049577985 1.1880536e-38
-0.049205475 -0.14239894 0.049577985 1.2064559e-38
-0.047444992 -0.14239894 0.049577985 1.2894314e-38
-0.045679323 -0.14410757 0.043653999 1.3448214e-38
-0.04390046 -0.14498411 0.040614877 1.5292842e-38
