# .PCD v0.7 - Point Cloud Data file format
VERSION 0.7
FIELDS x y z rgb
SIZE 4 4 4 4
TYPE F F F F
COUNT 1 1 1 1
WIDTH 934
HEIGHT 1
VIEWPOINT 0 0 0 1 0 0 0
POINTS 934
DATA ascii
0.040860306 -0.097675636 -0.0028524287 2.3233634e-38
0.042708423 -0.097675636 -0.0028524287 2.2587915e-38
0.045052852 -0.099763289 -0.011838663 2.157269e-38
0.047147129 -0.10070263 -0.015882004 2.3046022e-38
0.049018089 -0.10070263 -0.015882004 1.9174162e-38
0.051494811 -0.10302909 -0.02589618 1.7975616e-38
0.053383332 -0.10302909 -0.02589618 1.8068888e-38
0.055463519 -0.10372485 -0.028891075 1.6871062e-38
0.057357293 -0.10372485 -0.028891075 1.9084833e-38
0.059251066 -0.10372485 -0.028891075 1.963801e-38
-0.037417717 -0.1065412 -0.032832611 2.3418035e-38
-0.035437558 -0.10561861 -0.028891075 2.2313111e-38
-0.033543788 -0.10561861 -0.028891075 2.295848e-38
-0.031650014 -0.10561861 -0.028891075 2.341804e-38
-0.029756239 -0.10561861 -0.028891075 2.3418047e-38
-0.027862465 -0.10561861 -0.028891075 2.3509883e-38
-0.025934564 -0.1049176 -0.02589618 2.3509876e-38
-0.024046041 -0.1049176 -0.02589618 2.3509863e-38
-0.022125918 -0.10398008 -0.021890868 2.2957401e-38
-0.02024442 -0.10398008 -0.021890868 2.3509867e-38
-0.018349467 -0.1032616 -0.018821348 2.3509863e-38
-0.016473349 -0.1032616 -0.018821348 2.3418009e-38
-0.014594655 -0.10257359 -0.015882004 2.3050662e-38
-0.012723692 -0.10257359 -0.015882004 2.2958843e-38
-0.010852728 -0.10257359 -0.015882004 2.2775179e-38
-0.0089994892 -0.10162716 -0.011838663 2.2867013e-38
-0.0071356152 -0.10162716 -0.011838663 2.2958846e-38
-0.0052717417 -0.10162716 -0.011838663 2.3234353e-38
-0.0034369179 -0.10092205 -0.0088262446 2.3325829e-38
-0.0016124626 -0.10022092 -0.0058308728 2.350986e-38
0.00024087774 -0.10022092 -0.0058308728 2.3509499e-38
0.0020498293 -0.099523753 -0.0028524287 2.3509139e-38
0.0038979477 -0.099523753 -0.0028524287 2.3509496e-38
0.0057460642 -0.099523753 -0.0028524287 2.34173e-38
0.0075124293 -0.098574698 0.0012021177 2.314179e-38
0.0093534403 -0.098574698 0.0012021177 2.3050313e-38
0.011124879 -0.097886756 0.0041412227 2.2958833e-38
0.012883689 -0.097177386 0.0071717612 2.2866999e-38
0.014714232 -0.097177386 0.0071717612 2.3142513e-38
0.016544774 -0.097177386 0.0071717612 2.3508428e-38
0.018282862 -0.096472099 0.010184895 2.3508434e-38
0.020108124 -0.096472099 0.010184895 2.3507712e-38
0.021933382 -0.096472099 0.010184895 2.3508068e-38
0.023758641 -0.096472099 0.010184895 2.3508783e-38
0.025583899 -0.096472099 0.010184895 2.3509856e-38
0.027409161 -0.096472099 0.010184895 2.3509848e-38
0.029234419 -0.096472099 0.010184895 2.3509837e-38
0.031059677 -0.096472099 0.010184895 2.3325798e-38
0.033019654 -0.097177386 0.0071717612 1.9545775e-38
0.034991004 -0.097886756 0.0041412227 1.8624181e-38
0.03716407 -0.099523753 -0.0028524287 2.1390055e-38
0.03901219 -0.099523753 -0.0028524287 2.3325458e-38
0.040860306 -0.099523753 -0.0028524287 2.3509497e-38
0.042708423 -0.099523753 -0.0028524287 2.3509869e-38
0.045052852 -0.10162716 -0.011838663 2.3509876e-38
0.047147129 -0.10257359 -0.015882004 2.3508802e-38
0.049018089 -0.10257359 -0.015882004 1.8988333e-38
0.053815078 -0.1065412 -0.032832611 2.3509507e-38
0.055715766 -0.1065412 -0.032832611 2.313892e-38
0.057616446 -0.1065412 -0.032832611 2.350986e-38
-0.037331332 -0.1075124 -0.028891075 2.2865221e-38
-0.035437558 -0.1075124 -0.028891075 2.305068e-38
-0.033543788 -0.1075124 -0.028891075 2.3418031e-38
-0.031600129 -0.10680611 -0.02589618 2.3234372e-38
-0.029711606 -0.10680611 -0.02589618 2.2220586e-38
-0.027823085 -0.10680611 -0.02589618 2.3142538e-38
-0.025934564 -0.10680611 -0.02589618 2.3050694e-38
-0.024046041 -0.10680611 -0.02589618 2.2406741e-38
-0.022125918 -0.10586159 -0.021890868 2.2683326e-38
-0.02024442 -0.10586159 -0.021890868 2.3418031e-38
-0.018349467 -0.10513772 -0.018821348 2.3418031e-38
-0.016465619 -0.10444455 -0.015882004 2.3234341e-38
-0.014591111 -0.10349102 -0.011838663 2.3234347e-38
-0.012727236 -0.10349102 -0.011838663 2.3326199e-38
-0.010863362 -0.10349102 -0.011838663 2.3325492e-38
-0.0089994892 -0.10349102 -0.011838663 2.3509523e-38
-0.007154102 -0.10278064 -0.0088262446 2.3509521e-38
-0.0052955099 -0.10278064 -0.0088262446 2.350952e-38
-0.0034658029 -0.10207425 -0.0058308728 2.3509161e-38
-0.0016124626 -0.10207425 -0.0058308728 2.3509517e-38
0.00020171097 -0.10137187 -0.0028524287 2.3509517e-38
0.0020498293 -0.10137187 -0.0028524287 2.3509517e-38
0.0038304119 -0.10041572 0.0012021177 2.3509872e-38
0.0056714206 -0.10041572 0.0012021177 2.3326201e-38
0.0074531673 -0.099722609 0.0041412227 2.2958854e-38
0.0092890244 -0.099722609 0.0041412227 2.2775183e-38
0.011053147 -0.099007934 0.0071717612 2.2499676e-38
0.012883689 -0.099007934 0.0071717612 2.2224169e-38
0.014632344 -0.098297372 0.010184895 2.2591514e-38
0.016457604 -0.098297372 0.010184895 2.3325127e-38
0.018282862 -0.098297372 0.010184895 2.3508439e-38
0.020108124 -0.098297372 0.010184895 2.3508077e-38
0.021933382 -0.098297372 0.010184895 2.3416237e-38
0.023650965 -0.097590908 0.013180625 2.3509504e-38
0.02547097 -0.097590908 0.013180625 2.3509859e-38
0.027290979 -0.097590908 0.013180625 2.3417291e-38
0.029234419 -0.098297372 0.010184895 2.2496046e-38
0.031059677 -0.098297372 0.010184895 2.3141767e-38
0.032750998 -0.097590908 0.013180625 1.9177355e-38
0.034571003 -0.097590908 0.013180625 1.7702227e-38
0.03716407 -0.10137187 -0.0028524287 2.009896e-38
0.038360715 -0.098297372 0.010184895 2.2404225e-38
0.040185973 -0.098297372 0.010184895 2.3418025e-38
0.042708423 -0.10137187 -0.0028524287 2.3509873e-38
-0.039318398 -0.11034258 -0.032832611 1.1431508e-38
-0.037331332 -0.10940616 -0.028891075 2.2956326e-38
-0.035437558 -0.10940616 -0.028891075 2.3509853e-38
-0.03348865 -0.10869466 -0.02589618 2.2683328e-38
-0.031600129 -0.10869466 -0.02589618 2.2682985e-38
-0.029711606 -0.10869466 -0.02589618 2.295886e-38
-0.027823085 -0.10869466 -0.02589618 2.286702e-38
-0.025934564 -0.10869466 -0.02589618 2.2407826e-38
-0.024007415 -0.10774307 -0.021890868 2.1948267e-38
-0.022101698 -0.10701384 -0.018821348 2.2683319e-38
-0.020225583 -0.10701384 -0.018821348 2.295884e-38
-0.018336581 -0.10631551 -0.015882004 2.2315982e-38
-0.016454985 -0.10535492 -0.011838663 2.1855712e-38
-0.014591111 -0.10535492 -0.011838663 2.3142509e-38
-0.012727236 -0.10535492 -0.011838663 2.3325846e-38
-0.010871286 -0.10463922 -0.0088262446 2.3509168e-38
-0.0090126935 -0.10463922 -0.0088262446 2.3509168e-38
-0.007154102 -0.10463922 -0.0088262446 2.3509527e-38
-0.0053191432 -0.1039276 -0.0058308728 2.3509168e-38
-0.0034658029 -0.1039276 -0.0058308728 2.3508807e-38
-0.0016464065 -0.10322 -0.0028524287 2.3509163e-38
0.00020171097 -0.10322 -0.0028524287 2.3509161e-38
0.0019894033 -0.10225673 0.0012021177 2.3508801e-38
0.003781456 -0.10155846 0.0041412227 2.350952e-38
0.0056173126 -0.10155846 0.0041412227 2.3418045e-38
0.0074531673 -0.10155846 0.0041412227 2.2958867e-38
0.0092890244 -0.10155846 0.0041412227 2.2775196e-38
0.011053147 -0.10083848 0.0071717612 2.2591528e-38
0.012807086 -0.10012263 0.010184895 2.2316021e-38
0.014632344 -0.10012263 0.010184895 2.2775199e-38
0.016370937 -0.099410906 0.013180625 2.341805e-38
0.018190945 -0.099410906 0.013180625 2.3509527e-38
0.02001095 -0.099410906 0.013180625 2.3509164e-38
0.021830959 -0.099410906 0.013180625 2.3508798e-38
0.023650965 -0.099410906 0.013180625 2.3509873e-38
0.025322737 -0.098476708 0.017112862 2.3509865e-38
0.027135851 -0.098476708 0.017112862 2.2587896e-38
0.029110985 -0.099410906 0.013180625 2.1206032e-38
0.03093099 -0.099410906 0.013180625 2.1021272e-38
0.032750998 -0.099410906 0.013180625 2.1021272e-38
0.034571003 -0.099410906 0.013180625 2.092872e-38
0.038360715 -0.10012263 0.010184895 1.9085186e-38
0.040185973 -0.10012263 0.010184895 1.963801e-38
-0.039225101 -0.11129995 -0.028891075 1.2813339e-38
-0.037265696 -0.11058317 -0.02589618 2.3416561e-38
-0.035377171 -0.11058317 -0.02589618 2.3509831e-38
-0.03348865 -0.11058317 -0.02589618 2.286698e-38
-0.031600129 -0.11058317 -0.02589618 2.2131943e-38
-0.029651916 -0.10962458 -0.021890868 2.2775167e-38
-0.027770413 -0.10962458 -0.021890868 2.2407819e-38
-0.025888914 -0.10962458 -0.021890868 2.1305769e-38
-0.023977816 -0.10888995 -0.018821348 2.1122077e-38
-0.022101698 -0.10888995 -0.018821348 2.185677e-38
-0.020182732 -0.10721879 -0.011838663 2.2315967e-38
-0.018318858 -0.10721879 -0.011838663 2.1764945e-38
-0.016454985 -0.10721879 -0.011838663 2.1581258e-38
-0.014591111 -0.10721879 -0.011838663 2.2132289e-38
-0.012729878 -0.10649781 -0.0088262446 2.3142527e-38
-0.010871286 -0.10649781 -0.0088262446 2.341805e-38
-0.0090126935 -0.10649781 -0.0088262446 2.3417687e-38
-0.0071724835 -0.10578094 -0.0058308728 2.3418043e-38
-0.0053191432 -0.10578094 -0.0058308728 2.3417324e-38
-0.0034658029 -0.10578094 -0.0058308728 2.3325127e-38
-0.0016464065 -0.1050681 -0.0028524287 2.3509518e-38
0.00014839368 -0.10409774 0.0012021177 2.3509879e-38
0.0019456004 -0.10339431 0.0041412227 2.3417323e-38
0.003781456 -0.10339431 0.0041412227 2.350988e-38
0.0056173126 -0.10339431 0.0041412227 2.3418047e-38
0.0074531673 -0.10339431 0.0041412227 2.3234379e-38
0.0092226043 -0.10266902 0.0071717612 2.2867037e-38
0.010981826 -0.10194789 0.010184895 2.2683366e-38
0.012730924 -0.10123092 0.013180625 2.2775202e-38
0.01455093 -0.10123092 0.013180625 2.2958873e-38
0.016370937 -0.10123092 0.013180625 2.341805e-38
0.018190945 -0.10123092 0.013180625 2.3509527e-38
0.02001095 -0.10123092 0.013180625 2.3325138e-38
0.021696514 -0.10028981 0.017112862 2.341769e-38
0.023509627 -0.10028981 0.017112862 2.350988e-38
0.025207335 -0.099557132 0.020174276 2.3234004e-38
0.027015077 -0.099557132 0.020174276 2.3509866e-38
0.028701743 -0.098853827 0.023112904 1.9362491e-38
0.030504333 -0.098853827 0.023112904 1.5489906e-38
0.032750998 -0.10123092 0.013180625 2.2773358e-38
-0.039225101 -0.11319371 -0.028891075 1.4655784e-38
-0.037265696 -0.11247168 -0.02589618 2.3509806e-38
-0.035377171 -0.11247168 -0.02589618 2.3142453e-38
-0.03348865 -0.11247168 -0.02589618 2.2132256e-38
-0.031533413 -0.11150609 -0.021890868 2.1212112e-38
-0.029651916 -0.11150609 -0.021890868 2.1581265e-38
-0.027770413 -0.11150609 -0.021890868 2.0385954e-38
-0.025853934 -0.11076607 -0.018821348 1.955834e-38
-0.023977816 -0.11076607 -0.018821348 1.9835626e-38
-0.022078509 -0.11005743 -0.015882004 2.0387362e-38
-0.020182732 -0.10908265 -0.011838663 1.9927473e-38
-0.018318858 -0.10908265 -0.011838663 1.9281025e-38
-0.016454985 -0.10908265 -0.011838663 1.9834183e-38
-0.01458847 -0.1083564 -0.0088262446 2.1213902e-38
-0.012729878 -0.1083564 -0.0088262446 2.2224145e-38
-0.010871286 -0.1083564 -0.0088262446 2.2683347e-38
-0.0090258233 -0.10763429 -0.0058308728 2.2958857e-38
-0.0071724835 -0.10763429 -0.0058308728 2.3142527e-38
-0.0053191432 -0.10763429 -0.0058308728 2.3142524e-38
-0.0034945249 -0.10691623 -0.0028524287 2.2958846e-38
-0.0016464065 -0.10691623 -0.0028524287 2.2958484e-38
0.00014839368 -0.10593875 0.0012021177 2.3049964e-38
0.0019456004 -0.10523017 0.0041412227 2.3234355e-38
0.0037309784 -0.10449956 0.0071717612 2.3418032e-38
0.0055060475 -0.10377313 0.010184895 2.3509873e-38
0.0073313075 -0.10377313 0.010184895 2.3509879e-38
0.0091565661 -0.10377313 0.010184895 2.3417687e-38
0.010981826 -0.10377313 0.010184895 2.3509886e-38
0.012730924 -0.10305093 0.013180625 2.3509886e-38
0.01455093 -0.10305093 0.013180625 2.3509527e-38
0.016257178 -0.10210292 0.017112862 2.341805e-38
0.01807029 -0.10210292 0.017112862 2.2496821e-38
0.019883404 -0.10210292 0.017112862 2.3234379e-38
0.021696514 -0.10210292 0.017112862 2.3233662e-38
0.023293966 -0.10065642 0.023112904 2.3234015e-38
0.025096556 -0.10065642 0.023112904 2.2865587e-38
0.02689915 -0.10065642 0.023112904 2.304961e-38
0.028701743 -0.10065642 0.023112904 2.1574831e-38
0.030504333 -0.10065642 0.023112904 2.2036161e-38
-0.039225101 -0.11508749 -0.028891075 1.6223079e-38
-0.037265696 -0.1143602 -0.02589618 2.3048432e-38
-0.035377171 -0.1143602 -0.02589618 2.1946387e-38
-0.03348865 -0.1143602 -0.02589618 2.1304254e-38
-0.031533413 -0.11338757 -0.021890868 2.0201161e-38
-0.029651916 -0.11338757 -0.021890868 1.9741992e-38
-0.02773005 -0.11264218 -0.018821348 1.9559758e-38
-0.025853934 -0.11264218 -0.018821348 1.8085703e-38
-0.023949472 -0.11192839 -0.015882004 1.7718341e-38
-0.022046605 -0.11094652 -0.011838663 1.8732491e-38
-0.020182732 -0.11094652 -0.011838663 1.8823617e-38
-0.018318858 -0.11094652 -0.011838663 1.8085329e-38
-0.016447062 -0.11021499 -0.0088262446 1.8085668e-38
-0.01458847 -0.11021499 -0.0088262446 1.9190235e-38
-0.012732504 -0.10948761 -0.0058308728 2.2040455e-38
-0.010879163 -0.10948761 -0.0058308728 2.2315986e-38
-0.0090258233 -0.10948761 -0.0058308728 2.2315985e-38
-0.0071907607 -0.10876434 -0.0028524287 2.2499653e-38
-0.0053426432 -0.10876434 -0.0028524287 2.2591486e-38
-0.0034945249 -0.10876434 -0.0028524287 2.268332e-38
-0.0016464065 -0.10876434 -0.0028524287 2.2683319e-38
0.00010974472 -0.10706602 0.0041412227 2.2958825e-38
0.001900435 -0.10633011 0.0071717612 2.3326171e-38
0.0036807894 -0.10559841 0.010184895 2.3418011e-38
0.0055060475 -0.10559841 0.010184895 2.3509851e-38
0.0073313075 -0.10559841 0.010184895 2.3508777e-38
0.0091565661 -0.10559841 0.010184895 2.3508063e-38
0.010910917 -0.10487093 0.013180625 2.3507711e-38
0.012630954 -0.10391603 0.017112862 2.3508078e-38
0.014444066 -0.10391603 0.017112862 2.3509158e-38
0.016168611 -0.10317262 0.020174276 2.350988e-38
0.017976357 -0.10317262 0.020174276 2.2036911e-38
0.019784098 -0.10317262 0.020174276 2.3142541e-38
0.021491373 -0.10245901 0.023112904 2.2866311e-38
0.023185207 -0.10172421 0.026138794 2.3234374e-38
0.024982492 -0.10172421 0.026138794 2.341804e-38
0.026779776 -0.10172421 0.026138794 2.3141804e-38
0.028577065 -0.10172421 0.026138794 2.2681179e-38
0.03037435 -0.10172421 0.026138794 2.2957398e-38
-0.041219085 -0.11794533 -0.032832611 1.3179162e-38
-0.039225101 -0.11698125 -0.028891075 1.6592566e-38
-0.037265696 -0.11624874 -0.02589618 2.1298498e-38
-0.035377171 -0.11624874 -0.02589618 2.1025487e-38
-0.03348865 -0.11624874 -0.02589618 2.1213837e-38
-0.031533413 -0.11526908 -0.021890868 2.0662841e-38
-0.029606169 -0.1145183 -0.018821348 1.9098765e-38
-0.02773005 -0.1145183 -0.018821348 1.7625438e-38
-0.025853934 -0.1145183 -0.018821348 1.6612361e-38
-0.02391048 -0.11281042 -0.011838663 1.698149e-38
-0.022046605 -0.11281042 -0.011838663 1.8733561e-38
-0.020164246 -0.11207359 -0.0088262446 1.9560816e-38
-0.018305654 -0.11207359 -0.0088262446 1.8824675e-38
-0.016447062 -0.11207359 -0.0088262446 1.9100521e-38
-0.014585843 -0.11134095 -0.0058308728 2.0111815e-38
-0.012732504 -0.11134095 -0.0058308728 2.2224107e-38
-0.010886997 -0.11061247 -0.0028524287 2.2224133e-38
-0.0090388786 -0.11061247 -0.0028524287 2.1948619e-38
-0.0071907607 -0.11061247 -0.0028524287 2.1213918e-38
-0.0053426432 -0.11061247 -0.0028524287 2.0752939e-38
-0.0034945249 -0.11061247 -0.0028524287 2.084549e-38
-0.0016464065 -0.11061247 -0.0028524287 2.1213554e-38
0.00010974472 -0.10890187 0.0041412227 2.1581258e-38
0.001900435 -0.10816063 0.0071717612 2.2958811e-38
0.0036807894 -0.10742365 0.010184895 2.3234322e-38
0.0054508965 -0.10669093 0.013180625 2.3417995e-38
0.0072709038 -0.10669093 0.013180625 2.3417637e-38
0.0090909097 -0.10669093 0.013180625 2.3507684e-38
0.010910917 -0.10669093 0.013180625 2.3507331e-38
0.012630954 -0.10572915 0.017112862 2.3507337e-38
0.014444066 -0.10572915 0.017112862 2.350878e-38
0.016168611 -0.10498036 0.020174276 2.3509863e-38
0.017976357 -0.10498036 0.020174276 2.268334e-38
0.019784098 -0.10498036 0.020174276 2.3142527e-38
0.021491373 -0.10426159 0.023112904 2.212945e-38
0.023185207 -0.10352151 0.026138794 2.3234362e-38
0.024982492 -0.10352151 0.026138794 2.3418031e-38
0.026779776 -0.10352151 0.026138794 2.350986e-38
0.028577065 -0.10352151 0.026138794 2.3141069e-38
0.03037435 -0.10352151 0.026138794 2.3509849e-38
-0.043119766 -0.119846 -0.032832611 9.1218518e-39
-0.041118875 -0.11887501 -0.028891075 1.3088053e-38
-0.039225101 -0.11887501 -0.028891075 1.6224866e-38
-0.037265696 -0.11813726 -0.02589618 1.9548216e-38
-0.035377171 -0.11813726 -0.02589618 2.0105324e-38
-0.033414911 -0.11715056 -0.021890868 2.0846485e-38
-0.031533413 -0.11715056 -0.021890868 2.0203655e-38
-0.029606169 -0.11639442 -0.018821348 1.7902017e-38
-0.0276914 -0.11567034 -0.015882004 1.6427619e-38
-0.025820432 -0.11567034 -0.015882004 1.6059557e-38
-0.02391048 -0.11467429 -0.011838663 1.7165533e-38
-0.022046605 -0.11467429 -0.011838663 1.8732493e-38
-0.020164246 -0.11393218 -0.0088262446 1.8916169e-38
-0.018292524 -0.1131943 -0.0058308728 1.8085315e-38
-0.016439185 -0.1131943 -0.0058308728 1.7992731e-38
-0.014585843 -0.1131943 -0.0058308728 1.9004376e-38
-0.012735115 -0.11246057 -0.0028524287 2.1763828e-38
-0.010886997 -0.11246057 -0.0028524287 2.2038283e-38
-0.0090388786 -0.11246057 -0.0028524287 2.1578381e-38
-0.0071907607 -0.11246057 -0.0028524287 2.0842608e-38
-0.0053426432 -0.11246057 -0.0028524287 2.0660009e-38
-0.0034945249 -0.11246057 -0.0028524287 2.1122063e-38
-0.001692615 -0.11146177 0.0012021177 2.1489409e-38
6.9893431e-05 -0.10999118 0.0071717612 2.1397575e-38
0.0018555294 -0.10924892 0.010184895 2.231594e-38
0.0036308891 -0.10851096 0.013180625 2.2315943e-38
0.0054508965 -0.10851096 0.013180625 2.2407778e-38
0.0072709038 -0.10851096 0.013180625 2.2683289e-38
0.0090909097 -0.10851096 0.013180625 2.3141755e-38
0.010817841 -0.10754226 0.017112862 2.3509465e-38
0.012630954 -0.10754226 0.017112862 2.3509474e-38
0.014360867 -0.10678811 0.020174276 2.3509837e-38
0.016168611 -0.10678811 0.020174276 2.2958817e-38
0.01788619 -0.10606419 0.023112904 2.2683311e-38
0.019688779 -0.10606419 0.023112904 2.2591479e-38
0.021491373 -0.10606419 0.023112904 2.31425e-38
0.023185207 -0.1053188 0.026138794 2.3509848e-38
0.024982492 -0.1053188 0.026138794 2.2588966e-38
0.026779776 -0.1053188 0.026138794 2.3509846e-38
0.028577065 -0.1053188 0.026138794 2.3509844e-38
-0.043119766 -0.12174667 -0.032832611 9.1222232e-39
-0.041118875 -0.1207688 -0.028891075 1.3181345e-38
-0.039225101 -0.1207688 -0.028891075 1.5673505e-38
-0.037265696 -0.12002577 -0.02589618 1.7705391e-38
-0.03529641 -0.11903207 -0.021890868 1.7986987e-38
-0.033414911 -0.11903207 -0.021890868 1.7990942e-38
-0.031482287 -0.11827053 -0.018821348 1.7255557e-38
-0.02956236 -0.1175413 -0.015882004 1.5136878e-38
-0.0276914 -0.1175413 -0.015882004 1.5136896e-38
-0.025820432 -0.1175413 -0.015882004 1.4122748e-38
-0.02391048 -0.11653815 -0.011838663 1.4122018e-38
-0.022022838 -0.11579077 -0.0088262446 1.5688618e-38
-0.020145865 -0.11504765 -0.0058308728 1.7346342e-38
-0.018279469 -0.1143087 -0.0028524287 1.7437799e-38
-0.01643135 -0.1143087 -0.0028524287 1.6239222e-38
-0.014583232 -0.1143087 -0.0028524287 1.5589185e-38
-0.012735115 -0.1143087 -0.0028524287 1.5580607e-38
-0.010886997 -0.1143087 -0.0028524287 1.6591187e-38
-0.009056652 -0.11330278 0.0012021177 1.6961762e-38
-0.0072156419 -0.11330278 0.0012021177 1.7149745e-38
-0.0053746332 -0.11330278 0.0012021177 1.8166768e-38
-0.0035336246 -0.11330278 0.0012021177 1.9276707e-38
-0.001692615 -0.11330278 0.0012021177 1.9648001e-38
6.9893431e-05 -0.11182173 0.0071717612 1.9281013e-38
0.0018555294 -0.11107419 0.010184895 1.9926743e-38
0.0036308891 -0.11033095 0.013180625 2.0018223e-38
0.0053785047 -0.10935538 0.017112862 2.0201901e-38
0.0071916166 -0.10935538 0.017112862 2.0936593e-38
0.0090047289 -0.10935538 0.017112862 2.1856038e-38
0.010817841 -0.10935538 0.017112862 2.2499614e-38
0.012553122 -0.10859586 0.020174276 2.2958801e-38
0.014360867 -0.10859586 0.020174276 2.3050635e-38
0.016083596 -0.10786678 0.023112904 2.3050632e-38
0.01788619 -0.10786678 0.023112904 2.3050634e-38
0.019590633 -0.10711606 0.026138794 2.2683288e-38
0.021387918 -0.10711606 0.026138794 2.2958803e-38
0.023185207 -0.10711606 0.026138794 1.9824154e-38
0.02486909 -0.10636975 0.02914704 1.198573e-38
0.026661104 -0.10636975 0.02914704 1.2077206e-38
0.028577065 -0.10711606 0.026138794 1.3920037e-38
0.03037435 -0.10711606 0.026138794 1.4840549e-38
-0.043012649 -0.12266256 -0.028891075 9.2151573e-39
-0.041042738 -0.12191428 -0.02589618 1.3274289e-38
-0.039154217 -0.12191428 -0.02589618 1.5673886e-38
-0.037177909 -0.12091358 -0.021890868 1.6323196e-38
-0.03529641 -0.12091358 -0.021890868 1.5867225e-38
-0.033358403 -0.12014665 -0.018821348 1.5041417e-38
-0.031482287 -0.12014665 -0.018821348 1.568897e-38
-0.02956236 -0.11941226 -0.015882004 1.5321289e-38
-0.0276914 -0.11941226 -0.015882004 1.5505342e-38
-0.025774354 -0.11840202 -0.011838663 1.4766708e-38
-0.02391048 -0.11840202 -0.011838663 1.4212444e-38
-0.022022838 -0.11764936 -0.0088262446 1.5041119e-38
-0.020145865 -0.11690097 -0.0058308728 1.6975066e-38
-0.018279469 -0.1161568 -0.0028524287 1.8172152e-38
-0.01643135 -0.1161568 -0.0028524287 1.7250156e-38
-0.014583232 -0.1161568 -0.0028524287 1.6598679e-38
-0.012738669 -0.11514379 0.0012021177 1.5571627e-38
-0.010897661 -0.11514379 0.0012021177 1.6765516e-38
-0.009056652 -0.11514379 0.0012021177 1.6860943e-38
-0.0072156419 -0.11514379 0.0012021177 1.7418427e-38
-0.0053746332 -0.11514379 0.0012021177 1.8807108e-38
-0.0035336246 -0.11514379 0.0012021177 2.0471296e-38
-0.0017261109 -0.11440946 0.0041412227 2.0660358e-38
6.9893431e-05 -0.11365227 0.0071717612 1.9834547e-38
0.0018555294 -0.11289944 0.010184895 1.8822914e-38
0.0036308891 -0.11215095 0.013180625 1.8731437e-38
0.0053785047 -0.11116849 0.017112862 1.9008027e-38
0.0071916166 -0.11116849 0.017112862 1.9467933e-38
0.0090047289 -0.11116849 0.017112862 2.0203704e-38
0.010745378 -0.11040358 0.020174276 2.0754727e-38
0.012553122 -0.11040358 0.020174276 2.0754368e-38
0.014360867 -0.11040358 0.020174276 2.1120987e-38
0.016083596 -0.10966937 0.023112904 2.0750749e-38
0.01788619 -0.10966937 0.023112904 2.1762738e-38
0.019590633 -0.10891335 0.026138794 2.2958773e-38
0.021387918 -0.10891335 0.026138794 2.2221572e-38
0.023185207 -0.10891335 0.026138794 1.8901815e-38
0.02486909 -0.10816176 0.02914704 1.1984992e-38
0.026661104 -0.10816176 0.02914704 1.207575e-38
0.028577065 -0.10891335 0.026138794 1.5946526e-38
0.03037435 -0.10891335 0.026138794 1.5207876e-38
-0.043012649 -0.12455635 -0.028891075 9.1233302e-39
-0.041042738 -0.12380283 -0.02589618 1.327394e-38
-0.039154217 -0.12380283 -0.02589618 1.576538e-38
-0.037177909 -0.12279506 -0.021890868 1.5861513e-38
-0.03529641 -0.12279506 -0.021890868 1.531298e-38
-0.033358403 -0.12202276 -0.018821348 1.4947075e-38
-0.031482287 -0.12202276 -0.018821348 1.7714054e-38
-0.02956236 -0.12128322 -0.015882004 1.9557997e-38
-0.027638229 -0.12026589 -0.011838663 2.1397627e-38
-0.025774354 -0.12026589 -0.011838663 2.185682e-38
-0.02388143 -0.11950795 -0.0088262446 2.2040477e-38
-0.021999205 -0.11875431 -0.0058308728 1.9554774e-38
-0.020145865 -0.11875431 -0.0058308728 1.7340284e-38
-0.018279469 -0.11800493 -0.0028524287 1.6694529e-38
-0.01643135 -0.11800493 -0.0028524287 1.6879956e-38
-0.014583232 -0.11800493 -0.0028524287 1.7980185e-38
-0.012738669 -0.1169848 0.0012021177 1.9718272e-38
-0.010897661 -0.1169848 0.0012021177 2.0266792e-38
-0.009056652 -0.1169848 0.0012021177 1.9532108e-38
-0.0072156419 -0.1169848 0.0012021177 1.9260546e-38
-0.0053978232 -0.11624531 0.0041412227 2.0464109e-38
-0.0035619675 -0.11624531 0.0041412227 2.1852791e-38
-0.0017261109 -0.11624531 0.0041412227 2.2040424e-38
6.9893431e-05 -0.11548282 0.0071717612 2.1030228e-38
0.0018555294 -0.11472471 0.010184895 2.0387368e-38
0.0036308891 -0.11397095 0.013180625 2.0020022e-38
0.0053785047 -0.1129816 0.017112862 1.9928191e-38
0.0071916166 -0.1129816 0.017112862 2.0020033e-38
0.0090047289 -0.1129816 0.017112862 2.0295548e-38
0.010745378 -0.11221133 0.020174276 2.0111877e-38
0.012553122 -0.11221133 0.020174276 1.9927484e-38
0.014360867 -0.11221133 0.020174276 1.9834198e-38
0.016083596 -0.11147197 0.023112904 2.0568861e-38
0.01788619 -0.11147197 0.023112904 2.1028033e-38
0.019590633 -0.11071064 0.026138794 2.2224067e-38
0.021285066 -0.10995375 0.02914704 1.8257862e-38
0.02307708 -0.10995375 0.02914704 1.6503636e-38
0.02486909 -0.10995375 0.02914704 1.4749408e-38
0.026661104 -0.10995375 0.02914704 1.585396e-38
0.028577065 -0.11071064 0.026138794 2.0738889e-38
-0.042931259 -0.12569134 -0.02589618 9.7679822e-39
-0.041042738 -0.12569134 -0.02589618 1.3549088e-38
-0.039059408 -0.12467657 -0.021890868 1.447321e-38
-0.037177909 -0.12467657 -0.021890868 1.5213637e-38
-0.035234518 -0.12389888 -0.018821348 1.4572178e-38
-0.033358403 -0.12389888 -0.018821348 1.8261801e-38
-0.031482287 -0.12389888 -0.018821348 1.89065e-38
-0.02956236 -0.12315418 -0.015882004 2.2775164e-38
-0.027638229 -0.12212978 -0.011838663 2.2407127e-38
-0.025774354 -0.12212978 -0.011838663 2.295887e-38
-0.02388143 -0.12136655 -0.0088262446 2.2958853e-38
-0.021999205 -0.12060766 -0.0058308728 2.1854655e-38
-0.020145865 -0.12060766 -0.0058308728 2.0471369e-38
-0.018279469 -0.11985306 -0.0028524287 1.5862644e-38
-0.01643135 -0.11985306 -0.0028524287 1.5957662e-38
-0.014579678 -0.11882581 0.0012021177 1.5954045e-38
-0.012738669 -0.11882581 0.0012021177 1.815669e-38
-0.010897661 -0.11882581 0.0012021177 1.8981794e-38
-0.009069534 -0.11808117 0.0041412227 1.9536427e-38
-0.0072336788 -0.11808117 0.0041412227 1.898684e-38
-0.0054217339 -0.11731337 0.0071717612 1.8806734e-38
-0.0035911915 -0.11731337 0.0071717612 2.2589989e-38
-0.0017949888 -0.11654995 0.010184895 2.2683292e-38
3.0270312e-05 -0.11654995 0.010184895 2.3050648e-38
0.0018555294 -0.11654995 0.010184895 2.2958801e-38
0.0036308891 -0.11579098 0.013180625 2.1305013e-38
0.0054508965 -0.11579098 0.013180625 2.0567813e-38
0.0071916166 -0.11479472 0.017112862 2.1581255e-38
0.0090047289 -0.11479472 0.017112862 2.2132287e-38
0.010817841 -0.11479472 0.017112862 2.0846575e-38
0.012553122 -0.11401908 0.020174276 1.9835289e-38
0.014360867 -0.11401908 0.020174276 1.9743799e-38
0.016083596 -0.11327456 0.023112904 2.0111838e-38
0.01788619 -0.11327456 0.023112904 1.9742327e-38
0.019590633 -0.11250792 0.026138794 2.0936917e-38
0.021285066 -0.11174576 0.02914704 1.6231349e-38
0.02307708 -0.11174576 0.02914704 1.3921791e-38
0.02486909 -0.11174576 0.02914704 1.3641252e-38
0.026661104 -0.11174576 0.02914704 1.529754e-38
0.028701743 -0.11327456 0.023112904 1.8153809e-38
-0.042931259 -0.12757985 -0.02589618 8.6623521e-39
-0.041042738 -0.12757985 -0.02589618 1.3641278e-38
-0.039059408 -0.12655805 -0.021890868 1.5117504e-38
-0.037177909 -0.12655805 -0.021890868 1.5212203e-38
-0.035234518 -0.12577499 -0.018821348 1.5584894e-38
-0.033358403 -0.12577499 -0.018821348 2.1118074e-38
-0.031482287 -0.12577499 -0.018821348 2.194537e-38
-0.02956236 -0.12502514 -0.015882004 2.3418025e-38
-0.027638229 -0.12399365 -0.011838663 2.3509886e-38
-0.025774354 -0.12399365 -0.011838663 2.314075e-38
-0.02388143 -0.12322514 -0.0088262446 2.350987e-38
-0.021999205 -0.12246101 -0.0058308728 2.3418033e-38
-0.020127587 -0.12170117 -0.0028524287 2.2405696e-38
-0.018279469 -0.12170117 -0.0028524287 1.6322564e-38
-0.01643135 -0.12170117 -0.0028524287 1.4298156e-38
-0.014579678 -0.12066682 0.0012021177 1.4849864e-38
-0.012738669 -0.12066682 0.0012021177 1.5302935e-38
-0.010897661 -0.12066682 0.0012021177 1.6128753e-38
-0.009069534 -0.11991702 0.0041412227 1.5761428e-38
-0.0072336788 -0.11991702 0.0041412227 1.4750149e-38
-0.0054217339 -0.11914389 0.0071717612 1.5583119e-38
-0.0035911915 -0.11914389 0.0071717612 2.1301043e-38
-0.0017949888 -0.11837523 0.010184895 2.157766e-38
3.0270312e-05 -0.11837523 0.010184895 2.0655352e-38
0.0018108836 -0.11761098 0.013180625 2.0933363e-38
0.0036308891 -0.11761098 0.013180625 2.1947865e-38
0.0053785047 -0.11660783 0.017112862 2.2499611e-38
0.0071298885 -0.11582683 0.020174276 2.2315943e-38
0.0089376327 -0.11582683 0.020174276 2.1673099e-38
0.010745378 -0.11582683 0.020174276 2.0295551e-38
0.012478413 -0.11507715 0.023112904 1.7531473e-38
0.014281005 -0.11507715 0.023112904 1.4859223e-38
0.016083596 -0.11507715 0.023112904 1.5689322e-38
0.017793344 -0.11430521 0.026138794 1.873033e-38
0.019590633 -0.11430521 0.026138794 2.1030194e-38
0.021182818 -0.11277486 0.032137644 1.4572903e-38
0.022969587 -0.11277486 0.032137644 1.1340311e-38
0.02486909 -0.11353777 0.02914704 1.2626376e-38
0.026779776 -0.11430521 0.026138794 1.418975e-38
-0.042931259 -0.1294684 -0.02589618 9.1243994e-39
-0.041042738 -0.1294684 -0.02589618 1.3274642e-38
-0.039059408 -0.12843956 -0.021890868 1.4381731e-38
-0.037177909 -0.12843956 -0.021890868 1.4660827e-38
-0.035234518 -0.12765111 -0.018821348 1.5585984e-38
-0.033358403 -0.12765111 -0.018821348 2.1948566e-38
-0.031482287 -0.12765111 -0.018821348 2.2683303e-38
-0.02956236 -0.1268961 -0.015882004 2.3234357e-38
-0.027638229 -0.12585752 -0.011838663 2.3418047e-38
-0.025740022 -0.12508373 -0.0088262446 2.2219863e-38
-0.023852544 -0.12431435 -0.0058308728 2.3326191e-38
-0.021999205 -0.12431435 -0.0058308728 2.3234357e-38
-0.020127587 -0.1235493 -0.0028524287 2.295887e-38
-0.018279469 -0.1235493 -0.0028524287 1.8075001e-38
-0.01643135 -0.1235493 -0.0028524287 1.4114139e-38
-0.014579678 -0.12250783 0.0012021177 1.4666207e-38
-0.012738669 -0.12250783 0.0012021177 1.5398727e-38
-0.010905391 -0.12175287 0.0041412227 1.6410724e-38
-0.009069534 -0.12175287 0.0041412227 1.5398378e-38
-0.0072522764 -0.12097444 0.0071717612 1.3556622e-38
-0.0054217339 -0.12097444 0.0071717612 1.392755e-38
-0.0036202478 -0.12020047 0.010184895 1.9092302e-38
-0.0017949888 -0.12020047 0.010184895 1.9184509e-38
3.0270312e-05 -0.12020047 0.010184895 1.7156569e-38
0.0018108836 -0.11943097 0.013180625 1.651084e-38
0.0036308891 -0.11943097 0.013180625 1.9093032e-38
0.0053785047 -0.11842094 0.017112862 2.1305722e-38
0.0071298885 -0.11763458 0.020174276 2.176491e-38
0.0089376327 -0.11763458 0.020174276 2.1397578e-38
0.010745378 -0.11763458 0.020174276 1.9744521e-38
0.012478413 -0.11687975 0.023112904 1.66113e-38
0.014281005 -0.11687975 0.023112904 1.3570631e-38
0.015996058 -0.1161025 0.026138794 1.4583693e-38
0.017701043 -0.11532979 0.02914704 1.863814e-38
0.01939605 -0.11456163 0.032137644 2.1213871e-38
0.021081166 -0.11379795 0.035110723 1.3834982e-38
0.022862723 -0.11379795 0.035110723 1.0510553e-38
0.02464428 -0.11379795 0.035110723 1.1889534e-38
-0.042931259 -0.13135691 -0.02589618 1.041621e-38
-0.041042738 -0.13135691 -0.02589618 1.2538505e-38
-0.039059408 -0.13032107 -0.021890868 1.3091707e-38
-0.037177909 -0.13032107 -0.021890868 1.4293124e-38
-0.03529641 -0.13032107 -0.021890868 1.5678188e-38
-0.033358403 -0.12952723 -0.018821348 2.1764545e-38
-0.031482287 -0.12952723 -0.018821348 2.2315964e-38
-0.02956236 -0.12876706 -0.015882004 2.3142521e-38
-0.027638229 -0.12772138 -0.011838663 2.3142538e-38
-0.025740022 -0.12694232 -0.0088262446 2.249788e-38
-0.023852544 -0.12616767 -0.0058308728 2.323435e-38
-0.021999205 -0.12616767 -0.0058308728 2.3142517e-38
-0.020127587 -0.1253974 -0.0028524287 2.286703e-38
-0.018279469 -0.1253974 -0.0028524287 2.0380258e-38
-0.01643135 -0.1253974 -0.0028524287 1.6049898e-38
-0.014579678 -0.12434883 0.0012021177 1.5865482e-38
-0.012738669 -0.12434883 0.0012021177 1.7429558e-38
-0.010905391 -0.12358873 0.0041412227 1.8074559e-38
-0.009069534 -0.12358873 0.0041412227 1.6970728e-38
-0.0072522764 -0.12280498 0.0071717612 1.5773624e-38
-0.0054455078 -0.12202574 0.010184895 1.4392131e-38
-0.0036202478 -0.12202574 0.010184895 1.6791013e-38
-0.0017949888 -0.12202574 0.010184895 1.651514e-38
-9.1237016e-06 -0.121251 0.013180625 1.5316599e-38
0.0018108836 -0.121251 0.013180625 1.6145293e-38
0.0036308891 -0.121251 0.013180625 1.5499921e-38
0.0053785047 -0.12023406 0.017112862 1.5501344e-38
0.0071298885 -0.11944233 0.020174276 1.6055234e-38
0.0089376327 -0.11944233 0.020174276 1.5318403e-38
0.010745378 -0.11944233 0.020174276 1.366104e-38
0.012478413 -0.11868234 0.023112904 1.3017822e-38
0.014198771 -0.11789979 0.026138794 1.3663543e-38
0.015909029 -0.1171218 0.02914704 1.5321621e-38
0.017609281 -0.1163484 0.032137644 1.7070461e-38
0.019299613 -0.1155795 0.035110723 1.8633832e-38
0.021081166 -0.1155795 0.035110723 1.2820475e-38
0.022752827 -0.11478879 0.038168203 1.0233969e-38
0.024529023 -0.11478879 0.038168203 1.0598797e-38
-0.042931259 -0.13324542 -0.02589618 1.00485e-38
-0.041042738 -0.13324542 -0.02589618 1.1986399e-38
-0.039059408 -0.13220255 -0.021890868 1.2723997e-38
-0.037177909 -0.13220255 -0.021890868 1.4201288e-38
-0.03529641 -0.13220255 -0.021890868 1.5586718e-38
-0.033358403 -0.13140334 -0.018821348 2.2132261e-38
-0.031482287 -0.13140334 -0.018821348 2.2224134e-38
-0.02956236 -0.13063805 -0.015882004 2.194757e-38
-0.027638229 -0.12958528 -0.011838663 2.2222733e-38
-0.025774354 -0.12958528 -0.011838663 2.1576637e-38
-0.02388143 -0.12880091 -0.0088262446 2.2591127e-38
-0.021999205 -0.12802102 -0.0058308728 2.2683327e-38
-0.020145865 -0.12802102 -0.0058308728 2.2775193e-38
-0.018279469 -0.12724553 -0.0028524287 2.1947228e-38
-0.01643135 -0.12724553 -0.0028524287 1.8261888e-38
-0.014579678 -0.12618984 0.0012021177 1.8262945e-38
-0.012738669 -0.12618984 0.0012021177 1.7985981e-38
-0.010905391 -0.12542458 0.0041412227 1.678922e-38
-0.009069534 -0.12542458 0.0041412227 1.5408433e-38
-0.0072522764 -0.12463553 0.0071717612 1.6239274e-38
-0.0054455078 -0.12385099 0.010184895 1.4857079e-38
-0.0036202478 -0.12385099 0.010184895 1.5134742e-38
-0.0017949888 -0.12385099 0.010184895 1.5043244e-38
-9.1237016e-06 -0.123071 0.013180625 1.5319108e-38
0.0018108836 -0.123071 0.013180625 1.5594278e-38
0.0036308891 -0.123071 0.013180625 1.3842562e-38
0.0053785047 -0.12204717 0.017112862 1.3290091e-38
0.0071298885 -0.12125005 0.020174276 1.3936177e-38
0.0089376327 -0.12125005 0.020174276 1.338409e-38
0.01067582 -0.12048493 0.023112904 1.1818207e-38
0.012478413 -0.12048493 0.023112904 1.1912194e-38
0.014198771 -0.11969708 0.026138794 1.3664269e-38
0.015909029 -0.11891381 0.02914704 1.5413462e-38
0.017609281 -0.11813517 0.032137644 1.5963759e-38
0.019299613 -0.11736105 0.035110723 1.734274e-38
0.020976631 -0.11656497 0.038168203 1.2268386e-38
0.02264359 -0.11577369 0.041207325 1.0234333e-38
0.024414459 -0.11577369 0.041207325 1.0045989e-38
-0.042931259 -0.13513394 -0.02589618 8.8499565e-39
-0.041042738 -0.13513394 -0.02589618 1.2263342e-38
-0.039154217 -0.13513394 -0.02589618 1.3554469e-38
-0.037177909 -0.13408406 -0.021890868 1.383286e-38
-0.03529641 -0.13408406 -0.021890868 1.4849153e-38
-0.033358403 -0.13327946 -0.018821348 2.2407774e-38
-0.031482287 -0.13327946 -0.018821348 2.1856428e-38
-0.02956236 -0.13250901 -0.015882004 1.8997307e-38
-0.0276914 -0.13250901 -0.015882004 1.9549413e-38
-0.025774354 -0.13144915 -0.011838663 1.9179906e-38
-0.02388143 -0.13065951 -0.0088262446 1.9917454e-38
-0.021999205 -0.12987436 -0.0058308728 2.2683328e-38
-0.020145865 -0.12987436 -0.0058308728 2.3142538e-38
-0.018279469 -0.12909363 -0.0028524287 2.2775195e-38
-0.01643135 -0.12909363 -0.0028524287 2.0104372e-38
-0.014579678 -0.12803085 0.0012021177 2.0567128e-38
-0.012738669 -0.12803085 0.0012021177 1.8448775e-38
-0.010905391 -0.12726043 0.0041412227 1.6145666e-38
-0.009069534 -0.12726043 0.0041412227 1.3566686e-38
-0.0072522764 -0.12646608 0.0071717612 1.5503521e-38
-0.0054455078 -0.12567626 0.010184895 1.522696e-38
-0.0036202478 -0.12567626 0.010184895 1.5596099e-38
-0.0017949888 -0.12567626 0.010184895 1.56897e-38
-9.1237016e-06 -0.124891 0.013180625 1.5504944e-38
0.0018108836 -0.124891 0.013180625 1.4026963e-38
0.0035653911 -0.12386028 0.017112862 1.4395028e-38
0.0053785047 -0.12386028 0.017112862 1.4672321e-38
0.0071298885 -0.1230578 0.020174276 1.4672674e-38
0.0089376327 -0.1230578 0.020174276 1.4028391e-38
0.01067582 -0.12228753 0.023112904 1.3660327e-38
0.012478413 -0.12228753 0.023112904 1.3385179e-38
0.014198771 -0.12149437 0.026138794 1.3569926e-38
0.015909029 -0.12070583 0.02914704 1.4398961e-38
0.017609281 -0.11992194 0.032137644 1.587193e-38
0.019200439 -0.11834116 0.038168203 1.7711171e-38
0.020976631 -0.11834116 0.038168203 1.2175836e-38
0.02264359 -0.11754455 0.041207325 9.9573901e-39
0.024414459 -0.11754455 0.041207325 1.0414774e-38
-0.043012649 -0.13781275 -0.028891075 8.8488845e-39
-0.041118875 -0.13781275 -0.028891075 1.2538133e-38
-0.039154217 -0.13702248 -0.02589618 1.3829974e-38
-0.037265696 -0.13702248 -0.02589618 1.3740299e-38
-0.03529641 -0.13596557 -0.021890868 1.4204137e-38
-0.033358403 -0.13515557 -0.018821348 2.1948585e-38
-0.031433325 -0.13437997 -0.015882004 2.1579474e-38
-0.02956236 -0.13437997 -0.015882004 1.8167179e-38
-0.0276914 -0.13437997 -0.015882004 1.871893e-38
-0.025774354 -0.13331302 -0.011838663 1.9271385e-38
-0.02388143 -0.1325181 -0.0088262446 1.8994068e-38
-0.021999205 -0.13172771 -0.0058308728 2.2220917e-38
-0.020145865 -0.13172771 -0.0058308728 2.3234374e-38
-0.018279469 -0.13094176 -0.0028524287 2.2958864e-38
-0.01643135 -0.13094176 -0.0028524287 2.0656466e-38
-0.014579678 -0.12987186 0.0012021177 1.9552982e-38
-0.012738669 -0.12987186 0.0012021177 1.8633183e-38
-0.010905391 -0.12909628 0.0041412227 1.7529343e-38
-0.009069534 -0.12909628 0.0041412227 1.4765252e-38
-0.0072522764 -0.1282966 0.0071717612 1.568829e-38
-0.0054455078 -0.1275015 0.010184895 1.5411374e-38
-0.0036202478 -0.1275015 0.010184895 1.6702113e-38
-0.0017949888 -0.1275015 0.010184895 1.6979385e-38
-9.1237016e-06 -0.126711 0.013180625 1.5318778e-38
0.0018108836 -0.126711 0.013180625 1.5501025e-38
0.0035653911 -0.1256734 0.017112862 1.6698137e-38
0.0053785047 -0.1256734 0.017112862 1.6236796e-38
0.0071298885 -0.12486555 0.020174276 1.4116651e-38
0.0089376327 -0.12486555 0.020174276 1.2826623e-38
0.01067582 -0.12409012 0.023112904 1.3473071e-38
0.012478413 -0.12409012 0.023112904 1.4119885e-38
0.014198771 -0.12329166 0.026138794 1.4120602e-38
0.015909029 -0.12249784 0.02914704 1.4951067e-38
0.017609281 -0.12170871 0.032137644 1.559499e-38
0.019200439 -0.12011738 0.038168203 1.6697025e-38
0.020976631 -0.12011738 0.038168203 1.0884744e-38
0.02264359 -0.11931543 0.041207325 9.127635e-39
0.024414459 -0.11931543 0.041207325 1.0045635e-38
-0.043012649 -0.13970654 -0.028891075 9.7690499e-39
-0.041118875 -0.13970654 -0.028891075 1.2075363e-38
-0.039154217 -0.13891099 -0.02589618 1.3183524e-38
-0.037265696 -0.13891099 -0.02589618 1.4292385e-38
-0.03529641 -0.13784705 -0.021890868 1.4848063e-38
-0.033358403 -0.13703169 -0.018821348 2.2132244e-38
-0.031433325 -0.13625093 -0.015882004 2.2407787e-38
-0.02956236 -0.13625093 -0.015882004 2.0471701e-38
-0.0276914 -0.13625093 -0.015882004 2.0101143e-38
-0.025774354 -0.13517688 -0.011838663 2.2128372e-38
-0.02388143 -0.13437669 -0.0088262446 2.0007508e-38
-0.022022838 -0.13437669 -0.0088262446 2.1482282e-38
-0.020145865 -0.13358103 -0.0058308728 2.2035109e-38
-0.018279469 -0.13278987 -0.0028524287 2.2496801e-38
-0.01643135 -0.13278987 -0.0028524287 2.0101845e-38
-0.014579678 -0.13171287 0.0012021177 1.641653e-38
-0.012738669 -0.13171287 0.0012021177 1.7341737e-38
-0.010905391 -0.13093217 0.0041412227 1.8819378e-38
-0.009069534 -0.13093217 0.0041412227 1.679321e-38
-0.0072522764 -0.13012715 0.0071717612 1.6332595e-38
-0.0054455078 -0.12932678 0.010184895 1.5317752e-38
-0.0036202478 -0.12932678 0.010184895 1.7346412e-38
-0.0017949888 -0.12932678 0.010184895 1.7899201e-38
-9.1237016e-06 -0.12853102 0.013180625 1.5132242e-38
0.0018108836 -0.12853102 0.013180625 1.6144601e-38
0.0035653911 -0.12748651 0.017112862 1.8816484e-38
0.0053785047 -0.12748651 0.017112862 2.0567131e-38
0.0071298885 -0.1266733 0.020174276 2.0289462e-38
0.008873228 -0.12589271 0.023112904 1.9093057e-38
0.01067582 -0.12589271 0.023112904 1.8909382e-38
0.012478413 -0.12589271 0.023112904 1.8817921e-38
0.014198771 -0.12508895 0.026138794 1.8450933e-38
0.015909029 -0.12428986 0.02914704 1.8453432e-38
0.017609281 -0.12349547 0.032137644 1.6608429e-38
0.019200439 -0.12189357 0.038168203 1.6051299e-38
0.020976631 -0.12189357 0.038168203 1.088439e-38
0.022752827 -0.12189357 0.038168203 9.9570383e-39
0.024529023 -0.12189357 0.038168203 1.0691006e-38
-0.043119766 -0.1426542 -0.032832611 8.9378656e-39
-0.041219085 -0.1426542 -0.032832611 1.1889188e-38
-0.039225101 -0.1416003 -0.028891075 1.2352321e-38
-0.037265696 -0.14079951 -0.02589618 1.4751916e-38
-0.03529641 -0.13972856 -0.021890868 1.4939169e-38
-0.033358403 -0.13890781 -0.018821348 1.982698e-38
-0.031433325 -0.13812189 -0.015882004 2.1485811e-38
-0.02956236 -0.13812189 -0.015882004 2.3234327e-38
-0.0276914 -0.13812189 -0.015882004 2.2957766e-38
-0.025774354 -0.13704078 -0.011838663 2.2311331e-38
-0.02388143 -0.13623528 -0.0088262446 2.0558535e-38
-0.022022838 -0.13623528 -0.0088262446 2.2402451e-38
-0.020145865 -0.13543437 -0.0058308728 2.2125506e-38
-0.018279469 -0.134638 -0.0028524287 2.2127292e-38
-0.01643135 -0.134638 -0.0028524287 1.9731972e-38
-0.014579678 -0.13355388 0.0012021177 1.6323247e-38
-0.012738669 -0.13355388 0.0012021177 1.7063708e-38
-0.010905391 -0.13276802 0.0041412227 1.8909781e-38
-0.009069534 -0.13276802 0.0041412227 1.9556932e-38
-0.0072522764 -0.13195769 0.0071717612 1.7989966e-38
-0.0054217339 -0.13195769 0.0071717612 1.6791797e-38
-0.0036202478 -0.13115202 0.010184895 1.7436446e-38
-0.0017949888 -0.13115202 0.010184895 1.7435356e-38
3.0270312e-05 -0.13115202 0.010184895 1.6328279e-38
0.0018108836 -0.13035102 0.013180625 1.697148e-38
0.0035653911 -0.1292996 0.017112862 2.0288732e-38
0.0053785047 -0.1292996 0.017112862 2.0194044e-38
0.0071298885 -0.12848105 0.020174276 2.0470628e-38
0.008873228 -0.12769531 0.023112904 1.9918864e-38
0.01067582 -0.12769531 0.023112904 1.9735187e-38
0.012478413 -0.12769531 0.023112904 2.2315971e-38
0.014198771 -0.12688623 0.026138794 2.1028822e-38
0.015909029 -0.12608187 0.02914704 2.0938409e-38
0.017609281 -0.12528224 0.032137644 1.6885017e-38
0.019200439 -0.12366976 0.038168203 1.5405931e-38
0.020976631 -0.12366976 0.038168203 1.1528683e-38
0.022752827 -0.12366976 0.038168203 1.0970474e-38
0.024414459 -0.12285714 0.041207325 1.0505899e-38
0.026185324 -0.12285714 0.041207325 1.0226072e-38
-0.043119766 -0.14455487 -0.032832611 9.0282731e-39
-0.041118875 -0.14349405 -0.028891075 1.2993389e-38
-0.039225101 -0.14349405 -0.028891075 1.3733461e-38
-0.037265696 -0.14268802 -0.02589618 1.4750473e-38
-0.035234518 -0.14078392 -0.018821348 1.3925007e-38
-0.033358403 -0.14078392 -0.018821348 1.8996853e-38
-0.031433325 -0.13999285 -0.015882004 2.1209213e-38
-0.02956236 -0.13999285 -0.015882004 2.2866968e-38
-0.027638229 -0.13890465 -0.011838663 2.3509859e-38
-0.025774354 -0.13890465 -0.011838663 2.2680114e-38
-0.02388143 -0.13809387 -0.0088262446 2.1295746e-38
-0.022022838 -0.13809387 -0.0088262446 2.3139658e-38
-0.020145865 -0.13728772 -0.0058308728 2.3324404e-38
-0.018279469 -0.13648613 -0.0028524287 2.1482271e-38
-0.01643135 -0.13648613 -0.0028524287 1.9824873e-38
-0.014579678 -0.13539489 0.0012021177 1.8628125e-38
-0.012738669 -0.13539489 0.0012021177 1.95519e-38
-0.010905391 -0.13460387 0.0041412227 2.0384183e-38
-0.009069534 -0.13460387 0.0041412227 2.0108308e-38
-0.0072522764 -0.13378824 0.0071717612 1.8265111e-38
-0.0054217339 -0.13378824 0.0071717612 1.7344237e-38
-0.0035911915 -0.13378824 0.0071717612 1.8449505e-38
-0.0017949888 -0.13297729 0.010184895 1.8632818e-38
3.0270312e-05 -0.13297729 0.010184895 1.7986358e-38
0.0018108836 -0.13217102 0.013180625 1.973626e-38
0.0035653911 -0.13111271 0.017112862 2.1946443e-38
0.0053785047 -0.13111271 0.017112862 2.0560662e-38
0.0071298885 -0.13028879 0.020174276 1.9823097e-38
0.008873228 -0.1294979 0.023112904 1.881071e-38
0.01067582 -0.1294979 0.023112904 1.9456795e-38
0.012478413 -0.1294979 0.023112904 2.2037936e-38
0.014198771 -0.12868352 0.026138794 1.9367141e-38
0.015909029 -0.12787388 0.02914704 1.7989581e-38
0.017609281 -0.12706901 0.032137644 1.6883941e-38
0.019200439 -0.12544595 0.038168203 1.7156572e-38
0.020872725 -0.12462802 0.041207325 1.1989301e-38
0.02264359 -0.12462802 0.041207325 9.8641266e-39
0.024304366 -0.12384202 0.044127833 9.8605267e-39
0.026070112 -0.12384202 0.044127833 1.0963277e-38
-0.043119766 -0.14645557 -0.032832611 9.580019e-39
-0.041118875 -0.14538784 -0.028891075 1.2714652e-38
-0.039225101 -0.14538784 -0.028891075 1.3271765e-38
-0.037177909 -0.14349155 -0.021890868 1.4196939e-38
-0.035234518 -0.14266007 -0.018821348 1.2909776e-38
-0.033358403 -0.14266007 -0.018821348 1.6415728e-38
-0.031433325 -0.14186381 -0.015882004 1.9365653e-38
-0.02956236 -0.14186381 -0.015882004 2.2591451e-38
-0.027638229 -0.14076851 -0.011838663 2.3509851e-38
-0.025774354 -0.14076851 -0.011838663 2.3233282e-38
-0.02388143 -0.13995247 -0.0088262446 2.267868e-38
-0.022022838 -0.13995247 -0.0088262446 2.3509879e-38
-0.020145865 -0.13914107 -0.0058308728 2.3509866e-38
-0.018279469 -0.13833423 -0.0028524287 1.9178085e-38
-0.01643135 -0.13833423 -0.0028524287 1.7796918e-38
-0.014579678 -0.13723589 0.0012021177 1.8721024e-38
-0.012738669 -0.13723589 0.0012021177 2.0474195e-38
-0.010905391 -0.13643973 0.0041412227 2.0291609e-38
-0.009069534 -0.13643973 0.0041412227 1.8909751e-38
-0.0072522764 -0.13561879 0.0071717612 1.6974716e-38
-0.0054217339 -0.13561879 0.0071717612 1.697471e-38
-0.0036202478 -0.13480256 0.010184895 1.8541676e-38
-0.0017949888 -0.13480256 0.010184895 1.927781e-38
-9.1237016e-06 -0.13399105 0.013180625 1.8907221e-38
0.0018108836 -0.13399105 0.013180625 1.8813566e-38
0.0035653911 -0.13292582 0.017112862 2.0656042e-38
0.005322143 -0.13209651 0.020174276 2.0745034e-38
0.0070706359 -0.13130049 0.023112904 2.0836511e-38
0.008873228 -0.13130049 0.023112904 2.000816e-38
0.01067582 -0.13130049 0.023112904 2.1023029e-38
0.012401484 -0.13048081 0.026138794 2.1760614e-38
0.014198771 -0.13048081 0.026138794 1.6600181e-38
0.015909029 -0.1296659 0.02914704 1.5867998e-38
0.017609281 -0.12885578 0.032137644 1.6053462e-38
0.019200439 -0.12722217 0.038168203 1.7155853e-38
0.020872725 -0.12639888 0.041207325 1.1804191e-38
0.02264359 -0.12639888 0.041207325 1.0047795e-38
0.024304366 -0.12560774 0.044127833 1.08736e-38
0.026070112 -0.12560774 0.044127833 1.1515372e-38
-0.043012649 -0.1472816 -0.028891075 1.1607973e-38
-0.041118875 -0.1472816 -0.028891075 1.2253678e-38
-0.039225101 -0.1472816 -0.028891075 1.2717515e-38
-0.037177909 -0.14537306 -0.021890868 1.4841952e-38
-0.035234518 -0.14453618 -0.018821348 1.3648067e-38
-0.033358403 -0.14453618 -0.018821348 1.4940964e-38
-0.031433325 -0.14373477 -0.015882004 1.7799045e-38
-0.02956236 -0.14373477 -0.015882004 2.2315939e-38
-0.027638229 -0.14263238 -0.011838663 2.305066e-38
-0.025740022 -0.14181106 -0.0088262446 2.3418025e-38
-0.02388143 -0.14181106 -0.0088262446 2.3509873e-38
-0.021999205 -0.14099441 -0.0058308728 2.350987e-38
-0.020127587 -0.14018236 -0.0028524287 2.2958115e-38
-0.018279469 -0.14018236 -0.0028524287 1.558424e-38
-0.016420687 -0.1390769 0.0012021177 1.3925772e-38
-0.014579678 -0.1390769 0.0012021177 1.5587084e-38
-0.012738669 -0.1390769 0.0012021177 1.6694878e-38
-0.010905391 -0.13827558 0.0041412227 1.5958756e-38
-0.009069534 -0.13827558 0.0041412227 1.4208481e-38
-0.0072522764 -0.13744931 0.0071717612 1.2826261e-38
-0.0054217339 -0.13744931 0.0071717612 1.3564531e-38
-0.0036202478 -0.13662781 0.010184895 1.5499921e-38
-0.0017949888 -0.13662781 0.010184895 1.6328253e-38
-9.1237016e-06 -0.13581105 0.013180625 1.6050222e-38
0.0018108836 -0.13581105 0.013180625 1.8629882e-38
0.0035653911 -0.13473894 0.017112862 1.955004e-38
0.005322143 -0.13390426 0.020174276 2.0100721e-38
0.0070706359 -0.13310309 0.023112904 1.982378e-38
0.008873228 -0.13310309 0.023112904 1.8995079e-38
0.01067582 -0.13310309 0.023112904 2.1116298e-38
0.012401484 -0.1322781 0.026138794 2.222266e-38
0.014198771 -0.1322781 0.026138794 1.6693083e-38
0.015909029 -0.13145791 0.02914704 1.4024442e-38
0.017609281 -0.13064255 0.032137644 1.4393221e-38
0.019299613 -0.12983195 0.035110723 1.595695e-38
0.020976631 -0.12899835 0.038168203 1.1619076e-38
0.022752827 -0.12899835 0.038168203 1.060025e-38
0.024529023 -0.12899835 0.038168203 1.1426412e-38
-0.043012649 -0.14917539 -0.028891075 1.1607973e-38
-0.041118875 -0.14917539 -0.028891075 1.1607953e-38
-0.039154217 -0.14835359 -0.02589618 1.2072869e-38
-0.037177909 -0.14725454 -0.021890868 1.4381338e-38
-0.035234518 -0.1464123 -0.018821348 1.3832469e-38
