# .PCD v0.7 - Point Cloud Data file format
VERSION 0.7
FIELDS x y z rgb
SIZE 4 4 4 4
TYPE F F F F
COUNT 1 1 1 1
WIDTH 927
HEIGHT 1
VIEWPOINT 0 0 0 1 0 0 0
POINTS 927
DATA ascii
0.0018384652 -0.086716175 -0.031562854 2.2866978e-38
0.0037980443 -0.087605879 -0.035606194 2.1856423e-38
0.005669008 -0.087605879 -0.035606194 2.1947907e-38
0.0075399717 -0.087605879 -0.035606194 2.2683319e-38
0.0094109336 -0.087605879 -0.035606194 2.2775147e-38
0.011281897 -0.087605879 -0.035606194 2.1764938e-38
0.013152861 -0.087605879 -0.035606194 2.1026663e-38
0.015023825 -0.087605879 -0.035606194 1.641653e-38
-0.029571624 -0.080827907 0.003388714 2.3509886e-38
-0.027769033 -0.080827907 0.003388714 2.3325492e-38
-0.025979321 -0.081479684 0.00045008585 2.3049261e-38
-0.024179628 -0.082158685 -0.0026113279 2.3417323e-38
-0.022366516 -0.082158685 -0.0026113279 2.3509876e-38
-0.020549957 -0.08303085 -0.0065435655 2.3509873e-38
-0.018729949 -0.08303085 -0.0065435655 2.350987e-38
-0.01689681 -0.083695292 -0.009539295 2.3325835e-38
-0.015071551 -0.083695292 -0.009539295 2.3325832e-38
-0.013222518 -0.084363595 -0.012552429 2.3326185e-38
-0.011391976 -0.084363595 -0.012552429 2.323434e-38
-0.0094471909 -0.086586922 -0.022576619 2.2775144e-38
-0.0075990735 -0.086586922 -0.022576619 2.2407069e-38
-0.0057509551 -0.086586922 -0.022576619 2.2315943e-38
-0.0039028367 -0.086586922 -0.022576619 2.176384e-38
-0.0019998858 -0.087247536 -0.025555063 2.1764196e-38
-0.00014654646 -0.087247536 -0.025555063 2.1856753e-38
0.0017724438 -0.087911904 -0.028550435 2.1764923e-38
0.0037023397 -0.088580042 -0.031562854 2.1304671e-38
0.0055662123 -0.088580042 -0.031562854 2.1488347e-38
0.0075399717 -0.089476839 -0.035606194 2.1764938e-38
0.0092939613 -0.088580042 -0.031562854 2.1489065e-38
0.011157834 -0.088580042 -0.031562854 2.2499629e-38
0.013021708 -0.088580042 -0.031562854 2.2866982e-38
0.014885583 -0.088580042 -0.031562854 2.0565686e-38
0.016641177 -0.087911904 -0.028550435 1.7889866e-38
-0.033073958 -0.080613017 0.012413453 2.350952e-38
-0.031287186 -0.080613017 0.012413453 2.3325127e-38
-0.029500419 -0.080613017 0.012413453 2.2956345e-38
-0.027732003 -0.081281558 0.0094228499 2.323365e-38
-0.025966439 -0.0826305 0.003388714 2.3509879e-38
-0.024163848 -0.0826305 0.003388714 2.350988e-38
-0.022363832 -0.083287418 0.00045008585 2.3232933e-38
-0.020556087 -0.083287418 0.00045008585 2.350916e-38
-0.018748343 -0.083287418 0.00045008585 2.3509153e-38
-0.016927179 -0.083971798 -0.0026113279 2.3509149e-38
-0.015089936 -0.084850863 -0.0065435655 2.3141441e-38
-0.013269928 -0.084850863 -0.0065435655 2.295812e-38
-0.011421032 -0.085520551 -0.009539295 2.2958468e-38
-0.0095614335 -0.086194143 -0.012552429 2.2866981e-38
-0.007730891 -0.086194143 -0.012552429 2.2775134e-38
-0.005855184 -0.086871609 -0.015582968 2.0841888e-38
-0.0040193284 -0.086871609 -0.015582968 2.1396492e-38
-0.0021293638 -0.087528646 -0.018522073 2.1764913e-38
-0.00020660186 -0.088435039 -0.022576619 2.1213893e-38
0.0016415166 -0.088435039 -0.022576619 2.06618e-38
0.0035601342 -0.089100882 -0.025555063 2.0294458e-38
0.0055662123 -0.090443924 -0.031562854 2.0202628e-38
0.0074300868 -0.090443924 -0.031562854 2.0202631e-38
0.0092939613 -0.090443924 -0.031562854 2.1397584e-38
0.011157834 -0.090443924 -0.031562854 2.0109718e-38
0.012923994 -0.089770496 -0.028550435 2.1948608e-38
0.014782586 -0.089770496 -0.028550435 2.277515e-38
0.016641177 -0.089770496 -0.028550435 2.3142511e-38
0.018499769 -0.089770496 -0.028550435 1.2725849e-38
-0.033073958 -0.082399786 0.012413453 2.3232899e-38
-0.031287186 -0.082399786 0.012413453 2.2956664e-38
-0.029500419 -0.082399786 0.012413453 2.3509846e-38
-0.027713649 -0.082399786 0.012413453 2.2865559e-38
-0.025953177 -0.083751351 0.0064146034 2.3509866e-38
-0.024163848 -0.084433094 0.003388714 2.3418043e-38
-0.022361256 -0.084433094 0.003388714 2.3325847e-38
-0.020558663 -0.084433094 0.003388714 2.3509511e-38
-0.018756071 -0.084433094 0.003388714 2.3509863e-38
-0.016953479 -0.084433094 0.003388714 2.3509137e-38
-0.015114066 -0.085784912 -0.0026113279 2.3509849e-38
-0.013300953 -0.085784912 -0.0026113279 2.314214e-38
-0.011449922 -0.086670861 -0.0065435655 2.286698e-38
-0.0095957732 -0.087345809 -0.009539295 2.2498909e-38
-0.0077705141 -0.087345809 -0.009539295 2.222375e-38
-0.0059003495 -0.088024676 -0.012552429 2.1671647e-38
-0.0040698061 -0.088024676 -0.012552429 2.1305013e-38
-0.0021293638 -0.089369655 -0.018522073 2.0938024e-38
-0.00028835522 -0.089369655 -0.018522073 2.0387365e-38
0.0015526554 -0.089369655 -0.018522073 1.9928188e-38
0.003489635 -0.090283155 -0.022576619 1.9285336e-38
0.0054896278 -0.091629088 -0.028550435 1.8734319e-38
0.0074300868 -0.092307791 -0.031562854 1.8366973e-38
0.0092939613 -0.092307791 -0.031562854 1.7813797e-38
0.011157834 -0.092307791 -0.031562854 2.0387381e-38
0.012923994 -0.091629088 -0.028550435 2.1213909e-38
0.014782586 -0.091629088 -0.028550435 2.2499638e-38
0.016641177 -0.091629088 -0.028550435 2.3234362e-38
0.018499769 -0.091629088 -0.028550435 1.5951635e-38
0.020358361 -0.091629088 -0.028550435 1.1526598e-38
-0.033040073 -0.083511502 0.015386533 2.3509832e-38
-0.031258516 -0.083511502 0.015386533 2.3417265e-38
-0.029476961 -0.083511502 0.015386533 2.3509831e-38
-0.027713649 -0.084186554 0.012413453 2.3509838e-38
-0.025926881 -0.084186554 0.012413453 2.3326178e-38
-0.024147978 -0.084865585 0.0094228499 2.3234357e-38
-0.022358604 -0.085548624 0.0064146034 2.3509869e-38
-0.020561315 -0.085548624 0.0064146034 2.3508777e-38
-0.018771941 -0.084865585 0.0094228499 2.3509132e-38
-0.016979929 -0.084865585 0.0094228499 2.3509488e-38
-0.015150886 -0.086235672 0.003388714 2.3418005e-38
-0.013348293 -0.086235672 0.003388714 2.2774784e-38
-0.011487842 -0.087598026 -0.0026113279 2.2131208e-38
-0.0096299145 -0.088490874 -0.0065435655 2.1854972e-38
-0.0078099081 -0.088490874 -0.0065435655 2.1580176e-38
-0.005945255 -0.089171067 -0.009539295 2.1580527e-38
-0.0041199951 -0.089171067 -0.009539295 2.1489405e-38
-0.0021834718 -0.09054333 -0.015582968 2.112206e-38
-0.00034761714 -0.09054333 -0.015582968 2.057104e-38
0.0015526554 -0.091210663 -0.018522073 1.9469005e-38
0.003393664 -0.091210663 -0.018522073 1.8183297e-38
0.0053377533 -0.092131287 -0.022576619 1.6895432e-38
0.0072668148 -0.092807561 -0.025555063 1.6067466e-38
0.0092068119 -0.09348768 -0.028550435 1.6711394e-38
0.011065402 -0.09348768 -0.028550435 1.8182215e-38
0.013021708 -0.094171658 -0.031562854 2.0570329e-38
0.014885583 -0.094171658 -0.031562854 2.2223764e-38
0.016641177 -0.09348768 -0.028550435 2.3234362e-38
0.018499769 -0.09348768 -0.028550435 2.157557e-38
0.020477202 -0.094171658 -0.031562854 1.8534182e-38
0.022341076 -0.094171658 -0.031562854 1.3554174e-38
0.024204951 -0.094171658 -0.031562854 1.3090322e-38
0.026068825 -0.094171658 -0.031562854 1.2813388e-38
-0.033040073 -0.085293055 0.015386533 2.2402763e-38
-0.031258516 -0.085293055 0.015386533 2.3324717e-38
-0.029476961 -0.085293055 0.015386533 2.2220164e-38
-0.027695406 -0.085293055 0.015386533 2.2958808e-38
-0.025913849 -0.085293055 0.015386533 2.3417998e-38
-0.024140112 -0.085973322 0.012413453 2.2406362e-38
-0.022353344 -0.085973322 0.012413453 2.2866624e-38
-0.020566575 -0.085973322 0.012413453 2.3232895e-38
-0.018779807 -0.085973322 0.012413453 2.3509842e-38
-0.016993038 -0.085973322 0.012413453 2.3509844e-38
-0.015187915 -0.086657599 0.0094228499 2.3326164e-38
-0.013372168 -0.087345913 0.0064146034 2.2683306e-38
-0.011487842 -0.089411139 -0.0026113279 2.2040446e-38
-0.0096747288 -0.089411139 -0.0026113279 2.176457e-38
-0.007861617 -0.089411139 -0.0026113279 2.1489414e-38
-0.0059899008 -0.090310872 -0.0065435655 2.1581245e-38
-0.0041199951 -0.090996325 -0.009539295 2.1489408e-38
-0.0022392655 -0.091685757 -0.012552429 2.1305733e-38
-0.00034761714 -0.092379183 -0.015582968 2.0479206e-38
0.0014882395 -0.092379183 -0.015582968 1.9377168e-38
0.003393664 -0.093051672 -0.018522073 1.7907426e-38
0.0052346727 -0.093051672 -0.018522073 1.6803236e-38
0.0071858717 -0.093979403 -0.022576619 1.6067463e-38
0.0091201561 -0.094660893 -0.025555063 1.6342963e-38
0.010973495 -0.094660893 -0.025555063 1.5785479e-38
0.012923994 -0.095346272 -0.028550435 1.9465049e-38
0.014885583 -0.09603554 -0.031562854 2.1672018e-38
0.016749457 -0.09603554 -0.031562854 2.2591496e-38
0.018613327 -0.09603554 -0.031562854 2.3142527e-38
0.020477202 -0.09603554 -0.031562854 2.2683333e-38
0.022341076 -0.09603554 -0.031562854 1.3002784e-38
0.024204951 -0.09603554 -0.031562854 1.3459812e-38
0.026068825 -0.09603554 -0.031562854 1.3459109e-38
-0.033040073 -0.087074608 0.015386533 2.3509832e-38
-0.031258516 -0.087074608 0.015386533 2.2863738e-38
-0.029476961 -0.087074608 0.015386533 1.6688426e-38
-0.027676642 -0.086369663 0.018444013 1.7150481e-38
-0.025900448 -0.086369663 0.018444013 2.2775132e-38
-0.024124252 -0.086369663 0.018444013 2.3142478e-38
-0.022350738 -0.087074608 0.015386533 2.3234319e-38
-0.020569181 -0.087074608 0.015386533 2.3233963e-38
-0.018787626 -0.087074608 0.015386533 2.3417997e-38
-0.017006069 -0.087074608 0.015386533 2.3234326e-38
-0.015206268 -0.087760091 0.012413453 2.2683304e-38
-0.013395904 -0.088449612 0.0094228499 2.2224119e-38
-0.011545702 -0.089840859 0.003388714 2.2040442e-38
-0.009709619 -0.0905184 0.00045008585 2.1581255e-38
-0.0079018744 -0.0905184 0.00045008585 2.1122067e-38
-0.0060485043 -0.091224253 -0.0026113279 2.0570683e-38
-0.0041698953 -0.092130885 -0.0065435655 2.057104e-38
-0.0022947369 -0.092821583 -0.009539295 2.0203691e-38
-0.00046947697 -0.092821583 -0.009539295 1.9560836e-38
0.0013557812 -0.092821583 -0.009539295 1.8733949e-38
0.0033240942 -0.094215035 -0.015582968 1.781523e-38
0.0052346727 -0.094892681 -0.018522073 1.735641e-38
0.0070756814 -0.094892681 -0.018522073 1.7081257e-38
0.0090339882 -0.09582752 -0.022576619 1.7264918e-38
0.010973495 -0.09651424 -0.025555063 1.5509243e-38
0.012923994 -0.097204864 -0.028550435 1.9649792e-38
0.014885583 -0.097899407 -0.031562854 2.2591455e-38
0.016749457 -0.097899407 -0.031562854 2.2591486e-38
0.018613327 -0.097899407 -0.031562854 2.2958843e-38
0.020477202 -0.097899407 -0.031562854 2.2958831e-38
0.022341076 -0.097899407 -0.031562854 1.3925446e-38
0.024204951 -0.097899407 -0.031562854 1.2814789e-38
0.026068825 -0.097899407 -0.031562854 1.3458379e-38
0.0279327 -0.097899407 -0.031562854 1.2446413e-38
0.029796574 -0.097899407 -0.031562854 1.0880893e-38
-0.031258516 -0.088856161 0.015386533 1.9913834e-38
-0.029476961 -0.088856161 0.015386533 1.2447427e-38
-0.027657993 -0.08743982 0.021483134 1.2264115e-38
-0.025887126 -0.08743982 0.021483134 2.0931939e-38
-0.024116259 -0.08743982 0.021483134 2.2038284e-38
-0.022345392 -0.08743982 0.021483134 2.2591458e-38
-0.020571861 -0.088145852 0.018444013 2.2958807e-38
-0.018795667 -0.088145852 0.018444013 2.2866971e-38
-0.017019471 -0.088145852 0.018444013 2.2315951e-38
-0.015224513 -0.088856161 0.015386533 2.158126e-38
-0.013442957 -0.088856161 0.015386533 2.1305748e-38
-0.011603891 -0.090241626 0.0094228499 2.1030238e-38
-0.0097431093 -0.091643453 0.003388714 2.0479212e-38
-0.0079018744 -0.092326149 0.00045008585 1.9742001e-38
-0.0060941298 -0.092326149 0.00045008585 1.9466491e-38
-0.0042353934 -0.093037367 -0.0026113279 1.955904e-38
-0.002349888 -0.093950883 -0.0065435655 1.9191696e-38
-0.00052988069 -0.093950883 -0.0065435655 1.8824349e-38
0.0012901248 -0.093950883 -0.0065435655 1.8089659e-38
0.0031101322 -0.093950883 -0.0065435655 1.7538643e-38
0.0050829044 -0.095346853 -0.012552429 1.7172019e-38
0.0069958074 -0.096050888 -0.015582968 1.6897224e-38
0.00891669 -0.096733689 -0.018522073 1.6804654e-38
0.010882107 -0.097675636 -0.022576619 1.5417764e-38
0.012826835 -0.098367572 -0.025555063 1.8728907e-38
0.014782586 -0.099063456 -0.028550435 2.1489405e-38
0.016641177 -0.099063456 -0.028550435 2.2132294e-38
0.018613327 -0.099763289 -0.031562854 2.2224137e-38
0.020477202 -0.099763289 -0.031562854 2.1487994e-38
0.022341076 -0.099763289 -0.031562854 1.4755908e-38
0.024204951 -0.099763289 -0.031562854 1.2815494e-38
0.026068825 -0.099763289 -0.031562854 1.3551279e-38
0.0279327 -0.099763289 -0.031562854 1.318253e-38
0.029796574 -0.099763289 -0.031562854 1.1985798e-38
-0.027657993 -0.089210689 0.021483134 1.3738892e-38
-0.025874324 -0.088527083 0.024403643 2.083832e-38
-0.024108578 -0.088527083 0.024403643 2.1576604e-38
-0.022342833 -0.088527083 0.024403643 2.1946461e-38
-0.020574527 -0.089210689 0.021483134 2.2407787e-38
-0.018795667 -0.089922056 0.018444013 2.2591458e-38
-0.017019471 -0.089922056 0.018444013 2.1948602e-38
-0.015243276 -0.089922056 0.018444013 2.1122072e-38
-0.01346708 -0.089922056 0.018444013 2.0479215e-38
-0.011661401 -0.090637714 0.015386533 2.0203705e-38
-0.0098459618 -0.091333628 0.012413453 1.9467933e-38
-0.0079803076 -0.092737779 0.0064146034 1.8638525e-38
-0.0061379252 -0.093446046 0.003388714 1.9376087e-38
-0.0042863851 -0.094133899 0.00045008585 1.9284608e-38
-0.0024786415 -0.094133899 0.00045008585 1.9284608e-38
-0.00067089597 -0.094133899 0.00045008585 1.8917623e-38
0.0011368478 -0.094133899 0.00045008585 1.827441e-38
0.0030170558 -0.094850481 -0.0026113279 1.7446448e-38
0.0050063012 -0.096472099 -0.009539295 1.6434454e-38
0.0069958074 -0.097886756 -0.015582968 1.5881993e-38
0.00891669 -0.098574698 -0.018522073 1.5606114e-38
0.010882107 -0.099523753 -0.022576619 1.5417767e-38
0.012826835 -0.10022092 -0.025555063 1.7162302e-38
0.014782586 -0.10092205 -0.028550435 1.8540583e-38
0.016641177 -0.10092205 -0.028550435 2.0383444e-38
0.018613327 -0.10162716 -0.031562854 2.1027382e-38
0.020477202 -0.10162716 -0.031562854 2.0106127e-38
0.022341076 -0.10162716 -0.031562854 1.447967e-38
0.024204951 -0.10162716 -0.031562854 1.4013663e-38
0.026068825 -0.10162716 -0.031562854 1.4196635e-38
0.0279327 -0.10162716 -0.031562854 1.3735693e-38
-0.025861159 -0.089584544 0.027407121 2.258862e-38
-0.02410068 -0.089584544 0.027407121 2.304961e-38
-0.022340199 -0.089584544 0.027407121 2.1944328e-38
-0.020577086 -0.090292826 0.024403643 2.0748987e-38
-0.01880366 -0.090981558 0.021483134 2.1581246e-38
-0.017032793 -0.090981558 0.021483134 2.1673086e-38
-0.015261925 -0.090981558 0.021483134 2.0846555e-38
-0.013491059 -0.090981558 0.021483134 2.0020027e-38
-0.011661401 -0.092419267 0.015386533 1.9560844e-38
-0.0098798452 -0.092419267 0.015386533 1.891727e-38
-0.0080591924 -0.093120396 0.012413453 1.8364452e-38
-0.0062278537 -0.093825653 0.0094228499 1.9377166e-38
-0.0043857349 -0.094535068 0.0064146034 1.9009817e-38
-0.0025327401 -0.09524864 0.003388714 1.8641035e-38
-0.00073014857 -0.09524864 0.003388714 1.8457362e-38
0.0011368478 -0.095941633 0.00045008585 1.7997823e-38
0.0029445933 -0.095941633 0.00045008585 1.7169861e-38
0.0050063012 -0.098297372 -0.009539295 1.5972758e-38
0.0069134468 -0.099007934 -0.012552429 1.5143715e-38
0.00891669 -0.10041572 -0.018522073 1.5328459e-38
0.010757701 -0.10041572 -0.018522073 1.523231e-38
0.012730223 -0.10137187 -0.022576619 1.6700252e-38
0.014680174 -0.10207425 -0.025555063 1.7342042e-38
0.016641177 -0.10278064 -0.028550435 1.8631372e-38
0.018499769 -0.10278064 -0.028550435 1.9276741e-38
0.020477202 -0.10349102 -0.031562854 1.9829892e-38
0.022341076 -0.10349102 -0.031562854 1.5770758e-38
0.024204951 -0.10349102 -0.031562854 1.4935968e-38
0.026068825 -0.10349102 -0.031562854 1.456505e-38
0.0279327 -0.10349102 -0.031562854 1.4011553e-38
-0.025861159 -0.091345012 0.027407121 2.3508793e-38
-0.02410068 -0.091345012 0.027407121 2.111208e-38
-0.022340199 -0.091345012 0.027407121 1.5766153e-38
-0.020577086 -0.092058569 0.024403643 1.872068e-38
-0.01880366 -0.092752427 0.021483134 2.0107187e-38
-0.017032793 -0.092752427 0.021483134 2.1030224e-38
-0.015261925 -0.092752427 0.021483134 2.0387371e-38
-0.013491059 -0.092752427 0.021483134 1.9284613e-38
-0.011690885 -0.093474448 0.018444013 1.882543e-38
-0.0098798452 -0.094200835 0.015386533 1.8458084e-38
-0.0080982884 -0.094200835 0.015386533 1.827405e-38
-0.006272424 -0.094907165 0.012413453 1.8734311e-38
-0.0044358419 -0.095617667 0.0094228499 1.8180776e-38
-0.0026438301 -0.095617667 0.0094228499 1.7351015e-38
-0.00073014857 -0.097051233 0.003388714 1.6891116e-38
0.0010724431 -0.097051233 0.003388714 1.6891476e-38
0.0029445933 -0.097749382 0.00045008585 1.6707805e-38
0.0049301395 -0.099410906 -0.0065435655 1.5878765e-38
0.0069134468 -0.10083848 -0.012552429 1.5141921e-38
0.0088316621 -0.10155846 -0.015582968 1.3850826e-38
0.010757701 -0.10225673 -0.018522073 1.2741608e-38
0.012730223 -0.10322 -0.022576619 1.5040026e-38
0.014680174 -0.1039276 -0.025555063 1.6419378e-38
0.016533516 -0.1039276 -0.025555063 1.6142454e-38
0.018386856 -0.1039276 -0.025555063 1.6142811e-38
0.020358361 -0.10463922 -0.028550435 1.8907936e-38
0.022341076 -0.10535492 -0.031562854 1.7061854e-38
0.024075549 -0.10463922 -0.028550435 1.5212189e-38
0.025800217 -0.1039276 -0.025555063 1.4656158e-38
0.027653556 -0.1039276 -0.025555063 1.3826434e-38
0.029506896 -0.1039276 -0.025555063 1.3459825e-38
-0.02410068 -0.093105495 0.027407121 1.9912098e-38
-0.022340199 -0.093105495 0.027407121 1.7517507e-38
-0.02057972 -0.093105495 0.027407121 1.6138838e-38
-0.018811341 -0.093824327 0.024403643 1.9369256e-38
-0.017045595 -0.093824327 0.024403643 2.1673073e-38
-0.015261925 -0.094523281 0.021483134 1.9651235e-38
-0.013491059 -0.094523281 0.021483134 1.900874e-38
-0.011690885 -0.095250636 0.018444013 1.8641754e-38
-0.0098798452 -0.095982388 0.015386533 1.9836355e-38
-0.0080982884 -0.095982388 0.015386533 1.6984388e-38
-0.006272424 -0.096693933 0.012413453 1.8826146e-38
-0.0044358419 -0.09740968 0.0094228499 1.8181852e-38
-0.0026438301 -0.09740968 0.0094228499 1.7627602e-38
-0.00079116138 -0.098129645 0.0064146034 1.7351015e-38
0.0010724431 -0.098853827 0.003388714 1.6798563e-38
0.0028750347 -0.098853827 0.003388714 1.6245392e-38
0.0049301395 -0.10123092 -0.0065435655 1.5877328e-38
0.0068315594 -0.10194789 -0.009539295 1.5785142e-38
0.0088316621 -0.10339431 -0.015582968 1.4125273e-38
0.010757701 -0.10409774 -0.018522073 1.5136195e-38
0.012730223 -0.1050681 -0.022576619 1.5315194e-38
0.014578343 -0.1050681 -0.022576619 1.6326837e-38
0.016533516 -0.10578094 -0.025555063 1.6695277e-38
0.018386856 -0.10578094 -0.025555063 1.5681478e-38
0.020358361 -0.10649781 -0.028550435 1.632646e-38
0.022341076 -0.10721879 -0.031562854 1.715405e-38
0.024075549 -0.10649781 -0.028550435 1.6041588e-38
0.025800217 -0.10578094 -0.025555063 1.511641e-38
0.027653556 -0.10578094 -0.025555063 1.4194491e-38
0.029506896 -0.10578094 -0.025555063 1.3366186e-38
-0.02410068 -0.094865978 0.027407121 2.1202098e-38
-0.022340199 -0.094865978 0.027407121 2.2587527e-38
-0.02057972 -0.094865978 0.027407121 1.9548989e-38
-0.018811341 -0.09559007 0.024403643 1.9737317e-38
-0.017045595 -0.09559007 0.024403643 2.0108613e-38
-0.015261925 -0.09629415 0.021483134 1.9097338e-38
-0.013491059 -0.09629415 0.021483134 1.8916901e-38
-0.011690885 -0.09702684 0.018444013 1.7997463e-38
-0.0099146897 -0.09702684 0.018444013 1.8917985e-38
-0.0080982884 -0.097763941 0.015386533 1.6799996e-38
-0.0063167326 -0.097763941 0.015386533 1.735281e-38
-0.0044856546 -0.098480701 0.012413453 1.6522333e-38
-0.0026988862 -0.098480701 0.012413453 1.5691494e-38
-0.00079116138 -0.099926919 0.0064146034 1.5690776e-38
0.0010061255 -0.099926919 0.0064146034 1.6889322e-38
0.0028750347 -0.10065642 0.003388714 1.8456292e-38
0.004752337 -0.10136487 0.00045008585 1.9560847e-38
0.006750145 -0.10305093 -0.0065435655 2.0111878e-38
0.0088316621 -0.10523017 -0.015582968 1.8271211e-38
0.010667519 -0.10523017 -0.015582968 1.6332595e-38
0.012730223 -0.10691623 -0.022576619 1.6603789e-38
0.014578343 -0.10691623 -0.022576619 2.0566049e-38
0.016426459 -0.10691623 -0.022576619 2.0658619e-38
0.018274579 -0.10691623 -0.022576619 1.5772961e-38
0.020240195 -0.10763429 -0.025555063 1.3929376e-38
0.022216957 -0.1083564 -0.028550435 1.5493449e-38
0.024075549 -0.1083564 -0.028550435 1.4565735e-38
0.025800217 -0.10763429 -0.025555063 1.382459e-38
0.027653556 -0.10763429 -0.025555063 1.30867e-38
0.029506896 -0.10763429 -0.025555063 1.2443864e-38
-0.022340199 -0.096626461 0.027407121 2.3509091e-38
-0.02057972 -0.096626461 0.027407121 1.9178398e-38
-0.018811341 -0.097355813 0.024403643 1.8259666e-38
-0.017045595 -0.097355813 0.024403643 1.8355817e-38
-0.015261925 -0.098065019 0.021483134 1.9096619e-38
-0.013491059 -0.098065019 0.021483134 1.8823987e-38
-0.011690885 -0.098803028 0.018444013 1.6797841e-38
-0.0099146897 -0.098803028 0.018444013 1.7260614e-38
-0.0080982884 -0.099545494 0.015386533 1.6246823e-38
-0.0063167326 -0.099545494 0.015386533 1.5600737e-38
-0.0044856546 -0.10026747 0.012413453 1.5692573e-38
-0.0026988862 -0.10026747 0.012413453 1.5875167e-38
-0.00079116138 -0.10172421 0.0064146034 1.6611656e-38
0.0010061255 -0.10172421 0.0064146034 1.8270459e-38
0.0028750347 -0.10245901 0.003388714 1.9836352e-38
0.004752337 -0.10317262 0.00045008585 2.0020029e-38
0.006750145 -0.10487093 -0.0065435655 1.9376104e-38
0.0088316621 -0.10706602 -0.015582968 1.8176507e-38
0.010667519 -0.10706602 -0.015582968 1.5776911e-38
0.012730223 -0.10876434 -0.022576619 1.7339205e-38
0.014578343 -0.10876434 -0.022576619 2.2958835e-38
0.016426459 -0.10876434 -0.022576619 2.2775176e-38
0.018274579 -0.10876434 -0.022576619 1.6049193e-38
0.020240195 -0.10948761 -0.025555063 1.3283651e-38
0.022093534 -0.10948761 -0.025555063 1.4755884e-38
0.023946878 -0.10948761 -0.025555063 1.3918568e-38
0.025800217 -0.10948761 -0.025555063 1.2993749e-38
0.027653556 -0.10948761 -0.025555063 1.2348053e-38
0.029506896 -0.10948761 -0.025555063 1.2073641e-38
0.031360239 -0.10948761 -0.025555063 1.1064881e-38
-0.022340199 -0.098386943 0.027407121 1.4104035e-38
-0.02057972 -0.098386943 0.027407121 1.3368984e-38
-0.018819239 -0.098386943 0.027407121 1.4201979e-38
-0.017045595 -0.099121556 0.024403643 1.6786334e-38
-0.015279847 -0.099121556 0.024403643 1.9463604e-38
-0.013491059 -0.099835888 0.021483134 1.8453408e-38
-0.011690885 -0.10057923 0.018444013 1.5321992e-38
-0.0099146897 -0.10057923 0.018444013 1.5600377e-38
-0.0080982884 -0.10132705 0.015386533 1.5785128e-38
-0.0063167326 -0.10132705 0.015386533 1.7075867e-38
-0.0044856546 -0.10205424 0.012413453 1.8272973e-38
-0.0026988862 -0.10205424 0.012413453 1.9285329e-38
-0.00079116138 -0.10352151 0.0064146034 1.9652678e-38
0.0010061255 -0.10352151 0.0064146034 2.0295535e-38
0.0028750347 -0.10426159 0.003388714 2.0571046e-38
0.004752337 -0.10498036 0.00045008585 1.8914039e-38
0.006750145 -0.10669093 -0.0065435655 1.6884667e-38
0.0088316621 -0.10890187 -0.015582968 1.457872e-38
0.010757701 -0.10962076 -0.018522073 1.4944992e-38
0.012730223 -0.11061247 -0.022576619 1.8075688e-38
0.014578343 -0.11061247 -0.022576619 2.2866994e-38
0.016426459 -0.11061247 -0.022576619 2.1947567e-38
0.018274579 -0.11061247 -0.022576619 1.7062266e-38
0.020240195 -0.11134095 -0.025555063 1.4850616e-38
0.022093534 -0.11134095 -0.025555063 1.4939557e-38
0.023946878 -0.11134095 -0.025555063 1.4194795e-38
0.025800217 -0.11134095 -0.025555063 1.3268897e-38
0.027653556 -0.11134095 -0.025555063 1.243917e-38
0.029506896 -0.11134095 -0.025555063 1.2072919e-38
-0.022340199 -0.10014741 0.027407121 1.0691344e-38
-0.02057972 -0.10014741 0.027407121 9.1258245e-39
-0.018819239 -0.10014741 0.027407121 1.1432876e-38
-0.01705876 -0.10014741 0.027407121 1.5032103e-38
-0.015279847 -0.1008873 0.024403643 1.9092664e-38
-0.013514102 -0.1008873 0.024403643 1.8267578e-38
-0.011720193 -0.10160676 0.021483134 1.5965565e-38
-0.0099493256 -0.10160676 0.021483134 1.6244669e-38
-0.0081384946 -0.10235542 0.018444013 1.6798563e-38
-0.0063167326 -0.1031086 0.015386533 1.8917986e-38
-0.0045351768 -0.1031086 0.015386533 1.9744517e-38
-0.0026988862 -0.10384102 0.012413453 1.9928186e-38
-0.00085181656 -0.10457774 0.0094228499 1.9467207e-38
0.0010061255 -0.1053188 0.0064146034 1.9189904e-38
0.0028750347 -0.10606419 0.003388714 1.9373219e-38
0.004752337 -0.10678811 0.00045008585 1.8450545e-38
0.0068315594 -0.10924892 -0.009539295 1.6975065e-38
0.0088316621 -0.11073773 -0.015582968 1.4023738e-38
0.010757701 -0.11146177 -0.018522073 1.5864782e-38
0.012730223 -0.11246057 -0.022576619 1.9456456e-38
0.014578343 -0.11246057 -0.022576619 2.2866984e-38
0.016426459 -0.11246057 -0.022576619 2.1486221e-38
0.018274579 -0.11246057 -0.022576619 1.7891662e-38
0.020240195 -0.1131943 -0.025555063 1.5679653e-38
0.022093534 -0.1131943 -0.025555063 1.3740651e-38
0.024075549 -0.11393218 -0.028550435 1.3825291e-38
0.025934141 -0.11393218 -0.028550435 1.2991591e-38
-0.022340199 -0.10190789 0.027407121 1.1150527e-38
-0.02057972 -0.10190789 0.027407121 1.0322213e-38
-0.018819239 -0.10190789 0.027407121 1.1154494e-38
-0.01705876 -0.10190789 0.027407121 1.3462622e-38
-0.015279847 -0.10265306 0.024403643 1.8353662e-38
-0.013514102 -0.10265306 0.024403643 1.8819316e-38
-0.011720193 -0.10337763 0.021483134 1.8270096e-38
-0.0099493256 -0.10337763 0.021483134 1.8548841e-38
-0.0081384946 -0.10413162 0.018444013 1.8826146e-38
-0.0063622994 -0.10413162 0.018444013 1.9009823e-38
-0.0045351768 -0.10489015 0.015386533 1.9192778e-38
-0.00275362 -0.10489015 0.015386533 1.8730721e-38
-0.00085181656 -0.10636975 0.0094228499 1.8083556e-38
0.00094019523 -0.10636975 0.0094228499 1.7989566e-38
0.0028034123 -0.10711606 0.0064146034 1.8265435e-38
0.004752337 -0.10859586 0.00045008585 1.8264359e-38
0.006750145 -0.11033095 -0.0065435655 1.7711191e-38
0.0088316621 -0.11257361 -0.015582968 1.5866205e-38
0.010757701 -0.11330278 -0.018522073 1.5863694e-38
0.012730223 -0.1143087 -0.022576619 1.9086943e-38
0.014578343 -0.1143087 -0.022576619 2.3509832e-38
0.016426459 -0.1143087 -0.022576619 2.2315256e-38
0.018274579 -0.1143087 -0.022576619 1.7983492e-38
0.020240195 -0.11504765 -0.025555063 1.5033562e-38
0.022093534 -0.11504765 -0.025555063 1.2541384e-38
0.023818932 -0.1143087 -0.022576619 1.2902255e-38
0.025667049 -0.1143087 -0.022576619 1.2345861e-38
0.027515169 -0.1143087 -0.022576619 1.2068948e-38
-0.022342833 -0.1044188 0.024403643 1.1609724e-38
-0.020577086 -0.1044188 0.024403643 1.1887387e-38
-0.018819239 -0.10366838 0.027407121 1.0876112e-38
-0.01705876 -0.10366838 0.027407121 1.1616914e-38
-0.015298279 -0.10366838 0.027407121 1.7614302e-38
-0.013514102 -0.1044188 0.024403643 1.9094827e-38
-0.011748356 -0.1044188 0.024403643 1.9282453e-38
-0.0099826101 -0.1044188 0.024403643 1.8916547e-38
-0.0081784595 -0.10514848 0.021483134 1.9009822e-38
-0.0063622994 -0.10590781 0.018444013 1.8179705e-38
-0.0045861034 -0.10590781 0.018444013 1.808607e-38
-0.00275362 -0.10667174 0.015386533 1.8084275e-38
-0.00091211783 -0.10741456 0.012413453 1.8451263e-38
0.00094019523 -0.10816176 0.0094228499 1.8818609e-38
0.0028034123 -0.10891335 0.0064146034 1.8817533e-38
0.0046776282 -0.10966937 0.003388714 1.844839e-38
0.0066432813 -0.11116849 -0.0026113279 1.8078531e-38
0.0088316621 -0.11440946 -0.015582968 1.6602682e-38
0.010757701 -0.11514379 -0.018522073 1.521759e-38
0.012730223 -0.1161568 -0.022576619 1.8256811e-38
0.014680174 -0.11690097 -0.025555063 2.350982e-38
0.016426459 -0.1161568 -0.022576619 2.1946463e-38
0.018274579 -0.1161568 -0.022576619 1.6785301e-38
0.020240195 -0.11690097 -0.025555063 1.4388189e-38
0.022093534 -0.11690097 -0.025555063 1.2909445e-38
0.023818932 -0.1161568 -0.022576619 1.2901892e-38
0.025667049 -0.1161568 -0.022576619 1.2713565e-38
0.027515169 -0.1161568 -0.022576619 1.2621403e-38
-0.018819239 -0.10542886 0.027407121 9.3077075e-39
-0.01705876 -0.10542886 0.027407121 9.7726387e-39
-0.015298279 -0.10542886 0.027407121 1.6876018e-38
-0.013537799 -0.10542886 0.027407121 1.8724252e-38
-0.011777319 -0.10542886 0.027407121 1.8266871e-38
-0.010016839 -0.10542886 0.027407121 1.7071562e-38
-0.0082168635 -0.10618456 0.024403643 1.7441061e-38
-0.0064075924 -0.10691936 0.021483134 1.6242521e-38
-0.0045861034 -0.107684 0.018444013 1.5688631e-38
-0.00275362 -0.10845329 0.015386533 1.5962705e-38
-0.00091211783 -0.10920133 0.012413453 1.6975418e-38
0.00087465061 -0.10920133 0.012413453 1.7896653e-38
0.0027322071 -0.10995375 0.0094228499 1.7988128e-38
0.0046776282 -0.11147197 0.003388714 1.7434238e-38
0.0065600825 -0.11221133 0.00045008585 1.7064377e-38
0.0088316621 -0.11624531 -0.015582968 1.6417924e-38
0.010757701 -0.1169848 -0.018522073 1.503355e-38
0.012730223 -0.11800493 -0.022576619 1.8256806e-38
0.014680174 -0.11875431 -0.025555063 2.2866959e-38
0.016533516 -0.11875431 -0.025555063 2.0747192e-38
0.018386856 -0.11875431 -0.025555063 1.58619e-38
0.020240195 -0.11875431 -0.025555063 1.466369e-38
0.022093534 -0.11875431 -0.025555063 1.4199461e-38
0.023946878 -0.11875431 -0.025555063 1.3547978e-38
0.025800217 -0.11875431 -0.025555063 1.3268531e-38
0.0279327 -0.12026589 -0.031562854 1.3452235e-38
-0.018827092 -0.1064329 0.030392837 9.5842915e-39
-0.017071847 -0.1064329 0.030392837 9.4042079e-39
-0.015298279 -0.10718934 0.027407121 1.5492721e-38
-0.013537799 -0.10718934 0.027407121 1.6141704e-38
-0.011777319 -0.10718934 0.027407121 1.8634587e-38
-0.010016839 -0.10718934 0.027407121 1.8361589e-38
-0.00825636 -0.10718934 0.027407121 1.6887175e-38
-0.0064511178 -0.10795029 0.024403643 1.6057059e-38
-0.0046367263 -0.10869022 0.021483134 1.5318778e-38
-0.0028099092 -0.10946019 0.018444013 1.5686132e-38
-0.0009720652 -0.11023484 0.015386533 1.7620796e-38
0.00087465061 -0.1109881 0.012413453 1.7159805e-38
0.0026614191 -0.1109881 0.012413453 1.6514789e-38
0.0046776282 -0.11327456 0.003388714 1.7436393e-38
0.0065600825 -0.11401908 0.00045008585 1.6789585e-38
0.0088316621 -0.11808117 -0.015582968 1.7617536e-38
0.010757701 -0.11882581 -0.018522073 1.4573285e-38
0.012730223 -0.11985306 -0.022576619 1.586188e-38
0.014680174 -0.12060766 -0.025555063 1.9364965e-38
0.016533516 -0.12060766 -0.025555063 1.8627046e-38
0.018386856 -0.12060766 -0.025555063 1.5492027e-38
0.020240195 -0.12060766 -0.025555063 1.4384941e-38
0.022093534 -0.12060766 -0.025555063 1.4844469e-38
0.024075549 -0.12136655 -0.028550435 1.3549771e-38
0.026068825 -0.12212978 -0.031562854 1.2994454e-38
0.0279327 -0.12212978 -0.031562854 1.2164361e-38
-0.02057972 -0.10894983 0.027407121 1.1425334e-38
-0.018827092 -0.10818814 0.030392837 9.6757641e-39
-0.017071847 -0.10818814 0.030392837 8.9421479e-39
-0.015298279 -0.10894983 0.027407121 1.4109784e-38
-0.013537799 -0.10894983 0.027407121 1.5219393e-38
-0.011777319 -0.10894983 0.027407121 1.9648386e-38
-0.010016839 -0.10894983 0.027407121 2.0111874e-38
-0.00825636 -0.10894983 0.027407121 1.6979015e-38
-0.0064511178 -0.10971604 0.024403643 1.587267e-38
-0.0046367263 -0.11046107 0.021483134 1.5687564e-38
-0.0028099092 -0.11123641 0.018444013 1.6608093e-38
-0.0009720652 -0.11201639 0.015386533 1.826725e-38
0.00087465061 -0.11277486 0.012413453 1.7621858e-38
0.0026614191 -0.11277486 0.012413453 1.6884643e-38
0.0046776282 -0.11507715 0.003388714 1.7805893e-38
0.0064802198 -0.11507715 0.003388714 1.6882858e-38
0.0086568194 -0.11837523 -0.009539295 1.6603384e-38
0.010667519 -0.11991702 -0.015582968 1.4665481e-38
0.012730223 -0.12170117 -0.022576619 1.4756975e-38
0.014680174 -0.12246101 -0.025555063 1.5955169e-38
0.016533516 -0.12246101 -0.025555063 1.5584589e-38
0.018386856 -0.12246101 -0.025555063 1.4846295e-38
0.020358361 -0.12322514 -0.028550435 1.4568969e-38
0.022216957 -0.12322514 -0.028550435 1.3921794e-38
0.024075549 -0.12322514 -0.028550435 1.3181708e-38
0.026068825 -0.12399365 -0.031562854 1.3088444e-38
0.0279327 -0.12399365 -0.031562854 1.2719327e-38
-0.02057972 -0.11071031 0.027407121 1.0872163e-38
-0.018827092 -0.10994337 0.030392837 9.0300388e-39
-0.017071847 -0.10994337 0.030392837 8.1123901e-39
-0.015316601 -0.10994337 0.030392837 1.2725773e-38
-0.013561357 -0.10994337 0.030392837 1.4020131e-38
-0.011806112 -0.10994337 0.030392837 2.001645e-38
-0.010016839 -0.11071031 0.027407121 2.0571057e-38
-0.00825636 -0.11071031 0.027407121 1.5687916e-38
-0.00649588 -0.11071031 0.027407121 1.4858516e-38
-0.0046853712 -0.11148177 0.024403643 1.5410976e-38
-0.0028099092 -0.1130126 0.018444013 1.6884678e-38
-0.00091211783 -0.11456163 0.012413453 1.8636029e-38
0.00087465061 -0.11456163 0.012413453 1.7990638e-38
0.0026614191 -0.11456163 0.012413453 1.7437098e-38
0.0046776282 -0.11687975 0.003388714 1.8266871e-38
0.0064802198 -0.11687975 0.003388714 1.725164e-38
0.0084563931 -0.11842094 -0.0026113279 1.7156921e-38
0.010667519 -0.12175287 -0.015582968 1.5404128e-38
0.012730223 -0.1235493 -0.022576619 1.5034283e-38
0.014680174 -0.12431435 -0.025555063 1.5493833e-38
0.016533516 -0.12431435 -0.025555063 1.5032495e-38
0.018386856 -0.12431435 -0.025555063 1.5400187e-38
0.020358361 -0.12508373 -0.028550435 1.5675317e-38
0.022216957 -0.12508373 -0.028550435 1.4567882e-38
0.024075549 -0.12508373 -0.028550435 1.2629613e-38
0.025934141 -0.12508373 -0.028550435 1.3089163e-38
-0.02057972 -0.11247079 0.027407121 1.0503025e-38
-0.018827092 -0.11169861 0.030392837 8.6612591e-39
-0.017071847 -0.11169861 0.030392837 7.8358032e-39
-0.015316601 -0.11169861 0.030392837 1.2541382e-38
-0.013561357 -0.11169861 0.030392837 1.3743544e-38
-0.011806112 -0.11169861 0.030392837 1.9739863e-38
-0.010050867 -0.11169861 0.030392837 2.0019318e-38
-0.0082956217 -0.11169861 0.030392837 1.4489373e-38
-0.00649588 -0.11247079 0.027407121 1.412095e-38
-0.0046853712 -0.11324753 0.024403643 1.4581215e-38
-0.0028099092 -0.11478879 0.018444013 1.6147113e-38
-0.00091211783 -0.1163484 0.012413453 1.8082856e-38
0.00094019523 -0.1171218 0.0094228499 1.7989919e-38
0.0027322071 -0.1171218 0.0094228499 1.7713684e-38
0.0046776282 -0.11868234 0.003388714 1.8451619e-38
0.0064802198 -0.11868234 0.003388714 1.725164e-38
0.0083678262 -0.11944233 0.00045008585 1.6788141e-38
0.010667519 -0.12358873 -0.015582968 1.4574732e-38
0.012730223 -0.1253974 -0.022576619 1.4573311e-38
0.014680174 -0.12616767 -0.025555063 1.5771499e-38
0.016533516 -0.12616767 -0.025555063 1.5493833e-38
0.018499769 -0.12694232 -0.028550435 1.5123963e-38
0.020358361 -0.12694232 -0.028550435 1.4938115e-38
0.022216957 -0.12694232 -0.028550435 1.41991e-38
0.024075549 -0.12694232 -0.028550435 1.2353389e-38
0.025934141 -0.12694232 -0.028550435 1.2904416e-38
-0.018835157 -0.11265542 0.033459436 8.6612619e-39
-0.01708529 -0.11265542 0.033459436 7.9280002e-39
-0.015316601 -0.11345388 0.030392837 1.3094558e-38
-0.013561357 -0.11345388 0.030392837 1.4481112e-38
-0.011806112 -0.11345388 0.030392837 1.9832061e-38
-0.010050867 -0.11345388 0.030392837 2.0295547e-38
-0.0082956217 -0.11345388 0.030392837 1.6148894e-38
-0.0065403767 -0.11345388 0.030392837 1.4950351e-38
-0.0046853712 -0.11501329 0.024403643 1.4581215e-38
-0.0028099092 -0.11656497 0.018444013 1.5593937e-38
-0.00091211783 -0.11813517 0.012413453 1.7806266e-38
0.00094019523 -0.11891381 0.0094228499 1.7990275e-38
0.0027322071 -0.11891381 0.0094228499 1.7713684e-38
0.0046776282 -0.12048493 0.003388714 1.8358704e-38
0.0064802198 -0.12048493 0.003388714 1.7067249e-38
0.0083678262 -0.12125005 0.00045008585 1.5866908e-38
0.010667519 -0.12542458 -0.015582968 1.429851e-38
0.012598709 -0.12618984 -0.018522073 1.4758065e-38
0.014578343 -0.12724553 -0.022576619 1.5956254e-38
0.016533516 -0.12802102 -0.025555063 1.5862616e-38
0.018386856 -0.12802102 -0.025555063 1.5584942e-38
0.020358361 -0.12880091 -0.028550435 1.4846998e-38
0.022216957 -0.12880091 -0.028550435 1.3461896e-38
0.024075549 -0.12880091 -0.028550435 1.235339e-38
0.026068825 -0.12958528 -0.031562854 1.2628911e-38
-0.018835157 -0.11440529 0.033459436 8.7534575e-39
-0.01708529 -0.11440529 0.033459436 7.7428901e-39
-0.01533542 -0.11440529 0.033459436 1.2910167e-38
-0.013585552 -0.11440529 0.033459436 1.5034286e-38
-0.011835684 -0.11440529 0.033459436 2.0016453e-38
-0.010050867 -0.11520912 0.030392837 2.0662894e-38
-0.0082956217 -0.11520912 0.030392837 1.8361589e-38
-0.0065403767 -0.11520912 0.030392837 1.6794264e-38
-0.0046853712 -0.11677901 0.024403643 1.568684e-38
-0.0028099092 -0.11834116 0.018444013 1.5962359e-38
-0.00091211783 -0.11992194 0.012413453 1.8450556e-38
0.0010061255 -0.12149437 0.0064146034 1.8359057e-38
0.0028034123 -0.12149437 0.0064146034 1.7344901e-38
0.0046776282 -0.12228753 0.003388714 1.7897723e-38
0.0064802198 -0.12228753 0.003388714 1.6790305e-38
0.0083678262 -0.1230578 0.00045008585 1.5866912e-38
0.010667519 -0.12726043 -0.015582968 1.5588893e-38
0.012598709 -0.12803085 -0.018522073 1.5865133e-38
0.014578343 -0.12909363 -0.022576619 1.5772584e-38
0.016426459 -0.12909363 -0.022576619 1.5679304e-38
0.018386856 -0.12987436 -0.025555063 1.6784564e-38
0.020240195 -0.12987436 -0.025555063 1.6138456e-38
0.022093534 -0.12987436 -0.025555063 1.3278584e-38
0.023946878 -0.12987436 -0.025555063 1.2261915e-38
0.025934141 -0.13065951 -0.028550435 1.2628554e-38
0.0279327 -0.13144915 -0.031562854 1.2443111e-38
-0.018842915 -0.11537679 0.03640921 9.2140783e-39
-0.017098218 -0.11537679 0.03640921 7.8350885e-39
-0.01533542 -0.11615516 0.033459436 1.2448833e-38
-0.013585552 -0.11615516 0.033459436 1.5310873e-38
-0.011835684 -0.11615516 0.033459436 2.0016453e-38
-0.010050867 -0.11696436 0.030392837 2.0019316e-38
-0.0082956217 -0.11696436 0.030392837 1.8453782e-38
-0.0065403767 -0.11696436 0.030392837 1.7900608e-38
-0.0046853712 -0.11854477 0.024403643 1.6147818e-38
-0.0028099092 -0.12011738 0.018444013 1.6331141e-38
-0.00085181656 -0.12249784 0.0094228499 1.9096283e-38
0.0010061255 -0.12329166 0.0064146034 1.8451253e-38
0.0028750347 -0.12409012 0.003388714 1.6607336e-38
0.004752337 -0.12486555 0.00045008585 1.7067965e-38
0.0065600825 -0.12486555 0.00045008585 1.6698112e-38
0.0084563931 -0.1256734 -0.0026113279 1.5498493e-38
0.010667519 -0.12909628 -0.015582968 1.4944248e-38
0.012598709 -0.12987186 -0.018522073 1.5220486e-38
0.014578343 -0.13094176 -0.022576619 1.5495997e-38
0.016426459 -0.13094176 -0.022576619 1.5403436e-38
0.018386856 -0.13172771 -0.025555063 1.6416497e-38
0.020240195 -0.13172771 -0.025555063 1.5769673e-38
0.022093534 -0.13172771 -0.025555063 1.3094192e-38
0.023946878 -0.13172771 -0.025555063 1.2354114e-38
0.025800217 -0.13172771 -0.025555063 1.253708e-38
0.027653556 -0.13172771 -0.025555063 1.1982496e-38
0.029506896 -0.13172771 -0.025555063 1.1982519e-38
-0.018842915 -0.11712147 0.03640921 1.031971e-38
-0.017098218 -0.11712147 0.03640921 8.6648492e-39
-0.01533542 -0.11790501 0.033459436 1.272542e-38
-0.013585552 -0.11790501 0.033459436 1.5956242e-38
-0.011835684 -0.11790501 0.033459436 2.0293037e-38
-0.010050867 -0.11871959 0.030392837 1.9097359e-38
-0.0082956217 -0.11871959 0.030392837 1.7163043e-38
-0.00649588 -0.11951269 0.027407121 1.7808413e-38
-0.0046853712 -0.1203105 0.024403643 1.5963427e-38
-0.0028099092 -0.12189357 0.018444013 1.6423334e-38
-0.00085181656 -0.12428986 0.0094228499 1.9280674e-38
0.0010061255 -0.12508895 0.0064146034 1.8359057e-38
0.0028750347 -0.12589271 0.003388714 1.5869771e-38
0.0046776282 -0.12589271 0.003388714 1.6422596e-38
0.0065600825 -0.1266733 0.00045008585 1.6605916e-38
0.0087439893 -0.13012715 -0.012552429 1.6143865e-38
0.010757701 -0.13171287 -0.018522073 1.4391077e-38
0.012598709 -0.13171287 -0.018522073 1.4851704e-38
0.014578343 -0.13278987 -0.022576619 1.6511228e-38
0.016426459 -0.13278987 -0.022576619 1.6602696e-38
0.018386856 -0.13358103 -0.025555063 1.6048792e-38
0.020240195 -0.13358103 -0.025555063 1.5308692e-38
0.022093534 -0.13358103 -0.025555063 1.3647726e-38
0.023946878 -0.13358103 -0.025555063 1.2446312e-38
0.025800217 -0.13358103 -0.025555063 1.226014e-38
0.027515169 -0.13278987 -0.022576619 1.1337131e-38
0.029363286 -0.13278987 -0.022576619 1.0968372e-38
-0.018842915 -0.11886616 0.03640921 9.766536e-39
-0.017098218 -0.11886616 0.03640921 8.8492404e-39
-0.01533542 -0.11965488 0.033459436 1.2171886e-38
-0.013585552 -0.11965488 0.033459436 1.6692728e-38
-0.011835684 -0.11965488 0.033459436 2.0200121e-38
-0.010085816 -0.11965488 0.033459436 1.9188476e-38
-0.0082956217 -0.12047486 0.030392837 1.7807691e-38
-0.00649588 -0.12127317 0.027407121 1.7531104e-38
-0.0047354 -0.12127317 0.027407121 1.5686837e-38
-0.0028099092 -0.12366976 0.018444013 1.6331139e-38
-0.00085181656 -0.12608187 0.0094228499 1.9188479e-38
0.0010061255 -0.12688623 0.0064146034 1.9281013e-38
0.0028034123 -0.12688623 0.0064146034 1.6698814e-38
0.0046776282 -0.12769531 0.003388714 1.6053097e-38
0.0064802198 -0.12769531 0.003388714 1.7712267e-38
0.0082828114 -0.12769531 0.003388714 1.7434246e-38
0.010757701 -0.13355388 -0.018522073 1.4576188e-38
0.012730223 -0.134638 -0.022576619 1.3377293e-38
0.014578343 -0.134638 -0.022576619 1.5404878e-38
0.016426459 -0.134638 -0.022576619 1.5127563e-38
0.018386856 -0.13543437 -0.025555063 1.5219029e-38
0.020240195 -0.13543437 -0.025555063 1.6691624e-38
0.022093534 -0.13543437 -0.025555063 1.3278944e-38
0.023946878 -0.13543437 -0.025555063 1.290729e-38
0.025800217 -0.13543437 -0.025555063 1.207575e-38
0.027515169 -0.134638 -0.022576619 1.2258012e-38
0.029363286 -0.134638 -0.022576619 1.1521189e-38
0.031211406 -0.134638 -0.022576619 1.1430805e-38
-0.018850883 -0.1197954 0.039439093 9.3981094e-39
-0.017111499 -0.1197954 0.039439093 8.7559658e-39
-0.015353522 -0.12061088 0.03640921 1.2725057e-38
-0.013585552 -0.12140475 0.033459436 1.6416497e-38
-0.011835684 -0.12140475 0.033459436 2.0661096e-38
-0.010085816 -0.12140475 0.033459436 1.9557614e-38
-0.0082956217 -0.1222301 0.030392837 1.7899887e-38
-0.00649588 -0.12303366 0.027407121 1.7162322e-38
-0.0047354 -0.12303366 0.027407121 1.6054901e-38
-0.0028099092 -0.12544595 0.018444013 1.7067625e-38
-0.00091211783 -0.12706901 0.012413453 1.9372153e-38
0.00094019523 -0.12787388 0.0094228499 1.9095547e-38
0.0028034123 -0.12868352 0.0064146034 1.6606621e-38
0.0046776282 -0.1294979 0.003388714 1.6513718e-38
0.0064802198 -0.1294979 0.003388714 1.8634223e-38
0.0082828114 -0.1294979 0.003388714 1.7342051e-38
0.010757701 -0.13539489 -0.018522073 1.4852774e-38
0.012598709 -0.13539489 -0.018522073 1.4299246e-38
0.014578343 -0.13648613 -0.022576619 1.6419027e-38
0.016426459 -0.13648613 -0.022576619 1.5773289e-38
0.018274579 -0.13648613 -0.022576619 1.549489e-38
0.020240195 -0.13728772 -0.025555063 1.6323198e-38
0.022093534 -0.13728772 -0.025555063 1.3647365e-38
0.023946878 -0.13728772 -0.025555063 1.3552304e-38
0.025800217 -0.13728772 -0.025555063 1.2905155e-38
0.027515169 -0.13648613 -0.022576619 1.299558e-38
0.029363286 -0.13648613 -0.022576619 1.1981091e-38
0.031211406 -0.13648613 -0.022576619 1.1245337e-38
-0.018850883 -0.12153481 0.039439093 9.0293255e-39
-0.017111499 -0.12153481 0.039439093 8.2949849e-39
-0.015353522 -0.12235557 0.03640921 1.3370426e-38
-0.013585552 -0.12315463 0.033459436 1.5586735e-38
-0.011835684 -0.12315463 0.033459436 2.0753289e-38
-0.010085816 -0.12315463 0.033459436 1.9465416e-38
-0.0082956217 -0.12398534 0.030392837 1.734671e-38
-0.00649588 -0.12479414 0.027407121 1.6885732e-38
-0.0046853712 -0.12560774 0.024403643 1.6423683e-38
-0.0028099092 -0.12722217 0.018444013 1.7620798e-38
-0.00091211783 -0.12885578 0.012413453 1.9187761e-38
0.00094019523 -0.1296659 0.0094228499 1.826579e-38
0.0028034123 -0.13048081 0.0064146034 1.5960896e-38
0.0046776282 -0.13130049 0.003388714 1.6144938e-38
0.0065600825 -0.13209651 0.00045008585 1.835728e-38
0.0083678262 -0.13209651 0.00045008585 1.715766e-38
0.010667519 -0.13643973 -0.015582968 1.466838e-38
0.012598709 -0.13723589 -0.018522073 1.439144e-38
0.014578343 -0.13833423 -0.022576619 1.6327186e-38
0.016426459 -0.13833423 -0.022576619 1.5496338e-38
0.018274579 -0.13833423 -0.022576619 1.4757679e-38
0.020122696 -0.13833423 -0.022576619 1.5493433e-38
0.021970816 -0.13833423 -0.022576619 1.3923949e-38
0.023818932 -0.13833423 -0.022576619 1.3275717e-38
0.025667049 -0.13833423 -0.022576619 1.2720403e-38
0.027515169 -0.13833423 -0.022576619 1.3271091e-38
0.029363286 -0.13833423 -0.022576619 1.2626463e-38
-0.01533542 -0.1249045 0.033459436 1.3462619e-38
-0.013585552 -0.1249045 0.033459436 1.4572581e-38
-0.011835684 -0.1249045 0.033459436 2.0292311e-38
-0.010050867 -0.12574057 0.030392837 1.8727851e-38
-0.00825636 -0.12655462 0.027407121 1.6332558e-38
-0.00649588 -0.12655462 0.027407121 1.6424754e-38
-0.0046853712 -0.1273735 0.024403643 1.6608074e-38
-0.0028099092 -0.12899835 0.018444013 1.7897388e-38
-0.00091211783 -0.13064255 0.012413453 1.909521e-38
0.00094019523 -0.13145791 0.0094228499 1.8081401e-38
0.0028034123 -0.1322781 0.0064146034 1.6053094e-38
0.0046776282 -0.13310309 0.003388714 1.6237137e-38
0.0065600825 -0.13390426 0.00045008585 1.7988499e-38
0.0084563931 -0.13473894 -0.0026113279 1.8171811e-38
0.010667519 -0.13827558 -0.015582968 1.5405943e-38
0.012503375 -0.13827558 -0.015582968 1.4944967e-38
0.014578343 -0.14018236 -0.022576619 1.6327539e-38
0.016426459 -0.14018236 -0.022576619 1.5772919e-38
0.018274579 -0.14018236 -0.022576619 1.5310488e-38
0.020122696 -0.14018236 -0.022576619 1.5861852e-38
0.021970816 -0.14018236 -0.022576619 1.5490552e-38
0.023818932 -0.14018236 -0.022576619 1.3274994e-38
0.025667049 -0.14018236 -0.022576619 1.1981762e-38
0.027515169 -0.14018236 -0.022576619 1.2072549e-38
-0.015316601 -0.12749584 0.030392837 1.3461896e-38
-0.013561357 -0.12749584 0.030392837 1.4203438e-38
-0.011806112 -0.12749584 0.030392837 1.9830971e-38
-0.010016839 -0.12831511 0.027407121 1.8450544e-38
-0.00825636 -0.12831511 0.027407121 1.624e-38
-0.0064511178 -0.12913923 0.024403643 1.6239644e-38
-0.0046853712 -0.12913923 0.024403643 1.6792466e-38
-0.0028099092 -0.13077454 0.018444013 1.8266171e-38
-0.00091211783 -0.13242932 0.012413453 1.9279604e-38
0.00094019523 -0.13324992 0.0094228499 1.8634218e-38
0.0028034123 -0.13407536 0.0064146034 1.7434953e-38
0.0046776282 -0.13490568 0.003388714 1.7066543e-38
0.0064802198 -0.13490568 0.003388714 1.7988502e-38
0.0083678262 -0.13571201 0.00045008585 1.7803386e-38
0.010574532 -0.13927986 -0.012552429 1.5128994e-38
0.012503375 -0.14011143 -0.015582968 1.4668017e-38
0.014578343 -0.14203046 -0.022576619 1.5589249e-38
0.016426459 -0.14203046 -0.022576619 1.5404128e-38
0.018274579 -0.14203046 -0.022576619 1.5310842e-38
0.020240195 -0.14284773 -0.025555063 1.5401229e-38
0.021970816 -0.14203046 -0.022576619 1.5490549e-38
0.023818932 -0.14203046 -0.022576619 1.4104035e-38
0.025667049 -0.14203046 -0.022576619 1.2442021e-38
-0.015298279 -0.13007559 0.027407121 1.3000916e-38
-0.013537799 -0.13007559 0.027407121 1.4480022e-38
-0.011777319 -0.13007559 0.027407121 1.9462189e-38
-0.0099826101 -0.13090499 0.024403643 1.8634935e-38
-0.0082168635 -0.13090499 0.024403643 1.706976e-38
-0.0064511178 -0.13090499 0.024403643 1.6700622e-38
-0.0046367263 -0.1317115 0.021483134 1.7437835e-38
-0.0028099092 -0.13255073 0.018444013 1.872643e-38
-0.00091211783 -0.13421609 0.012413453 1.9095213e-38
0.00094019523 -0.13504194 0.0094228499 1.8449106e-38
0.0028034123 -0.13587265 0.0064146034 1.7250563e-38
0.0046776282 -0.13670824 0.003388714 1.6421176e-38
0.0064802198 -0.13670824 0.003388714 1.6696687e-38
0.0083678262 -0.13751976 0.00045008585 1.6788515e-38
0.010482077 -0.14027832 -0.009539295 1.4483622e-38
0.012503375 -0.14194728 -0.015582968 1.4114839e-38
0.014439718 -0.14275892 -0.018522073 1.4206309e-38
0.016426459 -0.14387859 -0.022576619 1.4297775e-38
0.018274579 -0.14387859 -0.022576619 1.4940978e-38
0.020240195 -0.14470108 -0.025555063 1.4570386e-38
0.021970816 -0.14387859 -0.022576619 1.4937015e-38
0.023818932 -0.14387859 -0.022576619 1.4472098e-38
0.025667049 -0.14387859 -0.022576619 1.3456173e-38
-0.017071847 -0.13100632 0.030392837 9.1250973e-39
-0.015316601 -0.13100632 0.030392837 1.2355547e-38
-0.013537799 -0.13183604 0.027407121 1.4941e-38
-0.011777319 -0.13183604 0.027407121 1.8909012e-38
-0.0099826101 -0.13267075 0.024403643 1.8543095e-38
-0.0082168635 -0.13267075 0.024403643 1.7807325e-38
-0.0064511178 -0.13267075 0.024403643 1.6885013e-38
-0.0046367263 -0.13348235 0.021483134 1.7898813e-38
-0.0028099092 -0.13432692 0.018444013 1.900302e-38
-0.00091211783 -0.13600285 0.012413453 1.8542042e-38
0.00094019523 -0.13683395 0.0094228499 1.7618989e-38
0.0028034123 -0.13766994 0.0064146034 1.6512642e-38
0.0046776282 -0.13851084 0.003388714 1.5866926e-38
0.0064802198 -0.13851084 0.003388714 1.5590339e-38
0.0083678262 -0.13932751 0.00045008585 1.6788515e-38
0.01039016 -0.14127107 -0.0065435655 1.5036073e-38
