# .PCD v0.7 - Point Cloud Data file format
VERSION 0.7
FIELDS x y z rgb
SIZE 4 4 4 4
TYPE F F F F
COUNT 1 1 1 1
WIDTH 926
HEIGHT 1
VIEWPOINT 0 0 0 1 0 0 0
POINTS 926
DATA ascii
-0.0026420001 -0.084363595 -0.021732137 2.341805e-38
-0.00081145763 -0.084363595 -0.021732137 2.3418047e-38
0.0010190848 -0.084363595 -0.021732137 2.3141816e-38
0.0028496273 -0.084363595 -0.021732137 2.2957782e-38
0.0046801697 -0.084363595 -0.021732137 2.3325847e-38
0.0065983851 -0.085035756 -0.024762675 2.3509168e-38
0.0084342416 -0.085035756 -0.024762675 2.3509168e-38
0.010365432 -0.085687637 -0.02770178 2.3509168e-38
0.012345066 -0.086586922 -0.031756327 2.3509524e-38
0.014193183 -0.086586922 -0.031756327 2.350988e-38
0.016041303 -0.086586922 -0.031756327 2.3509518e-38
0.018006919 -0.087247536 -0.034734771 2.3417323e-38
0.019860258 -0.087247536 -0.034734771 2.3325129e-38
0.021842273 -0.087911904 -0.037730142 2.2864513e-38
0.023700865 -0.087911904 -0.037730142 2.3509886e-38
0.025699424 -0.088580042 -0.040742561 2.341805e-38
0.027563298 -0.088580042 -0.040742561 2.3326213e-38
0.029427169 -0.088580042 -0.040742561 2.2957428e-38
0.031500176 -0.089476839 -0.044785902 2.3326206e-38
0.033371143 -0.089476839 -0.044785902 2.3418038e-38
0.035404444 -0.090128779 -0.047725245 2.3509876e-38
0.037455477 -0.090809584 -0.050794765 2.3509165e-38
0.039336972 -0.090809584 -0.050794765 2.3508809e-38
0.041218475 -0.090809584 -0.050794765 2.3508809e-38
-0.030100133 -0.086194143 -0.021732137 1.8899326e-38
-0.028269591 -0.086194143 -0.021732137 1.9360307e-38
-0.026439048 -0.086194143 -0.021732137 2.1296416e-38
-0.024608506 -0.086194143 -0.021732137 2.3509471e-38
-0.022780607 -0.085520551 -0.018719003 2.2588584e-38
-0.020955347 -0.085520551 -0.018719003 2.3141767e-38
-0.019143218 -0.084850863 -0.015723273 2.3509853e-38
-0.017323213 -0.084850863 -0.015723273 2.3509863e-38
-0.015534231 -0.083971798 -0.011791036 2.3509863e-38
-0.013750641 -0.083287418 -0.0087296218 2.3418031e-38
-0.011976386 -0.0826305 -0.0057909936 2.3509874e-38
-0.010173795 -0.0826305 -0.0057909936 2.3509883e-38
-0.0082817813 -0.083971798 -0.011791036 2.3509886e-38
-0.0064686704 -0.083971798 -0.011791036 2.3232944e-38
-0.004583165 -0.084850863 -0.015723273 2.3233662e-38
-0.0027631577 -0.084850863 -0.015723273 2.341805e-38
-0.00087749586 -0.085520551 -0.018719003 2.341805e-38
0.00094776414 -0.085520551 -0.018719003 2.332621e-38
0.0028496273 -0.086194143 -0.021732137 2.3418045e-38
0.0046801697 -0.086194143 -0.021732137 2.350988e-38
0.0065107122 -0.086194143 -0.021732137 2.3509168e-38
0.0083412547 -0.086194143 -0.021732137 2.3509168e-38
0.010171795 -0.086194143 -0.021732137 2.3509168e-38
0.012105951 -0.086871609 -0.024762675 2.3509883e-38
0.014047449 -0.087528646 -0.02770178 2.3509521e-38
0.015888458 -0.087528646 -0.02770178 2.3509879e-38
0.01788942 -0.088435039 -0.031756327 2.3509879e-38
0.01973754 -0.088435039 -0.031756327 2.350988e-38
0.021713601 -0.089100882 -0.034734771 2.3509883e-38
0.023700865 -0.089770496 -0.037730142 2.3417687e-38
0.02542028 -0.089100882 -0.034734771 2.31411e-38
0.02727362 -0.089100882 -0.034734771 2.3417687e-38
0.029276641 -0.089770496 -0.037730142 2.3418043e-38
0.031291045 -0.090443924 -0.040742561 2.341804e-38
0.033371143 -0.091347814 -0.044785902 2.3326198e-38
0.035242103 -0.091347814 -0.044785902 2.3326203e-38
0.03728056 -0.092004895 -0.047725245 2.3508091e-38
0.039336972 -0.092691094 -0.050794765 2.3415179e-38
0.041218475 -0.092691094 -0.050794765 2.3509165e-38
0.04309997 -0.092691094 -0.050794765 1.9911724e-38
-0.030100133 -0.088024676 -0.021732137 1.7420934e-38
-0.028269591 -0.088024676 -0.021732137 1.732909e-38
-0.026431125 -0.087345809 -0.018719003 1.9080441e-38
-0.024605865 -0.087345809 -0.018719003 1.9449943e-38
-0.022783233 -0.086670861 -0.015723273 2.1663725e-38
-0.020963226 -0.086670861 -0.015723273 2.3509828e-38
-0.019143218 -0.086670861 -0.015723273 2.3506636e-38
-0.017384164 -0.084433094 -0.0057909936 2.2676172e-38
-0.01562918 -0.083073571 0.00024314225 2.3509517e-38
-0.013866007 -0.082399786 0.0032337457 2.3509873e-38
-0.012079239 -0.082399786 0.0032337457 2.2493573e-38
-0.010253143 -0.083073571 0.00024314225 2.3509168e-38
-0.0084162978 -0.083751351 -0.0027651042 2.3509168e-38
-0.006619012 -0.083751351 -0.0027651042 2.3509168e-38
-0.0047660172 -0.084433094 -0.0057909936 2.341805e-38
-0.0028424449 -0.085784912 -0.011791036 2.341805e-38
-0.0010293331 -0.085784912 -0.011791036 2.341805e-38
0.00087685511 -0.086670861 -0.015723273 2.3325856e-38
0.0027730241 -0.087345809 -0.018719003 2.3234367e-38
0.0045982823 -0.087345809 -0.018719003 2.3234364e-38
0.0064235423 -0.087345809 -0.018719003 2.3142535e-38
0.0081568826 -0.086670861 -0.015723273 2.3142537e-38
0.0099768881 -0.086670861 -0.015723273 2.3142537e-38
0.011796897 -0.086670861 -0.015723273 2.3234012e-38
0.013724579 -0.087345809 -0.018719003 2.3325847e-38
0.015549837 -0.087345809 -0.018719003 2.3509523e-38
0.017613521 -0.088707477 -0.024762675 2.3509523e-38
0.019570475 -0.089369655 -0.02770178 2.3509167e-38
0.021585656 -0.090283155 -0.031756327 2.3415895e-38
0.023566941 -0.090954214 -0.034734771 2.3232585e-38
0.02542028 -0.090954214 -0.034734771 2.3416974e-38
0.02727362 -0.090954214 -0.034734771 2.3509527e-38
0.029276641 -0.091629088 -0.037730142 2.3509527e-38
0.031291045 -0.092307791 -0.040742561 2.341805e-38
0.03315492 -0.092307791 -0.040742561 2.3325856e-38
0.035242103 -0.093218774 -0.044785902 2.3326213e-38
0.03728056 -0.093881011 -0.047725245 2.341805e-38
0.039156683 -0.093881011 -0.047725245 2.3233652e-38
0.041032799 -0.093881011 -0.047725245 2.3509866e-38
0.042908914 -0.093881011 -0.047725245 1.7977744e-38
-0.026431125 -0.089171067 -0.018719003 1.6222003e-38
-0.024605865 -0.089171067 -0.018719003 1.5669185e-38
-0.022783233 -0.088490874 -0.015723273 2.1662991e-38
-0.020963226 -0.088490874 -0.015723273 2.3507659e-38
-0.019160455 -0.087598026 -0.011791036 2.3508085e-38
-0.017439544 -0.084186554 0.0032337457 2.3507733e-38
-0.015652776 -0.084186554 0.0032337457 2.3506992e-38
-0.013866007 -0.084186554 0.0032337457 2.3509507e-38
-0.012079239 -0.084186554 0.0032337457 2.3509161e-38
-0.01029247 -0.084186554 0.0032337457 2.3509168e-38
-0.0085057011 -0.084186554 0.0032337457 2.3509168e-38
-0.0067189317 -0.084186554 0.0032337457 2.3509527e-38
-0.0049321633 -0.084186554 0.0032337457 2.3509527e-38
-0.0030244384 -0.085548624 -0.0027651042 2.341805e-38
-0.001160834 -0.086235672 -0.0057909936 2.341805e-38
0.00071131624 -0.086902916 -0.0087296218 2.341805e-38
0.0026968624 -0.088490874 -0.015723273 2.3418043e-38
0.0045168679 -0.088490874 -0.015723273 2.3234369e-38
0.0064235423 -0.089171067 -0.018719003 2.30507e-38
0.0081568826 -0.088490874 -0.015723273 2.30507e-38
0.0099768881 -0.088490874 -0.015723273 2.3050701e-38
0.011796897 -0.088490874 -0.015723273 2.3142539e-38
0.013724579 -0.089171067 -0.018719003 2.3417687e-38
0.015549837 -0.089171067 -0.018719003 2.3509167e-38
0.017375099 -0.089171067 -0.018719003 2.3508809e-38
0.019324509 -0.089855224 -0.021732137 2.3508809e-38
0.02115505 -0.089855224 -0.021732137 2.3509168e-38
0.023252496 -0.091210663 -0.02770178 2.3509168e-38
0.025281893 -0.092131287 -0.031756327 2.3509168e-38
0.02713001 -0.092131287 -0.031756327 2.3509168e-38
0.029126963 -0.092807561 -0.034734771 2.3509527e-38
0.031135233 -0.09348768 -0.037730142 2.341805e-38
0.03315492 -0.094171658 -0.040742561 2.3325856e-38
0.035242103 -0.095089734 -0.044785902 2.3142542e-38
0.03728056 -0.095757127 -0.047725245 2.277483e-38
0.039156683 -0.095757127 -0.047725245 2.3142527e-38
0.041032799 -0.095757127 -0.047725245 2.332618e-38
0.042908914 -0.095757127 -0.047725245 1.6596231e-38
-0.020963226 -0.090310872 -0.015723273 2.350909e-38
-0.019160455 -0.089411139 -0.011791036 2.3508432e-38
-0.017439544 -0.085973322 0.0032337457 2.3506644e-38
-0.015652776 -0.085973322 0.0032337457 2.3506972e-38
-0.013866007 -0.085973322 0.0032337457 2.3509846e-38
-0.012079239 -0.085973322 0.0032337457 2.3509499e-38
-0.01029247 -0.085973322 0.0032337457 2.3509866e-38
-0.0085057011 -0.085973322 0.0032337457 2.350986e-38
-0.0067189317 -0.085973322 0.0032337457 2.3509869e-38
-0.0049321633 -0.085973322 0.0032337457 2.3417691e-38
-0.0030244384 -0.087345913 -0.0027651042 2.3417333e-38
-0.0012271516 -0.087345913 -0.0027651042 2.3417687e-38
0.00057013519 -0.087345913 -0.0027651042 2.350988e-38
0.0025968924 -0.089411139 -0.011791036 2.341805e-38
0.0045168679 -0.090310872 -0.015723273 2.341805e-38
0.0063368753 -0.090310872 -0.015723273 2.3142544e-38
0.0080362279 -0.089411139 -0.011791036 2.3234379e-38
0.0098493416 -0.089411139 -0.011791036 2.3234379e-38
0.011662452 -0.089411139 -0.011791036 2.341805e-38
0.013616903 -0.090310872 -0.015723273 2.3509886e-38
0.015436908 -0.090310872 -0.015723273 2.3509527e-38
0.017256917 -0.090310872 -0.015723273 2.3509168e-38
0.019200357 -0.090996325 -0.018719003 2.3508809e-38
0.021025615 -0.090996325 -0.018719003 2.3509168e-38
0.022985594 -0.091685757 -0.021732137 2.3509168e-38
0.025093505 -0.093051672 -0.02770178 2.3509527e-38
0.026934514 -0.093051672 -0.02770178 2.3509167e-38
0.02897813 -0.093979403 -0.031756327 2.3509883e-38
0.030980302 -0.094660893 -0.034734771 2.3418045e-38
0.032833643 -0.094660893 -0.034734771 2.3418045e-38
0.035242103 -0.096960694 -0.044785902 2.3234367e-38
0.03711307 -0.096960694 -0.044785902 2.2131242e-38
0.03898403 -0.096960694 -0.044785902 2.295884e-38
0.040854998 -0.096960694 -0.044785902 2.3418011e-38
0.042725958 -0.096960694 -0.044785902 1.6782054e-38
0.044596925 -0.096960694 -0.044785902 1.5674594e-38
-0.017439544 -0.087760091 0.0032337457 1.5207938e-38
-0.015652776 -0.087760091 0.0032337457 1.705398e-38
-0.013894678 -0.087074608 0.0062068254 2.2862657e-38
-0.012113122 -0.087074608 0.0062068254 2.3509838e-38
-0.010331566 -0.087074608 0.0062068254 2.3509841e-38
-0.0085057011 -0.087760091 0.0032337457 2.3509832e-38
-0.0067189317 -0.087760091 0.0032337457 2.3509844e-38
-0.0049321633 -0.087760091 0.0032337457 2.3417323e-38
-0.0031453948 -0.087760091 0.0032337457 2.3417691e-38
-0.0013586264 -0.087760091 0.0032337457 2.3418039e-38
0.00042814203 -0.087760091 0.0032337457 2.3509876e-38
0.002367422 -0.089143202 -0.0027651042 2.341805e-38
0.0042469427 -0.089840859 -0.0057909936 2.3417691e-38
0.0061345492 -0.0905184 -0.0087296218 2.3325856e-38
0.0079422947 -0.0905184 -0.0087296218 2.341805e-38
0.0097500365 -0.0905184 -0.0087296218 2.341805e-38
0.011557782 -0.0905184 -0.0087296218 2.3509527e-38
0.013475565 -0.091224253 -0.011791036 2.3509527e-38
0.015436908 -0.092130885 -0.015723273 2.3509527e-38
0.017256917 -0.092130885 -0.015723273 2.3509168e-38
0.019076923 -0.092130885 -0.015723273 2.3508809e-38
0.021025615 -0.092821583 -0.018719003 2.3509524e-38
0.022850877 -0.092821583 -0.018719003 2.350988e-38
0.024956943 -0.094215035 -0.024762675 2.3509518e-38
0.026934514 -0.094892681 -0.02770178 2.3325843e-38
0.028775522 -0.094892681 -0.02770178 2.3418038e-38
0.030826246 -0.09582752 -0.031756327 2.3234364e-38
0.032833643 -0.09651424 -0.034734771 2.3234362e-38
0.035018794 -0.097899407 -0.040742561 2.3142517e-38
0.03711307 -0.098831654 -0.044785902 2.2866999e-38
0.03898403 -0.098831654 -0.044785902 2.2866989e-38
0.040854998 -0.098831654 -0.044785902 2.2407801e-38
0.042725958 -0.098831654 -0.044785902 1.8534486e-38
0.044596925 -0.098831654 -0.044785902 1.5398727e-38
0.046661146 -0.099509358 -0.047725245 1.5027436e-38
0.049014837 -0.10114056 -0.054800078 1.6958918e-38
0.051110782 -0.10183108 -0.057794973 1.5114289e-38
-0.017439544 -0.089546859 0.0032337457 1.5946559e-38
-0.015676234 -0.088856161 0.0062068254 1.4840917e-38
-0.013894678 -0.088856161 0.0062068254 1.9728713e-38
-0.012113122 -0.088856161 0.0062068254 2.2771881e-38
-0.010331566 -0.088856161 0.0062068254 2.2035032e-38
-0.0085500097 -0.088856161 0.0062068254 2.3509809e-38
-0.0067684539 -0.088856161 0.0062068254 2.350983e-38
-0.0049868971 -0.088856161 0.0062068254 2.3509865e-38
-0.0031453948 -0.089546859 0.0032337457 2.3509876e-38
-0.0014237855 -0.088856161 0.0062068254 2.3509866e-38
0.00035776943 -0.088856161 0.0062068254 2.350987e-38
0.0022149123 -0.089546859 0.0032337457 2.341805e-38
0.0041647088 -0.09094049 -0.0027651042 2.3325497e-38
0.0059619956 -0.09094049 -0.0027651042 2.3417333e-38
0.0078521278 -0.091643453 -0.0057909936 2.3509527e-38
0.0096547175 -0.091643453 -0.0057909936 2.3509527e-38
0.011457311 -0.091643453 -0.0057909936 2.3509527e-38
0.013365528 -0.092326149 -0.0087296218 2.3509527e-38
0.015288675 -0.093037367 -0.011791036 2.3509168e-38
0.017101789 -0.093037367 -0.011791036 2.3509527e-38
0.018914903 -0.093037367 -0.011791036 2.3509164e-38
0.020896928 -0.093950883 -0.015723273 2.3325127e-38
0.022716938 -0.093950883 -0.015723273 2.3509872e-38
0.024676135 -0.094646841 -0.018719003 2.3418032e-38
0.0267928 -0.096050888 -0.024762675 2.3326191e-38
0.028628657 -0.096050888 -0.024762675 2.3234354e-38
0.030826246 -0.097675636 -0.031756327 2.3142514e-38
0.032674365 -0.097675636 -0.031756327 2.3050675e-38
0.034852415 -0.099063456 -0.037730142 2.2132299e-38
0.036882669 -0.099763289 -0.040742561 2.2775144e-38
0.03898403 -0.10070263 -0.044785902 2.0935891e-38
0.040854998 -0.10070263 -0.044785902 2.0104697e-38
0.042725958 -0.10070263 -0.044785902 1.9088376e-38
0.044596925 -0.10070263 -0.044785902 1.6966409e-38
0.046661146 -0.10138547 -0.047725245 1.290729e-38
0.04874447 -0.10209858 -0.050794765 1.4562532e-38
0.050903365 -0.10302909 -0.054800078 1.4561453e-38
0.052791886 -0.10302909 -0.054800078 1.4654325e-38
0.054898322 -0.10372485 -0.057794973 1.5115661e-38
-0.015676234 -0.090637714 0.0062068254 1.4748365e-38
-0.013894678 -0.090637714 0.0062068254 1.5025657e-38
-0.012113122 -0.090637714 0.0062068254 1.843938e-38
-0.010331566 -0.090637714 0.0062068254 2.3509786e-38
-0.0085500097 -0.090637714 0.0062068254 2.3509803e-38
-0.0067684539 -0.090637714 0.0062068254 2.3509825e-38
-0.0049868971 -0.090637714 0.0062068254 2.3509851e-38
-0.0032053422 -0.090637714 0.0062068254 2.3509859e-38
-0.0014237855 -0.090637714 0.0062068254 2.3509856e-38
0.00035776943 -0.090637714 0.0062068254 2.3509863e-38
0.0021393262 -0.090637714 0.0062068254 2.3418047e-38
0.0040016808 -0.091333628 0.0032337457 2.341805e-38
0.0059619956 -0.092737779 -0.0027651042 2.3509527e-38
0.0077592824 -0.092737779 -0.0027651042 2.3509523e-38
0.0096547175 -0.093446046 -0.0057909936 2.3509164e-38
0.011457311 -0.093446046 -0.0057909936 2.3508804e-38
0.013365528 -0.094133899 -0.0087296218 2.3508804e-38
0.015288675 -0.094850481 -0.011791036 2.3509161e-38
0.017101789 -0.094850481 -0.011791036 2.3509518e-38
0.018914903 -0.094850481 -0.011791036 2.3509876e-38
0.020728013 -0.094850481 -0.011791036 2.3509869e-38
0.022716938 -0.095770895 -0.015723273 2.3509866e-38
0.024676135 -0.096472099 -0.018719003 2.3418023e-38
0.026646676 -0.097177386 -0.021732137 2.2958836e-38
0.02847722 -0.097177386 -0.021732137 2.2866995e-38
0.030616531 -0.098574698 -0.02770178 2.2775157e-38
0.032457538 -0.098574698 -0.02770178 2.20401e-38
0.034686983 -0.10022092 -0.034734771 2.0843344e-38
0.036882669 -0.10162716 -0.040742561 1.9462908e-38
0.038746543 -0.10162716 -0.040742561 1.9186318e-38
0.040854998 -0.10257359 -0.044785902 1.9828824e-38
0.042725958 -0.10257359 -0.044785902 1.8167498e-38
0.044596925 -0.10257359 -0.044785902 1.6966772e-38
0.046661146 -0.1032616 -0.047725245 1.2447028e-38
0.048537262 -0.1032616 -0.047725245 1.401006e-38
0.050903365 -0.1049176 -0.054800078 1.5299716e-38
0.052791886 -0.1049176 -0.054800078 1.5484073e-38
0.054898322 -0.10561861 -0.057794973 1.5945052e-38
-0.015676234 -0.092419267 0.0062068254 2.064782e-38
-0.013894678 -0.092419267 0.0062068254 1.5577763e-38
-0.012113122 -0.092419267 0.0062068254 1.4197285e-38
-0.010331566 -0.092419267 0.0062068254 2.2403766e-38
-0.0085500097 -0.092419267 0.0062068254 2.3509807e-38
-0.0067684539 -0.092419267 0.0062068254 2.350983e-38
-0.0049868971 -0.092419267 0.0062068254 2.3509832e-38
-0.0032053422 -0.092419267 0.0062068254 2.3509835e-38
-0.0014237855 -0.092419267 0.0062068254 2.3418005e-38
0.00035776943 -0.092419267 0.0062068254 2.3326178e-38
0.0021393262 -0.092419267 0.0062068254 2.3142523e-38
0.0040016808 -0.093120396 0.0032337457 2.3418035e-38
0.0058749672 -0.093825653 0.00024314225 2.3509869e-38
0.0077592824 -0.094535068 -0.0027651042 2.3509867e-38
0.009556571 -0.094535068 -0.0027651042 2.3508788e-38
0.011457311 -0.09524864 -0.0057909936 2.3416952e-38
0.013365528 -0.095941633 -0.0087296218 2.3416952e-38
0.015173273 -0.095941633 -0.0087296218 2.3509147e-38
0.016981015 -0.095941633 -0.0087296218 2.3509867e-38
0.018914903 -0.096663594 -0.011791036 2.3509863e-38
0.020728013 -0.096663594 -0.011791036 2.350986e-38
0.022716938 -0.097590908 -0.015723273 2.3418021e-38
0.024676135 -0.098297372 -0.018719003 2.3050667e-38
0.026646676 -0.099007934 -0.021732137 2.2315611e-38
0.02847722 -0.099007934 -0.021732137 2.2132293e-38
0.03046451 -0.099722609 -0.024762675 2.213229e-38
0.032457538 -0.10041572 -0.02770178 2.1395798e-38
0.034522481 -0.10137187 -0.031756327 1.9922812e-38
0.036711007 -0.10278064 -0.037730142 1.7252356e-38
0.038569599 -0.10278064 -0.037730142 1.928066e-38
0.040610418 -0.10349102 -0.040742561 2.102916e-38
0.042725958 -0.10444455 -0.044785902 1.7338098e-38
0.044596925 -0.10444455 -0.044785902 1.6322128e-38
0.046661146 -0.10513772 -0.047725245 1.2447028e-38
0.048537262 -0.10513772 -0.047725245 1.354979e-38
0.050903365 -0.10680611 -0.054800078 1.5761755e-38
-0.015676234 -0.094200835 0.0062068254 2.3508783e-38
-0.013894678 -0.094200835 0.0062068254 2.0646739e-38
-0.012113122 -0.094200835 0.0062068254 1.7699996e-38
-0.010331566 -0.094200835 0.0062068254 2.1112662e-38
-0.0085500097 -0.094200835 0.0062068254 2.3509814e-38
-0.0067684539 -0.094200835 0.0062068254 2.3508755e-38
-0.0049868971 -0.094200835 0.0062068254 2.3417263e-38
-0.0032053422 -0.094200835 0.0062068254 2.2958081e-38
-0.001490796 -0.093474448 0.0092643052 2.2775133e-38
0.00028540008 -0.093474448 0.0092643052 2.2866977e-38
0.0021393262 -0.094200835 0.0062068254 2.2775151e-38
0.0040016808 -0.094907165 0.0032337457 2.3050666e-38
0.0057884492 -0.094907165 0.0032337457 2.3509848e-38
0.0076669808 -0.095617667 0.00024314225 2.3509846e-38
0.009556571 -0.096332356 -0.0027651042 2.3509486e-38
0.011457311 -0.097051233 -0.0057909936 2.3233259e-38
0.013365528 -0.097749382 -0.0087296218 2.3233262e-38
0.015173273 -0.097749382 -0.0087296218 2.3234341e-38
0.016981015 -0.097749382 -0.0087296218 2.3418016e-38
0.018914903 -0.098476708 -0.011791036 2.3418018e-38
0.020728013 -0.098476708 -0.011791036 2.3234341e-38
0.022541126 -0.098476708 -0.011791036 2.3142503e-38
0.024676135 -0.10012263 -0.018719003 2.2591477e-38
0.026501393 -0.10012263 -0.018719003 2.1671672e-38
0.028326655 -0.10012263 -0.018719003 2.1672385e-38
0.03046451 -0.10155846 -0.024762675 2.1856772e-38
0.032300368 -0.10155846 -0.024762675 2.1212478e-38
0.034298547 -0.10225673 -0.02770178 1.983169e-38
0.036370598 -0.10322 -0.031756327 1.9281374e-38
0.038393661 -0.1039276 -0.034734771 2.0571036e-38
0.040610418 -0.10535492 -0.040742561 2.1489422e-38
0.042474292 -0.10535492 -0.040742561 1.6693454e-38
0.044596925 -0.10631551 -0.044785902 1.7243733e-38
0.046467885 -0.10631551 -0.044785902 1.3645215e-38
0.048338853 -0.10631551 -0.044785902 1.2996968e-38
0.050903365 -0.10869466 -0.054800078 1.502346e-38
-0.013894678 -0.095982388 0.0062068254 1.9999941e-38
-0.012147967 -0.095250636 0.0092643052 1.8804557e-38
-0.010371772 -0.095250636 0.0092643052 1.9635388e-38
-0.0085955765 -0.095250636 0.0092643052 2.2216201e-38
-0.0067684539 -0.095982388 0.0062068254 2.3509841e-38
-0.0050431862 -0.095250636 0.0092643052 2.2034683e-38
-0.0032669902 -0.095250636 0.0092643052 2.2682199e-38
-0.001490796 -0.095250636 0.0092643052 2.2407051e-38
0.00028540008 -0.095250636 0.0092643052 2.1210306e-38
0.0020615943 -0.095250636 0.0092643052 2.1672726e-38
0.0039208811 -0.095982388 0.0062068254 2.3050639e-38
0.0057884492 -0.096693933 0.0032337457 2.3509824e-38
0.0076669808 -0.09740968 0.00024314225 2.3509825e-38
0.0094589908 -0.09740968 0.00024314225 2.3142118e-38
0.011353856 -0.098129645 -0.0027651042 2.2681142e-38
0.013259904 -0.098853827 -0.0057909936 2.3509832e-38
0.015173273 -0.099557132 -0.0087296218 2.3142489e-38
0.016981015 -0.099557132 -0.0087296218 2.2498557e-38
0.018914903 -0.10028981 -0.011791036 2.305066e-38
0.020728013 -0.10028981 -0.011791036 2.3142496e-38
0.022541126 -0.10028981 -0.011791036 2.2499639e-38
0.024536943 -0.10123092 -0.015723273 2.213229e-38
0.026501393 -0.10194789 -0.018719003 2.1396515e-38
0.028326655 -0.10194789 -0.018719003 2.1028088e-38
0.03030776 -0.10266902 -0.021732137 2.1489423e-38
0.032300368 -0.10339431 -0.024762675 2.1397584e-38
0.034298547 -0.10409774 -0.02770178 1.9923883e-38
0.036370598 -0.1050681 -0.031756327 1.8912947e-38
0.038393661 -0.10578094 -0.034734771 2.112206e-38
0.040428191 -0.10649781 -0.037730142 2.2040446e-38
0.042474292 -0.10721879 -0.040742561 1.7338828e-38
0.044338167 -0.10721879 -0.040742561 1.7796555e-38
0.046467885 -0.10818647 -0.044785902 1.2446678e-38
0.048338853 -0.10818647 -0.044785902 1.3918202e-38
0.050413385 -0.10888995 -0.047725245 1.4377727e-38
-0.013894678 -0.097763941 0.0062068254 1.7047883e-38
-0.012147967 -0.09702684 0.0092643052 1.3547625e-38
-0.010371772 -0.09702684 0.0092643052 1.3825998e-38
-0.0085955765 -0.09702684 0.0092643052 1.7420948e-38
-0.0067684539 -0.097763941 0.0062068254 2.3509831e-38
-0.0050431862 -0.09702684 0.0092643052 2.3417614e-38
-0.0032669902 -0.09702684 0.0092643052 2.3050617e-38
-0.001490796 -0.09702684 0.0092643052 2.1855295e-38
0.00028540008 -0.09702684 0.0092643052 2.0475234e-38
0.0020615943 -0.09702684 0.0092643052 2.0568511e-38
0.0039208811 -0.097763941 0.0062068254 2.1213166e-38
0.0057884492 -0.098480701 0.0032337457 2.2499598e-38
0.0076669808 -0.099201679 0.00024314225 2.3509806e-38
0.0094589908 -0.099201679 0.00024314225 2.2958786e-38
0.011353856 -0.099926919 -0.0027651042 2.2129748e-38
0.013259904 -0.10065642 -0.0057909936 2.286696e-38
0.015062494 -0.10065642 -0.0057909936 2.2683296e-38
0.016981015 -0.10136487 -0.0087296218 2.2039007e-38
0.018788761 -0.10136487 -0.0087296218 2.2040449e-38
0.020596506 -0.10136487 -0.0087296218 2.1763862e-38
0.022541126 -0.10210292 -0.011791036 2.1119212e-38
0.024536943 -0.10305093 -0.015723273 2.1027732e-38
0.026501393 -0.10377313 -0.018719003 2.0752221e-38
0.028326655 -0.10377313 -0.018719003 2.0475989e-38
0.03030776 -0.10449956 -0.021732137 2.0292314e-38
0.032300368 -0.10523017 -0.024762675 1.9185603e-38
0.034298547 -0.10593875 -0.02770178 1.6882503e-38
0.036370598 -0.10691623 -0.031756327 1.6977562e-38
0.038393661 -0.10763429 -0.034734771 2.011186e-38
0.040428191 -0.1083564 -0.037730142 2.1948615e-38
0.042286783 -0.1083564 -0.037730142 1.8076037e-38
0.044338167 -0.10908265 -0.040742561 1.8349376e-38
0.046467885 -0.11005743 -0.044785902 1.2815106e-38
0.048338853 -0.11005743 -0.044785902 1.3826007e-38
0.050209813 -0.11005743 -0.044785902 1.4101139e-38
-0.010371772 -0.098803028 0.0092643052 1.2348368e-38
-0.0085955765 -0.098803028 0.0092643052 1.3179219e-38
-0.0068193804 -0.098803028 0.0092643052 2.3138509e-38
-0.0050431862 -0.098803028 0.0092643052 2.3509817e-38
-0.0032669902 -0.098803028 0.0092643052 2.2314847e-38
-0.001490796 -0.098803028 0.0092643052 2.1027317e-38
0.00028540008 -0.098803028 0.0092643052 2.06614e-38
0.0020615943 -0.098803028 0.0092643052 1.9464661e-38
0.0039208811 -0.099545494 0.0062068254 1.92792e-38
0.0057884492 -0.10026747 0.0032337457 2.1395751e-38
0.0075752195 -0.10026747 0.0032337457 2.2775098e-38
0.0094589908 -0.10099369 0.00024314225 2.2775104e-38
0.011353856 -0.10172421 -0.0027651042 2.222373e-38
0.013151145 -0.10172421 -0.0027651042 2.2315933e-38
0.015062494 -0.10245901 -0.0057909936 2.2040432e-38
0.016981015 -0.10317262 -0.0087296218 2.1395784e-38
0.018788761 -0.10317262 -0.0087296218 2.1120282e-38
0.020596506 -0.10317262 -0.0087296218 2.0751501e-38
0.022541126 -0.10391603 -0.011791036 1.9738069e-38
0.024536943 -0.10487093 -0.015723273 1.9738787e-38
0.026501393 -0.10559841 -0.018719003 2.0292317e-38
0.02847722 -0.10633011 -0.021732137 2.0476705e-38
0.03046451 -0.10706602 -0.024762675 2.0108999e-38
0.032457538 -0.10777976 -0.02770178 1.8909734e-38
0.034522481 -0.10876434 -0.031756327 1.6606635e-38
0.036370598 -0.10876434 -0.031756327 1.6239644e-38
0.038393661 -0.10948761 -0.034734771 2.0111864e-38
0.040428191 -0.11021499 -0.037730142 2.2315964e-38
0.042286783 -0.11021499 -0.037730142 1.9182387e-38
0.044338167 -0.11094652 -0.040742561 1.8994749e-38
0.046202034 -0.11094652 -0.040742561 1.3275371e-38
0.048065908 -0.11094652 -0.040742561 1.3456864e-38
0.050209813 -0.11192839 -0.044785902 1.3546888e-38
0.052080773 -0.11192839 -0.044785902 1.3914943e-38
-0.010371772 -0.10057923 0.0092643052 1.1886315e-38
-0.0085955765 -0.10057923 0.0092643052 1.2349084e-38
-0.0068193804 -0.10057923 0.0092643052 2.2123979e-38
-0.0050431862 -0.10057923 0.0092643052 2.2864432e-38
-0.0032669902 -0.10057923 0.0092643052 2.0747519e-38
-0.001490796 -0.10057923 0.0092643052 2.0107509e-38
0.00028540008 -0.10057923 0.0092643052 2.0570993e-38
0.0020615943 -0.10057923 0.0092643052 1.863705e-38
0.0039208811 -0.10132705 0.0062068254 1.8173922e-38
0.0057024378 -0.10132705 0.0062068254 1.97373e-38
0.0075752195 -0.10205424 0.0032337457 2.0841498e-38
0.0093619879 -0.10205424 0.0032337457 2.1395396e-38
0.011251004 -0.10278571 0.00024314225 2.1948577e-38
0.013151145 -0.10352151 -0.0027651042 2.1948585e-38
0.015062494 -0.10426159 -0.0057909936 2.1396855e-38
0.016981015 -0.10498036 -0.0087296218 2.0936241e-38
0.018788761 -0.10498036 -0.0087296218 2.0936967e-38
0.020596506 -0.10498036 -0.0087296218 2.0568548e-38
0.022541126 -0.10572915 -0.011791036 1.9371083e-38
0.024676135 -0.10742365 -0.018719003 1.9186689e-38
0.026501393 -0.10742365 -0.018719003 1.9648023e-38
0.02847722 -0.10816063 -0.021732137 2.0016803e-38
0.03046451 -0.10890187 -0.024762675 2.0385584e-38
0.032457538 -0.10962076 -0.02770178 1.9924962e-38
0.034298547 -0.10962076 -0.02770178 1.8450548e-38
0.036370598 -0.11061247 -0.031756327 1.7438551e-38
0.038218722 -0.11061247 -0.031756327 2.0938402e-38
0.040428191 -0.11207359 -0.037730142 2.2499635e-38
0.042286783 -0.11207359 -0.037730142 1.9643363e-38
0.044145375 -0.11207359 -0.037730142 1.9177706e-38
0.046202034 -0.11281042 -0.040742561 1.3182818e-38
0.048065908 -0.11281042 -0.040742561 1.2718943e-38
0.050209813 -0.11379938 -0.044785902 1.271713e-38
0.052080773 -0.11379938 -0.044785902 1.3545807e-38
-0.0068193804 -0.10235542 0.0092643052 2.0188927e-38
-0.0050431862 -0.10235542 0.0092643052 2.1020866e-38
-0.0033282693 -0.10160676 0.012303427 1.9550045e-38
-0.0015574023 -0.10160676 0.012303427 1.8909683e-38
0.00021346286 -0.10160676 0.012303427 1.9005466e-38
0.0020615943 -0.10235542 0.0092643052 1.7163359e-38
0.0038377903 -0.10235542 0.0092643052 1.7529994e-38
0.0057024378 -0.1031086 0.0062068254 1.7894828e-38
0.0074839946 -0.1031086 0.0062068254 1.8077071e-38
0.0093619879 -0.10384102 0.0032337457 1.9276339e-38
0.011251004 -0.10457774 0.00024314225 2.1028421e-38
0.013151145 -0.1053188 -0.0027651042 2.1120981e-38
0.015062494 -0.10606419 -0.0057909936 2.0015363e-38
0.016981015 -0.10678811 -0.0087296218 1.9923531e-38
0.018788761 -0.10678811 -0.0087296218 2.0385232e-38
0.020596506 -0.10678811 -0.0087296218 2.0017172e-38
0.022541126 -0.10754226 -0.011791036 1.9371802e-38
0.024676135 -0.10924892 -0.018719003 1.9095213e-38
0.026501393 -0.10924892 -0.018719003 1.8910818e-38
0.02847722 -0.10999118 -0.021732137 1.9003369e-38
0.03046451 -0.11073773 -0.024762675 1.9740931e-38
0.032457538 -0.11146177 -0.02770178 2.0017152e-38
0.034298547 -0.11146177 -0.02770178 1.8911523e-38
0.036370598 -0.11246057 -0.031756327 1.8544186e-38
0.038218722 -0.11246057 -0.031756327 2.0754732e-38
0.040247001 -0.1131943 -0.034734771 2.1397592e-38
0.042100348 -0.1131943 -0.034734771 1.8906154e-38
0.044145375 -0.11393218 -0.037730142 1.8440496e-38
0.046202034 -0.11467429 -0.040742561 1.290551e-38
0.048065908 -0.11467429 -0.040742561 1.2256886e-38
0.050209813 -0.11567034 -0.044785902 1.2624218e-38
0.052080773 -0.11567034 -0.044785902 1.4005711e-38
-0.0068193804 -0.10413162 0.0092643052 1.7608155e-38
-0.0050991364 -0.10337763 0.012303427 1.9731188e-38
-0.0033282693 -0.10337763 0.012303427 1.9551112e-38
-0.0015574023 -0.10337763 0.012303427 1.7711502e-38
0.00021346286 -0.10337763 0.012303427 1.6977172e-38
0.0019843299 -0.10337763 0.012303427 1.5688596e-38
0.0038377903 -0.10413162 0.0092643052 1.7347048e-38
0.0056139845 -0.10413162 0.0092643052 1.8171425e-38
0.0074839946 -0.10489015 0.0062068254 1.7709013e-38
0.0092655513 -0.10489015 0.0062068254 1.8907922e-38
0.011148756 -0.10562779 0.0032337457 2.0475612e-38
0.013151145 -0.10711606 -0.0027651042 2.001536e-38
0.01494843 -0.10711606 -0.0027651042 1.9093768e-38
0.016981015 -0.10859586 -0.0087296218 1.872643e-38
0.018788761 -0.10859586 -0.0087296218 1.8818989e-38
0.020596506 -0.10859586 -0.0087296218 1.835801e-38
0.022541126 -0.10935538 -0.011791036 1.8634597e-38
0.024676135 -0.11107419 -0.018719003 1.8819344e-38
0.026501393 -0.11107419 -0.018719003 1.8542752e-38
0.02847722 -0.11182173 -0.021732137 1.8726779e-38
0.03046451 -0.11257361 -0.024762675 2.0017874e-38
0.032457538 -0.11330278 -0.02770178 2.0201901e-38
0.034522481 -0.1143087 -0.031756327 1.8542741e-38
0.036370598 -0.1143087 -0.031756327 1.8175406e-38
0.038218722 -0.1143087 -0.031756327 1.955691e-38
0.040247001 -0.11504765 -0.034734771 1.94622e-38
0.042100348 -0.11504765 -0.034734771 1.8259702e-38
0.044145375 -0.11579077 -0.037730142 1.7978799e-38
0.046003968 -0.11579077 -0.037730142 1.2536728e-38
0.048065908 -0.11653815 -0.040742561 1.1888103e-38
0.049929783 -0.11653815 -0.040742561 1.3269231e-38
-0.0068193804 -0.10590781 0.0092643052 1.5580201e-38
-0.0051529035 -0.1044188 0.015223935 1.8717734e-38
-0.0033871569 -0.1044188 0.015223935 1.9644011e-38
-0.0016214103 -0.1044188 0.015223935 1.7066858e-38
0.00014433451 -0.1044188 0.015223935 1.6331817e-38
0.0019843299 -0.10514848 0.012303427 1.5413098e-38
0.0038377903 -0.10590781 0.0092643052 1.725594e-38
0.0056139845 -0.10590781 0.0092643052 1.798848e-38
0.0074839946 -0.10667174 0.0062068254 1.798633e-38
0.0092655513 -0.10667174 0.0062068254 1.9000488e-38
0.011148756 -0.10741456 0.0032337457 1.9554384e-38
0.013151145 -0.10891335 -0.0027651042 1.8818263e-38
0.01494843 -0.10891335 -0.0027651042 1.8910824e-38
0.016981015 -0.11040358 -0.0087296218 1.8911186e-38
0.018788761 -0.11040358 -0.0087296218 1.7528974e-38
0.020596506 -0.11040358 -0.0087296218 1.7436779e-38
0.022541126 -0.11116849 -0.011791036 1.8359091e-38
0.024676135 -0.11289944 -0.018719003 1.8820423e-38
0.026501393 -0.11289944 -0.018719003 1.8267244e-38
0.02847722 -0.11365227 -0.021732137 1.8911889e-38
0.03046451 -0.11440946 -0.024762675 2.0662883e-38
0.032457538 -0.11514379 -0.02770178 2.0387008e-38
0.034298547 -0.11514379 -0.02770178 1.7713699e-38
0.036370598 -0.1161568 -0.031756327 1.7806266e-38
0.038218722 -0.1161568 -0.031756327 1.891154e-38
0.040247001 -0.11690097 -0.034734771 1.9000862e-38
0.042100348 -0.11690097 -0.034734771 1.8905429e-38
0.043953687 -0.11690097 -0.034734771 1.8347581e-38
0.046003968 -0.11764936 -0.037730142 1.2443812e-38
0.04786256 -0.11764936 -0.037730142 1.1703352e-38
0.049721152 -0.11764936 -0.037730142 1.4006436e-38
-0.006968677 -0.10542886 0.018227413 1.49334e-38
-0.0052081961 -0.10542886 0.018227413 1.7979452e-38
-0.0033871569 -0.10618456 0.015223935 1.9551098e-38
-0.0016214103 -0.10618456 0.015223935 1.7342014e-38
0.00014433451 -0.10618456 0.015223935 1.7161582e-38
0.0019843299 -0.10691936 0.012303427 1.624286e-38
0.0037551969 -0.10691936 0.012303427 1.7532527e-38
0.0056139845 -0.107684 0.0092643052 1.6053813e-38
0.0074839946 -0.10845329 0.0062068254 1.697326e-38
0.0092655513 -0.10845329 0.0062068254 1.817145e-38
0.011148756 -0.10920133 0.0032337457 1.8355843e-38
0.013151145 -0.11071064 -0.0027651042 1.8171814e-38
0.015062494 -0.11147197 -0.0057909936 1.9739863e-38
0.016981015 -0.11221133 -0.0087296218 2.0109367e-38
0.018788761 -0.11221133 -0.0087296218 1.798851e-38
0.020596506 -0.11221133 -0.0087296218 1.845021e-38
0.022541126 -0.1129816 -0.011791036 1.9096656e-38
0.024676135 -0.11472471 -0.018719003 1.9189206e-38
0.026501393 -0.11472471 -0.018719003 1.8266165e-38
0.02847722 -0.11548282 -0.021732137 1.8635658e-38
0.03046451 -0.11624531 -0.024762675 2.0754717e-38
0.032457538 -0.1169848 -0.02770178 2.0017507e-38
0.034298547 -0.1169848 -0.02770178 1.6514436e-38
0.036370598 -0.11800493 -0.031756327 1.8266522e-38
0.038218722 -0.11800493 -0.031756327 1.9279601e-38
0.040247001 -0.11875431 -0.034734771 1.955403e-38
0.042100348 -0.11875431 -0.034734771 2.0196518e-38
0.043953687 -0.11875431 -0.034734771 1.8994019e-38
0.046003968 -0.11950795 -0.037730142 1.2261213e-38
0.04786256 -0.11950795 -0.037730142 1.1151617e-38
0.049721152 -0.11950795 -0.037730142 1.4007517e-38
-0.006968677 -0.10718934 0.018227413 1.2718206e-38
-0.0052081961 -0.10718934 0.018227413 1.5947574e-38
-0.0033871569 -0.10795029 0.015223935 1.9547882e-38
-0.0016214103 -0.10795029 0.015223935 1.7156191e-38
0.00014433451 -0.10795029 0.015223935 1.6422935e-38
0.0019843299 -0.10869022 0.012303427 1.6150297e-38
0.0037551969 -0.10869022 0.012303427 1.6335054e-38
0.0056139845 -0.10946019 0.0092643052 1.6147804e-38
0.0074839946 -0.11023484 0.0062068254 1.4670527e-38
0.0092655513 -0.11023484 0.0062068254 1.7434601e-38
0.011148756 -0.1109881 0.0032337457 1.7986336e-38
0.013043018 -0.11174576 0.00024314225 1.7893421e-38
0.015062494 -0.11327456 -0.0057909936 2.0290507e-38
0.016981015 -0.11401908 -0.0087296218 1.9829892e-38
0.018788761 -0.11401908 -0.0087296218 1.8632429e-38
0.020728013 -0.11479472 -0.011791036 1.9185613e-38
0.022541126 -0.11479472 -0.011791036 1.9555836e-38
0.024676135 -0.11654995 -0.018719003 1.900302e-38
0.026501393 -0.11654995 -0.018719003 1.8634232e-38
0.02847722 -0.11731337 -0.021732137 1.9833482e-38
0.03046451 -0.11808117 -0.024762675 2.0294096e-38
0.032457538 -0.11882581 -0.02770178 1.891008e-38
0.034298547 -0.11882581 -0.02770178 1.743459e-38
0.036370598 -0.11985306 -0.031756327 1.8725337e-38
0.038393661 -0.12060766 -0.034734771 1.8633141e-38
0.040247001 -0.12060766 -0.034734771 1.8816093e-38
0.042100348 -0.12060766 -0.034734771 1.9183794e-38
0.043953687 -0.12060766 -0.034734771 1.8904689e-38
0.045807026 -0.12060766 -0.034734771 1.1157734e-38
0.047660366 -0.12060766 -0.034734771 1.1522914e-38
0.049026623 -0.11882581 -0.02770178 1.2811492e-38
0.050867632 -0.11882581 -0.02770178 1.3638378e-38
-0.0051529035 -0.10971604 0.015223935 1.5208947e-38
-0.0033871569 -0.10971604 0.015223935 1.8992565e-38
-0.0015574023 -0.11046107 0.012303427 1.7246593e-38
0.00021346286 -0.11046107 0.012303427 1.7435652e-38
0.0020615943 -0.11123641 0.0092643052 1.7716544e-38
0.0038377903 -0.11123641 0.0092643052 1.7810184e-38
0.0056139845 -0.11123641 0.0092643052 1.707012e-38
0.0074839946 -0.11201639 0.0062068254 1.5685398e-38
0.0092655513 -0.11201639 0.0062068254 1.7803381e-38
0.011047104 -0.11201639 0.0062068254 1.7617547e-38
0.013043018 -0.11353777 0.00024314225 1.7708663e-38
0.015062494 -0.11507715 -0.0057909936 2.0566729e-38
0.017101789 -0.11660783 -0.011791036 2.038234e-38
0.018914903 -0.11660783 -0.011791036 1.9184163e-38
0.020728013 -0.11660783 -0.011791036 1.8632074e-38
0.022541126 -0.11660783 -0.011791036 1.9094494e-38
0.024676135 -0.11837523 -0.018719003 1.8542039e-38
0.026501393 -0.11837523 -0.018719003 1.7988862e-38
0.02847722 -0.11914389 -0.021732137 1.8726419e-38
0.03046451 -0.11991702 -0.024762675 1.9003357e-38
0.032457538 -0.12066682 -0.02770178 1.8356543e-38
0.034298547 -0.12066682 -0.02770178 1.7710095e-38
0.036370598 -0.12170117 -0.031756327 1.7618626e-38
0.038393661 -0.12246101 -0.034734771 1.7710822e-38
0.040247001 -0.12246101 -0.034734771 1.8355113e-38
0.042100348 -0.12246101 -0.034734771 1.9461099e-38
0.043953687 -0.12246101 -0.034734771 1.9458938e-38
0.045807026 -0.12246101 -0.034734771 1.1435757e-38
0.047660366 -0.12246101 -0.034734771 1.1616548e-38
0.049026623 -0.12066682 -0.02770178 1.3272833e-38
0.050867632 -0.12066682 -0.02770178 1.3547264e-38
-0.0050991364 -0.11223195 0.012303427 1.4470666e-38
-0.0033871569 -0.11148177 0.015223935 1.8255002e-38
-0.0016214103 -0.11148177 0.015223935 1.7337715e-38
0.00021346286 -0.11223195 0.012303427 1.8172504e-38
0.0020615943 -0.1130126 0.0092643052 1.8361201e-38
0.0038377903 -0.1130126 0.0092643052 1.7993861e-38
0.0056139845 -0.1130126 0.0092643052 1.7254517e-38
0.0074839946 -0.11379795 0.0062068254 1.5870512e-38
0.0092655513 -0.11379795 0.0062068254 1.725164e-38
0.011047104 -0.11379795 0.0062068254 1.6051655e-38
0.013043018 -0.11532979 0.00024314225 1.6510838e-38
0.015062494 -0.11687975 -0.0057909936 2.010575e-38
0.016981015 -0.11763458 -0.0087296218 2.0105397e-38
0.018788761 -0.11763458 -0.0087296218 1.881574e-38
0.020596506 -0.11763458 -0.0087296218 1.8816819e-38
0.022716938 -0.11943097 -0.015723273 1.9187042e-38
0.024536943 -0.11943097 -0.015723273 1.8542392e-38
0.026501393 -0.12020047 -0.018719003 1.75286e-38
0.02847722 -0.12097444 -0.021732137 1.7620434e-38
0.03046451 -0.12175287 -0.024762675 1.752787e-38
0.032457538 -0.12250783 -0.02770178 1.7434587e-38
0.034298547 -0.12250783 -0.02770178 1.7711174e-38
0.036370598 -0.1235493 -0.031756327 1.8263996e-38
0.038393661 -0.12431435 -0.034734771 1.7802665e-38
0.040247001 -0.12431435 -0.034734771 1.8447311e-38
0.042100348 -0.12431435 -0.034734771 1.9922078e-38
0.043953687 -0.12431435 -0.034734771 2.0012112e-38
0.045807026 -0.12431435 -0.034734771 1.1803819e-38
0.047660366 -0.12431435 -0.034734771 1.1524356e-38
0.049307428 -0.1235493 -0.031756327 1.3272836e-38
0.051155545 -0.1235493 -0.031756327 1.4099359e-38
-0.0051529035 -0.11324753 0.015223935 1.4193721e-38
-0.0033871569 -0.11324753 0.015223935 1.8254285e-38
-0.0016214103 -0.11324753 0.015223935 1.7521034e-38
0.00021346286 -0.11400281 0.012303427 1.835582e-38
0.0020615943 -0.11478879 0.0092643052 1.7898791e-38
0.0038377903 -0.11478879 0.0092643052 1.6793887e-38
0.0056139845 -0.11478879 0.0092643052 1.6700992e-38
0.0074839946 -0.1155795 0.0062068254 1.5778319e-38
0.0092655513 -0.1155795 0.0062068254 1.6698461e-38
0.011148756 -0.1163484 0.0032337457 1.4668715e-38
0.013043018 -0.1171218 0.00024314225 1.5404488e-38
0.015062494 -0.11868234 -0.0057909936 1.9368548e-38
0.016981015 -0.11944233 -0.0087296218 1.9368197e-38
0.018788761 -0.11944233 -0.0087296218 1.8170372e-38
0.020596506 -0.11944233 -0.0087296218 1.9646933e-38
0.022716938 -0.121251 -0.015723273 1.9648372e-38
0.024536943 -0.121251 -0.015723273 1.8726779e-38
0.026501393 -0.12202574 -0.018719003 1.7712991e-38
0.02847722 -0.12280498 -0.021732137 1.7436044e-38
0.03046451 -0.12358873 -0.024762675 1.6882866e-38
0.032457538 -0.12434883 -0.02770178 1.706652e-38
0.034298547 -0.12434883 -0.02770178 1.7988114e-38
0.036370598 -0.1253974 -0.031756327 1.9462542e-38
0.038393661 -0.12616767 -0.034734771 1.817145e-38
0.040247001 -0.12616767 -0.034734771 1.8262922e-38
0.042100348 -0.12616767 -0.034734771 1.9829164e-38
0.043953687 -0.12616767 -0.034734771 2.0379818e-38
0.045807026 -0.12616767 -0.034734771 1.1987855e-38
0.047660366 -0.12616767 -0.034734771 1.143216e-38
0.049026623 -0.12434883 -0.02770178 1.2904053e-38
0.050867632 -0.12434883 -0.02770178 1.4375949e-38
-0.064238213 -0.10900976 0.038281575 2.3230767e-38
-0.062512897 -0.10900976 0.038281575 2.3509161e-38
-0.060899951 -0.10978593 0.035300568 2.3508805e-38
-0.059169404 -0.10978593 0.035300568 2.1663812e-38
-0.0051529035 -0.11501329 0.015223935 1.4192645e-38
-0.0033871569 -0.11501329 0.015223935 1.8529796e-38
-0.0016214103 -0.11501329 0.015223935 1.78891e-38
0.00021346286 -0.11577369 0.012303427 1.8630975e-38
0.0020615943 -0.11656497 0.0092643052 1.7897357e-38
0.0038377903 -0.11656497 0.0092643052 1.6608782e-38
0.0056139845 -0.11656497 0.0092643052 1.6608444e-38
0.0074839946 -0.11736105 0.0062068254 1.6147463e-38
0.0092655513 -0.11736105 0.0062068254 1.6791731e-38
0.011251004 -0.11891381 0.00024314225 1.4393202e-38
0.013151145 -0.11969708 -0.0027651042 1.512862e-38
0.015062494 -0.12048493 -0.0057909936 1.8907573e-38
0.016865088 -0.12048493 -0.0057909936 1.8630637e-38
0.018667681 -0.12048493 -0.0057909936 1.7525726e-38
0.020596506 -0.12125005 -0.0087296218 1.9278865e-38
0.022541126 -0.12204717 -0.011791036 1.8727484e-38
0.024536943 -0.123071 -0.015723273 1.789809e-38
0.026501393 -0.12385099 -0.018719003 1.7345645e-38
0.02847722 -0.12463553 -0.021732137 1.7620445e-38
0.030616531 -0.12618984 -0.02770178 1.7159457e-38
0.032457538 -0.12618984 -0.02770178 1.7527496e-38
0.034298547 -0.12618984 -0.02770178 1.8634201e-38
0.036370598 -0.12724553 -0.031756327 1.9646933e-38
0.038393661 -0.12802102 -0.034734771 1.8263647e-38
0.040247001 -0.12802102 -0.034734771 1.8078531e-38
0.042100348 -0.12802102 -0.034734771 1.9829166e-38
0.043953687 -0.12802102 -0.034734771 2.0840796e-38
0.045807026 -0.12802102 -0.034734771 1.2817255e-38
0.047660366 -0.12802102 -0.034734771 1.1892059e-38
0.049026623 -0.12618984 -0.02770178 1.2626747e-38
0.050867632 -0.12618984 -0.02770178 1.4006448e-38
-0.068999246 -0.10839428 0.047211722 2.3509866e-38
-0.067289583 -0.10839428 0.047211722 2.3509507e-38
-0.065579921 -0.10839428 0.047211722 2.3324404e-38
-0.063990869 -0.10916151 0.044284657 2.3508804e-38
-0.062396005 -0.1099584 0.041244641 2.3509527e-38
-0.060787581 -0.11073507 0.038281575 2.3509168e-38
-0.059062257 -0.11073507 0.038281575 2.3509527e-38
-0.0050991364 -0.11754455 0.012303427 1.3915695e-38
-0.0033871569 -0.11677901 0.015223935 1.889678e-38
-0.0016214103 -0.11677901 0.015223935 1.8256443e-38
0.00028540008 -0.11834116 0.0092643052 1.8813931e-38
0.0020615943 -0.11834116 0.0092643052 1.8448739e-38
0.0038377903 -0.11834116 0.0092643052 1.7712979e-38
0.0056139845 -0.11834116 0.0092643052 1.6515897e-38
0.0074839946 -0.11914261 0.0062068254 1.6423697e-38
0.0092655513 -0.11914261 0.0062068254 1.7068316e-38
0.011251004 -0.12070583 0.00024314225 1.4393196e-38
0.013151145 -0.12149437 -0.0027651042 1.4944226e-38
0.015062494 -0.12228753 -0.0057909936 1.8077815e-38
0.016865088 -0.12228753 -0.0057909936 1.7524653e-38
0.018667681 -0.12228753 -0.0057909936 1.7064748e-38
0.020596506 -0.1230578 -0.0087296218 1.7804088e-38
0.022541126 -0.12386028 -0.011791036 1.716051e-38
0.024536943 -0.124891 -0.015723273 1.6699902e-38
0.026501393 -0.12567626 -0.018719003 1.7069058e-38
0.02847722 -0.12646608 -0.021732137 1.7897036e-38
0.03046451 -0.12726043 -0.024762675 1.7343493e-38
0.032457538 -0.12803085 -0.02770178 1.7528932e-38
0.034298547 -0.12803085 -0.02770178 1.9095173e-38
0.036370598 -0.12909363 -0.031756327 2.0107908e-38
0.038393661 -0.12987436 -0.034734771 1.9277799e-38
0.040247001 -0.12987436 -0.034734771 1.9368551e-38
0.042100348 -0.12987436 -0.034734771 2.0750041e-38
0.043953687 -0.12987436 -0.034734771 2.1393607e-38
0.045807026 -0.12987436 -0.034734771 1.3278231e-38
0.047660366 -0.12987436 -0.034734771 1.2076087e-38
0.049307428 -0.12909363 -0.031756327 1.2349437e-38
0.051155545 -0.12909363 -0.031756327 1.3360715e-38
-0.070321761 -0.10798518 0.055241004 2.3141804e-38
-0.06862618 -0.10798518 0.055241004 2.3509869e-38
-0.067197181 -0.1095586 0.049278393 2.3141092e-38
-0.065491147 -0.1095586 0.049278393 2.350988e-38
-0.063870266 -0.11010392 0.047211722 2.3509527e-38
-0.062276073 -0.11087631 0.044284657 2.2956362e-38
-0.060561284 -0.11087631 0.044284657 2.3141109e-38
-0.058846489 -0.11087631 0.044284657 2.323402e-38
-0.0033871569 -0.11854477 0.015223935 1.9080809e-38
-0.0016214103 -0.11854477 0.015223935 1.8439755e-38
0.00021346286 -0.11931543 0.012303427 1.8259318e-38
0.0020615943 -0.12011738 0.0092643052 1.7709735e-38
0.0038377903 -0.12011738 0.0092643052 1.715909e-38
0.0056139845 -0.12011738 0.0092643052 1.6053847e-38
0.0074839946 -0.12092416 0.0062068254 1.6147115e-38
0.0092655513 -0.12092416 0.0062068254 1.6700251e-38
0.011251004 -0.12249784 0.00024314225 1.4118043e-38
0.013151145 -0.12329166 -0.0027651042 1.4576522e-38
0.015062494 -0.12409012 -0.0057909936 1.734061e-38
0.016865088 -0.12409012 -0.0057909936 1.6971124e-38
0.018667681 -0.12409012 -0.0057909936 1.7433533e-38
0.020470271 -0.12409012 -0.0057909936 1.716015e-38
0.022404252 -0.12486555 -0.0087296218 1.6699882e-38
0.02435424 -0.1256734 -0.011791036 1.66077e-38
0.026356949 -0.126711 -0.015723273 1.7437838e-38
0.028326655 -0.1275015 -0.018719003 1.7988876e-38
0.03046451 -0.12909628 -0.024762675 1.688252e-38
0.032457538 -0.12987186 -0.02770178 1.6883563e-38
0.034298547 -0.12987186 -0.02770178 1.8634551e-38
0.036370598 -0.13094176 -0.031756327 2.0015711e-38
0.038393661 -0.13172771 -0.034734771 1.9830971e-38
0.040247001 -0.13172771 -0.034734771 1.9921722e-38
0.042100348 -0.13172771 -0.034734771 2.0196866e-38
0.044145375 -0.1325181 -0.037730142 2.0102865e-38
0.046003968 -0.1325181 -0.037730142 1.2632135e-38
0.048065908 -0.13331302 -0.040742561 1.2167559e-38
0.049929783 -0.13331302 -0.040742561 1.262566e-38
0.051793657 -0.13331302 -0.040742561 1.3452185e-38
-0.075408511 -0.10968079 0.055241004 2.3509873e-38
-0.073712923 -0.10968079 0.055241004 2.2865218e-38
-0.071865134 -0.10887168 0.05828698 2.2588631e-38
-0.070174895 -0.10887168 0.05828698 2.3509869e-38
-0.06862618 -0.10968079 0.055241004 2.350987e-38
-0.067197181 -0.11126463 0.049278393 2.3417323e-38
-0.065491147 -0.11126463 0.049278393 2.3509883e-38
-0.063870266 -0.11181359 0.047211722 2.3509527e-38
-0.062160604 -0.11181359 0.047211722 2.2864167e-38
-0.060450941 -0.11181359 0.047211722 2.3417691e-38
-0.058666997 -0.11126463 0.049278393 2.323402e-38
-0.056858718 -0.11047028 0.052268818 2.2128404e-38
-0.055157922 -0.11047028 0.052268818 2.2682649e-38
-0.0052081961 -0.11951269 0.018227413 1.3822056e-38
-0.0034477171 -0.11951269 0.018227413 1.944923e-38
-0.001687238 -0.11951269 0.018227413 1.8347195e-38
7.3242933e-05 -0.11951269 0.018227413 1.7244803e-38
0.0019843299 -0.12108628 0.012303427 1.614169e-38
0.0038377903 -0.12189357 0.0092643052 1.5590688e-38
0.0056139845 -0.12189357 0.0092643052 1.5684711e-38
0.0074839946 -0.12270571 0.0062068254 1.5870172e-38
0.0093619879 -0.12349547 0.0032337457 1.6515859e-38
0.011353856 -0.12508895 -0.0027651042 1.4210238e-38
0.013151145 -0.12508895 -0.0027651042 1.4853112e-38
0.015062494 -0.12589271 -0.0057909936 1.7432807e-38
0.016865088 -0.12589271 -0.0057909936 1.7247711e-38
0.018667681 -0.12589271 -0.0057909936 1.8355487e-38
0.020470271 -0.12589271 -0.0057909936 1.7805516e-38
0.022404252 -0.1266733 -0.0087296218 1.7345969e-38
0.02435424 -0.12748651 -0.011791036 1.7437817e-38
0.026356949 -0.12853102 -0.015723273 1.8175403e-38
0.028326655 -0.12932678 -0.018719003 1.8081075e-38
0.03046451 -0.13093217 -0.024762675 1.6328989e-38
0.032457538 -0.13171287 -0.02770178 1.5961604e-38
0.034298547 -0.13171287 -0.02770178 1.7804789e-38
0.036370598 -0.13278987 -0.031756327 1.8633133e-38
0.038393661 -0.13358103 -0.034734771 1.909268e-38
0.040247001 -0.13358103 -0.034734771 1.8815729e-38
0.042100348 -0.13358103 -0.034734771 1.8261111e-38
0.044145375 -0.13437669 -0.037730142 1.8074196e-38
0.046003968 -0.13437669 -0.037730142 1.1341032e-38
0.048065908 -0.13517688 -0.040742561 1.2167909e-38
0.049929783 -0.13517688 -0.040742561 1.3455771e-38
0.051793657 -0.13517688 -0.040742561 1.38206e-38
-0.075408511 -0.11137636 0.055241004 2.350987e-38
-0.073712923 -0.11137636 0.055241004 2.2680108e-38
-0.071865134 -0.11056192 0.05828698 2.3509869e-38
-0.070174895 -0.11056192 0.05828698 2.2772661e-38
-0.068764277 -0.11217107 0.052268818 2.3509869e-38
-0.067197181 -0.11297067 0.049278393 2.3509876e-38
-0.065491147 -0.11297067 0.049278393 2.3509883e-38
-0.063785106 -0.11297067 0.049278393 2.3509527e-38
-0.062079072 -0.11297067 0.049278393 2.3509527e-38
-0.060373038 -0.11297067 0.049278393 2.3509527e-38
-0.058559515 -0.11217107 0.052268818 2.341805e-38
-0.056858718 -0.11217107 0.052268818 2.3234379e-38
-0.055061519 -0.11137636 0.055241004 2.3142544e-38
-0.053365931 -0.11137636 0.055241004 2.2958867e-38
-0.0052081961 -0.12127317 0.018227413 1.2716059e-38
-0.0034477171 -0.12127317 0.018227413 1.880421e-38
-0.001687238 -0.12127317 0.018227413 1.8346832e-38
7.3242933e-05 -0.12127317 0.018227413 1.6414321e-38
0.0019843299 -0.12285714 0.012303427 1.3743881e-38
