# .PCD v0.7 - Point Cloud Data file format
VERSION 0.7
FIELDS x y z rgb
SIZE 4 4 4 4
TYPE F F F F
COUNT 1 1 1 1
WIDTH 930
HEIGHT 1
VIEWPOINT 0 0 0 1 0 0 0
POINTS 930
DATA ascii
-0.015143398 -0.094559789 -0.023542659 2.3417679e-38
0.0005754903 -0.096135467 -0.030646818 2.3234004e-38
0.0024990886 -0.096135467 -0.030646818 2.2681546e-38
0.0049296841 -0.097892582 -0.038568988 2.323436e-38
0.0068671703 -0.097892582 -0.038568988 2.3142518e-38
0.008804664 -0.097892582 -0.038568988 2.2958843e-38
0.010466829 -0.097010851 -0.034593597 2.1856436e-38
0.012397356 -0.097010851 -0.034593597 1.7432842e-38
0.014327876 -0.097010851 -0.034593597 1.1809988e-38
0.015964292 -0.096135467 -0.030646818 6.647397e-39
-0.039820123 -0.098059073 -0.030646818 2.350987e-38
-0.037896521 -0.098059073 -0.030646818 2.3509863e-38
-0.035865664 -0.098941371 -0.034593597 2.3509869e-38
-0.033820134 -0.099830076 -0.038568988 2.3417333e-38
-0.031882644 -0.099830076 -0.038568988 2.3416974e-38
-0.029846843 -0.1005076 -0.041599765 2.3325138e-38
-0.028143581 -0.098941371 -0.034593597 2.3325138e-38
-0.02635492 -0.098059073 -0.030646818 2.3417333e-38
-0.024431318 -0.098059073 -0.030646818 2.3509886e-38
-0.02250772 -0.098059073 -0.030646818 2.3509883e-38
-0.020711426 -0.097368345 -0.027557032 2.3417323e-38
-0.018793244 -0.097368345 -0.027557032 2.3509874e-38
-0.017185673 -0.095815286 -0.020609753 2.3509876e-38
-0.015279673 -0.095815286 -0.020609753 2.3509879e-38
-0.013373669 -0.095815286 -0.020609753 2.350988e-38
-0.011467665 -0.095815286 -0.020609753 2.3325856e-38
-0.0097185746 -0.095137119 -0.017576115 2.3234379e-38
-0.0078178905 -0.095137119 -0.017576115 2.3142544e-38
-0.0059172064 -0.095137119 -0.017576115 2.2958514e-38
-0.004016526 -0.095137119 -0.017576115 2.3234372e-38
-0.0019376576 -0.095815286 -0.020609753 2.3418035e-38
0.00014575571 -0.096470937 -0.023542659 2.341804e-38
0.0020569041 -0.096470937 -0.023542659 2.341804e-38
0.004422687 -0.098059073 -0.030646818 2.341804e-38
0.0066057891 -0.098941371 -0.034593597 2.2774465e-38
0.008536309 -0.098941371 -0.034593597 2.295885e-38
0.010193489 -0.098059073 -0.030646818 2.2958846e-38
0.012117095 -0.098059073 -0.030646818 2.2315982e-38
0.014040694 -0.098059073 -0.030646818 2.2499657e-38
0.015964292 -0.098059073 -0.030646818 1.8540633e-38
0.017346065 -0.096470937 -0.023542659 1.0797645e-38
-0.039820123 -0.099982664 -0.030646818 2.3509527e-38
-0.037896521 -0.099982664 -0.030646818 2.3049608e-38
-0.035972923 -0.099982664 -0.030646818 2.350987e-38
-0.034049321 -0.099982664 -0.030646818 2.3324421e-38
-0.032125723 -0.099982664 -0.030646818 2.3508451e-38
-0.03108057 -0.093881011 -0.0035648514 2.3048914e-38
-0.029204451 -0.093881011 -0.0035648514 2.3234379e-38
-0.027328335 -0.093881011 -0.0035648514 2.3142541e-38
-0.024547793 -0.099286526 -0.027557032 2.3142534e-38
-0.022629611 -0.099286526 -0.027557032 2.3142528e-38
-0.020876832 -0.098382086 -0.023542659 2.3142527e-38
-0.018965688 -0.098382086 -0.023542659 2.3509873e-38
-0.017185673 -0.097721294 -0.020609753 2.3509876e-38
-0.015420623 -0.097037792 -0.017576115 2.3509879e-38
-0.013519943 -0.097037792 -0.017576115 2.350988e-38
-0.011619259 -0.097037792 -0.017576115 2.3509886e-38
-0.0097185746 -0.097037792 -0.017576115 2.341805e-38
-0.0080286711 -0.096149758 -0.013634579 2.3234379e-38
-0.0061348975 -0.096149758 -0.013634579 2.2958873e-38
-0.004016526 -0.097037792 -0.017576115 2.2867032e-38
-0.0021158382 -0.097037792 -0.017576115 2.2867027e-38
-0.00021515787 -0.097037792 -0.017576115 2.2958867e-38
0.00187435 -0.097721294 -0.020609753 2.3142538e-38
0.0039680451 -0.098382086 -0.023542659 2.341805e-38
0.0061431378 -0.099286526 -0.027557032 2.3509886e-38
0.0080613196 -0.099286526 -0.027557032 2.3509883e-38
0.0099795014 -0.099286526 -0.027557032 2.3418043e-38
0.011897683 -0.099286526 -0.027557032 2.2590076e-38
0.013815872 -0.099286526 -0.027557032 2.2867022e-38
0.015434913 -0.098382086 -0.023542659 2.2591514e-38
0.017346065 -0.098382086 -0.023542659 1.6143564e-38
0.019570421 -0.099286526 -0.027557032 1.0614344e-38
0.021488603 -0.099286526 -0.027557032 4.9003702e-39
0.023406785 -0.099286526 -0.027557032 1.544371e-41
-0.039893258 -0.10120471 -0.027557032 2.3508809e-38
-0.037975073 -0.10120471 -0.027557032 2.3417324e-38
-0.036788799 -0.095089734 -0.00062550791 2.3140736e-38
-0.035034813 -0.094171658 0.0034178328 2.3508809e-38
-0.03326337 -0.09348768 0.0064302515 2.3508809e-38
-0.031404778 -0.09348768 0.0064302515 2.3141467e-38
-0.02944319 -0.094171658 0.0034178328 2.3050704e-38
-0.027433984 -0.095089734 -0.00062550791 2.2775192e-38
-0.02556302 -0.095089734 -0.00062550791 2.2499677e-38
-0.02369206 -0.095089734 -0.00062550791 2.286702e-38
-0.021821097 -0.095089734 -0.00062550791 2.3142528e-38
-0.019823868 -0.095757127 -0.0035648514 2.3418045e-38
-0.017631434 -0.097363517 -0.010639684 2.3509883e-38
-0.015742913 -0.097363517 -0.010639684 2.3509879e-38
-0.013854392 -0.097363517 -0.010639684 2.3509879e-38
-0.011965871 -0.097363517 -0.010639684 2.3509527e-38
-0.010284517 -0.096454084 -0.0066343714 2.341805e-38
-0.0084030181 -0.096454084 -0.0066343714 2.3234379e-38
-0.0061348975 -0.098043531 -0.013634579 2.2958873e-38
-0.0042411275 -0.098043531 -0.013634579 2.2775199e-38
-0.0023473576 -0.098043531 -0.013634579 2.2775196e-38
-0.00021515787 -0.09893848 -0.017576115 2.295887e-38
0.0016855225 -0.09893848 -0.017576115 2.3142544e-38
0.0037803501 -0.099627286 -0.020609753 2.341805e-38
0.0058791935 -0.10029322 -0.023542659 2.3509527e-38
0.0080613196 -0.10120471 -0.027557032 2.3509168e-38
0.0099795014 -0.10120471 -0.027557032 2.3509527e-38
0.011897683 -0.10120471 -0.027557032 2.3509886e-38
0.013815872 -0.10120471 -0.027557032 2.3050703e-38
0.015434913 -0.10029322 -0.023542659 2.286703e-38
0.017346065 -0.10029322 -0.023542659 2.1212534e-38
0.019570421 -0.10120471 -0.027557032 1.7896004e-38
0.021488603 -0.10120471 -0.027557032 1.0892366e-38
0.023406785 -0.10120471 -0.027557032 5.1780304e-39
-0.039893258 -0.1031229 -0.027557032 2.3508451e-38
-0.037975073 -0.1031229 -0.027557032 2.3415539e-38
-0.036788799 -0.096960694 -0.00062550791 2.3509168e-38
-0.035121962 -0.095346272 0.0064302515 2.3508809e-38
-0.033355277 -0.094660893 0.0094256233 2.3508809e-38
-0.031501938 -0.094660893 0.0094256233 2.3509876e-38
-0.029546186 -0.095346272 0.0064302515 2.3234364e-38
-0.027687594 -0.095346272 0.0064302515 2.3142534e-38
-0.025829002 -0.095346272 0.0064302515 2.2775192e-38
-0.02385157 -0.09603554 0.0034178328 2.3142537e-38
-0.022111814 -0.095346272 0.0064302515 2.3234376e-38
-0.020253222 -0.095346272 0.0064302515 2.3509168e-38
-0.018259946 -0.09603554 0.0034178328 2.3509168e-38
-0.016208205 -0.096960694 -0.00062550791 2.3509521e-38
-0.014337242 -0.096960694 -0.00062550791 2.3509876e-38
-0.012466278 -0.096960694 -0.00062550791 2.3509883e-38
-0.010443285 -0.097633243 -0.0035648514 2.341805e-38
-0.0085671656 -0.097633243 -0.0035648514 2.3142544e-38
-0.0065215193 -0.098335579 -0.0066343714 2.2958873e-38
-0.0046400204 -0.098335579 -0.0066343714 2.2958873e-38
-0.0025232658 -0.099252045 -0.010639684 2.3142544e-38
-0.00063474476 -0.099252045 -0.010639684 2.3234379e-38
0.0014401898 -0.099937305 -0.013634579 2.341805e-38
0.0033339635 -0.099937305 -0.013634579 2.3509527e-38
0.0054868907 -0.10083917 -0.017576115 2.3509168e-38
0.0077903345 -0.10220437 -0.023542659 2.3509168e-38
0.009701483 -0.10220437 -0.023542659 2.3509527e-38
0.011612624 -0.10220437 -0.023542659 2.3509527e-38
0.013815872 -0.1031229 -0.027557032 2.2496097e-38
0.015434913 -0.10220437 -0.023542659 2.2867033e-38
0.017346065 -0.10220437 -0.023542659 2.2775196e-38
0.019570421 -0.1031229 -0.027557032 2.194867e-38
0.021488603 -0.1031229 -0.027557032 1.5867345e-38
0.023406785 -0.1031229 -0.027557032 9.8764244e-39
0.025582295 -0.10382988 -0.030646818 3.5134854e-39
0.027505901 -0.10382988 -0.030646818 3.5098827e-39
-0.038991019 -0.09582752 0.012404067 2.3508801e-38
-0.03706196 -0.09651424 0.0094256233 2.350952e-38
-0.035208616 -0.09651424 0.0094256233 2.3509165e-38
-0.033355277 -0.09651424 0.0094256233 2.3508795e-38
-0.031501938 -0.09651424 0.0094256233 2.3509863e-38
-0.029648598 -0.09651424 0.0094256233 2.2958484e-38
-0.027795255 -0.09651424 0.0094256233 2.3050697e-38
-0.025941916 -0.09651424 0.0094256233 2.2497889e-38
-0.024088576 -0.09651424 0.0094256233 2.2590085e-38
-0.022235237 -0.09651424 0.0094256233 2.3233662e-38
-0.020381894 -0.09651424 0.0094256233 2.3508451e-38
-0.018528555 -0.09651424 0.0094256233 2.3508092e-38
-0.016675215 -0.09651424 0.0094256233 2.3509527e-38
-0.014821876 -0.09651424 0.0094256233 2.3509876e-38
-0.012668326 -0.097899407 0.0034178328 2.350988e-38
-0.010804452 -0.097899407 0.0034178328 2.3418047e-38
-0.0087243542 -0.098831654 -0.00062550791 2.3142541e-38
-0.0066910498 -0.099509358 -0.0035648514 2.3142544e-38
-0.0046400204 -0.10021709 -0.0066343714 2.341805e-38
-0.0027585253 -0.10021709 -0.0066343714 2.3509886e-38
-0.00087702274 -0.10021709 -0.0066343714 2.3509527e-38
0.0012537763 -0.10114056 -0.010639684 2.3509527e-38
0.0031422973 -0.10114056 -0.010639684 2.3509168e-38
0.0052277371 -0.10183108 -0.013634579 2.3509168e-38
0.0073875785 -0.10273984 -0.017576115 2.3509168e-38
0.0094983578 -0.10343929 -0.020609753 2.3509527e-38
0.011404358 -0.10343929 -0.020609753 2.3325138e-38
0.013310365 -0.10343929 -0.020609753 2.341805e-38
0.015434913 -0.1041155 -0.023542659 2.3234379e-38
0.017346065 -0.1041155 -0.023542659 2.2958873e-38
0.019257199 -0.1041155 -0.023542659 2.2775199e-38
0.021488603 -0.10504107 -0.027557032 2.0380626e-38
0.023406785 -0.10504107 -0.027557032 1.6232539e-38
0.025324967 -0.10504107 -0.027557032 5.2616137e-39
0.027243149 -0.10504107 -0.027557032 4.1534599e-39
0.02916133 -0.10504107 -0.027557032 3.2300644e-39
-0.040839136 -0.097675636 0.012404067 2.3509837e-38
-0.038991019 -0.097675636 0.012404067 2.3509828e-38
-0.037142903 -0.097675636 0.012404067 2.3048133e-38
-0.035208616 -0.098367572 0.0094256233 2.3047076e-38
-0.033355277 -0.098367572 0.0094256233 2.2679018e-38
-0.031501938 -0.098367572 0.0094256233 2.3509851e-38
-0.029648598 -0.098367572 0.0094256233 2.3326182e-38
-0.027795255 -0.098367572 0.0094256233 2.3234367e-38
-0.026054192 -0.097675636 0.012404067 2.3234379e-38
-0.024206076 -0.097675636 0.012404067 2.341805e-38
-0.022357956 -0.097675636 0.012404067 2.3509168e-38
-0.020509839 -0.097675636 0.012404067 2.3507733e-38
-0.018661723 -0.097675636 0.012404067 2.3507733e-38
-0.016813602 -0.097675636 0.012404067 2.3508809e-38
-0.014965486 -0.097675636 0.012404067 2.3509879e-38
-0.012968533 -0.098367572 0.0094256233 2.350988e-38
-0.010960262 -0.099063456 0.0064302515 2.3418047e-38
-0.0089405775 -0.099763289 0.0034178328 2.3142541e-38
-0.0068533905 -0.10070263 -0.00062550791 2.3234379e-38
-0.0049824268 -0.10070263 -0.00062550791 2.3509527e-38
-0.0029388145 -0.10138547 -0.0035648514 2.3508809e-38
-0.0010626987 -0.10138547 -0.0035648514 2.3508809e-38
0.0010044724 -0.10209858 -0.0066343714 2.3508809e-38
0.0031422973 -0.10302909 -0.010639684 2.3509168e-38
0.0050308183 -0.10302909 -0.010639684 2.3509168e-38
0.0071215108 -0.10372485 -0.013634579 2.3509527e-38
0.0090152845 -0.10372485 -0.013634579 2.3509527e-38
0.011188939 -0.10464053 -0.017576115 2.2956715e-38
0.013310365 -0.10534529 -0.020609753 2.3509886e-38
0.015216365 -0.10534529 -0.020609753 2.341805e-38
0.017346065 -0.10602666 -0.023542659 2.2958154e-38
0.019257199 -0.10602666 -0.023542659 2.3234379e-38
0.021488603 -0.10695927 -0.027557032 2.3234379e-38
0.023406785 -0.10695927 -0.027557032 2.1852525e-38
0.025324967 -0.10695927 -0.027557032 1.0604653e-38
0.027243149 -0.10695927 -0.027557032 6.2714468e-39
0.02916133 -0.10695927 -0.027557032 3.228268e-39
-0.040839136 -0.099523753 0.012404067 1.7977709e-38
-0.038991019 -0.099523753 0.012404067 1.6225991e-38
-0.037142903 -0.099523753 0.012404067 1.5672465e-38
-0.035208616 -0.10022092 0.0094256233 1.4657613e-38
-0.033355277 -0.10022092 0.0094256233 1.6962155e-38
-0.031501938 -0.10022092 0.0094256233 2.2403134e-38
-0.029648598 -0.10022092 0.0094256233 2.1482624e-38
-0.027902313 -0.099523753 0.012404067 2.3234001e-38
-0.026054192 -0.099523753 0.012404067 2.332621e-38
-0.024206076 -0.099523753 0.012404067 2.3232944e-38
-0.022357956 -0.099523753 0.012404067 2.3232227e-38
-0.020509839 -0.099523753 0.012404067 2.3507733e-38
-0.018842999 -0.098574698 0.016458614 2.3508092e-38
-0.01700199 -0.098574698 0.016458614 2.3508451e-38
-0.015160982 -0.098574698 0.016458614 2.3509165e-38
-0.013117366 -0.099523753 0.012404067 2.3509883e-38
-0.011115193 -0.10022092 0.0094256233 2.3418047e-38
-0.009261854 -0.10022092 0.0094256233 2.3142541e-38
-0.007076703 -0.10162716 0.0034178328 2.3234379e-38
-0.0049824268 -0.10257359 -0.00062550791 2.3508809e-38
-0.0031114668 -0.10257359 -0.00062550791 2.3508092e-38
-0.0010626987 -0.1032616 -0.0035648514 2.3508451e-38
0.0010044724 -0.10398008 -0.0066343714 2.3508809e-38
0.0028859749 -0.10398008 -0.0066343714 2.3509168e-38
0.0047674701 -0.10398008 -0.0066343714 2.3509527e-38
0.0069193393 -0.1049176 -0.010639684 2.3509883e-38
0.0088078678 -0.1049176 -0.010639684 2.3418045e-38
0.010909051 -0.10561861 -0.013634579 2.2865229e-38
0.013089627 -0.1065412 -0.017576115 2.3234374e-38
0.014990307 -0.1065412 -0.017576115 2.3141816e-38
0.017122366 -0.1072513 -0.020609753 2.3234015e-38
0.019257199 -0.1079378 -0.023542659 2.3509883e-38
0.021168347 -0.1079378 -0.023542659 2.3416971e-38
0.023079496 -0.1079378 -0.023542659 2.3509168e-38
0.025324967 -0.10887744 -0.027557032 1.5396307e-38
0.027243149 -0.10887744 -0.027557032 1.0511004e-38
0.02916133 -0.10887744 -0.027557032 4.3338967e-39
-0.040839136 -0.10137187 0.012404067 1.6777745e-38
-0.038991019 -0.10137187 0.012404067 1.5947633e-38
-0.037142903 -0.10137187 0.012404067 1.6961785e-38
-0.031501938 -0.10207425 0.0094256233 2.3509849e-38
-0.029648598 -0.10207425 0.0094256233 2.0559237e-38
-0.027902313 -0.10137187 0.012404067 2.0928748e-38
-0.026054192 -0.10137187 0.012404067 2.1758157e-38
-0.024206076 -0.10137187 0.012404067 2.3325131e-38
-0.022357956 -0.10137187 0.012404067 2.3509168e-38
-0.020684008 -0.10041572 0.016458614 2.3508809e-38
-0.018842999 -0.10041572 0.016458614 2.3508809e-38
-0.01700199 -0.10041572 0.016458614 2.3508092e-38
-0.015160982 -0.10041572 0.016458614 2.3508809e-38
-0.013319973 -0.10041572 0.016458614 2.3509527e-38
-0.011269249 -0.10137187 0.012404067 2.341805e-38
-0.0094211325 -0.10137187 0.012404067 2.3142541e-38
-0.0074085146 -0.10207425 0.0094256233 2.3234379e-38
-0.0053844862 -0.10278064 0.0064302515 2.3508451e-38
-0.003348954 -0.10349102 0.0034178328 2.3508092e-38
-0.0010626987 -0.10513772 -0.0035648514 2.3508451e-38
0.00081341714 -0.10513772 -0.0035648514 2.3509168e-38
0.0026895329 -0.10513772 -0.0035648514 2.3509886e-38
0.0045656487 -0.10513772 -0.0035648514 2.3234374e-38
0.0066489726 -0.10586159 -0.0066343714 2.3142534e-38
0.0088078678 -0.10680611 -0.010639684 2.2958857e-38
0.010696389 -0.10680611 -0.010639684 2.2958857e-38
0.012802824 -0.1075124 -0.013634579 2.2958856e-38
0.014696598 -0.1075124 -0.013634579 2.3142527e-38
0.017122366 -0.10915731 -0.020609753 2.3234364e-38
0.019257199 -0.10984896 -0.023542659 2.3509873e-38
0.021168347 -0.10984896 -0.023542659 2.3509156e-38
0.023079496 -0.10984896 -0.023542659 2.350952e-38
0.025324967 -0.11079563 -0.027557032 1.8898651e-38
0.027243149 -0.11079563 -0.027557032 1.4198465e-38
0.02916133 -0.11079563 -0.027557032 5.4398799e-39
0.031079512 -0.11079563 -0.027557032 4.7019631e-39
-0.029648598 -0.1039276 0.0094256233 1.650084e-38
-0.027902313 -0.10322 0.012404067 1.4289221e-38
-0.026207037 -0.10225673 0.016458614 1.5672519e-38
-0.024366029 -0.10225673 0.016458614 1.9912447e-38
-0.02252502 -0.10225673 0.016458614 2.3230764e-38
-0.020684008 -0.10225673 0.016458614 2.3509856e-38
-0.018842999 -0.10225673 0.016458614 2.3509502e-38
-0.01700199 -0.10225673 0.016458614 2.3508451e-38
-0.015160982 -0.10225673 0.016458614 2.3508092e-38
-0.013319973 -0.10225673 0.016458614 2.3509168e-38
-0.011478964 -0.10225673 0.016458614 2.341805e-38
-0.0094211325 -0.10322 0.012404067 2.3142541e-38
-0.0075730123 -0.10322 0.012404067 2.3234379e-38
-0.0055551752 -0.1039276 0.0094256233 2.3508451e-38
-0.0035258941 -0.10463922 0.0064302515 2.3508092e-38
-0.0014850795 -0.10535492 0.0034178328 2.3509168e-38
0.00037879497 -0.10535492 0.0034178328 2.3509886e-38
0.0025014281 -0.10631551 -0.00062550791 2.3234374e-38
0.0043723881 -0.10631551 -0.00062550791 2.2867025e-38
0.0064417645 -0.10701384 -0.0035648514 2.2775182e-38
0.0085304677 -0.10774307 -0.0066343714 2.2591505e-38
0.01041197 -0.10774307 -0.0066343714 2.2499666e-38
0.01258491 -0.10869466 -0.010639684 2.2224154e-38
0.014696598 -0.10940616 -0.013634579 2.2591494e-38
0.016890995 -0.11034258 -0.017576115 2.2038319e-38
0.019028362 -0.11106332 -0.020609753 2.2958836e-38
0.021168347 -0.11176009 -0.023542659 2.3509859e-38
0.023079496 -0.11176009 -0.023542659 2.350986e-38
0.024990644 -0.11176009 -0.023542659 2.0465603e-38
0.027243149 -0.1127138 -0.027557032 1.57647e-38
0.02916133 -0.1127138 -0.027557032 5.8079351e-39
0.031079512 -0.1127138 -0.027557032 5.2544096e-39
-0.027902313 -0.1050681 0.012404067 1.6592667e-38
-0.026207037 -0.10409774 0.016458614 1.7330947e-38
-0.024481975 -0.10339431 0.019397719 1.9358539e-38
-0.022646118 -0.10339431 0.019397719 2.3509489e-38
-0.020810265 -0.10339431 0.019397719 2.3509818e-38
-0.018974409 -0.10339431 0.019397719 2.3509825e-38
-0.017138552 -0.10339431 0.019397719 2.3508448e-38
-0.015302695 -0.10339431 0.019397719 2.3413745e-38
-0.013319973 -0.10409774 0.016458614 2.3509168e-38
-0.011478964 -0.10409774 0.016458614 2.2496453e-38
-0.0096379556 -0.10409774 0.016458614 2.3050704e-38
-0.0077969469 -0.10409774 0.016458614 2.3142544e-38
-0.0057248957 -0.1050681 0.012404067 2.3509168e-38
-0.0038767755 -0.1050681 0.012404067 2.3508809e-38
-0.0016673058 -0.10649781 0.0064302515 2.2865235e-38
0.00037879497 -0.10721879 0.0034178328 2.2682636e-38
0.0022426695 -0.10721879 0.0034178328 2.2775186e-38
0.0043723881 -0.10818647 -0.00062550791 2.2499673e-38
0.0064417645 -0.10888995 -0.0035648514 2.2224156e-38
0.0083178878 -0.10888995 -0.0035648514 2.2040477e-38
0.01041197 -0.10962458 -0.0066343714 2.2132308e-38
0.01258491 -0.11058317 -0.010639684 2.1856793e-38
0.014473431 -0.11058317 -0.010639684 2.2040462e-38
0.016590372 -0.11129995 -0.013634579 2.084299e-38
0.019028362 -0.11296929 -0.020609753 2.2223767e-38
0.020934369 -0.11296929 -0.020609753 2.2866981e-38
0.023079496 -0.11367123 -0.023542659 2.2588595e-38
0.024990644 -0.11367123 -0.023542659 1.9268836e-38
0.027243149 -0.114632 -0.027557032 1.7331649e-38
0.02916133 -0.114632 -0.027557032 8.6652654e-39
0.031079512 -0.114632 -0.027557032 6.6362539e-39
0.033276703 -0.11537148 -0.030646818 3.9633107e-39
-0.024481975 -0.10523017 0.019397719 2.3509489e-38
-0.022646118 -0.10523017 0.019397719 2.3509834e-38
-0.020810265 -0.10523017 0.019397719 2.2217604e-38
-0.018974409 -0.10523017 0.019397719 2.3138855e-38
-0.017138552 -0.10523017 0.019397719 2.3508793e-38
-0.015302695 -0.10523017 0.019397719 2.350594e-38
-0.013466839 -0.10523017 0.019397719 2.3509527e-38
-0.011478964 -0.10593875 0.016458614 2.3326208e-38
-0.0096379556 -0.10593875 0.016458614 2.2867027e-38
-0.0077969469 -0.10593875 0.016458614 2.2591519e-38
-0.0059559382 -0.10593875 0.016458614 2.2865232e-38
-0.0041149296 -0.10593875 0.016458614 2.3234012e-38
-0.002028659 -0.10691623 0.012404067 2.3142534e-38
0.00019128621 -0.1083564 0.0064302515 2.2775185e-38
0.0022426695 -0.10908265 0.0034178328 2.2315999e-38
0.0041065365 -0.10908265 0.0034178328 2.1489463e-38
0.0062433556 -0.11005743 -0.00062550791 1.9372904e-38
0.0083178878 -0.11076607 -0.0035648514 1.7807009e-38
0.010194004 -0.11076607 -0.0035648514 1.7530772e-38
0.012293465 -0.11150609 -0.0066343714 1.6976874e-38
0.014473431 -0.11247168 -0.010639684 1.7528606e-38
0.016590372 -0.11319371 -0.013634579 1.6697763e-38
0.018791672 -0.11414395 -0.017576115 1.7801593e-38
0.020934369 -0.1148753 -0.020609753 1.8167858e-38
0.023079496 -0.11558239 -0.023542659 1.8719593e-38
0.024990644 -0.11558239 -0.023542659 1.7334147e-38
0.027243149 -0.11655019 -0.027557032 1.7147963e-38
0.02916133 -0.11655019 -0.027557032 9.1258736e-39
0.031353097 -0.11729507 -0.030646818 7.3738077e-39
0.033276703 -0.11729507 -0.030646818 4.5157572e-39
-0.020810265 -0.10706602 0.019397719 1.7699645e-38
-0.019109901 -0.10633011 0.022428257 2.0280774e-38
-0.01727936 -0.10633011 0.022428257 2.3509851e-38
-0.01544882 -0.10633011 0.022428257 2.3507362e-38
-0.013618276 -0.10633011 0.022428257 2.350987e-38
-0.011630986 -0.10706602 0.019397719 2.3418033e-38
-0.0096379556 -0.10777976 0.016458614 2.286702e-38
-0.0077969469 -0.10777976 0.016458614 2.2683349e-38
-0.0059559382 -0.10777976 0.016458614 2.305069e-38
-0.0041149296 -0.10777976 0.016458614 2.2958853e-38
-0.002028659 -0.10876434 0.012404067 2.2775176e-38
4.850328e-06 -0.10948761 0.0094256233 2.2407829e-38
0.0020498782 -0.11021499 0.0064302515 2.1213946e-38
0.0041065365 -0.11094652 0.0034178328 1.9649488e-38
0.0062433556 -0.11192839 -0.00062550791 1.7992116e-38
0.0081143156 -0.11192839 -0.00062550791 1.6979033e-38
0.010194004 -0.11264218 -0.0035648514 1.7348167e-38
0.012293465 -0.11338757 -0.0066343714 1.6425847e-38
0.014174968 -0.11338757 -0.0066343714 1.6702068e-38
0.016361952 -0.1143602 -0.010639684 1.5777591e-38
0.018484142 -0.11508749 -0.013634579 1.5868706e-38
0.02069236 -0.11604463 -0.017576115 1.5773992e-38
0.022840377 -0.11678131 -0.020609753 1.6971098e-38
0.024990644 -0.11749353 -0.023542659 1.678419e-38
0.026901778 -0.11749353 -0.023542659 1.6595494e-38
0.028812926 -0.11749353 -0.023542659 9.9556216e-39
0.031079512 -0.11846836 -0.027557032 8.6648968e-39
0.032997694 -0.11846836 -0.027557032 6.0834304e-39
-0.019109901 -0.10816063 0.022428257 1.7053205e-38
-0.01727936 -0.10816063 0.022428257 2.3045609e-38
-0.01544882 -0.10816063 0.022428257 2.3509129e-38
-0.013618276 -0.10816063 0.022428257 2.3509848e-38
-0.011630986 -0.10890187 0.019397719 2.3418018e-38
-0.0097951293 -0.10890187 0.019397719 2.25915e-38
-0.0079592727 -0.10890187 0.019397719 2.2867011e-38
-0.0061234161 -0.10890187 0.019397719 2.2867002e-38
-0.0042875595 -0.10890187 0.019397719 2.2499652e-38
-0.0022739172 -0.10962076 0.016458614 2.1489087e-38
-0.00018054247 -0.11061247 0.012404067 2.0015749e-38
0.0018581897 -0.11134095 0.0094256233 1.8727523e-38
0.0039084703 -0.11207359 0.0064302515 1.799175e-38
0.005970411 -0.11281042 0.0034178328 1.7900988e-38
0.0081143156 -0.11379938 -0.00062550791 1.7994257e-38
0.010194004 -0.1145183 -0.0035648514 1.8271199e-38
0.012293465 -0.11526908 -0.0066343714 1.7440712e-38
0.014174968 -0.11526908 -0.0066343714 1.697937e-38
0.016361952 -0.11624874 -0.010639684 1.5041817e-38
0.018484142 -0.11698125 -0.013634579 1.4948179e-38
0.02069236 -0.11794533 -0.017576115 1.4947097e-38
0.022840377 -0.11868732 -0.020609753 1.6328593e-38
0.02474637 -0.11868732 -0.020609753 1.5864024e-38
0.026901778 -0.11940466 -0.023542659 1.5212911e-38
0.028812926 -0.11940466 -0.023542659 1.0139286e-38
0.031079512 -0.12038656 -0.027557032 9.6786816e-39
0.032997694 -0.12038656 -0.027557032 7.4660005e-39
-0.017419361 -0.10924892 0.025441391 2.0095323e-38
-0.015594102 -0.10924892 0.025441391 2.3508728e-38
-0.013768841 -0.10924892 0.025441391 2.3509824e-38
-0.011787735 -0.10999118 0.022428257 2.3417998e-38
-0.0099571906 -0.10999118 0.022428257 2.2132299e-38
-0.00812665 -0.10999118 0.022428257 2.2407812e-38
-0.0062961057 -0.10999118 0.022428257 2.0843344e-38
-0.0042875595 -0.11073773 0.019397719 2.0660383e-38
-0.002451703 -0.11073773 0.019397719 2.0291961e-38
-0.00043290854 -0.11146177 0.016458614 1.9463995e-38
0.001667574 -0.11246057 0.012404067 1.8451641e-38
0.0037115291 -0.1131943 0.0094256233 1.7807708e-38
0.0057670623 -0.11393218 0.0064302515 1.7716228e-38
0.0078342855 -0.11467429 0.0034178328 1.7809141e-38
0.0099852756 -0.11567034 -0.00062550791 1.7717302e-38
0.012293465 -0.11715056 -0.0066343714 1.6979731e-38
0.014174968 -0.11715056 -0.0066343714 1.6241805e-38
0.016361952 -0.11813726 -0.010639684 1.347557e-38
0.018484142 -0.11887501 -0.013634579 1.4027302e-38
0.02069236 -0.119846 -0.017576115 1.5225122e-38
0.022840377 -0.12059332 -0.020609753 1.6237836e-38
0.02474637 -0.12059332 -0.020609753 1.4574362e-38
0.026901778 -0.12131582 -0.023542659 1.4014722e-38
0.028812926 -0.12131582 -0.023542659 9.8623344e-39
0.031079512 -0.12230472 -0.027557032 9.4935645e-39
0.032997694 -0.12230472 -0.027557032 7.4656376e-39
-0.017419361 -0.11107419 0.025441391 1.6039772e-38
-0.015594102 -0.11107419 0.025441391 2.1758771e-38
-0.013768841 -0.11107419 0.025441391 2.3509793e-38
-0.011787735 -0.11182173 0.022428257 2.3050632e-38
-0.0099571906 -0.11182173 0.022428257 2.1210688e-38
-0.00812665 -0.11182173 0.022428257 1.9921384e-38
-0.0062961057 -0.11182173 0.022428257 1.8724621e-38
-0.0044655651 -0.11182173 0.022428257 1.9002278e-38
-0.002451703 -0.11257361 0.019397719 1.9463258e-38
-0.00061585009 -0.11257361 0.019397719 1.9372504e-38
0.001667574 -0.1143087 0.012404067 1.8912965e-38
0.003515698 -0.1143087 0.012404067 1.8729296e-38
0.0057670623 -0.11579077 0.0064302515 1.8453429e-38
0.0078342855 -0.11653815 0.0034178328 1.8454148e-38
0.0099852756 -0.1175413 -0.00062550791 1.73478e-38
0.012293465 -0.11903207 -0.0066343714 1.7163406e-38
0.014174968 -0.11903207 -0.0066343714 1.6518393e-38
0.016361952 -0.12002577 -0.010639684 1.3567768e-38
0.018484142 -0.1207688 -0.013634579 1.411986e-38
0.02069236 -0.12174667 -0.017576115 1.5502432e-38
0.022840377 -0.1224993 -0.020609753 1.6147078e-38
0.02474637 -0.1224993 -0.020609753 1.3838234e-38
0.026901778 -0.12322696 -0.023542659 1.4106918e-38
0.028812926 -0.12322696 -0.023542659 1.0506981e-38
0.031079512 -0.12422292 -0.027557032 9.4010073e-39
0.032997694 -0.12422292 -0.027557032 7.1890479e-39
-0.017558552 -0.11215095 0.028437121 1.1983504e-38
-0.015738547 -0.11215095 0.028437121 1.9362369e-38
-0.013918538 -0.11215095 0.028437121 2.13925e-38
-0.011943582 -0.11289944 0.025441391 2.1209932e-38
-0.010118324 -0.11289944 0.025441391 2.0750415e-38
-0.0082930662 -0.11289944 0.025441391 1.8539155e-38
-0.0064678043 -0.11289944 0.025441391 1.8909714e-38
-0.0044655651 -0.11365227 0.022428257 1.8818586e-38
-0.002451703 -0.11440946 0.019397719 1.8818592e-38
-0.00061585009 -0.11440946 0.019397719 1.8543448e-38
0.0014081001 -0.11514379 0.016458614 1.8451619e-38
0.003515698 -0.1161568 0.012404067 1.8360146e-38
0.0055648685 -0.11690097 0.0094256233 1.8544183e-38
0.0078342855 -0.11840202 0.0034178328 1.86371e-38
0.0099852756 -0.11941226 -0.00062550791 1.6608796e-38
0.012070119 -0.12014665 -0.0035648514 1.6609516e-38
0.014174968 -0.12091358 -0.0066343714 1.6702068e-38
0.016361952 -0.12191428 -0.010639684 1.4028392e-38
0.018484142 -0.12266256 -0.013634579 1.3935475e-38
0.02069236 -0.12364738 -0.017576115 1.4212059e-38
0.022593047 -0.12364738 -0.017576115 1.476487e-38
0.02474637 -0.12440531 -0.020609753 1.3193591e-38
0.026901778 -0.12513812 -0.023542659 1.4659373e-38
0.02916133 -0.12614109 -0.027557032 1.1243827e-38
0.031079512 -0.12614109 -0.027557032 9.7697898e-39
-0.017558552 -0.11397095 0.028437121 9.4009569e-39
-0.015928145 -0.1129816 0.03236936 1.7333712e-38
-0.014115032 -0.1129816 0.03236936 1.8995413e-38
-0.012098532 -0.11397095 0.028437121 1.918198e-38
-0.010278527 -0.11397095 0.028437121 2.0659642e-38
-0.0082930662 -0.11472471 0.025441391 1.85413e-38
-0.0064678043 -0.11472471 0.025441391 1.955723e-38
-0.0046425462 -0.11472471 0.025441391 1.9188802e-38
-0.002451703 -0.11624531 0.019397719 1.8635996e-38
-0.00061585009 -0.11624531 0.019397719 1.7990272e-38
0.0014081001 -0.1169848 0.016458614 1.7345271e-38
0.003515698 -0.11800493 0.012404067 1.6883938e-38
0.0055648685 -0.11875431 0.0094256233 1.6606998e-38
0.0078342855 -0.12026589 0.0034178328 1.6422253e-38
0.00969816 -0.12026589 0.0034178328 1.5961274e-38
0.011856243 -0.12128322 -0.00062550791 1.6146745e-38
0.013946235 -0.12202276 -0.0035648514 1.7160897e-38
0.016361952 -0.12380283 -0.010639684 1.5225146e-38
0.018484142 -0.12455635 -0.013634579 1.4395382e-38
0.02069236 -0.12554805 -0.017576115 1.375001e-38
0.022593047 -0.12554805 -0.017576115 1.4488294e-38
0.02474637 -0.12631132 -0.020609753 1.4115195e-38
0.026901778 -0.12704925 -0.023542659 1.4290236e-38
0.028812926 -0.12704925 -0.023542659 1.1152353e-38
0.030724075 -0.12704925 -0.023542659 1.0046378e-38
-0.015928145 -0.11479472 0.03236936 1.4380975e-38
-0.014115032 -0.11479472 0.03236936 1.7058965e-38
-0.012098532 -0.11579098 0.028437121 1.7984877e-38
-0.010278527 -0.11579098 0.028437121 1.6512982e-38
-0.0084585175 -0.11579098 0.028437121 1.8267573e-38
-0.006638512 -0.11579098 0.028437121 1.9006215e-38
-0.0046425462 -0.11654995 0.025441391 1.8914741e-38
-0.002451703 -0.11808117 0.019397719 1.7715127e-38
-0.00061585009 -0.11808117 0.019397719 1.6885016e-38
0.001667574 -0.11985306 0.012404067 1.7160172e-38
0.003515698 -0.11985306 0.012404067 1.6052754e-38
0.0055648685 -0.12060766 0.0094256233 1.5498867e-38
0.0078342855 -0.12212978 0.0034178328 1.6881803e-38
0.00969816 -0.12212978 0.0034178328 1.7066194e-38
0.011856243 -0.12315418 -0.00062550791 1.6881801e-38
0.013946235 -0.12389888 -0.0035648514 1.8172537e-38
0.016361952 -0.12569134 -0.010639684 1.7343496e-38
0.018484142 -0.12645011 -0.013634579 1.4301037e-38
0.02069236 -0.12744872 -0.017576115 1.3564191e-38
0.022840377 -0.12821732 -0.020609753 1.4118446e-38
0.02474637 -0.12821732 -0.020609753 1.3837904e-38
0.026652377 -0.12821732 -0.020609753 1.392182e-38
0.028812926 -0.12896039 -0.023542659 1.16137e-38
-0.015928145 -0.11660783 0.03236936 1.2258698e-38
-0.014115032 -0.11660783 0.03236936 1.447714e-38
-0.012098532 -0.11761098 0.028437121 1.6970725e-38
-0.010278527 -0.11761098 0.028437121 1.5407704e-38
-0.0084585175 -0.11761098 0.028437121 1.5687526e-38
-0.006638512 -0.11761098 0.028437121 1.5873005e-38
-0.0048185065 -0.11761098 0.028437121 1.7071553e-38
-0.0026350245 -0.11914389 0.022428257 1.7070123e-38
-0.00061585009 -0.11991702 0.019397719 1.6331488e-38
0.0014081001 -0.12066682 0.016458614 1.605347e-38
0.003515698 -0.12170117 0.012404067 1.5407387e-38
0.0055648685 -0.12246101 0.0094256233 1.6052042e-38
0.0076256543 -0.12322514 0.0064302515 1.8172542e-38
0.00969816 -0.12399365 0.0034178328 1.7526093e-38
0.011856243 -0.12502514 -0.00062550791 1.7894874e-38
0.013946235 -0.12577499 -0.0035648514 1.8264733e-38
0.016361952 -0.12757985 -0.010639684 1.6789959e-38
0.018484142 -0.1283439 -0.013634579 1.3840059e-38
0.02069236 -0.12934943 -0.017576115 1.3103215e-38
0.022593047 -0.12934943 -0.017576115 1.3471642e-38
0.02474637 -0.13012333 -0.020609753 1.3100339e-38
0.026652377 -0.13012333 -0.020609753 1.3738152e-38
0.028558385 -0.13012333 -0.020609753 1.1429311e-38
-0.015928145 -0.11842094 0.03236936 1.0138195e-38
-0.014115032 -0.11842094 0.03236936 1.207969e-38
-0.012098532 -0.11943097 0.028437121 1.6601941e-38
-0.010278527 -0.11943097 0.028437121 1.5223313e-38
-0.0084585175 -0.11943097 0.028437121 1.4026928e-38
-0.006638512 -0.11943097 0.028437121 1.43968e-38
-0.0048185065 -0.11943097 0.028437121 1.6240363e-38
-0.0026350245 -0.12097444 0.022428257 1.6977573e-38
-0.00080447644 -0.12097444 0.022428257 1.6515882e-38
0.0012200102 -0.12175287 0.019397719 1.6054549e-38
0.0032491088 -0.12250783 0.016458614 1.5869082e-38
0.0053638145 -0.1235493 0.012404067 1.6606649e-38
0.0076256543 -0.12508373 0.0064302515 1.8173256e-38
0.00969816 -0.12585752 0.0034178328 1.7435688e-38
0.011856243 -0.1268961 -0.00062550791 1.8358001e-38
0.013946235 -0.12765111 -0.0035648514 1.7804823e-38
0.016361952 -0.1294684 -0.010639684 1.5407736e-38
0.018484142 -0.13023765 -0.013634579 1.3380151e-38
0.02069236 -0.1312501 -0.017576115 1.3380151e-38
0.022593047 -0.1312501 -0.017576115 1.3841132e-38
0.02474637 -0.13202934 -0.020609753 1.4298154e-38
0.026652377 -0.13202934 -0.020609753 1.3922541e-38
0.028558385 -0.13202934 -0.020609753 1.1429311e-38
0.030464377 -0.13202934 -0.020609753 9.9541965e-39
-0.015738547 -0.121251 0.028437121 8.9396522e-39
-0.013918538 -0.121251 0.028437121 1.0788949e-38
-0.012098532 -0.121251 0.028437121 1.6785972e-38
-0.010278527 -0.121251 0.028437121 1.5683572e-38
-0.0086756945 -0.12023406 0.03236936 1.4026214e-38
-0.0068625845 -0.12023406 0.03236936 1.4672318e-38
-0.0048185065 -0.121251 0.028437121 1.5962708e-38
-0.0026350245 -0.12280498 0.022428257 1.6792471e-38
-0.00080447644 -0.12280498 0.022428257 1.6700276e-38
0.0012200102 -0.12358873 0.019397719 1.6331855e-38
0.0032491088 -0.12434883 0.016458614 1.6147463e-38
0.0053638145 -0.1253974 0.012404067 1.5778681e-38
0.0076256543 -0.12694232 0.0064302515 1.5778319e-38
0.00969816 -0.12772138 0.0034178328 1.4671969e-38
0.011856243 -0.12876706 -0.00062550791 1.6331488e-38
0.013946235 -0.12952723 -0.0035648514 1.5686474e-38
0.016361952 -0.13135691 -0.010639684 1.3381582e-38
0.018791672 -0.13315077 -0.017576115 1.2735134e-38
0.020934369 -0.13393532 -0.020609753 1.3288307e-38
0.022840377 -0.13393532 -0.020609753 1.34727e-38
0.02474637 -0.13393532 -0.020609753 1.4021921e-38
0.026901778 -0.13469382 -0.023542659 1.4014015e-38
0.028812926 -0.13469382 -0.023542659 1.16137e-38
0.030724075 -0.13469382 -0.023542659 1.0230782e-38
-0.015738547 -0.123071 0.028437121 8.6627024e-39
-0.013918538 -0.123071 0.028437121 1.0234699e-38
-0.012098532 -0.123071 0.028437121 1.6601224e-38
-0.010278527 -0.123071 0.028437121 1.5959086e-38
-0.0086756945 -0.12204717 0.03236936 1.4854902e-38
-0.0068625845 -0.12204717 0.03236936 1.5499932e-38
-0.0048185065 -0.123071 0.028437121 1.5776889e-38
-0.002817288 -0.12385099 0.025441391 1.6146747e-38
-0.00099202991 -0.12385099 0.025441391 1.5963075e-38
0.0012200102 -0.12542458 0.019397719 1.5318782e-38
0.0032491088 -0.12618984 0.016458614 1.5042912e-38
0.0053638145 -0.12724553 0.012404067 1.4674127e-38
0.0076256543 -0.12880091 0.0064302515 1.412095e-38
0.0094842464 -0.12880091 0.0064302515 1.3568131e-38
0.011562034 -0.12958528 0.0034178328 1.522729e-38
0.013946235 -0.13140334 -0.0035648514 1.4674113e-38
0.016361952 -0.13324542 -0.010639684 1.2921317e-38
0.018791672 -0.13505147 -0.017576115 1.273621e-38
0.02069236 -0.13505147 -0.017576115 1.3473055e-38
0.022593047 -0.13505147 -0.017576115 1.3287944e-38
0.02474637 -0.13584132 -0.020609753 1.3283991e-38
0.026652377 -0.13584132 -0.020609753 1.3645229e-38
0.028558385 -0.13584132 -0.020609753 1.16137e-38
0.030464377 -0.13584132 -0.020609753 1.0415173e-38
0.032370385 -0.13584132 -0.020609753 7.8329894e-39
-0.015738547 -0.124891 0.028437121 8.9392921e-39
-0.013918538 -0.124891 0.028437121 1.005031e-38
-0.012098532 -0.124891 0.028437121 1.6784185e-38
-0.010278527 -0.124891 0.028437121 1.6603384e-38
-0.0086756945 -0.12386028 0.03236936 1.6420801e-38
-0.0068625845 -0.12386028 0.03236936 1.6882154e-38
-0.0048185065 -0.124891 0.028437121 1.6328989e-38
-0.002817288 -0.12567626 0.025441391 1.6514098e-38
-0.00099202991 -0.12567626 0.025441391 1.6239662e-38
0.0010260642 -0.12646608 0.022428257 1.5042194e-38
0.0032491088 -0.12803085 0.016458614 1.4674846e-38
0.0053638145 -0.12909363 0.012404067 1.5136897e-38
0.0074182078 -0.12987436 0.0094256233 1.5137615e-38
0.0094842464 -0.13065951 0.0064302515 1.5321643e-38
0.011562034 -0.13144915 0.0034178328 1.5136173e-38
0.013727203 -0.13250901 -0.00062550791 1.375252e-38
0.016056463 -0.13408406 -0.0066343714 1.1999364e-38
0.018484142 -0.13591899 -0.013634579 1.1813177e-38
0.02069236 -0.13695215 -0.017576115 1.3103197e-38
0.022593047 -0.13695215 -0.017576115 1.3656011e-38
0.02474637 -0.13774733 -0.020609753 1.3467665e-38
0.026652377 -0.13774733 -0.020609753 1.3368282e-38
0.028295096 -0.13695215 -0.017576115 1.1244917e-38
0.030195769 -0.13695215 -0.017576115 1.0230419e-38
0.032096457 -0.13695215 -0.017576115 7.6485981e-39
-0.017558552 -0.126711 0.028437121 1.0963643e-38
-0.015738547 -0.126711 0.028437121 8.9382173e-39
-0.013918538 -0.126711 0.028437121 9.7726527e-39
-0.012098532 -0.126711 0.028437121 1.7336291e-38
-0.010278527 -0.126711 0.028437121 1.7800863e-38
-0.0084585175 -0.126711 0.028437121 1.8263646e-38
-0.006638512 -0.126711 0.028437121 1.8632441e-38
-0.0048185065 -0.126711 0.028437121 1.660486e-38
-0.002817288 -0.1275015 0.025441391 1.6329707e-38
-0.00099202991 -0.1275015 0.025441391 1.670064e-38
0.0010260642 -0.1282966 0.022428257 1.5780475e-38
0.0030558631 -0.12909628 0.019397719 1.5136897e-38
0.0050901175 -0.12987186 0.016458614 1.5414202e-38
0.0074182078 -0.13172771 0.0094256233 1.5138691e-38
0.0094842464 -0.1325181 0.0064302515 1.4307854e-38
0.011856243 -0.13437997 -0.00062550791 1.2832005e-38
0.013727203 -0.13437997 -0.00062550791 1.200117e-38
0.016056463 -0.13596557 -0.0066343714 1.1630229e-38
0.018484142 -0.13781275 -0.013634579 1.1536239e-38
0.020377915 -0.13781275 -0.013634579 1.2918094e-38
0.022593047 -0.13885282 -0.017576115 1.374606e-38
0.02449372 -0.13885282 -0.017576115 1.2912343e-38
0.026652377 -0.13965334 -0.020609753 1.3367928e-38
0.028295096 -0.13885282 -0.017576115 1.096833e-38
0.030195769 -0.13885282 -0.017576115 9.7694409e-39
0.032370385 -0.13965334 -0.020609753 7.4642068e-39
-0.017558552 -0.12853102 0.028437121 1.0962927e-38
-0.015738547 -0.12853102 0.028437121 8.5683628e-39
-0.013918538 -0.12853102 0.028437121 9.2184111e-39
-0.012098532 -0.12853102 0.028437121 1.7611811e-38
-0.010278527 -0.12853102 0.028437121 1.8813231e-38
-0.0084585175 -0.12853102 0.028437121 1.9368565e-38
-0.006638512 -0.12853102 0.028437121 1.9277094e-38
-0.0048185065 -0.12853102 0.028437121 1.5775099e-38
-0.002817288 -0.12932678 0.025441391 1.4947128e-38
-0.00099202991 -0.12932678 0.025441391 1.6331855e-38
0.0010260642 -0.13012715 0.022428257 1.624145e-38
0.0030558631 -0.13093217 0.019397719 1.5321287e-38
0.0050901175 -0.13171287 0.016458614 1.4124542e-38
0.007211931 -0.13278987 0.012404067 1.2833803e-38
0.0092715472 -0.13358103 0.0094256233 1.1819297e-38
0.012070119 -0.13703169 -0.0035648514 1.1079937e-38
0.014174968 -0.13784705 -0.0066343714 1.2829863e-38
0.016056463 -0.13784705 -0.0066343714 1.4764179e-38
0.018484142 -0.13970654 -0.013634579 1.5038608e-38
0.020377915 -0.13970654 -0.013634579 1.5773657e-38
0.022593047 -0.14075352 -0.017576115 1.5126849e-38
0.02449372 -0.14075352 -0.017576115 1.2634328e-38
0.026652377 -0.14155935 -0.020609753 1.3736357e-38
0.028295096 -0.14075352 -0.017576115 1.0876137e-38
0.030195769 -0.14075352 -0.017576115 9.3088257e-39
0.032370385 -0.14155935 -0.020609753 7.2808946e-39
-0.019378558 -0.13035102 0.028437121 1.1697971e-38
-0.017558552 -0.13035102 0.028437121 1.0040616e-38
-0.015738547 -0.13035102 0.028437121 9.4899673e-39
-0.013918538 -0.13035102 0.028437121 9.0325891e-39
-0.012098532 -0.13035102 0.028437121 1.7149404e-38
-0.010278527 -0.13035102 0.028437121 1.9549728e-38
-0.0084585175 -0.13035102 0.028437121 1.8814321e-38
-0.006638512 -0.13035102 0.028437121 1.9092703e-38
-0.0048185065 -0.13035102 0.028437121 1.5130084e-38
-0.002817288 -0.13115202 0.025441391 1.4947122e-38
-0.00099202991 -0.13115202 0.025441391 1.6424405e-38
0.0012200102 -0.13276802 0.019397719 1.6149609e-38
0.0030558631 -0.13276802 0.019397719 1.4307491e-38
0.0050901175 -0.13355388 0.016458614 1.2648333e-38
0.007211931 -0.134638 0.012404067 1.3201508e-38
0.0092715472 -0.13543437 0.0094256233 1.1633475e-38
0.012070119 -0.13890781 -0.0035648514 1.2184859e-38
0.013946235 -0.13890781 -0.0035648514 1.3197224e-38
0.016056463 -0.13972856 -0.0066343714 1.7158764e-38
0.018250477 -0.14079951 -0.010639684 1.844735e-38
0.020377915 -0.1416003 -0.013634579 1.7430682e-38
0.022271689 -0.1416003 -0.013634579 1.5769721e-38
0.02449372 -0.1426542 -0.017576115 1.1158135e-38
0.026901778 -0.14424954 -0.023542659 1.1338919e-38
0.028295096 -0.1426542 -0.017576115 1.2075045e-38
0.030195769 -0.1426542 -0.017576115 1.0783957e-38
0.032096457 -0.1426542 -0.017576115 9.0326144e-39
-0.019378558 -0.13217102 0.028437121 1.1605419e-38
-0.017558552 -0.13217102 0.028437121 1.0500162e-38
-0.015738547 -0.13217102 0.028437121 9.7658382e-39
-0.014115032 -0.13111271 0.03236936 8.9396802e-39
-0.012301922 -0.13111271 0.03236936 1.6779909e-38
-0.010488808 -0.13111271 0.03236936 1.927171e-38
-0.0086756945 -0.13111271 0.03236936 1.8629932e-38
-0.0068625845 -0.13111271 0.03236936 1.90927e-38
-0.0048185065 -0.13217102 0.028437121 1.5222993e-38
-0.002817288 -0.13297729 0.025441391 1.4486499e-38
-0.00099202991 -0.13297729 0.025441391 1.4396095e-38
0.0012200102 -0.13460387 0.019397719 1.3383377e-38
0.0032491088 -0.13539489 0.016458614 1.2278106e-38
0.0050901175 -0.13539489 0.016458614 1.1909329e-38
0.0074182078 -0.13728772 0.0094256233 1.3291911e-38
0.0092715472 -0.13728772 0.0094256233 1.236925e-38
0.011856243 -0.13999285 -0.00062550791 1.7622617e-38
0.013946235 -0.14078392 -0.0035648514 2.038526e-38
0.015822351 -0.14078392 -0.0035648514 2.2315992e-38
0.017937969 -0.14161004 -0.0066343714 2.2867008e-38
0.02013899 -0.14268802 -0.010639684 2.2591496e-38
0.022271689 -0.14349405 -0.013634579 1.9731989e-38
0.024165463 -0.14349405 -0.013634579 1.1063792e-38
0.026901778 -0.14616071 -0.023542659 1.0140026e-38
0.028812926 -0.14616071 -0.023542659 9.6786844e-39
0.030724075 -0.14616071 -0.023542659 8.5719879e-39
-0.017419361 -0.13480256 0.025441391 1.0776749e-38
-0.015928145 -0.13292582 0.03236936 1.0042069e-38
-0.014268011 -0.13209651 0.035430774 9.0318759e-39
-0.012460269 -0.13209651 0.035430774 1.677883e-38
-0.010488808 -0.13292582 0.03236936 1.927135e-38
-0.0086756945 -0.13292582 0.03236936 1.8813605e-38
-0.0068625845 -0.13292582 0.03236936 1.8632795e-38
-0.0048185065 -0.13399105 0.028437121 1.494748e-38
-0.002817288 -0.13480256 0.025441391 1.4211344e-38
-0.00099202991 -0.13480256 0.025441391 1.4119144e-38
0.0012200102 -0.13643973 0.019397719 1.3013869e-38
0.0032491088 -0.13723589 0.016458614 1.1908244e-38
0.0050901175 -0.13723589 0.016458614 1.153911e-38
0.0074182078 -0.13914107 0.0094256233 1.3197203e-38
0.0092715472 -0.13914107 0.0094256233 1.245822e-38
0.011856243 -0.14186381 -0.00062550791 2.0108674e-38
0.013727203 -0.14186381 -0.00062550791 2.1948647e-38
0.015822351 -0.14266007 -0.0035648514 2.2315996e-38
0.017937969 -0.14349155 -0.0066343714 2.1945777e-38
0.02013899 -0.14457656 -0.010639684 2.2773377e-38
0.022027519 -0.14457656 -0.010639684 2.120533e-38
0.024165463 -0.14538784 -0.013634579 1.1154916e-38
0.027243149 -0.1491593 -0.027557032 9.7708913e-39
0.02916133 -0.1491593 -0.027557032 7.835139e-39
0.031079512 -0.1491593 -0.027557032 7.2816135e-39
-0.017558552 -0.13581105 0.028437121 1.0776749e-38
-0.015928145 -0.13473894 0.03236936 1.0502324e-38
-0.014268011 -0.13390426 0.035430774 9.6761635e-39
-0.012460269 -0.13390426 0.035430774 1.7239442e-38
-0.010652523 -0.13390426 0.035430774 1.9731961e-38
-0.0086756945 -0.13473894 0.03236936 1.9182738e-38
-0.0068625845 -0.13473894 0.03236936 1.8726064e-38
-0.0048185065 -0.13581105 0.028437121 1.4303184e-38
-0.002817288 -0.13662781 0.025441391 1.356597e-38
-0.00061585009 -0.13827558 0.019397719 1.4396084e-38
0.0014081001 -0.1390769 0.016458614 1.3842908e-38
0.0032491088 -0.1390769 0.016458614 1.2644367e-38
0.0053638145 -0.14018236 0.012404067 1.2642942e-38
0.0074182078 -0.14099441 0.0094256233 1.4669822e-38
0.0092715472 -0.14099441 0.0094256233 1.5773671e-38
0.011562034 -0.14263238 0.0034178328 2.2132314e-38
0.013727203 -0.14373477 -0.00062550791 2.2958853e-38
0.015822351 -0.14453618 -0.0035648514 2.3234364e-38
0.017937969 -0.14537306 -0.0066343714 2.2035458e-38
0.02013899 -0.14646508 -0.010639684 2.0743278e-38
0.022027519 -0.14646508 -0.010639684 1.8991193e-38
0.024165463 -0.1472816 -0.013634579 9.4021227e-39
0.026059236 -0.1472816 -0.013634579 9.7712556e-39
-0.017558552 -0.13763104 0.028437121 1.0499799e-38
-0.015928145 -0.13655205 0.03236936 1.0410483e-38
-0.014268011 -0.13571201 0.035430774 1.0044579e-38
-0.012460269 -0.13571201 0.035430774 1.7700409e-38
-0.010652523 -0.13571201 0.035430774 1.9915981e-38
-0.0086756945 -0.13655205 0.03236936 1.8998695e-38
-0.0068625845 -0.13655205 0.03236936 1.8634583e-38
-0.0048185065 -0.13763104 0.028437121 1.3751083e-38
-0.002817288 -0.13845308 0.025441391 1.3197541e-38
-0.00061585009 -0.14011143 0.019397719 1.4027656e-38
0.0014081001 -0.14091791 0.016458614 1.3288293e-38
0.0032491088 -0.14091791 0.016458614 1.2089035e-38
0.0053638145 -0.14203046 0.012404067 1.3746773e-38
0.0074182078 -0.14284773 0.0094256233 1.8077826e-38
0.0092715472 -0.14284773 0.0094256233 1.9827408e-38
0.011562034 -0.14449625 0.0034178328 2.3142513e-38
0.013727203 -0.14560573 -0.00062550791 2.2312043e-38
0.01559817 -0.14560573 -0.00062550791 2.2587192e-38
0.017698463 -0.1464123 -0.0035648514 2.1295013e-38
0.019819465 -0.14725454 -0.0066343714 1.9635123e-38
0.02170096 -0.14725454 -0.0066343714 1.8344017e-38
0.024165463 -0.14917539 -0.013634579 1.0600656e-38
0.026059236 -0.14917539 -0.013634579 1.0232237e-38
-0.017558552 -0.13945107 0.028437121 1.0407601e-38
-0.015928145 -0.13836516 0.03236936 1.0594506e-38
-0.014268011 -0.13751976 0.035430774 1.0044929e-38
-0.012460269 -0.13751976 0.035430774 1.7331975e-38
-0.010652523 -0.13751976 0.035430774 1.9086567e-38
-0.0086756945 -0.13836516 0.03236936 1.7985251e-38
-0.0068625845 -0.13836516 0.03236936 1.6607351e-38
-0.0048185065 -0.13945107 0.028437121 1.3014595e-38
-0.002817288 -0.14027832 0.025441391 1.3751431e-38
-0.00061585009 -0.14194728 0.019397719 1.4671947e-38
0.0014081001 -0.14275892 0.016458614 1.2734757e-38
0.003515698 -0.14387859 0.012404067 1.1534064e-38
0.0055648685 -0.14470108 0.0094256233 1.4389984e-38
0.0076256543 -0.14552824 0.0064302515 2.0103615e-38
0.0094842464 -0.14552824 0.0064302515 1.9087325e-38
0.011562034 -0.14636014 0.0034178328 1.8992989e-38
0.013727203 -0.14747669 -0.00062550791 1.705509e-38
0.01559817 -0.14747669 -0.00062550791 1.6223534e-38
0.017469134 -0.14747669 -0.00062550791 1.5301212e-38
0.019340094 -0.14747669 -0.00062550791 1.5300482e-38
0.021211054 -0.14747669 -0.00062550791 1.4655821e-38
0.023082014 -0.14747669 -0.00062550791 9.2173545e-39
-0.015928145 -0.14017828 0.03236936 1.124023e-38
-0.014268011 -0.13932751 0.035430774 1.0045637e-38
-0.012460269 -0.13932751 0.035430774 1.6502564e-38
-0.010652523 -0.13932751 0.035430774 1.7888009e-38
-0.0086756945 -0.14017828 0.03236936 1.651047e-38
-0.0068625845 -0.14017828 0.03236936 1.4303535e-38
-0.0048185065 -0.14127107 0.028437121 1.2092998e-38
-0.002817288 -0.1421036 0.025441391 1.3199336e-38
-0.00061585009 -0.14378314 0.019397719 1.374999e-38
0.0014081001 -0.14459993 0.016458614 1.2089387e-38
0.003515698 -0.1457267 0.012404067 1.2086517e-38
0.0055648685 -0.14655443 0.0094256233 1.5218306e-38
0.0076256543 -0.14738683 0.0064302515 2.0193653e-38
0.0094842464 -0.14738683 0.0064302515 2.0559938e-38
0.011562034 -0.14822401 0.0034178328 1.7976316e-38
0.013727203 -0.14934768 -0.00062550791 1.6868538e-38
0.01559817 -0.14934768 -0.00062550791 1.6683068e-38
0.017469134 -0.14934768 -0.00062550791 1.585294e-38
0.019340094 -0.14934768 -0.00062550791 1.5208275e-38
0.021211054 -0.14934768 -0.00062550791 1.3180676e-38
0.023082014 -0.14934768 -0.00062550791 1.0138584e-38
-0.014268011 -0.14113526 0.035430774 1.0138184e-38
-0.012460269 -0.14113526 0.035430774 1.5766425e-38
-0.010652523 -0.14113526 0.035430774 1.6599417e-38
-0.0086756945 -0.14199139 0.03236936 1.540519e-38
-0.0068625845 -0.14199139 0.03236936 1.3935103e-38
-0.0048185065 -0.14309107 0.028437121 1.1447263e-38
-0.002817288 -0.14392884 0.025441391 1.1353628e-38
-0.00061585009 -0.14561899 0.019397719 1.0891211e-38
0.0014081001 -0.14644094 0.016458614 1.061211e-38
0.003515698 -0.14757483 0.012404067 1.27301e-38
0.0055648685 -0.14840777 0.0094256233 1.6322504e-38
0.0076256543 -0.14924543 0.0064302515 2.019186e-38
0.0094842464 -0.14924543 0.0064302515 1.779263e-38
-0.016075756 -0.14294298 0.035430774 1.1791592e-38
-0.014268011 -0.14294298 0.035430774 1.0598795e-38
-0.012460269 -0.14294298 0.035430774 1.5398353e-38
-0.010652523 -0.14294298 0.035430774 1.5127516e-38
-0.0086756945 -0.14380451 0.03236936 1.4486102e-38
-0.006638512 -0.14491107 0.028437121 1.5686087e-38
-0.0046425462 -0.14575411 0.025441391 1.1445453e-38
-0.002817288 -0.14575411 0.025441391 1.1628057e-38
-0.00061585009 -0.14745484 0.019397719 9.7819979e-39
0.0014081001 -0.14828195 0.016458614 9.6876555e-39
0.003515698 -0.14942293 0.012404067 1.3280777e-38
-0.016075756 -0.14475073 0.035430774 1.2528434e-38
