# .PCD v0.7 - Point Cloud Data file format
VERSION 0.7
FIELDS x y z rgb
SIZE 4 4 4 4
TYPE F F F F
COUNT 1 1 1 1
WIDTH 259
HEIGHT 1
VIEWPOINT 0 0 0 1 0 0 0
POINTS 259
DATA ascii
-0.0082575744 -0.11109848 -0.0047615469 2.3048542e-38
-0.0065181898 -0.11109848 -0.0047615469 2.3509886e-38
-0.0047788061 -0.11109848 -0.0047615469 2.3509167e-38
-0.0030394234 -0.11109848 -0.0047615469 2.3508451e-38
-0.0013554804 -0.11031438 -0.0017500222 2.3508809e-38
0.0003786236 -0.11031438 -0.0017500222 2.3508092e-38
0.0021127257 -0.11031438 -0.0017500222 2.3140033e-38
0.0038468298 -0.11031438 -0.0017500222 2.3417333e-38
-0.0082575744 -0.11283787 -0.0047615469 2.3418045e-38
-0.0065181898 -0.11283787 -0.0047615469 2.3234012e-38
-0.0047788061 -0.11283787 -0.0047615469 2.350988e-38
-0.0030895844 -0.11204849 -0.0017500222 2.3509527e-38
-0.0013554804 -0.11204849 -0.0017500222 2.3509168e-38
0.0003786236 -0.11204849 -0.0017500222 2.3508451e-38
0.0020682421 -0.11151646 0.00027963519 2.3508809e-38
0.0037987884 -0.11151646 0.00027963519 2.3509168e-38
0.0055293329 -0.11151646 0.00027963519 2.3509883e-38
0.0073968805 -0.11283787 -0.0047615469 2.3418038e-38
-0.0082575744 -0.11457725 -0.0047615469 2.2497525e-38
-0.0065577915 -0.1137826 -0.0017500222 2.3234367e-38
-0.0048236884 -0.1137826 -0.0017500222 2.3234364e-38
-0.0030895844 -0.1137826 -0.0017500222 2.350988e-38
-0.0013554804 -0.1137826 -0.0017500222 2.3324421e-38
0.0003786236 -0.1137826 -0.0017500222 2.3323703e-38
0.0020682421 -0.11324702 0.00027963519 2.3508809e-38
0.0037987884 -0.11324702 0.00027963519 2.3509168e-38
0.0055293329 -0.11324702 0.00027963519 2.3326199e-38
0.0073150378 -0.1137826 -0.0017500222 2.3418031e-38
0.0090491399 -0.1137826 -0.0017500222 2.2867018e-38
-0.010025999 -0.11551671 -0.0017500222 2.3234379e-38
-0.0082918955 -0.11551671 -0.0017500222 2.222201e-38
-0.0065577915 -0.11551671 -0.0017500222 2.3142521e-38
-0.0048236884 -0.11551671 -0.0017500222 2.314252e-38
-0.0031233914 -0.11497755 0.00027963519 2.3418038e-38
-0.0013928469 -0.11497755 0.00027963519 2.3325138e-38
0.00033769757 -0.11497755 0.00027963519 2.3416256e-38
0.0020682421 -0.11497755 0.00027963519 2.3508809e-38
0.0037987884 -0.11497755 0.00027963519 2.3509527e-38
0.0055293329 -0.11497755 0.00027963519 2.3234353e-38
0.0072598774 -0.11497755 0.00027963519 2.3418021e-38
0.0090491399 -0.11551671 -0.0017500222 2.3142528e-38
0.010783244 -0.11551671 -0.0017500222 2.2774116e-38
-0.011760103 -0.11725079 -0.0017500222 2.3509527e-38
-0.010025999 -0.11725079 -0.0017500222 2.2865958e-38
-0.0082918955 -0.11725079 -0.0017500222 2.2958853e-38
-0.0065577915 -0.11725079 -0.0017500222 2.295884e-38
-0.0048236884 -0.11725079 -0.0017500222 2.102452e-38
-0.0031233914 -0.11670811 0.00027963519 2.2498585e-38
-0.0013928469 -0.11670811 0.00027963519 2.3141106e-38
0.00033769757 -0.11670811 0.00027963519 2.3139674e-38
0.0020029098 -0.11591102 0.0032606423 2.3509168e-38
0.0037282277 -0.11591102 0.0032606423 2.350988e-38
0.0054535456 -0.11591102 0.0032606423 2.3418014e-38
0.0072598774 -0.11670811 0.00027963519 2.3418011e-38
0.0089904219 -0.11670811 0.00027963519 2.3142528e-38
0.010720968 -0.11670811 0.00027963519 2.2589368e-38
0.01251735 -0.11725079 -0.0017500222 2.3508809e-38
-0.011760103 -0.11898489 -0.0017500222 2.3509886e-38
-0.010025999 -0.11898489 -0.0017500222 2.3142541e-38
-0.0082918955 -0.11898489 -0.0017500222 2.1394031e-38
-0.0065577915 -0.11898489 -0.0017500222 2.1210702e-38
-0.0048236884 -0.11898489 -0.0017500222 2.0287307e-38
-0.0031233914 -0.11843865 0.00027963519 2.2683328e-38
-0.0013928469 -0.11843865 0.00027963519 2.350988e-38
0.00033769757 -0.11843865 0.00027963519 2.3509527e-38
0.0020029098 -0.11763634 0.0032606423 2.3509527e-38
0.0037282277 -0.11763634 0.0032606423 2.350987e-38
0.0054535456 -0.11763634 0.0032606423 2.3326167e-38
0.0072598774 -0.11843865 0.00027963519 2.3050655e-38
0.0089904219 -0.11843865 0.00027963519 2.3234362e-38
0.010720968 -0.11843865 0.00027963519 2.341805e-38
0.012451513 -0.11843865 0.00027963519 2.3508809e-38
-0.013475725 -0.12153481 -0.0047615469 2.3508787e-38
-0.011760103 -0.120719 -0.0017500222 2.3232933e-38
-0.010025999 -0.120719 -0.0017500222 2.2866663e-38
-0.0082918955 -0.120719 -0.0017500222 1.9458274e-38
-0.0065577915 -0.120719 -0.0017500222 2.0104708e-38
-0.0048236884 -0.120719 -0.0017500222 1.9734485e-38
-0.0031233914 -0.12016918 0.00027963519 2.2222699e-38
-0.0013928469 -0.12016918 0.00027963519 2.3418035e-38
0.00033769757 -0.12016918 0.00027963519 2.3141456e-38
0.0020029098 -0.11936165 0.0032606423 2.2956345e-38
0.0037282277 -0.11936165 0.0032606423 2.2865207e-38
0.0054535456 -0.11936165 0.0032606423 2.295881e-38
0.0072598774 -0.12016918 0.00027963519 2.3509834e-38
0.0089904219 -0.12016918 0.00027963519 2.2404958e-38
0.010720968 -0.12016918 0.00027963519 2.3509886e-38
0.012451513 -0.12016918 0.00027963519 2.3230062e-38
-0.013475725 -0.12327419 -0.0047615469 2.3509139e-38
-0.011760103 -0.12245311 -0.0017500222 2.3509873e-38
-0.010025999 -0.12245311 -0.0017500222 2.2867015e-38
-0.0082918955 -0.12245311 -0.0017500222 2.0472423e-38
-0.0065577915 -0.12245311 -0.0017500222 2.2315965e-38
-0.0048236884 -0.12245311 -0.0017500222 2.2407797e-38
-0.0031233914 -0.12189974 0.00027963519 2.3234337e-38
-0.0013928469 -0.12189974 0.00027963519 2.3234354e-38
0.00033769757 -0.12189974 0.00027963519 2.1851069e-38
0.0020029098 -0.12108697 0.0032606423 2.0375575e-38
0.0037282277 -0.12108697 0.0032606423 1.9362125e-38
0.0055293329 -0.12189974 0.00027963519 2.0101457e-38
0.0072598774 -0.12189974 0.00027963519 2.2221962e-38
0.0089904219 -0.12189974 0.00027963519 2.3326196e-38
0.010720968 -0.12189974 0.00027963519 2.3509883e-38
0.012451513 -0.12189974 0.00027963519 2.3506635e-38
-0.015215108 -0.12501357 -0.0047615469 2.3503347e-38
-0.013475725 -0.12501357 -0.0047615469 2.3507691e-38
-0.011736342 -0.12501357 -0.0047615469 2.3509866e-38
-0.010025999 -0.12418722 -0.0017500222 2.2036528e-38
-0.0082918955 -0.12418722 -0.0017500222 2.1393657e-38
-0.0065577915 -0.12418722 -0.0017500222 2.2958824e-38
-0.0048236884 -0.12418722 -0.0017500222 2.3142492e-38
-0.0031233914 -0.12363027 0.00027963519 2.305066e-38
-0.0013928469 -0.12363027 0.00027963519 2.2681893e-38
0.00033769757 -0.12363027 0.00027963519 2.1943616e-38
0.0020029098 -0.12281232 0.0032606423 2.0283729e-38
0.0037282277 -0.12281232 0.0032606423 1.8255772e-38
0.0054535456 -0.12281232 0.0032606423 1.9179858e-38
0.0072598774 -0.12363027 0.00027963519 2.2498193e-38
0.0089041814 -0.12281232 0.0032606423 2.3509873e-38
0.010629501 -0.12281232 0.0032606423 2.3415885e-38
0.012354819 -0.12281232 0.0032606423 2.3508063e-38
-0.015215108 -0.12675296 -0.0047615469 2.0367611e-38
-0.013475725 -0.12675296 -0.0047615469 2.3506967e-38
-0.011760103 -0.12592132 -0.0017500222 2.350986e-38
-0.010025999 -0.12592132 -0.0017500222 2.1206046e-38
-0.0082918955 -0.12592132 -0.0017500222 2.1116352e-38
-0.0065577915 -0.12592132 -0.0017500222 2.1855706e-38
-0.0048236884 -0.12592132 -0.0017500222 2.268331e-38
-0.0030895844 -0.12592132 -0.0017500222 2.2591476e-38
-0.0013928469 -0.12536083 0.00027963519 2.2866641e-38
0.00033769757 -0.12536083 0.00027963519 2.3234348e-38
0.0020029098 -0.12453763 0.0032606423 2.2035442e-38
0.0037282277 -0.12453763 0.0032606423 1.9731256e-38
0.0054535456 -0.12453763 0.0032606423 2.019401e-38
0.0072598774 -0.12536083 0.00027963519 2.3326159e-38
0.0089041814 -0.12453763 0.0032606423 2.3509153e-38
0.010629501 -0.12453763 0.0032606423 2.3509161e-38
0.012354819 -0.12453763 0.0032606423 2.3509489e-38
0.014080135 -0.12453763 0.0032606423 1.0780705e-38
-0.015201828 -0.12933435 -0.0077914298 1.5757108e-38
-0.013475725 -0.12849234 -0.0047615469 2.3509482e-38
-0.011760103 -0.12765543 -0.0017500222 2.3509856e-38
-0.010025999 -0.12765543 -0.0017500222 2.2497142e-38
-0.0082918955 -0.12765543 -0.0017500222 2.1853918e-38
-0.0065577915 -0.12765543 -0.0017500222 2.148585e-38
-0.0048236884 -0.12765543 -0.0017500222 2.3142499e-38
-0.0030895844 -0.12765543 -0.0017500222 2.3234337e-38
-0.0013928469 -0.12709136 0.00027963519 2.3418018e-38
0.00033769757 -0.12709136 0.00027963519 2.3326182e-38
0.0020029098 -0.12626295 0.0032606423 2.2128354e-38
0.0037282277 -0.12626295 0.0032606423 2.0469537e-38
0.0054535456 -0.12626295 0.0032606423 2.0562435e-38
0.0071788635 -0.12626295 0.0032606423 2.2589673e-38
0.0089041814 -0.12626295 0.0032606423 2.3509873e-38
0.010629501 -0.12626295 0.0032606423 2.3508798e-38
0.012258707 -0.12543948 0.0062237084 2.2767594e-38
0.01397883 -0.12543948 0.0062237084 1.0135321e-38
-0.015201828 -0.13107903 -0.0077914298 1.105512e-38
-0.013475725 -0.13023172 -0.0047615469 2.3507304e-38
-0.011736342 -0.13023172 -0.0047615469 2.3508395e-38
-0.010025999 -0.12938951 -0.0017500222 2.3509844e-38
-0.0082918955 -0.12938951 -0.0017500222 2.2221976e-38
-0.0065577915 -0.12938951 -0.0017500222 2.1024872e-38
-0.0048236884 -0.12938951 -0.0017500222 2.2499646e-38
-0.0030895844 -0.12938951 -0.0017500222 2.3050672e-38
-0.0013928469 -0.12882192 0.00027963519 2.2406385e-38
0.00033769757 -0.12882192 0.00027963519 2.1207844e-38
0.0020029098 -0.12798826 0.0032606423 2.1206763e-38
0.0037282277 -0.12798826 0.0032606423 2.1668451e-38
0.0054535456 -0.12798826 0.0032606423 2.2775144e-38
0.0071788635 -0.12798826 0.0032606423 2.3509841e-38
0.0089041814 -0.12798826 0.0032606423 2.350986e-38
0.010629501 -0.12798826 0.0032606423 1.944857e-38
0.012258707 -0.12715961 0.0062237084 1.5114621e-38
0.01397883 -0.12715961 0.0062237084 1.0411181e-38
-0.013475725 -0.13197111 -0.0047615469 1.999988e-38
-0.011760103 -0.13112362 -0.0017500222 2.3509811e-38
-0.010025999 -0.13112362 -0.0017500222 2.3509821e-38
-0.0082918955 -0.13112362 -0.0017500222 2.249783e-38
-0.0065577915 -0.13112362 -0.0017500222 2.2591479e-38
-0.0048236884 -0.13112362 -0.0017500222 2.1117439e-38
-0.0031233914 -0.13055246 0.00027963519 2.0564635e-38
-0.0013928469 -0.13055246 0.00027963519 2.0379536e-38
0.00027759187 -0.12971358 0.0032606423 2.0748322e-38
0.0020029098 -0.12971358 0.0032606423 1.890369e-38
0.0037282277 -0.12971358 0.0032606423 2.2129811e-38
0.0054535456 -0.12971358 0.0032606423 2.3142524e-38
0.0071788635 -0.12971358 0.0032606423 2.3326175e-38
0.0089041814 -0.12971358 0.0032606423 2.3509834e-38
0.010538584 -0.12887974 0.0062237084 1.2533495e-38
0.012258707 -0.12887974 0.0062237084 1.0504101e-38
0.01397883 -0.12887974 0.0062237084 1.170156e-38
-0.013475725 -0.13371049 -0.0047615469 1.3175228e-38
-0.011760103 -0.13285773 -0.0017500222 1.9447059e-38
-0.010025999 -0.13285773 -0.0017500222 2.350944e-38
-0.0082918955 -0.13285773 -0.0017500222 2.3509821e-38
-0.0065577915 -0.13285773 -0.0017500222 2.286518e-38
-0.0048236884 -0.13285773 -0.0017500222 2.3509851e-38
-0.0031233914 -0.13228302 0.00027963519 2.2314194e-38
-0.0013928469 -0.13228302 0.00027963519 2.2497878e-38
0.00027759187 -0.1314389 0.0032606423 2.3050696e-38
0.0020029098 -0.1314389 0.0032606423 2.2588997e-38
0.0037282277 -0.1314389 0.0032606423 2.3509876e-38
0.0054535456 -0.1314389 0.0032606423 2.350987e-38
0.0071788635 -0.1314389 0.0032606423 2.1664497e-38
0.0089041814 -0.1314389 0.0032606423 1.9172297e-38
0.010538584 -0.13059987 0.0062237084 1.0597004e-38
0.012258707 -0.13059987 0.0062237084 1.0134228e-38
-0.011736342 -0.13544987 -0.0047615469 1.4463812e-38
-0.010025999 -0.13459183 -0.0017500222 2.0919315e-38
-0.0082918955 -0.13459183 -0.0017500222 2.3508731e-38
-0.0065577915 -0.13459183 -0.0017500222 2.3509824e-38
-0.0048236884 -0.13459183 -0.0017500222 2.3509838e-38
-0.0031233914 -0.13401355 0.00027963519 2.3508769e-38
-0.0013928469 -0.13401355 0.00027963519 2.3509142e-38
0.00033769757 -0.13401355 0.00027963519 2.3509146e-38
0.0020029098 -0.13316421 0.0032606423 2.3508427e-38
0.0037282277 -0.13316421 0.0032606423 2.3508787e-38
0.0054535456 -0.13316421 0.0032606423 2.3506263e-38
0.0071788635 -0.13316421 0.0032606423 2.1015161e-38
0.0089041814 -0.13316421 0.0032606423 1.3545481e-38
0.010629501 -0.13316421 0.0032606423 9.5814105e-39
0.012354819 -0.13316421 0.0032606423 1.068596e-38
-0.011736342 -0.13718925 -0.0047615469 1.1694342e-38
-0.010025999 -0.13632594 -0.0017500222 1.2618104e-38
-0.0082918955 -0.13632594 -0.0017500222 1.630702e-38
-0.0065577915 -0.13632594 -0.0017500222 2.0272164e-38
-0.0048236884 -0.13632594 -0.0017500222 2.3500826e-38
-0.0031233914 -0.13574408 0.00027963519 2.3504077e-38
-0.0013928469 -0.13574408 0.00027963519 2.3508047e-38
0.00033769757 -0.13574408 0.00027963519 2.3503371e-38
0.0020029098 -0.13488953 0.0032606423 2.1103046e-38
0.0037282277 -0.13488953 0.0032606423 1.6401069e-38
0.0054535456 -0.13488953 0.0032606423 1.3266775e-38
0.0071788635 -0.13488953 0.0032606423 9.578933e-39
0.0089041814 -0.13488953 0.0032606423 1.0870003e-38
-0.0048236884 -0.13806005 -0.0017500222 1.6397424e-38
-0.0031233914 -0.13747464 0.00027963519 1.8241347e-38
-0.0013928469 -0.13747464 0.00027963519 2.0823552e-38
0.00033769757 -0.13747464 0.00027963519 1.9255871e-38
0.0020682421 -0.13747464 0.00027963519 1.6859507e-38
0.0037987884 -0.13747464 0.00027963519 1.3171326e-38
0.0055293329 -0.13747464 0.00027963519 1.1880943e-38
0.0071788635 -0.13661484 0.0032606423 1.0129575e-38
0.0089041814 -0.13661484 0.0032606423 1.0591609e-38
0.0020682421 -0.13920517 0.00027963519 1.0496554e-38
0.0037987884 -0.13920517 0.00027963519 1.0128131e-38
0.0055293329 -0.13920517 0.00027963519 1.1142283e-38
0.0072598774 -0.13920517 0.00027963519 1.1603612e-38
0.0021127257 -0.14152823 -0.0017500222 1.1142985e-38
0.0038468298 -0.14152823 -0.0017500222 1.1789436e-38
0.0055293329 -0.14093573 0.00027963519 1.1421014e-38
0.0072598774 -0.14093573 0.00027963519 1.1789431e-38
0.0089904219 -0.14093573 0.00027963519 1.1695069e-38
0.0021127257 -0.14326234 -0.0017500222 1.1419924e-38
0.0038468298 -0.14326234 -0.0017500222 1.2250764e-38
0.0055809338 -0.14326234 -0.0017500222 1.123733e-38
0.0073150378 -0.14326234 -0.0017500222 1.1974177e-38
0.0090491399 -0.14326234 -0.0017500222 1.1234447e-38
