# .PCD v0.7 - Point Cloud Data file format
VERSION 0.7
FIELDS x y z rgb
SIZE 4 4 4 4
TYPE F F F F
COUNT 1 1 1 1
WIDTH 944
HEIGHT 1
VIEWPOINT 0 0 0 1 0 0 0
POINTS 944
DATA ascii
0.017626118 -0.10029322 -0.064354703 2.1856771e-38
0.019452415 -0.099627286 -0.0614218 2.1122083e-38
0.021358415 -0.099627286 -0.0614218 2.0570345e-38
0.023264419 -0.099627286 -0.0614218 2.0568549e-38
0.025270697 -0.10029322 -0.064354703 2.0937334e-38
0.027181841 -0.10029322 -0.064354703 2.1581267e-38
0.028982427 -0.099627286 -0.0614218 2.1764938e-38
0.030888427 -0.099627286 -0.0614218 2.1213914e-38
0.032915276 -0.10029322 -0.064354703 2.0661093e-38
0.03482642 -0.10029322 -0.064354703 1.8818614e-38
0.036737565 -0.10029322 -0.064354703 1.872534e-38
0.03864871 -0.10029322 -0.064354703 2.19486e-38
0.040559854 -0.10029322 -0.064354703 2.2591462e-38
0.042470999 -0.10029322 -0.064354703 2.3418005e-38
0.04458978 -0.10120471 -0.068369076 1.5855101e-38
0.010204365 -0.10473295 -0.075405642 2.3509873e-38
0.012134884 -0.10473295 -0.075405642 2.3234369e-38
0.014065406 -0.10473295 -0.075405642 2.268334e-38
0.015817035 -0.1031229 -0.068369076 2.158128e-38
0.017546412 -0.10153329 -0.0614218 2.0661824e-38
0.019364651 -0.10083917 -0.058388162 2.0846567e-38
0.021265335 -0.10083917 -0.058388162 2.0479218e-38
0.023166016 -0.10083917 -0.058388162 2.0201913e-38
0.025170419 -0.10153329 -0.0614218 2.0477784e-38
0.026967384 -0.10083917 -0.058388162 2.0846567e-38
0.028868068 -0.10083917 -0.058388162 2.1030238e-38
0.030888427 -0.10153329 -0.0614218 2.0571047e-38
0.032915276 -0.10220437 -0.064354703 2.0018588e-38
0.03482642 -0.10220437 -0.064354703 2.0662879e-38
0.036737565 -0.10220437 -0.064354703 1.8911878e-38
0.03864871 -0.10220437 -0.064354703 2.1489409e-38
0.040559854 -0.10220437 -0.064354703 2.1488696e-38
0.042671595 -0.1031229 -0.068369076 2.0654636e-38
0.04458978 -0.1031229 -0.068369076 1.4565786e-38
0.0074086161 -0.09582752 -0.02840798 2.3418029e-38
0.0090546133 -0.093516305 -0.01838379 2.3234367e-38
0.010885156 -0.093516305 -0.01838379 2.2867025e-38
0.012715698 -0.093516305 -0.01838379 2.2224159e-38
0.01480109 -0.09582752 -0.02840798 2.1122102e-38
0.01727546 -0.10114056 -0.051451731 2.0203721e-38
0.019048106 -0.10021709 -0.047446419 2.0754727e-38
0.020929605 -0.10021709 -0.047446419 2.0387375e-38
0.022811104 -0.10021709 -0.047446419 2.0111864e-38
0.024931941 -0.10183108 -0.054446626 2.0202981e-38
0.026825711 -0.10183108 -0.054446626 2.0295177e-38
0.028719485 -0.10183108 -0.054446626 2.0111863e-38
0.030768752 -0.10273984 -0.058388162 1.9743794e-38
0.032794431 -0.10343929 -0.0614218 1.9192052e-38
0.034700431 -0.10343929 -0.0614218 1.965195e-38
0.036737565 -0.1041155 -0.064354703 1.9467198e-38
0.038512435 -0.10343929 -0.0614218 2.0387361e-38
0.040418439 -0.10343929 -0.0614218 1.8078883e-38
0.042470999 -0.1041155 -0.064354703 1.6414702e-38
0.04458978 -0.10504107 -0.068369076 1.1709143e-38
0.0074086161 -0.097675636 -0.02840798 2.2590778e-38
0.0090546133 -0.095346853 -0.01838379 2.2131605e-38
0.010885156 -0.095346853 -0.01838379 2.1764973e-38
0.012715698 -0.095346853 -0.01838379 2.1030275e-38
0.01480109 -0.097675636 -0.02840798 2.0203736e-38
0.016893424 -0.099763289 -0.037394214 1.9652702e-38
0.018874269 -0.10070263 -0.041437555 2.002003e-38
0.020745233 -0.10070263 -0.041437555 1.9836347e-38
0.022616196 -0.10070263 -0.041437555 1.9652671e-38
0.024829544 -0.10302909 -0.051451731 1.9560835e-38
0.026718065 -0.10302909 -0.051451731 1.9468639e-38
0.028606586 -0.10302909 -0.051451731 1.9284965e-38
0.030613258 -0.10372485 -0.054446626 1.9009092e-38
0.032669432 -0.10464053 -0.058388162 1.8641743e-38
0.034700431 -0.10534529 -0.0614218 1.8087487e-38
0.036606435 -0.10534529 -0.0614218 1.9560822e-38
0.038512435 -0.10534529 -0.0614218 1.9283157e-38
0.040418439 -0.10534529 -0.0614218 1.6605897e-38
0.042470999 -0.10602666 -0.064354703 1.5955867e-38
0.044382144 -0.10602666 -0.064354703 1.152653e-38
0.046293288 -0.10602666 -0.064354703 1.2812607e-38
0.0017324453 -0.097177386 -0.01838379 2.2590389e-38
0.0035180813 -0.096472099 -0.015370656 2.2866272e-38
0.0053433413 -0.096472099 -0.015370656 2.2497858e-38
0.0072240708 -0.097177386 -0.01838379 2.1670618e-38
0.0090546133 -0.097177386 -0.01838379 2.0935562e-38
0.010885156 -0.097177386 -0.01838379 2.0109381e-38
0.012787431 -0.097886756 -0.021414328 1.937612e-38
0.014698009 -0.098574698 -0.024353433 1.8917658e-38
0.016730152 -0.10022092 -0.031386424 1.8826169e-38
0.018670149 -0.10092205 -0.034381796 1.8826146e-38
0.020621169 -0.10162716 -0.037394214 1.8917972e-38
0.022616196 -0.10257359 -0.041437555 1.9101287e-38
0.024587657 -0.1032616 -0.044376899 1.9009447e-38
0.026463773 -0.1032616 -0.044376899 1.8825776e-38
0.0284556 -0.10398008 -0.047446419 1.8734298e-38
0.030495107 -0.1049176 -0.051451731 1.8642459e-38
0.032507028 -0.10561861 -0.054446626 1.8458782e-38
0.034570117 -0.1065412 -0.058388162 1.8366942e-38
0.036606435 -0.1072513 -0.0614218 1.9377144e-38
0.038512435 -0.1072513 -0.0614218 1.8731775e-38
0.040418439 -0.1072513 -0.0614218 1.8175369e-38
0.042470999 -0.1079378 -0.064354703 1.8723521e-38
0.044382144 -0.1079378 -0.064354703 1.3371868e-38
0.046293288 -0.1079378 -0.064354703 1.3551955e-38
0.0016928222 -0.098297372 -0.015370656 2.3509853e-38
0.0035180813 -0.098297372 -0.015370656 2.3141808e-38
0.0053433413 -0.098297372 -0.015370656 2.2682269e-38
0.0072240708 -0.099007934 -0.01838379 2.1855726e-38
0.0090546133 -0.099007934 -0.01838379 2.0477079e-38
0.010885156 -0.099007934 -0.01838379 1.9006956e-38
0.012787431 -0.099722609 -0.021414328 1.7997109e-38
0.014623287 -0.099722609 -0.021414328 1.7722331e-38
0.016649209 -0.10137187 -0.02840798 1.7907437e-38
0.018670149 -0.10278064 -0.034381796 1.7998179e-38
0.020528737 -0.10278064 -0.034381796 1.8457711e-38
0.022485044 -0.10349102 -0.037394214 1.8734295e-38
0.02448716 -0.10444455 -0.041437555 1.8734295e-38
0.026463773 -0.10513772 -0.044376899 1.8458788e-38
0.0284556 -0.10586159 -0.047446419 1.8366949e-38
0.030495107 -0.10680611 -0.051451731 1.8366946e-38
0.032383628 -0.10680611 -0.051451731 1.8366945e-38
0.034570117 -0.1084419 -0.058388162 1.8091433e-38
0.036606435 -0.10915731 -0.0614218 1.7629735e-38
0.038512435 -0.10915731 -0.0614218 1.7534666e-38
0.040418439 -0.10915731 -0.0614218 1.8637064e-38
0.042470999 -0.10984896 -0.064354703 1.9093015e-38
0.044382144 -0.10984896 -0.064354703 1.4387089e-38
0.046293288 -0.10984896 -0.064354703 1.373813e-38
0.048204433 -0.10984896 -0.064354703 1.4933444e-38
0.0016928222 -0.10012263 -0.015370656 2.3509862e-38
0.0035180813 -0.10012263 -0.015370656 2.3509527e-38
0.0053433413 -0.10012263 -0.015370656 2.3418045e-38
0.0071685994 -0.10012263 -0.015370656 2.259149e-38
0.0089938594 -0.10012263 -0.015370656 2.0846567e-38
0.010819118 -0.10012263 -0.015370656 1.8916177e-38
0.012715698 -0.10083848 -0.01838379 1.7629743e-38
0.014623287 -0.10155846 -0.021414328 1.71713e-38
0.016539019 -0.10225673 -0.024353433 1.7540084e-38
0.018497325 -0.10322 -0.02840798 1.8091091e-38
0.020436831 -0.1039276 -0.031386424 1.8458789e-38
0.022387329 -0.10463922 -0.034381796 1.8826135e-38
0.024348918 -0.10535492 -0.037394214 1.8826132e-38
0.026358124 -0.10631551 -0.041437555 1.855062e-38
0.028339889 -0.10701384 -0.044376899 1.827511e-38
0.030337099 -0.10774307 -0.047446419 1.8183271e-38
0.032218598 -0.10774307 -0.047446419 1.8091436e-38
0.034400802 -0.10940616 -0.054446626 1.7907402e-38
0.036470801 -0.11034258 -0.058388162 1.6800335e-38
0.038512435 -0.11106332 -0.0614218 1.7350998e-38
0.040418439 -0.11106332 -0.0614218 1.8545588e-38
0.042470999 -0.11176009 -0.064354703 1.8357248e-38
0.044382144 -0.11176009 -0.064354703 1.5679622e-38
0.046293288 -0.11176009 -0.064354703 1.5030301e-38
0.048204433 -0.11176009 -0.064354703 1.2721823e-38
0.0016928222 -0.10194789 -0.015370656 2.350986e-38
0.0035180813 -0.10194789 -0.015370656 2.3508441e-38
0.005293441 -0.10123092 -0.012374926 2.3509873e-38
0.0071134483 -0.10123092 -0.012374926 2.1946828e-38
0.0089334557 -0.10123092 -0.012374926 2.2499621e-38
0.010819118 -0.10194789 -0.015370656 1.9652655e-38
0.012715698 -0.10266902 -0.01838379 1.6984365e-38
0.014546241 -0.10266902 -0.01838379 1.6802868e-38
0.016539019 -0.10409774 -0.024353433 1.8091461e-38
0.018497325 -0.1050681 -0.02840798 1.818329e-38
0.020436831 -0.10578094 -0.031386424 1.8458795e-38
0.02229017 -0.10578094 -0.031386424 1.7814137e-38
0.024245922 -0.10649781 -0.034381796 1.8734297e-38
0.026212793 -0.10721879 -0.037394214 1.8274749e-38
0.028229088 -0.10818647 -0.041437555 1.7261316e-38
0.030216005 -0.10888995 -0.044376899 1.7722295e-38
0.032092124 -0.10888995 -0.044376899 1.781485e-38
0.034272153 -0.11058317 -0.051451731 1.8458786e-38
0.036470801 -0.11224325 -0.058388162 1.6799266e-38
0.038512435 -0.11296929 -0.0614218 1.6612361e-38
0.040418439 -0.11296929 -0.0614218 1.7347412e-38
0.042470999 -0.11367123 -0.064354703 1.817322e-38
0.044382144 -0.11367123 -0.064354703 1.577218e-38
0.046293288 -0.11367123 -0.064354703 1.4939544e-38
0.048204433 -0.11367123 -0.064354703 1.2630703e-38
0.0016928222 -0.10377313 -0.015370656 1.2905183e-38
0.0034734355 -0.10305093 -0.012374926 2.0556718e-38
0.005227943 -0.10210292 -0.0084426887 2.350913e-38
0.0070410566 -0.10210292 -0.0084426887 2.3509834e-38
0.0088541685 -0.10210292 -0.0084426887 2.286696e-38
0.010753461 -0.10305093 -0.012374926 1.9835251e-38
0.012644378 -0.10377313 -0.015370656 1.9101633e-38
0.014546241 -0.10449956 -0.01838379 1.8275122e-38
0.016459145 -0.10523017 -0.021414328 1.5235545e-38
0.018380027 -0.10593875 -0.024353433 1.689399e-38
0.020221036 -0.10593875 -0.024353433 1.8642474e-38
0.022193559 -0.10691623 -0.02840798 1.8366956e-38
0.02414351 -0.10763429 -0.031386424 1.7905614e-38
0.025996853 -0.10763429 -0.031386424 1.7997086e-38
0.027963106 -0.1083564 -0.034381796 1.8458065e-38
0.030100048 -0.11005743 -0.041437555 1.855026e-38
0.031971011 -0.11005743 -0.041437555 1.6614155e-38
0.03396824 -0.11076607 -0.044376899 1.7074778e-38
0.036294576 -0.11319371 -0.054446626 1.6705283e-38
0.038512435 -0.1148753 -0.0614218 1.7164466e-38
0.040418439 -0.1148753 -0.0614218 1.7715124e-38
0.042470999 -0.11558239 -0.064354703 1.8818235e-38
0.044382144 -0.11558239 -0.064354703 1.6695577e-38
0.046293288 -0.11558239 -0.064354703 1.4940626e-38
0.048204433 -0.11558239 -0.064354703 1.0972617e-38
0.0034734355 -0.10487093 -0.012374926 1.4102261e-38
0.0051769512 -0.10317262 -0.005381275 2.2216919e-38
0.0069846949 -0.10317262 -0.005381275 2.3509821e-38
0.0087924404 -0.10317262 -0.005381275 2.3234302e-38
0.010600184 -0.10317262 -0.005381275 2.0569957e-38
0.012480392 -0.10391603 -0.0084426887 1.9744501e-38
0.014393476 -0.10487093 -0.012374926 1.7996737e-38
0.016376782 -0.10633011 -0.01838379 1.735317e-38
0.018294998 -0.10706602 -0.021414328 1.5879122e-38
0.020221036 -0.10777976 -0.024353433 1.7446448e-38
0.022193559 -0.10876434 -0.02840798 1.7445003e-38
0.024041679 -0.10876434 -0.02840798 1.7166974e-38
0.025996853 -0.10948761 -0.031386424 1.7994575e-38
0.027963106 -0.11021499 -0.034381796 1.8454835e-38
0.029940538 -0.11094652 -0.037394214 1.854703e-38
0.031804413 -0.11094652 -0.037394214 1.6242144e-38
0.033841975 -0.11192839 -0.041437555 1.6242152e-38
0.036294576 -0.11508749 -0.054446626 1.7347786e-38
0.038512435 -0.11678131 -0.0614218 1.8084275e-38
0.040418439 -0.11678131 -0.0614218 1.7160524e-38
0.042324442 -0.11678131 -0.0614218 1.7342757e-38
0.044382144 -0.11749353 -0.064354703 1.5773989e-38
0.046293288 -0.11749353 -0.064354703 1.4388894e-38
0.048204433 -0.11749353 -0.064354703 1.0144298e-38
0.0034734355 -0.10669093 -0.012374926 1.4745805e-38
0.0051280027 -0.10426159 -0.0024426468 1.5208228e-38
0.0069305962 -0.10426159 -0.0024426468 1.7699319e-38
0.0087331878 -0.10426159 -0.0024426468 2.1021961e-38
0.010535779 -0.10426159 -0.0024426468 2.019687e-38
0.01240793 -0.10498036 -0.005381275 2.1305734e-38
0.014215673 -0.10498036 -0.005381275 2.0295528e-38
0.016294897 -0.10742365 -0.015370656 1.6890034e-38
0.018207327 -0.10816063 -0.01838379 1.6154631e-38
0.020037867 -0.10816063 -0.01838379 1.5509262e-38
0.022062045 -0.10962076 -0.024353433 1.5691491e-38
0.024041679 -0.11061247 -0.02840798 1.6704201e-38
0.025889795 -0.11061247 -0.02840798 1.7715832e-38
0.027850192 -0.11134095 -0.031386424 1.5778645e-38
0.029821698 -0.11207359 -0.034381796 1.6515494e-38
0.031804413 -0.11281042 -0.037394214 1.6422945e-38
0.033668287 -0.11281042 -0.037394214 1.7344552e-38
0.035844356 -0.1145183 -0.044376899 1.918811e-38
0.038512435 -0.11868732 -0.0614218 2.0017518e-38
0.040418439 -0.11868732 -0.0614218 1.7988854e-38
0.042324442 -0.11868732 -0.0614218 1.6236058e-38
0.044382144 -0.11940466 -0.064354703 1.4114114e-38
0.046507962 -0.12038656 -0.068369076 1.3376187e-38
0.048204433 -0.11940466 -0.064354703 1.0330131e-38
0.050115578 -0.11940466 -0.064354703 1.1521482e-38
0.0034148321 -0.10754226 -0.0084426887 1.3822395e-38
0.0051280027 -0.10606419 -0.0024426468 1.3453976e-38
0.0069305962 -0.10606419 -0.0024426468 1.20725e-38
0.0087331878 -0.10606419 -0.0024426468 1.5670659e-38
0.010535779 -0.10606419 -0.0024426468 2.0376956e-38
0.012338371 -0.10606419 -0.0024426468 2.1764919e-38
0.014215673 -0.10678811 -0.005381275 1.8819316e-38
0.01621348 -0.10851096 -0.012374926 1.9099855e-38
0.01803349 -0.10851096 -0.012374926 1.7168067e-38
0.019945413 -0.10924892 -0.015370656 1.4955372e-38
0.021966711 -0.11073773 -0.021414328 1.5045405e-38
0.023903053 -0.11146177 -0.024353433 1.6609847e-38
0.025744062 -0.11146177 -0.024353433 1.7252696e-38
0.027737916 -0.11246057 -0.02840798 1.3930776e-38
0.029703531 -0.1131943 -0.031386424 1.5497389e-38
0.031680293 -0.11393218 -0.034381796 1.7248754e-38
0.033668287 -0.11467429 -0.037394214 1.9645491e-38
0.035844356 -0.11639442 -0.044376899 2.029087e-38
0.038512435 -0.12059332 -0.0614218 2.0475986e-38
0.040418439 -0.12059332 -0.0614218 1.85406e-38
0.042324442 -0.12059332 -0.0614218 1.6420095e-38
0.044382144 -0.12131582 -0.064354703 1.3192886e-38
0.046507962 -0.12230472 -0.068369076 1.2454592e-38
0.048204433 -0.12131582 -0.064354703 1.0238299e-38
0.050115578 -0.12131582 -0.064354703 1.1430365e-38
0.0034148321 -0.10935538 -0.0084426887 1.2805372e-38
0.0051280027 -0.10786678 -0.0024426468 1.1145848e-38
0.0069305962 -0.10786678 -0.0024426468 1.179339e-38
0.008672175 -0.10711606 0.00058324262 1.4193724e-38
0.010469462 -0.10711606 0.00058324262 1.5764298e-38
0.012338371 -0.10786678 -0.0024426468 2.0747533e-38
0.014215673 -0.10859586 -0.005381275 2.1581231e-38
0.016106617 -0.10935538 -0.0084426887 2.0203684e-38
0.01791973 -0.10935538 -0.0084426887 1.7535052e-38
0.019853495 -0.11033095 -0.012374926 1.5324154e-38
0.021770675 -0.11107419 -0.015370656 1.5874446e-38
0.023802564 -0.11257361 -0.021414328 1.6700604e-38
0.02563842 -0.11257361 -0.021414328 1.7895188e-38
0.027474277 -0.11257361 -0.021414328 1.4758379e-38
0.029586032 -0.1143087 -0.02840798 1.7245871e-38
0.031556871 -0.11504765 -0.031386424 1.8996881e-38
0.033410214 -0.11504765 -0.031386424 2.0656053e-38
0.035532162 -0.11653815 -0.037394214 1.8628837e-38
0.038371485 -0.12174667 -0.058388162 1.6878566e-38
0.040418439 -0.1224993 -0.0614218 1.5312679e-38
0.042324442 -0.1224993 -0.0614218 1.4852056e-38
0.044382144 -0.12322696 -0.064354703 1.2455682e-38
0.046507962 -0.12422292 -0.068369076 1.1810665e-38
0.048426148 -0.12422292 -0.068369076 9.5943683e-39
0.050344329 -0.12422292 -0.068369076 1.1246693e-38
0.0050776014 -0.10891335 0.00058324262 1.2711387e-38
0.0068748882 -0.10891335 0.00058324262 1.0592325e-38
0.008672175 -0.10891335 0.00058324262 1.0227143e-38
0.010469462 -0.10891335 0.00058324262 1.5301151e-38
0.012266749 -0.10891335 0.00058324262 2.2405246e-38
0.014140964 -0.10966937 -0.0024426468 2.1670904e-38
0.01602342 -0.11040358 -0.005381275 2.0201526e-38
0.01791973 -0.11116849 -0.0084426887 1.73503e-38
0.019853495 -0.11215095 -0.012374926 1.4955372e-38
0.021770675 -0.11289944 -0.015370656 1.5781528e-38
0.023802564 -0.11440946 -0.021414328 1.6423298e-38
0.02563842 -0.11440946 -0.021414328 1.80785e-38
0.027474277 -0.11440946 -0.021414328 1.4756221e-38
0.029586032 -0.1161568 -0.02840798 1.7151518e-38
0.031556871 -0.11690097 -0.031386424 1.8441189e-38
0.033410214 -0.11690097 -0.031386424 1.8164616e-38
0.035532162 -0.11840202 -0.037394214 1.5768617e-38
0.037720475 -0.12014665 -0.044376899 1.3834315e-38
0.039937716 -0.12191428 -0.051451731 1.3190385e-38
0.042172849 -0.12364738 -0.058388162 1.4114493e-38
0.044382144 -0.12513812 -0.064354703 1.2916661e-38
0.046293288 -0.12513812 -0.064354703 1.2180526e-38
0.048204433 -0.12513812 -0.064354703 9.411056e-39
0.050115578 -0.12513812 -0.064354703 1.0970826e-38
0.052262511 -0.12614109 -0.068369076 1.207466e-38
0.0050776014 -0.11071064 0.00058324262 1.353972e-38
0.0068748882 -0.11071064 0.00058324262 1.2250775e-38
0.008672175 -0.11071064 0.00058324262 1.0502295e-38
0.010469462 -0.11071064 0.00058324262 1.281079e-38
0.012266749 -0.11071064 0.00058324262 2.0743211e-38
0.014140964 -0.11147197 -0.0024426468 2.1852787e-38
0.01602342 -0.11221133 -0.005381275 2.029121e-38
0.01791973 -0.1129816 -0.0084426887 1.8085349e-38
0.019853495 -0.11397095 -0.012374926 1.4492233e-38
0.021770675 -0.11472471 -0.015370656 1.4949974e-38
0.023802564 -0.11624531 -0.021414328 1.5869054e-38
0.02563842 -0.11624531 -0.021414328 1.7156555e-38
0.027585071 -0.1169848 -0.024353433 1.2083638e-38
0.029586032 -0.11800493 -0.02840798 1.3649168e-38
0.031556871 -0.11875431 -0.031386424 1.503139e-38
0.033410214 -0.11875431 -0.031386424 1.4017249e-38
0.035532162 -0.12026589 -0.037394214 1.3833225e-38
0.037720475 -0.12202276 -0.044376899 1.4203452e-38
0.039744593 -0.12279506 -0.047446419 1.4850262e-38
0.041975893 -0.12455635 -0.054446626 1.6510501e-38
0.044230442 -0.12631132 -0.0614218 1.5037163e-38
0.046293288 -0.12704925 -0.064354703 1.3562385e-38
0.048204433 -0.12704925 -0.064354703 9.5954487e-39
0.050115578 -0.12704925 -0.064354703 1.1063022e-38
0.052262511 -0.12805928 -0.068369076 1.2166136e-38
0.0050274944 -0.11174576 0.003591489 1.3172382e-38
0.0068195062 -0.11174576 0.003591489 1.2620647e-38
0.0086115198 -0.11174576 0.003591489 1.1147315e-38
0.010403532 -0.11174576 0.003591489 1.1887401e-38
0.012266749 -0.11250792 0.00058324262 2.074142e-38
0.014140964 -0.11327456 -0.0024426468 2.0282599e-38
0.01602342 -0.11401908 -0.005381275 1.908908e-38
0.01791973 -0.11479472 -0.0084426887 1.660554e-38
0.019853495 -0.11579098 -0.012374926 1.5502429e-38
0.021770675 -0.11654995 -0.015370656 1.3933677e-38
0.023802564 -0.11808117 -0.021414328 1.596091e-38
0.02563842 -0.11808117 -0.021414328 1.5775803e-38
0.027585071 -0.11882581 -0.024353433 1.217945e-38
0.029703531 -0.12060766 -0.031386424 1.2086887e-38
0.031556871 -0.12060766 -0.031386424 1.2640417e-38
0.033538885 -0.12136655 -0.034381796 1.2271634e-38
0.035532162 -0.12212978 -0.037394214 1.2640062e-38
0.037720475 -0.12389888 -0.044376899 1.3377279e-38
0.039744593 -0.12467657 -0.047446419 1.6327188e-38
0.041975893 -0.12645011 -0.054446626 1.7985632e-38
0.044230442 -0.12821732 -0.0614218 1.6141718e-38
0.046293288 -0.12896039 -0.064354703 1.3284004e-38
0.048204433 -0.12896039 -0.064354703 1.0698922e-38
0.050115578 -0.12896039 -0.064354703 1.1061585e-38
0.052675817 -0.13176022 -0.075405642 1.1795559e-38
0.0050274944 -0.11353777 0.003591489 1.326602e-38
0.0068195062 -0.11353777 0.003591489 1.2712847e-38
0.0086115198 -0.11353777 0.003591489 1.0686704e-38
0.010403532 -0.11353777 0.003591489 1.1333513e-38
0.012195543 -0.11353777 0.003591489 1.8527652e-38
0.014140964 -0.11507715 -0.0024426468 1.9082265e-38
0.015943557 -0.11507715 -0.0024426468 1.7795833e-38
0.017831162 -0.11582683 -0.005381275 1.6418996e-38
0.019638907 -0.11582683 -0.005381275 1.6052371e-38
0.021673501 -0.11761098 -0.012374926 1.5407022e-38
0.023698952 -0.11914389 -0.01838379 1.8356933e-38
0.02563842 -0.11991702 -0.021414328 1.7343144e-38
0.027585071 -0.12066682 -0.024353433 1.2549326e-38
0.029703531 -0.12246101 -0.031386424 1.2734063e-38
0.031680293 -0.12322514 -0.034381796 1.4578327e-38
0.033538885 -0.12322514 -0.034381796 1.3656727e-38
0.035532162 -0.12399365 -0.037394214 1.4116989e-38
0.037720475 -0.12577499 -0.044376899 1.5129356e-38
0.039744593 -0.12655805 -0.047446419 1.7894514e-38
0.041975893 -0.1283439 -0.054446626 1.835334e-38
0.044230442 -0.13012333 -0.0614218 1.512613e-38
0.046293288 -0.13087155 -0.064354703 1.2545004e-38
0.048204433 -0.13087155 -0.064354703 1.1158824e-38
0.050115578 -0.13087155 -0.064354703 1.2442723e-38
0.052675817 -0.13369073 -0.075405642 1.3362168e-38
0.0068748882 -0.1161025 0.00058324262 1.2897239e-38
0.0086115198 -0.11532979 0.003591489 1.07789e-38
0.010403532 -0.11532979 0.003591489 1.124132e-38
0.012195543 -0.11532979 0.003591489 1.5669231e-38
0.014064035 -0.1161025 0.00058324262 1.7607137e-38
0.015943557 -0.11687975 -0.0024426468 1.6873522e-38
0.017746147 -0.11687975 -0.0024426468 1.5955871e-38
0.019638907 -0.11763458 -0.005381275 1.7340966e-38
0.021673501 -0.11943097 -0.012374926 1.8262939e-38
0.023698952 -0.12097444 -0.01838379 2.1212852e-38
0.02563842 -0.12175287 -0.021414328 1.8908323e-38
0.027585071 -0.12250783 -0.024353433 1.2823766e-38
0.029703531 -0.12431435 -0.031386424 1.2548604e-38
0.031680293 -0.12508373 -0.034381796 1.448542e-38
0.033538885 -0.12508373 -0.034381796 1.4301026e-38
0.035532162 -0.12585752 -0.037394214 1.4853123e-38
0.037583902 -0.1268961 -0.041437555 1.5865128e-38
0.039744593 -0.12843956 -0.047446419 1.8168949e-38
0.041975893 -0.13023765 -0.054446626 1.7338472e-38
0.044230442 -0.13202934 -0.0614218 1.3557728e-38
0.046293288 -0.13278268 -0.064354703 1.1621253e-38
0.048204433 -0.13278268 -0.064354703 1.1249944e-38
0.050115578 -0.13278268 -0.064354703 1.2810787e-38
0.052443992 -0.13460748 -0.071458861 1.3823147e-38
-0.018158302 -0.11247079 0.02157576 1.6588325e-38
-0.016397823 -0.11247079 0.02157576 1.677344e-38
-0.01464524 -0.11324753 0.018572282 1.6220272e-38
0.012266749 -0.11789979 0.00058324262 1.2442386e-38
0.014064035 -0.11789979 0.00058324262 1.5578476e-38
0.015861321 -0.11789979 0.00058324262 1.687245e-38
0.017746147 -0.11868234 -0.0024426468 1.6138115e-38
0.019638907 -0.11944233 -0.005381275 2.0380559e-38
0.021673501 -0.121251 -0.012374926 2.2315967e-38
0.023802564 -0.12358873 -0.021414328 2.2866999e-38
0.02563842 -0.12358873 -0.021414328 2.05657e-38
0.027585071 -0.12434883 -0.024353433 1.5219784e-38
0.029703531 -0.12616767 -0.031386424 1.4390726e-38
0.031556871 -0.12616767 -0.031386424 1.4299598e-38
0.033538885 -0.12694232 -0.034381796 1.4760931e-38
0.035532162 -0.12772138 -0.037394214 1.5405582e-38
0.037583902 -0.12876706 -0.041437555 1.6325392e-38
0.039596591 -0.12952723 -0.044376899 1.7983841e-38
0.041826237 -0.13135691 -0.051451731 1.7429591e-38
0.044230442 -0.13393532 -0.0614218 1.4386773e-38
0.046293288 -0.13469382 -0.064354703 1.2910915e-38
0.048204433 -0.13469382 -0.064354703 1.2078628e-38
0.050115578 -0.13469382 -0.064354703 1.216542e-38
0.052026723 -0.13469382 -0.064354703 1.3269973e-38
-0.023405716 -0.11345388 0.024561476 1.2165429e-38
-0.021650471 -0.11345388 0.024561476 1.2810088e-38
-0.019918781 -0.11423124 0.02157576 2.3508026e-38
-0.018158302 -0.11423124 0.02157576 2.3509478e-38
-0.016397823 -0.11423124 0.02157576 2.3509485e-38
-0.01464524 -0.11501329 0.018572282 1.8248938e-38
0.014064035 -0.11969708 0.00058324262 1.2075048e-38
0.015861321 -0.11969708 0.00058324262 1.6133813e-38
0.017746147 -0.12048493 -0.0024426468 1.5490962e-38
0.01954874 -0.12048493 -0.0024426468 2.1945741e-38
0.021545954 -0.12204717 -0.0084426887 2.3234344e-38
0.023802564 -0.12542458 -0.021414328 2.2683337e-38
0.02563842 -0.12542458 -0.021414328 2.0380241e-38
0.027585071 -0.12618984 -0.024353433 1.8168617e-38
0.029703531 -0.12802102 -0.031386424 1.7525028e-38
0.031556871 -0.12802102 -0.031386424 1.5128288e-38
0.033410214 -0.12802102 -0.031386424 1.448327e-38
0.035532162 -0.12958528 -0.037394214 1.5681816e-38
0.037583902 -0.13063805 -0.041437555 1.6417232e-38
0.039596591 -0.13140334 -0.044376899 1.7707257e-38
0.041826237 -0.13324542 -0.051451731 1.7890209e-38
0.044230442 -0.13584132 -0.0614218 1.6045215e-38
0.046293288 -0.13660498 -0.064354703 1.3832511e-38
0.048204433 -0.13660498 -0.064354703 1.1524734e-38
0.050115578 -0.13660498 -0.064354703 1.2073225e-38
0.052026723 -0.13660498 -0.064354703 1.2993386e-38
-0.023405716 -0.11520912 0.024561476 1.234982e-38
-0.021650471 -0.11520912 0.024561476 1.5945455e-38
-0.019918781 -0.11599173 0.02157576 2.3508386e-38
-0.018158302 -0.11599173 0.02157576 2.3505515e-38
-0.016397823 -0.11599173 0.02157576 2.3507684e-38
-0.01464524 -0.11677901 0.018572282 1.4837702e-38
0.014064035 -0.12149437 0.00058324262 9.032236e-39
0.015861321 -0.12149437 0.00058324262 1.5119308e-38
0.017746147 -0.12228753 -0.0024426468 1.6227096e-38
0.01954874 -0.12228753 -0.0024426468 2.2774434e-38
0.021545954 -0.12386028 -0.0084426887 2.3418025e-38
0.023698952 -0.12646608 -0.01838379 2.1116017e-38
0.025529493 -0.12646608 -0.01838379 1.9549413e-38
0.027474277 -0.12726043 -0.021414328 1.9551199e-38
0.029586032 -0.12909363 -0.02840798 1.9552979e-38
0.031434152 -0.12909363 -0.02840798 1.5958414e-38
0.033410214 -0.12987436 -0.031386424 1.4760223e-38
0.035532162 -0.13144915 -0.037394214 1.6327186e-38
0.037583902 -0.13250901 -0.041437555 1.687821e-38
0.039744593 -0.13408406 -0.047446419 1.7615062e-38
0.041826237 -0.13513394 -0.051451731 1.7890209e-38
0.044230442 -0.13774733 -0.0614218 1.6506193e-38
0.046293288 -0.13851611 -0.064354703 1.3832509e-38
0.048204433 -0.13851611 -0.064354703 1.0418385e-38
0.050115578 -0.13851611 -0.064354703 1.216542e-38
-0.023405716 -0.11696436 0.024561476 1.2443092e-38
-0.021650471 -0.11696436 0.024561476 1.7789365e-38
-0.019895226 -0.11696436 0.024561476 2.3506583e-38
-0.018139981 -0.11696436 0.024561476 2.3508036e-38
-0.016397823 -0.11775221 0.02157576 2.2859074e-38
-0.01464524 -0.11854477 0.018572282 1.1979638e-38
0.014140964 -0.12409012 -0.0024426468 7.9258884e-39
0.015943557 -0.12409012 -0.0024426468 1.5118591e-38
0.017746147 -0.12409012 -0.0024426468 1.8254687e-38
0.019638907 -0.12486555 -0.005381275 2.3326178e-38
0.021673501 -0.126711 -0.012374926 2.3418032e-38
0.023595933 -0.1275015 -0.015370656 2.1391533e-38
0.025529493 -0.1282966 -0.01838379 1.9918558e-38
0.027474277 -0.12909628 -0.021414328 1.9275338e-38
0.029426079 -0.12987186 -0.024353433 1.9184559e-38
0.031434152 -0.13094176 -0.02840798 1.5959496e-38
0.033282269 -0.13094176 -0.02840798 1.5683258e-38
0.035397477 -0.1325181 -0.034381796 1.6696687e-38
0.037583902 -0.13437997 -0.041437555 1.6510146e-38
0.039744593 -0.13596557 -0.047446419 1.6786017e-38
0.041826237 -0.13702248 -0.051451731 1.6600187e-38
0.044073533 -0.13885282 -0.058388162 1.5308006e-38
0.046136446 -0.13965334 -0.0614218 1.3555919e-38
0.048204433 -0.14042725 -0.064354703 1.1340339e-38
0.050115578 -0.14042725 -0.064354703 1.1981392e-38
-0.025200222 -0.11951269 0.02157576 1.1889915e-38
-0.023405716 -0.11871959 0.024561476 1.2996263e-38
-0.021650471 -0.11871959 0.024561476 1.5300083e-38
-0.019895226 -0.11871959 0.024561476 1.7051448e-38
-0.018139981 -0.11871959 0.024561476 1.6313536e-38
-0.016397823 -0.11951269 0.02157576 1.2994141e-38
-0.01464524 -0.1203105 0.018572282 1.0504507e-38
-0.012879496 -0.1203105 0.018572282 9.3970669e-39
-0.011113749 -0.1203105 0.018572282 9.3948752e-39
-0.0093559017 -0.11951269 0.02157576 9.5792497e-39
-0.0075954227 -0.11951269 0.02157576 9.3026656e-39
0.014140964 -0.12589271 -0.0024426468 8.0177239e-39
0.015943557 -0.12589271 -0.0024426468 1.5487373e-38
0.017746147 -0.12589271 -0.0024426468 1.7424926e-38
0.019638907 -0.1266733 -0.005381275 2.1298233e-38
0.021673501 -0.12853102 -0.012374926 2.129861e-38
0.023595933 -0.12932678 -0.015370656 2.0654687e-38
0.025529493 -0.13012715 -0.01838379 1.9273907e-38
0.027360037 -0.13012715 -0.01838379 1.7155555e-38
0.029426079 -0.13171287 -0.024353433 1.6328293e-38
0.031434152 -0.13278987 -0.02840798 1.3932268e-38
0.033282269 -0.13278987 -0.02840798 1.4393954e-38
0.035397477 -0.13437669 -0.034381796 1.4485428e-38
0.037583902 -0.13625093 -0.041437555 1.3561681e-38
0.039744593 -0.13784705 -0.047446419 1.3559886e-38
0.041626092 -0.13784705 -0.047446419 1.309675e-38
0.044073533 -0.14075352 -0.058388162 1.1804568e-38
0.046136446 -0.14155935 -0.0614218 1.1620165e-38
0.048204433 -0.14233841 -0.064354703 1.1340339e-38
-0.048676424 -0.11297067 0.05262674 2.3509158e-38
-0.046970386 -0.11297067 0.05262674 2.3509165e-38
-0.026960701 -0.12127317 0.02157576 1.189064e-38
-0.025200222 -0.12127317 0.02157576 1.290407e-38
-0.023405716 -0.12047486 0.024561476 1.2350177e-38
-0.021650471 -0.12047486 0.024561476 1.2810438e-38
-0.019895226 -0.12047486 0.024561476 1.4008631e-38
-0.018139981 -0.12047486 0.024561476 1.3546945e-38
-0.016384736 -0.12047486 0.024561476 1.1426094e-38
-0.014637343 -0.12127317 0.02157576 9.4899912e-39
-0.012876862 -0.12127317 0.02157576 9.3045097e-39
-0.011116383 -0.12127317 0.02157576 9.4870681e-39
-0.0093637547 -0.12047486 0.024561476 9.6714439e-39
-0.0076085096 -0.12047486 0.024561476 9.3948584e-39
0.014140964 -0.12769531 -0.0024426468 8.3865037e-39
0.015943557 -0.12769531 -0.0024426468 1.4842003e-38
0.017746147 -0.12769531 -0.0024426468 1.7702229e-38
0.019638907 -0.12848105 -0.005381275 2.0469188e-38
0.021673501 -0.13035102 -0.012374926 2.028589e-38
0.023595933 -0.13115202 -0.015370656 2.0564283e-38
0.025529493 -0.13195769 -0.01838379 1.890692e-38
0.027360037 -0.13195769 -0.01838379 1.6696372e-38
0.029426079 -0.13355388 -0.024353433 1.503899e-38
0.031434152 -0.134638 -0.02840798 1.190576e-38
0.033282269 -0.134638 -0.02840798 1.227525e-38
0.035397477 -0.13623528 -0.034381796 1.2458919e-38
0.037583902 -0.13812189 -0.041437555 1.2364215e-38
0.039744593 -0.13972856 -0.047446419 1.2731202e-38
0.041626092 -0.13972856 -0.047446419 1.1991477e-38
0.044073533 -0.1426542 -0.058388162 1.0515261e-38
0.046136446 -0.14346536 -0.0614218 1.1158821e-38
-0.055233985 -0.11307193 0.05858935 1.889285e-38
-0.053538401 -0.11307193 0.05858935 2.3506248e-38
-0.051965281 -0.11387186 0.055617165 2.3504826e-38
-0.050264485 -0.11387186 0.055617165 2.3508802e-38
-0.048676424 -0.1146767 0.05262674 2.3509168e-38
-0.046970386 -0.1146767 0.05262674 2.2770897e-38
-0.045335006 -0.11523293 0.050560068 2.3509168e-38
-0.043625347 -0.11523293 0.050560068 2.3509168e-38
-0.042005498 -0.11602069 0.047633003 2.295636e-38
-0.040378653 -0.11683889 0.044592988 2.3509527e-38
-0.03865853 -0.11683889 0.044592988 2.3141109e-38
-0.037013739 -0.11763634 0.041629922 2.341805e-38
-0.026916206 -0.1222301 0.024561476 1.2258349e-38
-0.025160961 -0.1222301 0.024561476 1.2257624e-38
-0.023405716 -0.1222301 0.024561476 1.1611893e-38
-0.021650471 -0.1222301 0.024561476 1.1795207e-38
-0.019895226 -0.1222301 0.024561476 1.2532419e-38
-0.018139981 -0.1222301 0.024561476 1.2162925e-38
-0.016384736 -0.1222301 0.024561476 1.0595249e-38
-0.014637343 -0.12303366 0.02157576 9.3970697e-39
-0.012876862 -0.12303366 0.02157576 9.764762e-39
-0.011116383 -0.12303366 0.02157576 1.0040242e-38
-0.0093637547 -0.1222301 0.024561476 1.0500484e-38
-0.0076085096 -0.1222301 0.024561476 1.0132422e-38
0.0068195062 -0.12787388 0.003591489 1.1144441e-38
0.0086115198 -0.12787388 0.003591489 1.0592711e-38
0.010403532 -0.12787388 0.003591489 9.3041356e-39
0.012266749 -0.12868352 0.00058324262 8.7531226e-39
0.014064035 -0.12868352 0.00058324262 8.4786965e-39
0.015943557 -0.1294979 -0.0024426468 1.5026747e-38
0.017746147 -0.1294979 -0.0024426468 1.7149407e-38
0.019638907 -0.13028879 -0.005381275 1.8625628e-38
0.021673501 -0.13217102 -0.012374926 1.8166105e-38
0.023595933 -0.13297729 -0.015370656 2.0011824e-38
0.025529493 -0.13378824 -0.01838379 2.0659712e-38
0.027360037 -0.13378824 -0.01838379 1.8909781e-38
0.029426079 -0.13539489 -0.024353433 1.6883975e-38
0.031434152 -0.13648613 -0.02840798 1.3197932e-38
0.033282269 -0.13648613 -0.02840798 1.1446564e-38
0.035397477 -0.13809387 -0.034381796 1.1906463e-38
0.037583902 -0.13999285 -0.041437555 1.1535168e-38
0.039744593 -0.14161004 -0.047446419 1.1164233e-38
0.041626092 -0.14161004 -0.047446419 9.9635292e-39
0.044073533 -0.14455487 -0.058388162 8.4858753e-39
0.046136446 -0.14537133 -0.0614218 9.0375988e-39
0.048042446 -0.14537133 -0.0614218 1.0971193e-38
0.04994845 -0.14537133 -0.0614218 1.1798094e-38
-0.056929566 -0.11476754 0.05858935 1.5391927e-38
-0.055233985 -0.11476754 0.05858935 2.3505155e-38
-0.053538401 -0.11476754 0.05858935 2.350697e-38
-0.051965281 -0.11557265 0.055617165 2.3509511e-38
-0.050264485 -0.11557265 0.055617165 2.3509527e-38
-0.048676424 -0.11638273 0.05262674 2.3140391e-38
-0.046970386 -0.11638273 0.05262674 2.2956362e-38
-0.045335006 -0.11694257 0.050560068 2.3417333e-38
-0.043625347 -0.11694257 0.050560068 2.3416974e-38
-0.042005498 -0.11773549 0.047633003 2.2863809e-38
-0.040378653 -0.11855899 0.044592988 2.3509527e-38
-0.03865853 -0.11855899 0.044592988 2.3234379e-38
-0.037013739 -0.11936165 0.041629922 2.3142544e-38
-0.03528842 -0.11936165 0.041629922 2.341805e-38
-0.026870504 -0.12315463 0.027628075 1.2533862e-38
-0.025120635 -0.12315463 0.027628075 1.2532775e-38
-0.023370765 -0.12315463 0.027628075 1.2071075e-38
-0.021620896 -0.12315463 0.027628075 1.2254746e-38
-0.019895226 -0.12398534 0.024561476 1.2438781e-38
-0.018139981 -0.12398534 0.024561476 1.1701222e-38
-0.016397823 -0.12479414 0.02157576 1.0317933e-38
-0.014637343 -0.12479414 0.02157576 9.6722104e-39
-0.012876862 -0.12479414 0.02157576 1.0040982e-38
-0.011116383 -0.12479414 0.02157576 1.0132076e-38
-0.0093637547 -0.12398534 0.024561476 1.0500127e-38
-0.0076085096 -0.12398534 0.024561476 1.0224619e-38
0.0068195062 -0.1296659 0.003591489 1.0499428e-38
0.0085512185 -0.12885578 0.0065820925 9.8555003e-39
0.010337987 -0.12885578 0.0065820925 8.7509562e-39
0.012266749 -0.13048081 0.00058324262 8.3846946e-39
0.014064035 -0.13048081 0.00058324262 8.2024641e-39
0.015943557 -0.13130049 -0.0024426468 1.4566121e-38
0.017746147 -0.13130049 -0.0024426468 1.7979518e-38
0.019638907 -0.13209651 -0.005381275 1.8994762e-38
0.021545954 -0.13292582 -0.0084426887 1.8443043e-38
0.023595933 -0.13480256 -0.015370656 2.056535e-38
0.025421191 -0.13480256 -0.015370656 2.1305433e-38
0.027360037 -0.13561879 -0.01838379 1.7804507e-38
0.029426079 -0.13723589 -0.024353433 1.5317724e-38
0.031434152 -0.13833423 -0.02840798 1.2276689e-38
0.033282269 -0.13833423 -0.02840798 1.1354366e-38
0.035397477 -0.13995247 -0.034381796 1.2552188e-38
0.037583902 -0.14186381 -0.041437555 1.1903951e-38
0.039744593 -0.14349155 -0.047446419 1.0148999e-38
0.041826237 -0.14457656 -0.051451731 8.9475822e-39
0.043869663 -0.14538784 -0.054446626 8.4847991e-39
0.045974217 -0.14645557 -0.058388162 1.0142151e-38
0.047874901 -0.14645557 -0.058388162 1.3459759e-38
-0.058625147 -0.11646311 0.05858935 1.8897171e-38
-0.056929566 -0.11646311 0.05858935 2.3508753e-38
-0.055233985 -0.11646311 0.05858935 2.3509844e-38
-0.053538401 -0.11646311 0.05858935 2.3508774e-38
-0.051965281 -0.11727346 0.055617165 2.3417673e-38
-0.050264485 -0.11727346 0.055617165 2.332621e-38
-0.048676424 -0.11808877 0.05262674 2.2865602e-38
-0.047044668 -0.11865224 0.050560068 2.323402e-38
-0.045335006 -0.11865224 0.050560068 2.3417333e-38
-0.043625347 -0.11865224 0.050560068 2.3232585e-38
-0.041915685 -0.11865224 0.050560068 2.3323345e-38
-0.040290706 -0.11945029 0.047633003 2.3509168e-38
-0.03857591 -0.11945029 0.047633003 2.3234379e-38
-0.036938407 -0.12027912 0.044592988 2.3142544e-38
-0.035218284 -0.12027912 0.044592988 2.2958154e-38
-0.033498161 -0.12027912 0.044592988 2.2956345e-38
-0.026870504 -0.1249045 0.027628075 1.1979972e-38
-0.025120635 -0.1249045 0.027628075 1.2624254e-38
-0.023370765 -0.1249045 0.027628075 1.2807564e-38
-0.021620896 -0.1249045 0.027628075 1.326746e-38
-0.019895226 -0.12574057 0.024561476 1.326746e-38
-0.018139981 -0.12574057 0.024561476 1.2161118e-38
-0.016397823 -0.12655462 0.02157576 1.0685632e-38
-0.014637343 -0.12655462 0.02157576 9.7636774e-39
-0.012876862 -0.12655462 0.02157576 9.8551457e-39
-0.011116383 -0.12655462 0.02157576 1.0130997e-38
-0.0093559017 -0.12655462 0.02157576 1.0223543e-38
-0.0075954227 -0.12655462 0.02157576 1.0131347e-38
-0.0058349427 -0.12655462 0.02157576 9.7636437e-39
-0.0040744627 -0.12655462 0.02157576 9.5796126e-39
-0.0023139827 -0.12655462 0.02157576 9.9483951e-39
-0.0005192738 -0.1273735 0.018572282 1.0868556e-38
0.0068195062 -0.13145791 0.003591489 1.0037728e-38
0.0085512185 -0.13064255 0.0065820925 9.4867149e-39
0.010337987 -0.13064255 0.0065820925 8.7505918e-39
0.012195543 -0.13145791 0.003591489 8.2928521e-39
0.014064035 -0.1322781 0.00058324262 8.2017383e-39
0.015943557 -0.13310309 -0.0024426468 1.4196972e-38
0.017746147 -0.13310309 -0.0024426468 1.8440129e-38
0.019638907 -0.13390426 -0.005381275 2.074611e-38
0.021545954 -0.13473894 -0.0084426887 2.1208544e-38
0.023595933 -0.13662781 -0.015370656 2.1579133e-38
0.025421191 -0.13662781 -0.015370656 1.9829577e-38
0.027360037 -0.13744931 -0.01838379 1.3286197e-38
0.029426079 -0.1390769 -0.024353433 1.1168195e-38
0.031267088 -0.1390769 -0.024353433 9.8792397e-39
0.033282269 -0.14018236 -0.02840798 1.0339493e-38
0.035397477 -0.14181106 -0.034381796 1.1812826e-38
0.037583902 -0.14373477 -0.041437555 1.0519577e-38
0.039744593 -0.14537306 -0.047446419 7.0129131e-39
0.041626092 -0.14537306 -0.047446419 6.9174818e-39
0.043869663 -0.1472816 -0.054446626 9.2194901e-39
0.045974217 -0.14835624 -0.058388162 1.1614767e-38
0.047874901 -0.14835624 -0.058388162 1.4933098e-38
-0.062170044 -0.11897425 0.055617165 7.5582144e-39
-0.060320735 -0.11815868 0.05858935 1.9727673e-38
-0.058625147 -0.11815868 0.05858935 2.3046713e-38
-0.056929566 -0.11815868 0.05858935 2.3509851e-38
-0.055366874 -0.11897425 0.055617165 2.2680091e-38
-0.053666074 -0.11897425 0.055617165 2.3509859e-38
-0.052088495 -0.1197948 0.05262674 2.323436e-38
-0.050382458 -0.1197948 0.05262674 2.2958857e-38
-0.048676424 -0.1197948 0.05262674 2.2867029e-38
-0.047044668 -0.12036191 0.050560068 2.2866671e-38
-0.045335006 -0.12036191 0.050560068 2.341805e-38
-0.043625347 -0.12036191 0.050560068 2.3509527e-38
-0.041915685 -0.12036191 0.050560068 2.3507374e-38
-0.040290706 -0.12116508 0.047633003 2.341518e-38
-0.03857591 -0.12116508 0.047633003 2.3049991e-38
-0.036938407 -0.12199925 0.044592988 2.3142544e-38
-0.035218284 -0.12199925 0.044592988 2.341805e-38
-0.033498161 -0.12199925 0.044592988 2.2956345e-38
-0.031778038 -0.12199925 0.044592988 2.3509869e-38
-0.030057915 -0.12199925 0.044592988 1.5392681e-38
-0.02862037 -0.12665437 0.027628075 1.0873642e-38
-0.026870504 -0.12665437 0.027628075 1.1056224e-38
-0.025120635 -0.12665437 0.027628075 1.1516113e-38
-0.023405716 -0.12749584 0.024561476 1.2068923e-38
-0.021650471 -0.12749584 0.024561476 1.2804687e-38
-0.019895226 -0.12749584 0.024561476 1.2712847e-38
-0.018158302 -0.12831511 0.02157576 1.1883087e-38
-0.016397823 -0.12831511 0.02157576 1.0684543e-38
-0.014637343 -0.12831511 0.02157576 1.0038818e-38
-0.012876862 -0.12831511 0.02157576 9.8547814e-39
-0.011116383 -0.12831511 0.02157576 1.0775647e-38
-0.0093559017 -0.12831511 0.02157576 1.0407578e-38
-0.0076085096 -0.12749584 0.024561476 1.0223187e-38
-0.0058532646 -0.12749584 0.024561476 1.0224266e-38
-0.0040744627 -0.12831511 0.02157576 1.0409376e-38
-0.0023139827 -0.12831511 0.02157576 1.0501572e-38
-0.0005535027 -0.12831511 0.02157576 1.0684521e-38
0.0012464728 -0.12913923 0.018572282 1.0591969e-38
0.0049776817 -0.13242932 0.0065820925 1.0130275e-38
0.0067644501 -0.13242932 0.0065820925 1.0130278e-38
0.0085512185 -0.13242932 0.0065820925 9.8558506e-39
0.010403532 -0.13324992 0.003591489 9.2119231e-39
0.012195543 -0.13324992 0.003591489 8.9382173e-39
0.014064035 -0.13407536 0.00058324262 8.4786797e-39
0.015943557 -0.13490568 -0.0024426468 1.4105131e-38
0.017746147 -0.13490568 -0.0024426468 1.7793317e-38
0.019638907 -0.13571201 -0.005381275 2.185137e-38
0.021545954 -0.13655205 -0.0084426887 2.3326164e-38
0.02349351 -0.13763104 -0.012374926 2.1946831e-38
0.025421191 -0.13845308 -0.015370656 1.8446277e-38
0.027360037 -0.13927986 -0.01838379 1.042777e-38
0.029426079 -0.14091791 -0.024353433 9.3239191e-39
0.031267088 -0.14091791 -0.024353433 9.7852462e-39
0.033282269 -0.14203046 -0.02840798 1.1536239e-38
0.035397477 -0.14366965 -0.034381796 1.1350412e-38
0.037583902 -0.14560573 -0.041437555 9.5029139e-39
0.039744593 -0.14725454 -0.047446419 6.1806385e-39
0.041626092 -0.14725454 -0.047446419 8.4815762e-39
0.043869663 -0.14917539 -0.054446626 1.3365065e-38
-0.062170044 -0.12067504 0.055617165 1.041665e-38
-0.060469255 -0.12067504 0.055617165 2.350987e-38
-0.058768451 -0.12067504 0.055617165 2.3416953e-38
-0.057067662 -0.12067504 0.055617165 2.3509869e-38
-0.055366874 -0.12067504 0.055617165 2.3418031e-38
-0.053794533 -0.12150083 0.05262674 2.0839424e-38
-0.052088495 -0.12150083 0.05262674 1.9919261e-38
-0.050382458 -0.12150083 0.05262674 2.1302912e-38
-0.048676424 -0.12150083 0.05262674 2.2591501e-38
-0.046970386 -0.12150083 0.05262674 2.2958847e-38
-0.045264348 -0.12150083 0.05262674 2.3418033e-38
-0.043625347 -0.12207155 0.050560068 2.3509876e-38
-0.041915685 -0.12207155 0.050560068 2.3508804e-38
-0.040290706 -0.12287988 0.047633003 2.3507732e-38
-0.03857591 -0.12287988 0.047633003 2.341805e-38
-0.036938407 -0.12371938 0.044592988 2.3142544e-38
-0.035218284 -0.12371938 0.044592988 2.341805e-38
-0.033498161 -0.12371938 0.044592988 2.3509521e-38
-0.031778038 -0.12371938 0.044592988 2.3509153e-38
-0.030112464 -0.12453763 0.041629922 1.6037334e-38
-0.028387144 -0.12453763 0.041629922 1.0688177e-38
-0.026661828 -0.12453763 0.041629922 1.0594171e-38
-0.025160961 -0.12925108 0.024561476 1.02243e-38
-0.023405716 -0.12925108 0.024561476 1.1052976e-38
-0.021650471 -0.12925108 0.024561476 1.1513228e-38
-0.019895226 -0.12925108 0.024561476 1.1420668e-38
-0.018158302 -0.13007559 0.02157576 1.1144081e-38
-0.016397823 -0.13007559 0.02157576 1.0959687e-38
-0.014637343 -0.13007559 0.02157576 1.1051883e-38
-0.012876862 -0.13007559 0.02157576 1.1144075e-38
-0.011119 -0.12925108 0.024561476 1.1052234e-38
-0.0093637547 -0.12925108 0.024561476 1.0499777e-38
-0.0076085096 -0.12925108 0.024561476 1.022319e-38
-0.0058532646 -0.12925108 0.024561476 1.0408657e-38
-0.0040744627 -0.13007559 0.02157576 1.0778159e-38
-0.0023139827 -0.13007559 0.02157576 1.0685963e-38
-0.0005535027 -0.13007559 0.02157576 1.0592325e-38
0.0012464728 -0.13090499 0.018572282 1.0315739e-38
0.0030557439 -0.1317115 0.015651774 1.0129912e-38
0.0048772329 -0.13255073 0.012612652 1.0037717e-38
0.0067097163 -0.13339506 0.0095551722 1.0130275e-38
0.0085512185 -0.13421609 0.0065820925 9.9476847e-39
0.010337987 -0.13421609 0.0065820925 9.3966689e-39
0.012195543 -0.13504194 0.003591489 9.030766e-39
0.014064035 -0.13587265 0.00058324262 8.3864784e-39
0.015861321 -0.13587265 0.00058324262 1.401221e-38
0.017746147 -0.13670824 -0.0024426468 1.7792951e-38
0.019638907 -0.13751976 -0.005381275 2.2771882e-38
0.021446649 -0.13751976 -0.005381275 2.3509834e-38
0.02349351 -0.13945107 -0.012374926 2.130002e-38
0.025421191 -0.14027832 -0.015370656 1.8444836e-38
0.027360037 -0.14111041 -0.01838379 1.0979501e-38
0.029426079 -0.14275892 -0.024353433 1.0520664e-38
0.031267088 -0.14275892 -0.024353433 1.098235e-38
0.033282269 -0.14387859 -0.02840798 9.967478e-39
0.035532162 -0.14636014 -0.037394214 7.3845626e-39
0.037583902 -0.14747669 -0.041437555 5.9976863e-39
0.039596591 -0.14828841 -0.044376899 4.8873885e-39
0.041626092 -0.14913605 -0.047446419 9.2166315e-39
-0.062170044 -0.12237583 0.055617165 1.1892149e-38
-0.060469255 -0.12237583 0.055617165 2.3231857e-38
-0.058768451 -0.12237583 0.055617165 2.3509168e-38
-0.057067662 -0.12237583 0.055617165 2.3326213e-38
-0.055366874 -0.12237583 0.055617165 2.249932e-38
-0.053794533 -0.1232069 0.05262674 1.650839e-38
-0.052088495 -0.1232069 0.05262674 1.4943565e-38
-0.050382458 -0.1232069 0.05262674 1.7248804e-38
-0.048676424 -0.1232069 0.05262674 2.0383091e-38
-0.046970386 -0.1232069 0.05262674 2.2224131e-38
-0.045264348 -0.1232069 0.05262674 2.2866272e-38
-0.043558311 -0.1232069 0.05262674 2.3509499e-38
-0.041915685 -0.12378122 0.050560068 2.3508797e-38
-0.040290706 -0.12459467 0.047633003 2.3508807e-38
-0.03857591 -0.12459467 0.047633003 2.341805e-38
-0.036938407 -0.12543948 0.044592988 2.2958514e-38
-0.035218284 -0.12543948 0.044592988 2.341805e-38
-0.033498161 -0.12543948 0.044592988 2.3509521e-38
-0.031778038 -0.12543948 0.044592988 2.3414436e-38
-0.030057915 -0.12543948 0.044592988 1.7328074e-38
-0.028387144 -0.12626295 0.041629922 1.1609057e-38
-0.026661828 -0.12626295 0.041629922 1.0224314e-38
-0.025160961 -0.13100632 0.024561476 1.0407615e-38
-0.023405716 -0.13100632 0.024561476 1.1051897e-38
-0.021650471 -0.13100632 0.024561476 1.1328118e-38
-0.019918781 -0.13183604 0.02157576 1.1051167e-38
-0.018158302 -0.13183604 0.02157576 1.105152e-38
-0.016397823 -0.13183604 0.02157576 1.1420299e-38
-0.014637343 -0.13183604 0.02157576 1.1789082e-38
-0.012876862 -0.13183604 0.02157576 1.1697604e-38
-0.011119 -0.13100632 0.024561476 1.1236626e-38
-0.0093637547 -0.13100632 0.024561476 1.0591975e-38
-0.0076085096 -0.13100632 0.024561476 1.0315388e-38
-0.0058532646 -0.13100632 0.024561476 1.040866e-38
-0.0040744627 -0.13183604 0.02157576 1.0501575e-38
-0.0023139827 -0.13183604 0.02157576 1.031718e-38
-0.0005535027 -0.13183604 0.02157576 1.0407934e-38
0.0012464728 -0.13267075 0.018572282 1.050013e-38
0.0030122185 -0.13267075 0.018572282 1.0222105e-38
0.0048772329 -0.13432692 0.012612652 1.0222108e-38
0.0067097163 -0.13517661 0.0095551722 1.0130631e-38
0.0085512185 -0.13600285 0.0065820925 9.7632906e-39
0.010337987 -0.13600285 0.0065820925 9.2122748e-39
0.012195543 -0.13683395 0.003591489 8.9389277e-39
0.013987555 -0.13683395 0.003591489 8.2024417e-39
0.015861321 -0.13766994 0.00058324262 1.3643423e-38
0.017746147 -0.13851084 -0.0024426468 1.8252844e-38
0.019638907 -0.13932751 -0.005381275 2.3415811e-38
0.021446649 -0.13932751 -0.005381275 2.3509825e-38
0.023359064 -0.14017828 -0.0084426887 1.9085884e-38
0.025421191 -0.1421036 -0.015370656 1.7060463e-38
0.027360037 -0.14294095 -0.01838379 1.0793312e-38
0.029310133 -0.14378314 -0.021414328 1.0795815e-38
0.03114599 -0.14378314 -0.021414328 1.0611773e-38
0.033282269 -0.1457267 -0.02840798 9.2284752e-39
0.035532162 -0.14822401 -0.037394214 5.1693536e-39
0.037583902 -0.14934768 -0.041437555 5.6267486e-39
-0.062170044 -0.12407662 0.055617165 1.4472908e-38
-0.060469255 -0.12407662 0.055617165 2.3509167e-38
-0.05891265 -0.12491293 0.05262674 2.3509527e-38
-0.057206608 -0.12491293 0.05262674 1.7610079e-38
-0.055500567 -0.12491293 0.05262674 1.7428912e-38
-0.053794533 -0.12491293 0.05262674 1.6785326e-38
-0.052088495 -0.12491293 0.05262674 1.5865517e-38
-0.050382458 -0.12491293 0.05262674 1.5774029e-38
-0.048676424 -0.12491293 0.05262674 1.7340986e-38
-0.046970386 -0.12491293 0.05262674 1.9828107e-38
-0.045264348 -0.12491293 0.05262674 2.1761347e-38
-0.043558311 -0.12491293 0.05262674 2.3509482e-38
-0.041915685 -0.12549089 0.050560068 2.3509504e-38
-0.040290706 -0.12630944 0.047633003 2.3508437e-38
-0.03857591 -0.12630944 0.047633003 2.3141466e-38
-0.036938407 -0.12715961 0.044592988 2.3142544e-38
-0.035218284 -0.12715961 0.044592988 2.341805e-38
-0.033498161 -0.12715961 0.044592988 2.3509879e-38
-0.031778038 -0.12715961 0.044592988 2.3508072e-38
-0.030057915 -0.12715961 0.044592988 2.037053e-38
-0.028387144 -0.12798826 0.041629922 1.3545521e-38
-0.026706256 -0.12882192 0.038648915 9.4878234e-39
-0.025042001 -0.13023172 0.033607733 1.0776753e-38
-0.023405716 -0.13276155 0.024561476 1.1512872e-38
-0.021650471 -0.13276155 0.024561476 1.1697255e-38
-0.019895226 -0.13276155 0.024561476 1.1420302e-38
-0.018139981 -0.13276155 0.024561476 1.1235908e-38
-0.016384736 -0.13276155 0.024561476 1.1604689e-38
-0.014637343 -0.13359652 0.02157576 1.1604689e-38
-0.012876862 -0.13359652 0.02157576 1.114443e-38
-0.011119 -0.13276155 0.024561476 1.1513213e-38
-0.0093637547 -0.13276155 0.024561476 1.0960755e-38
-0.0076085096 -0.13276155 0.024561476 1.0593051e-38
-0.0058532646 -0.13276155 0.024561476 1.059377e-38
-0.0040744627 -0.13359652 0.02157576 1.0409023e-38
-0.0023139827 -0.13359652 0.02157576 1.0224632e-38
-0.0005535027 -0.13359652 0.02157576 1.0500858e-38
0.0012464728 -0.13443647 0.018572282 1.1145146e-38
