# .PCD v0.7 - Point Cloud Data file format
VERSION 0.7
FIELDS x y z rgb
SIZE 4 4 4 4
TYPE F F F F
COUNT 1 1 1 1
WIDTH 927
HEIGHT 1
VIEWPOINT 0 0 0 1 0 0 0
POINTS 927
DATA ascii
0.026869446 -0.096332356 -0.015958183 1.5213648e-38
0.028666731 -0.096332356 -0.015958183 1.4385328e-38
-0.047401283 -0.10266902 -0.034925215 2.3418047e-38
-0.045570742 -0.10266902 -0.034925215 2.3141816e-38
-0.043740198 -0.10266902 -0.034925215 2.3325492e-38
-0.041909654 -0.10266902 -0.034925215 2.3509883e-38
-0.040007792 -0.10194789 -0.031912081 2.3509883e-38
-0.038182531 -0.10194789 -0.031912081 2.3509883e-38
-0.036357272 -0.10194789 -0.031912081 2.3509886e-38
-0.034532014 -0.10194789 -0.031912081 2.341769e-38
-0.032656856 -0.10123092 -0.028916351 2.341769e-38
-0.03083685 -0.10123092 -0.028916351 2.341769e-38
-0.028965134 -0.10028981 -0.024984114 2.3509886e-38
-0.02715202 -0.10028981 -0.024984114 2.3509886e-38
-0.025338911 -0.10028981 -0.024984114 2.3509883e-38
-0.023501642 -0.099557132 -0.0219227 2.350988e-38
-0.021693898 -0.099557132 -0.0219227 2.350988e-38
-0.019873273 -0.098853827 -0.018984072 2.3509879e-38
-0.018070681 -0.098853827 -0.018984072 2.3509879e-38
-0.016268089 -0.098853827 -0.018984072 2.3509879e-38
-0.01446292 -0.099557132 -0.0219227 2.3509883e-38
-0.012662904 -0.098853827 -0.018984072 2.3509527e-38
-0.010860313 -0.098853827 -0.018984072 2.3509527e-38
-0.0090762889 -0.098129645 -0.015958183 2.3509168e-38
-0.0072790021 -0.098129645 -0.015958183 2.3509168e-38
-0.0055395644 -0.096693933 -0.0099593326 2.3509168e-38
-0.0038215239 -0.095250636 -0.0039287731 2.3509527e-38
-0.0020453287 -0.095250636 -0.0039287731 2.3509524e-38
-0.00031442661 -0.094523281 -0.00088965148 2.3509879e-38
0.0014564395 -0.094523281 -0.00088965148 2.3509153e-38
0.0032832567 -0.095250636 -0.0039287731 2.3324756e-38
0.0050594527 -0.095250636 -0.0039287731 2.3140715e-38
0.0068356469 -0.095250636 -0.0039287731 2.2956678e-38
0.008611843 -0.095250636 -0.0039287731 2.3048868e-38
0.010388037 -0.095250636 -0.0039287731 2.3233614e-38
0.01208164 -0.094523281 -0.00088965148 2.314214e-38
0.013852507 -0.094523281 -0.00088965148 2.3418023e-38
0.015716624 -0.095250636 -0.0039287731 2.2128359e-38
0.01749282 -0.095250636 -0.0039287731 2.3417997e-38
0.019373547 -0.095982388 -0.006986253 2.3509821e-38
0.021155104 -0.095982388 -0.006986253 2.3232848e-38
0.022936661 -0.095982388 -0.006986253 2.2311244e-38
0.024953485 -0.09740968 -0.012949936 1.6872065e-38
0.026745494 -0.09740968 -0.012949936 1.5857927e-38
-0.07004033 -0.10763429 -0.047927849 1.2623513e-38
-0.068186983 -0.10763429 -0.047927849 1.4006113e-38
-0.066478074 -0.1083564 -0.050923221 1.4651153e-38
-0.052892908 -0.10449956 -0.034925215 2.3508809e-38
-0.051062368 -0.10449956 -0.034925215 2.3508451e-38
-0.049231824 -0.10449956 -0.034925215 2.3507374e-38
-0.047308829 -0.10377313 -0.031912081 2.3509165e-38
-0.045483571 -0.10377313 -0.031912081 2.3509879e-38
-0.043658312 -0.10377313 -0.031912081 2.3509527e-38
-0.041833054 -0.10377313 -0.031912081 2.3509886e-38
-0.039936882 -0.10305093 -0.028916351 2.3509886e-38
-0.038116876 -0.10305093 -0.028916351 2.3509886e-38
-0.036296871 -0.10305093 -0.028916351 2.3417691e-38
-0.034476865 -0.10305093 -0.028916351 2.3509886e-38
-0.032591358 -0.10210292 -0.024984114 2.3509886e-38
-0.030732621 -0.10136487 -0.0219227 2.3509886e-38
-0.028924879 -0.10136487 -0.0219227 2.3417691e-38
-0.027117133 -0.10136487 -0.0219227 2.3417691e-38
-0.025281049 -0.10065642 -0.018984072 2.341769e-38
-0.023478458 -0.10065642 -0.018984072 2.3509883e-38
-0.021675866 -0.10065642 -0.018984072 2.3509883e-38
-0.019873273 -0.10065642 -0.018984072 2.3418043e-38
-0.018062722 -0.099926919 -0.015958183 2.3418043e-38
-0.016265437 -0.099926919 -0.015958183 2.3418043e-38
-0.014465496 -0.10065642 -0.018984072 2.3509527e-38
-0.012670863 -0.099926919 -0.015958183 2.3509168e-38
-0.010873575 -0.099926919 -0.015958183 2.3509168e-38
-0.0091131022 -0.098480701 -0.0099593326 2.3509168e-38
-0.0073263329 -0.098480701 -0.0099593326 2.3509168e-38
-0.0055682352 -0.097763941 -0.006986253 2.3509527e-38
-0.0038215239 -0.09702684 -0.0039287731 2.3509527e-38
-0.0020453287 -0.09702684 -0.0039287731 2.3509521e-38
-0.00031442661 -0.09629415 -0.00088965148 2.3509879e-38
0.0014564395 -0.09629415 -0.00088965148 2.3509869e-38
0.0032273065 -0.09629415 -0.00088965148 2.35095e-38
0.0049981736 -0.09629415 -0.00088965148 2.3325461e-38
0.0067690406 -0.09629415 -0.00088965148 2.3233259e-38
0.0085399058 -0.09629415 -0.00088965148 2.332581e-38
0.010310773 -0.09629415 -0.00088965148 2.3326163e-38
0.012002271 -0.09559007 0.0020308569 2.3234329e-38
0.013768015 -0.09559007 0.0020308569 2.3326173e-38
0.015716624 -0.09702684 -0.0039287731 2.3509838e-38
0.01749282 -0.09702684 -0.0039287731 2.1297118e-38
0.019269012 -0.09702684 -0.0039287731 1.3736698e-38
0.021155104 -0.097763941 -0.006986253 1.3090591e-38
0.022936661 -0.097763941 -0.006986253 1.2905118e-38
0.024953485 -0.099201679 -0.012949936 1.3274991e-38
0.026745494 -0.099201679 -0.012949936 2.2679686e-38
-0.069886267 -0.10876434 -0.044949405 1.4282683e-38
-0.068038151 -0.10876434 -0.044949405 1.3544777e-38
-0.066333652 -0.10948761 -0.047927849 1.4005779e-38
-0.056553993 -0.10633011 -0.034925215 1.7698999e-38
-0.054609865 -0.10559841 -0.031912081 2.2585019e-38
-0.052784607 -0.10559841 -0.031912081 2.3508793e-38
-0.050959349 -0.10559841 -0.031912081 2.3508092e-38
-0.049036916 -0.10487093 -0.028916351 2.3506657e-38
-0.047216911 -0.10487093 -0.028916351 2.3508451e-38
-0.045396905 -0.10487093 -0.028916351 2.3509163e-38
-0.043576896 -0.10487093 -0.028916351 2.3509527e-38
-0.041756891 -0.10487093 -0.028916351 2.3325138e-38
-0.039936882 -0.10487093 -0.028916351 2.3048554e-38
-0.038116876 -0.10487093 -0.028916351 2.2956359e-38
-0.036296871 -0.10487093 -0.028916351 2.314075e-38
-0.034404472 -0.10391603 -0.024984114 2.3325138e-38
-0.032540366 -0.10317262 -0.0219227 2.3417333e-38
-0.030688826 -0.10245901 -0.018984072 2.3509527e-38
-0.028886233 -0.10245901 -0.018984072 2.3417333e-38
-0.027083643 -0.10245901 -0.018984072 2.3509527e-38
-0.025281049 -0.10245901 -0.018984072 2.3509527e-38
-0.023454584 -0.10172421 -0.015958183 2.3509527e-38
-0.021657296 -0.10172421 -0.015958183 2.3509527e-38
-0.019860011 -0.10172421 -0.015958183 2.3509886e-38
-0.018062722 -0.10172421 -0.015958183 2.3509886e-38
-0.016265437 -0.10172421 -0.015958183 2.3509886e-38
-0.014468148 -0.10172421 -0.015958183 2.3509527e-38
-0.012670863 -0.10172421 -0.015958183 2.3509527e-38
-0.010886762 -0.10099369 -0.012949936 2.3509527e-38
-0.0091131022 -0.10026747 -0.0099593326 2.3509527e-38
-0.007349791 -0.099545494 -0.006986253 2.3509527e-38
-0.0055682352 -0.099545494 -0.006986253 2.3509527e-38
-0.0038215239 -0.098803028 -0.0039287731 2.3509527e-38
-0.0020852936 -0.098065019 -0.00088965148 2.350988e-38
-0.00031442661 -0.098065019 -0.00088965148 2.3509876e-38
0.0014564395 -0.098065019 -0.00088965148 2.350987e-38
0.0031735394 -0.097355813 0.0020308569 2.3509863e-38
0.004939286 -0.097355813 0.0020308569 2.3509855e-38
0.0067050327 -0.097355813 0.0020308569 2.3418012e-38
0.0084707774 -0.097355813 0.0020308569 2.3326168e-38
0.010310773 -0.098065019 -0.00088965148 2.3326166e-38
0.012002271 -0.097355813 0.0020308569 2.3326159e-38
0.013768015 -0.097355813 0.0020308569 2.3509821e-38
0.015623372 -0.098065019 -0.00088965148 2.1207069e-38
0.01749282 -0.098803028 -0.0039287731 1.8162801e-38
0.019269012 -0.098803028 -0.0039287731 1.0324368e-38
-0.069886267 -0.11061247 -0.044949405 1.5849646e-38
-0.068038151 -0.11061247 -0.044949405 1.6495745e-38
-0.066333652 -0.11134095 -0.047927849 1.6127334e-38
-0.058509406 -0.10890187 -0.037955754 7.5578332e-39
-0.056553993 -0.10816063 -0.034925215 1.6593724e-38
-0.054609865 -0.10742365 -0.031912081 2.2218359e-38
-0.052784607 -0.10742365 -0.031912081 2.350983e-38
-0.050959349 -0.10742365 -0.031912081 2.3509863e-38
-0.049036916 -0.10669093 -0.028916351 2.3509157e-38
-0.047216911 -0.10669093 -0.028916351 2.3509869e-38
-0.045396905 -0.10669093 -0.028916351 2.350987e-38
-0.043576896 -0.10669093 -0.028916351 2.350988e-38
-0.041756891 -0.10669093 -0.028916351 2.3509886e-38
-0.039843809 -0.10572915 -0.024984114 2.3509886e-38
-0.038030695 -0.10572915 -0.024984114 2.3509886e-38
-0.036217581 -0.10572915 -0.024984114 2.3509886e-38
-0.034348112 -0.10498036 -0.0219227 2.3509886e-38
-0.032491419 -0.10426159 -0.018984072 2.3509527e-38
-0.030688826 -0.10426159 -0.018984072 2.3417333e-38
-0.028886233 -0.10426159 -0.018984072 2.3509527e-38
-0.027049158 -0.10352151 -0.015958183 2.3509527e-38
-0.025251869 -0.10352151 -0.015958183 2.3509527e-38
-0.023454584 -0.10352151 -0.015958183 2.3509527e-38
-0.021657296 -0.10352151 -0.015958183 2.3509527e-38
-0.019846823 -0.10278571 -0.012949936 2.3509527e-38
-0.018054811 -0.10278571 -0.012949936 2.3509527e-38
-0.0162628 -0.10278571 -0.012949936 2.3509886e-38
-0.014470786 -0.10278571 -0.012949936 2.3509527e-38
-0.012678774 -0.10278571 -0.012949936 2.3509883e-38
-0.010912903 -0.10132705 -0.006986253 2.3509527e-38
-0.0091313468 -0.10132705 -0.006986253 2.3509527e-38
-0.007349791 -0.10132705 -0.006986253 2.3509527e-38
-0.005597719 -0.10057923 -0.0039287731 2.3509527e-38
-0.0038561597 -0.099835888 -0.00088965148 2.3509167e-38
-0.0020852936 -0.099835888 -0.00088965148 2.3509523e-38
-0.00035795197 -0.099121556 0.0020308569 2.3509879e-38
0.0014077947 -0.099121556 0.0020308569 2.3509873e-38
0.0031735394 -0.099121556 0.0020308569 2.3509866e-38
0.004939286 -0.099121556 0.0020308569 2.350986e-38
0.0066392049 -0.098386943 0.005034335 2.3509856e-38
0.0083996858 -0.098386943 0.005034335 2.3509849e-38
0.010236524 -0.099121556 0.0020308569 2.3418008e-38
0.012002271 -0.099121556 0.0020308569 2.3326159e-38
0.013768015 -0.099121556 0.0020308569 2.2223016e-38
0.015533762 -0.099121556 0.0020308569 1.1803814e-38
0.017394241 -0.099835888 -0.00088965148 1.1432512e-38
-0.071734384 -0.11246057 -0.044949405 1.4466337e-38
-0.069676563 -0.11146177 -0.040894859 1.4651451e-38
-0.067835554 -0.11146177 -0.040894859 1.6311691e-38
-0.066333652 -0.1131943 -0.047927849 1.5115303e-38
-0.064619482 -0.11393218 -0.050923221 1.0691361e-38
-0.06276089 -0.11393218 -0.050923221 9.1247708e-39
-0.060902301 -0.11393218 -0.050923221 8.3882987e-39
-0.058509406 -0.11073773 -0.037955754 8.1120888e-39
-0.056673549 -0.11073773 -0.037955754 1.6872452e-38
-0.054723453 -0.10999118 -0.034925215 2.1485414e-38
-0.052892908 -0.10999118 -0.034925215 2.2499566e-38
-0.050959349 -0.10924892 -0.031912081 2.3509814e-38
-0.049036916 -0.10851096 -0.028916351 2.3509831e-38
-0.047216911 -0.10851096 -0.028916351 2.3509834e-38
-0.045283142 -0.10754226 -0.024984114 2.3509844e-38
-0.043470033 -0.10754226 -0.024984114 2.3509863e-38
-0.041656923 -0.10754226 -0.024984114 2.3509873e-38
-0.039843809 -0.10754226 -0.024984114 2.3509873e-38
-0.038030695 -0.10754226 -0.024984114 2.3509876e-38
-0.036155853 -0.10678811 -0.0219227 2.3509876e-38
-0.034348112 -0.10678811 -0.0219227 2.3509876e-38
-0.032491419 -0.10606419 -0.018984072 2.3509879e-38
-0.030688826 -0.10606419 -0.018984072 2.3325846e-38
-0.028846443 -0.1053188 -0.015958183 2.350988e-38
-0.027049158 -0.1053188 -0.015958183 2.350988e-38
-0.025251869 -0.1053188 -0.015958183 2.3325492e-38
-0.023430847 -0.10457774 -0.012949936 2.3233299e-38
-0.021638837 -0.10457774 -0.012949936 2.3233299e-38
-0.019833714 -0.10384102 -0.0099593326 2.341769e-38
-0.018046945 -0.10384102 -0.0099593326 2.3509886e-38
-0.016260177 -0.10384102 -0.0099593326 2.3509886e-38
-0.014476014 -0.1031086 -0.006986253 2.350988e-38
-0.012694459 -0.1031086 -0.006986253 2.3509879e-38
-0.010926304 -0.10235542 -0.0039287731 2.350988e-38
-0.0091501102 -0.10235542 -0.0039287731 2.350988e-38
-0.0073739141 -0.10235542 -0.0039287731 2.3509883e-38
-0.0056270268 -0.10160676 -0.00088965148 2.341769e-38
-0.0038561597 -0.10160676 -0.00088965148 2.341769e-38
-0.0021236977 -0.1008873 0.0020308569 2.341769e-38
-0.00035795197 -0.1008873 0.0020308569 2.3417687e-38
0.0014077947 -0.1008873 0.0020308569 2.3418043e-38
0.0031182468 -0.10014741 0.005034335 2.3509876e-38
0.0048787259 -0.10014741 0.005034335 2.350987e-38
0.0066392049 -0.10014741 0.005034335 2.3509866e-38
0.0083996858 -0.10014741 0.005034335 2.3418026e-38
0.010160165 -0.10014741 0.005034335 2.323435e-38
0.011839503 -0.099411905 0.0080200508 2.3142493e-38
0.013594748 -0.099411905 0.0080200508 1.9548624e-38
0.015441606 -0.10014741 0.005034335 8.0234328e-39
0.017394241 -0.10160676 -0.00088965148 9.7715569e-39
-0.074078813 -0.11653815 -0.05393564 1.2160374e-38
-0.071517572 -0.11330278 -0.040894859 1.4465265e-38
-0.069676563 -0.11330278 -0.040894859 1.4373435e-38
-0.067835554 -0.11330278 -0.040894859 1.5204991e-38
-0.066333652 -0.11504765 -0.047927849 1.3824919e-38
-0.064619482 -0.11579077 -0.050923221 1.0322929e-38
-0.06276089 -0.11579077 -0.050923221 9.6783075e-39
-0.060215075 -0.11182173 -0.034925215 8.7578099e-39
-0.058384541 -0.11182173 -0.034925215 8.2979192e-39
-0.056553993 -0.11182173 -0.034925215 1.6322144e-38
-0.054723453 -0.11182173 -0.034925215 1.9644713e-38
-0.052892908 -0.11182173 -0.034925215 2.010712e-38
-0.050959349 -0.11107419 -0.031912081 2.1672701e-38
-0.049036916 -0.11033095 -0.028916351 2.1488332e-38
-0.047096256 -0.10935538 -0.024984114 2.1396489e-38
-0.045194577 -0.10859586 -0.0219227 2.2040431e-38
-0.043386836 -0.10859586 -0.0219227 2.3234331e-38
-0.041656923 -0.10935538 -0.024984114 2.3418019e-38
-0.039771345 -0.10859586 -0.0219227 2.3509856e-38
-0.037963599 -0.10859586 -0.0219227 2.3509859e-38
-0.036096603 -0.10786678 -0.018984072 2.3418022e-38
-0.034294013 -0.10786678 -0.018984072 2.3418022e-38
-0.032491419 -0.10786678 -0.018984072 2.350986e-38
-0.030688826 -0.10786678 -0.018984072 2.3509863e-38
-0.028846443 -0.10711606 -0.015958183 2.3509866e-38
-0.027049158 -0.10711606 -0.015958183 2.3509869e-38
-0.02522286 -0.10636975 -0.012949936 2.350987e-38
-0.023407253 -0.10562779 -0.0099593326 2.3509873e-38
-0.021620482 -0.10562779 -0.0099593326 2.3509876e-38
-0.019833714 -0.10562779 -0.0099593326 2.3509876e-38
-0.018039126 -0.10489015 -0.006986253 2.3509879e-38
-0.016257571 -0.10489015 -0.006986253 2.3509876e-38
-0.014478695 -0.10413162 -0.0039287731 2.3326199e-38
-0.0127025 -0.10413162 -0.0039287731 2.3326199e-38
-0.010926304 -0.10413162 -0.0039287731 2.3418039e-38
-0.009168759 -0.10337763 -0.00088965148 2.3418042e-38
-0.0073978929 -0.10337763 -0.00088965148 2.3418043e-38
-0.00565519 -0.10265306 0.0020308569 2.3509883e-38
-0.0038894443 -0.10265306 0.0020308569 2.3509886e-38
-0.0021236977 -0.10265306 0.0020308569 2.3509886e-38
-0.00040271413 -0.10190789 0.005034335 2.3325497e-38
0.0013577659 -0.10190789 0.005034335 2.3417691e-38
0.0031182468 -0.10190789 0.005034335 2.3509886e-38
0.0048787259 -0.10190789 0.005034335 2.3509883e-38
0.0065737683 -0.10116716 0.0080200508 2.3509879e-38
0.0083290134 -0.10116716 0.0080200508 2.3418039e-38
0.010084258 -0.10116716 0.0080200508 2.3234004e-38
0.011756163 -0.10040633 0.01108665 2.3234348e-38
0.013506033 -0.10040633 0.01108665 1.7427424e-38
0.0152559 -0.10040633 0.01108665 1.0419461e-38
-0.075771034 -0.11764936 -0.050923221 1.133206e-38
-0.073912442 -0.11764936 -0.050923221 1.132954e-38
-0.071517572 -0.11514379 -0.040894859 1.3357136e-38
-0.069676563 -0.11514379 -0.040894859 1.2988376e-38
-0.067835554 -0.11514379 -0.040894859 1.3451871e-38
-0.066333652 -0.11690097 -0.047927849 1.225654e-38
-0.064480305 -0.11690097 -0.047927849 9.6772201e-39
-0.062045623 -0.11365227 -0.034925215 9.3098991e-39
-0.060215075 -0.11365227 -0.034925215 7.6529057e-39
-0.058384541 -0.11365227 -0.034925215 7.8387417e-39
-0.056553993 -0.11365227 -0.034925215 1.5402345e-38
-0.054609865 -0.11289944 -0.031912081 1.7804035e-38
-0.052784607 -0.11289944 -0.031912081 1.771291e-38
-0.050856926 -0.11215095 -0.028916351 1.8633127e-38
-0.049036916 -0.11215095 -0.028916351 1.7711188e-38
-0.047096256 -0.11116849 -0.024984114 1.7435658e-38
-0.045194577 -0.11040358 -0.0219227 1.8817875e-38
-0.043386836 -0.11040358 -0.0219227 2.1486541e-38
-0.041579086 -0.11040358 -0.0219227 2.2498193e-38
-0.039701786 -0.10966937 -0.018984072 2.332616e-38
-0.037899192 -0.10966937 -0.018984072 2.3509837e-38
-0.036096603 -0.10966937 -0.018984072 2.3509837e-38
-0.034294013 -0.10966937 -0.018984072 2.3326164e-38
-0.032441016 -0.10891335 -0.015958183 2.323433e-38
-0.030643731 -0.10891335 -0.015958183 2.332617e-38
-0.028846443 -0.10891335 -0.015958183 2.3234336e-38
-0.027014874 -0.10816176 -0.012949936 2.3418011e-38
-0.02522286 -0.10816176 -0.012949936 2.3509853e-38
-0.023407253 -0.10741456 -0.0099593326 2.3509856e-38
-0.021620482 -0.10741456 -0.0099593326 2.3509859e-38
-0.019820683 -0.10667174 -0.006986253 2.350986e-38
-0.018039126 -0.10667174 -0.006986253 2.3049961e-38
-0.016254891 -0.10590781 -0.0039287731 2.286557e-38
-0.014478695 -0.10590781 -0.0039287731 2.3234355e-38
-0.012710493 -0.10514848 -0.00088965148 2.3233999e-38
-0.010939626 -0.10514848 -0.00088965148 2.3326196e-38
-0.009168759 -0.10514848 -0.00088965148 2.3418039e-38
-0.0074209357 -0.1044188 0.0020308569 2.3418042e-38
-0.00565519 -0.1044188 0.0020308569 2.3509883e-38
-0.0039236732 -0.10366838 0.005034335 2.3509886e-38
-0.0021631941 -0.10366838 0.005034335 2.3509527e-38
-0.00040271413 -0.10366838 0.005034335 2.3417333e-38
0.0013577659 -0.10366838 0.005034335 2.3417333e-38
0.0031182468 -0.10366838 0.005034335 2.3509527e-38
0.0048185233 -0.10292239 0.0080200508 2.3509527e-38
0.0065737683 -0.10292239 0.0080200508 2.3509527e-38
0.0083290134 -0.10292239 0.0080200508 2.3417333e-38
0.010006296 -0.10215621 0.01108665 2.3417691e-38
0.011756163 -0.10215621 0.01108665 2.3325847e-38
0.013506033 -0.10215621 0.01108665 1.8900442e-38
0.0152559 -0.10215621 0.01108665 1.1983954e-38
-0.075771034 -0.11950795 -0.050923221 1.0502298e-38
-0.073912442 -0.11950795 -0.050923221 1.0408305e-38
-0.07205385 -0.11950795 -0.050923221 1.1605424e-38
-0.069676563 -0.1169848 -0.040894859 1.068385e-38
-0.067835554 -0.1169848 -0.040894859 1.1791279e-38
-0.065852821 -0.11624531 -0.037955754 1.1148768e-38
-0.064016968 -0.11624531 -0.037955754 9.1229757e-39
-0.062181119 -0.11624531 -0.037955754 9.3098991e-39
-0.060215075 -0.11548282 -0.034925215 8.1138796e-39
-0.058384541 -0.11548282 -0.034925215 7.8398095e-39
-0.056553993 -0.11548282 -0.034925215 1.540342e-38
-0.054609865 -0.11472471 -0.031912081 1.7436343e-38
-0.052784607 -0.11472471 -0.031912081 1.6608376e-38
-0.050856926 -0.11397095 -0.028916351 1.6699536e-38
-0.04890937 -0.1129816 -0.024984114 1.4763439e-38
-0.047002323 -0.11221133 -0.0219227 1.439571e-38
-0.045194577 -0.11221133 -0.0219227 1.6422935e-38
-0.043386836 -0.11221133 -0.0219227 1.6971098e-38
-0.041504379 -0.11147197 -0.018984072 1.8720668e-38
-0.039701786 -0.11147197 -0.018984072 2.0564582e-38
-0.037899192 -0.11147197 -0.018984072 2.1487257e-38
-0.036096603 -0.11147197 -0.018984072 2.130251e-38
-0.034294013 -0.11147197 -0.018984072 2.0564945e-38
-0.032441016 -0.11071064 -0.015958183 1.9919578e-38
-0.030643731 -0.11071064 -0.015958183 1.973519e-38
-0.028806884 -0.10995375 -0.012949936 2.167202e-38
-0.027014874 -0.10995375 -0.012949936 2.2040446e-38
-0.025194021 -0.10920133 -0.0099593326 2.259147e-38
-0.023383794 -0.10845329 -0.006986253 2.2958821e-38
-0.021602239 -0.10845329 -0.006986253 2.2866987e-38
-0.019820683 -0.10845329 -0.006986253 2.2315967e-38
-0.018023092 -0.10691936 -0.00088965148 2.1579119e-38
-0.016252225 -0.10691936 -0.00088965148 2.1209616e-38
-0.01448136 -0.10691936 -0.00088965148 2.3050653e-38
-0.012710493 -0.10691936 -0.00088965148 2.3142493e-38
-0.010952428 -0.10618456 0.0020308569 2.3234345e-38
-0.0091866814 -0.10618456 0.0020308569 2.3326192e-38
-0.0074209357 -0.10618456 0.0020308569 2.3418033e-38
-0.0056841532 -0.10542886 0.005034335 2.3509876e-38
-0.0039236732 -0.10542886 0.005034335 2.3509879e-38
-0.0021631941 -0.10542886 0.005034335 2.3509883e-38
-0.00040271413 -0.10542886 0.005034335 2.3509527e-38
0.0013577659 -0.10542886 0.005034335 2.3509527e-38
0.0030632783 -0.10467763 0.0080200508 2.3509168e-38
0.0048185233 -0.10467763 0.0080200508 2.3509168e-38
0.0065737683 -0.10467763 0.0080200508 2.3509168e-38
0.0083290134 -0.10467763 0.0080200508 2.3509527e-38
0.010006296 -0.10390608 0.01108665 2.3509168e-38
0.011756163 -0.10390608 0.01108665 2.3509168e-38
0.013506033 -0.10390608 0.01108665 2.3509161e-38
-0.069524541 -0.11808117 -0.037955754 1.0501241e-38
-0.067688689 -0.11808117 -0.037955754 1.0685634e-38
-0.065852821 -0.11808117 -0.037955754 1.1147329e-38
-0.064016968 -0.11808117 -0.037955754 1.0411919e-38
-0.062181119 -0.11808117 -0.037955754 9.3077327e-39
-0.060215075 -0.11731337 -0.034925215 8.8507076e-39
-0.058384541 -0.11731337 -0.034925215 9.3152759e-39
-0.056435127 -0.11654995 -0.031912081 1.438962e-38
-0.054609865 -0.11654995 -0.031912081 1.4485746e-38
-0.052784607 -0.11654995 -0.031912081 1.5040712e-38
-0.050856926 -0.11579098 -0.028916351 1.5040729e-38
-0.04890937 -0.11479472 -0.024984114 1.5502429e-38
-0.047002323 -0.11401908 -0.0219227 1.4488632e-38
-0.045194577 -0.11401908 -0.0219227 1.4856335e-38
-0.043386836 -0.11401908 -0.0219227 1.6513347e-38
-0.041504379 -0.11327456 -0.018984072 1.8172155e-38
-0.039701786 -0.11327456 -0.018984072 1.9370698e-38
-0.037899192 -0.11327456 -0.018984072 1.9832036e-38
-0.036096603 -0.11327456 -0.018984072 1.9556528e-38
-0.034238305 -0.11250792 -0.015958183 1.8357985e-38
-0.032441016 -0.11250792 -0.015958183 1.7528587e-38
-0.030643731 -0.11250792 -0.015958183 1.8081761e-38
-0.028806884 -0.11174576 -0.012949936 1.8451263e-38
-0.027014874 -0.11174576 -0.012949936 1.9649806e-38
-0.025194021 -0.1109881 -0.0099593326 2.0479212e-38
-0.023383794 -0.11023484 -0.006986253 2.0295538e-38
-0.021602239 -0.11023484 -0.006986253 1.9558691e-38
-0.019807281 -0.10946019 -0.0039287731 1.9189908e-38
-0.018023092 -0.10869022 -0.00088965148 1.8821126e-38
-0.016252225 -0.10869022 -0.00088965148 1.8818961e-38
-0.014483919 -0.10795029 0.0020308569 2.194856e-38
-0.012718175 -0.10795029 0.0020308569 2.295877e-38
-0.010952428 -0.10795029 0.0020308569 2.2866973e-38
-0.0092051132 -0.10718934 0.005034335 2.3418014e-38
-0.0074446332 -0.10718934 0.005034335 2.3326187e-38
-0.0057129459 -0.1064329 0.0080200508 2.3050676e-38
-0.0039577009 -0.1064329 0.0080200508 2.3418021e-38
-0.0022024559 -0.1064329 0.0080200508 2.3234354e-38
-0.00044721086 -0.1064329 0.0080200508 2.3326208e-38
0.0013080332 -0.1064329 0.0080200508 2.3509527e-38
0.0030632783 -0.1064329 0.0080200508 2.3509527e-38
0.0048185233 -0.1064329 0.0080200508 2.2955641e-38
0.0065065585 -0.10565595 0.01108665 2.2863071e-38
0.0082564279 -0.10565595 0.01108665 2.3509879e-38
0.0099313017 -0.1049086 0.014036424 2.2677964e-38
0.011675999 -0.1049086 0.014036424 2.3508802e-38
0.013420695 -0.1049086 0.014036424 2.3507346e-38
-0.069524541 -0.11991702 -0.037955754 1.0501949e-38
-0.067688689 -0.11991702 -0.037955754 1.0409396e-38
-0.065852821 -0.11991702 -0.037955754 1.07789e-38
-0.064016968 -0.11991702 -0.037955754 1.0042774e-38
-0.062181119 -0.11991702 -0.037955754 9.3073641e-39
-0.060345259 -0.11991702 -0.037955754 9.3109557e-39
-0.058384541 -0.11914389 -0.034925215 9.3152633e-39
-0.056435127 -0.11837523 -0.031912081 1.438997e-38
-0.054609865 -0.11837523 -0.031912081 1.4577593e-38
-0.052784607 -0.11837523 -0.031912081 1.4948171e-38
-0.050856926 -0.11761098 -0.028916351 1.5594256e-38
-0.04890937 -0.11660783 -0.024984114 1.6609131e-38
-0.047096256 -0.11660783 -0.024984114 1.5963764e-38
-0.045194577 -0.11582683 -0.0219227 1.6147078e-38
-0.043386836 -0.11582683 -0.0219227 1.6422946e-38
-0.041504379 -0.11507715 -0.018984072 1.8174663e-38
-0.039701786 -0.11507715 -0.018984072 1.9004427e-38
-0.037899192 -0.11507715 -0.018984072 1.8267578e-38
-0.036096603 -0.11507715 -0.018984072 1.6885366e-38
-0.034238305 -0.11430521 -0.015958183 1.5779016e-38
-0.032441016 -0.11430521 -0.015958183 1.587193e-38
-0.030643731 -0.11430521 -0.015958183 1.734706e-38
-0.028806884 -0.11353777 -0.012949936 1.6794966e-38
-0.027014874 -0.11353777 -0.012949936 1.5781174e-38
-0.025194021 -0.11277486 -0.0099593326 1.6334348e-38
-0.023383794 -0.11201639 -0.006986253 1.7441771e-38
-0.021602239 -0.11201639 -0.006986253 1.7349576e-38
-0.019807281 -0.11123641 -0.0039287731 1.7072989e-38
-0.018023092 -0.11046107 -0.00088965148 1.7349576e-38
-0.016252225 -0.11046107 -0.00088965148 1.7992419e-38
-0.014483919 -0.10971604 0.0020308569 2.0477006e-38
-0.012718175 -0.10971604 0.0020308569 2.2866922e-38
-0.010965593 -0.10894983 0.005034335 2.3234312e-38
-0.0092051132 -0.10894983 0.005034335 2.2775147e-38
-0.007468191 -0.10818814 0.0080200508 2.1485847e-38
-0.0057129459 -0.10818814 0.0080200508 2.1578399e-38
-0.0039577009 -0.10818814 0.0080200508 2.2775141e-38
-0.0022024559 -0.10818814 0.0080200508 2.3142499e-38
-0.00044721086 -0.10818814 0.0080200508 2.3326196e-38
0.0012569539 -0.10740583 0.01108665 2.3509886e-38
0.0030068234 -0.10740583 0.01108665 2.332478e-38
0.0047566909 -0.10740583 0.01108665 2.3509527e-38
0.0065065585 -0.10740583 0.01108665 2.3509869e-38
0.0082564279 -0.10740583 0.01108665 2.35077e-38
0.0099313017 -0.10665329 0.014036424 1.7052929e-38
0.011675999 -0.10665329 0.014036424 1.6129175e-38
0.013420695 -0.10665329 0.014036424 1.6126293e-38
-0.065852821 -0.12175287 -0.037955754 1.0317918e-38
-0.064016968 -0.12175287 -0.037955754 9.4899547e-39
-0.062181119 -0.12175287 -0.037955754 9.1233274e-39
-0.060345259 -0.12175287 -0.037955754 9.4957001e-39
-0.058260385 -0.12020047 -0.031912081 9.4996517e-39
-0.056435127 -0.12020047 -0.031912081 1.4481446e-38
-0.054496937 -0.11943097 -0.028916351 1.4484679e-38
-0.052676931 -0.11943097 -0.028916351 1.4394997e-38
-0.050856926 -0.11943097 -0.028916351 1.5225118e-38
-0.04890937 -0.11842094 -0.024984114 1.6055957e-38
-0.047002323 -0.11763458 -0.0219227 1.5779373e-38
-0.045194577 -0.11763458 -0.0219227 1.5871212e-38
-0.043386836 -0.11763458 -0.0219227 1.6976483e-38
-0.041504379 -0.11687975 -0.018984072 1.808283e-38
-0.039701786 -0.11687975 -0.018984072 1.8082833e-38
-0.037899192 -0.11687975 -0.018984072 1.6976483e-38
-0.03603559 -0.1161025 -0.015958183 1.6147804e-38
-0.034238305 -0.1161025 -0.015958183 1.6055606e-38
-0.032441016 -0.1161025 -0.015958183 1.6978281e-38
-0.030643731 -0.1161025 -0.015958183 1.8637802e-38
-0.028806884 -0.11532979 -0.012949936 1.7255588e-38
-0.026980791 -0.11456163 -0.0099593326 1.4306044e-38
-0.025165349 -0.11379795 -0.006986253 1.4582631e-38
-0.023383794 -0.11379795 -0.006986253 1.6979717e-38
-0.021602239 -0.11379795 -0.006986253 1.7071913e-38
-0.019807281 -0.1130126 -0.0039287731 1.6426543e-38
-0.018023092 -0.11223195 -0.00088965148 1.670313e-38
-0.016252225 -0.11223195 -0.00088965148 1.7163024e-38
-0.014483919 -0.11148177 0.0020308569 1.669952e-38
-0.012718175 -0.11148177 0.0020308569 1.909446e-38
-0.010965593 -0.11071031 0.005034335 1.9922812e-38
-0.0092051132 -0.11071031 0.005034335 1.8355135e-38
-0.007468191 -0.10994337 0.0080200508 1.7525006e-38
-0.0057129459 -0.10994337 0.0080200508 1.8908292e-38
-0.0039926497 -0.10915567 0.01108665 2.0844034e-38
-0.0022427812 -0.10915567 0.01108665 2.19486e-38
-0.00049291365 -0.10915567 0.01108665 2.305067e-38
0.0012569539 -0.10915567 0.01108665 2.3049612e-38
0.0029525179 -0.10839801 0.014036424 2.3509524e-38
0.0046972129 -0.10839801 0.014036424 2.3509517e-38
0.0063755047 -0.10761972 0.017066307 2.350841e-38
0.0081148893 -0.10761972 0.017066307 1.6590483e-38
0.0099313017 -0.10839801 0.014036424 1.2072887e-38
0.011675999 -0.10839801 0.014036424 1.5758565e-38
-0.065994546 -0.12434883 -0.040894859 1.0318271e-38
-0.064016968 -0.12358873 -0.037955754 9.3966773e-39
-0.062181119 -0.12358873 -0.037955754 8.9385732e-39
-0.060345259 -0.12358873 -0.037955754 9.5868167e-39
-0.058260385 -0.12202574 -0.031912081 1.0420885e-38
-0.056435127 -0.12202574 -0.031912081 1.4204859e-38
-0.054496937 -0.121251 -0.028916351 1.4208092e-38
-0.052676931 -0.121251 -0.028916351 1.3841467e-38
-0.050856926 -0.121251 -0.028916351 1.4026577e-38
-0.04890937 -0.12023406 -0.024984114 1.3105343e-38
-0.047002323 -0.11944233 -0.0219227 1.3105345e-38
-0.045194577 -0.11944233 -0.0219227 1.4027305e-38
-0.043386836 -0.11944233 -0.0219227 1.5502435e-38
-0.041504379 -0.11868234 -0.018984072 1.5502079e-38
-0.039701786 -0.11868234 -0.018984072 1.4763793e-38
-0.037899192 -0.11868234 -0.018984072 1.421134e-38
-0.03603559 -0.11789979 -0.015958183 1.568647e-38
-0.034238305 -0.11789979 -0.015958183 1.7161956e-38
-0.032441016 -0.11789979 -0.015958183 1.7899881e-38
-0.030643731 -0.11789979 -0.015958183 1.8453411e-38
-0.028806884 -0.1171218 -0.012949936 1.7716569e-38
-0.026980791 -0.1163484 -0.0099593326 1.4766306e-38
-0.025165349 -0.1155795 -0.006986253 1.5411675e-38
-0.023383794 -0.1155795 -0.006986253 1.7993869e-38
-0.021602239 -0.1155795 -0.006986253 1.81779e-38
-0.019807281 -0.11478879 -0.0039287731 1.7256304e-38
-0.018023092 -0.11400281 -0.00088965148 1.7256304e-38
-0.016249666 -0.11324753 0.0020308569 1.6979357e-38
-0.014483919 -0.11324753 0.0020308569 1.5871569e-38
-0.012726072 -0.11247079 0.005034335 1.6331119e-38
-0.010965593 -0.11247079 0.005034335 1.6514451e-38
-0.0092234351 -0.11169861 0.0080200508 1.5408103e-38
-0.007468191 -0.11169861 0.0080200508 1.6145653e-38
-0.0057425182 -0.11090554 0.01108665 1.8819314e-38
-0.0039926497 -0.11090554 0.01108665 2.0754695e-38
-0.0022427812 -0.11090554 0.01108665 2.2224093e-38
-0.00049291365 -0.11090554 0.01108665 2.3142489e-38
0.0012078211 -0.11014269 0.014036424 2.3326177e-38
0.0028967373 -0.1093591 0.017066307 2.3509863e-38
0.0046361219 -0.1093591 0.017066307 2.3414779e-38
0.0063755047 -0.1093591 0.017066307 2.073892e-38
0.0081148893 -0.1093591 0.017066307 9.3059236e-39
-0.065994546 -0.12618984 -0.040894859 1.0778884e-38
-0.064153537 -0.12618984 -0.040894859 9.3970304e-39
-0.062181119 -0.12542458 -0.037955754 8.7541792e-39
-0.060345259 -0.12542458 -0.037955754 9.402424e-39
-0.058384541 -0.12463553 -0.034925215 1.1065898e-38
-0.056435127 -0.12385099 -0.031912081 1.4111944e-38
-0.054496937 -0.123071 -0.028916351 1.4300289e-38
-0.052676931 -0.123071 -0.028916351 1.3933664e-38
-0.050856926 -0.123071 -0.028916351 1.365744e-38
-0.04890937 -0.12204717 -0.024984114 1.0800457e-38
-0.047002323 -0.12125005 -0.0219227 1.0984493e-38
-0.045194577 -0.12125005 -0.0219227 1.2920604e-38
-0.043386836 -0.12125005 -0.0219227 1.4672321e-38
-0.041504379 -0.12048493 -0.018984072 1.4488648e-38
-0.039701786 -0.12048493 -0.018984072 1.3381582e-38
-0.037899192 -0.12048493 -0.018984072 1.3105714e-38
-0.03603559 -0.11969708 -0.015958183 1.5134018e-38
-0.034238305 -0.11969708 -0.015958183 1.7162319e-38
-0.032441016 -0.11969708 -0.015958183 1.734671e-38
-0.030598897 -0.11891381 -0.012949936 1.707012e-38
-0.02876756 -0.11813517 -0.0099593326 1.6332558e-38
-0.026946906 -0.11736105 -0.006986253 1.476523e-38
-0.025165349 -0.11736105 -0.006986253 1.5502795e-38
-0.023383794 -0.11736105 -0.006986253 1.7255588e-38
-0.021602239 -0.11736105 -0.006986253 1.7900237e-38
-0.019793959 -0.11577369 -0.00088965148 1.7716566e-38
-0.018015411 -0.11501329 0.0020308569 1.7900957e-38
-0.016249666 -0.11501329 0.0020308569 1.7625089e-38
-0.014486553 -0.11423124 0.005034335 1.6519105e-38
-0.012726072 -0.11423124 0.005034335 1.5043623e-38
-0.010965593 -0.11423124 0.005034335 1.5043277e-38
-0.0092234351 -0.11345388 0.0080200508 1.4858164e-38
-0.007468191 -0.11345388 0.0080200508 1.6057045e-38
-0.0057425182 -0.11265542 0.01108665 1.8361919e-38
-0.0039926497 -0.11265542 0.01108665 1.9374979e-38
-0.0022815708 -0.11188738 0.014036424 2.1397546e-38
-0.00053687487 -0.11188738 0.014036424 2.2958791e-38
0.0011573527 -0.11109848 0.017066307 2.2866966e-38
0.0028967373 -0.11109848 0.017066307 2.3509471e-38
0.0046361219 -0.11109848 0.017066307 2.2400237e-38
0.0063095018 -0.11031438 0.020077832 2.000097e-38
0.0080436058 -0.11031438 0.020077832 8.3825002e-39
-0.069676563 -0.12803085 -0.040894859 1.1056892e-38
-0.067835554 -0.12803085 -0.040894859 1.15168e-38
-0.066190034 -0.12909363 -0.044949405 1.1332055e-38
-0.064153537 -0.12803085 -0.040894859 9.8572897e-39
-0.062312525 -0.12803085 -0.040894859 8.9374914e-39
-0.060345259 -0.12726043 -0.037955754 9.4939022e-39
-0.058384541 -0.12646608 -0.034925215 1.1249574e-38
-0.056435127 -0.12567626 -0.031912081 1.4019396e-38
-0.054496937 -0.124891 -0.028916351 1.4944226e-38
-0.052676931 -0.124891 -0.028916351 1.4486485e-38
-0.050856926 -0.124891 -0.028916351 1.4579402e-38
-0.04890937 -0.12386028 -0.024984114 1.1076693e-38
-0.047096256 -0.12386028 -0.024984114 1.1352924e-38
-0.045194577 -0.1230578 -0.0219227 1.3289753e-38
-0.043386836 -0.1230578 -0.0219227 1.5041468e-38
-0.041504379 -0.12228753 -0.018984072 1.5686834e-38
-0.039701786 -0.12228753 -0.018984072 1.4857074e-38
-0.037899192 -0.12228753 -0.018984072 1.365853e-38
-0.03603559 -0.12149437 -0.015958183 1.4396095e-38
-0.034238305 -0.12149437 -0.015958183 1.55028e-38
-0.032390911 -0.12070583 -0.012949936 1.5594996e-38
-0.030598897 -0.12070583 -0.012949936 1.5318406e-38
-0.02876756 -0.11992194 -0.0099593326 1.5226213e-38
-0.026946906 -0.11914261 -0.006986253 1.4949624e-38
-0.025165349 -0.11914261 -0.006986253 1.4764514e-38
-0.023383794 -0.11914261 -0.006986253 1.5134012e-38
-0.021583475 -0.11834116 -0.0039287731 1.5963773e-38
-0.019793959 -0.11754455 -0.00088965148 1.6425107e-38
-0.018015411 -0.11677901 0.0020308569 1.707012e-38
-0.016249666 -0.11677901 0.0020308569 1.7532896e-38
-0.014486553 -0.11599173 0.005034335 1.6152123e-38
-0.012726072 -0.11599173 0.005034335 1.4031992e-38
-0.010965593 -0.11599173 0.005034335 1.4492621e-38
-0.0092234351 -0.11520912 0.0080200508 1.4030561e-38
-0.0074923858 -0.11440529 0.01108665 1.4399684e-38
-0.0057425182 -0.11440529 0.01108665 1.5598208e-38
-0.0039926497 -0.11440529 0.01108665 1.5688947e-38
-0.0022815708 -0.11363207 0.014036424 1.8083876e-38
-0.00053687487 -0.11363207 0.014036424 1.9001536e-38
0.0011573527 -0.11283787 0.017066307 2.0380168e-38
0.0028412957 -0.11204849 0.020077832 2.1297822e-38
0.0045753997 -0.11204849 0.020077832 2.0187875e-38
0.0063095018 -0.11204849 0.020077832 1.8618376e-38
0.0080436058 -0.11204849 0.020077832 9.3962807e-39
-0.069676563 -0.12987186 -0.040894859 1.1241284e-38
-0.067835554 -0.12987186 -0.040894859 1.1885582e-38
-0.066190034 -0.13094176 -0.044949405 1.1976705e-38
-0.064341918 -0.13094176 -0.044949405 1.0133877e-38
-0.062493805 -0.13094176 -0.044949405 9.1218855e-39
-0.060345259 -0.12909628 -0.037955754 9.5861006e-39
-0.058384541 -0.1282966 -0.034925215 1.0880793e-38
-0.056435127 -0.1275015 -0.031912081 1.4203432e-38
-0.054496937 -0.126711 -0.028916351 1.5404852e-38
-0.052676931 -0.126711 -0.028916351 1.4669805e-38
-0.050856926 -0.126711 -0.028916351 1.5500651e-38
-0.04890937 -0.1256734 -0.024984114 1.2643668e-38
-0.047002323 -0.12486555 -0.0219227 1.2644032e-38
-0.045194577 -0.12486555 -0.0219227 1.3289402e-38
-0.043386836 -0.12486555 -0.0219227 1.4396824e-38
-0.041504379 -0.12409012 -0.018984072 1.559572e-38
-0.039701786 -0.12409012 -0.018984072 1.476596e-38
-0.037899192 -0.12409012 -0.018984072 1.2922047e-38
-0.03603559 -0.12329166 -0.015958183 1.3013164e-38
-0.034238305 -0.12329166 -0.015958183 1.3842922e-38
-0.032390911 -0.12249784 -0.012949936 1.4119148e-38
-0.030554328 -0.12170871 -0.0099593326 1.3934756e-38
-0.02876756 -0.12170871 -0.0099593326 1.5502083e-38
-0.026946906 -0.12092416 -0.006986253 1.5594277e-38
-0.025165349 -0.12092416 -0.006986253 1.4302459e-38
-0.023359671 -0.12011738 -0.0039287731 1.3658166e-38
-0.021583475 -0.12011738 -0.0039287731 1.4856709e-38
-0.019793959 -0.11931543 -0.00088965148 1.476523e-38
-0.018015411 -0.11854477 0.0020308569 1.5041819e-38
-0.016249666 -0.11854477 0.0020308569 1.6795331e-38
-0.014486553 -0.11775221 0.005034335 1.6428707e-38
-0.012726072 -0.11775221 0.005034335 1.3848674e-38
-0.010965593 -0.11775221 0.005034335 1.4032362e-38
-0.0092234351 -0.11696436 0.0080200508 1.246432e-38
-0.0074923858 -0.11615516 0.01108665 1.2464666e-38
-0.0057425182 -0.11615516 0.01108665 1.4400037e-38
-0.0039926497 -0.11615516 0.01108665 1.412199e-38
-0.0022815708 -0.11537679 0.014036424 1.6240679e-38
-0.00053687487 -0.11537679 0.014036424 1.5776827e-38
0.0011573527 -0.11457725 0.017066307 1.7432757e-38
0.0028412957 -0.1137826 0.020077832 1.8534082e-38
0.0045753997 -0.1137826 0.020077832 1.8253544e-38
0.0063095018 -0.1137826 0.020077832 1.6498225e-38
0.0080436058 -0.1137826 0.020077832 8.9353068e-39
0.070471346 -0.1137826 0.020077832 2.341805e-38
0.072025731 -0.11324702 0.022107489 2.341805e-38
0.073756278 -0.11324702 0.022107489 2.2864882e-38
0.075212419 -0.11246039 0.025088497 2.0100092e-38
0.076937735 -0.11246039 0.025088497 1.3830789e-38
-0.065852821 -0.13093217 -0.037955754 1.216074e-38
-0.064016968 -0.13093217 -0.037955754 1.0501943e-38
-0.062181119 -0.13093217 -0.037955754 9.3977563e-39
-0.060345259 -0.13093217 -0.037955754 9.9538098e-39
-0.058260385 -0.12932678 -0.031912081 1.0694969e-38
-0.056435127 -0.12932678 -0.031912081 1.4571141e-38
-0.054609865 -0.12932678 -0.031912081 1.5772922e-38
-0.052784607 -0.12932678 -0.031912081 1.4208477e-38
-0.050856926 -0.12853102 -0.028916351 1.568469e-38
-0.04890937 -0.12748651 -0.024984114 1.3657112e-38
-0.047002323 -0.1266733 -0.0219227 1.3288694e-38
-0.045109563 -0.12589271 -0.018984072 1.2367814e-38
-0.043306973 -0.12589271 -0.018984072 1.4765608e-38
-0.041504379 -0.12589271 -0.018984072 1.5688279e-38
-0.039701786 -0.12589271 -0.018984072 1.476596e-38
-0.037832875 -0.12508895 -0.015958183 1.3014243e-38
-0.03603559 -0.12508895 -0.015958183 1.3658533e-38
-0.034238305 -0.12508895 -0.015958183 1.5040749e-38
-0.032390911 -0.12428986 -0.012949936 1.5225496e-38
-0.030554328 -0.12349547 -0.0099593326 1.5040026e-38
-0.02876756 -0.12349547 -0.0099593326 1.5408808e-38
-0.026946906 -0.12270571 -0.006986253 1.5685395e-38
-0.025135867 -0.12189357 -0.0039287731 1.3657091e-38
-0.023359671 -0.12189357 -0.0039287731 1.3288307e-38
-0.021583475 -0.12189357 -0.0039287731 1.4856712e-38
-0.019793959 -0.12108628 -0.00088965148 1.4211343e-38
-0.018015411 -0.1203105 0.0020308569 1.3843279e-38
-0.016249666 -0.1203105 0.0020308569 1.6610224e-38
-0.014486553 -0.11951269 0.005034335 1.6427988e-38
-0.012726072 -0.11951269 0.005034335 1.3478094e-38
-0.010965593 -0.11951269 0.005034335 1.2464317e-38
-0.0092234351 -0.11871959 0.0080200508 9.975038e-39
-0.0074923858 -0.11790501 0.01108665 1.0896989e-38
-0.0057425182 -0.11790501 0.01108665 1.430821e-38
-0.0040262677 -0.11712147 0.014036424 1.421491e-38
-0.0023214137 -0.11631663 0.017066307 1.5504553e-38
-0.00058203004 -0.11631663 0.017066307 1.6055205e-38
0.0011071917 -0.11551671 0.020077832 1.6143445e-38
0.0028412957 -0.11551671 0.020077832 1.6507924e-38
0.0045753997 -0.11551671 0.020077832 1.8071302e-38
0.0063095018 -0.11551671 0.020077832 1.6038688e-38
0.0080436058 -0.11551671 0.020077832 8.3832176e-39
0.030492648 -0.11497755 0.022107489 1.7876918e-38
0.032223195 -0.11497755 0.022107489 1.1423581e-38
0.033953737 -0.11497755 0.022107489 1.0225387e-38
0.035684284 -0.11497755 0.022107489 1.0595596e-38
0.037414826 -0.11497755 0.022107489 1.0319364e-38
0.039145373 -0.11497755 0.022107489 1.0503028e-38
0.070036471 -0.11418571 0.025088497 2.3509527e-38
0.071499422 -0.11339863 0.028051563 2.2864882e-38
0.073219553 -0.11339863 0.028051563 2.3049273e-38
0.074939668 -0.11339863 0.028051563 2.341805e-38
0.076374635 -0.1125911 0.031091578 2.3234379e-38
0.078089416 -0.1125911 0.031091578 2.2681931e-38
0.081519008 -0.1125911 0.031091578 2.2590813e-38
0.083233804 -0.1125911 0.031091578 2.2958873e-38
-0.065852821 -0.13276802 -0.037955754 1.1791962e-38
-0.064016968 -0.13276802 -0.037955754 1.0594144e-38
-0.062181119 -0.13276802 -0.037955754 9.3052061e-39
-0.060215075 -0.13195769 -0.034925215 8.5705208e-39
-0.058260385 -0.13115202 -0.031912081 1.0971204e-38
-0.056435127 -0.13115202 -0.031912081 1.4017616e-38
-0.054609865 -0.13115202 -0.031912081 1.5956961e-38
-0.052676931 -0.13035102 -0.028916351 1.5959122e-38
-0.050856926 -0.13035102 -0.028916351 1.6606295e-38
-0.04890937 -0.1292996 -0.024984114 1.3656761e-38
-0.047002323 -0.12848105 -0.0219227 1.3380539e-38
-0.045109563 -0.12769531 -0.018984072 1.2920993e-38
-0.043306973 -0.12769531 -0.018984072 1.3474869e-38
-0.041504379 -0.12769531 -0.018984072 1.5135102e-38
-0.039701786 -0.12769531 -0.018984072 1.476596e-38
-0.037832875 -0.12688623 -0.015958183 1.2829852e-38
-0.03603559 -0.12688623 -0.015958183 1.3197555e-38
-0.034238305 -0.12688623 -0.015958183 1.4764162e-38
-0.032390911 -0.12608187 -0.012949936 1.5685398e-38
-0.030554328 -0.12528224 -0.0099593326 1.5776875e-38
-0.028728463 -0.1244873 -0.006986253 1.6422244e-38
-0.026946906 -0.1244873 -0.006986253 1.5131505e-38
-0.025135867 -0.12366976 -0.0039287731 1.5040029e-38
-0.023359671 -0.12366976 -0.0039287731 1.4394656e-38
-0.021564826 -0.12285714 -0.00088965148 1.3750366e-38
-0.019781157 -0.12207626 0.0020308569 1.4026953e-38
-0.018015411 -0.12207626 0.0020308569 1.4488291e-38
-0.016247032 -0.12127317 0.005034335 1.6424399e-38
-0.014486553 -0.12127317 0.005034335 1.7255238e-38
-0.012726072 -0.12127317 0.005034335 1.5135102e-38
-0.01097868 -0.12047486 0.0080200508 1.3014973e-38
-0.0092234351 -0.12047486 0.0080200508 9.4200664e-39
-0.0074923858 -0.11965488 0.01108665 9.789202e-39
-0.0057709636 -0.11886616 0.014036424 1.2555418e-38
-0.0040262677 -0.11886616 0.014036424 1.3385514e-38
-0.0023214137 -0.11805601 0.017066307 1.5781866e-38
-0.00058203004 -0.11805601 0.017066307 1.5687503e-38
0.0011071917 -0.11725079 0.020077832 1.4485004e-38
0.0028412957 -0.11725079 0.020077832 1.6140226e-38
0.0045753997 -0.11725079 0.020077832 1.6320315e-38
0.0062650181 -0.11670811 0.022107489 1.4103315e-38
0.0079955645 -0.11670811 0.022107489 9.4903009e-39
0.030354142 -0.11591102 0.025088497 1.2899048e-38
0.032079458 -0.11591102 0.025088497 1.1332088e-38
0.033953737 -0.11670811 0.022107489 1.0501974e-38
0.035684284 -0.11670811 0.022107489 1.0686362e-38
0.037414826 -0.11670811 0.022107489 1.0594517e-38
0.039145373 -0.11670811 0.022107489 9.9498553e-39
0.069779307 -0.11511876 0.028051563 2.3509527e-38
0.071230248 -0.1143059 0.031091578 2.3509527e-38
0.072945043 -0.1143059 0.031091578 2.341805e-38
0.074659839 -0.1143059 0.031091578 2.2864883e-38
0.076374635 -0.1143059 0.031091578 2.3234379e-38
0.078089416 -0.1143059 0.031091578 2.3142544e-38
0.079804212 -0.1143059 0.031091578 2.3142544e-38
0.081519008 -0.1143059 0.031091578 2.1761408e-38
0.083233804 -0.1143059 0.031091578 2.2958873e-38
0.084948599 -0.1143059 0.031091578 2.2775202e-38
0.086980537 -0.11511876 0.028051563 1.558538e-38
-0.067537248 -0.13378824 -0.034925215 1.1700841e-38
-0.065852821 -0.13460387 -0.037955754 1.1606496e-38
-0.064016968 -0.13460387 -0.037955754 1.0684904e-38
-0.062181119 -0.13460387 -0.037955754 9.6729153e-39
-0.060215075 -0.13378824 -0.034925215 8.9385872e-39
-0.058260385 -0.13297729 -0.031912081 1.1247075e-38
-0.056435127 -0.13297729 -0.031912081 1.4754465e-38
-0.054496937 -0.13217102 -0.028916351 1.6232476e-38
-0.052676931 -0.13217102 -0.028916351 1.6143159e-38
-0.05072248 -0.13111271 -0.024984114 1.6052768e-38
-0.04890937 -0.13111271 -0.024984114 1.3564212e-38
-0.047002323 -0.13028879 -0.0219227 1.264262e-38
-0.045109563 -0.1294979 -0.018984072 1.2090157e-38
-0.043306973 -0.1294979 -0.018984072 1.135437e-38
-0.041504379 -0.1294979 -0.018984072 1.2738372e-38
-0.039701786 -0.1294979 -0.018984072 1.2645457e-38
-0.037832875 -0.12868352 -0.015958183 1.1906813e-38
-0.03603559 -0.12868352 -0.015958183 1.2735858e-38
-0.034182921 -0.12787388 -0.012949936 1.457905e-38
-0.032341097 -0.12706901 -0.0099593326 1.5500288e-38
-0.03051002 -0.12626885 -0.006986253 1.5776875e-38
-0.028728463 -0.12626885 -0.006986253 1.5592483e-38
-0.02691206 -0.12544595 -0.0039287731 1.4854918e-38
-0.025135867 -0.12544595 -0.0039287731 1.5408811e-38
-0.023359671 -0.12544595 -0.0039287731 1.5316615e-38
-0.021564826 -0.12462802 -0.00088965148 1.4948553e-38
-0.019781157 -0.12384202 0.0020308569 1.5133663e-38
-0.018015411 -0.12384202 0.0020308569 1.5318057e-38
-0.016247032 -0.12303366 0.005034335 1.6977579e-38
-0.014486553 -0.12303366 0.005034335 1.7437841e-38
-0.012726072 -0.12303366 0.005034335 1.6054549e-38
-0.01097868 -0.1222301 0.0080200508 1.4026964e-38
-0.0092234351 -0.1222301 0.0080200508 9.6026528e-39
-0.0074923858 -0.12140475 0.01108665 9.6040863e-39
-0.0057709636 -0.12061088 0.014036424 1.3107869e-38
-0.0040262677 -0.12061088 0.014036424 1.4215275e-38
-0.0023214137 -0.1197954 0.017066307 1.6427956e-38
-0.00058203004 -0.1197954 0.017066307 1.5780424e-38
0.0011071917 -0.11898489 0.020077832 1.4302061e-38
0.0028412957 -0.11898489 0.020077832 1.5495593e-38
0.0045344736 -0.11843865 0.022107489 1.5214706e-38
0.0062650181 -0.11843865 0.022107489 1.2813315e-38
0.0079250038 -0.11763634 0.025088497 8.1084608e-39
0.0096503217 -0.11763634 0.025088497 8.4747126e-39
0.01137564 -0.11763634 0.025088497 9.8565737e-39
0.013100957 -0.11763634 0.025088497 1.0961144e-38
0.023335975 -0.11683889 0.028051563 1.5202515e-38
0.025056098 -0.11683889 0.028051563 1.428091e-38
0.030216467 -0.11683889 0.028051563 1.1516461e-38
0.03193659 -0.11683889 0.028051563 1.1700856e-38
0.033656713 -0.11683889 0.028051563 1.1239173e-38
0.035376836 -0.11683889 0.028051563 1.0410131e-38
0.037255414 -0.11763634 0.025088497 1.0226089e-38
0.039145373 -0.11843865 0.022107489 1.0778896e-38
0.06461893 -0.11683889 0.028051563 2.3509883e-38
0.066339053 -0.11683889 0.028051563 2.3509886e-38
0.06831114 -0.11763634 0.025088497 2.3509886e-38
0.069779307 -0.11683889 0.028051563 2.3417333e-38
0.071230248 -0.11602069 0.031091578 2.3509527e-38
0.072945043 -0.11602069 0.031091578 2.3509527e-38
0.074659839 -0.11602069 0.031091578 2.3141467e-38
0.076374635 -0.11602069 0.031091578 2.341805e-38
0.078089416 -0.11602069 0.031091578 2.3234379e-38
0.079804212 -0.11602069 0.031091578 2.2866677e-38
0.081519008 -0.11602069 0.031091578 2.3142541e-38
0.083233804 -0.11602069 0.031091578 2.2591519e-38
0.085260406 -0.11683889 0.028051563 2.2683361e-38
0.086980537 -0.11683889 0.028051563 2.2775199e-38
0.088700652 -0.11683889 0.028051563 1.7521486e-38
-0.071517572 -0.13723589 -0.040894859 1.1241646e-38
-0.069524541 -0.13643973 -0.037955754 1.1148736e-38
-0.067537248 -0.13561879 -0.034925215 1.1239863e-38
-0.0657067 -0.13561879 -0.034925215 1.1237716e-38
-0.063876167 -0.13561879 -0.034925215 1.0592711e-38
-0.062181119 -0.13643973 -0.037955754 9.9487861e-39
-0.060215075 -0.13561879 -0.034925215 9.4910449e-39
-0.058260385 -0.13480256 -0.031912081 9.6790333e-39
-0.056316946 -0.13399105 -0.028916351 1.4477162e-38
-0.054496937 -0.13399105 -0.028916351 1.6140282e-38
-0.052676931 -0.13399105 -0.028916351 1.7065118e-38
-0.05072248 -0.13292582 -0.024984114 1.6329358e-38
-0.04890937 -0.13292582 -0.024984114 1.4301778e-38
-0.047002323 -0.13209651 -0.0219227 1.1905058e-38
-0.045109563 -0.13130049 -0.018984072 1.0522831e-38
-0.043306973 -0.13130049 -0.018984072 1.089339e-38
-0.041504379 -0.13130049 -0.018984072 1.2276674e-38
-0.039630163 -0.13048081 -0.015958183 1.2829127e-38
-0.037832875 -0.13048081 -0.015958183 1.2829127e-38
-0.03603559 -0.13048081 -0.015958183 1.4025874e-38
-0.034182921 -0.1296659 -0.012949936 1.4947111e-38
-0.032341097 -0.12885578 -0.0099593326 1.5315894e-38
-0.03051002 -0.1280504 -0.006986253 1.5868349e-38
-0.028728463 -0.1280504 -0.006986253 1.4762004e-38
-0.02691206 -0.12722217 -0.0039287731 1.4025158e-38
-0.025135867 -0.12722217 -0.0039287731 1.467089e-38
-0.023359671 -0.12722217 -0.0039287731 1.4763086e-38
-0.021564826 -0.12639888 -0.00088965148 1.4671969e-38
-0.019781157 -0.12560774 0.0020308569 1.5225862e-38
-0.018007513 -0.12479414 0.005034335 1.5503172e-38
-0.016247032 -0.12479414 0.005034335 1.7253811e-38
-0.014486553 -0.12479414 0.005034335 1.7988513e-38
-0.012726072 -0.12479414 0.005034335 1.7434977e-38
-0.01097868 -0.12398534 0.0080200508 1.5408101e-38
-0.0092234351 -0.12398534 0.0080200508 1.0339128e-38
-0.0074923858 -0.12315463 0.01108665 9.6033534e-39
-0.0057709636 -0.12235557 0.014036424 1.2924186e-38
-0.0040262677 -0.12235557 0.014036424 1.3846488e-38
-0.0023214137 -0.12153481 0.017066307 1.5414167e-38
-0.00058203004 -0.12153481 0.017066307 1.5504204e-38
0.0011071917 -0.120719 0.020077832 1.3749627e-38
0.0028039292 -0.12016918 0.022107489 1.4758773e-38
0.0045344736 -0.12016918 0.022107489 1.4477526e-38
