# .PCD v0.7 - Point Cloud Data file format
VERSION 0.7
FIELDS x y z rgb
SIZE 4 4 4 4
TYPE F F F F
COUNT 1 1 1 1
WIDTH 923
HEIGHT 1
VIEWPOINT 0 0 0 1 0 0 0
POINTS 923
DATA ascii
0.034276973 -0.084363595 -0.0083628073 2.2775192e-38
0.036107518 -0.084363595 -0.0083628073 2.2223452e-38
0.037924852 -0.083695292 -0.0053496733 2.2865581e-38
0.03975011 -0.083695292 -0.0053496733 2.3509866e-38
0.041623056 -0.085035756 -0.011393346 2.350986e-38
-0.027787004 -0.092691094 -0.037425436 2.1389375e-38
-0.025905509 -0.092691094 -0.037425436 2.0561432e-38
-0.023859862 -0.092004895 -0.034355916 1.9088111e-38
-0.021983746 -0.092004895 -0.034355916 1.816688e-38
-0.020107631 -0.092004895 -0.034355916 1.9551257e-38
-0.017894831 -0.090443924 -0.027373232 1.9736731e-38
-0.015751813 -0.089100882 -0.021365441 1.937047e-38
-0.013765309 -0.088435039 -0.018386997 2.1122163e-38
-0.011917192 -0.088435039 -0.018386997 2.1213998e-38
-0.010069076 -0.088435039 -0.018386997 2.1213998e-38
-0.008220952 -0.088435039 -0.018386997 2.1213998e-38
-0.0063728355 -0.088435039 -0.018386997 2.1305834e-38
-0.0043789819 -0.087528646 -0.014332451 2.1397669e-38
-0.0025379732 -0.087528646 -0.014332451 2.1029603e-38
-0.00060163066 -0.086871609 -0.011393346 2.0290594e-38
0.0012342259 -0.086871609 -0.011393346 2.028915e-38
0.0030700825 -0.086871609 -0.011393346 2.0841588e-38
0.0049059354 -0.086871609 -0.011393346 1.9551537e-38
0.0066670738 -0.087528646 -0.014332451 1.8906516e-38
0.0085776486 -0.086871609 -0.011393346 1.973628e-38
0.010479923 -0.086194143 -0.0083628073 2.1212129e-38
0.012371223 -0.085520551 -0.0053496733 2.0383442e-38
0.014251631 -0.084850863 -0.0023539439 1.789523e-38
0.016137138 -0.083971798 0.0015782937 1.6974699e-38
0.017950248 -0.083971798 0.0015782937 1.7989919e-38
0.019763362 -0.083971798 0.0015782937 1.7621488e-38
0.021611363 -0.083287418 0.0046397075 1.8359053e-38
0.023419108 -0.083287418 0.0046397075 1.9004071e-38
0.025202699 -0.083971798 0.0015782937 1.8911526e-38
0.02699168 -0.084850863 -0.0023539439 1.8356931e-38
0.028811686 -0.084850863 -0.0023539439 1.7987445e-38
0.030623814 -0.085520551 -0.0053496733 1.8355879e-38
0.032449074 -0.085520551 -0.0053496733 1.9183494e-38
0.034274332 -0.085520551 -0.0053496733 1.8904758e-38
0.036107518 -0.086194143 -0.0083628073 1.7704059e-38
0.037938058 -0.086194143 -0.0083628073 1.9454334e-38
0.039768599 -0.086194143 -0.0083628073 2.2865206e-38
0.041623056 -0.086871609 -0.011393346 2.3233615e-38
-0.027787004 -0.094572589 -0.037425436 2.1204632e-38
-0.025573637 -0.093218774 -0.031416573 2.0288819e-38
-0.023486454 -0.092307791 -0.027373232 1.6235465e-38
-0.021466766 -0.091629088 -0.024360813 1.6971952e-38
-0.019608174 -0.091629088 -0.024360813 1.8721874e-38
-0.017605152 -0.090954214 -0.021365441 1.7707004e-38
-0.015613426 -0.090283155 -0.018386997 1.9366525e-38
-0.013765309 -0.090283155 -0.018386997 2.2224189e-38
-0.01174302 -0.089369655 -0.014332451 2.1948323e-38
-0.0099020042 -0.089369655 -0.014332451 2.2224189e-38
-0.0080609992 -0.089369655 -0.014332451 2.0843069e-38
-0.0062199906 -0.089369655 -0.014332451 2.2224189e-38
-0.0042733401 -0.088707477 -0.011393346 2.1948682e-38
-0.0024374835 -0.088707477 -0.011393346 2.1855756e-38
-0.00060163066 -0.088707477 -0.011393346 2.2867027e-38
0.0012342259 -0.088707477 -0.011393346 2.0562486e-38
0.0030700825 -0.088707477 -0.011393346 2.0379148e-38
0.0049059354 -0.088707477 -0.011393346 1.9091245e-38
0.0067417957 -0.088707477 -0.011393346 1.7617186e-38
0.0086493827 -0.088024676 -0.0083628073 1.7432457e-38
0.010545965 -0.087345809 -0.0053496733 2.0290896e-38
0.012431625 -0.086670861 -0.0023539439 2.0291983e-38
0.014324024 -0.085784912 0.0015782937 1.7158404e-38
0.01618813 -0.085095167 0.0046397075 1.5960924e-38
0.017995875 -0.085095167 0.0046397075 1.5870509e-38
0.019842263 -0.084433094 0.0075783357 1.5318757e-38
0.021644853 -0.084433094 0.0075783357 1.8823268e-38
0.023447447 -0.084433094 0.0075783357 1.9560481e-38
0.025250038 -0.084433094 0.0075783357 1.7255242e-38
0.027034597 -0.085095167 0.0046397075 1.6332583e-38
0.028828923 -0.085784912 0.0015782937 1.6331876e-38
0.030623814 -0.087345809 -0.0053496733 1.6700662e-38
0.032449074 -0.087345809 -0.0053496733 1.8079288e-38
0.034274332 -0.087345809 -0.0053496733 1.9547947e-38
0.03609959 -0.087345809 -0.0053496733 1.4658703e-38
0.037924852 -0.087345809 -0.0053496733 1.3829661e-38
0.03975011 -0.087345809 -0.0053496733 1.5490973e-38
-0.030941952 -0.094171658 -0.027373232 2.3509104e-38
-0.02907807 -0.094171658 -0.027373232 2.2308785e-38
-0.027214203 -0.094171658 -0.027373232 1.7978497e-38
-0.025350321 -0.094171658 -0.027373232 1.6971566e-38
-0.023325358 -0.09348768 -0.024360813 1.6881901e-38
-0.021311838 -0.092807561 -0.021365441 1.9553779e-38
-0.019458491 -0.092807561 -0.021365441 2.130404e-38
-0.017461542 -0.092131287 -0.018386997 2.157847e-38
-0.015613426 -0.092131287 -0.018386997 2.2683007e-38
-0.013584029 -0.091210663 -0.014332451 2.047034e-38
-0.011616763 -0.09054333 -0.011393346 1.4846404e-38
-0.0097809099 -0.09054333 -0.011393346 1.3925881e-38
-0.0079450533 -0.09054333 -0.011393346 1.7337473e-38
-0.0061091967 -0.09054333 -0.011393346 2.2316024e-38
-0.0041644126 -0.089855224 -0.0083628073 2.2591531e-38
-0.002333872 -0.089855224 -0.0083628073 2.2775195e-38
-0.0005033277 -0.089855224 -0.0083628073 2.3142531e-38
0.0013272129 -0.089855224 -0.0083628073 2.2404958e-38
0.0031577535 -0.089855224 -0.0083628073 2.2221624e-38
0.0049882978 -0.089855224 -0.0083628073 1.8167858e-38
0.0068954416 -0.089171067 -0.0053496733 1.8722463e-38
0.0087916143 -0.088490874 -0.0023539439 2.0012861e-38
0.01061162 -0.088490874 -0.0023539439 2.2591489e-38
0.012510914 -0.087598026 0.0015782937 2.249966e-38
0.014434483 -0.086235672 0.0075783357 2.1029196e-38
0.016237076 -0.086235672 0.0075783357 1.9740241e-38
0.01803967 -0.086235672 0.0075783357 1.8543482e-38
0.019842263 -0.086235672 0.0075783357 1.6792831e-38
0.021679338 -0.085548624 0.010604225 1.8361587e-38
0.023476627 -0.085548624 0.010604225 1.9836361e-38
0.025273912 -0.085548624 0.010604225 1.6978299e-38
0.0270712 -0.085548624 0.010604225 1.5041842e-38
0.028855223 -0.086235672 0.0075783357 1.5686859e-38
0.030623814 -0.089171067 -0.0053496733 1.5133333e-38
0.032449074 -0.089171067 -0.0053496733 1.1257164e-38
0.034271706 -0.088490874 -0.0023539439 1.4199518e-38
0.036091715 -0.088490874 -0.0023539439 1.1522608e-38
0.037924852 -0.089171067 -0.0053496733 1.207794e-38
0.03975011 -0.089171067 -0.0053496733 1.2541787e-38
-0.030941952 -0.09603554 -0.027373232 2.3509809e-38
-0.02907807 -0.09603554 -0.027373232 2.2678633e-38
-0.027214203 -0.09603554 -0.027373232 1.8809311e-38
-0.025350321 -0.09603554 -0.027373232 1.853777e-38
-0.023325358 -0.095346272 -0.024360813 1.909275e-38
-0.021311838 -0.094660893 -0.021365441 1.9920716e-38
-0.019458491 -0.094660893 -0.021365441 1.9366829e-38
-0.017461542 -0.093979403 -0.018386997 2.01026e-38
-0.015425038 -0.093051672 -0.014332451 2.1853601e-38
-0.013584029 -0.093051672 -0.014332451 1.991714e-38
-0.011616763 -0.092379183 -0.011393346 1.5123687e-38
-0.0097809099 -0.092379183 -0.011393346 1.2358179e-38
-0.0079450533 -0.092379183 -0.011393346 1.8536365e-38
-0.0061091967 -0.092379183 -0.011393346 2.2591531e-38
-0.0041644126 -0.091685757 -0.0083628073 2.2499694e-38
-0.0022308528 -0.090996325 -0.0053496733 2.2683359e-38
-0.00040559471 -0.090996325 -0.0053496733 2.3234374e-38
0.0014196672 -0.090996325 -0.0053496733 2.323365e-38
0.0032449253 -0.090996325 -0.0053496733 2.2865221e-38
0.0050701834 -0.090996325 -0.0053496733 2.194433e-38
0.0068954416 -0.090996325 -0.0053496733 2.2867002e-38
0.0087916143 -0.090310872 -0.0023539439 2.2775164e-38
0.010764897 -0.088710666 0.0046397075 2.295884e-38
0.012631893 -0.088038266 0.0075783357 2.2867008e-38
0.014434483 -0.088038266 0.0075783357 2.1856806e-38
0.016237076 -0.088038266 0.0075783357 2.1580941e-38
0.018084764 -0.087345913 0.010604225 2.0107243e-38
0.019882053 -0.087345913 0.010604225 1.9647333e-38
0.021679338 -0.087345913 0.010604225 1.9279618e-38
0.023476627 -0.087345913 0.010604225 1.9556554e-38
0.025297649 -0.086657599 0.013612472 1.6883231e-38
0.027108014 -0.085973322 0.016603075 1.5592495e-38
0.028894782 -0.085973322 0.016603075 1.4117011e-38
0.030681551 -0.085973322 0.016603075 1.4669117e-38
0.0324517 -0.090310872 -0.0023539439 1.4020162e-38
0.034271706 -0.090310872 -0.0023539439 1.5121126e-38
0.036091715 -0.090310872 -0.0023539439 1.8253982e-38
0.037924852 -0.090996325 -0.0053496733 1.8163945e-38
-0.032805819 -0.097899407 -0.027373232 1.7976968e-38
-0.030941952 -0.097899407 -0.027373232 1.9914885e-38
-0.02907807 -0.097899407 -0.027373232 2.0375884e-38
-0.027214203 -0.097899407 -0.027373232 1.85345e-38
-0.02518395 -0.097204864 -0.024360813 1.7247717e-38
-0.023325358 -0.097204864 -0.024360813 1.7986721e-38
-0.021157775 -0.09582752 -0.018386997 1.8354789e-38
-0.019309659 -0.09582752 -0.018386997 1.8168965e-38
-0.017266046 -0.094892681 -0.014332451 1.8075699e-38
-0.015425038 -0.094892681 -0.014332451 1.7614371e-38
-0.013452623 -0.094215035 -0.011393346 1.6692779e-38
-0.011616763 -0.094215035 -0.011393346 1.5863745e-38
-0.0096560456 -0.093516305 -0.0083628073 1.6509481e-38
-0.0078254975 -0.093516305 -0.0083628073 2.2132343e-38
-0.0059949569 -0.093516305 -0.0083628073 2.2499688e-38
-0.004056111 -0.092821583 -0.0053496733 2.2591524e-38
-0.0022308528 -0.092821583 -0.0053496733 2.2958866e-38
-0.00040559471 -0.092821583 -0.0053496733 2.3050698e-38
0.0014196672 -0.092821583 -0.0053496733 2.3509879e-38
0.0033315904 -0.092130885 -0.0023539439 2.3140736e-38
0.0051515996 -0.092130885 -0.0023539439 2.3509879e-38
0.0069716051 -0.092130885 -0.0023539439 2.3418035e-38
0.008884687 -0.091224253 0.0015782937 2.295848e-38
0.010764897 -0.0905184 0.0046397075 2.2130505e-38
0.012631893 -0.089840859 0.0075783357 2.2038669e-38
0.014434483 -0.089840859 0.0075783357 2.2407816e-38
0.01628748 -0.089143202 0.010604225 2.2867012e-38
0.018084764 -0.089143202 0.010604225 2.2775182e-38
0.019882053 -0.089143202 0.010604225 2.2315998e-38
0.021713622 -0.088449612 0.013612472 2.1303991e-38
0.023534475 -0.087760091 0.016603075 1.9184194e-38
0.025321243 -0.087760091 0.016603075 1.7156597e-38
0.027126256 -0.087074608 0.019576155 1.724879e-38
0.028907813 -0.087074608 0.019576155 1.1717055e-38
0.03068937 -0.087074608 0.019576155 1.4204553e-38
-0.032805819 -0.099763289 -0.027373232 1.6687657e-38
-0.030941952 -0.099763289 -0.027373232 1.7242994e-38
-0.028901134 -0.099063456 -0.024360813 1.8442995e-38
-0.027042542 -0.099063456 -0.024360813 1.7708311e-38
-0.02518395 -0.099063456 -0.024360813 1.5222979e-38
-0.02316517 -0.098367572 -0.021365441 1.642296e-38
-0.021157775 -0.097675636 -0.018386997 1.7620787e-38
-0.019107055 -0.096733689 -0.014332451 1.8265085e-38
-0.017266046 -0.096733689 -0.014332451 1.7434972e-38
-0.015425038 -0.096733689 -0.014332451 1.4945339e-38
-0.013452623 -0.096050888 -0.011393346 1.3747165e-38
-0.011486579 -0.095346853 -0.0083628073 1.4761327e-38
-0.0095318891 -0.094646841 -0.0053496733 1.6974747e-38
-0.007706631 -0.094646841 -0.0053496733 2.1673142e-38
-0.0058813691 -0.094646841 -0.0053496733 2.1764979e-38
-0.0039484352 -0.093950883 -0.0023539439 2.249967e-38
-0.0021284297 -0.093950883 -0.0023539439 2.2867015e-38
-0.00030842051 -0.093950883 -0.0023539439 2.2313115e-38
0.001511585 -0.093950883 -0.0023539439 2.3048522e-38
0.0033315904 -0.093950883 -0.0023539439 2.3140002e-38
0.0051515996 -0.093950883 -0.0023539439 2.2863778e-38
0.0069716051 -0.093950883 -0.0023539439 2.2404229e-38
0.008884687 -0.093037367 0.0015782937 2.1021995e-38
0.010829303 -0.091643453 0.0075783357 2.1391845e-38
0.012631893 -0.091643453 0.0075783357 2.2130482e-38
0.014490191 -0.09094049 0.010604225 2.2407439e-38
0.016337585 -0.090241626 0.013612472 2.3142509e-38
0.018129598 -0.090241626 0.013612472 2.2958847e-38
0.019960936 -0.089546859 0.016603075 2.2958857e-38
0.02178159 -0.088856161 0.019576155 2.286702e-38
0.023563147 -0.088856161 0.019576155 2.1208563e-38
0.025368825 -0.088145852 0.022633635 1.9641589e-38
0.027145021 -0.088145852 0.022633635 1.9179889e-38
0.028921215 -0.088145852 0.022633635 1.3555955e-38
0.03068937 -0.088856161 0.019576155 1.5029656e-38
-0.032805819 -0.10162716 -0.027373232 1.8163858e-38
-0.030941952 -0.10162716 -0.027373232 1.8535523e-38
-0.028901134 -0.10092205 -0.024360813 1.9828071e-38
-0.027042542 -0.10092205 -0.024360813 1.9001913e-38
-0.025018517 -0.10022092 -0.021365441 1.7622208e-38
-0.023005892 -0.099523753 -0.018386997 1.7715843e-38
-0.021157775 -0.099523753 -0.018386997 1.7715846e-38
-0.019107055 -0.098574698 -0.014332451 1.7807685e-38
-0.017266046 -0.098574698 -0.014332451 1.7807334e-38
-0.015288476 -0.097886756 -0.011393346 1.6701712e-38
-0.013317127 -0.097177386 -0.0083628073 1.6333297e-38
-0.011357147 -0.096472099 -0.0053496733 1.7071227e-38
-0.0095318891 -0.096472099 -0.0053496733 1.6703169e-38
-0.0075884499 -0.095770895 -0.0023539439 1.9928226e-38
-0.0057684407 -0.095770895 -0.0023539439 2.0203736e-38
-0.0039484352 -0.095770895 -0.0023539439 2.1030261e-38
-0.001993984 -0.094850481 0.0015782937 2.0566049e-38
-0.00018087402 -0.094850481 0.0015782937 1.8626344e-38
0.0016322397 -0.094850481 0.0015782937 1.9453227e-38
0.0034453534 -0.094850481 0.0015782937 2.0189716e-38
0.0053416602 -0.094133899 0.0046397075 2.0744329e-38
0.0071494095 -0.094133899 0.0046397075 2.0469173e-38
0.0090267099 -0.093446046 0.0075783357 2.0101097e-38
0.010895621 -0.092737779 0.010604225 2.176133e-38
0.012692906 -0.092737779 0.010604225 2.2958796e-38
0.014545575 -0.09203364 0.013612472 2.2958801e-38
0.016387399 -0.091333628 0.016603075 2.323433e-38
0.018174168 -0.091333628 0.016603075 2.268332e-38
0.020000033 -0.090637714 0.019576155 2.1853213e-38
0.02178159 -0.090637714 0.019576155 2.3050324e-38
0.023592629 -0.089922056 0.022633635 2.3509866e-38
0.025368825 -0.089922056 0.022633635 2.2588986e-38
0.027163669 -0.089210689 0.025672756 2.0836547e-38
0.028934537 -0.089210689 0.025672756 2.055924e-38
-0.034669701 -0.10349102 -0.027373232 1.6316711e-38
-0.032618318 -0.10278064 -0.024360813 1.8441161e-38
-0.030759726 -0.10278064 -0.024360813 1.8075618e-38
-0.028901134 -0.10278064 -0.024360813 1.8355806e-38
-0.026871849 -0.10207425 -0.021365441 1.7252342e-38
-0.025018517 -0.10207425 -0.021365441 1.7070474e-38
-0.023005892 -0.10137187 -0.018386997 1.6150678e-38
-0.020948064 -0.10041572 -0.014332451 1.6519105e-38
-0.019107055 -0.10041572 -0.014332451 1.7809843e-38
-0.017266046 -0.10041572 -0.014332451 1.8456295e-38
-0.015288476 -0.099722609 -0.011393346 1.8180071e-38
-0.013317127 -0.099007934 -0.0083628073 1.7535782e-38
-0.011357147 -0.098297372 -0.0053496733 1.7351753e-38
-0.0094084553 -0.097590908 -0.0023539439 1.7352472e-38
-0.0075884499 -0.097590908 -0.0023539439 1.8734332e-38
-0.0057684407 -0.097590908 -0.0023539439 1.9469021e-38
-0.0038070977 -0.096663594 0.0015782937 1.9559056e-38
-0.001993984 -0.096663594 0.0015782937 1.8263643e-38
-8.1568956e-05 -0.095941633 0.0046397075 1.6323935e-38
0.0017261729 -0.095941633 0.0046397075 1.6320698e-38
0.0036189333 -0.09524864 0.0075783357 1.6320335e-38
0.005421523 -0.09524864 0.0075783357 1.8719215e-38
0.0072241165 -0.09524864 0.0075783357 1.9826278e-38
0.0090983324 -0.094535068 0.010604225 2.0747882e-38
0.010961551 -0.093825653 0.013612472 2.2866949e-38
0.012753561 -0.093825653 0.013612472 2.3417973e-38
0.014600631 -0.093120396 0.016603075 2.3234305e-38
0.016436923 -0.092419267 0.019576155 2.3326139e-38
0.018218476 -0.092419267 0.019576155 2.2038636e-38
0.020000033 -0.092419267 0.019576155 1.9272062e-38
0.021816436 -0.091698244 0.022633635 2.1483692e-38
0.023592629 -0.091698244 0.022633635 2.1666662e-38
0.025368825 -0.091698244 0.022633635 2.148084e-38
0.027163669 -0.090981558 0.025672756 2.0374133e-38
0.028934537 -0.090981558 0.025672756 2.3509863e-38
-0.036533568 -0.10535492 -0.027373232 9.8594337e-39
-0.034669701 -0.10535492 -0.027373232 1.5763539e-38
-0.032618318 -0.10463922 -0.024360813 1.7058229e-38
-0.030578528 -0.1039276 -0.021365441 1.5588131e-38
-0.028725196 -0.1039276 -0.021365441 1.5959434e-38
-0.026702132 -0.10322 -0.018386997 1.5224392e-38
-0.024854016 -0.10322 -0.018386997 1.513221e-38
-0.022789072 -0.10225673 -0.014332451 1.338014e-38
-0.020948064 -0.10225673 -0.014332451 1.4118424e-38
-0.019107055 -0.10225673 -0.014332451 1.6700622e-38
-0.017124329 -0.10155846 -0.011393346 1.7254514e-38
-0.015147667 -0.10083848 -0.0083628073 1.5965215e-38
-0.013182405 -0.10012263 -0.0053496733 1.5322359e-38
-0.011357147 -0.10012263 -0.0053496733 1.5600385e-38
-0.0094084553 -0.099410906 -0.0023539439 1.6430862e-38
-0.0075884499 -0.099410906 -0.0023539439 1.7076587e-38
-0.0056202076 -0.098476708 0.0015782937 1.900982e-38
-0.0038070977 -0.098476708 0.0015782937 1.9652671e-38
-0.001993984 -0.098476708 0.0015782937 1.9004062e-38
-8.1568956e-05 -0.097749382 0.0046397075 1.7894475e-38
0.0017261729 -0.097749382 0.0046397075 1.6415389e-38
0.0036189333 -0.097051233 0.0075783357 1.4755502e-38
0.0055037588 -0.096332356 0.010604225 1.7063261e-38
0.0073010437 -0.096332356 0.010604225 1.9552909e-38
0.0091695376 -0.095617667 0.013612472 2.1211727e-38
0.011027094 -0.094907165 0.016603075 2.2775116e-38
0.012813862 -0.094907165 0.016603075 2.2407774e-38
0.014655363 -0.094200835 0.019576155 2.0104318e-38
0.016436923 -0.094200835 0.019576155 1.7799419e-38
0.018218476 -0.094200835 0.019576155 1.4756963e-38
0.02004024 -0.093474448 0.022633635 1.7060421e-38
0.021816436 -0.093474448 0.022633635 1.9733029e-38
0.023621937 -0.092752427 0.025672756 1.742564e-38
0.025392804 -0.092752427 0.025672756 1.7424575e-38
0.027163669 -0.092752427 0.025672756 1.8160347e-38
0.028934537 -0.092752427 0.025672756 2.3508053e-38
-0.036533568 -0.10721879 -0.027373232 9.7672409e-39
-0.034669701 -0.10721879 -0.027373232 1.4472447e-38
-0.032618318 -0.10649781 -0.024360813 1.4938453e-38
-0.030578528 -0.10578094 -0.021365441 1.5403384e-38
-0.028725196 -0.10578094 -0.021365441 1.5592447e-38
-0.026702132 -0.1050681 -0.018386997 1.3931855e-38
-0.024630081 -0.10409774 -0.014332451 1.4663326e-38
-0.022789072 -0.10409774 -0.014332451 1.4384229e-38
-0.020948064 -0.10409774 -0.014332451 1.2909815e-38
-0.019107055 -0.10409774 -0.014332451 1.4939557e-38
-0.017124329 -0.10339431 -0.011393346 1.6877823e-38
-0.015007664 -0.10194789 -0.0053496733 1.5498479e-38
-0.013182405 -0.10194789 -0.0053496733 1.5501353e-38
-0.011228461 -0.10123092 -0.0023539439 1.6518739e-38
-0.0094084553 -0.10123092 -0.0023539439 1.6521251e-38
-0.0074333213 -0.10028981 0.0015782937 1.7259893e-38
-0.0056202076 -0.10028981 0.0015782937 1.7904539e-38
-0.00369706 -0.099557132 0.0046397075 1.8732859e-38
-0.0018893145 -0.099557132 0.0046397075 1.8269004e-38
1.3750046e-05 -0.098853827 0.0075783357 1.7436362e-38
0.0018163398 -0.098853827 0.0075783357 1.642005e-38
0.0037064739 -0.098129645 0.010604225 1.3653462e-38
0.0055037588 -0.098129645 0.010604225 1.4944917e-38
0.0073775239 -0.09740968 0.013612472 1.9831654e-38
0.0091695376 -0.09740968 0.013612472 2.130573e-38
0.011027094 -0.096693933 0.016603075 1.9645505e-38
0.01287381 -0.095982388 0.019576155 1.697148e-38
0.014655363 -0.095982388 0.019576155 1.5219043e-38
0.016436923 -0.095982388 0.019576155 1.5311225e-38
0.018264044 -0.095250636 0.022633635 1.4942071e-38
0.02004024 -0.095250636 0.022633635 1.8168549e-38
0.021816436 -0.095250636 0.022633635 1.7429908e-38
0.023621937 -0.094523281 0.025672756 1.6506168e-38
0.025392804 -0.094523281 0.025672756 1.3922543e-38
0.027163669 -0.094523281 0.025672756 1.6225287e-38
0.028934537 -0.094523281 0.025672756 2.3509462e-38
-0.039346371 -0.11247168 -0.041430749 9.7647339e-39
-0.036533568 -0.10908265 -0.027373232 1.013495e-38
-0.034669701 -0.10908265 -0.027373232 1.4564288e-38
-0.032618318 -0.1083564 -0.024360813 1.475371e-38
-0.030578528 -0.10763429 -0.021365441 1.4943127e-38
-0.028550256 -0.10691623 -0.018386997 1.4854879e-38
-0.026702132 -0.10691623 -0.018386997 1.3376522e-38
-0.024630081 -0.10593875 -0.014332451 1.4655054e-38
-0.022789072 -0.10593875 -0.014332451 1.5571982e-38
-0.020948064 -0.10593875 -0.014332451 1.3913897e-38
-0.018960189 -0.10523017 -0.011393346 1.4284476e-38
-0.017124329 -0.10523017 -0.011393346 1.5209307e-38
-0.015007664 -0.10377313 -0.0053496733 1.5489847e-38
-0.013182405 -0.10377313 -0.0053496733 1.6970006e-38
-0.011228461 -0.10305093 -0.0023539439 1.761933e-38
-0.0094084553 -0.10305093 -0.0023539439 1.6240349e-38
-0.0074333213 -0.10210292 0.0015782937 1.5689686e-38
-0.0056202076 -0.10210292 0.0015782937 1.5229427e-38
-0.00369706 -0.10136487 0.0046397075 1.6243579e-38
-0.0018893145 -0.10136487 0.0046397075 1.7164096e-38
1.3750046e-05 -0.10065642 0.0075783357 1.7439243e-38
0.0019091852 -0.099926919 0.010604225 1.6883912e-38
0.0037935004 -0.099201679 0.013612472 1.3932928e-38
0.0055855103 -0.099201679 0.013612472 1.4579374e-38
0.0073775239 -0.099201679 0.013612472 1.4855969e-38
0.0092403255 -0.098480701 0.016603075 1.3656371e-38
0.011092253 -0.097763941 0.019576155 1.3931894e-38
0.01287381 -0.097763941 0.019576155 1.3654603e-38
0.014711652 -0.09702684 0.022633635 1.2270589e-38
0.016487848 -0.09702684 0.022633635 1.2730477e-38
0.018264044 -0.09702684 0.022633635 1.3468028e-38
0.02004024 -0.09702684 0.022633635 1.5403402e-38
0.021816436 -0.09702684 0.022633635 1.3373655e-38
0.023621937 -0.09629415 0.025672756 1.3372218e-38
0.025392804 -0.09629415 0.025672756 1.3001647e-38
0.027163669 -0.09629415 0.025672756 1.6134151e-38
0.028921215 -0.09702684 0.022633635 1.8252504e-38
-0.039346371 -0.1143602 -0.041430749 1.0041319e-38
-0.036992673 -0.11264218 -0.034355916 1.0318985e-38
-0.034669701 -0.11094652 -0.027373232 1.4563937e-38
-0.032618318 -0.11021499 -0.024360813 1.4385294e-38
-0.030578528 -0.10948761 -0.021365441 1.4297403e-38
-0.028550256 -0.10876434 -0.018386997 1.4025121e-38
-0.02647109 -0.10777976 -0.014332451 1.2820467e-38
-0.024630081 -0.10777976 -0.014332451 1.7597035e-38
-0.022789072 -0.10777976 -0.014332451 1.9156458e-38
-0.020796042 -0.10706602 -0.011393346 1.8881307e-38
-0.018960189 -0.10706602 -0.011393346 1.9252604e-38
-0.017124329 -0.10706602 -0.011393346 1.814949e-38
-0.015007664 -0.10559841 -0.0053496733 1.7508793e-38
-0.013182405 -0.10559841 -0.0053496733 1.9081874e-38
-0.011228461 -0.10487093 -0.0023539439 1.9179822e-38
-0.0094084553 -0.10487093 -0.0023539439 1.8171065e-38
-0.0074333213 -0.10391603 0.0015782937 1.6884279e-38
-0.0056202076 -0.10391603 0.0015782937 1.5410951e-38
-0.00369706 -0.10317262 0.0046397075 1.587337e-38
-0.0017888434 -0.10245901 0.0075783357 1.6795329e-38
0.00011189654 -0.10172421 0.010604225 1.7716566e-38
0.0020014867 -0.10099369 0.013612472 1.8084272e-38
0.0037935004 -0.10099369 0.013612472 1.5779019e-38
0.0055855103 -0.10099369 0.013612472 1.2922022e-38
0.0074535571 -0.10026747 0.016603075 1.1078112e-38
0.0093106963 -0.099545494 0.019576155 9.9710569e-39
0.011092253 -0.099545494 0.019576155 1.2920252e-38
0.012935456 -0.098803028 0.022633635 1.3656033e-38
0.014711652 -0.098803028 0.022633635 1.0797257e-38
0.016487848 -0.098803028 0.022633635 1.1625225e-38
0.018264044 -0.098803028 0.022633635 1.4666234e-38
0.02004024 -0.098803028 0.022633635 1.5311227e-38
0.021816436 -0.098803028 0.022633635 1.1069135e-38
0.023621937 -0.098065019 0.025672756 1.0421958e-38
0.025392804 -0.098065019 0.025672756 1.2356627e-38
0.027145021 -0.098803028 0.022633635 1.6502212e-38
-0.039346371 -0.11624874 -0.041430749 1.0317904e-38
-0.036533568 -0.11281042 -0.027373232 1.0135674e-38
-0.03447691 -0.11207359 -0.024360813 1.4195879e-38
-0.032431874 -0.11134095 -0.021365441 1.4016159e-38
-0.030578528 -0.11134095 -0.021365441 1.3836072e-38
-0.028550256 -0.11061247 -0.018386997 1.347195e-38
-0.02647109 -0.10962076 -0.014332451 1.2450966e-38
-0.024630081 -0.10962076 -0.014332451 1.6672918e-38
-0.022789072 -0.10962076 -0.014332451 1.7586971e-38
-0.020796042 -0.10890187 -0.011393346 1.9062817e-38
-0.018960189 -0.10890187 -0.011393346 2.1462419e-38
-0.017124329 -0.10890187 -0.011393346 2.0266753e-38
-0.015007664 -0.10742365 -0.0053496733 1.8520068e-38
-0.013182405 -0.10742365 -0.0053496733 2.0737798e-38
-0.011228461 -0.10669093 -0.0023539439 2.1757343e-38
-0.0094084553 -0.10669093 -0.0023539439 2.0195774e-38
-0.0074333213 -0.10572915 0.0015782937 1.9463244e-38
-0.0056202076 -0.10572915 0.0015782937 1.8267224e-38
-0.00369706 -0.10498036 0.0046397075 1.7624376e-38
-0.0017888434 -0.10426159 0.0075783357 1.7071567e-38
0.00011189654 -0.10352151 0.010604225 1.7255602e-38
0.0020014867 -0.10278571 0.013612472 1.8269038e-38
0.0037935004 -0.10278571 0.013612472 1.6886456e-38
0.0055855103 -0.10278571 0.013612472 1.2923467e-38
0.0074535571 -0.10205424 0.016603075 1.0526375e-38
0.0093106963 -0.10132705 0.019576155 9.6966196e-39
0.011092253 -0.10132705 0.019576155 1.3291179e-38
0.012935456 -0.10057923 0.022633635 1.3473789e-38
0.014711652 -0.10057923 0.022633635 9.2306445e-39
0.016487848 -0.10057923 0.022633635 9.5054461e-39
0.018264044 -0.10057923 0.022633635 1.3099637e-38
0.02004024 -0.10057923 0.022633635 1.3282217e-38
0.02185107 -0.099835888 0.025672756 1.1159903e-38
0.023621937 -0.099835888 0.025672756 1.0698192e-38
0.025392804 -0.099835888 0.025672756 1.3184956e-38
0.027145021 -0.10057923 0.022633635 1.3735267e-38
-0.039346371 -0.11813726 -0.041430749 1.0319338e-38
-0.036533568 -0.11467429 -0.027373232 9.9516461e-39
-0.03447691 -0.11393218 -0.024360813 1.3919295e-38
-0.032431874 -0.1131943 -0.021365441 1.3739574e-38
-0.030578528 -0.1131943 -0.021365441 1.3559487e-38
-0.028550256 -0.11246057 -0.018386997 1.3563427e-38
-0.02647109 -0.11146177 -0.014332451 1.2451685e-38
-0.024630081 -0.11146177 -0.014332451 1.5018792e-38
-0.022789072 -0.11146177 -0.014332451 1.5473306e-38
-0.020796042 -0.11073773 -0.011393346 1.6303066e-38
-0.018960189 -0.11073773 -0.011393346 1.824061e-38
-0.017124329 -0.11073773 -0.011393346 1.7320448e-38
-0.015007664 -0.10924892 -0.0053496733 1.6862704e-38
-0.013182405 -0.10924892 -0.0053496733 1.9817281e-38
-0.011228461 -0.10851096 -0.0023539439 2.10205e-38
-0.0094084553 -0.10851096 -0.0023539439 1.908871e-38
-0.0074333213 -0.10754226 0.0015782937 1.9461812e-38
-0.0056202076 -0.10754226 0.0015782937 1.9188109e-38
-0.00369706 -0.10678811 0.0046397075 1.9097356e-38
-0.0017888434 -0.10606419 0.0075783357 1.7806983e-38
0.00011189654 -0.1053188 0.010604225 1.7069423e-38
0.0020014867 -0.10457774 0.013612472 1.7345293e-38
0.0037935004 -0.10457774 0.013612472 1.5686484e-38
0.0055855103 -0.10457774 0.013612472 1.3846142e-38
0.0075291432 -0.1031086 0.019576155 1.089731e-38
0.0093106963 -0.1031086 0.019576155 9.2367093e-39
0.011092253 -0.1031086 0.019576155 1.1817114e-38
0.012935456 -0.10235542 0.022633635 1.2460695e-38
0.014711652 -0.10235542 0.022633635 9.0480356e-39
0.016538471 -0.10160676 0.025672756 9.3217611e-39
0.018309336 -0.10160676 0.025672756 1.1809251e-38
0.020080205 -0.10160676 0.025672756 1.3558807e-38
0.02185107 -0.10160676 0.025672756 1.0145402e-38
0.023621937 -0.10160676 0.025672756 7.6535923e-39
0.025392804 -0.10160676 0.025672756 1.281439e-38
-0.039346371 -0.12002577 -0.041430749 1.0136021e-38
-0.036533568 -0.11653815 -0.027373232 9.6761383e-39
-0.03447691 -0.11579077 -0.024360813 1.3643071e-38
-0.032618318 -0.11579077 -0.024360813 1.3555185e-38
-0.030578528 -0.11504765 -0.021365441 1.3558771e-38
-0.028725196 -0.11504765 -0.021365441 1.3746737e-38
-0.026702132 -0.1143087 -0.018386997 1.1993943e-38
-0.024630081 -0.11330278 -0.014332451 1.3183521e-38
-0.022789072 -0.11330278 -0.014332451 1.5207876e-38
-0.020796042 -0.11257361 -0.011393346 1.511568e-38
-0.018960189 -0.11257361 -0.011393346 1.4562504e-38
-0.017124329 -0.11257361 -0.011393346 1.4009685e-38
-0.015007664 -0.11107419 -0.0053496733 1.5025271e-38
-0.013182405 -0.11107419 -0.0053496733 1.7240482e-38
-0.011228461 -0.11033095 -0.0023539439 1.6874576e-38
-0.0094084553 -0.11033095 -0.0023539439 1.6325002e-38
-0.0074333213 -0.10935538 0.0015782937 1.7156924e-38
-0.0056202076 -0.10935538 0.0015782937 1.7620423e-38
-0.00369706 -0.10859586 0.0046397075 1.8727854e-38
-0.0017888434 -0.10786678 0.0075783357 1.8727501e-38
0.00011189654 -0.10711606 0.010604225 1.7988862e-38
0.0020014867 -0.10636975 0.013612472 1.7158388e-38
0.0038800202 -0.10562779 0.016603075 1.4117719e-38
0.0056667887 -0.10562779 0.016603075 1.3937261e-38
0.0075291432 -0.10489015 0.019576155 1.3017452e-38
0.0093106963 -0.10489015 0.019576155 1.1818188e-38
0.011092253 -0.10489015 0.019576155 1.2462483e-38
0.012935456 -0.10413162 0.022633635 1.1632009e-38
0.014711652 -0.10413162 0.022633635 8.8643492e-39
0.016538471 -0.10337763 0.025672756 8.953682e-39
0.018309336 -0.10337763 0.025672756 1.0518135e-38
0.020080205 -0.10337763 0.025672756 1.0054643e-38
0.02185107 -0.10337763 0.025672756 9.0383331e-39
0.023621937 -0.10337763 0.025672756 8.7588651e-39
0.025392804 -0.10337763 0.025672756 1.3734915e-38
-0.041234899 -0.12191428 -0.041430749 9.8597854e-39
-0.039346371 -0.12191428 -0.041430749 9.8605099e-39
-0.036533568 -0.11840202 -0.027373232 9.4924631e-39
-0.034669701 -0.11840202 -0.027373232 1.3643071e-38
-0.032618318 -0.11764936 -0.024360813 1.3554829e-38
-0.030578528 -0.11690097 -0.021365441 1.3558771e-38
-0.028725196 -0.11690097 -0.021365441 1.3562345e-38
-0.026702132 -0.1161568 -0.018386997 1.1075587e-38
-0.024630081 -0.11514379 -0.014332451 9.0480356e-39
-0.022789072 -0.11514379 -0.014332451 1.2274178e-38
-0.020796042 -0.11440946 -0.011393346 1.2733711e-38
-0.018960189 -0.11440946 -0.011393346 1.1994704e-38
-0.017124329 -0.11440946 -0.011393346 1.2178011e-38
-0.015147667 -0.11365227 -0.0083628073 1.3191797e-38
-0.013182405 -0.11289944 -0.0053496733 1.4391055e-38
-0.011228461 -0.11215095 -0.0023539439 1.3654566e-38
-0.0094084553 -0.11215095 -0.0023539439 1.4208459e-38
-0.0074333213 -0.11116849 0.0015782937 1.4670157e-38
-0.0055048056 -0.11040358 0.0046397075 1.4947466e-38
-0.00369706 -0.11040358 0.0046397075 1.642224e-38
-0.0017888434 -0.10966937 0.0075783357 1.7342403e-38
0.00011189654 -0.10891335 0.010604225 1.7341686e-38
0.0020014867 -0.10816176 0.013612472 1.6879272e-38
0.0038800202 -0.10741456 0.016603075 1.3746773e-38
0.0056667887 -0.10741456 0.016603075 1.3752157e-38
0.0075291432 -0.10667174 0.019576155 1.476882e-38
0.0093106963 -0.10667174 0.019576155 1.4582996e-38
0.011159264 -0.10590781 0.022633635 1.4121658e-38
0.012935456 -0.10590781 0.022633635 1.2645086e-38
0.014711652 -0.10590781 0.022633635 9.8777753e-39
0.016538471 -0.10514848 0.025672756 9.2302465e-39
0.018309336 -0.10514848 0.025672756 9.2284486e-39
0.020080205 -0.10514848 0.025672756 1.060851e-38
0.02185107 -0.10514848 0.025672756 7.4713507e-39
0.023621937 -0.10514848 0.025672756 7.1908191e-39
-0.041234899 -0.12380283 -0.041430749 9.5831985e-39
-0.039346371 -0.12380283 -0.041430749 9.6761186e-39
-0.036533568 -0.12026589 -0.027373232 9.4009863e-39
-0.034669701 -0.12026589 -0.027373232 1.3551955e-38
-0.032618318 -0.11950795 -0.024360813 1.3371514e-38
-0.030759726 -0.11950795 -0.024360813 1.3466572e-38
-0.028725196 -0.11875431 -0.021365441 1.3469787e-38
-0.026702132 -0.11800493 -0.018386997 1.0615688e-38
-0.024630081 -0.1169848 -0.014332451 1.0619326e-38
-0.022789072 -0.1169848 -0.014332451 1.3017871e-38
-0.020796042 -0.11624531 -0.011393346 1.2832395e-38
-0.018960189 -0.11624531 -0.011393346 1.2185581e-38
-0.016978208 -0.11548282 -0.0083628073 1.2183777e-38
-0.015147667 -0.11548282 -0.0083628073 1.1537681e-38
-0.013182405 -0.11472471 -0.0053496733 1.2090489e-38
-0.011228461 -0.11397095 -0.0023539439 1.2551823e-38
-0.0094084553 -0.11397095 -0.0023539439 1.2828408e-38
-0.0074333213 -0.1129816 0.0015782937 1.3104995e-38
-0.0055048056 -0.11221133 0.0046397075 1.2736213e-38
-0.00369706 -0.11221133 0.0046397075 1.3289386e-38
-0.0017888434 -0.11147197 0.0075783357 1.3748568e-38
0.00011189654 -0.11071064 0.010604225 1.4301023e-38
0.0020014867 -0.10995375 0.013612472 1.5037868e-38
0.0038800202 -0.10920133 0.016603075 1.3102834e-38
0.0056667887 -0.10920133 0.016603075 1.2830198e-38
0.0075291432 -0.10845329 0.019576155 1.3753592e-38
0.0093106963 -0.10845329 0.019576155 1.329226e-38
0.011159264 -0.107684 0.022633635 1.4490085e-38
0.012935456 -0.107684 0.022633635 1.5872656e-38
0.014711652 -0.107684 0.022633635 1.5594982e-38
0.016538471 -0.10691936 0.025672756 1.4855972e-38
0.018309336 -0.10691936 0.025672756 1.3839659e-38
0.020080205 -0.10691936 0.025672756 1.3559122e-38
0.021884356 -0.10618456 0.028593265 8.7613636e-39
0.0236501 -0.10618456 0.028593265 8.4811922e-39
0.025415845 -0.10618456 0.028593265 9.3999171e-39
-0.041234899 -0.12569134 -0.041430749 1.0411886e-38
-0.039346371 -0.12569134 -0.041430749 9.5846475e-39
-0.036533568 -0.12212978 -0.027373232 9.218037e-39
-0.03447691 -0.12136655 -0.024360813 1.3277526e-38
-0.032618318 -0.12136655 -0.024360813 1.3925406e-38
-0.030759726 -0.12136655 -0.024360813 1.3190703e-38
-0.028725196 -0.12060766 -0.021365441 1.3193554e-38
-0.026702132 -0.11985306 -0.018386997 1.4025847e-38
-0.024630081 -0.11882581 -0.014332451 1.2458933e-38
-0.022789072 -0.11882581 -0.014332451 1.5225544e-38
-0.020796042 -0.11808117 -0.011393346 1.3565658e-38
-0.018960189 -0.11808117 -0.011393346 1.190649e-38
-0.016978208 -0.11731337 -0.0083628073 1.4210653e-38
-0.015147667 -0.11731337 -0.0083628073 1.3381246e-38
-0.013182405 -0.11654995 -0.0053496733 1.1261821e-38
-0.011228461 -0.11579098 -0.0023539439 1.292134e-38
-0.0094084553 -0.11579098 -0.0023539439 1.2922058e-38
-0.0074333213 -0.11479472 0.0015782937 1.3475948e-38
-0.0055048056 -0.11401908 0.0046397075 1.2922773e-38
-0.00369706 -0.11401908 0.0046397075 1.1449075e-38
-0.0017888434 -0.11327456 0.0075783357 1.1264681e-38
0.00011189654 -0.11250792 0.010604225 1.2186992e-38
0.0020014867 -0.11174576 0.013612472 1.2463932e-38
0.0038800202 -0.1109881 0.016603075 1.1910034e-38
0.0056667887 -0.1109881 0.016603075 1.3014941e-38
0.0075291432 -0.11023484 0.019576155 1.2461767e-38
0.0093106963 -0.11023484 0.019576155 1.3661032e-38
0.011159264 -0.10946019 0.022633635 1.5136523e-38
0.012935456 -0.10946019 0.022633635 1.4859936e-38
0.014711652 -0.10946019 0.022633635 1.4490435e-38
0.016538471 -0.10869022 0.025672756 1.5595343e-38
0.018309336 -0.10869022 0.025672756 1.7067597e-38
0.020080205 -0.10869022 0.025672756 1.5772908e-38
0.021884356 -0.10795029 0.028593265 8.3933042e-39
0.0236501 -0.10795029 0.028593265 8.1127656e-39
0.025415845 -0.10795029 0.028593265 9.9534412e-39
-0.038397435 -0.12399365 -0.027373232 9.4920959e-39
-0.036533568 -0.12399365 -0.027373232 8.7577819e-39
-0.03447691 -0.12322514 -0.024360813 1.2909465e-38
-0.032618318 -0.12322514 -0.024360813 1.3465147e-38
-0.030759726 -0.12322514 -0.024360813 1.2730804e-38
-0.028550256 -0.12170117 -0.018386997 1.3470141e-38
-0.026702132 -0.12170117 -0.018386997 1.5314788e-38
-0.024630081 -0.12066682 -0.014332451 1.6513386e-38
-0.022789072 -0.12066682 -0.014332451 1.8264765e-38
-0.020796042 -0.11991702 -0.011393346 1.7803783e-38
-0.018960189 -0.11991702 -0.011393346 1.3378746e-38
-0.016978208 -0.11914389 -0.0083628073 1.1259677e-38
-0.015147667 -0.11914389 -0.0083628073 1.3380171e-38
-0.013048474 -0.11761098 -0.0023539439 1.4211006e-38
-0.011228461 -0.11761098 -0.0023539439 1.3658553e-38
-0.0094084553 -0.11761098 -0.0023539439 1.3567075e-38
-0.0074333213 -0.11660783 0.0015782937 1.2830228e-38
-0.0055048056 -0.11582683 0.0046397075 1.209374e-38
-0.0035914369 -0.11507715 0.0075783357 1.2002257e-38
-0.0016853884 -0.11430521 0.010604225 1.2095886e-38
0.00011189654 -0.11430521 0.010604225 1.2188435e-38
0.0020014867 -0.11353777 0.013612472 1.2096954e-38
0.0038800202 -0.11277486 0.016603075 1.2187705e-38
0.0056667887 -0.11277486 0.016603075 1.2369574e-38
0.0075291432 -0.11201639 0.019576155 1.2552523e-38
0.0093106963 -0.11201639 0.019576155 1.3568117e-38
0.011159264 -0.11123641 0.022633635 1.4768098e-38
0.012935456 -0.11123641 0.022633635 1.4492233e-38
0.014711652 -0.11123641 0.022633635 1.4306765e-38
0.016538471 -0.11046107 0.025672756 1.5503151e-38
0.018309336 -0.11046107 0.025672756 1.6883571e-38
0.020080205 -0.11046107 0.025672756 1.6141693e-38
0.021884356 -0.10971604 0.028593265 8.6698911e-39
0.0236501 -0.10971604 0.028593265 8.388628e-39
0.025392804 -0.11046107 0.025672756 9.9530797e-39
-0.038397435 -0.12585752 -0.027373232 9.3077103e-39
-0.036533568 -0.12585752 -0.027373232 8.9410942e-39
-0.03447691 -0.12508373 -0.024360813 1.3185333e-38
-0.032618318 -0.12508373 -0.024360813 1.3465147e-38
-0.030759726 -0.12508373 -0.024360813 1.2454218e-38
-0.028550256 -0.1235493 -0.018386997 1.3193916e-38
-0.026702132 -0.1235493 -0.018386997 1.5591376e-38
-0.024630081 -0.12250783 -0.014332451 1.5958766e-38
-0.022631902 -0.12175287 -0.011393346 1.8263679e-38
-0.020796042 -0.12175287 -0.011393346 1.9554771e-38
-0.018808756 -0.12097444 -0.0083628073 1.4484366e-38
-0.016978208 -0.12097444 -0.0083628073 1.1811406e-38
-0.015007664 -0.12020047 -0.0053496733 1.4485076e-38
-0.013048474 -0.11943097 -0.0023539439 1.4670185e-38
-0.011228461 -0.11943097 -0.0023539439 1.3749308e-38
-0.0094084553 -0.11943097 -0.0023539439 1.4118092e-38
-0.0074333213 -0.11842094 0.0015782937 1.3750028e-38
-0.0053940266 -0.11687975 0.0075783357 1.3473441e-38
-0.0035914369 -0.11687975 0.0075783357 1.3566357e-38
-0.0016853884 -0.1161025 0.010604225 1.430464e-38
0.0002094768 -0.11532979 0.013612472 1.4765974e-38
0.0020014867 -0.11532979 0.013612472 1.4028769e-38
0.0038800202 -0.11456163 0.016603075 1.3106804e-38
0.0056667887 -0.11456163 0.016603075 1.356597e-38
0.0075291432 -0.11379795 0.019576155 1.3841831e-38
0.0093106963 -0.11379795 0.019576155 1.4488999e-38
0.011092253 -0.11379795 0.019576155 1.5227284e-38
0.012935456 -0.1130126 0.022633635 1.485922e-38
0.014711652 -0.1130126 0.022633635 1.3937264e-38
0.016487848 -0.1130126 0.022633635 1.4303889e-38
0.018309336 -0.11223195 0.025672756 1.5499195e-38
0.020080205 -0.11223195 0.025672756 1.6324284e-38
0.02185107 -0.11223195 0.025672756 9.1294273e-39
0.023621937 -0.11223195 0.025672756 8.9403599e-39
0.025392804 -0.11223195 0.025672756 1.0227866e-38
-0.044039655 -0.13469382 -0.054333724 1.0133166e-38
-0.041925389 -0.13393532 -0.051400818 1.0503378e-38
-0.038868789 -0.12952723 -0.034355916 9.3073529e-39
-0.036533568 -0.12772138 -0.027373232 9.2176838e-39
-0.034669701 -0.12772138 -0.027373232 1.38307e-38
-0.032618318 -0.12694232 -0.024360813 1.383393e-38
-0.030759726 -0.12694232 -0.024360813 1.2177631e-38
-0.028725196 -0.12616767 -0.021365441 1.2640389e-38
-0.026702132 -0.1253974 -0.018386997 1.5038203e-38
-0.024630081 -0.12434883 -0.014332451 1.5866205e-38
-0.022631902 -0.12358873 -0.011393346 1.9184545e-38
-0.020639289 -0.12280498 -0.0083628073 1.9184898e-38
-0.018808756 -0.12280498 -0.0083628073 1.3745353e-38
-0.016832922 -0.12202574 -0.0053496733 1.2824471e-38
-0.015007664 -0.12202574 -0.0053496733 1.4207405e-38
-0.013048474 -0.121251 -0.0023539439 1.3654951e-38
-0.011228461 -0.121251 -0.0023539439 1.706619e-38
-0.009246435 -0.12023406 0.0015782937 1.7434975e-38
-0.0073125474 -0.11944233 0.0046397075 1.8080706e-38
-0.0053940266 -0.11868234 0.0075783357 1.7343147e-38
-0.003482677 -0.11789979 0.010604225 1.5775465e-38
-0.0016853884 -0.11789979 0.010604225 1.6513752e-38
0.0002094768 -0.1171218 0.013612472 1.8634251e-38
0.0020014867 -0.1171218 0.013612472 1.8449503e-38
0.0038800202 -0.1163484 0.016603075 1.6329711e-38
0.0056667887 -0.1163484 0.016603075 1.4670174e-38
0.0075291432 -0.1155795 0.019576155 1.476272e-38
0.0093106963 -0.1155795 0.019576155 1.4580125e-38
0.011092253 -0.1155795 0.019576155 1.4949624e-38
0.012935456 -0.11478879 0.022633635 1.5042896e-38
0.014711652 -0.11478879 0.022633635 1.4765586e-38
0.016487848 -0.11478879 0.022633635 1.4855983e-38
0.018309336 -0.11400281 0.025672756 1.595981e-38
0.020080205 -0.11400281 0.025672756 1.586258e-38
0.02185107 -0.11400281 0.025672756 9.1287014e-39
0.023621937 -0.11400281 0.025672756 9.2162251e-39
0.025392804 -0.11400281 0.025672756 1.0780317e-38
-0.043831382 -0.13584132 -0.051400818 1.0501957e-38
-0.040957499 -0.13220255 -0.037425436 1.0410832e-38
-0.038868789 -0.13140334 -0.034355916 9.3069998e-39
-0.036533568 -0.12958528 -0.027373232 9.3091606e-39
-0.034669701 -0.12958528 -0.027373232 1.3737425e-38
-0.032618318 -0.12880091 -0.024360813 1.3649538e-38
-0.030759726 -0.12880091 -0.024360813 1.2085436e-38
-0.028725196 -0.12802102 -0.021365441 1.2456724e-38
-0.026702132 -0.12724553 -0.018386997 1.4854174e-38
-0.024630081 -0.12618984 -0.014332451 1.6142423e-38
-0.022631902 -0.12542458 -0.011393346 1.8999783e-38
-0.020639289 -0.12463553 -0.0083628073 1.9000136e-38
-0.018808756 -0.12463553 -0.0083628073 1.5220112e-38
-0.016832922 -0.12385099 -0.0053496733 1.485133e-38
-0.014868472 -0.123071 -0.0023539439 1.5681089e-38
-0.013048474 -0.123071 -0.0023539439 1.5127917e-38
-0.011228461 -0.123071 -0.0023539439 1.743281e-38
-0.009246435 -0.12204717 0.0015782937 1.8723193e-38
-0.0073125474 -0.12125005 0.0046397075 1.9184175e-38
-0.0053940266 -0.12048493 0.0075783357 1.7985282e-38
-0.003482677 -0.11969708 0.010604225 1.6140659e-38
-0.0016853884 -0.11969708 0.010604225 1.6878229e-38
0.0002094768 -0.11891381 0.013612472 1.9274961e-38
0.0020014867 -0.11891381 0.013612472 1.9828138e-38
0.0038800202 -0.11813517 0.016603075 1.8262243e-38
0.0056667887 -0.11813517 0.016603075 1.7526093e-38
0.0074535571 -0.11813517 0.016603075 1.7711912e-38
0.0092403255 -0.11813517 0.016603075 1.6883585e-38
0.011092253 -0.11736105 0.019576155 1.6331844e-38
0.012935456 -0.11656497 0.022633635 1.6516952e-38
0.014767606 -0.11577369 0.025672756 1.5502435e-38
0.016538471 -0.11577369 0.025672756 1.4578315e-38
0.018309336 -0.11577369 0.025672756 1.5220804e-38
0.020080205 -0.11577369 0.025672756 1.521613e-38
0.02185107 -0.11577369 0.025672756 9.0354254e-39
0.023621937 -0.11577369 0.025672756 9.6757613e-39
0.025392804 -0.11577369 0.025672756 1.1240213e-38
-0.043831382 -0.13774733 -0.051400818 9.7647592e-39
-0.040957499 -0.13408406 -0.037425436 1.0318638e-38
-0.038868789 -0.13327946 -0.034355916 9.4906708e-39
-0.036533568 -0.13144915 -0.027373232 8.8485384e-39
-0.034669701 -0.13144915 -0.027373232 1.2815822e-38
-0.032618318 -0.13065951 -0.024360813 1.2911969e-38
-0.030759726 -0.13065951 -0.024360813 1.2177991e-38
-0.028725196 -0.12987436 -0.021365441 1.2918422e-38
-0.026702132 -0.12909363 -0.018386997 1.522296e-38
-0.024630081 -0.12803085 -0.014332451 1.4851679e-38
-0.022631902 -0.12726043 -0.011393346 1.4850611e-38
-0.020639289 -0.12646608 -0.0083628073 1.5496338e-38
-0.018808756 -0.12646608 -0.0083628073 1.5496335e-38
-0.016832922 -0.12567626 -0.0053496733 1.5865117e-38
-0.014868472 -0.124891 -0.0023539439 1.8538791e-38
-0.013048474 -0.124891 -0.0023539439 1.8538791e-38
-0.011059541 -0.12386028 0.0015782937 1.4482186e-38
-0.009246435 -0.12386028 0.0015782937 1.51272e-38
-0.0073125474 -0.1230578 0.0046397075 1.5033933e-38
-0.0053940266 -0.12228753 0.0075783357 1.5402364e-38
-0.0035914369 -0.12228753 0.0075783357 1.678387e-38
-0.0016853884 -0.12149437 0.010604225 1.8074257e-38
0.00011189654 -0.12149437 0.010604225 1.8534885e-38
0.0020014867 -0.12070583 0.013612472 1.8350498e-38
0.0037935004 -0.12070583 0.013612472 1.7890592e-38
0.0055855103 -0.12070583 0.013612472 1.8078201e-38
0.0074535571 -0.11992194 0.016603075 1.9832061e-38
0.0092403255 -0.11992194 0.016603075 2.0293753e-38
0.011092253 -0.11914261 0.019576155 1.9927123e-38
0.012935456 -0.11834116 0.022633635 1.9559051e-38
0.014767606 -0.11754455 0.025672756 1.6977565e-38
0.016538471 -0.11754455 0.025672756 1.3932945e-38
0.018309336 -0.11754455 0.025672756 1.3376889e-38
0.020080205 -0.11754455 0.025672756 1.4663312e-38
0.02185107 -0.11754455 0.025672756 9.0343436e-39
0.0236501 -0.11677901 0.028593265 9.7683115e-39
0.025415845 -0.11677901 0.028593265 1.1423881e-38
-0.041234899 -0.13702248 -0.041430749 1.0133891e-38
-0.03867038 -0.13437997 -0.031416573 9.5828664e-39
-0.036533568 -0.13331302 -0.027373232 8.9400081e-39
-0.034669701 -0.13331302 -0.027373232 1.2354479e-38
-0.032618318 -0.1325181 -0.024360813 1.2635016e-38
-0.030759726 -0.1325181 -0.024360813 1.2454936e-38
-0.028725196 -0.13172771 -0.021365441 1.2919501e-38
-0.02647109 -0.12987186 -0.014332451 1.4578669e-38
-0.024467755 -0.12909628 -0.011393346 1.5589601e-38
-0.022469837 -0.1282966 -0.0083628073 1.4666574e-38
-0.020639289 -0.1282966 -0.0083628073 1.3468031e-38
-0.018658187 -0.1275015 -0.0053496733 1.4666574e-38
-0.016688485 -0.126711 -0.0023539439 1.4574378e-38
-0.014868472 -0.126711 -0.0023539439 1.6326093e-38
-0.012872655 -0.1256734 0.0015782937 1.955294e-38
-0.011059541 -0.1256734 0.0015782937 1.6879266e-38
-0.009246435 -0.1256734 0.0015782937 1.5772206e-38
-0.0073125474 -0.12486555 0.0046397075 1.5218677e-38
-0.0053940266 -0.12409012 0.0075783357 1.6231398e-38
-0.0035914369 -0.12409012 0.0075783357 1.8627774e-38
-0.0016853884 -0.12329166 0.010604225 2.0378784e-38
0.00011189654 -0.12329166 0.010604225 2.0194041e-38
0.0020014867 -0.12249784 0.013612472 1.9455048e-38
0.0037935004 -0.12249784 0.013612472 1.8627081e-38
0.0055855103 -0.12249784 0.013612472 1.6048463e-38
0.0074535571 -0.12170871 0.016603075 1.8817558e-38
0.0092403255 -0.12170871 0.016603075 1.9833142e-38
0.011092253 -0.12092416 0.019576155 1.9373594e-38
0.012935456 -0.12011738 0.022633635 1.9098075e-38
0.014767606 -0.11931543 0.025672756 1.6793173e-38
0.016538471 -0.11931543 0.025672756 1.4486476e-38
0.018309336 -0.11931543 0.025672756 1.4852016e-38
0.020080205 -0.11931543 0.025672756 1.4478915e-38
0.02185107 -0.11931543 0.025672756 8.8513844e-39
0.0236501 -0.11854477 0.028593265 9.9526999e-39
0.025415845 -0.11854477 0.028593265 1.1516075e-38
-0.04054134 -0.13625093 -0.031416573 9.8573065e-39
-0.03867038 -0.13625093 -0.031416573 9.766536e-39
-0.036533568 -0.13517688 -0.027373232 9.3084235e-39
-0.034669701 -0.13517688 -0.027373232 1.2630698e-38
-0.032618318 -0.13437669 -0.024360813 1.2911958e-38
-0.030759726 -0.13437669 -0.024360813 1.2639324e-38
-0.028725196 -0.13358103 -0.021365441 1.2550363e-38
-0.02647109 -0.13171287 -0.014332451 1.3380489e-38
-0.024467755 -0.13093217 -0.011393346 1.5498126e-38
-0.022469837 -0.13012715 -0.0083628073 1.918416e-38
-0.020639289 -0.13012715 -0.0083628073 1.8170011e-38
-0.018658187 -0.12932678 -0.0053496733 1.8723545e-38
-0.016688485 -0.12853102 -0.0023539439 1.586548e-38
-0.014868472 -0.12853102 -0.0023539439 1.1717033e-38
-0.012872655 -0.12748651 0.0015782937 1.614242e-38
-0.011059541 -0.12748651 0.0015782937 2.0383419e-38
-0.009246435 -0.12748651 0.0015782937 2.0106113e-38
-0.0073125474 -0.1266733 0.0046397075 1.8999769e-38
-0.0053940266 -0.12589271 0.0075783357 1.8076019e-38
-0.0035914369 -0.12589271 0.0075783357 1.8167864e-38
-0.0016853884 -0.12508895 0.010604225 1.9734122e-38
0.00011189654 -0.12508895 0.010604225 2.1115626e-38
0.0020014867 -0.12428986 0.013612472 2.0654299e-38
0.0037935004 -0.12428986 0.013612472 1.936428e-38
0.0055855103 -0.12428986 0.013612472 1.7800183e-38
0.0074535571 -0.12349547 0.016603075 1.9462574e-38
0.0092403255 -0.12349547 0.016603075 1.8081428e-38
0.011092253 -0.12270571 0.019576155 1.5132598e-38
0.012935456 -0.12189357 0.022633635 1.393512e-38
0.014767606 -0.12108628 0.025672756 1.2736566e-38
0.016538471 -0.12108628 0.025672756 1.2826955e-38
0.018352862 -0.1203105 0.028593265 1.5313711e-38
0.020118609 -0.1203105 0.028593265 1.4295241e-38
0.021884356 -0.1203105 0.028593265 8.7599063e-39
0.023621937 -0.12108628 0.025672756 9.7693849e-39
-0.040957499 -0.13972856 -0.037425436 1.1977443e-38
-0.03867038 -0.13812189 -0.031416573 9.4892261e-39
-0.03679942 -0.13812189 -0.031416573 9.3991744e-39
-0.034669701 -0.13704078 -0.027373232 1.3275698e-38
-0.032618318 -0.13623528 -0.024360813 1.374135e-38
-0.030759726 -0.13623528 -0.024360813 1.1624809e-38
-0.028725196 -0.13543437 -0.021365441 1.2734757e-38
-0.02647109 -0.13355388 -0.014332451 1.2735124e-38
-0.024467755 -0.13276802 -0.011393346 1.4299587e-38
-0.022469837 -0.13195769 -0.0083628073 1.6049873e-38
-0.020639289 -0.13195769 -0.0083628073 1.6879636e-38
-0.018658187 -0.13115202 -0.0053496733 1.771012e-38
-0.016688485 -0.13035102 -0.0023539439 1.5497425e-38
-0.014868472 -0.13035102 -0.0023539439 1.1994344e-38
-0.012872655 -0.1292996 0.0015782937 1.3561668e-38
-0.011059541 -0.1292996 0.0015782937 1.7157651e-38
-0.009246435 -0.1292996 0.0015782937 1.8817168e-38
