# .PCD v0.7 - Point Cloud Data file format
VERSION 0.7
FIELDS x y z rgb
SIZE 4 4 4 4
TYPE F F F F
COUNT 1 1 1 1
WIDTH 940
HEIGHT 1
VIEWPOINT 0 0 0 1 0 0 0
POINTS 940
DATA ascii
-0.058793772 -0.13513215 -0.086283699 2.3137852e-38
-0.056812499 -0.13513215 -0.086283699 2.3509161e-38
-0.054831218 -0.13513215 -0.086283699 2.3322609e-38
-0.053017233 -0.13614662 -0.090343967 2.3509521e-38
-0.050438929 -0.13241051 -0.075390592 2.3323334e-38
-0.048211981 -0.13065563 -0.0683669 2.0373076e-38
-0.045612656 -0.12614109 -0.050297875 1.7884157e-38
-0.043456942 -0.12440531 -0.043350596 1.6962204e-38
-0.041452538 -0.12364738 -0.040316958 1.4841704e-38
-0.039339025 -0.12191428 -0.033380527 1.0692901e-38
-0.037450504 -0.12191428 -0.033380527 7.4674803e-39
-0.035561983 -0.12191428 -0.033380527 8.2990122e-39
-0.033673462 -0.12191428 -0.033380527 1.6874274e-38
-0.031784941 -0.12191428 -0.033380527 2.1943963e-38
-0.029808633 -0.12091358 -0.029375214 2.3142511e-38
-0.027865242 -0.12014665 -0.026305694 2.3509869e-38
-0.025935013 -0.11941226 -0.023366351 2.341804e-38
-0.024064049 -0.11941226 -0.023366351 2.3418047e-38
-0.022193085 -0.11941226 -0.023366351 2.3141466e-38
-0.020268954 -0.11840202 -0.01932301 2.341805e-38
-0.018370748 -0.11764936 -0.016310591 2.2311708e-38
-0.016415447 -0.11514379 -0.006282229 2.341805e-38
-0.014574439 -0.11514379 -0.006282229 2.2680488e-38
-0.012758312 -0.1161568 -0.010336775 2.3418047e-38
-0.010910193 -0.1161568 -0.010336775 2.3141816e-38
0.021405019 -0.10741456 0.024653297 2.3509883e-38
0.023191787 -0.10741456 0.024653297 2.341769e-38
0.024978556 -0.10741456 0.024653297 2.341805e-38
0.026765324 -0.10741456 0.024653297 2.3141467e-38
0.028450441 -0.10667174 0.027626377 2.2680491e-38
0.030231997 -0.10667174 0.027626377 2.2589017e-38
0.032013554 -0.10667174 0.027626377 2.3142185e-38
0.033795111 -0.10667174 0.027626377 2.3234379e-38
0.035576668 -0.10667174 0.027626377 2.3234379e-38
0.037358221 -0.10667174 0.027626377 2.3142544e-38
-0.063157156 -0.13913165 -0.094305173 1.3088164e-38
-0.060970824 -0.138135 -0.090343967 1.7790141e-38
-0.058793772 -0.13711344 -0.086283699 1.8527708e-38
-0.056812499 -0.13711344 -0.086283699 2.1939309e-38
-0.054831218 -0.13711344 -0.086283699 2.3414442e-38
-0.052849937 -0.13711344 -0.086283699 2.2953108e-38
-0.050714586 -0.13613077 -0.082378045 1.8251851e-38
-0.048211981 -0.13260551 -0.0683669 1.7883068e-38
-0.045468364 -0.12704925 -0.046283502 1.8805025e-38
-0.043353222 -0.12554805 -0.040316958 1.6223547e-38
-0.04132469 -0.12455635 -0.036375422 1.4379634e-38
-0.039339025 -0.12380283 -0.033380527 1.29967e-38
-0.037450504 -0.12380283 -0.033380527 9.5868896e-39
-0.035561983 -0.12380283 -0.033380527 1.0786855e-38
-0.033673462 -0.12380283 -0.033380527 1.98231e-38
-0.031784941 -0.12380283 -0.033380527 2.3509853e-38
-0.029741358 -0.12202276 -0.026305694 2.3509859e-38
-0.027865242 -0.12202276 -0.026305694 2.3509862e-38
-0.025935013 -0.12128322 -0.023366351 2.3325835e-38
-0.024064049 -0.12128322 -0.023366351 2.3418039e-38
-0.022193085 -0.12128322 -0.023366351 2.3141456e-38
-0.020268954 -0.12026589 -0.01932301 2.3509883e-38
-0.018370748 -0.11950795 -0.016310591 2.341769e-38
-0.016415447 -0.1169848 -0.006282229 2.3233299e-38
-0.014574439 -0.1169848 -0.006282229 2.3509883e-38
-0.012758312 -0.11800493 -0.010336775 2.2864869e-38
-0.01089242 -0.1169848 -0.006282229 2.3509879e-38
-0.0090514114 -0.1169848 -0.006282229 2.3049256e-38
-0.0072139567 -0.11800493 -0.010336775 2.3509876e-38
0.01961825 -0.10920133 0.024653297 2.3509527e-38
0.021405019 -0.10920133 0.024653297 2.3509527e-38
0.023191787 -0.10920133 0.024653297 2.3508807e-38
0.024978556 -0.10920133 0.024653297 2.3509527e-38
0.026765324 -0.10920133 0.024653297 2.3509527e-38
0.028450441 -0.10845329 0.027626377 2.341805e-38
0.030231997 -0.10845329 0.027626377 2.3142544e-38
0.032013554 -0.10845329 0.027626377 2.3142544e-38
0.033795111 -0.10845329 0.027626377 2.3050708e-38
0.035576668 -0.10845329 0.027626377 2.2589374e-38
0.037358221 -0.10845329 0.027626377 2.2773765e-38
0.039272703 -0.10920133 0.024653297 2.3325856e-38
0.041198425 -0.10995375 0.021662693 2.3234379e-38
-0.063157156 -0.14112701 -0.094305173 1.3549495e-38
-0.060970824 -0.14012341 -0.090343967 1.576219e-38
-0.058982428 -0.14012341 -0.090343967 1.5485604e-38
-0.056812499 -0.13909473 -0.086283699 1.7329516e-38
-0.054831218 -0.13909473 -0.086283699 2.1477964e-38
-0.052849937 -0.13909473 -0.086283699 2.1293575e-38
-0.050868664 -0.13909473 -0.086283699 1.659196e-38
-0.048887383 -0.13909473 -0.086283699 1.5024634e-38
-0.045362946 -0.12821732 -0.043350596 1.6500121e-38
-0.043353222 -0.12744872 -0.040316958 1.8344387e-38
-0.041227546 -0.12569134 -0.033380527 1.4748753e-38
-0.039339025 -0.12569134 -0.033380527 1.1798846e-38
-0.037334628 -0.12467657 -0.029375214 1.0231523e-38
-0.03545313 -0.12467657 -0.029375214 1.2719732e-38
-0.033673462 -0.12569134 -0.033380527 2.1293925e-38
-0.031690132 -0.12467657 -0.029375214 2.3509859e-38
-0.029741358 -0.12389888 -0.026305694 2.3508054e-38
-0.027865242 -0.12389888 -0.026305694 2.3415498e-38
-0.025935013 -0.12315418 -0.023366351 2.2401707e-38
-0.024064049 -0.12315418 -0.023366351 2.157267e-38
-0.022132825 -0.12212978 -0.01932301 2.3509865e-38
-0.02022934 -0.12136655 -0.016310591 2.3509873e-38
-0.018336613 -0.12060766 -0.013315219 2.3325127e-38
-0.016454548 -0.11985306 -0.010336775 2.3325492e-38
-0.01460643 -0.11985306 -0.010336775 2.3325494e-38
-0.012733431 -0.11882581 -0.006282229 2.2957075e-38
-0.010879538 -0.11808117 -0.0033431239 2.3234379e-38
-0.0090436814 -0.11808117 -0.0033431239 2.3234379e-38
-0.0072078267 -0.11808117 -0.0033431239 2.3050347e-38
0.010883675 -0.11401908 0.012689929 2.341805e-38
0.012581612 -0.11250792 0.018654447 2.2864879e-38
0.014257942 -0.1109881 0.024653297 2.341805e-38
0.01604471 -0.1109881 0.024653297 2.3233302e-38
0.017831478 -0.1109881 0.024653297 2.3509886e-38
0.01961825 -0.1109881 0.024653297 2.3509886e-38
0.021324217 -0.11023484 0.027626377 2.3508446e-38
0.023105774 -0.11023484 0.027626377 2.350701e-38
0.024887331 -0.11023484 0.027626377 2.3508451e-38
0.026668888 -0.11023484 0.027626377 2.3509168e-38
0.028450441 -0.11023484 0.027626377 2.3234379e-38
0.030231997 -0.11023484 0.027626377 2.2775202e-38
0.032013554 -0.11023484 0.027626377 2.2867037e-38
0.033795111 -0.11023484 0.027626377 2.295887e-38
0.035576668 -0.11023484 0.027626377 2.240533e-38
0.037358221 -0.11023484 0.027626377 2.3509879e-38
0.039272703 -0.1109881 0.024653297 2.3509879e-38
0.041198425 -0.11174576 0.021662693 2.3508798e-38
0.043281384 -0.11327456 0.015628558 2.2496087e-38
0.045083977 -0.11327456 0.015628558 2.2958873e-38
0.047038563 -0.11401908 0.012689929 1.7339261e-38
0.049010023 -0.11479472 0.0096285157 7.476855e-39
0.050823137 -0.11479472 0.0096285157 6.5552546e-39
0.052636247 -0.11479472 0.0096285157 7.1048256e-39
-0.060970824 -0.14211179 -0.090343967 1.3826079e-38
-0.058982428 -0.14211179 -0.090343967 1.3826797e-38
-0.056812499 -0.14107598 -0.086283699 1.5854383e-38
-0.054831218 -0.14107598 -0.086283699 1.9266343e-38
-0.052849937 -0.14107598 -0.086283699 1.8988682e-38
-0.050868664 -0.14107598 -0.086283699 1.308888e-38
-0.048887383 -0.14107598 -0.086283699 1.1059857e-38
-0.045362946 -0.13012333 -0.043350596 1.2167277e-38
-0.043353222 -0.12934943 -0.040316958 1.2627891e-38
-0.041227546 -0.12757985 -0.033380527 7.8347872e-39
-0.039216127 -0.12655805 -0.029375214 7.8344229e-39
-0.037334628 -0.12655805 -0.029375214 1.0599936e-38
-0.03545313 -0.12655805 -0.029375214 1.5115379e-38
-0.033571631 -0.12655805 -0.029375214 2.1107742e-38
-0.031690132 -0.12655805 -0.029375214 2.3412986e-38
-0.029741358 -0.12577499 -0.026305694 2.2030763e-38
-0.027865242 -0.12577499 -0.026305694 2.2124394e-38
-0.025935013 -0.12502514 -0.023366351 2.2217305e-38
-0.024064049 -0.12502514 -0.023366351 2.2309145e-38
-0.022132825 -0.12399365 -0.01932301 2.3509493e-38
-0.02022934 -0.12322514 -0.016310591 2.3509866e-38
-0.018336613 -0.12246101 -0.013315219 2.3508793e-38
-0.016454548 -0.12170117 -0.010336775 2.350988e-38
-0.01460643 -0.12170117 -0.010336775 2.3509886e-38
-0.012733431 -0.12066682 -0.006282229 2.3325856e-38
-0.010879538 -0.11991702 -0.0033431239 2.2958155e-38
-0.0090436814 -0.11991702 -0.0033431239 2.3234379e-38
-0.0072051687 -0.11914389 -0.00031258538 2.3142544e-38
-0.0053746281 -0.11914389 -0.00031258538 2.3234379e-38
0.010784325 -0.11430521 0.018654447 2.3509883e-38
0.01252623 -0.11353777 0.021662693 2.2956712e-38
0.014257942 -0.11277486 0.024653297 2.3509886e-38
0.01604471 -0.11277486 0.024653297 2.3325497e-38
0.017831478 -0.11277486 0.024653297 2.3509886e-38
0.01961825 -0.11277486 0.024653297 2.304927e-38
0.021324217 -0.11201639 0.027626377 2.3509527e-38
0.023105774 -0.11201639 0.027626377 2.3508451e-38
0.024887331 -0.11201639 0.027626377 2.350629e-38
0.026668888 -0.11201639 0.027626377 2.2495018e-38
0.028450441 -0.11201639 0.027626377 2.2497894e-38
0.030231997 -0.11201639 0.027626377 2.2683366e-38
0.032013554 -0.11201639 0.027626377 2.222418e-38
0.033795111 -0.11201639 0.027626377 2.194651e-38
0.035576668 -0.11201639 0.027626377 2.2129098e-38
0.037358221 -0.11201639 0.027626377 2.2679032e-38
0.039272703 -0.11277486 0.024653297 2.3507352e-38
0.041338198 -0.11430521 0.018654447 2.3509156e-38
0.043281384 -0.11507715 0.015628558 2.350952e-38
0.045083977 -0.11507715 0.015628558 2.3234379e-38
0.046886567 -0.11507715 0.015628558 2.2316024e-38
0.048846308 -0.11582683 0.012689929 1.7527259e-38
0.050823137 -0.11660783 0.0096285157 7.0169572e-39
0.052636247 -0.11660783 0.0096285157 6.1835952e-39
-0.060970824 -0.1441002 -0.090343967 1.2443864e-38
-0.058982428 -0.1441002 -0.090343967 1.2167996e-38
-0.056994032 -0.1441002 -0.090343967 1.3734605e-38
-0.054831218 -0.14305727 -0.086283699 1.6316443e-38
-0.052849937 -0.14305727 -0.086283699 1.6223534e-38
-0.050868664 -0.14305727 -0.086283699 1.1522276e-38
-0.048887383 -0.14305727 -0.086283699 1.0599601e-38
-0.045362946 -0.13202934 -0.043350596 1.2259836e-38
-0.043353222 -0.1312501 -0.040316958 1.2167276e-38
-0.041097626 -0.12843956 -0.029375214 6.636607e-39
-0.039121944 -0.12765111 -0.026305694 7.2816121e-39
-0.037245829 -0.12765111 -0.026305694 1.1891395e-38
-0.035369713 -0.12765111 -0.026305694 1.6038053e-38
-0.033571631 -0.12843956 -0.029375214 1.9632609e-38
-0.031690132 -0.12843956 -0.029375214 2.1200289e-38
-0.02967694 -0.1268961 -0.023366351 2.0648185e-38
-0.027805977 -0.1268961 -0.023366351 2.1110239e-38
-0.025935013 -0.1268961 -0.023366351 2.2125108e-38
-0.024064049 -0.1268961 -0.023366351 2.2493536e-38
-0.022132825 -0.12585752 -0.01932301 2.2402786e-38
-0.02022934 -0.12508373 -0.016310591 2.2494629e-38
-0.018336613 -0.12431435 -0.013315219 2.1757432e-38
-0.016454548 -0.1235493 -0.010336775 2.2495368e-38
-0.01460643 -0.1235493 -0.010336775 2.3509886e-38
-0.012733431 -0.12250783 -0.006282229 2.341805e-38
-0.010879538 -0.12175287 -0.0033431239 2.2773763e-38
-0.0090357112 -0.12097444 -0.00031258538 2.3050349e-38
-0.0072025275 -0.12020047 0.0027005486 2.3234379e-38
-0.0053798957 -0.11943097 0.0056962781 2.341805e-38
-0.0035702297 -0.11842094 0.0096285157 2.3326213e-38
-0.0017571179 -0.11842094 0.0096285157 2.3234015e-38
0.010734218 -0.11532979 0.021662693 2.3509883e-38
0.012471174 -0.11456163 0.024653297 2.3233296e-38
0.014197995 -0.11379795 0.027626377 2.3509883e-38
0.015979551 -0.11379795 0.027626377 2.341769e-38
0.017761108 -0.11379795 0.027626377 2.3509886e-38
0.019542664 -0.11379795 0.027626377 2.2680125e-38
0.021324217 -0.11379795 0.027626377 2.3509527e-38
0.023105774 -0.11379795 0.027626377 2.3509168e-38
0.024887331 -0.11379795 0.027626377 2.3509168e-38
0.026668888 -0.11379795 0.027626377 2.3234379e-38
0.028450441 -0.11379795 0.027626377 2.2867037e-38
0.030338861 -0.11456163 0.024653297 2.2499695e-38
0.032125629 -0.11456163 0.024653297 2.0104761e-38
0.033912398 -0.11456163 0.024653297 1.6231103e-38
0.035699166 -0.11456163 0.024653297 1.5029679e-38
0.037485935 -0.11456163 0.024653297 1.6870347e-38
0.039406415 -0.11532979 0.021662693 1.954186e-38
0.041338198 -0.1161025 0.018654447 2.1015913e-38
0.043281384 -0.11687975 0.015628558 2.2399574e-38
0.045083977 -0.11687975 0.015628558 2.258721e-38
0.046886567 -0.11687975 0.015628558 2.2958873e-38
0.048846308 -0.11763458 0.012689929 2.2132353e-38
0.050823137 -0.11842094 0.0096285157 1.2729849e-38
0.052636247 -0.11842094 0.0096285157 7.9342332e-39
-0.060970824 -0.14608859 -0.090343967 1.069251e-38
-0.058982428 -0.14608859 -0.090343967 9.40285e-39
-0.056994032 -0.14608859 -0.090343967 1.0139336e-38
-0.054831218 -0.14503856 -0.086283699 1.2260917e-38
-0.052849937 -0.14503856 -0.086283699 1.1982897e-38
-0.050868664 -0.14503856 -0.086283699 9.3103027e-39
-0.048887383 -0.14503856 -0.086283699 9.9545931e-39
-0.045253906 -0.13315077 -0.040316958 1.1891779e-38
-0.043353222 -0.13315077 -0.040316958 1.2997757e-38
-0.041097626 -0.13032107 -0.029375214 7.9280717e-39
-0.039121944 -0.12952723 -0.026305694 7.7429517e-39
-0.037245829 -0.12952723 -0.026305694 1.1337865e-38
-0.035369713 -0.12952723 -0.026305694 1.3917553e-38
-0.033571631 -0.13032107 -0.029375214 1.5484879e-38
-0.031690132 -0.13032107 -0.029375214 1.6867808e-38
-0.02967694 -0.12876706 -0.023366351 1.6868161e-38
-0.027724449 -0.12772138 -0.01932301 1.696179e-38
-0.025805116 -0.12694232 -0.016310591 1.843728e-38
-0.023946524 -0.12694232 -0.016310591 1.9543632e-38
-0.022087932 -0.12694232 -0.016310591 1.908302e-38
-0.020189952 -0.12616767 -0.013315219 2.0466323e-38
-0.018302668 -0.1253974 -0.010336775 1.9636931e-38
-0.016454548 -0.1253974 -0.010336775 2.0835125e-38
-0.014574439 -0.12434883 -0.006282229 2.2956349e-38
-0.012715395 -0.12358873 -0.0033431239 2.3509886e-38
-0.010866254 -0.12280498 -0.00031258538 2.341805e-38
-0.0090357112 -0.12280498 -0.00031258538 2.3326213e-38
-0.0072025275 -0.12202574 0.0027005486 2.3141822e-38
-0.0053798957 -0.121251 0.0056962781 2.341805e-38
-0.0035702297 -0.12023406 0.0096285157 2.341805e-38
-0.0017571179 -0.12023406 0.0096285157 2.3417687e-38
0.010684405 -0.1163484 0.024653297 2.3233296e-38
0.01241644 -0.1155795 0.027626377 2.3509883e-38
0.014197995 -0.1155795 0.027626377 2.3417687e-38
0.015979551 -0.1155795 0.027626377 2.3417687e-38
0.017761108 -0.1155795 0.027626377 2.3509883e-38
0.019542664 -0.1155795 0.027626377 2.2864516e-38
0.021241128 -0.11478879 0.030683856 2.3509886e-38
0.023017321 -0.11478879 0.030683856 2.2311345e-38
0.024887331 -0.1155795 0.027626377 2.2957078e-38
0.026668888 -0.1155795 0.027626377 1.8534205e-38
0.028450441 -0.1155795 0.027626377 1.2174865e-38
0.030338861 -0.1163484 0.024653297 8.5810333e-39
0.032125629 -0.1163484 0.024653297 7.1059004e-39
0.033912398 -0.1163484 0.024653297 8.1178874e-39
0.035822388 -0.1171218 0.021662693 1.1157462e-38
0.037614401 -0.1171218 0.021662693 1.2628269e-38
0.039540913 -0.11789979 0.018654447 1.5576368e-38
0.041338198 -0.11789979 0.018654447 2.0092159e-38
0.043281384 -0.11868234 0.015628558 1.926348e-38
0.044932771 -0.11789979 0.018654447 1.981846e-38
0.04673006 -0.11789979 0.018654447 2.3509527e-38
0.04868916 -0.11868234 0.015628558 2.249826e-38
0.050491754 -0.11868234 0.015628558 2.0287008e-38
-0.058982428 -0.148077 -0.090343967 7.8358873e-39
-0.056812499 -0.14701982 -0.086283699 8.0195624e-39
-0.054831218 -0.14701982 -0.086283699 1.0048587e-38
-0.052849937 -0.14701982 -0.086283699 1.0508493e-38
-0.051028837 -0.148077 -0.090343967 8.3887121e-39
-0.04904044 -0.148077 -0.090343967 8.8489714e-39
-0.047052044 -0.148077 -0.090343967 1.0878347e-38
-0.04287418 -0.13140334 -0.026305694 1.2076526e-38
-0.04099806 -0.13140334 -0.026305694 7.190871e-39
-0.039121944 -0.13140334 -0.026305694 7.4670907e-39
-0.037245829 -0.13140334 -0.026305694 1.2260543e-38
-0.035369713 -0.13140334 -0.026305694 1.3826434e-38
-0.033571631 -0.13220255 -0.029375214 1.4655116e-38
-0.0315479 -0.13063805 -0.023366351 1.5854012e-38
-0.029588323 -0.12958528 -0.01932301 1.55785e-38
-0.027724449 -0.12958528 -0.01932301 1.5025679e-38
-0.025805116 -0.12880091 -0.016310591 1.6224941e-38
-0.023896631 -0.12802102 -0.013315219 1.7976305e-38
-0.022043291 -0.12802102 -0.013315219 1.8068865e-38
-0.020150784 -0.12724553 -0.010336775 1.8438019e-38
-0.018302668 -0.12724553 -0.010336775 1.9083757e-38
-0.016415447 -0.12618984 -0.006282229 2.1480492e-38
-0.014551249 -0.12542458 -0.0033431239 2.3417324e-38
-0.012696796 -0.12463553 -0.00031258538 2.3509883e-38
-0.010866254 -0.12463553 -0.00031258538 2.3509883e-38
-0.0090277875 -0.12385099 0.0027005486 2.3509883e-38
-0.0072025275 -0.12385099 0.0027005486 2.3509883e-38
-0.0053798957 -0.123071 0.0056962781 2.3509883e-38
-0.0035702297 -0.12204717 0.0096285157 2.3509883e-38
-0.0017834185 -0.12048493 0.015628558 2.3509883e-38
1.9174069e-05 -0.12048493 0.015628558 2.3417687e-38
0.0018217666 -0.12048493 0.015628558 2.3417687e-38
0.0035951789 -0.11969708 0.018654447 2.3509883e-38
0.0053581819 -0.11891381 0.021662693 2.3509883e-38
0.0071501937 -0.11891381 0.021662693 2.31411e-38
0.0089422064 -0.11891381 0.021662693 2.3509883e-38
0.010684405 -0.11813517 0.024653297 2.31411e-38
0.01241644 -0.11736105 0.027626377 2.3509883e-38
0.014197995 -0.11736105 0.027626377 2.3509883e-38
0.01591254 -0.11656497 0.030683856 2.3417687e-38
0.017688736 -0.11656497 0.030683856 2.350988e-38
0.019464932 -0.11656497 0.030683856 2.3509523e-38
0.021241128 -0.11656497 0.030683856 2.2495731e-38
0.023017321 -0.11656497 0.030683856 2.3234379e-38
0.024887331 -0.11736105 0.027626377 2.1207879e-38
0.026668888 -0.11736105 0.027626377 1.2635845e-38
0.028450441 -0.11736105 0.027626377 6.828959e-39
0.030338861 -0.11813517 0.024653297 7.1984604e-39
0.032238364 -0.11891381 0.021662693 8.2122508e-39
0.034030378 -0.11891381 0.021662693 8.1175314e-39
0.035822388 -0.11891381 0.021662693 8.8525727e-39
0.037614401 -0.11891381 0.021662693 1.1153142e-38
0.039540913 -0.11969708 0.018654447 1.2994175e-38
0.041338198 -0.11969708 0.018654447 1.9630821e-38
0.043281384 -0.12048493 0.015628558 2.0921204e-38
0.044932771 -0.11969708 0.018654447 1.9355322e-38
0.04673006 -0.11969708 0.018654447 2.184713e-38
0.04868916 -0.12048493 0.015628558 2.314075e-38
-0.056812499 -0.14900111 -0.086283699 7.4671089e-39
-0.054831218 -0.14900111 -0.086283699 8.9418831e-39
-0.052849937 -0.14900111 -0.086283699 8.4809105e-39
-0.044860624 -0.13408406 -0.029375214 8.9418859e-39
-0.04287418 -0.13327946 -0.026305694 9.0344346e-39
-0.04099806 -0.13327946 -0.026305694 2.7651276e-39
-0.039121944 -0.13327946 -0.026305694 3.6874356e-39
-0.037245829 -0.13327946 -0.026305694 1.0970527e-38
-0.035369713 -0.13327946 -0.026305694 1.1891045e-38
-0.033493593 -0.13327946 -0.026305694 1.2904475e-38
-0.0315479 -0.13250901 -0.023366351 1.4472154e-38
-0.029522303 -0.13065951 -0.016310591 1.4841291e-38
-0.02760331 -0.12987436 -0.013315219 1.4011527e-38
-0.02574997 -0.12987436 -0.013315219 1.3920048e-38
-0.023847021 -0.12909363 -0.010336775 1.4473587e-38
-0.021998901 -0.12909363 -0.010336775 1.4565428e-38
-0.020150784 -0.12909363 -0.010336775 1.6225681e-38
-0.018256459 -0.12803085 -0.006282229 1.9636568e-38
-0.016415447 -0.12803085 -0.006282229 2.3324041e-38
-0.014551249 -0.12726043 -0.0033431239 2.3509879e-38
-0.012696796 -0.12646608 -0.00031258538 2.3139658e-38
-0.010853047 -0.12567626 0.0027005486 2.3232933e-38
-0.0090277875 -0.12567626 0.0027005486 2.350988e-38
-0.0072025275 -0.12567626 0.0027005486 2.350988e-38
-0.0053798957 -0.124891 0.0056962781 2.3048542e-38
-0.0035702297 -0.12386028 0.0096285157 2.3509883e-38
-0.0017834185 -0.12228753 0.015628558 2.3509883e-38
1.9174069e-05 -0.12228753 0.015628558 2.3509883e-38
0.0018217666 -0.12228753 0.015628558 2.3509523e-38
0.0035951789 -0.12149437 0.018654447 2.3509883e-38
0.0053581819 -0.12070583 0.021662693 2.3509883e-38
0.0071501937 -0.12070583 0.021662693 2.31411e-38
0.0089422064 -0.12070583 0.021662693 2.3509883e-38
0.010684405 -0.11992194 0.024653297 2.3233296e-38
0.01241644 -0.11914261 0.027626377 2.3509883e-38
0.014197995 -0.11914261 0.027626377 2.350988e-38
0.01591254 -0.11834116 0.030683856 2.3418043e-38
0.017688736 -0.11834116 0.030683856 2.350988e-38
0.019464932 -0.11834116 0.030683856 2.350988e-38
0.021241128 -0.11834116 0.030683856 1.8070341e-38
0.023017321 -0.11834116 0.030683856 9.5897874e-39
0.024887331 -0.11914261 0.027626377 8.5777977e-39
0.026668888 -0.11914261 0.027626377 7.5650877e-39
0.028552093 -0.11992194 0.024653297 8.3962875e-39
0.030446354 -0.12070583 0.021662693 1.0148723e-38
0.032351766 -0.12149437 0.018654447 9.6870235e-39
0.034149051 -0.12149437 0.018654447 9.407557e-39
0.035946339 -0.12149437 0.018654447 1.08798e-38
0.037743624 -0.12149437 0.018654447 1.0046438e-38
0.039676201 -0.12228753 0.015628558 1.1519045e-38
0.041478794 -0.12228753 0.015628558 1.4560061e-38
0.043281384 -0.12228753 0.015628558 2.184316e-38
0.044932771 -0.12149437 0.018654447 2.3504847e-38
0.04673006 -0.12149437 0.018654447 2.027872e-38
0.04868916 -0.12228753 0.015628558 2.1387231e-38
0.050491754 -0.12228753 0.015628558 2.3509527e-38
-0.046742123 -0.13596557 -0.029375214 7.6518743e-39
-0.044860624 -0.13596557 -0.029375214 9.2191972e-39
-0.042979125 -0.13596557 -0.029375214 9.1273561e-39
-0.04099806 -0.13515557 -0.026305694 2.4892652e-39
-0.039121944 -0.13515557 -0.026305694 3.227182e-39
-0.037245829 -0.13515557 -0.026305694 1.0602108e-38
-0.035369713 -0.13515557 -0.026305694 1.1983956e-38
-0.033418868 -0.13437997 -0.023366351 1.2812995e-38
-0.031452198 -0.13331302 -0.01932301 1.3827502e-38
-0.029522303 -0.1325181 -0.016310591 1.4381029e-38
-0.02760331 -0.13172771 -0.013315219 1.428883e-38
-0.025695138 -0.13094176 -0.010336775 1.3735656e-38
-0.023847021 -0.13094176 -0.010336775 1.336724e-38
-0.021998901 -0.13094176 -0.010336775 1.3551276e-38
-0.020097468 -0.12987186 -0.006282229 1.4841668e-38
-0.018256459 -0.12987186 -0.006282229 1.9452176e-38
-0.016387105 -0.12909628 -0.0033431239 2.350879e-38
-0.014527339 -0.1282966 -0.00031258538 2.3323685e-38
-0.012678306 -0.1275015 0.0027005486 2.2125142e-38
-0.010853047 -0.1275015 0.0027005486 2.3232209e-38
-0.0090277875 -0.1275015 0.0027005486 2.3509516e-38
-0.0071999012 -0.126711 0.0056962781 2.2125861e-38
-0.0053833416 -0.1256734 0.0096285157 2.2218059e-38
-0.0035702297 -0.1256734 0.0096285157 2.3416245e-38
-0.0017834185 -0.12409012 0.015628558 2.3509521e-38
1.9174069e-05 -0.12409012 0.015628558 2.350988e-38
0.0017978922 -0.12329166 0.018654447 2.3417327e-38
0.0035951789 -0.12329166 0.018654447 2.3509883e-38
0.0053924657 -0.12329166 0.018654447 2.3509883e-38
0.0071897525 -0.12329166 0.018654447 2.3325492e-38
0.0089422064 -0.12249784 0.021662693 2.3509883e-38
0.010684405 -0.12170871 0.024653297 2.3417687e-38
0.01241644 -0.12092416 0.027626377 2.3418043e-38
0.014197995 -0.12092416 0.027626377 2.350988e-38
0.01591254 -0.12011738 0.030683856 2.350988e-38
0.017688736 -0.12011738 0.030683856 2.3509879e-38
0.019464932 -0.12011738 0.030683856 2.3509158e-38
0.021241128 -0.12011738 0.030683856 1.2170176e-38
0.023017321 -0.12011738 0.030683856 1.0419548e-38
0.024887331 -0.12092416 0.027626377 8.7614701e-39
0.026668888 -0.12092416 0.027626377 8.0249869e-39
0.028552093 -0.12170871 0.024653297 9.2242531e-39
0.030446354 -0.12249784 0.021662693 1.0146928e-38
0.032351766 -0.12329166 0.018654447 1.005437e-38
0.034149051 -0.12329166 0.018654447 1.0237319e-38
0.035946339 -0.12329166 0.018654447 1.1432977e-38
0.037743624 -0.12329166 0.018654447 1.1061671e-38
0.039676201 -0.12409012 0.015628558 1.1519408e-38
0.041478794 -0.12409012 0.015628558 1.1333574e-38
0.043281384 -0.12409012 0.015628558 1.8524836e-38
0.045083977 -0.12409012 0.015628558 2.3507725e-38
0.050491754 -0.12409012 0.015628558 2.3416974e-38
-0.048623625 -0.13784705 -0.029375214 7.2827387e-39
-0.046742123 -0.13784705 -0.029375214 7.1905431e-39
-0.044860624 -0.13784705 -0.029375214 7.3749315e-39
-0.042979125 -0.13784705 -0.029375214 7.8362628e-39
-0.04099806 -0.13703169 -0.026305694 3.0424446e-39
-0.039031755 -0.13625093 -0.023366351 3.5037745e-39
-0.037160791 -0.13625093 -0.023366351 9.2191776e-39
-0.035289828 -0.13625093 -0.023366351 1.2536774e-38
-0.033316072 -0.13517688 -0.01932301 1.207543e-38
-0.031380896 -0.13437669 -0.016310591 1.1153829e-38
-0.029456653 -0.13358103 -0.013315219 1.0969434e-38
-0.027543258 -0.13278987 -0.010336775 1.1799548e-38
-0.025695138 -0.13278987 -0.010336775 1.2168331e-38
-0.023779485 -0.13171287 -0.006282229 1.2629675e-38
-0.021938477 -0.13171287 -0.006282229 1.3643472e-38
-0.020058818 -0.13093217 -0.0033431239 1.438069e-38
-0.018222962 -0.13093217 -0.0033431239 1.9358899e-38
-0.01635788 -0.13012715 -0.00031258538 2.2954177e-38
-0.014527339 -0.13012715 -0.00031258538 2.2401006e-38
-0.012678306 -0.12932678 0.0027005486 2.2124419e-38
-0.010839916 -0.12853102 0.0056962781 2.3509514e-38
-0.0090199085 -0.12853102 0.0056962781 2.3509154e-38
-0.0071999012 -0.12853102 0.0056962781 2.083368e-38
-0.0053833416 -0.12748651 0.0096285157 2.1755639e-38
-0.003578282 -0.1266733 0.012689929 2.3047098e-38
-0.0017834185 -0.12589271 0.015628558 2.350952e-38
6.0535967e-07 -0.12508895 0.018654447 2.3509161e-38
0.0017978922 -0.12508895 0.018654447 2.3416245e-38
0.0035661692 -0.12428986 0.021662693 2.3509883e-38
0.0053581819 -0.12428986 0.021662693 2.3509883e-38
0.0071501937 -0.12428986 0.021662693 2.3417687e-38
0.0089422064 -0.12428986 0.021662693 2.3509883e-38
0.010684405 -0.12349547 0.024653297 2.3509883e-38
0.012471174 -0.12349547 0.024653297 2.2957065e-38
0.014197995 -0.12270571 0.027626377 2.350988e-38
0.015845936 -0.12108628 0.033722978 2.3509879e-38
0.017616801 -0.12108628 0.033722978 2.3509879e-38
0.019387666 -0.12108628 0.033722978 2.3140013e-38
0.021158535 -0.12108628 0.033722978 7.9284584e-39
0.023017321 -0.12189357 0.030683856 1.0141882e-38
0.024793517 -0.12189357 0.030683856 1.0603588e-38
0.026765324 -0.12349547 0.024653297 1.1250399e-38
0.028552093 -0.12349547 0.024653297 1.0974534e-38
0.030554481 -0.12508895 0.018654447 1.0052938e-38
0.03246583 -0.12589271 0.015628558 1.042136e-38
0.034268424 -0.12589271 0.015628558 1.1526263e-38
0.036071017 -0.12589271 0.015628558 1.1709208e-38
0.037873607 -0.12589271 0.015628558 1.2813751e-38
0.039676201 -0.12589271 0.015628558 1.0691089e-38
0.041478794 -0.12589271 0.015628558 1.2441364e-38
0.043281384 -0.12589271 0.015628558 1.3179285e-38
-0.046742123 -0.13972856 -0.029375214 7.2831016e-39
-0.044860624 -0.13972856 -0.029375214 6.17711e-39
-0.042979125 -0.13972856 -0.029375214 6.8224738e-39
-0.04099806 -0.13890781 -0.026305694 3.3193944e-39
-0.039031755 -0.13812189 -0.023366351 2.3055956e-39
-0.037160791 -0.13812189 -0.023366351 9.1277051e-39
-0.035289828 -0.13812189 -0.023366351 1.0878335e-38
-0.033316072 -0.13704078 -0.01932301 1.1338587e-38
-0.031380896 -0.13623528 -0.016310591 1.1430777e-38
-0.029456653 -0.13543437 -0.013315219 1.1431134e-38
-0.027543258 -0.134638 -0.010336775 1.1799914e-38
-0.025695138 -0.134638 -0.010336775 1.2168696e-38
-0.023779485 -0.13355388 -0.006282229 1.1707721e-38
-0.021938477 -0.13355388 -0.006282229 1.1061997e-38
-0.020058818 -0.13276802 -0.0033431239 1.2997036e-38
-0.018222962 -0.13276802 -0.0033431239 1.6961097e-38
-0.01635788 -0.13195769 -0.00031258538 2.0003198e-38
-0.014503564 -0.13115202 0.0027005486 2.064857e-38
-0.012659921 -0.13035102 0.0056962781 2.1847113e-38
-0.010839916 -0.13035102 0.0056962781 2.3507712e-38
-0.0090199085 -0.13035102 0.0056962781 2.350807e-38
-0.0071964553 -0.1292996 0.0096285157 2.2031859e-38
-0.0053860256 -0.12848105 0.012689929 2.2953458e-38
-0.0035860101 -0.12769531 0.015628558 2.3322243e-38
-0.0017966805 -0.12688623 0.018654447 2.3415161e-38
6.0535967e-07 -0.12688623 0.018654447 2.3509157e-38
0.0017741565 -0.12608187 0.021662693 2.3509879e-38
0.0035373298 -0.12528224 0.024653297 2.3140737e-38
0.0053240983 -0.12528224 0.024653297 2.3417687e-38
0.0071108676 -0.12528224 0.024653297 2.31411e-38
0.0088976361 -0.12528224 0.024653297 2.3048905e-38
0.010634883 -0.1244873 0.027626377 2.3509883e-38
0.01241644 -0.1244873 0.027626377 2.1758522e-38
0.014197995 -0.1244873 0.027626377 2.350988e-38
0.015845936 -0.12285714 0.033722978 2.3509518e-38
0.017616801 -0.12285714 0.033722978 2.0558538e-38
0.019387666 -0.12285714 0.033722978 1.5579252e-38
0.021158535 -0.12285714 0.033722978 1.1062031e-38
0.023017321 -0.12366976 0.030683856 1.1061681e-38
0.024793517 -0.12366976 0.030683856 1.1246799e-38
0.026765324 -0.12528224 0.024653297 1.1431553e-38
0.028654341 -0.12608187 0.021662693 1.1340079e-38
0.030554481 -0.12688623 0.018654447 1.1064214e-38
0.03246583 -0.12769531 0.015628558 1.1248605e-38
0.034268424 -0.12769531 0.015628558 1.1802134e-38
0.036071017 -0.12769531 0.015628558 1.2446777e-38
0.037873607 -0.12769531 0.015628558 1.3183256e-38
0.039676201 -0.12769531 0.015628558 1.2168018e-38
0.041478794 -0.12769531 0.015628558 1.1982903e-38
0.043281384 -0.12769531 0.015628558 1.19829e-38
-0.044860624 -0.14161004 -0.029375214 5.6051939e-45
-0.042979125 -0.14161004 -0.029375214 4.6097815e-40
-0.04099806 -0.14078392 -0.026305694 2.5818308e-39
-0.039121944 -0.14078392 -0.026305694 3.5959813e-39
-0.037334628 -0.14161004 -0.029375214 7.0068511e-39
-0.03545313 -0.14161004 -0.029375214 1.0141134e-38
-0.033493593 -0.14078392 -0.026305694 1.0970527e-38
-0.031617478 -0.14078392 -0.026305694 1.1339307e-38
-0.029456653 -0.13728772 -0.013315219 1.1246388e-38
-0.027543258 -0.13648613 -0.010336775 1.0969799e-38
-0.025695138 -0.13648613 -0.010336775 1.1154547e-38
-0.023779485 -0.13539489 -0.006282229 1.143078e-38
-0.021938477 -0.13539489 -0.006282229 1.1522978e-38
-0.020058818 -0.13460387 -0.0033431239 9.4936037e-39
-0.018188424 -0.13378824 -0.00031258538 1.0876185e-38
-0.016328827 -0.13297729 0.0027005486 1.2350961e-38
-0.014503564 -0.13297729 0.0027005486 1.3825375e-38
-0.012659921 -0.13217102 0.0056962781 1.594623e-38
-0.010822679 -0.13111271 0.0096285157 1.8527706e-38
-0.0090095671 -0.13111271 0.0096285157 2.0463091e-38
-0.0071937712 -0.13028879 0.012689929 2.0740399e-38
-0.0053886017 -0.1294979 0.015628558 2.2307004e-38
-0.0035860101 -0.1294979 0.015628558 2.350627e-38
-0.0017966805 -0.12868352 0.018654447 2.3507712e-38
6.0535967e-07 -0.12868352 0.018654447 2.3508074e-38
0.0017741565 -0.12787388 0.021662693 2.3509517e-38
0.0035373298 -0.12706901 0.024653297 2.3509879e-38
0.0053240983 -0.12706901 0.024653297 2.350988e-38
0.0071108676 -0.12706901 0.024653297 2.3509883e-38
0.0088976361 -0.12706901 0.024653297 2.3233296e-38
0.010634883 -0.12626885 0.027626377 2.3048905e-38
0.01241644 -0.12626885 0.027626377 2.3417687e-38
0.015979551 -0.12626885 0.027626377 2.3509521e-38
0.019387666 -0.12462802 0.033722978 1.2813386e-38
0.021158535 -0.12462802 0.033722978 1.170704e-38
0.023105774 -0.12626885 0.027626377 1.170669e-38
0.024887331 -0.12626885 0.027626377 1.1798531e-38
0.026862327 -0.12787388 0.021662693 1.1891092e-38
0.028757192 -0.12868352 0.018654447 1.179962e-38
0.030663241 -0.1294979 0.015628558 1.1984731e-38
0.03246583 -0.1294979 0.015628558 1.2445709e-38
0.034268424 -0.1294979 0.015628558 1.2907405e-38
0.036071017 -0.1294979 0.015628558 1.3368378e-38
0.037999842 -0.13028879 0.012689929 1.3829347e-38
0.039676201 -0.1294979 0.015628558 1.3644587e-38
0.041478794 -0.1294979 0.015628558 1.3367999e-38
0.043281384 -0.1294979 0.015628558 1.2354203e-38
0.045230821 -0.13028879 0.012689929 1.327652e-38
0.047038563 -0.13028879 0.012689929 2.3418039e-38
-0.04878163 -0.14457656 -0.033380527 1.0417754e-38
-0.046742123 -0.14349155 -0.029375214 7.744084e-39
-0.044860624 -0.14349155 -0.029375214 7.0064923e-45
-0.042979125 -0.14349155 -0.029375214 2.8025969e-45
-0.041097626 -0.14349155 -0.029375214 1.4751273e-39
-0.039216127 -0.14349155 -0.029375214 2.6740264e-39
-0.037245829 -0.14266007 -0.026305694 4.97855e-39
-0.035369713 -0.14266007 -0.026305694 6.6373469e-39
-0.033493593 -0.14266007 -0.026305694 7.8362432e-39
-0.031617478 -0.14266007 -0.026305694 9.3113705e-39
-0.029456653 -0.13914107 -0.013315219 1.0509549e-38
-0.027543258 -0.13833423 -0.010336775 1.1154916e-38
-0.025695138 -0.13833423 -0.010336775 1.1524054e-38
-0.023730528 -0.13643973 -0.0033431239 1.1614818e-38
-0.021894675 -0.13643973 -0.0033431239 1.1430429e-38
-0.020018969 -0.13561879 -0.00031258538 1.1798497e-38
-0.018188424 -0.13561879 -0.00031258538 1.0137904e-38
-0.016328827 -0.13480256 0.0027005486 9.215949e-39
-0.014479929 -0.13399105 0.0056962781 1.0597807e-38
-0.012635791 -0.13292582 0.0096285157 1.2533913e-38
-0.01080926 -0.13209651 0.012689929 1.4746606e-38
-0.0090015149 -0.13209651 0.012689929 1.7604305e-38
-0.0071911952 -0.13130049 0.015628558 2.0002108e-38
-0.0053912541 -0.13048081 0.018654447 2.0923704e-38
-0.0035939692 -0.13048081 0.018654447 2.2307001e-38
-0.001809868 -0.1296659 0.021662693 2.3229681e-38
-1.7855316e-05 -0.1296659 0.021662693 2.350915e-38
0.0017741565 -0.1296659 0.021662693 2.3509153e-38
0.0035373298 -0.12885578 0.024653297 2.2955622e-38
0.0053240983 -0.12885578 0.024653297 2.2126585e-38
0.0071108676 -0.12885578 0.024653297 2.2956349e-38
0.0088976361 -0.12885578 0.024653297 2.3509883e-38
0.010684405 -0.12885578 0.024653297 2.2403535e-38
0.017831478 -0.12885578 0.024653297 1.2906301e-38
0.025162619 -0.13048081 0.018654447 1.2811602e-38
0.026959907 -0.13048081 0.018654447 1.2627215e-38
0.028757192 -0.13048081 0.018654447 1.2351354e-38
0.030663241 -0.13130049 0.015628558 1.2443912e-38
0.032576609 -0.13209651 0.012689929 1.272158e-38
0.034384351 -0.13209651 0.012689929 1.3091079e-38
0.036192097 -0.13209651 0.012689929 1.336838e-38
0.037999842 -0.13209651 0.012689929 1.3553123e-38
0.039944462 -0.13292582 0.0096285157 1.447543e-38
0.04161533 -0.13209651 0.012689929 1.4567623e-38
0.043423075 -0.13209651 0.012689929 1.2632948e-38
0.045230821 -0.13209651 0.012689929 1.3001731e-38
0.047038563 -0.13209651 0.012689929 2.2036902e-38
0.048846308 -0.13209651 0.012689929 2.3234372e-38
-0.04878163 -0.14646508 -0.033380527 9.4036025e-39
-0.046742123 -0.14537306 -0.029375214 7.5596927e-39
-0.044860624 -0.14537306 -0.029375214 1.6591696e-39
-0.042979125 -0.14537306 -0.029375214 3.6842939e-40
-0.041097626 -0.14537306 -0.029375214 0
-0.039216127 -0.14537306 -0.029375214 3.5873241e-43
-0.037245829 -0.14453618 -0.026305694 1.8442643e-39
-0.035289828 -0.14373477 -0.023366351 9.2194229e-40
-0.033316072 -0.14263238 -0.01932301 1.6587843e-39
-0.031452198 -0.14263238 -0.01932301 3.1339101e-39
-0.029588323 -0.14263238 -0.01932301 5.4391568e-39
-0.027543258 -0.14018236 -0.010336775 8.1124657e-39
-0.025566388 -0.13827558 -0.0033431239 9.5875958e-39
-0.023730528 -0.13827558 -0.0033431239 9.8631051e-39
-0.021894675 -0.13827558 -0.0033431239 9.3095754e-39
-0.020018969 -0.13744931 -0.00031258538 1.0783273e-38
-0.018154085 -0.13662781 0.0027005486 9.5847316e-39
-0.016299937 -0.13581105 0.0056962781 9.8602422e-39
-0.014479929 -0.13581105 0.0056962781 1.1519045e-38
-0.012635791 -0.13473894 0.0096285157 1.2256607e-38
-0.010796378 -0.13310309 0.015628558 1.1795983e-38
-0.0089937868 -0.13310309 0.015628558 1.2256238e-38
-0.0071911952 -0.13310309 0.015628558 1.3271465e-38
-0.0053912541 -0.1322781 0.018654447 1.4008307e-38
-0.0035939692 -0.1322781 0.018654447 1.5115378e-38
-0.001809868 -0.13145791 0.021662693 1.7697217e-38
-1.7855316e-05 -0.13145791 0.021662693 2.1201377e-38
0.0017505614 -0.13064255 0.024653297 2.1294656e-38
0.0035086591 -0.12983195 0.027626377 1.9636216e-38
0.0052902149 -0.12983195 0.027626377 1.9175604e-38
0.0070717717 -0.12983195 0.027626377 2.3232933e-38
0.0088533275 -0.12983195 0.027626377 2.3509886e-38
0.025162619 -0.1322781 0.018654447 1.3457328e-38
0.026959907 -0.1322781 0.018654447 1.3088914e-38
0.028860647 -0.13310309 0.015628558 1.2812333e-38
0.030663241 -0.13310309 0.015628558 1.2536107e-38
0.032576609 -0.13390426 0.012689929 1.2629385e-38
0.034384351 -0.13390426 0.012689929 1.3090723e-38
0.036192097 -0.13390426 0.012689929 1.3552774e-38
0.037999842 -0.13390426 0.012689929 1.3000671e-38
0.039944462 -0.13473894 0.0096285157 1.4200285e-38
0.041757576 -0.13473894 0.0096285157 1.4753812e-38
0.043570686 -0.13473894 0.0096285157 1.3555267e-38
0.0453838 -0.13473894 0.0096285157 1.3463072e-38
0.047038563 -0.13390426 0.012689929 2.0193709e-38
0.048846308 -0.13390426 0.012689929 2.2774111e-38
-0.046893109 -0.14835359 -0.033380527 7.9284752e-39
-0.045004588 -0.14835359 -0.033380527 1.6591724e-39
-0.042979125 -0.14725454 -0.029375214 7.0064923e-45
-0.041097626 -0.14725454 -0.029375214 2.8025969e-45
-0.039216127 -0.14725454 -0.029375214 0
-0.037334628 -0.14725454 -0.029375214 9.2552961e-41
-0.035289828 -0.14560573 -0.023366351 1.0137862e-39
-0.033316072 -0.14449625 -0.01932301 4.6061241e-40
-0.031452198 -0.14449625 -0.01932301 3.6877691e-40
-0.029588323 -0.14449625 -0.01932301 1.9353711e-39
-0.025566388 -0.14011143 -0.0033431239 6.5447883e-39
-0.023730528 -0.14011143 -0.0033431239 8.0188394e-39
-0.021894675 -0.14011143 -0.0033431239 8.4798203e-39
-0.020018969 -0.13927986 -0.00031258538 8.8471665e-39
-0.018154085 -0.13845308 0.0027005486 9.2155959e-39
-0.016299937 -0.13763104 0.0056962781 1.041306e-38
-0.014479929 -0.13763104 0.0056962781 1.1519048e-38
-0.012635791 -0.13655205 0.0096285157 1.1702713e-38
-0.010796378 -0.13490568 0.015628558 1.0965144e-38
-0.0089937868 -0.13490568 0.015628558 1.0688191e-38
-0.0071885427 -0.13407536 0.018654447 1.078146e-38
-0.0053912541 -0.13407536 0.018654447 1.031976e-38
-0.0035939692 -0.13407536 0.018654447 1.1611218e-38
-0.001809868 -0.13324992 0.021662693 1.3548049e-38
-1.7855316e-05 -0.13324992 0.021662693 1.6406478e-38
0.0017505614 -0.13242932 0.024653297 1.6131336e-38
0.0035086591 -0.13161351 0.027626377 1.6224978e-38
0.0052553704 -0.13077454 0.030683856 1.71473e-38
0.0070315655 -0.13077454 0.030683856 2.350988e-38
0.0087189423 -0.12913923 0.036643486 2.2772321e-38
0.010484689 -0.12913923 0.036643486 2.3509886e-38
0.023452871 -0.13490568 0.015628558 1.3182533e-38
0.025255464 -0.13490568 0.015628558 1.3367647e-38
0.027058054 -0.13490568 0.015628558 1.3551687e-38
0.028860647 -0.13490568 0.015628558 1.3275106e-38
0.030768864 -0.13571201 0.012689929 1.2813776e-38
0.032576609 -0.13571201 0.012689929 1.2814136e-38
0.034505125 -0.13655205 0.0096285157 1.3275833e-38
0.036318239 -0.13655205 0.0096285157 1.3737886e-38
0.038131349 -0.13655205 0.0096285157 1.3094309e-38
0.039944462 -0.13655205 0.0096285157 1.4016976e-38
0.041757576 -0.13655205 0.0096285157 1.4846731e-38
0.043760285 -0.13763104 0.0056962781 1.4847085e-38
0.045580294 -0.13763104 0.0056962781 1.4938202e-38
0.04719691 -0.13655205 0.0096285157 1.8625308e-38
0.049010023 -0.13655205 0.0096285157 2.1205708e-38
0.050823137 -0.13655205 0.0096285157 2.3325129e-38
-0.042979125 -0.14913605 -0.029375214 1.0138002e-39
-0.041097626 -0.14913605 -0.029375214 2.8025969e-45
-0.039216127 -0.14913605 -0.029375214 4.6097535e-40
-0.037334628 -0.14913605 -0.029375214 1.8474719e-40
-0.03545313 -0.14913605 -0.029375214 3.6806365e-40
-0.027402241 -0.14194728 -0.0033431239 2.7550649e-40
-0.025566388 -0.14194728 -0.0033431239 8.2831313e-40
-0.023730528 -0.14194728 -0.0033431239 2.2101602e-39
-0.021894675 -0.14194728 -0.0033431239 3.4079845e-39
-0.020018969 -0.14111041 -0.00031258538 5.5277707e-39
-0.018188424 -0.14111041 -0.00031258538 7.2784115e-39
-0.01635788 -0.14111041 -0.00031258538 8.7528227e-39
-0.014479929 -0.13945107 0.0056962781 9.2130778e-39
-0.012659921 -0.13945107 0.0056962781 9.4892989e-39
-0.010796378 -0.13670824 0.015628558 1.0042827e-38
-0.0089937868 -0.13670824 0.015628558 1.0411604e-38
-0.0071885427 -0.13587265 0.018654447 1.0411959e-38
-0.0053912541 -0.13587265 0.018654447 1.0965486e-38
-0.0036018798 -0.13504194 0.021662693 1.2809395e-38
-0.001809868 -0.13504194 0.021662693 1.2348783e-38
-3.6207959e-05 -0.13421609 0.024653297 1.1151685e-38
0.0017271033 -0.13339506 0.027626377 1.0323367e-38
0.0034791753 -0.13255073 0.030683856 1.3920084e-38
0.0052553704 -0.13255073 0.030683856 1.6317539e-38
0.0069916006 -0.1317115 0.033722978 2.350988e-38
0.0087189423 -0.13090499 0.036643486 2.3509886e-38
0.010484689 -0.13090499 0.036643486 2.1665973e-38
0.012250434 -0.13090499 0.036643486 2.138867e-38
0.023452871 -0.13670824 0.015628558 1.3460915e-38
0.025255464 -0.13670824 0.015628558 1.3554553e-38
0.027058054 -0.13670824 0.015628558 1.4014101e-38
0.028860647 -0.13670824 0.015628558 1.3737163e-38
0.030768864 -0.13751976 0.012689929 1.3183637e-38
0.032576609 -0.13751976 0.012689929 1.2814858e-38
0.034384351 -0.13751976 0.012689929 1.2631543e-38
0.036318239 -0.13836516 0.0096285157 1.2724454e-38
0.038131349 -0.13836516 0.0096285157 1.3279422e-38
0.039944462 -0.13836516 0.0096285157 1.3740752e-38
0.041757576 -0.13836516 0.0096285157 1.447867e-38
0.043760285 -0.13945107 0.0056962781 1.5492456e-38
0.045580294 -0.13945107 0.0056962781 1.6136027e-38
0.04719691 -0.13836516 0.0096285157 1.7609717e-38
0.049010023 -0.13836516 0.0096285157 1.9452912e-38
0.050823137 -0.13836516 0.0096285157 2.1664528e-38
0.052636247 -0.13836516 0.0096285157 1.9635863e-38
-0.027402241 -0.14378314 -0.0033431239 2.7550649e-40
-0.025566388 -0.14378314 -0.0033431239 3.6734198e-40
-0.023730528 -0.14378314 -0.0033431239 5.5101298e-40
-0.021894675 -0.14378314 -0.0033431239 9.1871369e-40
-0.020058818 -0.14378314 -0.0033431239 2.5775134e-39
-0.014448903 -0.14017828 0.0096285157 8.8442981e-39
-0.012635791 -0.14017828 0.0096285157 9.6736902e-39
-0.010796378 -0.13851084 0.015628558 1.0503805e-38
-0.0089937868 -0.13851084 0.015628558 1.0780027e-38
-0.0071885427 -0.13766994 0.018654447 1.0134653e-38
-0.0053912541 -0.13766994 0.018654447 9.950612e-39
-0.0036018798 -0.13683395 0.021662693 1.1610851e-38
-0.0018229773 -0.13600285 0.024653297 9.9516938e-39
-3.6207959e-05 -0.13600285 0.024653297 7.5560522e-39
0.0017271033 -0.13517661 0.027626377 7.373107e-39
0.0034791753 -0.13432692 0.030683856 1.3274713e-38
0.0052207345 -0.13348235 0.033722978 1.6040949e-38
0.0069916006 -0.13348235 0.033722978 2.350988e-38
0.0087189423 -0.13267075 0.036643486 2.3509886e-38
0.010484689 -0.13267075 0.036643486 1.9361085e-38
0.012250434 -0.13267075 0.036643486 1.9452562e-38
0.023452871 -0.13851084 0.015628558 1.373966e-38
0.025255464 -0.13851084 0.015628558 1.3648906e-38
0.027058054 -0.13851084 0.015628558 1.401662e-38
0.028860647 -0.13851084 0.015628558 1.4384327e-38
0.030663241 -0.13851084 0.015628558 1.4199584e-38
0.032576609 -0.13932751 0.012689929 1.373825e-38
0.034384351 -0.13932751 0.012689929 1.3000688e-38
0.036192097 -0.13932751 0.012689929 1.2356392e-38
0.037999842 -0.13932751 0.012689929 1.2818444e-38
0.039807588 -0.13932751 0.012689929 1.3464165e-38
0.04161533 -0.13932751 0.012689929 1.38333e-38
0.043570686 -0.14017828 0.0096285157 1.5306986e-38
0.045580294 -0.14127107 0.0056962781 1.6780318e-38
0.04719691 -0.14017828 0.0096285157 1.7332413e-38
0.049010023 -0.14017828 0.0096285157 1.8989416e-38
0.050823137 -0.14017828 0.0096285157 2.0187959e-38
0.052636247 -0.14017828 0.0096285157 1.8989414e-38
0.054096937 -0.13851084 0.015628558 1.2720468e-38
-0.025566388 -0.14561899 -0.0033431239 3.6770072e-40
-0.023730528 -0.14561899 -0.0033431239 5.5137171e-40
-0.014401563 -0.14031343 0.015628558 2.4835199e-39
-0.012598972 -0.14031343 0.015628558 3.6824162e-39
-0.010796378 -0.14031343 0.015628558 6.5397562e-39
-0.0089937868 -0.14031343 0.015628558 9.0286725e-39
-0.0071885427 -0.13946722 0.018654447 1.0043179e-38
-0.0053912541 -0.13946722 0.018654447 1.1242438e-38
-0.0036018798 -0.13862596 0.021662693 1.1888528e-38
-0.0018229773 -0.13778962 0.024653297 1.0045337e-38
-3.6207959e-05 -0.13778962 0.024653297 8.4787329e-39
0.0017271033 -0.13695817 0.027626377 8.4798203e-39
0.0034791753 -0.13610314 0.030683856 1.36435e-38
0.0052207345 -0.13525321 0.033722978 1.5118996e-38
0.0069531966 -0.13443647 0.036643486 2.2956346e-38
0.0087189423 -0.13443647 0.036643486 2.2310624e-38
0.01043466 -0.13359652 0.039646965 1.8807192e-38
0.012195141 -0.13359652 0.039646965 1.9360366e-38
0.01401618 -0.13443647 0.036643486 1.8991584e-38
0.023452871 -0.14031343 0.015628558 1.38315e-38
0.025255464 -0.14031343 0.015628558 1.3648906e-38
0.027058054 -0.14031343 0.015628558 1.4201011e-38
0.028860647 -0.14031343 0.015628558 1.5306284e-38
0.030663241 -0.14031343 0.015628558 1.6135691e-38
0.032576609 -0.14113526 0.012689929 1.6043497e-38
0.034384351 -0.14113526 0.012689929 1.5121541e-38
0.036192097 -0.14113526 0.012689929 1.4016271e-38
0.037999842 -0.14113526 0.012689929 1.2449658e-38
0.039807588 -0.14113526 0.012689929 1.3371969e-38
0.04161533 -0.14113526 0.012689929 1.3648193e-38
0.043570686 -0.14199139 0.0096285157 1.4845654e-38
0.045580294 -0.14309107 0.0056962781 1.7149103e-38
0.04719691 -0.14199139 0.0096285157 1.7885589e-38
0.049010023 -0.14199139 0.0096285157 1.917453e-38
0.050823137 -0.14199139 0.0096285157 1.9634785e-38
0.052294344 -0.14031343 0.015628558 1.8620632e-38
0.054096937 -0.14031343 0.015628558 1.318109e-38
0.055899531 -0.14031343 0.015628558 1.1153865e-38
-0.014448903 -0.14380451 0.0096285157 8.2651947e-40
-0.012598972 -0.14211603 0.015628558 2.6697034e-39
-0.010796378 -0.14211603 0.015628558 2.4845891e-39
-0.0089937868 -0.14211603 0.015628558 3.5905751e-39
-0.0071885427 -0.14126451 0.018654447 9.5836512e-39
-0.0053912541 -0.14126451 0.018654447 1.0230461e-38
-0.0036018798 -0.14041798 0.021662693 1.0601044e-38
-0.001809868 -0.14041798 0.021662693 1.0231906e-38
-3.6207959e-05 -0.13957639 0.024653297 8.0192107e-39
0.0017271033 -0.13873972 0.027626377 8.6645829e-39
0.0034791753 -0.13787933 0.030683856 1.3274366e-38
0.0052207345 -0.13702409 0.033722978 1.5394509e-38
0.0069531966 -0.13620223 0.036643486 2.1941118e-38
0.0087189423 -0.13620223 0.036643486 2.175673e-38
0.01043466 -0.13535701 0.039646965 1.8530603e-38
0.012195141 -0.13535701 0.039646965 1.8254016e-38
0.01401618 -0.13620223 0.036643486 1.834693e-38
0.015781928 -0.13620223 0.036643486 1.8255454e-38
0.017547671 -0.13620223 0.036643486 1.4107371e-38
0.023452871 -0.14211603 0.015628558 1.4752743e-38
0.025255464 -0.14211603 0.015628558 1.35542e-38
0.027058054 -0.14211603 0.015628558 1.4106297e-38
0.028860647 -0.14211603 0.015628558 1.5397037e-38
0.030663241 -0.14211603 0.015628558 1.6318994e-38
0.03246583 -0.14211603 0.015628558 1.7701928e-38
0.034384351 -0.14294298 0.012689929 1.7517537e-38
0.036192097 -0.14294298 0.012689929 1.5213366e-38
0.037999842 -0.14294298 0.012689929 1.3646758e-38
0.039807588 -0.14294298 0.012689929 1.2724802e-38
0.04161533 -0.14294298 0.012689929 1.3001745e-38
0.043423075 -0.14294298 0.012689929 1.5582503e-38
0.0453838 -0.14380451 0.0096285157 1.7242028e-38
0.047038563 -0.14294298 0.012689929 1.8440571e-38
0.048846308 -0.14294298 0.012689929 1.8716079e-38
0.050654054 -0.14294298 0.012689929 1.7977429e-38
0.052294344 -0.14211603 0.015628558 1.8898299e-38
0.054096937 -0.14211603 0.015628558 1.1890351e-38
0.055899531 -0.14211603 0.015628558 1.1338258e-38
-0.014448903 -0.14561762 0.0096285157 3.6734198e-40
-0.012617004 -0.14475073 0.012689929 1.4726007e-39
-0.01080926 -0.14475073 0.012689929 1.1952964e-39
-0.0089937868 -0.14391862 0.015628558 2.6697034e-39
-0.0071911952 -0.14391862 0.015628558 8.7553338e-39
-0.0053912541 -0.1430618 0.018654447 9.863845e-39
-0.0036018798 -0.14220999 0.021662693 1.0141152e-38
-0.001809868 -0.14220999 0.021662693 9.8645653e-39
-3.6207959e-05 -0.14136316 0.024653297 8.5727488e-39
0.0017271033 -0.14052127 0.027626377 8.8489756e-39
0.0034791753 -0.13965552 0.030683856 1.2167662e-38
0.0052207345 -0.13879494 0.033722978 1.4011575e-38
0.0069531966 -0.13796796 0.036643486 2.0834052e-38
0.0087189423 -0.13796796 0.036643486 1.8806469e-38
0.010484689 -0.13796796 0.036643486 1.7146948e-38
0.012250434 -0.13796796 0.036643486 1.733206e-38
0.01401618 -0.13796796 0.036643486 1.7332778e-38
0.015781928 -0.13796796 0.036643486 1.7057633e-38
0.017547671 -0.13796796 0.036643486 1.4108092e-38
0.019464932 -0.13965552 0.030683856 1.4385758e-38
0.021650281 -0.14391862 0.015628558 1.5675418e-38
0.023452871 -0.14391862 0.015628558 1.5489232e-38
0.025255464 -0.14391862 0.015628558 1.5396317e-38
0.027058054 -0.14391862 0.015628558 1.6041686e-38
0.028860647 -0.14391862 0.015628558 1.724023e-38
0.030663241 -0.14391862 0.015628558 1.871536e-38
0.03246583 -0.14391862 0.015628558 2.0374881e-38
0.034384351 -0.14475073 0.012689929 2.0928771e-38
0.036192097 -0.14475073 0.012689929 2.0283402e-38
0.037999842 -0.14475073 0.012689929 1.733422e-38
0.039807588 -0.14475073 0.012689929 1.4107373e-38
