# .PCD v0.7 - Point Cloud Data file format
VERSION 0.7
FIELDS x y z rgb
SIZE 4 4 4 4
TYPE F F F F
COUNT 1 1 1 1
WIDTH 931
HEIGHT 1
VIEWPOINT 0 0 0 1 0 0 0
POINTS 931
DATA ascii
-0.010470569 -0.10915731 -0.0089079021 1.0882319e-38
-0.0085645672 -0.10915731 -0.0089079021 8.3008437e-39
-0.0066585634 -0.10915731 -0.0089079021 9.4043396e-39
-0.0047709066 -0.1075124 -0.0019327281 1.3461303e-38
-0.0028771348 -0.1075124 -0.0019327281 1.1526609e-38
-0.00098336115 -0.1075124 -0.0019327281 1.0697204e-38
-0.065284967 -0.11770664 -0.036870826 2.3142544e-38
-0.063182697 -0.11700659 -0.033924211 2.2865958e-38
-0.061232831 -0.11700659 -0.033924211 2.3509886e-38
-0.05928297 -0.11700659 -0.033924211 2.3417327e-38
-0.057333101 -0.11700659 -0.033924211 2.3509521e-38
-0.055210281 -0.11605005 -0.029897917 2.3508439e-38
-0.053267475 -0.11605005 -0.029897917 2.3509161e-38
-0.051324677 -0.11605005 -0.029897917 2.3509161e-38
-0.049381867 -0.11605005 -0.029897917 2.3048189e-38
-0.047330126 -0.11533 -0.02686714 2.341805e-38
-0.045392636 -0.11533 -0.02686714 2.3142185e-38
-0.043455146 -0.11533 -0.02686714 2.1575231e-38
-0.041395675 -0.11438553 -0.022891749 1.8626052e-38
-0.039465155 -0.11438553 -0.022891749 1.4108464e-38
-0.037534636 -0.11438553 -0.022891749 1.1247878e-38
-0.035604116 -0.11438553 -0.022891749 7.2838079e-39
-0.033767689 -0.11533 -0.02686714 7.0082734e-39
-0.031656574 -0.11344786 -0.018944968 1.3463024e-38
-0.029732972 -0.11344786 -0.018944968 1.7796918e-38
-0.02199794 -0.1127138 -0.015855182 7.3781461e-39
-0.020079758 -0.1127138 -0.015855182 2.0468869e-38
-0.018267766 -0.11533 -0.02686714 2.0561083e-38
-0.016330274 -0.11533 -0.02686714 1.8163643e-38
-0.014392782 -0.11533 -0.02686714 1.6966531e-38
-0.012420567 -0.11344786 -0.018944968 5.3505863e-39
-0.010478282 -0.11176009 -0.011840808 9.4078961e-39
-0.0085645672 -0.11106332 -0.0089079021 1.5676843e-38
-0.0066585634 -0.11106332 -0.0089079021 1.5490322e-38
-0.0047709066 -0.10940616 -0.0019327281 1.6688147e-38
-0.0028771348 -0.10940616 -0.0019327281 1.1526615e-38
-0.00098336115 -0.10940616 -0.0019327281 9.8670932e-39
0.0009654453 -0.11106332 -0.0089079021 6.2704043e-39
-0.06724 -0.11966167 -0.036870826 2.2589734e-38
-0.065132558 -0.11895646 -0.033924211 2.3142544e-38
-0.063182697 -0.11895646 -0.033924211 2.3234379e-38
-0.061232831 -0.11895646 -0.033924211 2.3509886e-38
-0.05928297 -0.11895646 -0.033924211 2.3325131e-38
-0.057153087 -0.11799283 -0.029897917 2.3509521e-38
-0.055210281 -0.11799283 -0.029897917 2.3416245e-38
-0.053267475 -0.11799283 -0.029897917 2.3509879e-38
-0.05120511 -0.11726747 -0.02686714 2.3509521e-38
-0.049267616 -0.11726747 -0.02686714 2.3509883e-38
-0.047330126 -0.11726747 -0.02686714 2.3509886e-38
-0.045392636 -0.11726747 -0.02686714 2.341805e-38
-0.043326195 -0.11631607 -0.022891749 2.1113165e-38
-0.041395675 -0.11631607 -0.022891749 1.936217e-38
-0.039350975 -0.11537148 -0.018944968 1.4106297e-38
-0.037427377 -0.11537148 -0.018944968 1.216982e-38
-0.035604116 -0.11631607 -0.022891749 6.5462302e-39
-0.033767689 -0.11726747 -0.02686714 7.1922961e-39
-0.031656574 -0.11537148 -0.018944968 1.7150481e-38
-0.029732972 -0.11537148 -0.018944968 1.7243736e-38
-0.02199794 -0.114632 -0.015855182 1.0789738e-38
-0.020079758 -0.114632 -0.015855182 2.1483377e-38
-0.018191367 -0.11537148 -0.018944968 2.3142544e-38
-0.016298909 -0.11631607 -0.022891749 2.3142544e-38
-0.014325205 -0.114632 -0.015855182 1.8625322e-38
-0.012407023 -0.114632 -0.015855182 9.6830523e-39
-0.010478282 -0.11367123 -0.011840808 9.7759513e-39
-0.0085671376 -0.11367123 -0.011840808 1.4293183e-38
-0.0066585634 -0.11296929 -0.0089079021 1.401518e-38
-0.004760541 -0.11224325 -0.0058742641 1.2355307e-38
-0.0028598569 -0.11224325 -0.0058742641 1.1249673e-38
-0.00094055757 -0.11296929 -0.0089079021 8.0228289e-39
0.0009654453 -0.11296929 -0.0089079021 8.2983452e-39
0.0028714472 -0.11296929 -0.0089079021 7.1912731e-39
0.028872218 -0.10818647 0.011076343 2.2496101e-38
0.030743182 -0.10818647 0.011076343 2.3509883e-38
-0.069032282 -0.12090631 -0.033924211 1.3460925e-38
-0.06708242 -0.12090631 -0.033924211 2.3234379e-38
-0.065132558 -0.12090631 -0.033924211 2.3234379e-38
-0.063182697 -0.12090631 -0.033924211 2.3233662e-38
-0.061038699 -0.11993565 -0.029897917 2.341805e-38
-0.059095886 -0.11993565 -0.029897917 2.3325492e-38
-0.057153087 -0.11993565 -0.029897917 2.3509883e-38
-0.055210281 -0.11993565 -0.029897917 2.350988e-38
-0.053142603 -0.11920498 -0.02686714 2.3508441e-38
-0.05120511 -0.11920498 -0.02686714 2.3509158e-38
-0.049267616 -0.11920498 -0.02686714 2.332405e-38
-0.047330126 -0.11920498 -0.02686714 2.2956346e-38
-0.045256715 -0.11824657 -0.022891749 2.3509164e-38
-0.043326195 -0.11824657 -0.022891749 2.1573414e-38
-0.041274574 -0.11729507 -0.018944968 2.0374871e-38
-0.039261587 -0.11655019 -0.015855182 1.640938e-38
-0.037343401 -0.11655019 -0.015855182 1.2352408e-38
-0.03542522 -0.11655019 -0.015855182 8.3887009e-39
-0.033507038 -0.11655019 -0.015855182 9.4035507e-39
-0.031588856 -0.11655019 -0.015855182 1.8900756e-38
-0.029670671 -0.11655019 -0.015855182 2.0285112e-38
-0.027752489 -0.11655019 -0.015855182 2.0102149e-38
-0.023916122 -0.11655019 -0.015855182 1.0237592e-38
-0.02199794 -0.11655019 -0.015855182 1.8072468e-38
-0.020079758 -0.11655019 -0.015855182 2.3234372e-38
-0.018161573 -0.11655019 -0.015855182 2.0376673e-38
-0.016267769 -0.11729507 -0.018944968 2.2958154e-38
-0.014325205 -0.11655019 -0.015855182 2.0929847e-38
-0.012407023 -0.11655019 -0.015855182 1.7611156e-38
-0.010478282 -0.11558239 -0.011840808 2.1299689e-38
-0.0085619073 -0.11414395 -0.0058742641 2.3234364e-38
-0.0066612232 -0.11414395 -0.0058742641 2.2866311e-38
-0.004760541 -0.11414395 -0.0058742641 2.0745461e-38
-0.0028598569 -0.11414395 -0.0058742641 1.8440213e-38
-0.00094055757 -0.1148753 -0.0089079021 7.6533275e-39
0.0009654453 -0.1148753 -0.0089079021 6.5466268e-39
0.0028421925 -0.11414395 -0.0058742641 6.2689497e-39
0.0047428757 -0.11414395 -0.0058742641 9.2184616e-39
0.019848134 -0.11319371 -0.0019327281 2.285947e-38
0.021741908 -0.11319371 -0.0019327281 2.055674e-38
0.023549037 -0.11247168 0.0010621669 2.277301e-38
0.02543756 -0.11247168 0.0010621669 2.3418021e-38
0.027096596 -0.11076607 0.0081369998 2.3509873e-38
0.028872218 -0.11005743 0.011076343 2.3509876e-38
0.030743182 -0.11005743 0.011076343 2.2588986e-38
0.032614145 -0.11005743 0.011076343 1.5674308e-38
-0.072517514 -0.12114246 -0.02686714 1.207654e-38
-0.070580021 -0.12114246 -0.02686714 1.2353849e-38
-0.068642527 -0.12114246 -0.02686714 1.5395951e-38
-0.066867113 -0.12187846 -0.029897917 2.3509886e-38
-0.065132558 -0.12285618 -0.033924211 2.3509886e-38
-0.062981501 -0.12187846 -0.029897917 2.304927e-38
-0.061038699 -0.12187846 -0.029897917 2.341805e-38
-0.059095886 -0.12187846 -0.029897917 2.341805e-38
-0.057017576 -0.12114246 -0.02686714 2.3509886e-38
-0.05508009 -0.12114246 -0.02686714 2.3509883e-38
-0.053142603 -0.12114246 -0.02686714 2.350988e-38
-0.05120511 -0.12114246 -0.02686714 2.3509879e-38
-0.049117759 -0.12017711 -0.022891749 2.3509879e-38
-0.047187239 -0.12017711 -0.022891749 2.3509517e-38
-0.045121778 -0.11921866 -0.018944968 2.3509514e-38
-0.043198176 -0.11921866 -0.018944968 2.21237e-38
-0.041179769 -0.11846836 -0.015855182 2.0371983e-38
-0.039261587 -0.11846836 -0.015855182 1.7974178e-38
-0.037234306 -0.11749353 -0.011840808 1.7052227e-38
-0.035323162 -0.11749353 -0.011840808 1.6775989e-38
-0.033412017 -0.11749353 -0.011840808 1.6777759e-38
-0.031500872 -0.11749353 -0.011840808 2.0650678e-38
-0.029589728 -0.11749353 -0.011840808 2.0190767e-38
-0.027678583 -0.11749353 -0.011840808 1.9824123e-38
-0.025834303 -0.11846836 -0.015855182 1.7981624e-38
-0.023916122 -0.11846836 -0.015855182 1.9088348e-38
-0.02199794 -0.11846836 -0.015855182 2.3326173e-38
-0.020079758 -0.11846836 -0.015855182 2.3509873e-38
-0.018161573 -0.11846836 -0.015855182 1.4936746e-38
-0.016243391 -0.11846836 -0.015855182 2.1667393e-38
-0.014300572 -0.11749353 -0.011840808 2.3234015e-38
-0.012389427 -0.11749353 -0.011840808 2.341805e-38
-0.010470569 -0.11678131 -0.0089079021 2.3418045e-38
-0.0085619073 -0.11604463 -0.0058742641 2.3418043e-38
-0.0066612232 -0.11604463 -0.0058742641 2.3141816e-38
-0.004760541 -0.11604463 -0.0058742641 2.2957428e-38
-0.0028598569 -0.11604463 -0.0058742641 2.3233662e-38
-0.00095917378 -0.11604463 -0.0058742641 8.4823651e-39
0.00094150938 -0.11604463 -0.0058742641 7.283466e-39
0.0028421925 -0.11604463 -0.0058742641 7.1908962e-39
0.0047428757 -0.11604463 -0.0058742641 1.0232965e-38
0.017954363 -0.11508749 -0.0019327281 1.8804624e-38
0.019848134 -0.11508749 -0.0019327281 2.1386138e-38
0.021660516 -0.1143602 0.0010621669 2.1110638e-38
0.023433164 -0.11338757 0.0050674798 2.3509866e-38
0.025314663 -0.11338757 0.0050674798 2.1574828e-38
0.027096596 -0.11264218 0.0081369998 2.350987e-38
0.028972715 -0.11264218 0.0081369998 2.2219849e-38
0.030743182 -0.11192839 0.011076343 2.3509863e-38
0.032614145 -0.11192839 0.011076343 1.5582112e-38
0.034485105 -0.11192839 0.011076343 1.3277222e-38
0.036768686 -0.1143602 0.0010621669 2.3233999e-38
0.038657211 -0.1143602 0.0010621669 2.3509886e-38
0.048254721 -0.11508749 -0.0019327281 4.426458e-39
-0.074214533 -0.12210761 -0.022891749 1.2353124e-38
-0.072284013 -0.12210761 -0.022891749 1.1984344e-38
-0.070353493 -0.12210761 -0.022891749 1.1523009e-38
-0.068642527 -0.12307997 -0.02686714 1.5856209e-38
-0.066705033 -0.12307997 -0.02686714 2.3509168e-38
-0.06476754 -0.12307997 -0.02686714 2.3509527e-38
-0.062830061 -0.12307997 -0.02686714 2.3509886e-38
-0.060892563 -0.12307997 -0.02686714 2.341805e-38
-0.05895507 -0.12307997 -0.02686714 2.341805e-38
-0.057017576 -0.12307997 -0.02686714 2.3234379e-38
-0.05508009 -0.12307997 -0.02686714 2.3326213e-38
-0.053142603 -0.12307997 -0.02686714 2.3509883e-38
-0.05120511 -0.12307997 -0.02686714 2.3509879e-38
-0.049117759 -0.12210761 -0.022891749 2.3508437e-38
-0.047187239 -0.12210761 -0.022891749 2.3414436e-38
-0.045121778 -0.12114228 -0.018944968 2.3509149e-38
-0.043097954 -0.12038656 -0.015855182 2.2398478e-38
-0.041179769 -0.12038656 -0.015855182 2.2581427e-38
-0.039145451 -0.11940466 -0.011840808 2.3503386e-38
-0.037234306 -0.11940466 -0.011840808 2.3319362e-38
-0.035323162 -0.11940466 -0.011840808 2.3228239e-38
-0.033412017 -0.11940466 -0.011840808 2.1386101e-38
-0.031500872 -0.11940466 -0.011840808 2.1110943e-38
-0.029589728 -0.11940466 -0.011840808 2.0926548e-38
-0.027678583 -0.11940466 -0.011840808 1.9084771e-38
-0.025767442 -0.11940466 -0.011840808 1.5584172e-38
-0.023856293 -0.11940466 -0.011840808 1.9456403e-38
-0.021945149 -0.11940466 -0.011840808 2.3509851e-38
-0.020034004 -0.11940466 -0.011840808 2.3141086e-38
-0.018122859 -0.11940466 -0.011840808 2.0837255e-38
-0.016243391 -0.12038656 -0.015855182 2.3509856e-38
-0.014300572 -0.11940466 -0.011840808 2.3325127e-38
-0.012376571 -0.11868732 -0.0089079021 2.3509527e-38
-0.010470569 -0.11868732 -0.0089079021 2.2310626e-38
-0.0085584521 -0.11698125 -0.0019327281 2.3509883e-38
-0.0066646785 -0.11698125 -0.0019327281 2.3509879e-38
-0.004760541 -0.11794533 -0.0058742641 2.3049256e-38
-0.0028598569 -0.11794533 -0.0058742641 2.3233296e-38
-0.00095917378 -0.11794533 -0.0058742641 8.3898023e-39
0.00094150938 -0.11794533 -0.0058742641 6.7299279e-39
0.0028421925 -0.11794533 -0.0058742641 7.5585969e-39
0.0047428757 -0.11794533 -0.0058742641 1.0139688e-38
0.017883474 -0.11624874 0.0010621669 9.4013927e-39
0.019771995 -0.11624874 0.0010621669 1.1246061e-38
0.021660516 -0.11624874 0.0010621669 1.2997792e-38
0.023433164 -0.11526908 0.0050674798 1.3735704e-38
0.025314663 -0.11526908 0.0050674798 1.1801029e-38
0.027196161 -0.11526908 0.0050674798 1.4382507e-38
0.028972715 -0.1145183 0.0081369998 1.2630787e-38
0.030848831 -0.1145183 0.0081369998 2.0928748e-38
0.032724947 -0.1145183 0.0081369998 2.2220203e-38
0.034722157 -0.11526908 0.0050674798 2.3509869e-38
0.036768686 -0.11624874 0.0010621669 2.3325843e-38
0.038657211 -0.11624874 0.0010621669 2.3233662e-38
-0.074214533 -0.12403814 -0.022891749 1.2629348e-38
-0.072052181 -0.12306587 -0.018944968 1.2906298e-38
-0.07012859 -0.12306587 -0.018944968 1.3275083e-38
-0.068422973 -0.12403814 -0.022891749 1.6776365e-38
-0.066705033 -0.12501745 -0.02686714 2.3508088e-38
-0.06476754 -0.12501745 -0.02686714 2.3509527e-38
-0.062830061 -0.12501745 -0.02686714 2.3509527e-38
-0.060892563 -0.12501745 -0.02686714 2.341805e-38
-0.05895507 -0.12501745 -0.02686714 2.3234379e-38
-0.057017576 -0.12501745 -0.02686714 2.2958514e-38
-0.05508009 -0.12501745 -0.02686714 2.3142544e-38
-0.053142603 -0.12501745 -0.02686714 2.3049626e-38
-0.05120511 -0.12501745 -0.02686714 2.3232932e-38
-0.049117759 -0.12403814 -0.022891749 2.3509873e-38
-0.047045376 -0.12306587 -0.018944968 2.3509149e-38
-0.045016136 -0.12230472 -0.015855182 2.3508783e-38
-0.043097954 -0.12230472 -0.015855182 2.1658384e-38
-0.041056596 -0.12131582 -0.011840808 2.1287437e-38
-0.039145451 -0.12131582 -0.011840808 2.3223546e-38
-0.037234306 -0.12131582 -0.011840808 2.3133161e-38
-0.035323162 -0.12131582 -0.011840808 2.092226e-38
-0.033412017 -0.12131582 -0.011840808 1.898722e-38
-0.031500872 -0.12131582 -0.011840808 1.8619511e-38
-0.029589728 -0.12131582 -0.011840808 1.8803905e-38
-0.027678583 -0.12131582 -0.011840808 1.4841989e-38
-0.025767442 -0.12131582 -0.011840808 1.2262986e-38
-0.023856293 -0.12131582 -0.011840808 2.1943897e-38
-0.021945149 -0.12131582 -0.011840808 2.3509859e-38
-0.020034004 -0.12131582 -0.011840808 2.34166e-38
-0.018122859 -0.12131582 -0.011840808 2.3509852e-38
-0.016243391 -0.12230472 -0.015855182 2.3417651e-38
-0.014300572 -0.12131582 -0.011840808 2.3508793e-38
-0.012376571 -0.12059332 -0.0089079021 2.3509168e-38
-0.01046259 -0.119846 -0.0058742641 2.3508092e-38
-0.0085584521 -0.11887501 -0.0019327281 2.3509168e-38
-0.0066646785 -0.11887501 -0.0019327281 2.3508798e-38
-0.004760541 -0.119846 -0.0058742641 2.1388649e-38
-0.0028598569 -0.119846 -0.0058742641 2.0098988e-38
-0.00095917378 -0.119846 -0.0058742641 9.957114e-39
0.00094150938 -0.119846 -0.0058742641 7.6518743e-39
0.0028421925 -0.119846 -0.0058742641 8.2036048e-39
0.0046979552 -0.11887501 -0.0019327281 8.571646e-39
0.006591728 -0.11887501 -0.0019327281 9.9534917e-39
0.0084854998 -0.11887501 -0.0019327281 1.4930261e-38
0.010262674 -0.11715056 0.0050674798 2.3506985e-38
0.012087662 -0.11639442 0.0081369998 2.3508075e-38
0.013963779 -0.11639442 0.0081369998 9.859152e-39
0.015839895 -0.11639442 0.0081369998 7.6496771e-39
0.017716013 -0.11639442 0.0081369998 7.0975879e-39
0.019670166 -0.11715056 0.0050674798 6.9143051e-39
0.021551665 -0.11715056 0.0050674798 8.5738447e-39
0.023433164 -0.11715056 0.0050674798 8.7560863e-39
0.025314663 -0.11715056 0.0050674798 9.4018131e-39
0.027196161 -0.11715056 0.0050674798 1.1153876e-38
0.02907766 -0.11715056 0.0050674798 2.0559263e-38
0.030959159 -0.11715056 0.0050674798 2.3509879e-38
0.032840658 -0.11715056 0.0050674798 2.3509879e-38
0.034722157 -0.11715056 0.0050674798 2.3048905e-38
0.036768686 -0.11813726 0.0010621669 2.3509886e-38
0.052042268 -0.11887501 -0.0019327281 2.2958873e-38
-0.072052181 -0.12498946 -0.018944968 1.2537515e-38
-0.07012859 -0.12498946 -0.018944968 1.4196321e-38
-0.068422973 -0.12596865 -0.022891749 1.8619914e-38
-0.066492438 -0.12596865 -0.022891749 2.3508446e-38
-0.06476754 -0.12695493 -0.02686714 2.3509168e-38
-0.062830061 -0.12695493 -0.02686714 2.3509527e-38
-0.060892563 -0.12695493 -0.02686714 2.3049273e-38
-0.05895507 -0.12695493 -0.02686714 2.3050708e-38
-0.057017576 -0.12695493 -0.02686714 2.2683007e-38
-0.05508009 -0.12695493 -0.02686714 2.2958873e-38
-0.053142603 -0.12695493 -0.02686714 2.3234379e-38
-0.05120511 -0.12695493 -0.02686714 2.350988e-38
-0.049117759 -0.12596865 -0.022891749 2.3509511e-38
-0.047045376 -0.12498946 -0.018944968 2.3228958e-38
-0.045016136 -0.12422292 -0.015855182 2.2211557e-38
-0.043097954 -0.12422292 -0.015855182 1.9350965e-38
-0.041056596 -0.12322696 -0.011840808 1.8334648e-38
-0.039145451 -0.12322696 -0.011840808 1.9072212e-38
-0.0371546 -0.1224993 -0.0089079021 1.852192e-38
-0.035248596 -0.1224993 -0.0089079021 1.2715756e-38
-0.033412017 -0.12322696 -0.011840808 1.0964764e-38
-0.031500872 -0.12322696 -0.011840808 1.1149874e-38
-0.029589728 -0.12322696 -0.011840808 1.0689262e-38
-0.027678583 -0.12322696 -0.011840808 5.8968699e-39
-0.025834303 -0.12422292 -0.015855182 7.1904534e-39
-0.023856293 -0.12322696 -0.011840808 2.3509818e-38
-0.021906581 -0.1224993 -0.0089079021 2.3507708e-38
-0.019966006 -0.12174667 -0.0058742641 2.3509163e-38
-0.018065322 -0.12174667 -0.0058742641 2.350986e-38
-0.016188577 -0.1224993 -0.0089079021 2.1295715e-38
-0.014282573 -0.1224993 -0.0089079021 1.6961815e-38
-0.012363274 -0.12174667 -0.0058742641 8.5705894e-39
-0.01046259 -0.12174667 -0.0058742641 1.069074e-38
-0.0085584521 -0.1207688 -0.0019327281 1.1982198e-38
-0.0066646785 -0.1207688 -0.0019327281 8.5716642e-39
-0.004760541 -0.12174667 -0.0058742641 7.8355271e-39
-0.0028598569 -0.12174667 -0.0058742641 9.1273337e-39
-0.00095917378 -0.12174667 -0.0058742641 8.0206302e-39
0.00094150938 -0.12174667 -0.0058742641 8.4809077e-39
0.0028041834 -0.1207688 -0.0019327281 9.7709305e-39
0.0046979552 -0.1207688 -0.0019327281 9.4936065e-39
0.006591728 -0.1207688 -0.0019327281 1.0321918e-38
0.0084408671 -0.12002577 0.0010621669 1.2994506e-38
0.010262674 -0.11903207 0.0050674798 2.3508413e-38
0.012087662 -0.11827053 0.0081369998 2.3508787e-38
0.013963779 -0.11827053 0.0081369998 9.7683983e-39
0.015839895 -0.11827053 0.0081369998 8.7563932e-39
0.017716013 -0.11827053 0.0081369998 8.0206316e-39
0.019592129 -0.11827053 0.0081369998 6.6391559e-39
0.021468246 -0.11827053 0.0081369998 8.8507917e-39
0.023433164 -0.11903207 0.0050674798 1.3826497e-38
0.025314663 -0.11903207 0.0050674798 1.991069e-38
0.027196161 -0.11903207 0.0050674798 1.9266377e-38
0.02907766 -0.11903207 0.0050674798 2.3416248e-38
0.030959159 -0.11903207 0.0050674798 2.3509161e-38
0.032840658 -0.11903207 0.0050674798 2.3140737e-38
0.034601063 -0.11827053 0.0081369998 2.2864519e-38
0.036477182 -0.11827053 0.0081369998 2.341805e-38
0.038227033 -0.1175413 0.011076343 2.3234379e-38
0.040097997 -0.1175413 0.011076343 1.2632606e-38
0.04196896 -0.1175413 0.011076343 6.0870892e-39
0.050148495 -0.1207688 -0.0019327281 2.213056e-38
0.052042268 -0.1207688 -0.0019327281 2.194653e-38
0.053936038 -0.1207688 -0.0019327281 2.2314231e-38
0.0556539 -0.12002577 0.0010621669 2.2867037e-38
0.057542421 -0.12002577 0.0010621669 2.2313872e-38
0.059430942 -0.12002577 0.0010621669 2.1853248e-38
0.061319463 -0.12002577 0.0010621669 2.1299348e-38
0.063207984 -0.12002577 0.0010621669 2.1483377e-38
-0.072052181 -0.12691309 -0.018944968 1.2536797e-38
-0.07012859 -0.12691309 -0.018944968 1.4379989e-38
-0.068422973 -0.12789918 -0.022891749 1.9910292e-38
-0.066492438 -0.12789918 -0.022891749 2.3508085e-38
-0.064561918 -0.12789918 -0.022891749 2.3508807e-38
-0.062830061 -0.12889244 -0.02686714 2.3509527e-38
-0.060892563 -0.12889244 -0.02686714 2.3049273e-38
-0.05895507 -0.12889244 -0.02686714 2.3142544e-38
-0.056839835 -0.12789918 -0.022891749 2.2591172e-38
-0.054909315 -0.12789918 -0.022891749 2.2867037e-38
-0.053142603 -0.12889244 -0.02686714 2.3142544e-38
-0.051048275 -0.12789918 -0.022891749 2.350988e-38
-0.049117759 -0.12789918 -0.022891749 2.3415155e-38
-0.046934322 -0.12614109 -0.015855182 1.8250029e-38
-0.045016136 -0.12614109 -0.015855182 1.6862766e-38
-0.04296774 -0.12513812 -0.011840808 1.8150257e-38
-0.040966604 -0.12440531 -0.0089079021 1.9070404e-38
-0.039060604 -0.12440531 -0.0089079021 1.860978e-38
-0.0371546 -0.12440531 -0.0089079021 1.7876168e-38
-0.035248596 -0.12440531 -0.0089079021 1.0041346e-38
-0.033342596 -0.12440531 -0.0089079021 9.1194122e-39
-0.031370107 -0.12364738 -0.0058742641 9.7647942e-39
-0.029469423 -0.12364738 -0.0058742641 1.022757e-38
-0.027624588 -0.12440531 -0.0089079021 6.2638714e-39
-0.025718588 -0.12440531 -0.0089079021 6.7269935e-39
-0.023812585 -0.12440531 -0.0089079021 2.2216589e-38
-0.02186669 -0.12364738 -0.0058742641 2.3508448e-38
-0.019921087 -0.12266256 -0.0019327281 2.3507374e-38
-0.018027313 -0.12266256 -0.0019327281 2.3230051e-38
-0.01616464 -0.12364738 -0.0058742641 1.8528422e-38
-0.014263958 -0.12364738 -0.0058742641 1.5486318e-38
-0.012345996 -0.12266256 -0.0019327281 7.0036056e-39
-0.010452224 -0.12266256 -0.0019327281 7.4638817e-39
-0.0085584521 -0.12266256 -0.0019327281 7.9245054e-39
-0.0066646785 -0.12266256 -0.0019327281 8.5716642e-39
-0.0047709066 -0.12266256 -0.0019327281 7.9277199e-39
-0.0028771348 -0.12266256 -0.0019327281 8.2053634e-39
-0.00098336115 -0.12266256 -0.0019327281 8.6659856e-39
0.00091041066 -0.12266256 -0.0019327281 9.1259114e-39
0.0028041834 -0.12266256 -0.0019327281 9.3088733e-39
0.0046638241 -0.12191428 0.0010621669 9.3088621e-39
0.0065523451 -0.12191428 0.0010621669 8.5702041e-39
0.0084408671 -0.12191428 0.0010621669 1.2534599e-38
0.010262674 -0.12091358 0.0050674798 2.3509841e-38
0.012087662 -0.12014665 0.0081369998 2.3506621e-38
0.013963779 -0.12014665 0.0081369998 1.0045706e-38
0.015839895 -0.12014665 0.0081369998 8.4808965e-39
0.017716013 -0.12014665 0.0081369998 6.730983e-39
0.019592129 -0.12014665 0.0081369998 6.1796169e-39
0.021468246 -0.12014665 0.0081369998 1.3000671e-38
0.023344362 -0.12014665 0.0081369998 1.6038836e-38
0.02522048 -0.12014665 0.0081369998 1.7328133e-38
0.027196161 -0.12091358 0.0050674798 1.9081261e-38
0.02907766 -0.12091358 0.0050674798 2.3509873e-38
0.030959159 -0.12091358 0.0050674798 2.3509873e-38
0.032840658 -0.12091358 0.0050674798 2.2956698e-38
0.034601063 -0.12014665 0.0081369998 2.3418043e-38
0.036477182 -0.12014665 0.0081369998 2.3418043e-38
0.038227033 -0.11941226 0.011076343 2.2866657e-38
0.040097997 -0.11941226 0.011076343 1.9087358e-38
0.04196896 -0.11941226 0.011076343 1.6690649e-38
0.043839924 -0.11941226 0.011076343 1.3556011e-38
0.045710888 -0.11941226 0.011076343 1.4016643e-38
0.047733881 -0.12014665 0.0081369998 2.2591531e-38
0.049988337 -0.12191428 0.0010621669 2.2591531e-38
0.051876858 -0.12191428 0.0010621669 2.2407857e-38
0.053765379 -0.12191428 0.0010621669 2.2130918e-38
0.0556539 -0.12191428 0.0010621669 2.2775202e-38
0.057542421 -0.12191428 0.0010621669 2.2867037e-38
0.059430942 -0.12191428 0.0010621669 2.2406422e-38
0.061063141 -0.12091358 0.0050674798 2.2682283e-38
0.062742814 -0.12014665 0.0081369998 2.2774476e-38
0.064420521 -0.11941226 0.011076343 2.3234379e-38
0.066291481 -0.11941226 0.011076343 2.2497178e-38
-0.072052181 -0.12883668 -0.018944968 1.2904856e-38
-0.07012859 -0.12883668 -0.018944968 1.4195595e-38
-0.068204984 -0.12883668 -0.018944968 2.0003198e-38
-0.066281378 -0.12883668 -0.018944968 2.3506635e-38
-0.064561918 -0.12982969 -0.022891749 2.3508439e-38
-0.062631398 -0.12982969 -0.022891749 2.3509527e-38
-0.060700882 -0.12982969 -0.022891749 2.341805e-38
-0.058770362 -0.12982969 -0.022891749 2.3142544e-38
-0.056839835 -0.12982969 -0.022891749 2.2590454e-38
-0.054909315 -0.12982969 -0.022891749 2.2958514e-38
-0.052978795 -0.12982969 -0.022891749 2.2958154e-38
-0.051048275 -0.12982969 -0.022891749 2.350952e-38
-0.048968978 -0.12883668 -0.018944968 2.3508793e-38
-0.046934322 -0.12805928 -0.015855182 1.7695778e-38
-0.044878885 -0.12704925 -0.011840808 1.5756421e-38
-0.04296774 -0.12704925 -0.011840808 1.8149904e-38
-0.040966604 -0.12631132 -0.0089079021 1.7963707e-38
-0.039060604 -0.12631132 -0.0089079021 1.4185477e-38
-0.0371546 -0.12631132 -0.0089079021 1.0962938e-38
-0.035248596 -0.12631132 -0.0089079021 6.2638462e-39
-0.033342596 -0.12631132 -0.0089079021 8.5676803e-39
-0.031370107 -0.12554805 -0.0058742641 8.0145178e-39
-0.029469423 -0.12554805 -0.0058742641 7.830844e-39
-0.027568739 -0.12554805 -0.0058742641 6.2645973e-39
-0.025718588 -0.12631132 -0.0089079021 8.4780113e-39
-0.023767371 -0.12554805 -0.0058742641 2.3321156e-38
-0.02186669 -0.12554805 -0.0058742641 2.3506649e-38
-0.019921087 -0.12455635 -0.0019327281 2.3508092e-38
-0.018027313 -0.12455635 -0.0019327281 2.3508445e-38
-0.016133541 -0.12455635 -0.0019327281 1.1797425e-38
-0.014239769 -0.12455635 -0.0019327281 7.7415224e-39
-0.012332868 -0.12380283 0.0010621669 6.6351749e-39
-0.010444347 -0.12380283 0.0010621669 6.3578831e-39
-0.0085558258 -0.12380283 0.0010621669 7.0958125e-39
-0.0066673048 -0.12380283 0.0010621669 6.9121401e-39
-0.0047787838 -0.12380283 0.0010621669 7.1908738e-39
-0.0028771348 -0.12455635 -0.0019327281 7.3759629e-39
-0.00098336115 -0.12455635 -0.0019327281 7.7447482e-39
0.00091041066 -0.12455635 -0.0019327281 8.2968682e-39
0.0027753022 -0.12380283 0.0010621669 7.5582354e-39
0.0046181763 -0.12279506 0.0050674798 8.5702237e-39
0.0064593116 -0.12202276 0.0081369998 6.172766e-39
0.0083354283 -0.12202276 0.0081369998 9.7669396e-39
0.010211544 -0.12202276 0.0081369998 2.2121153e-38
0.012033548 -0.12128322 0.011076343 2.1291046e-38
0.013904512 -0.12128322 0.011076343 9.9520679e-39
0.015775476 -0.12128322 0.011076343 8.2017929e-39
0.017646438 -0.12128322 0.011076343 5.3458892e-39
0.019517401 -0.12128322 0.011076343 7.2841568e-39
0.021388365 -0.12128322 0.011076343 2.0098645e-38
0.023259327 -0.12128322 0.011076343 2.1293976e-38
0.025130291 -0.12128322 0.011076343 1.5852273e-38
0.027096596 -0.12202276 0.0081369998 1.6774196e-38
0.028972715 -0.12202276 0.0081369998 2.350878e-38
0.030848831 -0.12202276 0.0081369998 2.258503e-38
0.032724947 -0.12202276 0.0081369998 2.3509873e-38
0.034485105 -0.12128322 0.011076343 2.3234376e-38
0.036356069 -0.12128322 0.011076343 2.2499324e-38
0.038227033 -0.12128322 0.011076343 2.2591147e-38
0.040097997 -0.12128322 0.011076343 2.3142527e-38
0.04196896 -0.12128322 0.011076343 2.30507e-38
0.043644968 -0.12026589 0.015119684 2.2775202e-38
0.045508839 -0.12026589 0.015119684 2.2775202e-38
0.047581848 -0.12128322 0.011076343 2.1761783e-38
0.04961 -0.12202276 0.0081369998 2.2683362e-38
0.051876858 -0.12380283 0.0010621669 2.2867032e-38
0.053765379 -0.12380283 0.0010621669 2.2958873e-38
0.0556539 -0.12380283 0.0010621669 2.2406066e-38
0.057542421 -0.12380283 0.0010621669 2.2498619e-38
0.059430942 -0.12380283 0.0010621669 2.2958514e-38
0.061063141 -0.12279506 0.0050674798 2.3142544e-38
0.062742814 -0.12202276 0.0081369998 2.2404977e-38
0.064147577 -0.12026589 0.015119684 2.3234379e-38
0.066011451 -0.12026589 0.015119684 2.3234379e-38
0.067875326 -0.12026589 0.015119684 2.3234379e-38
0.0697392 -0.12026589 0.015119684 2.2865602e-38
-0.072052181 -0.13076027 -0.018944968 1.1336809e-38
-0.07012859 -0.13076027 -0.018944968 1.5394493e-38
-0.068204984 -0.13076027 -0.018944968 1.9637284e-38
-0.066281378 -0.13076027 -0.018944968 2.3233634e-38
-0.064561918 -0.13176022 -0.022891749 2.350987e-38
-0.062631398 -0.13176022 -0.022891749 2.323365e-38
-0.060700882 -0.13176022 -0.022891749 2.341805e-38
-0.058770362 -0.13176022 -0.022891749 2.341805e-38
-0.056663375 -0.13076027 -0.018944968 2.341805e-38
-0.054739784 -0.13076027 -0.018944968 2.3509527e-38
-0.052816179 -0.13076027 -0.018944968 2.3416251e-38
-0.050892573 -0.13076027 -0.018944968 2.3509161e-38
-0.048968978 -0.13076027 -0.018944968 2.3508797e-38
-0.046934322 -0.12997745 -0.015855182 1.2531753e-38
-0.044878885 -0.12896039 -0.011840808 1.0870071e-38
-0.042872608 -0.12821732 -0.0089079021 1.6307811e-38
-0.040966604 -0.12821732 -0.0089079021 1.6766992e-38
-0.039060604 -0.12821732 -0.0089079021 1.0500201e-38
-0.0371546 -0.12821732 -0.0089079021 6.5415345e-39
-0.035248596 -0.12821732 -0.0089079021 4.9767227e-39
-0.033342596 -0.12821732 -0.0089079021 5.1607608e-39
-0.031370107 -0.12744872 -0.0058742641 6.6351749e-39
-0.029469423 -0.12744872 -0.0058742641 5.4366289e-39
-0.027568739 -0.12744872 -0.0058742641 3.7771075e-39
-0.025718588 -0.12821732 -0.0089079021 1.0875098e-38
-0.023767371 -0.12744872 -0.0058742641 2.212261e-38
-0.021814857 -0.12645011 -0.0019327281 2.3508794e-38
-0.019921087 -0.12645011 -0.0019327281 2.350484e-38
-0.018027313 -0.12645011 -0.0019327281 2.3508797e-38
-0.016133541 -0.12645011 -0.0019327281 1.2073289e-38
-0.014221391 -0.12569134 0.0010621669 7.3727427e-39
-0.012332868 -0.12569134 0.0010621669 5.2522404e-39
-0.010444347 -0.12569134 0.0010621669 8.6634787e-39
-0.0085558258 -0.12569134 0.0010621669 7.0050406e-39
-0.0066673048 -0.12569134 0.0010621669 6.9150128e-39
-0.0047787838 -0.12569134 0.0010621669 6.6395049e-39
-0.0028902628 -0.12569134 0.0010621669 6.6398552e-39
-0.0010263193 -0.12467657 0.0050674798 7.0079188e-39
0.0008551795 -0.12467657 0.0050674798 7.3756336e-39
0.0027366774 -0.12467657 0.0050674798 7.4660369e-39
0.0045831939 -0.12389888 0.0081369998 7.0950992e-39
0.0064593116 -0.12389888 0.0081369998 6.908187e-39
0.0083354283 -0.12389888 0.0081369998 7.4595545e-39
0.010162584 -0.12315418 0.011076343 2.1656237e-38
0.012033548 -0.12315418 0.011076343 2.1840625e-38
0.013904512 -0.12315418 0.011076343 1.2344833e-38
0.015775476 -0.12315418 0.011076343 8.0134332e-39
0.017646438 -0.12315418 0.011076343 7.2780233e-39
0.019517401 -0.12315418 0.011076343 8.5702041e-39
0.021388365 -0.12315418 0.011076343 2.0925509e-38
0.023259327 -0.12315418 0.011076343 2.2215547e-38
0.025130291 -0.12315418 0.011076343 1.3086017e-38
0.027096596 -0.12389888 0.0081369998 1.2436657e-38
0.028972715 -0.12389888 0.0081369998 2.3505526e-38
0.030848831 -0.12389888 0.0081369998 2.3508783e-38
0.032724947 -0.12389888 0.0081369998 2.3509874e-38
0.034485105 -0.12315418 0.011076343 2.2499695e-38
0.036356069 -0.12315418 0.011076343 2.1672817e-38
0.038227033 -0.12315418 0.011076343 2.2683361e-38
0.040097997 -0.12315418 0.011076343 2.341804e-38
0.04196896 -0.12315418 0.011076343 2.3233648e-38
0.043644968 -0.12212978 0.015119684 2.2865229e-38
0.045508839 -0.12212978 0.015119684 2.2958873e-38
0.047581848 -0.12315418 0.011076343 2.2958873e-38
0.04961 -0.12389888 0.0081369998 2.3418047e-38
0.051655646 -0.12467657 0.0050674798 2.3325492e-38
0.053537145 -0.12467657 0.0050674798 2.3509886e-38
0.05541864 -0.12467657 0.0050674798 2.3509527e-38
0.057300143 -0.12467657 0.0050674798 2.341805e-38
0.059181638 -0.12467657 0.0050674798 2.341805e-38
0.060866699 -0.12389888 0.0081369998 2.341805e-38
0.062549554 -0.12315418 0.011076343 2.3234379e-38
0.064147577 -0.12212978 0.015119684 2.3234379e-38
0.066011451 -0.12212978 0.015119684 2.3234379e-38
0.067661412 -0.12136655 0.018132102 2.341805e-38
0.069520004 -0.12136655 0.018132102 2.341805e-38
0.071378596 -0.12136655 0.018132102 2.3234018e-38
-0.073546052 -0.13087155 -0.011840808 1.253499e-38
-0.071634918 -0.13087155 -0.011840808 1.1981817e-38
-0.069952518 -0.13189565 -0.015855182 1.5210099e-38
-0.068204984 -0.13268389 -0.018944968 1.9452888e-38
-0.066281378 -0.13268389 -0.018944968 2.1390437e-38
-0.064357787 -0.13268389 -0.018944968 2.0191544e-38
-0.062434178 -0.13268389 -0.018944968 1.6780309e-38
-0.060510579 -0.13268389 -0.018944968 1.5396667e-38
-0.058586981 -0.13268389 -0.018944968 1.5212279e-38
-0.056525234 -0.13189565 -0.015855182 1.511937e-38
-0.054607052 -0.13189565 -0.015855182 1.5855853e-38
-0.052688871 -0.13189565 -0.015855182 1.7974908e-38
-0.050770681 -0.13189565 -0.015855182 1.7882348e-38
-0.048852503 -0.13189565 -0.015855182 1.8157493e-38
-0.04679003 -0.13087155 -0.011840808 9.8584444e-39
-0.044878885 -0.13087155 -0.011840808 8.3822353e-39
-0.042872608 -0.13012333 -0.0089079021 8.6577432e-39
-0.040966604 -0.13012333 -0.0089079021 6.5365276e-39
-0.039060604 -0.13012333 -0.0089079021 2.2973237e-39
-0.0371546 -0.13012333 -0.0089079021 1.4729553e-39
-0.035248596 -0.13012333 -0.0089079021 1.5676606e-39
-0.033342596 -0.13012333 -0.0089079021 2.488175e-39
-0.031370107 -0.12934943 -0.0058742641 2.7651164e-39
-0.029469423 -0.12934943 -0.0058742641 2.8558729e-39
-0.027568739 -0.12934943 -0.0058742641 4.0544161e-39
-0.025718588 -0.13012333 -0.0089079021 9.4010466e-39
-0.023767371 -0.12934943 -0.0058742641 1.5761111e-38
-0.021814857 -0.1283439 -0.0019327281 1.1796346e-38
-0.019921087 -0.1283439 -0.0019327281 7.3709574e-39
-0.018027313 -0.1283439 -0.0019327281 1.1795629e-38
-0.016133541 -0.1283439 -0.0019327281 1.1427565e-38
-0.014221391 -0.12757985 0.0010621669 9.7691186e-39
-0.012332868 -0.12757985 0.0010621669 4.8838222e-39
-0.010444347 -0.12757985 0.0010621669 4.9763724e-39
-0.0085558258 -0.12757985 0.0010621669 7.0061182e-39
-0.0066673048 -0.12757985 0.0010621669 6.1778079e-39
-0.0047787838 -0.12757985 0.0010621669 5.9026615e-39
-0.0028902628 -0.12757985 0.0010621669 5.9026615e-39
-0.0010263193 -0.12655805 0.0050674798 5.9941355e-39
0.0008551795 -0.12655805 0.0050674798 5.8090267e-39
0.0027070772 -0.12577499 0.0081369998 5.8072317e-39
0.0045831939 -0.12577499 0.0081369998 6.0809473e-39
0.0064593116 -0.12577499 0.0081369998 6.5394073e-39
0.0083354283 -0.12577499 0.0081369998 8.5648315e-39
0.010162584 -0.12502514 0.011076343 1.4648298e-38
0.012033548 -0.12502514 0.011076343 1.6492203e-38
0.013904512 -0.12502514 0.011076343 1.363449e-38
0.015775476 -0.12502514 0.011076343 1.0132485e-38
0.017646438 -0.12502514 0.011076343 6.2620651e-39
0.019517401 -0.12502514 0.011076343 7.8308314e-39
0.02127848 -0.12399365 0.015119684 1.898831e-38
0.023142355 -0.12399365 0.015119684 1.7329525e-38
0.025130291 -0.12502514 0.011076343 6.6319491e-39
0.027001254 -0.12502514 0.011076343 1.5845366e-38
0.028872218 -0.12502514 0.011076343 1.9256243e-38
0.030743182 -0.12502514 0.011076343 2.2489223e-38
0.032614145 -0.12502514 0.011076343 1.2721907e-38
0.034485105 -0.12502514 0.011076343 1.4941826e-38
0.036356069 -0.12502514 0.011076343 2.2132353e-38
0.038227033 -0.12502514 0.011076343 2.2683007e-38
0.039917219 -0.12399365 0.015119684 2.3509879e-38
0.041781094 -0.12399365 0.015119684 2.3509873e-38
0.043644968 -0.12399365 0.015119684 2.3509876e-38
0.045710888 -0.12502514 0.011076343 2.2497176e-38
0.047581848 -0.12502514 0.011076343 2.2589374e-38
0.04961 -0.12577499 0.0081369998 2.3509883e-38
0.051655646 -0.12655805 0.0050674798 2.3509165e-38
0.053362232 -0.12577499 0.0081369998 2.3509527e-38
0.055238351 -0.12577499 0.0081369998 2.3509527e-38
0.057114467 -0.12577499 0.0081369998 2.3509886e-38
0.058990583 -0.12577499 0.0081369998 2.3509886e-38
0.060678594 -0.12502514 0.011076343 2.341805e-38
0.062549554 -0.12502514 0.011076343 2.341805e-38
0.064147577 -0.12399365 0.015119684 2.3234379e-38
0.066011451 -0.12399365 0.015119684 2.3234379e-38
0.067661412 -0.12322514 0.018132102 2.2957431e-38
0.069520004 -0.12322514 0.018132102 2.3418045e-38
0.071378596 -0.12322514 0.018132102 2.3325846e-38
0.073237188 -0.12322514 0.018132102 2.3509876e-38
-0.073546052 -0.13278268 -0.011840808 1.2996687e-38
-0.071634918 -0.13278268 -0.011840808 1.2627905e-38
-0.069952518 -0.13381381 -0.015855182 1.511754e-38
-0.068204984 -0.13460748 -0.018944968 1.8437299e-38
-0.066281378 -0.13460748 -0.018944968 2.0558518e-38
-0.064357787 -0.13460748 -0.018944968 1.9728407e-38
-0.062434178 -0.13460748 -0.018944968 1.6870347e-38
-0.060361605 -0.13381381 -0.015855182 1.5671815e-38
-0.058443423 -0.13381381 -0.015855182 1.5303035e-38
-0.056525234 -0.13381381 -0.015855182 1.5118291e-38
-0.054434609 -0.13278268 -0.011840808 1.5763658e-38
-0.05252346 -0.13278268 -0.011840808 1.5671096e-38
-0.050612319 -0.13278268 -0.011840808 1.4565103e-38
-0.048701175 -0.13278268 -0.011840808 1.4471466e-38
-0.04679003 -0.13278268 -0.011840808 8.5702237e-39
-0.044878885 -0.13278268 -0.011840808 8.1085253e-39
-0.042872608 -0.13202934 -0.0089079021 5.4341331e-39
-0.040966604 -0.13202934 -0.0089079021 2.8515793e-39
-0.039060604 -0.13202934 -0.0089079021 1.3778912e-39
-0.0371546 -0.13202934 -0.0089079021 3.6734198e-40
-0.035248596 -0.13202934 -0.0089079021 8.2974806e-40
-0.033342596 -0.13202934 -0.0089079021 1.8424552e-39
-0.031370107 -0.1312501 -0.0058742641 1.6584199e-39
-0.029469423 -0.1312501 -0.0058742641 2.0257619e-39
-0.027568739 -0.1312501 -0.0058742641 4.0540616e-39
-0.025718588 -0.13202934 -0.0089079021 6.7270188e-39
-0.023767371 -0.1312501 -0.0058742641 7.8330132e-39
-0.021814857 -0.13023765 -0.0019327281 3.4994641e-39
-0.019921087 -0.13023765 -0.0019327281 4.7902057e-39
-0.018027313 -0.13023765 -0.0019327281 9.5833022e-39
-0.016133541 -0.13023765 -0.0019327281 9.2155987e-39
-0.014221391 -0.1294684 0.0010621669 5.8972721e-39
-0.012332868 -0.1294684 0.0010621669 5.0682247e-39
-0.010444347 -0.1294684 0.0010621669 4.331017e-39
-0.0085558258 -0.1294684 0.0010621669 4.9778255e-39
-0.0066673048 -0.1294684 0.0010621669 5.5331587e-39
-0.0047787838 -0.1294684 0.0010621669 5.6260746e-39
-0.0029078182 -0.12843956 0.0050674798 5.6260746e-39
-0.0010263193 -0.12843956 0.0050674798 5.348766e-39
0.00083096046 -0.12765111 0.0081369998 4.7948734e-39
0.0027070772 -0.12765111 0.0081369998 4.8856313e-39
0.0045831939 -0.12765111 0.0081369998 5.712878e-39
0.0064206589 -0.1268961 0.011076343 6.6326763e-39
0.0082916226 -0.1268961 0.011076343 7.3670016e-39
0.010162584 -0.1268961 0.011076343 1.1237777e-38
0.011959111 -0.12585752 0.015119684 1.603194e-38
0.013822984 -0.12585752 0.015119684 1.4833749e-38
0.015775476 -0.1268961 0.011076343 1.0594545e-38
0.017550733 -0.12585752 0.015119684 7.3691344e-39
0.019414606 -0.12585752 0.015119684 9.9516938e-39
0.02127848 -0.12585752 0.015119684 1.566927e-38
0.023142355 -0.12585752 0.015119684 1.6315375e-38
0.025006227 -0.12585752 0.015119684 8.7524514e-39
0.027001254 -0.1268961 0.011076343 1.5845369e-38
0.028733976 -0.12585752 0.015119684 2.3505528e-38
0.030597851 -0.12585752 0.015119684 2.3508063e-38
0.032461721 -0.12585752 0.015119684 2.1017718e-38
0.034325596 -0.12585752 0.015119684 1.0329524e-38
0.03618947 -0.12585752 0.015119684 1.1252924e-38
0.038053345 -0.12585752 0.015119684 1.4567275e-38
0.039917219 -0.12585752 0.015119684 1.5118278e-38
0.041781094 -0.12585752 0.015119684 1.7789787e-38
0.043644968 -0.12585752 0.015119684 2.3509158e-38
0.045508839 -0.12585752 0.015119684 2.3509886e-38
0.047581848 -0.1268961 0.011076343 2.341805e-38
0.04961 -0.12765111 0.0081369998 2.3509164e-38
0.051486116 -0.12765111 0.0081369998 2.3508801e-38
0.053362232 -0.12765111 0.0081369998 2.3509527e-38
0.055238351 -0.12765111 0.0081369998 2.3509527e-38
0.056936666 -0.1268961 0.011076343 2.3509886e-38
0.058807626 -0.1268961 0.011076343 2.3509886e-38
0.060678594 -0.1268961 0.011076343 2.341805e-38
0.062283702 -0.12585752 0.015119684 2.341805e-38
0.064147577 -0.12585752 0.015119684 2.341805e-38
0.06580282 -0.12508373 0.018132102 2.341805e-38
0.067448713 -0.12431435 0.021127474 2.3234018e-38
0.069302052 -0.12431435 0.021127474 2.3418045e-38
0.071155392 -0.12431435 0.021127474 2.3418042e-38
0.07278157 -0.1235493 0.024105918 2.3509876e-38
0.074629687 -0.1235493 0.024105918 2.3509873e-38
-0.073546052 -0.13469382 -0.011840808 1.2905208e-38
-0.071634918 -0.13469382 -0.011840808 1.2904489e-38
-0.069952518 -0.13573201 -0.015855182 1.4011192e-38
-0.068204984 -0.13653107 -0.018944968 1.6407557e-38
-0.066281378 -0.13653107 -0.018944968 1.8989035e-38
-0.064357787 -0.13653107 -0.018944968 1.8989403e-38
-0.062279787 -0.13573201 -0.015855182 1.7145139e-38
-0.060361605 -0.13573201 -0.015855182 1.6315387e-38
-0.058256898 -0.13469382 -0.011840808 1.5302317e-38
-0.056345757 -0.13469382 -0.011840808 1.4472559e-38
-0.054434609 -0.13469382 -0.011840808 1.4749506e-38
-0.05252346 -0.13469382 -0.011840808 1.6040598e-38
-0.050496619 -0.13393532 -0.0089079021 1.5764365e-38
-0.048590615 -0.13393532 -0.0089079021 1.4104841e-38
-0.046684612 -0.13393532 -0.0089079021 7.5585885e-39
-0.044778608 -0.13393532 -0.0089079021 7.2809226e-39
-0.042872608 -0.13393532 -0.0089079021 3.8696871e-39
-0.040966604 -0.13393532 -0.0089079021 1.4715259e-39
-0.039060604 -0.13393532 -0.0089079021 1.1956593e-39
-0.0371546 -0.13393532 -0.0089079021 1.1049056e-39
-0.035248596 -0.13393532 -0.0089079021 2.7550649e-40
-0.033342596 -0.13393532 -0.0089079021 9.2015002e-40
-0.031370107 -0.13315077 -0.0058742641 1.3814813e-39
-0.029389948 -0.13213144 -0.0019327281 1.0119841e-39
-0.027496178 -0.13213144 -0.0019327281 1.6566263e-39
-0.025668059 -0.13315077 -0.0058742641 2.3016369e-39
-0.02370863 -0.13213144 -0.0019327281 1.6562703e-39
-0.021814857 -0.13213144 -0.0019327281 1.5633614e-39
-0.019921087 -0.13213144 -0.0019327281 1.010552e-39
-0.018027313 -0.13213144 -0.0019327281 2.024348e-39
-0.016133541 -0.13213144 -0.0019327281 2.024348e-39
-0.014221391 -0.13135691 0.0010621669 5.5101298e-40
-0.012332868 -0.13135691 0.0010621669 1.5655208e-39
-0.010444347 -0.13135691 0.0010621669 7.3576017e-40
-0.0085558258 -0.13135691 0.0010621669 6.453596e-40
-0.0066673048 -0.13135691 0.0010621669 1.0152169e-39
-0.004789317 -0.13032107 0.0050674798 1.1084915e-39
-0.0029078182 -0.13032107 0.0050674798 1.2006844e-39
-0.0010451563 -0.12952723 0.0081369998 7.3970622e-40
0.00083096046 -0.12952723 0.0081369998 4.6240607e-40
0.0026787324 -0.12876706 0.011076343 6.4571833e-40
0.0045496952 -0.12876706 0.011076343 1.841735e-39
0.0064206589 -0.12876706 0.011076343 2.8537261e-39
0.0082916226 -0.12876706 0.011076343 4.0493924e-39
0.010162584 -0.12876706 0.011076343 4.7855155e-39
0.011959111 -0.12772138 0.015119684 1.0593116e-38
0.013822984 -0.12772138 0.015119684 1.25303e-38
0.015686858 -0.12772138 0.015119684 9.2119736e-39
0.017550733 -0.12772138 0.015119684 3.2210583e-39
0.019414606 -0.12772138 0.015119684 5.0671233e-39
0.02127848 -0.12772138 0.015119684 9.4006892e-39
0.023142355 -0.12772138 0.015119684 9.0326424e-39
0.025006227 -0.12772138 0.015119684 8.2921949e-39
0.026870102 -0.12772138 0.015119684 1.510853e-38
0.028733976 -0.12772138 0.015119684 2.3506974e-38
0.030597851 -0.12772138 0.015119684 2.3502665e-38
0.032461721 -0.12772138 0.015119684 2.3508802e-38
0.034325596 -0.12772138 0.015119684 2.0100103e-38
0.03618947 -0.12772138 0.015119684 1.5122264e-38
0.038053345 -0.12772138 0.015119684 1.5303761e-38
0.039917219 -0.12772138 0.015119684 1.0322308e-38
0.041781094 -0.12772138 0.015119684 1.078148e-38
0.043644968 -0.12772138 0.015119684 2.3505195e-38
0.045508839 -0.12772138 0.015119684 2.3509524e-38
0.047581848 -0.12876706 0.011076343 2.3509527e-38
0.049452811 -0.12876706 0.011076343 2.3416245e-38
0.051323775 -0.12876706 0.011076343 2.3509521e-38
0.053194739 -0.12876706 0.011076343 2.3509527e-38
0.055065699 -0.12876706 0.011076343 2.3509527e-38
0.056936666 -0.12876706 0.011076343 2.3509886e-38
0.058807626 -0.12876706 0.011076343 2.3509886e-38
0.060419835 -0.12772138 0.015119684 2.3509886e-38
0.062283702 -0.12772138 0.015119684 2.341805e-38
0.063944228 -0.12694232 0.018132102 2.341805e-38
0.06580282 -0.12694232 0.018132102 2.341805e-38
0.067448713 -0.12616767 0.021127474 2.341805e-38
0.069302052 -0.12616767 0.021127474 2.350988e-38
0.071155392 -0.12616767 0.021127474 2.3325129e-38
0.07278157 -0.1253974 0.024105918 2.3509876e-38
0.074629687 -0.1253974 0.024105918 2.3509153e-38
0.076477796 -0.1253974 0.024105918 1.2168367e-38
-0.073546052 -0.13660498 -0.011840808 1.2445309e-38
-0.071634918 -0.13660498 -0.011840808 1.2444227e-38
-0.07012859 -0.13845469 -0.018944968 1.253606e-38
-0.068204984 -0.13845469 -0.018944968 1.6683065e-38
-0.066281378 -0.13845469 -0.018944968 1.8710653e-38
-0.064197972 -0.13765021 -0.015855182 1.8342237e-38
-0.062279787 -0.13765021 -0.015855182 1.6682363e-38
-0.060361605 -0.13765021 -0.015855182 1.6037721e-38
-0.058256898 -0.13660498 -0.011840808 1.5300519e-38
-0.056345757 -0.13660498 -0.011840808 1.4472559e-38
-0.054434609 -0.13660498 -0.011840808 1.4934253e-38
-0.05252346 -0.13660498 -0.011840808 1.4013373e-38
-0.050496619 -0.13584132 -0.0089079021 1.4843848e-38
-0.048590615 -0.13584132 -0.0089079021 1.3184324e-38
-0.046684612 -0.13584132 -0.0089079021 6.7309858e-39
-0.044778608 -0.13584132 -0.0089079021 6.3618474e-39
-0.042872608 -0.13584132 -0.0089079021 2.213044e-39
-0.040966604 -0.13584132 -0.0089079021 3.5873241e-43
-0.03897284 -0.13505147 -0.0058742641 9.1835496e-41
-0.037072156 -0.13505147 -0.0058742641 5.5246052e-40
-0.035248596 -0.13584132 -0.0089079021 2.7551209e-40
-0.033342596 -0.13584132 -0.0089079021 5.5101578e-40
-0.031370107 -0.13505147 -0.0058742641 1.1045427e-39
-0.029389948 -0.1340252 -0.0019327281 5.5101298e-40
-0.027496178 -0.1340252 -0.0019327281 5.5101298e-40
-0.025602404 -0.1340252 -0.0019327281 9.1943116e-40
-0.02370863 -0.1340252 -0.0019327281 5.5101298e-40
-0.021814857 -0.1340252 -0.0019327281 1.4715301e-39
-0.019886956 -0.13324542 0.0010621669 5.5101578e-40
-0.017998433 -0.13324542 0.0010621669 5.5101998e-40
-0.016133541 -0.1340252 -0.0019327281 5.5102279e-40
-0.014221391 -0.13324542 0.0010621669 9.2016544e-40
-0.012332868 -0.13324542 0.0010621669 4.5990756e-40
-0.010444347 -0.13324542 0.0010621669 5.5246052e-40
-0.0085558258 -0.13324542 0.0010621669 1.1985432e-39
-0.0066673048 -0.13324542 0.0010621669 2.7765888e-40
-0.004789317 -0.13220255 0.0050674798 1.8654085e-40
-0.0029078182 -0.13220255 0.0050674798 9.4346623e-41
-0.0010451563 -0.13140334 0.0081369998 1.793662e-42
0.00083096046 -0.13140334 0.0081369998 1.4349296e-42
0.0026787324 -0.13063805 0.011076343 2.7694142e-40
0.0045496952 -0.13063805 0.011076343 8.2867186e-40
0.0064206589 -0.13063805 0.011076343 1.5640733e-39
0.0082916226 -0.13063805 0.011076343 1.7459506e-39
0.010162584 -0.13063805 0.011076343 1.3775324e-39
0.011959111 -0.12958528 0.015119684 4.7862302e-39
0.013822984 -0.12958528 0.015119684 8.3818598e-39
0.015686858 -0.12958528 0.015119684 7.7382882e-39
0.017550733 -0.12958528 0.015119684 1.102026e-39
0.019414606 -0.12958528 0.015119684 7.3468397e-40
0.02127848 -0.12958528 0.015119684 3.3168595e-39
0.023142355 -0.12958528 0.015119684 5.161149e-39
0.025006227 -0.12958528 0.015119684 6.7252349e-39
0.026870102 -0.12958528 0.015119684 1.4370973e-38
0.028733976 -0.12958528 0.015119684 2.3506258e-38
0.030597851 -0.12958528 0.015119684 2.3507349e-38
0.032461721 -0.12958528 0.015119684 2.3505924e-38
0.034325596 -0.12958528 0.015119684 2.2402473e-38
0.03618947 -0.12958528 0.015119684 1.4382178e-38
0.038053345 -0.12958528 0.015119684 1.6407232e-38
0.039917219 -0.12958528 0.015119684 9.7676949e-39
0.041781094 -0.12958528 0.015119684 9.3971061e-39
0.043644968 -0.12958528 0.015119684 2.3505914e-38
0.045508839 -0.12958528 0.015119684 2.3508802e-38
0.047581848 -0.13063805 0.011076343 2.3508801e-38
0.049452811 -0.13063805 0.011076343 2.3232211e-38
0.051100463 -0.12958528 0.015119684 2.3509521e-38
0.052964337 -0.12958528 0.015119684 2.3509883e-38
0.054828212 -0.12958528 0.015119684 2.3509527e-38
0.056692086 -0.12958528 0.015119684 2.3509527e-38
0.058555961 -0.12958528 0.015119684 2.3509886e-38
0.060227044 -0.12880091 0.018132102 2.3509886e-38
0.062085636 -0.12880091 0.018132102 2.3509886e-38
0.063944228 -0.12880091 0.018132102 2.3509886e-38
0.06580282 -0.12880091 0.018132102 2.3509886e-38
0.067448713 -0.12802102 0.021127474 2.3509886e-38
0.069302052 -0.12802102 0.021127474 2.350988e-38
0.071155392 -0.12802102 0.021127474 2.3232933e-38
0.07278157 -0.12724553 0.024105918 2.3509874e-38
0.074629687 -0.12724553 0.024105918 2.3509513e-38
0.07671541 -0.12802102 0.021127474 1.0508846e-38
-0.07012859 -0.14037828 -0.018944968 1.1983605e-38
-0.068204984 -0.14037828 -0.018944968 1.4654401e-38
-0.066281378 -0.14037828 -0.018944968 1.6405042e-38
-0.064197972 -0.13956837 -0.015855182 1.6036628e-38
-0.062279787 -0.13956837 -0.015855182 1.5299428e-38
-0.060361605 -0.13956837 -0.015855182 1.5576743e-38
-0.058256898 -0.13851611 -0.011840808 1.5300519e-38
-0.056345757 -0.13851611 -0.011840808 1.4564754e-38
-0.054434609 -0.13851611 -0.011840808 1.521084e-38
-0.05252346 -0.13851611 -0.011840808 1.4566547e-38
-0.050496619 -0.13774733 -0.0089079021 1.4659457e-38
-0.048590615 -0.13774733 -0.0089079021 1.2539673e-38
-0.046684612 -0.13774733 -0.0089079021 7.1923241e-39
-0.044778608 -0.13774733 -0.0089079021 6.4558409e-39
-0.042774204 -0.13695215 -0.0058742641 1.3847253e-39
-0.040873524 -0.13695215 -0.0058742641 1.0761972e-42
-0.03897284 -0.13695215 -0.0058742641 7.3828391e-40
-0.037072156 -0.13695215 -0.0058742641 9.1845305e-41
-0.035248596 -0.13774733 -0.0089079021 8.2761668e-40
-0.033270787 -0.13695215 -0.0058742641 1.2882277e-39
-0.031370107 -0.13695215 -0.0058742641 8.2760267e-40
-0.029389948 -0.13591899 -0.0019327281 5.5101298e-40
-0.027496178 -0.13591899 -0.0019327281 1.4726007e-39
-0.025602404 -0.13591899 -0.0019327281 1.933223e-39
-0.02370863 -0.13591899 -0.0019327281 1.0123471e-39
-0.021775477 -0.13513394 0.0010621669 3.6734198e-40
