# .PCD v0.7 - Point Cloud Data file format
VERSION 0.7
FIELDS x y z rgb
SIZE 4 4 4 4
TYPE F F F F
COUNT 1 1 1 1
WIDTH 822
HEIGHT 1
VIEWPOINT 0 0 0 1 0 0 0
POINTS 822
DATA ascii
-0.0094414745 -0.1031086 0.0019609556 1.4106297e-38
-0.0076599196 -0.1031086 0.0019609556 1.5028978e-38
-0.011251701 -0.10562779 -0.0010121241 2.3509527e-38
-0.0094414745 -0.10489015 0.0019609556 2.3234379e-38
-0.0076599196 -0.10489015 0.0019609556 2.2312796e-38
-0.01482524 -0.10741456 -0.0010121241 2.3508444e-38
-0.013038471 -0.10741456 -0.0010121241 2.3509527e-38
-0.011251701 -0.10741456 -0.0010121241 2.3509527e-38
-0.0094414745 -0.10667174 0.0019609556 2.3049632e-38
-0.0076599196 -0.10667174 0.0019609556 2.3142185e-38
-0.0058783628 -0.10667174 0.0019609556 2.2958514e-38
-0.004096806 -0.10667174 0.0019609556 1.9455472e-38
-0.0165677 -0.10845329 0.0019609556 2.3509527e-38
-0.014786143 -0.10845329 0.0019609556 2.3509168e-38
-0.013004586 -0.10845329 0.0019609556 2.3324421e-38
-0.011223029 -0.10845329 0.0019609556 2.3509527e-38
-0.0094414745 -0.10845329 0.0019609556 2.3417691e-38
-0.0076599196 -0.10845329 0.0019609556 2.2496467e-38
-0.0058783628 -0.10845329 0.0019609556 2.2957796e-38
-0.004096806 -0.10845329 0.0019609556 2.3142185e-38
-0.0023152512 -0.10845329 0.0019609556 2.2775202e-38
-0.0005336944 -0.10845329 0.0019609556 2.1673176e-38
0.0012478605 -0.10845329 0.0019609556 2.1948682e-38
0.029446419 -0.12128322 -0.049031772 1.4937134e-38
0.031317383 -0.12128322 -0.049031772 1.7887747e-38
0.033188347 -0.12128322 -0.049031772 1.7241299e-38
0.03505931 -0.12128322 -0.049031772 1.9638385e-38
0.041185409 -0.12455635 -0.062040843 1.770228e-38
0.043079179 -0.12455635 -0.062040843 1.5028607e-38
-0.021912366 -0.11023484 0.0019609556 2.3509886e-38
-0.020130813 -0.11023484 0.0019609556 2.3509886e-38
-0.018349253 -0.11023484 0.0019609556 2.314039e-38
-0.0165677 -0.11023484 0.0019609556 2.3509168e-38
-0.014786143 -0.11023484 0.0019609556 2.3509168e-38
-0.013004586 -0.11023484 0.0019609556 2.3232227e-38
-0.011223029 -0.11023484 0.0019609556 2.2955644e-38
-0.0094414745 -0.11023484 0.0019609556 2.3417333e-38
-0.0076599196 -0.11023484 0.0019609556 2.3509168e-38
-0.0058783628 -0.11023484 0.0019609556 2.3509527e-38
-0.004096806 -0.11023484 0.0019609556 2.3509527e-38
-0.0023152512 -0.11023484 0.0019609556 2.341805e-38
-0.0005336944 -0.11023484 0.0019609556 2.2867037e-38
0.0012398195 -0.10946019 0.0050184354 2.2867037e-38
0.0030160155 -0.10946019 0.0050184354 2.2037288e-38
0.0047922097 -0.10946019 0.0050184354 1.9455807e-38
0.017685598 -0.11579098 -0.019969143 2.3234379e-38
0.019505605 -0.11579098 -0.019969143 2.056107e-38
0.021391267 -0.11654995 -0.022964872 1.6411912e-38
0.02335958 -0.11808117 -0.029008545 1.5305212e-38
0.025195437 -0.11808117 -0.029008545 1.4936431e-38
0.027111167 -0.11882581 -0.03194765 1.3738242e-38
0.029069474 -0.11985306 -0.036002196 1.5398465e-38
0.031008981 -0.12060766 -0.03898064 1.8440917e-38
0.033057194 -0.12212978 -0.044988431 1.807106e-38
0.034921069 -0.12212978 -0.044988431 1.9638388e-38
0.036784943 -0.12212978 -0.044988431 1.9361448e-38
0.038801238 -0.12315418 -0.049031772 2.0283406e-38
0.040788155 -0.12389888 -0.051971115 1.890047e-38
0.042955779 -0.12569134 -0.059045948 1.5858011e-38
-0.030731693 -0.11123641 0.0050184354 9.8649296e-39
-0.028955497 -0.11123641 0.0050184354 1.2816263e-38
-0.023693923 -0.11201639 0.0019609556 2.2865235e-38
-0.021912366 -0.11201639 0.0019609556 2.2680488e-38
-0.020130813 -0.11201639 0.0019609556 2.341805e-38
-0.018349253 -0.11201639 0.0019609556 2.3509527e-38
-0.0165677 -0.11201639 0.0019609556 2.2956362e-38
-0.014786143 -0.11201639 0.0019609556 2.3416615e-38
-0.013004586 -0.11201639 0.0019609556 2.3509168e-38
-0.011223029 -0.11201639 0.0019609556 2.3509527e-38
-0.0094414745 -0.11201639 0.0019609556 2.3509527e-38
-0.0076599196 -0.11201639 0.0019609556 2.2863077e-38
-0.0058783628 -0.11201639 0.0019609556 2.2494289e-38
-0.004096806 -0.11201639 0.0019609556 2.304782e-38
-0.0023152512 -0.11201639 0.0019609556 2.350988e-38
-0.0005336944 -0.11201639 0.0019609556 2.3141106e-38
0.0012398195 -0.11123641 0.0050184354 2.3325856e-38
0.0030160155 -0.11123641 0.0050184354 2.3509886e-38
0.0047922097 -0.11123641 0.0050184354 2.341805e-38
0.0065684058 -0.11123641 0.0050184354 2.341805e-38
0.0083740847 -0.11201639 0.0019609556 2.332621e-38
0.010155641 -0.11201639 0.0019609556 2.3418047e-38
0.011937197 -0.11201639 0.0019609556 2.3234379e-38
0.013852465 -0.11430521 -0.007010974 2.3142544e-38
0.015700152 -0.11507715 -0.010036863 2.2865958e-38
0.017556844 -0.11582683 -0.012975492 2.3234379e-38
0.019426318 -0.11660783 -0.016036905 2.3234379e-38
0.021325611 -0.11761098 -0.019969143 2.1944013e-38
0.023145618 -0.11761098 -0.019969143 1.7979605e-38
0.025041787 -0.11837523 -0.022964872 1.5674358e-38
0.026867045 -0.11837523 -0.022964872 1.5766906e-38
0.028867148 -0.11991702 -0.029008545 1.6136027e-38
0.030917592 -0.12170117 -0.036002196 1.7795903e-38
0.03295948 -0.12322514 -0.041976012 1.7978864e-38
0.034818072 -0.12322514 -0.041976012 2.1113162e-38
0.036784943 -0.12399365 -0.044988431 2.0375601e-38
0.038801238 -0.12502514 -0.049031772 1.8900471e-38
0.040672198 -0.12502514 -0.049031772 1.9177058e-38
0.042664275 -0.12577499 -0.051971115 2.0836578e-38
-0.030731693 -0.1130126 0.0050184354 1.1893236e-38
-0.028955497 -0.1130126 0.0050184354 1.5397386e-38
-0.027257033 -0.11379795 0.0019609556 2.3418047e-38
-0.02547548 -0.11379795 0.0019609556 2.3234018e-38
-0.023693923 -0.11379795 0.0019609556 2.2496099e-38
-0.021912366 -0.11379795 0.0019609556 2.341805e-38
-0.020130813 -0.11379795 0.0019609556 2.3049273e-38
-0.018349253 -0.11379795 0.0019609556 2.3509527e-38
-0.0165677 -0.11379795 0.0019609556 2.3509527e-38
-0.014786143 -0.11379795 0.0019609556 2.295636e-38
-0.013004586 -0.11379795 0.0019609556 2.3325138e-38
-0.011223029 -0.11379795 0.0019609556 2.3509527e-38
-0.0094414745 -0.11379795 0.0019609556 2.3509523e-38
-0.0076599196 -0.11379795 0.0019609556 2.3509879e-38
-0.0058783628 -0.11379795 0.0019609556 2.3509876e-38
-0.004096806 -0.11379795 0.0019609556 2.3509873e-38
-0.0023152512 -0.11379795 0.0019609556 2.3509513e-38
-0.00053637475 -0.1130126 0.0050184354 2.350988e-38
0.0012398195 -0.1130126 0.0050184354 2.3325492e-38
0.0030160155 -0.1130126 0.0050184354 2.3509883e-38
0.0047922097 -0.1130126 0.0050184354 2.3509883e-38
0.0065684058 -0.1130126 0.0050184354 2.2587927e-38
0.0083446009 -0.1130126 0.0050184354 2.3509883e-38
0.01008616 -0.11223195 0.008057557 2.3509883e-38
0.011857026 -0.11223195 0.008057557 2.2496453e-38
0.013852465 -0.1161025 -0.007010974 2.341805e-38
0.015700152 -0.11687975 -0.010036863 2.3141466e-38
0.017556844 -0.11763458 -0.012975492 2.2589017e-38
0.019426318 -0.11842094 -0.016036905 2.3234379e-38
0.021325611 -0.11943097 -0.019969143 2.3234379e-38
0.023145618 -0.11943097 -0.019969143 2.1390479e-38
0.024965625 -0.11943097 -0.019969143 1.8532778e-38
0.026785631 -0.11943097 -0.019969143 1.6781411e-38
0.028867148 -0.12175287 -0.029008545 1.6689201e-38
0.030793186 -0.12250783 -0.03194765 1.8716781e-38
0.032765709 -0.1235493 -0.036002196 1.8071057e-38
0.03471566 -0.12431435 -0.03898064 1.9269606e-38
0.036569003 -0.12431435 -0.03898064 1.9453644e-38
0.038535256 -0.12508373 -0.041976012 1.9084863e-38
0.040512688 -0.12585752 -0.044988431 1.9452926e-38
0.042376563 -0.12585752 -0.044988431 2.1020606e-38
-0.030820146 -0.1155795 0.0019609556 1.9544755e-38
-0.029038589 -0.1155795 0.0019609556 2.2587932e-38
-0.027257033 -0.1155795 0.0019609556 2.341805e-38
-0.02547548 -0.1155795 0.0019609556 2.2864882e-38
-0.023693923 -0.1155795 0.0019609556 2.341805e-38
-0.021912366 -0.1155795 0.0019609556 2.3417691e-38
-0.020130813 -0.1155795 0.0019609556 2.1942571e-38
-0.018349253 -0.1155795 0.0019609556 2.1942211e-38
-0.0165677 -0.1155795 0.0019609556 2.258758e-38
-0.014786143 -0.1155795 0.0019609556 1.9913904e-38
-0.013004586 -0.1155795 0.0019609556 1.9361085e-38
-0.011223029 -0.1155795 0.0019609556 1.8714994e-38
-0.0094414745 -0.1155795 0.0019609556 1.9084128e-38
-0.0076599196 -0.1155795 0.0019609556 2.1757078e-38
-0.0058783628 -0.1155795 0.0019609556 2.350987e-38
-0.004096806 -0.1155795 0.0019609556 2.3509869e-38
-0.0023125708 -0.11478879 0.0050184354 2.3324756e-38
-0.00053637475 -0.11478879 0.0050184354 2.350987e-38
0.0012398195 -0.11478879 0.0050184354 2.3509513e-38
0.0030160155 -0.11478879 0.0050184354 2.3509876e-38
0.0047922097 -0.11478879 0.0050184354 2.3509879e-38
0.006544427 -0.11400281 0.008057557 2.3509518e-38
0.0083152931 -0.11400281 0.008057557 2.350988e-38
0.01008616 -0.11400281 0.008057557 2.3509883e-38
0.011857026 -0.11400281 0.008057557 2.3509886e-38
0.013897561 -0.11868234 -0.010036863 2.2495736e-38
0.015700152 -0.11868234 -0.010036863 2.341805e-38
0.017613206 -0.12023406 -0.016036905 2.341805e-38
0.019426318 -0.12023406 -0.016036905 2.2496821e-38
0.02123943 -0.12023406 -0.016036905 2.3049991e-38
0.023052542 -0.12023406 -0.016036905 2.3234379e-38
0.024865655 -0.12023406 -0.016036905 2.2589737e-38
0.026678767 -0.12023406 -0.016036905 2.0100089e-38
0.028779475 -0.12280498 -0.025978006 2.0560696e-38
0.030793186 -0.12434883 -0.03194765 2.1943628e-38
0.032765709 -0.1253974 -0.036002196 2.0007165e-38
0.034613829 -0.1253974 -0.036002196 1.8347649e-38
0.036569003 -0.12616767 -0.03898064 1.8808274e-38
0.038535256 -0.12694232 -0.041976012 1.8439492e-38
0.040512688 -0.12772138 -0.044988431 1.5672904e-38
0.042376563 -0.12772138 -0.044988431 1.3460565e-38
-0.030820146 -0.11736105 0.0019609556 2.3048191e-38
-0.029038589 -0.11736105 0.0019609556 2.3509527e-38
-0.027257033 -0.11736105 0.0019609556 2.2496101e-38
-0.02547548 -0.11736105 0.0019609556 2.2772688e-38
-0.023693923 -0.11736105 0.0019609556 2.3417691e-38
-0.021912366 -0.11736105 0.0019609556 2.3417691e-38
-0.020130813 -0.11736105 0.0019609556 2.3048914e-38
-0.018298328 -0.11656497 0.0050184354 2.1942211e-38
-0.016522132 -0.11656497 0.0050184354 2.0559274e-38
-0.014786143 -0.11736105 0.0019609556 1.8162186e-38
-0.013004586 -0.11736105 0.0019609556 1.8162539e-38
-0.011223029 -0.11736105 0.0019609556 1.724058e-38
-0.0094414745 -0.11736105 0.0019609556 1.622678e-38
-0.0076599196 -0.11736105 0.0019609556 1.7240569e-38
-0.0058783628 -0.11736105 0.0019609556 2.0098988e-38
-0.004096806 -0.11736105 0.0019609556 2.268046e-38
-0.0023125708 -0.11656497 0.0050184354 2.3509863e-38
-0.00053637475 -0.11656497 0.0050184354 2.3324387e-38
0.0012398195 -0.11656497 0.0050184354 2.3509863e-38
0.0030160155 -0.11656497 0.0050184354 2.3509866e-38
0.0047922097 -0.11656497 0.0050184354 2.3139647e-38
0.006544427 -0.11577369 0.008057557 2.3509517e-38
0.0083152931 -0.11577369 0.008057557 2.3509879e-38
0.01008616 -0.11577369 0.008057557 2.2678683e-38
0.011857026 -0.11577369 0.008057557 2.3048189e-38
0.013807632 -0.11891381 -0.0040027276 2.3233302e-38
0.015649751 -0.11969708 -0.007010974 2.341805e-38
0.017556844 -0.12125005 -0.012975492 2.341805e-38
0.01936459 -0.12125005 -0.012975492 2.341805e-38
0.021107929 -0.12048493 -0.010036863 2.3234379e-38
0.02291052 -0.12048493 -0.010036863 2.3234379e-38
0.024787823 -0.12125005 -0.012975492 2.3234379e-38
0.026595568 -0.12125005 -0.012975492 2.3234376e-38
0.028491879 -0.12204717 -0.016036905 2.0837277e-38
0.030793186 -0.12618984 -0.03194765 2.120606e-38
0.032634195 -0.12618984 -0.03194765 2.0376305e-38
0.034613829 -0.12724553 -0.036002196 1.8716429e-38
0.036676664 -0.12880091 -0.041976012 1.8900467e-38
0.038535256 -0.12880091 -0.041976012 1.7701927e-38
0.040512688 -0.12958528 -0.044988431 1.4750948e-38
0.042376563 -0.12958528 -0.044988431 1.2815193e-38
-0.032601703 -0.11914261 0.0019609556 1.557962e-38
-0.030820146 -0.11914261 0.0019609556 2.3416971e-38
-0.029038589 -0.11914261 0.0019609556 2.3509527e-38
-0.027257033 -0.11914261 0.0019609556 2.0836578e-38
-0.02547548 -0.11914261 0.0019609556 2.2035123e-38
-0.023693923 -0.11914261 0.0019609556 2.341805e-38
-0.021912366 -0.11914261 0.0019609556 2.3141109e-38
-0.020130813 -0.11914261 0.0019609556 2.1573789e-38
-0.018298328 -0.11834116 0.0050184354 1.6779256e-38
-0.016522132 -0.11834116 0.0050184354 1.2077276e-38
-0.014786143 -0.11914261 0.0019609556 1.0878731e-38
-0.013004586 -0.11914261 0.0019609556 1.1432258e-38
-0.011223029 -0.11914261 0.0019609556 1.1063829e-38
-0.0094414745 -0.11914261 0.0019609556 9.6808929e-39
-0.0076599196 -0.11914261 0.0019609556 9.0351577e-39
-0.0058783628 -0.11914261 0.0019609556 9.9574685e-39
-0.004096806 -0.11914261 0.0019609556 1.1616987e-38
-0.0023152512 -0.11914261 0.0019609556 1.2907e-38
-0.00053637475 -0.11834116 0.0050184354 1.8621686e-38
0.0012398195 -0.11834116 0.0050184354 2.3509851e-38
0.0030160155 -0.11834116 0.0050184354 2.3509859e-38
0.0047735609 -0.11754455 0.008057557 2.3415507e-38
0.0065213842 -0.11677901 0.010978065 2.3509511e-38
0.0082871299 -0.11677901 0.010978065 2.3509517e-38
0.010052876 -0.11677901 0.010978065 2.3509165e-38
0.011818622 -0.11677901 0.010978065 2.3509527e-38
0.013807632 -0.12070583 -0.0040027276 2.3509527e-38
0.015599644 -0.12070583 -0.0040027276 2.3417333e-38
0.017502746 -0.12228753 -0.010036863 2.3232944e-38
0.019305337 -0.12228753 -0.010036863 2.3141466e-38
0.021107929 -0.12228753 -0.010036863 2.3141466e-38
0.02291052 -0.12228753 -0.010036863 2.2865955e-38
0.024713114 -0.12228753 -0.010036863 2.3050703e-38
0.026515706 -0.12228753 -0.010036863 2.3234372e-38
0.028491879 -0.12386028 -0.016036905 2.3234361e-38
0.030517563 -0.12567626 -0.022964872 2.2220568e-38
0.032634195 -0.12803085 -0.03194765 2.0652892e-38
0.034613829 -0.12909363 -0.036002196 1.5120799e-38
0.036676664 -0.13065951 -0.041976012 1.1985795e-38
0.038535256 -0.13065951 -0.041976012 1.0787252e-38
0.040512688 -0.13144915 -0.044988431 9.9571308e-39
0.042376563 -0.13144915 -0.044988431 8.9429761e-39
-0.032601703 -0.12092416 0.0019609556 1.852988e-38
-0.030820146 -0.12092416 0.0019609556 2.3509167e-38
-0.029038589 -0.12092416 0.0019609556 2.194256e-38
-0.027257033 -0.12092416 0.0019609556 2.0099366e-38
-0.02547548 -0.12092416 0.0019609556 2.0928771e-38
-0.023693923 -0.12092416 0.0019609556 2.341805e-38
-0.021912366 -0.12092416 0.0019609556 2.3233662e-38
-0.020130813 -0.12092416 0.0019609556 1.8531687e-38
-0.018298328 -0.12011738 0.0050184354 1.4290688e-38
-0.016522132 -0.12011738 0.0050184354 1.1248233e-38
-0.014786143 -0.12092416 0.0019609556 1.1156034e-38
-0.013004586 -0.12092416 0.0019609556 1.1340781e-38
-0.011223029 -0.12092416 0.0019609556 1.134006e-38
-0.0094414745 -0.12092416 0.0019609556 1.1063829e-38
-0.0076599196 -0.12092416 0.0019609556 1.0510654e-38
-0.0058649611 -0.12011738 0.0050184354 9.8652813e-39
-0.004088765 -0.12011738 0.0050184354 9.3124635e-39
-0.0023152512 -0.12092416 0.0019609556 9.2188217e-39
-0.00053637475 -0.12011738 0.0050184354 1.4196649e-38
0.0012398195 -0.12011738 0.0050184354 2.0465587e-38
0.0030160155 -0.12011738 0.0050184354 2.3509851e-38
0.0047735609 -0.11931543 0.008057557 2.3509859e-38
0.0065213842 -0.11854477 0.010978065 2.341551e-38
0.0082871299 -0.11854477 0.010978065 2.3231846e-38
0.010052876 -0.11854477 0.010978065 2.3323689e-38
0.011779126 -0.11775221 0.013981543 2.3509527e-38
0.013539606 -0.11775221 0.013981543 2.3509168e-38
0.015300086 -0.11775221 0.013981543 2.3509527e-38
0.017060567 -0.11775221 0.013981543 2.3509886e-38
0.019244324 -0.12329166 -0.007010974 2.304927e-38
0.021107929 -0.12409012 -0.010036863 2.3234015e-38
0.022838898 -0.12329166 -0.007010974 2.3418045e-38
0.024636185 -0.12329166 -0.007010974 2.3234372e-38
0.026515706 -0.12409012 -0.010036863 2.3234367e-38
0.028692305 -0.1275015 -0.022964872 2.3418033e-38
0.030517563 -0.1275015 -0.022964872 2.0192262e-38
0.032634195 -0.12987186 -0.03194765 1.8623866e-38
0.034613829 -0.13094176 -0.036002196 1.3368719e-38
-0.032507889 -0.12189357 0.0050184354 1.852988e-38
-0.030731693 -0.12189357 0.0050184354 1.9360719e-38
-0.028955497 -0.12189357 0.0050184354 2.0652174e-38
-0.027257033 -0.12270571 0.0019609556 2.3418043e-38
-0.02547548 -0.12270571 0.0019609556 2.3141816e-38
-0.023693923 -0.12270571 0.0019609556 2.2680841e-38
-0.021912366 -0.12270571 0.0019609556 1.8347646e-38
-0.020130813 -0.12270571 0.0019609556 1.1801759e-38
-0.018349253 -0.12270571 0.0019609556 1.1709208e-38
-0.0165677 -0.12270571 0.0019609556 1.2446773e-38
-0.014786143 -0.12270571 0.0019609556 1.2631164e-38
-0.013004586 -0.12270571 0.0019609556 1.2446773e-38
-0.011223029 -0.12270571 0.0019609556 1.2538606e-38
-0.0094414745 -0.12270571 0.0019609556 1.2538606e-38
-0.0076599196 -0.12270571 0.0019609556 1.1985429e-38
-0.0058649611 -0.12189357 0.0050184354 1.1247864e-38
-0.004088765 -0.12189357 0.0050184354 1.1063829e-38
-0.0023125708 -0.12189357 0.0050184354 1.124785e-38
-0.00053637475 -0.12189357 0.0050184354 1.0785408e-38
0.0012318268 -0.12108628 0.008057557 1.4472505e-38
0.0030026939 -0.12108628 0.008057557 2.0280478e-38
0.0047556385 -0.1203105 0.010978065 2.3508772e-38
0.0064976867 -0.11951269 0.013981543 2.3509143e-38
0.0082581667 -0.11951269 0.013981543 2.3509151e-38
0.010018647 -0.11951269 0.013981543 2.3509521e-38
0.011779126 -0.11951269 0.013981543 2.3509168e-38
0.013539606 -0.11951269 0.013981543 2.3509168e-38
0.015300086 -0.11951269 0.013981543 2.3415895e-38
0.017060567 -0.11951269 0.013981543 2.3324778e-38
0.018821046 -0.11951269 0.013981543 2.3509886e-38
0.021041611 -0.12508895 -0.007010974 2.3509883e-38
0.022838898 -0.12508895 -0.007010974 2.2957782e-38
0.024636185 -0.12508895 -0.007010974 2.3142171e-38
0.026515706 -0.12589271 -0.010036863 2.3418035e-38
-0.032507889 -0.12366976 0.0050184354 1.9358921e-38
-0.030731693 -0.12366976 0.0050184354 1.8990855e-38
-0.028955497 -0.12366976 0.0050184354 1.8439831e-38
-0.027257033 -0.1244873 0.0019609556 2.3418033e-38
-0.02547548 -0.1244873 0.0019609556 2.3418035e-38
-0.023693923 -0.1244873 0.0019609556 1.5489931e-38
-0.021912366 -0.1244873 0.0019609556 1.4014806e-38
-0.020130813 -0.1244873 0.0019609556 1.0418819e-38
-0.018349253 -0.1244873 0.0019609556 1.3922256e-38
-0.0165677 -0.1244873 0.0019609556 1.2170542e-38
-0.014786143 -0.1244873 0.0019609556 1.2170186e-38
-0.013004586 -0.1244873 0.0019609556 1.2170186e-38
-0.011223029 -0.1244873 0.0019609556 1.1985798e-38
-0.0094414745 -0.1244873 0.0019609556 1.1617015e-38
-0.0076599196 -0.1244873 0.0019609556 1.1340428e-38
-0.0058649611 -0.12366976 0.0050184354 1.1340428e-38
-0.004088765 -0.12366976 0.0050184354 1.1524819e-38
-0.0023125708 -0.12366976 0.0050184354 1.1709197e-38
-0.00053637475 -0.12366976 0.0050184354 1.1983954e-38
0.0012318268 -0.12285714 0.008057557 1.1245656e-38
0.0030026939 -0.12285714 0.008057557 1.4472871e-38
0.0047556385 -0.12207626 0.010978065 2.1571583e-38
0.0064976867 -0.12127317 0.013981543 2.3509863e-38
0.0082581667 -0.12127317 0.013981543 2.3509511e-38
0.010018647 -0.12127317 0.013981543 2.2586124e-38
0.011779126 -0.12127317 0.013981543 2.3509168e-38
0.013495109 -0.12047486 0.016967259 2.3509168e-38
0.015250353 -0.12047486 0.016967259 2.3509168e-38
0.017005598 -0.12047486 0.016967259 2.3509527e-38
0.018760843 -0.12047486 0.016967259 2.2772318e-38
0.021041611 -0.12688623 -0.007010974 2.350988e-38
0.022767693 -0.12608187 -0.0040027276 2.3141452e-38
0.024559705 -0.12608187 -0.0040027276 2.3509873e-38
0.026433472 -0.12688623 -0.007010974 2.2127653e-38
-0.030731693 -0.12544595 0.0050184354 1.7331334e-38
-0.028955497 -0.12544595 0.0050184354 2.046813e-38
-0.027332619 -0.12706901 -0.0010121241 2.2589702e-38
-0.02554585 -0.12706901 -0.0010121241 2.2773737e-38
-0.023693923 -0.12626885 0.0019609556 1.3554177e-38
-0.021912366 -0.12626885 0.0019609556 1.3461627e-38
-0.020130813 -0.12626885 0.0019609556 1.3369434e-38
-0.018349253 -0.12626885 0.0019609556 1.3184688e-38
-0.0165677 -0.12626885 0.0019609556 1.2723713e-38
-0.014786143 -0.12626885 0.0019609556 1.2815911e-38
-0.013004586 -0.12626885 0.0019609556 1.272336e-38
-0.011223029 -0.12626885 0.0019609556 1.2538971e-38
-0.0094414745 -0.12626885 0.0019609556 1.2077995e-38
-0.0076599196 -0.12626885 0.0019609556 1.1708856e-38
-0.0058649611 -0.12544595 0.0050184354 1.1341153e-38
-0.004088765 -0.12544595 0.0050184354 1.1433348e-38
-0.0023125708 -0.12544595 0.0050184354 1.1708842e-38
-0.00053637475 -0.12544595 0.0050184354 1.1431503e-38
0.0012398195 -0.12544595 0.0050184354 1.096979e-38
0.0030160155 -0.12544595 0.0050184354 1.1983591e-38
0.0047556385 -0.12384202 0.010978065 1.5856173e-38
0.0064976867 -0.12303366 0.013981543 1.9912073e-38
0.008229374 -0.1222301 0.016967259 2.350987e-38
0.009984619 -0.1222301 0.016967259 2.350916e-38
0.011739864 -0.1222301 0.016967259 2.3509165e-38
0.013495109 -0.1222301 0.016967259 2.323186e-38
0.015250353 -0.1222301 0.016967259 2.3324055e-38
0.017005598 -0.1222301 0.016967259 2.3509527e-38
0.018760843 -0.1222301 0.016967259 2.3509883e-38
0.020975681 -0.12787388 -0.0040027276 2.350988e-38
0.022554163 -0.12544595 0.0050184354 2.2957064e-38
0.024330357 -0.12544595 0.0050184354 2.3141808e-38
0.026189644 -0.12626885 0.0019609556 2.0652523e-38
-0.030992676 -0.1296659 -0.0040027276 2.1018799e-38
-0.029200666 -0.1296659 -0.0040027276 2.2957052e-38
-0.027408652 -0.1296659 -0.0040027276 2.3509863e-38
-0.025616638 -0.1296659 -0.0040027276 2.0837985e-38
-0.023759082 -0.12885578 -0.0010121241 1.2724414e-38
-0.021972314 -0.12885578 -0.0010121241 1.3185396e-38
-0.020185545 -0.12885578 -0.0010121241 1.4106996e-38
-0.018398777 -0.12885578 -0.0010121241 1.2631872e-38
-0.016612008 -0.12885578 -0.0010121241 1.272371e-38
-0.014786143 -0.1280504 0.0019609556 1.2447849e-38
-0.013004586 -0.1280504 0.0019609556 1.2355656e-38
-0.011223029 -0.1280504 0.0019609556 1.2263464e-38
-0.0094414745 -0.1280504 0.0019609556 1.1986519e-38
-0.0076599196 -0.1280504 0.0019609556 1.1709935e-38
-0.0058783628 -0.1280504 0.0019609556 1.1525547e-38
-0.004096806 -0.1280504 0.0019609556 1.1617742e-38
-0.0023152512 -0.1280504 0.0019609556 1.1986151e-38
-0.0005336944 -0.1280504 0.0019609556 1.2169434e-38
0.0012478605 -0.1280504 0.0019609556 1.2260538e-38
0.0030294172 -0.1280504 0.0019609556 1.0969802e-38
0.0047556385 -0.12560774 0.010978065 1.1062726e-38
0.0064976867 -0.12479414 0.013981543 1.530337e-38
0.008229374 -0.12398534 0.016967259 2.3324038e-38
0.009984619 -0.12398534 0.016967259 2.3509517e-38
0.011739864 -0.12398534 0.016967259 2.3508441e-38
0.013495109 -0.12398534 0.016967259 2.3509524e-38
0.015250353 -0.12398534 0.016967259 2.3509524e-38
0.017005598 -0.12398534 0.016967259 2.3509524e-38
0.018760843 -0.12398534 0.016967259 2.314074e-38
0.020581525 -0.12479414 0.013981543 2.3417324e-38
0.022482226 -0.12639888 0.008057557 2.3509879e-38
0.024253093 -0.12639888 0.008057557 2.3509879e-38
0.026189644 -0.1280504 0.0019609556 1.9268873e-38
-0.031079702 -0.1322781 -0.007010974 2.3509521e-38
-0.029282417 -0.1322781 -0.007010974 2.350987e-38
-0.027408652 -0.13145791 -0.0040027276 2.3509866e-38
-0.025616638 -0.13145791 -0.0040027276 1.7887369e-38
-0.023759082 -0.13064255 -0.0010121241 1.3738568e-38
-0.021972314 -0.13064255 -0.0010121241 1.3922961e-38
-0.020240601 -0.13145791 -0.0040027276 1.3092844e-38
-0.018448591 -0.13145791 -0.0040027276 1.3369434e-38
-0.016612008 -0.13064255 -0.0010121241 1.3553471e-38
-0.01482524 -0.13064255 -0.0010121241 1.318577e-38
-0.013038471 -0.13064255 -0.0010121241 1.2908827e-38
-0.011251701 -0.13064255 -0.0010121241 1.2724439e-38
-0.0094414745 -0.12983195 0.0019609556 1.254005e-38
-0.0076599196 -0.12983195 0.0019609556 1.2170911e-38
-0.0058783628 -0.12983195 0.0019609556 1.1618458e-38
-0.004096806 -0.12983195 0.0019609556 1.1618458e-38
-0.0023152512 -0.12983195 0.0019609556 1.1894675e-38
-0.00053108856 -0.13064255 -0.0010121241 1.2262354e-38
0.0012556799 -0.13064255 -0.0010121241 1.299955e-38
0.0030424483 -0.13064255 -0.0010121241 1.1524064e-38
0.0048292177 -0.13064255 -0.0010121241 1.0325522e-38
0.0064741289 -0.12574057 0.016967259 1.3275429e-38
0.008229374 -0.12574057 0.016967259 2.157304e-38
0.0099496702 -0.1249045 0.020033859 2.3509876e-38
0.011699539 -0.1249045 0.020033859 2.3508798e-38
0.013495109 -0.12574057 0.016967259 2.3508441e-38
0.015250353 -0.12574057 0.016967259 2.3231857e-38
0.017005598 -0.12574057 0.016967259 2.3509524e-38
0.018760843 -0.12574057 0.016967259 2.3509164e-38
0.020581525 -0.12655462 0.013981543 2.3509883e-38
0.022413097 -0.1273735 0.010978065 2.350988e-38
0.024178844 -0.1273735 0.010978065 2.2218781e-38
0.026106553 -0.12899835 0.0050184354 1.3736782e-38
-0.031079702 -0.13407536 -0.007010974 2.3415529e-38
-0.029282417 -0.13407536 -0.007010974 2.3509874e-38
-0.027408652 -0.13324992 -0.0040027276 2.2219852e-38
-0.025616638 -0.13324992 -0.0040027276 1.5858713e-38
-0.023824625 -0.13324992 -0.0040027276 1.4752369e-38
-0.022032615 -0.13324992 -0.0040027276 1.5489934e-38
-0.020240601 -0.13324992 -0.0040027276 1.4199195e-38
-0.018448591 -0.13324992 -0.0040027276 1.3923331e-38
-0.016612008 -0.13242932 -0.0010121241 1.4937483e-38
-0.01482524 -0.13242932 -0.0010121241 1.4937484e-38
-0.013038471 -0.13242932 -0.0010121241 1.4476509e-38
-0.011251701 -0.13242932 -0.0010121241 1.4015894e-38
-0.0094649326 -0.13242932 -0.0010121241 1.3739307e-38
-0.0076781623 -0.13242932 -0.0010121241 1.3001745e-38
-0.0058913939 -0.13242932 -0.0010121241 1.2171984e-38
-0.0041046254 -0.13242932 -0.0010121241 1.1803201e-38
-0.002317857 -0.13242932 -0.0010121241 1.1987587e-38
-0.00052846596 -0.13324992 -0.0040027276 1.1709547e-38
0.0012635458 -0.13324992 -0.0040027276 1.2538941e-38
0.0030555576 -0.13324992 -0.0040027276 1.2170161e-38
0.0048475703 -0.13324992 -0.0040027276 1.1616987e-38
0.0064741289 -0.12749584 0.016967259 1.2723337e-38
0.008229374 -0.12749584 0.016967259 1.8531305e-38
0.0099496702 -0.12665437 0.020033859 2.1481571e-38
0.011699539 -0.12665437 0.020033859 2.3509879e-38
0.013449406 -0.12665437 0.020033859 2.3509879e-38
0.015199274 -0.12665437 0.020033859 2.3232933e-38
0.017005598 -0.12749584 0.016967259 2.3509524e-38
0.018760843 -0.12749584 0.016967259 2.3509524e-38
0.020581525 -0.12831511 0.013981543 2.3231857e-38
0.022413097 -0.12913923 0.010978065 2.1848925e-38
0.024178844 -0.12913923 0.010978065 1.963623e-38
0.025944591 -0.12913923 0.010978065 1.2168381e-38
-0.032876991 -0.13587265 -0.007010974 1.6130995e-38
-0.031079702 -0.13587265 -0.007010974 2.3508445e-38
-0.029282417 -0.13587265 -0.007010974 2.3509883e-38
-0.027485132 -0.13587265 -0.007010974 1.9177044e-38
-0.025616638 -0.13504194 -0.0040027276 1.6134948e-38
-0.023824625 -0.13504194 -0.0040027276 1.5397383e-38
-0.022032615 -0.13504194 -0.0040027276 1.6780318e-38
-0.020240601 -0.13504194 -0.0040027276 1.6872514e-38
-0.018498696 -0.13587265 -0.007010974 1.3923331e-38
-0.016656578 -0.13504194 -0.0040027276 1.5582852e-38
-0.014864564 -0.13504194 -0.0040027276 1.5306265e-38
-0.013072554 -0.13504194 -0.0040027276 1.4845289e-38
-0.01128054 -0.13504194 -0.0040027276 1.4477225e-38
-0.0094885267 -0.13504194 -0.0040027276 1.4477225e-38
-0.0076965168 -0.13504194 -0.0040027276 1.3831856e-38
-0.0058913939 -0.13421609 -0.0010121241 1.3002095e-38
-0.0041046254 -0.13421609 -0.0010121241 1.2542196e-38
-0.002317857 -0.13421609 -0.0010121241 1.3002094e-38
-0.00052846596 -0.13504194 -0.0040027276 1.254075e-38
0.0012556799 -0.13421609 -0.0010121241 1.2908809e-38
0.0030424483 -0.13421609 -0.0010121241 1.30932e-38
0.0048292177 -0.13421609 -0.0010121241 1.3000286e-38
0.0064976867 -0.13007559 0.013981543 1.2539308e-38
0.008229374 -0.12925108 0.016967259 1.5950549e-38
0.0099496702 -0.12840421 0.020033859 1.8807894e-38
0.011699539 -0.12840421 0.020033859 2.2680114e-38
0.013449406 -0.12840421 0.020033859 2.2587562e-38
0.015199274 -0.12840421 0.020033859 2.0559258e-38
0.017005598 -0.12925108 0.016967259 2.0650376e-38
0.018760843 -0.12925108 0.016967259 2.0097205e-38
0.020581525 -0.13007559 0.013981543 1.7884513e-38
0.022413097 -0.13090499 0.010978065 1.4288528e-38
0.024178844 -0.13090499 0.010978065 1.4103776e-38
0.025944591 -0.13090499 0.010978065 1.1246428e-38
-0.034867745 -0.13932751 -0.012975492 1.2996699e-38
-0.032876991 -0.13766994 -0.007010974 1.6683809e-38
-0.031079702 -0.13766994 -0.007010974 2.3508809e-38
-0.029282417 -0.13766994 -0.007010974 2.3416974e-38
-0.027485132 -0.13766994 -0.007010974 1.8530968e-38
-0.025687844 -0.13766994 -0.007010974 1.7424621e-38
-0.023890555 -0.13766994 -0.007010974 1.6779607e-38
-0.02209327 -0.13766994 -0.007010974 1.7610084e-38
-0.020295985 -0.13766994 -0.007010974 1.7610081e-38
-0.018498696 -0.13766994 -0.007010974 1.5490658e-38
-0.016701411 -0.13766994 -0.007010974 1.5767244e-38
-0.014904123 -0.13766994 -0.007010974 1.5675048e-38
-0.013072554 -0.13683395 -0.0040027276 1.512223e-38
-0.01128054 -0.13683395 -0.0040027276 1.4846362e-38
-0.0094885267 -0.13683395 -0.0040027276 1.5030751e-38
-0.0076965168 -0.13683395 -0.0040027276 1.4294264e-38
-0.0059045032 -0.13683395 -0.0040027276 1.3372308e-38
-0.0041124914 -0.13683395 -0.0040027276 1.3187917e-38
-0.0023204796 -0.13683395 -0.0040027276 1.3556699e-38
-0.00052846596 -0.13683395 -0.0040027276 1.392405e-38
0.0012556799 -0.13600285 -0.0010121241 1.3831135e-38
0.0030424483 -0.13600285 -0.0010121241 1.3554904e-38
0.0048292177 -0.13600285 -0.0010121241 1.3553825e-38
0.0064976867 -0.13183604 0.013981543 1.2724062e-38
0.008229374 -0.13100632 0.016967259 1.530554e-38
0.0099496702 -0.13015409 0.020033859 1.7149092e-38
0.011699539 -0.13015409 0.020033859 2.0375939e-38
0.013449406 -0.13015409 0.020033859 2.0467419e-38
0.015199274 -0.13015409 0.020033859 2.009828e-38
0.017005598 -0.13100632 0.016967259 2.0742572e-38
0.018760843 -0.13100632 0.016967259 2.0097205e-38
0.020581525 -0.13183604 0.013981543 1.8068188e-38
0.022413097 -0.13267075 0.010978065 1.3826833e-38
0.024178844 -0.13267075 0.010978065 1.308927e-38
0.02602396 -0.13348235 0.008057557 1.1153876e-38
-0.034867745 -0.14113526 -0.012975492 1.308925e-38
-0.033060003 -0.14113526 -0.012975492 1.5854764e-38
-0.031079702 -0.13946722 -0.007010974 2.2032598e-38
-0.029282417 -0.13946722 -0.007010974 2.0928056e-38
-0.027485132 -0.13946722 -0.007010974 1.8992311e-38
-0.025687844 -0.13946722 -0.007010974 1.7517181e-38
-0.023890555 -0.13946722 -0.007010974 1.8070711e-38
-0.02209327 -0.13946722 -0.007010974 1.8162905e-38
-0.020295985 -0.13946722 -0.007010974 1.6412264e-38
-0.018498696 -0.13946722 -0.007010974 1.8348725e-38
-0.016701411 -0.13946722 -0.007010974 1.650481e-38
-0.014904123 -0.13946722 -0.007010974 1.7242374e-38
-0.013106838 -0.13946722 -0.007010974 1.6505165e-38
-0.011309549 -0.13946722 -0.007010974 1.6136382e-38
-0.0095122643 -0.13946722 -0.007010974 1.5860511e-38
-0.0077149756 -0.13946722 -0.007010974 1.5030751e-38
-0.0059045032 -0.13862596 -0.0040027276 1.3740012e-38
-0.0041124914 -0.13862596 -0.0040027276 1.3279034e-38
-0.0023204796 -0.13862596 -0.0040027276 1.3647819e-38
-0.00052846596 -0.13862596 -0.0040027276 1.3831856e-38
0.0012556799 -0.13778962 -0.0010121241 1.373966e-38
0.0030424483 -0.13778962 -0.0010121241 1.3186486e-38
0.0048109731 -0.13695817 0.0019609556 1.3001375e-38
0.0064976867 -0.13359652 0.013981543 1.2816983e-38
0.008229374 -0.13276155 0.016967259 1.6135303e-38
0.0099496702 -0.13190396 0.020033859 1.6965064e-38
0.011699539 -0.13190396 0.020033859 1.8716062e-38
0.013449406 -0.13190396 0.020033859 1.8531673e-38
0.015199274 -0.13190396 0.020033859 1.9452911e-38
0.017005598 -0.13276155 0.016967259 1.8715347e-38
0.018760843 -0.13276155 0.016967259 1.6501573e-38
0.020581525 -0.13359652 0.013981543 1.585549e-38
0.022413097 -0.13443647 0.010978065 1.4011578e-38
0.024253093 -0.13525321 0.008057557 1.3550602e-38
0.02602396 -0.13525321 0.008057557 1.0601058e-38
-0.033060003 -0.14294298 -0.012975492 1.5948391e-38
-0.031167243 -0.14211603 -0.010036863 2.0467064e-38
-0.029364653 -0.14211603 -0.010036863 1.9730952e-38
-0.027562059 -0.14211603 -0.010036863 1.8256188e-38
-0.025687844 -0.14126451 -0.007010974 1.7887405e-38
-0.023890555 -0.14126451 -0.007010974 1.8809718e-38
-0.02209327 -0.14126451 -0.007010974 1.8901909e-38
-0.020295985 -0.14126451 -0.007010974 1.797959e-38
-0.018498696 -0.14126451 -0.007010974 1.7610804e-38
-0.016701411 -0.14126451 -0.007010974 1.8164334e-38
-0.014904123 -0.14126451 -0.007010974 1.7887747e-38
-0.013106838 -0.14126451 -0.007010974 1.6781397e-38
-0.011309549 -0.14126451 -0.007010974 1.5951636e-38
-0.0095122643 -0.14126451 -0.007010974 1.5675049e-38
-0.0077149756 -0.14126451 -0.007010974 1.5121876e-38
-0.0059045032 -0.14041798 -0.0040027276 1.4292115e-38
-0.0041124914 -0.14041798 -0.0040027276 1.4015531e-38
-0.0023204796 -0.14041798 -0.0040027276 1.4384313e-38
-0.00052846596 -0.14041798 -0.0040027276 1.4293913e-38
0.0012556799 -0.13957639 -0.0010121241 1.3740739e-38
0.0030424483 -0.13957639 -0.0010121241 1.3279761e-38
0.0047922097 -0.13787933 0.0050184354 1.3093935e-38
0.0064976867 -0.13535701 0.013981543 1.3462717e-38
0.008229374 -0.13451682 0.016967259 1.6320422e-38
0.009984619 -0.13451682 0.016967259 1.6043835e-38
0.011699539 -0.13365383 0.020033859 1.8716429e-38
0.013449406 -0.13365383 0.020033859 1.8716426e-38
0.015250353 -0.13451682 0.016967259 1.7425327e-38
0.017005598 -0.13451682 0.016967259 1.843876e-38
0.018821046 -0.13535701 0.013981543 1.5949477e-38
0.020581525 -0.13535701 0.013981543 1.5579974e-38
0.022413097 -0.13620223 0.010978065 1.2260929e-38
0.024253093 -0.13702409 0.008057557 1.1984342e-38
-0.033060003 -0.14475073 -0.012975492 1.5210823e-38
-0.031079702 -0.1430618 -0.007010974 2.1020592e-38
-0.029282417 -0.1430618 -0.007010974 2.0376679e-38
-0.027485132 -0.1430618 -0.007010974 1.9178144e-38
-0.025687844 -0.1430618 -0.007010974 1.7334587e-38
-0.023824625 -0.14220999 -0.0040027276 1.622824e-38
-0.022032615 -0.14220999 -0.0040027276 1.659702e-38
-0.020240601 -0.14220999 -0.0040027276 1.761117e-38
-0.018448591 -0.14220999 -0.0040027276 1.751933e-38
-0.016701411 -0.1430618 -0.007010974 1.6689567e-38
-0.014904123 -0.1430618 -0.007010974 1.6597371e-38
-0.013072554 -0.14220999 -0.0040027276 1.6505176e-38
-0.01128054 -0.14220999 -0.0040027276 1.6596653e-38
-0.0094885267 -0.14220999 -0.0040027276 1.6412261e-38
-0.0076965168 -0.14220999 -0.0040027276 1.5951283e-38
-0.0059045032 -0.14220999 -0.0040027276 1.5489585e-38
-0.0041046254 -0.14136316 -0.0010121241 1.5120446e-38
-0.002317857 -0.14136316 -0.0010121241 1.4844936e-38
-0.00053108856 -0.14136316 -0.0010121241 1.3740383e-38
0.0012556799 -0.14136316 -0.0010121241 1.45705e-38
0.0030294172 -0.14052127 0.0019609556 1.4293557e-38
0.0047922097 -0.13965552 0.0050184354 1.3462717e-38
0.0065213842 -0.13796796 0.010978065 1.3923698e-38
0.0082581667 -0.13711749 0.013981543 1.7703719e-38
0.009984619 -0.13627206 0.016967259 1.7610804e-38
0.011739864 -0.13627206 0.016967259 1.8440565e-38
0.013495109 -0.13627206 0.016967259 1.807106e-38
0.015250353 -0.13627206 0.016967259 1.7701558e-38
0.017005598 -0.13627206 0.016967259 1.7885586e-38
0.018760843 -0.13627206 0.016967259 1.355239e-38
0.020581525 -0.13711749 0.013981543 1.2721907e-38
0.022342006 -0.13711749 0.013981543 9.5872525e-39
-0.032876991 -0.14485909 -0.007010974 1.3827167e-38
-0.031079702 -0.14485909 -0.007010974 2.166488e-38
-0.029200666 -0.14400201 -0.0040027276 2.2126951e-38
-0.027408652 -0.14400201 -0.0040027276 1.9914623e-38
-0.025616638 -0.14400201 -0.0040027276 1.8348018e-38
-0.023824625 -0.14400201 -0.0040027276 1.8624605e-38
-0.022032615 -0.14400201 -0.0040027276 1.8625322e-38
-0.020240601 -0.14400201 -0.0040027276 1.761117e-38
-0.018448591 -0.14400201 -0.0040027276 1.7150192e-38
-0.016656578 -0.14400201 -0.0040027276 1.7520409e-38
-0.014904123 -0.14485909 -0.007010974 1.6967236e-38
-0.013072554 -0.14400201 -0.0040027276 1.6782844e-38
-0.01128054 -0.14400201 -0.0040027276 1.6597374e-38
-0.0094885267 -0.14400201 -0.0040027276 1.60442e-38
-0.0076965168 -0.14400201 -0.0040027276 1.5398831e-38
-0.0058913939 -0.14314993 -0.0010121241 1.5121525e-38
-0.0041046254 -0.14314993 -0.0010121241 1.5121525e-38
-0.002317857 -0.14314993 -0.0010121241 1.5305914e-38
-0.0005336944 -0.14230286 0.0019609556 1.5122594e-38
0.0012478605 -0.14230286 0.0019609556 1.5952354e-38
0.0030294172 -0.14230286 0.0019609556 1.521479e-38
0.0047922097 -0.1414317 0.0050184354 1.3831137e-38
0.0065213842 -0.13973372 0.010978065 1.3738944e-38
0.0082581667 -0.13887797 0.013981543 1.761116e-38
0.009984619 -0.1380273 0.016967259 1.7794475e-38
0.011739864 -0.1380273 0.016967259 1.7610084e-38
0.013495109 -0.1380273 0.016967259 1.8162539e-38
0.015250353 -0.1380273 0.016967259 1.8070341e-38
0.017005598 -0.1380273 0.016967259 1.7793391e-38
0.018760843 -0.1380273 0.016967259 1.3091412e-38
0.020516088 -0.1380273 0.016967259 1.2446399e-38
0.022342006 -0.13887797 0.013981543 8.5741796e-39
-0.031079702 -0.14665638 -0.007010974 2.2585394e-38
-0.029200666 -0.14579402 -0.0040027276 2.3509521e-38
-0.027408652 -0.14579402 -0.0040027276 2.2771605e-38
-0.025616638 -0.14579402 -0.0040027276 2.2680128e-38
-0.023824625 -0.14579402 -0.0040027276 2.341805e-38
-0.022032615 -0.14579402 -0.0040027276 2.1944005e-38
-0.020240601 -0.14579402 -0.0040027276 1.8072148e-38
-0.018448591 -0.14579402 -0.0040027276 1.5952728e-38
-0.016656578 -0.14579402 -0.0040027276 1.6414426e-38
-0.014904123 -0.14665638 -0.007010974 1.6414426e-38
-0.013072554 -0.14579402 -0.0040027276 1.5308796e-38
-0.01128054 -0.14579402 -0.0040027276 1.4570512e-38
-0.0094885267 -0.14579402 -0.0040027276 1.4477598e-38
-0.0076781623 -0.1449367 -0.0010121241 1.4016976e-38
-0.0058913939 -0.1449367 -0.0010121241 1.3462723e-38
-0.0041046254 -0.1449367 -0.0010121241 1.3738591e-38
-0.002317857 -0.1449367 -0.0010121241 1.4476153e-38
-0.0005336944 -0.14408441 0.0019609556 1.4476506e-38
0.0012478605 -0.14408441 0.0019609556 1.521407e-38
0.0030294172 -0.14408441 0.0019609556 1.4753093e-38
0.0047922097 -0.14320792 0.0050184354 1.4753093e-38
0.0065213842 -0.14149947 0.010978065 1.5120799e-38
0.0082581667 -0.14063846 0.013981543 1.8624233e-38
0.010018647 -0.14063846 0.013981543 1.8716432e-38
0.011739864 -0.13978253 0.016967259 1.770228e-38
0.013495109 -0.13978253 0.016967259 1.6410822e-38
0.015250353 -0.13978253 0.016967259 1.5949844e-38
0.016949143 -0.13890342 0.020033859 1.5672894e-38
0.018699011 -0.13890342 0.020033859 1.1800675e-38
0.02038423 -0.13805781 0.022983633 1.1892869e-38
0.022128927 -0.13805781 0.022983633 7.2834435e-39
-0.027485132 -0.14845367 -0.007010974 2.3509163e-38
-0.025616638 -0.14758603 -0.0040027276 2.3509165e-38
-0.023759082 -0.14672346 -0.0010121241 2.3509527e-38
-0.021972314 -0.14672346 -0.0010121241 2.2957075e-38
-0.020185545 -0.14672346 -0.0010121241 2.12068e-38
-0.018398777 -0.14672346 -0.0010121241 1.8995904e-38
-0.016656578 -0.14758603 -0.0040027276 1.7428941e-38
-0.014864564 -0.14758603 -0.0040027276 1.6876846e-38
-0.013072554 -0.14758603 -0.0040027276 1.4940738e-38
-0.011251701 -0.14672346 -0.0010121241 1.4202094e-38
-0.0094649326 -0.14672346 -0.0010121241 1.4939656e-38
-0.0076599196 -0.14586596 0.0019609556 1.5122967e-38
-0.0058783628 -0.14586596 0.0019609556 1.4107736e-38
-0.004096806 -0.14586596 0.0019609556 1.4291765e-38
-0.0023152512 -0.14586596 0.0019609556 1.5582501e-38
-0.0005336944 -0.14586596 0.0019609556 1.5305545e-38
0.0012478605 -0.14586596 0.0019609556 1.6688477e-38
0.0030294172 -0.14586596 0.0019609556 1.6135306e-38
0.0047922097 -0.14498411 0.0050184354 1.6042753e-38
0.0065213842 -0.1432652 0.010978065 1.6226428e-38
0.0082581667 -0.14239894 0.013981543 1.9914253e-38
0.010018647 -0.14239894 0.013981543 1.9453278e-38
0.011739864 -0.14153777 0.016967259 1.6134235e-38
0.013449406 -0.1406533 0.020033859 1.6502299e-38
0.015199274 -0.1406533 0.020033859 1.6502299e-38
0.016949143 -0.1406533 0.020033859 1.5764734e-38
0.018699011 -0.1406533 0.020033859 1.1155308e-38
0.02038423 -0.13980253 0.022983633 1.1431895e-38
0.022128927 -0.13980253 0.022983633 8.6660235e-39
-0.029119387 -0.14851023 -0.0010121241 2.3508793e-38
-0.02554585 -0.14851023 -0.0010121241 2.3506998e-38
-0.023759082 -0.14851023 -0.0010121241 2.332405e-38
-0.021972314 -0.14851023 -0.0010121241 2.3509886e-38
-0.020185545 -0.14851023 -0.0010121241 2.3142544e-38
-0.018398777 -0.14851023 -0.0010121241 2.2775202e-38
-0.016656578 -0.14937802 -0.0040027276 2.1762859e-38
-0.014864564 -0.14937802 -0.0040027276 2.0288448e-38
-0.013072554 -0.14937802 -0.0040027276 1.7522579e-38
-0.011251701 -0.14851023 -0.0010121241 1.5493556e-38
-0.0094649326 -0.14851023 -0.0010121241 1.5400637e-38
-0.0076599196 -0.14764751 0.0019609556 1.5123687e-38
-0.0058783628 -0.14764751 0.0019609556 1.4661989e-38
-0.004096806 -0.14764751 0.0019609556 1.5952005e-38
-0.0023152512 -0.14764751 0.0019609556 1.8255454e-38
-0.0005336944 -0.14764751 0.0019609556 1.7886304e-38
0.0012478605 -0.14764751 0.0019609556 1.917704e-38
0.0030294172 -0.14764751 0.0019609556 1.7332411e-38
0.0047922097 -0.1467603 0.0050184354 1.5765804e-38
0.006544427 -0.14587842 0.008057557 1.5672891e-38
0.0082871299 -0.14503096 0.010978065 2.0375231e-38
0.010018647 -0.14415942 0.013981543 2.0375234e-38
0.011739864 -0.14329304 0.016967259 1.5027888e-38
0.013449406 -0.14240317 0.020033859 1.4658386e-38
0.015099673 -0.14066802 0.026013516 1.5580343e-38
0.016839057 -0.14066802 0.026013516 1.4934973e-38
0.018578442 -0.14066802 0.026013516 8.6656703e-39
0.020448878 -0.14240317 0.020033859 8.1124966e-39
-0.0076599196 -0.14942907 0.0019609556 1.4939296e-38
-0.0058783628 -0.14942907 0.0019609556 1.5215163e-38
-0.004096806 -0.14942907 0.0019609556 1.7150548e-38
-0.0023152512 -0.14942907 0.0019609556 1.9269606e-38
-0.0005336944 -0.14942907 0.0019609556 1.9268521e-38
0.0012478605 -0.14942907 0.0019609556 1.926852e-38
0.0030294172 -0.14942907 0.0019609556 1.7516082e-38
0.0047922097 -0.14853649 0.0050184354 1.7885585e-38
0.0065684058 -0.14853649 0.0050184354 1.825329e-38
0.0082871299 -0.14679669 0.010978065 2.1296828e-38
0.010018647 -0.1459199 0.013981543 2.0743298e-38
0.011739864 -0.14504828 0.016967259 1.5303756e-38
0.013449406 -0.14415304 0.020033859 1.3920821e-38
0.015099673 -0.1424074 0.026013516 1.4381799e-38
0.016839057 -0.1424074 0.026013516 1.4566912e-38
0.018578442 -0.1424074 0.026013516 8.5741964e-39
0.020317825 -0.1424074 0.026013516 5.9927187e-39
0.0083152931 -0.14942016 0.008057557 2.1019162e-38
0.010018647 -0.14768039 0.013981543 1.733206e-38
0.011739864 -0.14680351 0.016967259 1.1708126e-38
0.013495109 -0.14680351 0.016967259 1.2445691e-38
0.015099673 -0.14414679 0.026013516 1.1431539e-38
0.016839057 -0.14414679 0.026013516 1.2446413e-38
0.018578442 -0.14414679 0.026013516 7.928827e-39
0.010018647 -0.14944084 0.013981543 1.4750582e-38
0.011739864 -0.14855875 0.016967259 1.1431539e-38
0.013449406 -0.14765279 0.020033859 1.2169823e-38
0.015199274 -0.14765279 0.020033859 1.2262019e-38
0.017005598 -0.14855875 0.016967259 9.9571308e-39
0.018760843 -0.14855875 0.016967259 5.2547978e-39
0.013449406 -0.14940263 0.020033859 9.1273674e-39
0.015199274 -0.14940263 0.020033859 8.0210198e-39
