# .PCD v0.7 - Point Cloud Data file format
VERSION 0.7
FIELDS x y z rgb
SIZE 4 4 4 4
TYPE F F F F
COUNT 1 1 1 1
WIDTH 944
HEIGHT 1
VIEWPOINT 0 0 0 1 0 0 0
POINTS 944
DATA ascii
-0.017064717 -0.12513812 -0.020717701 8.4801665e-39
-0.015153572 -0.12513812 -0.020717701 7.9273486e-39
-0.013219289 -0.12440531 -0.017784795 7.4656516e-39
-0.011270482 -0.12266256 -0.010809621 9.0297375e-39
-0.0093460251 -0.12091358 -0.0038094129 8.658797e-39
-0.0074645262 -0.12091358 -0.0038094129 1.1699095e-38
0.0037451545 -0.11840202 0.0062427912 1.4378551e-38
0.005609028 -0.11840202 0.0062427912 6.5440834e-39
0.0074729025 -0.11840202 0.0062427912 5.9930691e-39
0.0093367761 -0.11840202 0.0062427912 4.5197327e-39
0.011155754 -0.11764936 0.0092552099 4.9807052e-39
0.013014346 -0.11764936 0.0092552099 4.7044756e-39
0.014817795 -0.11690097 0.012250582 7.2848715e-39
0.016671134 -0.11690097 0.012250582 8.9436767e-39
0.018524475 -0.11690097 0.012250582 7.0979733e-39
0.020377815 -0.11690097 0.012250582 4.0533679e-39
0.022231156 -0.11690097 0.012250582 4.0526575e-39
0.024084495 -0.11690097 0.012250582 4.8827825e-39
0.025937837 -0.11690097 0.012250582 2.9481162e-39
0.027791176 -0.11690097 0.012250582 2.765164e-39
0.029644515 -0.11690097 0.012250582 2.8573597e-39
0.031497855 -0.11690097 0.012250582 6.2689539e-39
0.033351198 -0.11690097 0.012250582 8.1135812e-39
0.035317451 -0.11764936 0.0092552099 6.2696658e-39
0.037176043 -0.11764936 0.0092552099 5.440261e-39
0.039158758 -0.11840202 0.0062427912 4.8870844e-39
0.041022632 -0.11840202 0.0062427912 6.6387986e-39
0.042886507 -0.11840202 0.0062427912 9.6812544e-39
-0.067276791 -0.138135 -0.064778171 1.2998845e-38
-0.065288395 -0.138135 -0.064778171 1.2814455e-38
-0.063089982 -0.13711344 -0.060717903 1.0970543e-38
-0.061108712 -0.13711344 -0.060717903 1.0510288e-38
-0.059127431 -0.13711344 -0.060717903 1.1339695e-38
-0.056825045 -0.13537462 -0.053806983 1.1985785e-38
-0.054677848 -0.1343727 -0.049824797 1.2539322e-38
-0.052715663 -0.1343727 -0.049824797 1.1432977e-38
-0.050585497 -0.13334687 -0.04574772 9.8663771e-39
-0.048514221 -0.13260551 -0.042801104 8.3912471e-39
-0.04641258 -0.13159247 -0.038774811 6.085999e-39
-0.044469774 -0.13159247 -0.038774811 4.334282e-39
-0.042287428 -0.12982969 -0.031768642 2.582565e-39
-0.040356908 -0.12982969 -0.031768642 1.0152421e-39
-0.038305286 -0.12883668 -0.027821859 9.8090893e-45
-0.036381688 -0.12883668 -0.027821859 1.8062737e-42
-0.03445809 -0.12883668 -0.027821859 9.5432629e-41
-0.032534484 -0.12883668 -0.027821859 2.1537957e-42
-0.030537751 -0.12805928 -0.024732074 3.5873241e-43
-0.028619569 -0.12805928 -0.024732074 2.7550649e-40
-0.026701383 -0.12805928 -0.024732074 2.7622648e-39
-0.024783202 -0.12805928 -0.024732074 3.8682466e-39
-0.022798155 -0.12704925 -0.020717701 3.7753265e-39
-0.020887006 -0.12704925 -0.020717701 5.159693e-39
-0.018975861 -0.12704925 -0.020717701 4.9760207e-39
-0.017031293 -0.12631132 -0.017784795 6.359318e-39
-0.01512529 -0.12631132 -0.017784795 6.9124946e-39
-0.013219289 -0.12631132 -0.017784795 7.8330132e-39
-0.011270482 -0.12455635 -0.010809621 9.0293914e-39
-0.0093325712 -0.12202276 -0.00073989294 7.9219606e-39
-0.0074564535 -0.12202276 -0.00073989294 9.8555451e-39
-0.0055689476 -0.11875431 0.012250582 1.4741551e-38
-0.0037156083 -0.11875431 0.012250582 1.2530653e-38
-0.001862267 -0.11875431 0.012250582 4.3263282e-39
4.2021275e-06 -0.11950795 0.0092552099 8.1996307e-39
0.0018627942 -0.11950795 0.0092552099 1.4377824e-38
0.0037213862 -0.11950795 0.0092552099 1.3641702e-38
0.0055799782 -0.11950795 0.0092552099 5.8994301e-39
0.0074729025 -0.12026589 0.0062427912 5.716478e-39
0.0093367761 -0.12026589 0.0062427912 5.9015853e-39
0.011155754 -0.11950795 0.0092552099 5.9952145e-39
0.012964454 -0.11875431 0.012250582 4.1512991e-39
0.014817795 -0.11875431 0.012250582 4.5190026e-39
0.016671134 -0.11875431 0.012250582 4.7948734e-39
0.018524475 -0.11875431 0.012250582 4.0562406e-39
0.020377815 -0.11875431 0.012250582 5.438103e-39
0.022231156 -0.11875431 0.012250582 4.1452146e-39
0.024084495 -0.11875431 0.012250582 7.6493716e-39
0.025937837 -0.11875431 0.012250582 1.0047177e-38
0.027791176 -0.11875431 0.012250582 1.9267819e-38
0.029644515 -0.11875431 0.012250582 2.3509168e-38
0.031497855 -0.11875431 0.012250582 2.3509527e-38
0.033351198 -0.11875431 0.012250582 2.2495381e-38
0.035204537 -0.11875431 0.012250582 2.3141466e-38
0.037057877 -0.11875431 0.012250582 2.341805e-38
0.039034639 -0.11950795 0.0092552099 2.1113515e-38
0.040893231 -0.11950795 0.0092552099 1.6688125e-38
0.042617898 -0.11875431 0.012250582 1.1065271e-38
-0.067276791 -0.14012341 -0.064778171 1.4566172e-38
-0.065288395 -0.14012341 -0.064778171 1.1984695e-38
-0.063089982 -0.13909473 -0.060717903 1.0232978e-38
-0.060913544 -0.1381052 -0.056812249 1.0140063e-38
-0.058939118 -0.1381052 -0.056812249 1.0232259e-38
-0.056825045 -0.13734378 -0.053806983 1.1062022e-38
-0.054677848 -0.13633488 -0.049824797 1.1983979e-38
-0.05254053 -0.1353019 -0.04574772 1.2075818e-38
-0.050464083 -0.13455538 -0.042801104 1.0877994e-38
-0.048514221 -0.13455538 -0.042801104 1.1246779e-38
-0.04641258 -0.13353528 -0.038774811 9.9567623e-39
-0.044360839 -0.13276742 -0.035744034 8.1132126e-39
-0.042287428 -0.13176022 -0.031768642 7.0990635e-39
-0.040356908 -0.13176022 -0.031768642 5.5321007e-39
-0.038305286 -0.13076027 -0.027821859 3.5970715e-39
-0.036381688 -0.13076027 -0.027821859 2.6758313e-39
-0.03445809 -0.13076027 -0.027821859 3.7237265e-40
-0.032534484 -0.13076027 -0.027821859 9.5785757e-41
-0.030537751 -0.12997745 -0.024732074 1.0804011e-42
-0.028619569 -0.12997745 -0.024732074 3.7022726e-40
-0.026701383 -0.12997745 -0.024732074 1.8439126e-40
-0.024709295 -0.12896039 -0.020717701 9.1835496e-41
-0.022749301 -0.12821732 -0.017784795 1.474393e-39
-0.020843297 -0.12821732 -0.017784795 1.013419e-39
-0.018937293 -0.12821732 -0.017784795 2.1186904e-39
-0.017031293 -0.12821732 -0.017784795 2.7626319e-39
-0.01512529 -0.12821732 -0.017784795 5.6199916e-39
-0.013219289 -0.12821732 -0.017784795 5.8955023e-39
-0.011270482 -0.12645011 -0.010809621 7.2777108e-39
-0.0093196854 -0.12315418 0.0021994505 8.3829626e-39
-0.007430166 -0.12136655 0.0092552099 7.7379309e-39
-0.0055689476 -0.12060766 0.012250582 1.1795612e-38
-0.0037156083 -0.12060766 0.012250582 1.078255e-38
-0.001862267 -0.12060766 0.012250582 5.7125151e-39
4.2021275e-06 -0.12136655 0.0092552099 6.726667e-39
0.0018444126 -0.12060766 0.012250582 1.1982178e-38
0.003697753 -0.12060766 0.012250582 1.336547e-38
0.0055510933 -0.12060766 0.012250582 6.6359049e-39
0.0074385712 -0.12136655 0.0092552099 5.4384379e-39
0.0092971632 -0.12136655 0.0092552099 6.3603942e-39
0.011111114 -0.12060766 0.012250582 5.6235481e-39
0.012914844 -0.11985306 0.015229026 5.9919747e-39
0.01476296 -0.11985306 0.015229026 4.7945133e-39
0.016671134 -0.12060766 0.012250582 5.4395281e-39
0.018524475 -0.12060766 0.012250582 4.8863656e-39
0.020377815 -0.12060766 0.012250582 3.687828e-39
0.022231156 -0.12060766 0.012250582 4.5172369e-39
0.024084495 -0.12060766 0.012250582 9.7716662e-39
0.025937837 -0.12060766 0.012250582 1.5579266e-38
0.027791176 -0.12060766 0.012250582 2.2678683e-38
0.029547904 -0.11985306 0.015229026 2.3509527e-38
0.031396024 -0.11985306 0.015229026 2.2955993e-38
0.03324414 -0.11985306 0.015229026 2.3509527e-38
0.035204537 -0.12060766 0.012250582 2.3509886e-38
0.037057877 -0.12060766 0.012250582 2.2772321e-38
0.038911216 -0.12060766 0.012250582 2.341805e-38
0.040764559 -0.12060766 0.012250582 2.0652184e-38
0.042617898 -0.12060766 0.012250582 1.3093221e-38
0.044471238 -0.12060766 0.012250582 1.0880889e-38
-0.067276791 -0.14211179 -0.064778171 1.3920084e-38
-0.06507127 -0.14107598 -0.060717903 1.0416653e-38
-0.062887967 -0.14007963 -0.056812249 8.6638543e-39
-0.060913544 -0.14007963 -0.056812249 9.4936149e-39
-0.058939118 -0.14007963 -0.056812249 1.0599601e-38
-0.056640018 -0.13829704 -0.049824797 1.1060579e-38
-0.054495562 -0.13725694 -0.04574772 1.105986e-38
-0.052413952 -0.13650523 -0.042801104 1.041521e-38
-0.050298188 -0.13547809 -0.038774811 1.0783635e-38
-0.048355389 -0.13547809 -0.038774811 1.1521919e-38
-0.046298329 -0.1347049 -0.035744034 1.1891427e-38
-0.044360839 -0.1347049 -0.035744034 1.1984344e-38
-0.042287428 -0.13369073 -0.031768642 1.1155305e-38
-0.040356908 -0.13369073 -0.031768642 9.5883427e-39
-0.038305286 -0.13268389 -0.027821859 9.4968687e-39
-0.036381688 -0.13268389 -0.027821859 1.0973075e-38
-0.03445809 -0.13268389 -0.027821859 8.762175e-39
-0.032534484 -0.13268389 -0.027821859 6.1806973e-39
-0.030537751 -0.13189565 -0.024732074 4.1520431e-39
-0.028619569 -0.13189565 -0.024732074 4.5193907e-39
-0.026701383 -0.13189565 -0.024732074 2.4907211e-39
-0.024709295 -0.13087155 -0.020717701 3.5873241e-43
-0.022749301 -0.13012333 -0.017784795 7.1746481e-43
-0.020798083 -0.12934943 -0.014751157 1.8438846e-40
-0.018845569 -0.1283439 -0.010809621 2.7550649e-40
-0.016951799 -0.1283439 -0.010809621 3.6735179e-40
-0.015058026 -0.1283439 -0.010809621 1.5630377e-39
-0.013029709 -0.12399365 0.0062427912 8.265517e-40
-0.011165837 -0.12399365 0.0062427912 1.5619559e-39
-0.009288758 -0.12322514 0.0092552099 3.4054902e-39
-0.007430166 -0.12322514 0.0092552099 5.2500936e-39
-0.0055689476 -0.12246101 0.012250582 9.6772761e-39
-0.0037156083 -0.12246101 0.012250582 8.387273e-39
-0.001862267 -0.12246101 0.012250582 6.7284747e-39
-8.9276582e-06 -0.12246101 0.012250582 5.8065156e-39
0.0018444126 -0.12246101 0.012250582 5.8979854e-39
0.003697753 -0.12246101 0.012250582 6.9124918e-39
0.0055510933 -0.12246101 0.012250582 5.9901726e-39
0.0074044336 -0.12246101 0.012250582 6.7277334e-39
0.0092577739 -0.12246101 0.012250582 4.9767353e-39
0.011111114 -0.12246101 0.012250582 6.1752799e-39
0.012914844 -0.12170117 0.015229026 4.6086801e-39
0.01476296 -0.12170117 0.015229026 4.4246532e-39
0.016611079 -0.12170117 0.015229026 4.9781969e-39
0.018524475 -0.12246101 0.012250582 3.0424558e-39
0.020307316 -0.12170117 0.015229026 4.2413647e-39
0.022155434 -0.12170117 0.015229026 1.1064566e-38
0.024003552 -0.12170117 0.015229026 2.341805e-38
0.025851669 -0.12170117 0.015229026 2.2125509e-38
0.027699787 -0.12170117 0.015229026 2.3509521e-38
0.029547904 -0.12170117 0.015229026 2.3509521e-38
0.031396024 -0.12170117 0.015229026 2.2587564e-38
0.03324414 -0.12170117 0.015229026 2.3509883e-38
0.035204537 -0.12246101 0.012250582 2.3509886e-38
0.037057877 -0.12246101 0.012250582 2.2956715e-38
0.038911216 -0.12246101 0.012250582 2.341805e-38
0.040764559 -0.12246101 0.012250582 2.2773765e-38
0.042617898 -0.12246101 0.012250582 2.2312787e-38
-0.067276791 -0.1441002 -0.064778171 1.2904853e-38
-0.06507127 -0.14305727 -0.060717903 1.0323378e-38
-0.062887967 -0.14205404 -0.056812249 9.769483e-39
-0.060913544 -0.14205404 -0.056812249 1.1060222e-38
-0.058939118 -0.14205404 -0.056812249 1.1613034e-38
-0.056640018 -0.14025922 -0.049824797 1.105986e-38
-0.0541838 -0.13742088 -0.038774811 1.0229021e-38
-0.052240994 -0.13742088 -0.038774811 9.3992599e-39
-0.050173316 -0.13664238 -0.035744034 1.0782196e-38
-0.048235822 -0.13664238 -0.035744034 1.1428644e-38
-0.046298329 -0.13664238 -0.035744034 1.1889988e-38
-0.044360839 -0.13664238 -0.035744034 1.1982547e-38
-0.042287428 -0.13562126 -0.031768642 1.1061671e-38
-0.040228888 -0.13460748 -0.027821859 9.4947079e-39
-0.038305286 -0.13460748 -0.027821859 9.6798223e-39
-0.0362923 -0.13381381 -0.024732074 1.1708845e-38
-0.034374114 -0.13381381 -0.024732074 1.1434053e-38
-0.032534484 -0.13460748 -0.027821859 1.0604653e-38
-0.03044273 -0.13278268 -0.020717701 8.6685444e-39
-0.028531585 -0.13278268 -0.020717701 7.1012187e-39
-0.02662044 -0.13278268 -0.020717701 4.8881592e-39
-0.024709295 -0.13278268 -0.020717701 3.3201077e-39
-0.022749301 -0.13202934 -0.017784795 3.0431564e-39
-0.020739343 -0.13023765 -0.010809621 1.3829176e-39
-0.018845569 -0.13023765 -0.010809621 1.2892941e-39
-0.016951799 -0.13023765 -0.010809621 7.3505531e-40
-0.015058026 -0.13023765 -0.010809621 5.510326e-40
-0.013029709 -0.12585752 0.0062427912 6.4287089e-40
-0.011165837 -0.12585752 0.0062427912 9.1837318e-40
-0.009288758 -0.12508373 0.0092552099 1.1938713e-39
-0.007430166 -0.12508373 0.0092552099 4.3285017e-39
-0.0055689476 -0.12431435 0.012250582 8.9393607e-39
-0.0037156083 -0.12431435 0.012250582 9.4932646e-39
-0.001862267 -0.12431435 0.012250582 8.7571401e-39
-8.9276582e-06 -0.12431435 0.012250582 7.374563e-39
0.0018444126 -0.12431435 0.012250582 6.2678497e-39
0.003697753 -0.12431435 0.012250582 6.7281034e-39
0.0055510933 -0.12431435 0.012250582 6.0827283e-39
0.0074044336 -0.12431435 0.012250582 7.0050406e-39
0.0092186071 -0.1235493 0.015229026 5.898693e-39
0.011066725 -0.1235493 0.015229026 5.7139458e-39
0.012914844 -0.1235493 0.015229026 5.7146717e-39
0.01476296 -0.1235493 0.015229026 6.9135792e-39
0.016611079 -0.1235493 0.015229026 4.70161e-39
0.018524475 -0.12431435 0.012250582 2.1204995e-39
0.020307316 -0.1235493 0.015229026 7.7448e-39
0.022155434 -0.1235493 0.015229026 1.3646043e-38
0.024003552 -0.1235493 0.015229026 2.2496101e-38
0.025734371 -0.12250783 0.019283572 2.3509527e-38
0.027575381 -0.12250783 0.019283572 2.3509524e-38
0.02941639 -0.12250783 0.019283572 2.3508444e-38
0.031257398 -0.12250783 0.019283572 2.3325131e-38
0.033098407 -0.12250783 0.019283572 2.3509527e-38
0.034939416 -0.12250783 0.019283572 2.3509886e-38
0.036780424 -0.12250783 0.019283572 2.304891e-38
0.038621433 -0.12250783 0.019283572 2.341805e-38
0.040462445 -0.12250783 0.019283572 2.3234379e-38
0.042303454 -0.12250783 0.019283572 2.3234379e-38
0.042985819 -0.1161025 0.044220246 2.3234379e-38
0.044783108 -0.1161025 0.044220246 2.3142544e-38
0.046580393 -0.1161025 0.044220246 2.3142544e-38
0.048377682 -0.1161025 0.044220246 2.0562155e-38
0.050174966 -0.1161025 0.044220246 1.4292852e-38
-0.0648624 -0.14402847 -0.056812249 1.2350245e-38
-0.062887967 -0.14402847 -0.056812249 1.4010122e-38
-0.06076337 -0.14325126 -0.053806983 1.5023195e-38
-0.058794204 -0.14325126 -0.053806983 1.3640259e-38
-0.056313682 -0.14040495 -0.042801104 1.1980738e-38
-0.0541838 -0.13936369 -0.038774811 1.1335008e-38
-0.052240994 -0.13936369 -0.038774811 1.0781834e-38
-0.050173316 -0.13857989 -0.035744034 1.0597086e-38
-0.048235822 -0.13857989 -0.035744034 1.1150981e-38
-0.046298329 -0.13857989 -0.035744034 1.0967313e-38
-0.044360839 -0.13857989 -0.035744034 1.078364e-38
-0.042287428 -0.1375518 -0.031768642 1.08762e-38
-0.040228888 -0.13653107 -0.027821859 1.0508497e-38
-0.038210481 -0.13573201 -0.024732074 1.0692532e-38
-0.036176164 -0.13469382 -0.020717701 1.1431539e-38
-0.034265019 -0.13469382 -0.020717701 1.3553476e-38
-0.032455932 -0.13573201 -0.024732074 1.46609e-38
-0.03044273 -0.13469382 -0.020717701 1.4384309e-38
-0.028467309 -0.13393532 -0.017784795 1.337051e-38
-0.026500136 -0.13315077 -0.014751157 1.2079047e-38
-0.024599452 -0.13315077 -0.014751157 1.189429e-38
-0.022633117 -0.13213144 -0.010809621 1.2077965e-38
-0.02069471 -0.13135691 -0.0078147259 9.7727199e-39
-0.018753517 -0.13032107 -0.0038094129 8.0195751e-39
-0.016837038 -0.12952723 -0.00073989294 5.5295826e-39
-0.01496092 -0.12952723 -0.00073989294 3.5916877e-39
-0.013029709 -0.12772138 0.0062427912 4.2370599e-39
-0.011165837 -0.12772138 0.0062427912 2.9459554e-39
-0.009288758 -0.12694232 0.0092552099 7.3468677e-40
-0.007430166 -0.12694232 0.0092552099 7.3468397e-40
-0.0055689476 -0.12616767 0.012250582 2.6704223e-39
-0.0037156083 -0.12616767 0.012250582 2.8562597e-39
-0.001862267 -0.12616767 0.012250582 3.3186797e-39
-8.9276582e-06 -0.12616767 0.012250582 4.2399116e-39
0.0018261354 -0.1253974 0.015229026 6.2682126e-39
0.0036742529 -0.1253974 0.015229026 7.0976076e-39
0.0055223713 -0.1253974 0.015229026 5.4384407e-39
0.0073704896 -0.1253974 0.015229026 5.9916117e-39
0.0092186071 -0.1253974 0.015229026 6.6369811e-39
0.011066725 -0.1253974 0.015229026 6.0838102e-39
0.012914844 -0.1253974 0.015229026 6.0841731e-39
0.01476296 -0.1253974 0.015229026 7.1912479e-39
0.016611079 -0.1253974 0.015229026 5.0711128e-39
0.018459197 -0.1253974 0.015229026 6.6384483e-39
0.020211345 -0.12434883 0.019283572 1.9269254e-38
0.022052353 -0.12434883 0.019283572 2.2681214e-38
0.023893362 -0.12434883 0.019283572 2.3417691e-38
0.025734371 -0.12434883 0.019283572 2.304891e-38
0.027575381 -0.12434883 0.019283572 2.2771958e-38
0.029321056 -0.12358873 0.022222677 2.3325131e-38
0.031156909 -0.12358873 0.022222677 2.3509883e-38
0.032992765 -0.12358873 0.022222677 2.3509886e-38
0.034714382 -0.12280498 0.025253216 2.3325494e-38
0.036544923 -0.12280498 0.025253216 2.3233662e-38
0.038251314 -0.12202574 0.02826635 2.341805e-38
0.040076572 -0.12202574 0.02826635 2.3234379e-38
0.041901834 -0.12202574 0.02826635 2.2958155e-38
0.042985819 -0.11789979 0.044220246 2.2404983e-38
0.044783108 -0.11789979 0.044220246 2.2589374e-38
0.046580393 -0.11789979 0.044220246 2.3234379e-38
0.048377682 -0.11789979 0.044220246 2.286632e-38
0.050174966 -0.11789979 0.044220246 2.2313149e-38
0.052301675 -0.11944233 0.038255729 2.3142544e-38
0.054283869 -0.12023406 0.035194315 2.0469222e-38
0.056096982 -0.12023406 0.035194315 1.4844564e-38
0.057910092 -0.12023406 0.035194315 1.346163e-38
0.059967965 -0.121251 0.031262077 1.0234064e-38
-0.0648624 -0.1460029 -0.056812249 1.3732456e-38
-0.062887967 -0.1460029 -0.056812249 1.6682716e-38
-0.06076337 -0.14522041 -0.053806983 1.6866388e-38
-0.058602203 -0.14418359 -0.049824797 1.4838085e-38
-0.056313682 -0.14235483 -0.042801104 1.3731737e-38
-0.0541838 -0.1413065 -0.038774811 1.3915408e-38
-0.052240994 -0.1413065 -0.038774811 1.3547346e-38
-0.050173316 -0.14051737 -0.035744034 1.1703436e-38
-0.048235822 -0.14051737 -0.035744034 1.1427568e-38
-0.046298329 -0.14051737 -0.035744034 1.105843e-38
-0.044360839 -0.14051737 -0.035744034 1.1059509e-38
-0.042287428 -0.1394823 -0.031768642 1.1243545e-38
-0.040228888 -0.13845469 -0.027821859 1.0322308e-38
-0.038210481 -0.13765021 -0.024732074 1.0137919e-38
-0.036176164 -0.13660498 -0.020717701 1.1061318e-38
-0.034265019 -0.13660498 -0.020717701 1.2630448e-38
-0.032353874 -0.13660498 -0.020717701 1.2815555e-38
-0.030373309 -0.13584132 -0.017784795 1.3277236e-38
-0.02840082 -0.13505147 -0.014751157 1.4384291e-38
-0.026500136 -0.13505147 -0.014751157 1.3093185e-38
-0.02452689 -0.1340252 -0.010809621 1.1433661e-38
-0.022633117 -0.1340252 -0.010809621 1.2354905e-38
-0.02069471 -0.13324542 -0.0078147259 1.2354555e-38
-0.018753517 -0.13220255 -0.0038094129 1.2814105e-38
-0.016837038 -0.13140334 -0.00073989294 9.679102e-39
-0.01496092 -0.13140334 -0.00073989294 6.2667917e-39
-0.013029709 -0.12958528 0.0062427912 5.8047346e-39
-0.01114735 -0.12880091 0.0092552099 4.8831342e-39
-0.0092756283 -0.12802102 0.012250582 3.1306955e-39
-0.0074222889 -0.12802102 0.012250582 2.3934864e-39
-0.0055689476 -0.12802102 0.012250582 1.5644418e-39
-0.0037156083 -0.12802102 0.012250582 1.4736881e-39
-0.001862267 -0.12802102 0.012250582 4.0566049e-39
-8.9276582e-06 -0.12802102 0.012250582 4.4250245e-39
0.0018261354 -0.12724553 0.015229026 4.7938056e-39
0.0036742529 -0.12724553 0.015229026 5.2551369e-39
0.0055223713 -0.12724553 0.015229026 5.8075876e-39
0.0073704896 -0.12724553 0.015229026 6.4529556e-39
0.0092186071 -0.12724553 0.015229026 6.6373469e-39
0.011066725 -0.12724553 0.015229026 7.4671075e-39
0.012847308 -0.12618984 0.019283572 5.1629385e-39
0.014688317 -0.12618984 0.019283572 6.7299138e-39
0.016529325 -0.12618984 0.019283572 8.3897995e-39
0.018459197 -0.12724553 0.015229026 1.1156034e-38
0.020211345 -0.12618984 0.019283572 2.2496101e-38
0.021977631 -0.12542458 0.022222677 2.2957796e-38
0.023813488 -0.12542458 0.022222677 2.2957796e-38
0.025649343 -0.12542458 0.022222677 2.341805e-38
0.027485199 -0.12542458 0.022222677 2.3325494e-38
0.029321056 -0.12542458 0.022222677 2.3509886e-38
0.031156909 -0.12542458 0.022222677 2.341805e-38
0.032883838 -0.12463553 0.025253216 2.2957431e-38
0.034600794 -0.12385099 0.02826635 2.3141822e-38
0.036426056 -0.12385099 0.02826635 2.341805e-38
0.038127881 -0.123071 0.031262077 2.341805e-38
0.039521229 -0.12048493 0.041194357 2.341805e-38
0.041323822 -0.12048493 0.041194357 2.341805e-38
0.042985819 -0.11969708 0.044220246 2.341805e-38
0.044783108 -0.11969708 0.044220246 2.341805e-38
0.046580393 -0.11969708 0.044220246 2.2957078e-38
0.048377682 -0.11969708 0.044220246 2.3234379e-38
0.050174966 -0.11969708 0.044220246 2.3234379e-38
0.052301675 -0.12125005 0.038255729 2.3141822e-38
0.054109421 -0.12125005 0.038255729 2.3049621e-38
0.055917162 -0.12125005 0.038255729 1.7609717e-38
0.057724908 -0.12125005 0.038255729 1.5765804e-38
0.059723206 -0.12204717 0.035194315 1.1892869e-38
-0.062887967 -0.14797734 -0.056812249 1.5207586e-38
-0.06056438 -0.14614578 -0.049824797 1.5576368e-38
-0.058602203 -0.14614578 -0.049824797 1.4470021e-38
-0.056313682 -0.14430468 -0.042801104 1.4377825e-38
-0.054363813 -0.14430468 -0.042801104 1.5022476e-38
-0.052413952 -0.14430468 -0.042801104 1.4745889e-38
-0.050298188 -0.14324932 -0.038774811 1.6129545e-38
-0.048355389 -0.14324932 -0.038774811 1.539198e-38
-0.046298329 -0.14245488 -0.035744034 1.4930646e-38
-0.044360839 -0.14245488 -0.035744034 1.4747337e-38
-0.042287428 -0.14141284 -0.031768642 1.3548436e-38
-0.040228888 -0.14037828 -0.027821859 1.0598895e-38
-0.038305286 -0.14037828 -0.027821859 9.4925499e-39
-0.036176164 -0.13851611 -0.020717701 1.0692538e-38
-0.034265019 -0.13851611 -0.020717701 1.1154603e-38
-0.032279309 -0.13774733 -0.017784795 1.1524101e-38
-0.0303015 -0.13695215 -0.014751157 1.1709547e-38
-0.02840082 -0.13695215 -0.014751157 1.2263421e-38
-0.02642066 -0.13591899 -0.010809621 1.1341454e-38
-0.02452689 -0.13591899 -0.010809621 1.0603889e-38
-0.022583231 -0.13513394 -0.0078147259 1.217051e-38
-0.02069471 -0.13513394 -0.0078147259 1.2354555e-38
-0.018753517 -0.13408406 -0.0038094129 1.3182888e-38
-0.016837038 -0.13327946 -0.00073989294 1.0693251e-38
-0.014932577 -0.13250901 0.0021994505 7.2816499e-39
-0.013029709 -0.13144915 0.0062427912 4.6079766e-39
-0.01114735 -0.13065951 0.0092552099 6.266419e-39
-0.0092756283 -0.12987436 0.012250582 1.0599258e-38
-0.0074222889 -0.12987436 0.012250582 1.1429021e-38
-0.0055689476 -0.12987436 0.012250582 8.664234e-39
-0.0037156083 -0.12987436 0.012250582 7.743714e-39
-0.001862267 -0.12987436 0.012250582 8.4819979e-39
-8.9276582e-06 -0.12987436 0.012250582 4.3331918e-39
0.0018261354 -0.12909363 0.015229026 1.6598745e-39
0.0036422629 -0.12803085 0.019283572 7.3791396e-40
0.0054832716 -0.12803085 0.019283572 1.751703e-39
0.0073242811 -0.12803085 0.019283572 2.7658549e-39
0.0091652898 -0.12803085 0.019283572 3.6878112e-39
0.011006299 -0.12803085 0.019283572 4.1487893e-39
0.012847308 -0.12803085 0.019283572 4.3331834e-39
0.014688317 -0.12803085 0.019283572 8.390154e-39
0.016529325 -0.12803085 0.019283572 1.4105929e-38
0.018459197 -0.12909363 0.015229026 1.5950207e-38
0.020211345 -0.12803085 0.019283572 2.341805e-38
0.021977631 -0.12726043 0.022222677 2.3142185e-38
0.023813488 -0.12726043 0.022222677 2.3234379e-38
0.025649343 -0.12726043 0.022222677 2.341805e-38
0.027485199 -0.12726043 0.022222677 2.341805e-38
0.029222753 -0.12646608 0.025253216 2.3326213e-38
0.031053297 -0.12646608 0.025253216 2.3234018e-38
0.032775536 -0.12567626 0.02826635 2.3234018e-38
0.034600794 -0.12567626 0.02826635 2.341805e-38
0.036307875 -0.124891 0.031262077 2.341805e-38
0.03796586 -0.12386028 0.035194315 2.2957431e-38
0.039521229 -0.12228753 0.041194357 2.341805e-38
0.041323822 -0.12228753 0.041194357 2.2957431e-38
0.042985819 -0.12149437 0.044220246 2.2588292e-38
0.044783108 -0.12149437 0.044220246 2.3326213e-38
0.046580393 -0.12149437 0.044220246 2.3509886e-38
0.048377682 -0.12149437 0.044220246 2.3509886e-38
0.050174966 -0.12149437 0.044220246 2.046743e-38
0.052301675 -0.1230578 0.038255729 1.2999584e-38
0.054109421 -0.1230578 0.038255729 1.4567263e-38
0.055917162 -0.1230578 0.038255729 1.4659457e-38
0.057724908 -0.1230578 0.038255729 1.5027522e-38
0.059723206 -0.12386028 0.035194315 1.1708478e-38
0.06178797 -0.124891 0.031262077 1.1430813e-38
-0.06056438 -0.14810793 -0.049824797 1.4102317e-38
-0.058405619 -0.1470321 -0.04574772 1.3641339e-38
-0.056313682 -0.14625455 -0.042801104 1.299597e-38
-0.054363813 -0.14625455 -0.042801104 1.3180005e-38
-0.052413952 -0.14625455 -0.042801104 1.3180005e-38
-0.050298188 -0.1451921 -0.038774811 1.3733182e-38
-0.048355389 -0.1451921 -0.038774811 1.4562942e-38
-0.046298329 -0.14439236 -0.035744034 1.447075e-38
-0.044360839 -0.14439236 -0.035744034 1.4010132e-38
-0.042287428 -0.14334334 -0.031768642 1.364135e-38
-0.040356908 -0.14334334 -0.031768642 1.2166939e-38
-0.038305286 -0.14230187 -0.027821859 1.0322671e-38
-0.036176164 -0.14042725 -0.020717701 9.2174078e-39
-0.034265019 -0.14042725 -0.020717701 9.6783971e-39
-0.032279309 -0.13965334 -0.017784795 1.0417393e-38
-0.0303015 -0.13885282 -0.014751157 1.051064e-38
-0.02840082 -0.13885282 -0.014751157 1.0696087e-38
-0.02642066 -0.13781275 -0.010809621 1.0603518e-38
-0.024471752 -0.13702248 -0.0078147259 1.1525118e-38
-0.022583231 -0.13702248 -0.0078147259 1.3368327e-38
-0.02063502 -0.13596557 -0.0038094129 1.263006e-38
-0.018713154 -0.13515557 -0.00073989294 1.2629711e-38
-0.016803537 -0.13437997 0.0021994505 9.7716494e-39
-0.014893584 -0.13331302 0.0062427912 7.1894501e-39
-0.013029709 -0.13331302 0.0062427912 3.4097852e-39
-0.01114735 -0.1325181 0.0092552099 5.2536978e-39
-0.009288758 -0.1325181 0.0092552099 1.2075821e-38
-0.007430166 -0.1325181 0.0092552099 1.3089624e-38
-0.0055742152 -0.13331302 0.0062427912 1.0600705e-38
-0.0037103407 -0.13331302 0.0062427912 1.1985435e-38
-0.0018464662 -0.13331302 0.0062427912 9.7734556e-39
-8.9276582e-06 -0.13172771 0.012250582 2.8587834e-39
0.0018261354 -0.13094176 0.015229026 4.6169421e-40
0.0036422629 -0.12987186 0.019283572 3.5873241e-43
0.0054832716 -0.12987186 0.019283572 2.7694142e-40
0.0073242811 -0.12987186 0.019283572 7.3791676e-40
0.0091652898 -0.12987186 0.019283572 2.7662178e-39
0.011006299 -0.12987186 0.019283572 2.3974353e-39
0.012847308 -0.12987186 0.019283572 3.41159e-39
0.014688317 -0.12987186 0.019283572 6.0852647e-39
0.016529325 -0.12987186 0.019283572 1.2907385e-38
0.018459197 -0.13094176 0.015229026 1.567362e-38
0.020141775 -0.12909628 0.022222677 2.341805e-38
0.021977631 -0.12909628 0.022222677 2.3233662e-38
0.023813488 -0.12909628 0.022222677 2.341805e-38
0.02556167 -0.1282966 0.025253216 2.3050349e-38
0.027392212 -0.1282966 0.025253216 2.2865958e-38
0.029222753 -0.1282966 0.025253216 2.2773763e-38
0.030950278 -0.1275015 0.02826635 2.3142544e-38
0.032775536 -0.1275015 0.02826635 2.341805e-38
0.034487866 -0.126711 0.031262077 2.341805e-38
0.036307875 -0.126711 0.031262077 2.3326213e-38
0.037839718 -0.12486555 0.038255729 2.2773039e-38
0.039521229 -0.12409012 0.041194357 2.3048907e-38
0.041323822 -0.12409012 0.041194357 2.3509883e-38
0.042985819 -0.12329166 0.044220246 2.3509886e-38
0.044783108 -0.12329166 0.044220246 2.3509883e-38
0.046580393 -0.12329166 0.044220246 2.3417327e-38
0.048377682 -0.12329166 0.044220246 2.0098284e-38
0.050174966 -0.12329166 0.044220246 1.6502655e-38
0.052301675 -0.12486555 0.038255729 1.1708482e-38
0.054283869 -0.1256734 0.035194315 1.1247504e-38
0.056096982 -0.1256734 0.035194315 1.4566544e-38
0.057910092 -0.1256734 0.035194315 1.4749859e-38
0.059723206 -0.1256734 0.035194315 1.235277e-38
0.06178797 -0.126711 0.031262077 1.1337902e-38
0.063804947 -0.1275015 0.02826635 1.2075823e-38
0.065630205 -0.1275015 0.02826635 1.0784728e-38
-0.058405619 -0.14898713 -0.04574772 1.318144e-38
-0.056450587 -0.14898713 -0.04574772 1.1060941e-38
-0.054363813 -0.14820443 -0.042801104 1.0599965e-38
-0.052413952 -0.14820443 -0.042801104 1.1153139e-38
-0.050298188 -0.14713491 -0.038774811 1.161412e-38
-0.048355389 -0.14713491 -0.038774811 1.456438e-38
-0.046298329 -0.14632986 -0.035744034 1.4564024e-38
-0.044360839 -0.14632986 -0.035744034 1.2996699e-38
-0.042287428 -0.14527388 -0.031768642 1.4196322e-38
-0.040356908 -0.14527388 -0.031768642 1.613243e-38
-0.038305286 -0.14422549 -0.027821859 1.327401e-38
-0.0362923 -0.14340474 -0.024732074 8.664234e-39
-0.034374114 -0.14340474 -0.024732074 9.2167029e-39
-0.032353874 -0.14233841 -0.020717701 7.9270319e-39
-0.030373309 -0.14155935 -0.017784795 8.0206316e-39
-0.02840082 -0.14075352 -0.014751157 1.051097e-38
-0.02642066 -0.13970654 -0.010809621 1.0787903e-38
-0.024471752 -0.13891099 -0.0078147259 9.8659497e-39
-0.022516515 -0.13784705 -0.0038094129 1.1248184e-38
-0.02063502 -0.13784705 -0.0038094129 1.1892851e-38
-0.018713154 -0.13703169 -0.00073989294 1.1707752e-38
-0.016757458 -0.13517688 0.0062427912 7.7433427e-39
-0.014893584 -0.13517688 0.0062427912 6.6366294e-39
-0.013029709 -0.13517688 0.0062427912 3.6867238e-39
-0.01114735 -0.13437669 0.0092552099 4.884911e-39
-0.009288758 -0.13437669 0.0092552099 1.0324101e-38
-0.007430166 -0.13437669 0.0092552099 1.0323755e-38
-0.0055742152 -0.13517688 0.0062427912 9.1255765e-39
-0.0037129819 -0.13437669 0.0092552099 1.1063841e-38
-0.0018543899 -0.13437669 0.0092552099 9.2210049e-39
4.2021275e-06 -0.13437669 0.0092552099 2.1208624e-39
0.0018444126 -0.13358103 0.012250582 3.5873241e-43
0.0036742529 -0.13278987 0.015229026 3.5873241e-43
0.0055223713 -0.13278987 0.015229026 4.6169141e-40
0.0073704896 -0.13278987 0.015229026 3.5873241e-43
0.0092186071 -0.13278987 0.015229026 3.5873241e-43
0.010962497 -0.13093217 0.022222677 4.6133128e-40
0.012798352 -0.13093217 0.022222677 3.5873241e-43
0.014688317 -0.13171287 0.019283572 2.7658409e-40
0.016529325 -0.13171287 0.019283572 1.0786886e-38
0.018370336 -0.13171287 0.019283572 1.68718e-38
0.020141775 -0.13093217 0.022222677 2.3509886e-38
0.021977631 -0.13093217 0.022222677 2.3509527e-38
0.023813488 -0.13093217 0.022222677 2.3141467e-38
0.02556167 -0.13012715 0.025253216 2.3234379e-38
0.027392212 -0.13012715 0.025253216 2.3234379e-38
0.02912502 -0.12932678 0.02826635 2.3050349e-38
0.030950278 -0.12932678 0.02826635 2.3050349e-38
0.03266786 -0.12853102 0.031262077 2.3325856e-38
0.034487866 -0.12853102 0.031262077 2.2680844e-38
0.036152747 -0.12748651 0.035194315 2.2773039e-38
0.037718639 -0.12589271 0.041194357 2.3418047e-38
0.039521229 -0.12589271 0.041194357 2.3325492e-38
0.041323822 -0.12589271 0.041194357 2.3509883e-38
0.043126415 -0.12589271 0.041194357 2.2956349e-38
0.044929005 -0.12589271 0.041194357 2.350988e-38
0.046731599 -0.12589271 0.041194357 2.1757803e-38
0.048534188 -0.12589271 0.041194357 1.4566542e-38
0.050336782 -0.12589271 0.041194357 1.1523009e-38
0.052470759 -0.12748651 0.035194315 1.1983987e-38
0.054283869 -0.12748651 0.035194315 1.2446047e-38
0.056096982 -0.12748651 0.035194315 1.511972e-38
0.057910092 -0.12748651 0.035194315 1.3274729e-38
0.059967965 -0.12853102 0.031262077 1.2260577e-38
0.061979681 -0.12932678 0.02826635 1.1337902e-38
0.063804947 -0.12932678 0.02826635 1.2167662e-38
0.065630205 -0.12932678 0.02826635 1.1614489e-38
-0.048355389 -0.14907773 -0.038774811 1.3367999e-38
-0.04641258 -0.14907773 -0.038774811 1.4566542e-38
-0.044360839 -0.14826734 -0.035744034 1.2907021e-38
-0.042423349 -0.14826734 -0.035744034 1.3367279e-38
-0.040356908 -0.14720438 -0.031768642 1.5118996e-38
-0.038305286 -0.14614908 -0.027821859 1.2998139e-38
-0.0362923 -0.14532293 -0.024732074 8.4805588e-39
-0.034374114 -0.14532293 -0.024732074 8.8479176e-39
-0.032353874 -0.14424954 -0.020717701 6.3593433e-39
-0.030373309 -0.14346536 -0.017784795 7.4670963e-39
-0.02840082 -0.1426542 -0.014751157 1.0141466e-38
-0.02642066 -0.1416003 -0.010809621 1.0142174e-38
-0.024471752 -0.14079951 -0.0078147259 1.0141818e-38
-0.022516515 -0.13972856 -0.0038094129 1.0970876e-38
-0.020589273 -0.13890781 -0.00073989294 1.0785782e-38
-0.018713154 -0.13890781 -0.00073989294 1.0232259e-38
-0.016757458 -0.13704078 0.0062427912 9.2181098e-39
-0.014893584 -0.13704078 0.0062427912 5.4384407e-39
-0.013029709 -0.13704078 0.0062427912 4.1476991e-39
-0.01114735 -0.13623528 0.0092552099 5.622832e-39
-0.009288758 -0.13623528 0.0092552099 1.0969824e-38
-0.007430166 -0.13623528 0.0092552099 1.1061318e-38
-0.005571574 -0.13623528 0.0092552099 9.1255751e-39
-0.0037129819 -0.13623528 0.0092552099 1.1893602e-38
-0.0018543899 -0.13623528 0.0092552099 7.0083098e-39
-8.9276582e-06 -0.13543437 0.012250582 1.476572e-39
0.0018261354 -0.134638 0.015229026 3.5873241e-43
0.0036742529 -0.134638 0.015229026 1.0789998e-42
0.0054832716 -0.13355388 0.019283572 1.7950633e-42
0.0073242811 -0.13355388 0.019283572 7.1746481e-43
0.0091266409 -0.13276802 0.022222677 3.5873241e-43
0.010962497 -0.13276802 0.022222677 7.382811e-40
0.012798352 -0.13276802 0.022222677 7.1746481e-43
0.014634209 -0.13276802 0.022222677 0
0.016529325 -0.13355388 0.019283572 1.1524451e-38
0.018370336 -0.13355388 0.019283572 1.8531322e-38
0.020211345 -0.13355388 0.019283572 2.3324775e-38
0.021977631 -0.13276802 0.022222677 2.3509527e-38
0.023813488 -0.13276802 0.022222677 2.3233302e-38
0.02556167 -0.13195769 0.025253216 2.341805e-38
0.027392212 -0.13195769 0.025253216 2.2773763e-38
0.02912502 -0.13115202 0.02826635 2.2773763e-38
0.030950278 -0.13115202 0.02826635 2.3234379e-38
0.03266786 -0.13035102 0.031262077 2.341805e-38
0.034487866 -0.13035102 0.031262077 2.3049626e-38
0.035916045 -0.12769531 0.041194357 2.3141103e-38
0.037718639 -0.12769531 0.041194357 2.3509883e-38
0.039521229 -0.12769531 0.041194357 2.3509883e-38
0.041323822 -0.12769531 0.041194357 2.3325129e-38
0.043126415 -0.12769531 0.041194357 2.3509521e-38
0.044929005 -0.12769531 0.041194357 2.009756e-38
0.046580393 -0.12688623 0.044220246 1.6409735e-38
0.048377682 -0.12688623 0.044220246 1.3090689e-38
0.050336782 -0.12769531 0.041194357 1.2813386e-38
0.052301675 -0.12848105 0.038255729 1.1431171e-38
0.054283869 -0.1292996 0.035194315 1.0970914e-38
0.056096982 -0.1292996 0.035194315 1.3368003e-38
0.058147952 -0.13035102 0.031262077 1.3735707e-38
0.059967965 -0.13035102 0.031262077 1.2629359e-38
0.061979681 -0.13115202 0.02826635 1.3089619e-38
0.063804947 -0.13115202 0.02826635 1.2997423e-38
0.065630205 -0.13115202 0.02826635 1.2167662e-38
-0.040356908 -0.14913492 -0.031768642 1.4935325e-38
-0.038305286 -0.14807267 -0.027821859 1.2907022e-38
-0.0362923 -0.1472411 -0.024732074 7.006149e-39
-0.034374114 -0.1472411 -0.024732074 8.4798512e-39
-0.032455932 -0.1472411 -0.024732074 6.9125142e-39
-0.03044273 -0.14616071 -0.020717701 7.4670963e-39
-0.028467309 -0.14537133 -0.017784795 9.0351213e-39
-0.02642066 -0.14349405 -0.010809621 8.9436305e-39
-0.024471752 -0.14268802 -0.0078147259 8.5744921e-39
-0.022516515 -0.14161004 -0.0038094129 8.7581813e-39
-0.020589273 -0.14078392 -0.00073989294 8.7578351e-39
-0.018713154 -0.14078392 -0.00073989294 9.12591e-39
-0.016757458 -0.13890465 0.0062427912 8.1117595e-39
-0.014893584 -0.13890465 0.0062427912 5.7150276e-39
-0.013029709 -0.13890465 0.0062427912 3.686721e-39
-0.01114735 -0.13809387 0.0092552099 5.5306336e-39
-0.009288758 -0.13809387 0.0092552099 1.2629344e-38
-0.007430166 -0.13809387 0.0092552099 1.2628995e-38
-0.005571574 -0.13809387 0.0092552099 1.014008e-38
-0.0037129819 -0.13809387 0.0092552099 9.6809041e-39
-0.001862267 -0.13728772 0.012250582 4.7034219e-39
-8.9276582e-06 -0.13728772 0.012250582 3.7022446e-40
0.0018261354 -0.13648613 0.015229026 3.61535e-43
0.0036742529 -0.13648613 0.015229026 3.5873241e-43
0.0054832716 -0.13539489 0.019283572 7.1886611e-43
0.0073242811 -0.13539489 0.019283572 3.5873241e-43
0.0091266409 -0.13460387 0.022222677 7.1886611e-43
0.010962497 -0.13460387 0.022222677 3.5873241e-43
0.012798352 -0.13460387 0.022222677 0
0.01476296 -0.13648613 0.015229026 9.2194229e-41
0.016611079 -0.13648613 0.015229026 1.2353851e-38
0.018459197 -0.13648613 0.015229026 1.9913893e-38
0.020211345 -0.13539489 0.019283572 2.3509524e-38
0.021977631 -0.13460387 0.022222677 2.3508805e-38
0.023813488 -0.13460387 0.022222677 2.2770881e-38
0.02556167 -0.13378824 0.025253216 2.3326213e-38
0.027392212 -0.13378824 0.025253216 2.3234379e-38
0.02912502 -0.13297729 0.02826635 2.3234379e-38
0.030950278 -0.13297729 0.02826635 2.3234379e-38
0.03266786 -0.13217102 0.031262077 2.341805e-38
0.034487866 -0.13217102 0.031262077 2.3418047e-38
0.035916045 -0.1294979 0.041194357 2.3509883e-38
0.037718639 -0.1294979 0.041194357 2.350988e-38
0.039391246 -0.12868352 0.044220246 2.2587564e-38
0.041188534 -0.12868352 0.044220246 2.350988e-38
0.042985819 -0.12868352 0.044220246 2.3324407e-38
0.044783108 -0.12868352 0.044220246 1.419704e-38
0.046580393 -0.12868352 0.044220246 1.244532e-38
0.048377682 -0.12868352 0.044220246 1.3182885e-38
0.050174966 -0.12868352 0.044220246 1.2905579e-38
0.052301675 -0.13028879 0.038255729 1.0417019e-38
0.054109421 -0.13028879 0.038255729 1.0233349e-38
0.056096982 -0.13111271 0.035194315 1.1985069e-38
0.058147952 -0.13217102 0.031262077 1.3090338e-38
0.059967965 -0.13217102 0.031262077 1.2905946e-38
0.061979681 -0.13297729 0.02826635 1.2720836e-38
0.063804947 -0.13297729 0.02826635 1.2075467e-38
0.065630205 -0.13297729 0.02826635 1.1430097e-38
-0.038305286 -0.1499963 -0.027821859 1.2631153e-38
-0.0362923 -0.1491593 -0.024732074 6.9143093e-39
-0.034374114 -0.1491593 -0.024732074 7.8348335e-39
-0.032455932 -0.1491593 -0.024732074 7.9270193e-39
-0.030373309 -0.14727734 -0.017784795 8.1121084e-39
-0.028467309 -0.14727734 -0.017784795 8.7581813e-39
-0.02642066 -0.14538784 -0.010809621 9.2198671e-39
-0.024471752 -0.14457656 -0.0078147259 8.5744977e-39
-0.022583231 -0.14457656 -0.0078147259 8.2050075e-39
-0.02063502 -0.14349155 -0.0038094129 8.7578323e-39
-0.018713154 -0.14266007 -0.00073989294 8.2965053e-39
-0.016803537 -0.14186381 0.0021994505 7.0054119e-39
-0.014893584 -0.14076851 0.0062427912 6.5437121e-39
-0.013029709 -0.14076851 0.0062427912 3.4090579e-39
-0.011165837 -0.14076851 0.0062427912 4.9763808e-39
-0.009288758 -0.13995247 0.0092552099 1.327399e-38
-0.007430166 -0.13995247 0.0092552099 1.2997049e-38
-0.005571574 -0.13995247 0.0092552099 1.0140429e-38
-0.0037129819 -0.13995247 0.0092552099 9.0358906e-39
-0.001862267 -0.13914107 0.012250582 3.4126802e-39
-2.1982938e-05 -0.13833423 0.015229026 9.3637566e-41
0.0018261354 -0.13833423 0.015229026 1.4419361e-42
0.0036742529 -0.13833423 0.015229026 3.61535e-43
0.0054832716 -0.13723589 0.019283572 3.61535e-43
0.0073242811 -0.13723589 0.019283572 3.61535e-43
0.0092186071 -0.13833423 0.015229026 3.5873241e-43
0.011066725 -0.13833423 0.015229026 1.8511013e-40
0.012914844 -0.13833423 0.015229026 9.219563e-41
0.01476296 -0.13833423 0.015229026 9.1835496e-41
0.016611079 -0.13833423 0.015229026 1.0877642e-38
0.018459197 -0.13833423 0.015229026 1.9543669e-38
0.020211345 -0.13723589 0.019283572 2.3509161e-38
0.021977631 -0.13643973 0.022222677 2.3509163e-38
0.023813488 -0.13643973 0.022222677 2.3509521e-38
0.02556167 -0.13561879 0.025253216 2.2311342e-38
0.027392212 -0.13561879 0.025253216 2.2957431e-38
0.02912502 -0.13480256 0.02826635 2.341805e-38
0.030950278 -0.13480256 0.02826635 2.3234015e-38
0.03266786 -0.13399105 0.031262077 2.3233296e-38
0.034339633 -0.13292582 0.035194315 2.3509883e-38
0.035916045 -0.13130049 0.041194357 2.3509883e-38
0.037593961 -0.13048081 0.044220246 2.350988e-38
0.039391246 -0.13048081 0.044220246 2.3417324e-38
0.041188534 -0.13048081 0.044220246 2.3509879e-38
0.042985819 -0.13048081 0.044220246 2.2863429e-38
0.044783108 -0.13048081 0.044220246 1.0324823e-38
0.046580393 -0.13048081 0.044220246 1.0232625e-38
0.048377682 -0.13048081 0.044220246 1.2814102e-38
0.050174966 -0.13048081 0.044220246 1.1707036e-38
0.052139375 -0.13130049 0.041194357 9.2184756e-39
0.054109421 -0.13209651 0.038255729 8.4816322e-39
0.055917162 -0.13209651 0.038255729 9.1273646e-39
0.058147952 -0.13399105 0.031262077 1.1155308e-38
0.060154423 -0.13480256 0.02826635 1.2446047e-38
0.061979681 -0.13480256 0.02826635 1.2076186e-38
0.063804947 -0.13480256 0.02826635 1.1338621e-38
0.065630205 -0.13480256 0.02826635 1.1522293e-38
-0.030373309 -0.14918335 -0.017784795 8.2965025e-39
-0.028467309 -0.14918335 -0.017784795 8.4812426e-39
-0.02642066 -0.1472816 -0.010809621 9.5882979e-39
-0.024471752 -0.14646508 -0.0078147259 8.85073e-39
-0.022583231 -0.14646508 -0.0078147259 8.0206176e-39
-0.02063502 -0.14537306 -0.0038094129 9.0344192e-39
-0.018713154 -0.14453618 -0.00073989294 8.3887009e-39
-0.016837038 -0.14453618 -0.00073989294 6.2678469e-39
-0.014932577 -0.14373477 0.0021994505 6.727746e-39
-0.013029709 -0.14263238 0.0062427912 2.3945514e-39
-0.011165837 -0.14263238 0.0062427912 3.0402754e-39
-0.009288758 -0.14181106 0.0092552099 1.0415923e-38
-0.007430166 -0.14181106 0.0092552099 1.0324083e-38
-0.005571574 -0.14181106 0.0092552099 8.9418747e-39
-0.0037129819 -0.14181106 0.0092552099 9.6808943e-39
-0.001862267 -0.14099441 0.012250582 3.0438977e-39
-2.1982938e-05 -0.14018236 0.015229026 7.2166871e-43
0.0018261354 -0.14018236 0.015229026 2.7802883e-40
0.0036742529 -0.14018236 0.015229026 3.61535e-43
0.0055223713 -0.14018236 0.015229026 3.61535e-43
0.0073704896 -0.14018236 0.015229026 7.2166871e-43
0.0092186071 -0.14018236 0.015229026 2.8025969e-45
0.011066725 -0.14018236 0.015229026 0
0.012914844 -0.14018236 0.015229026 9.1835496e-41
0.01476296 -0.14018236 0.015229026 5.5173184e-40
0.016611079 -0.14018236 0.015229026 1.0692888e-38
0.018459197 -0.14018236 0.015229026 2.055674e-38
0.020211345 -0.1390769 0.019283572 2.3509158e-38
0.021977631 -0.13827558 0.022222677 2.3507718e-38
0.023813488 -0.13827558 0.022222677 2.3507e-38
0.02556167 -0.13744931 0.025253216 2.3509883e-38
0.027299758 -0.13662781 0.02826635 2.3418047e-38
0.029027846 -0.13581105 0.031262077 2.3418047e-38
0.030847855 -0.13581105 0.031262077 2.3418047e-38
0.03266786 -0.13581105 0.031262077 2.3509883e-38
0.034113452 -0.13310309 0.041194357 2.350988e-38
0.035796672 -0.1322781 0.044220246 2.3233652e-38
0.037593961 -0.1322781 0.044220246 2.3049261e-38
0.039391246 -0.1322781 0.044220246 2.3509879e-38
0.041188534 -0.1322781 0.044220246 2.009828e-38
0.042985819 -0.1322781 0.044220246 1.8438039e-38
0.044783108 -0.1322781 0.044220246 9.2184756e-39
0.046580393 -0.1322781 0.044220246 9.402864e-39
0.048377682 -0.1322781 0.044220246 9.9560378e-39
0.050174966 -0.1322781 0.044220246 8.3879932e-39
0.052139375 -0.13310309 0.041194357 7.8355411e-39
0.054109421 -0.13390426 0.038255729 7.5603948e-39
0.055917162 -0.13390426 0.038255729 7.1912563e-39
0.058147952 -0.13581105 0.031262077 9.2195602e-39
0.060154423 -0.13662781 0.02826635 1.1616286e-38
0.061979681 -0.13662781 0.02826635 1.1247504e-38
0.063804947 -0.13662781 0.02826635 1.1154229e-38
0.065630205 -0.13662781 0.02826635 1.2075467e-38
-0.02452689 -0.14917539 -0.010809621 8.2972045e-39
-0.022583231 -0.14835359 -0.0078147259 7.190857e-39
-0.02063502 -0.14725454 -0.0038094129 8.4812426e-39
-0.018753517 -0.14725454 -0.0038094129 9.401771e-39
-0.016837038 -0.1464123 -0.00073989294 6.5433548e-39
-0.014932577 -0.14560573 0.0021994505 6.6348371e-39
-0.013029709 -0.14449625 0.0062427912 1.4718819e-39
-0.011165837 -0.14449625 0.0062427912 1.0109079e-39
-0.0093019623 -0.14449625 0.0062427912 6.2667567e-39
-0.0074380897 -0.14449625 0.0062427912 7.5582003e-39
-0.0055742152 -0.14449625 0.0062427912 8.8500252e-39
-0.0037103407 -0.14449625 0.0062427912 9.8652813e-39
-0.001862267 -0.14284773 0.012250582 3.0431747e-39
-2.1982938e-05 -0.14203046 0.015229026 3.5873241e-43
0.0018261354 -0.14203046 0.015229026 3.5873241e-43
0.0036742529 -0.14203046 0.015229026 3.61535e-43
0.0055223713 -0.14203046 0.015229026 3.61535e-43
0.0073704896 -0.14203046 0.015229026 2.7694983e-40
0.0092186071 -0.14203046 0.015229026 2.8025969e-45
0.011066725 -0.14203046 0.015229026 9.219563e-40
0.012914844 -0.14203046 0.015229026 4.6025928e-40
0.01476296 -0.14203046 0.015229026 2.7550649e-40
0.016611079 -0.14203046 0.015229026 6.5440848e-39
0.018459197 -0.14203046 0.015229026 1.7237335e-38
0.020211345 -0.14091791 0.019283572 2.3507356e-38
0.021977631 -0.14011143 0.022222677 2.3508794e-38
0.023813488 -0.14011143 0.022222677 2.3508075e-38
0.0254745 -0.13845308 0.02826635 2.304782e-38
0.027299758 -0.13845308 0.02826635 2.0652174e-38
0.028900299 -0.13655205 0.035194315 2.0006805e-38
0.030713409 -0.13655205 0.035194315 2.1942913e-38
0.032526523 -0.13655205 0.035194315 2.350988e-38
0.034113452 -0.13490568 0.041194357 2.3509518e-38
0.035796672 -0.13407536 0.044220246 2.3325127e-38
0.037470009 -0.13324992 0.047228493 2.3509879e-38
0.039262023 -0.13324992 0.047228493 2.3509879e-38
0.041054036 -0.13324992 0.047228493 1.4289955e-38
0.042985819 -0.13407536 0.044220246 1.2907021e-38
0.044783108 -0.13407536 0.044220246 8.8504133e-39
0.046580393 -0.13407536 0.044220246 8.4809077e-39
0.048377682 -0.13407536 0.044220246 7.7433427e-39
0.050174966 -0.13407536 0.044220246 7.3745602e-39
0.052139375 -0.13490568 0.041194357 8.4816308e-39
0.054109421 -0.13571201 0.038255729 8.2983199e-39
0.056096982 -0.13655205 0.035194315 7.284168e-39
0.058147952 -0.13763104 0.031262077 8.5749068e-39
0.060154423 -0.13845308 0.02826635 1.0418459e-38
0.061979681 -0.13845308 0.02826635 1.0509936e-38
0.063804947 -0.13845308 0.02826635 1.0878719e-38
0.065630205 -0.13845308 0.02826635 1.2260574e-38
-0.02063502 -0.14913605 -0.0038094129 9.126968e-39
-0.018713154 -0.14828841 -0.00073989294 9.9553007e-39
-0.016837038 -0.14828841 -0.00073989294 7.5575067e-39
-0.014932577 -0.14747669 0.0021994505 6.7266782e-39
-0.013029709 -0.14636014 0.0062427912 1.4715273e-39
-0.011165837 -0.14636014 0.0062427912 7.3468397e-40
-0.0093019623 -0.14636014 0.0062427912 3.685279e-39
-0.0074380897 -0.14636014 0.0062427912 6.3600089e-39
-0.005571574 -0.14552824 0.0092552099 1.041698e-38
-0.0037129819 -0.14552824 0.0092552099 1.0141502e-38
-0.0018701013 -0.14387859 0.015229026 3.965131e-39
-2.1982938e-05 -0.14387859 0.015229026 7.1886611e-43
0.0018261354 -0.14387859 0.015229026 3.5873241e-43
0.0036742529 -0.14387859 0.015229026 3.61535e-43
0.0055223713 -0.14387859 0.015229026 3.61535e-43
0.0073242811 -0.14275892 0.019283572 9.2558566e-41
0.0091652898 -0.14275892 0.019283572 2.8025969e-45
0.011066725 -0.14387859 0.015229026 9.1835496e-41
0.012914844 -0.14387859 0.015229026 2.7550649e-40
0.01476296 -0.14387859 0.015229026 3.6734198e-40
0.016611079 -0.14387859 0.015229026 5.7132438e-39
0.018370336 -0.14275892 0.019283572 1.5945874e-38
0.020141775 -0.14194728 0.022222677 2.3505193e-38
0.021977631 -0.14194728 0.022222677 2.2951657e-38
0.023731127 -0.14111041 0.025253216 1.9634055e-38
0.0254745 -0.14027832 0.02826635 1.8621708e-38
0.02720784 -0.13945107 0.031262077 1.5950196e-38
0.028900299 -0.13836516 0.035194315 1.6133869e-38
0.030713409 -0.13836516 0.035194315 1.9452911e-38
0.032526523 -0.13836516 0.035194315 2.1942193e-38
0.034113452 -0.13670824 0.041194357 2.2034388e-38
0.035796672 -0.13587265 0.044220246 2.2310975e-38
0.037470009 -0.13504194 0.047228493 2.3509879e-38
0.039262023 -0.13504194 0.047228493 2.2956345e-38
0.041054036 -0.13504194 0.047228493 1.2538239e-38
0.042985819 -0.13587265 0.044220246 1.0141152e-38
0.044783108 -0.13587265 0.044220246 8.0206527e-39
0.046580393 -0.13587265 0.044220246 6.4526039e-39
0.048377682 -0.13587265 0.044220246 7.2823645e-39
0.050174966 -0.13587265 0.044220246 8.3887121e-39
0.052139375 -0.13670824 0.041194357 9.3113915e-39
0.053941965 -0.13670824 0.041194357 8.6674598e-39
0.055917162 -0.13751976 0.038255729 8.2993989e-39
0.058147952 -0.13945107 0.031262077 8.9436894e-39
0.060154423 -0.14027832 0.02826635 9.5890588e-39
0.061979681 -0.14027832 0.02826635 1.0141872e-38
0.063804947 -0.14027832 0.02826635 1.1431892e-38
0.065630205 -0.14027832 0.02826635 1.2813748e-38
0.067455463 -0.14027832 0.02826635 1.3090335e-38
-0.014932577 -0.14934768 0.0021994505 6.9110723e-39
-0.013029709 -0.14822401 0.0062427912 2.024348e-39
-0.011165837 -0.14822401 0.0062427912 1.9321412e-39
-0.009288758 -0.14738683 0.0092552099 2.3941801e-39
-0.007430166 -0.14738683 0.0092552099 5.1610986e-39
-0.0055689476 -0.14655443 0.012250582 9.4024605e-39
-0.0037156083 -0.14655443 0.012250582 9.0355122e-39
-0.0018701013 -0.1457267 0.015229026 4.6097787e-39
-3.9756298e-05 -0.14459993 0.019283572 7.3828391e-40
0.0018012542 -0.14459993 0.019283572 7.1886611e-43
0.0036422629 -0.14459993 0.019283572 1.847542e-40
0.0054832716 -0.14459993 0.019283572 2.8025969e-45
0.0073242811 -0.14459993 0.019283572 5.6051939e-45
