# .PCD v0.7 - Point Cloud Data file format
VERSION 0.7
FIELDS x y z rgb
SIZE 4 4 4 4
TYPE F F F F
COUNT 1 1 1 1
WIDTH 774
HEIGHT 1
VIEWPOINT 0 0 0 1 0 0 0
POINTS 774
DATA ascii
-0.035235748 -0.12357174 -0.080427103 1.6500134e-38
-0.033280715 -0.12357174 -0.080427103 1.6223546e-38
-0.039477885 -0.12749799 -0.088486366 1.5853692e-38
-0.037351623 -0.12652399 -0.08450418 1.4470758e-38
-0.035235748 -0.12552677 -0.080427103 1.5854409e-38
-0.033280715 -0.12552677 -0.080427103 1.742209e-38
-0.043416202 -0.12946714 -0.088486366 2.0740777e-38
-0.041275978 -0.12848614 -0.08450418 1.8251498e-38
-0.039313801 -0.12848614 -0.08450418 1.5393436e-38
-0.037351623 -0.12848614 -0.08450418 1.4194893e-38
-0.035235748 -0.1274818 -0.080427103 1.4655871e-38
-0.033280715 -0.1274818 -0.080427103 1.6868563e-38
-0.043416202 -0.1314363 -0.088486366 2.0648581e-38
-0.041275978 -0.13044833 -0.08450418 1.9173454e-38
-0.039313801 -0.13044833 -0.08450418 1.7790166e-38
-0.03719078 -0.12943684 -0.080427103 1.5300884e-38
-0.035124674 -0.12870578 -0.077480488 1.382611e-38
-0.033174805 -0.12870578 -0.077480488 1.5762219e-38
-0.031224942 -0.12870578 -0.077480488 1.8988344e-38
-0.028237382 -0.1207688 -0.045489006 1.8158939e-38
-0.026251717 -0.12002577 -0.042494111 1.7974545e-38
-0.024363196 -0.12002577 -0.042494111 1.7145491e-38
-0.022365822 -0.11903207 -0.038488798 1.2905547e-38
-0.020484323 -0.11903207 -0.038488798 9.309553e-39
-0.043416202 -0.13340546 -0.088486366 1.9542234e-38
-0.041275978 -0.13241051 -0.08450418 1.9542237e-38
-0.039313801 -0.13241051 -0.08450418 2.0556035e-38
-0.03719078 -0.13139187 -0.080427103 1.7421384e-38
-0.035124674 -0.13065563 -0.077480488 1.4747711e-38
-0.033174805 -0.13065563 -0.077480488 1.4932458e-38
-0.030369634 -0.12440531 -0.05246418 1.7881999e-38
-0.028237382 -0.12266256 -0.045489006 1.8803953e-38
-0.026128819 -0.12091358 -0.038488798 2.0002852e-38
-0.02424732 -0.12091358 -0.038488798 1.6684155e-38
-0.022365822 -0.12091358 -0.038488798 1.6224588e-38
-0.020406285 -0.12014665 -0.035419278 1.0140027e-38
-0.018460592 -0.11941226 -0.032479934 8.1099336e-39
-0.016501015 -0.11840202 -0.028436594 1.6590505e-38
-0.014637141 -0.11840202 -0.028436594 2.1752757e-38
-0.01064322 -0.11440946 -0.012456708 2.0374164e-38
-0.0088073667 -0.11440946 -0.012456708 1.4108464e-38
0.0077214669 -0.1161568 -0.019450359 7.7440672e-39
0.0095695853 -0.1161568 -0.019450359 5.8083219e-39
-0.043416202 -0.13537462 -0.088486366 1.8251851e-38
-0.041275978 -0.1343727 -0.08450418 1.917453e-38
-0.039313801 -0.1343727 -0.08450418 1.8897943e-38
-0.03719078 -0.13334687 -0.080427103 1.917453e-38
-0.035235748 -0.13334687 -0.080427103 1.6316466e-38
-0.032275639 -0.12631132 -0.05246418 1.4288162e-38
-0.030265914 -0.12554805 -0.049430542 1.6776365e-38
-0.028140238 -0.12380283 -0.042494111 1.6315387e-38
-0.026128819 -0.12279506 -0.038488798 1.7237699e-38
-0.02424732 -0.12279506 -0.038488798 1.5210826e-38
-0.022365822 -0.12279506 -0.038488798 1.4014425e-38
-0.020406285 -0.12202276 -0.035419278 1.0786849e-38
-0.018460592 -0.12128322 -0.032479934 1.4471803e-38
-0.016501015 -0.12026589 -0.028436594 1.1888528e-38
-0.014637141 -0.12026589 -0.028436594 1.5299043e-38
-0.01260783 -0.11800493 -0.019450359 2.341263e-38
-0.01064322 -0.11624531 -0.012456708 2.3508807e-38
-0.0087622013 -0.11548282 -0.0094261691 2.3234379e-38
-0.0069316607 -0.11548282 -0.0094261691 2.0380996e-38
-0.0051356535 -0.11624531 -0.012456708 6.1864721e-39
-0.003299797 -0.11624531 -0.012456708 3.1454666e-39
-0.0014639422 -0.11624531 -0.012456708 4.0670628e-39
0.00039051101 -0.11548282 -0.0094261691 3.1425716e-39
0.0022210535 -0.11548282 -0.0094261691 4.8917606e-39
0.007715337 -0.11624531 -0.012456708 1.7520659e-39
0.0095511917 -0.11624531 -0.012456708 3.5873241e-43
-0.043416202 -0.13734378 -0.088486366 1.7238774e-38
-0.041447043 -0.13734378 -0.088486366 1.8253642e-38
-0.039313801 -0.13633488 -0.08450418 1.8161802e-38
-0.037351623 -0.13633488 -0.08450418 1.8622779e-38
-0.035235748 -0.1353019 -0.080427103 1.7609703e-38
-0.032275639 -0.12821732 -0.05246418 1.3553098e-38
-0.030265914 -0.12744872 -0.049430542 1.3737132e-38
-0.028010318 -0.12467657 -0.038488798 1.4382504e-38
-0.026128819 -0.12467657 -0.038488798 1.4843485e-38
-0.02424732 -0.12467657 -0.038488798 1.2170894e-38
-0.022282405 -0.12389888 -0.035419278 8.7625379e-39
-0.02033156 -0.12315418 -0.032479934 1.4201361e-38
-0.01836489 -0.12212978 -0.028436594 1.567289e-38
-0.016501015 -0.12212978 -0.028436594 1.0876177e-38
-0.014637141 -0.12212978 -0.028436594 1.0966535e-38
-0.01260783 -0.11985306 -0.019450359 2.3320032e-38
-0.010592742 -0.11731337 -0.0094261691 2.3505546e-38
-0.0087622013 -0.11731337 -0.0094261691 2.350952e-38
-0.0068920348 -0.11654995 -0.0064130351 2.2958857e-38
-0.0050667766 -0.11654995 -0.0064130351 1.6694962e-38
-0.0032705739 -0.11731337 -0.0094261691 6.0935884e-39
-0.0014400315 -0.11731337 -0.0094261691 3.4210026e-39
0.00040900148 -0.11654995 -0.0064130351 4.8964577e-39
0.0022342596 -0.11654995 -0.0064130351 2.5904726e-39
0.0040595196 -0.11654995 -0.0064130351 2.4961161e-39
0.0058847796 -0.11654995 -0.0064130351 2.4935896e-39
0.007712679 -0.11731337 -0.0094261691 2.5839733e-39
0.0095432214 -0.11731337 -0.0094261691 8.3118299e-40
0.011360558 -0.11654995 -0.0064130351 1.4349296e-42
0.013185816 -0.11654995 -0.0064130351 6.4717849e-40
0.015011075 -0.11654995 -0.0064130351 5.5500107e-40
0.016836334 -0.11654995 -0.0064130351 3.9656747e-43
0.018661594 -0.11654995 -0.0064130351 2.5601723e-42
0.020486854 -0.11654995 -0.0064130351 1.5698831e-39
-0.045524999 -0.14007963 -0.091491632 1.6778514e-38
-0.043550566 -0.14007963 -0.091491632 1.6409729e-38
-0.041447043 -0.13931294 -0.088486366 1.7239846e-38
-0.039313801 -0.13829704 -0.08450418 1.7978486e-38
-0.037351623 -0.13829704 -0.08450418 1.7517861e-38
-0.035389438 -0.13829704 -0.08450418 1.5028939e-38
-0.032275639 -0.13012333 -0.05246418 1.078794e-38
-0.030265914 -0.12934943 -0.049430542 1.1802094e-38
-0.028010318 -0.12655805 -0.038488798 1.3000284e-38
-0.026128819 -0.12655805 -0.038488798 1.1986853e-38
-0.02424732 -0.12655805 -0.038488798 7.746944e-39
-0.022282405 -0.12577499 -0.035419278 8.8558237e-39
-0.02033156 -0.12502514 -0.032479934 1.5216246e-38
-0.01836489 -0.12399365 -0.028436594 1.4935689e-38
-0.016501015 -0.12399365 -0.028436594 1.355021e-38
-0.014637141 -0.12399365 -0.028436594 9.9527392e-39
-0.012423282 -0.11914389 -0.0094261691 1.2348384e-38
-0.010592742 -0.11914389 -0.0094261691 2.2212996e-38
-0.0087622013 -0.11914389 -0.0094261691 2.3507711e-38
-0.0068920348 -0.11837523 -0.0064130351 2.2220564e-38
-0.0050667766 -0.11837523 -0.0064130351 2.2591528e-38
-0.0032415185 -0.11837523 -0.0064130351 1.6971234e-38
-0.0014162567 -0.11837523 -0.0064130351 6.0017613e-39
0.00040900148 -0.11837523 -0.0064130351 3.2365833e-39
0.0022342596 -0.11837523 -0.0064130351 6.0942708e-39
0.0040595196 -0.11837523 -0.0064130351 9.9643279e-39
0.0058847796 -0.11837523 -0.0064130351 1.4480106e-38
0.0077100378 -0.11837523 -0.0064130351 1.9454697e-38
0.0095352978 -0.11837523 -0.0064130351 2.046813e-38
0.011360558 -0.11837523 -0.0064130351 2.1390102e-38
0.013185816 -0.11837523 -0.0064130351 2.0376687e-38
0.015011075 -0.11837523 -0.0064130351 1.6228622e-38
0.016836334 -0.11837523 -0.0064130351 9.7760186e-39
0.018661594 -0.11837523 -0.0064130351 4.060614e-39
0.020486854 -0.11837523 -0.0064130351 7.4264755e-40
-0.045524999 -0.14205404 -0.091491632 1.5671448e-38
-0.043550566 -0.14205404 -0.091491632 1.5487776e-38
-0.041447043 -0.1412821 -0.088486366 1.7147294e-38
-0.039313801 -0.14025922 -0.08450418 1.7240923e-38
-0.037351623 -0.14025922 -0.08450418 1.6318964e-38
-0.035389438 -0.14025922 -0.08450418 1.4014071e-38
-0.032275639 -0.13202934 -0.05246418 1.1248202e-38
-0.030265914 -0.1312501 -0.049430542 1.1709899e-38
-0.027910752 -0.12765111 -0.035419278 1.1709902e-38
-0.026034636 -0.12765111 -0.035419278 1.1064176e-38
-0.024158521 -0.12765111 -0.035419278 9.3139054e-39
-0.02220252 -0.1268961 -0.032479934 1.0237315e-38
-0.020228764 -0.12585752 -0.028436594 1.3095019e-38
-0.018293587 -0.12508373 -0.025424175 1.4473624e-38
-0.016369345 -0.12431435 -0.022428803 7.9255591e-39
-0.014516002 -0.12431435 -0.022428803 4.788014e-39
-0.012423282 -0.12097444 -0.0094261691 3.6805945e-39
-0.010592742 -0.12097444 -0.0094261691 1.3546607e-38
-0.0087622013 -0.12097444 -0.0094261691 2.2492116e-38
-0.0068920348 -0.12020047 -0.0064130351 2.3509879e-38
-0.0050667766 -0.12020047 -0.0064130351 2.2775202e-38
-0.0032415185 -0.12020047 -0.0064130351 2.1303681e-38
-0.0014162567 -0.12020047 -0.0064130351 1.1901177e-38
0.00040900148 -0.12020047 -0.0064130351 7.6594526e-39
0.0022342596 -0.12020047 -0.0064130351 1.1253999e-38
0.0040595196 -0.12020047 -0.0064130351 1.4939659e-38
0.0058847796 -0.12020047 -0.0064130351 2.1022764e-38
0.0077100378 -0.12020047 -0.0064130351 2.3509879e-38
0.0095352978 -0.12020047 -0.0064130351 2.3509158e-38
0.011360558 -0.12020047 -0.0064130351 2.2587929e-38
0.013185816 -0.12020047 -0.0064130351 2.3234379e-38
0.015011075 -0.12020047 -0.0064130351 2.2958873e-38
0.016836334 -0.12020047 -0.0064130351 2.2222395e-38
0.018627454 -0.11943097 -0.0034173056 1.5309183e-38
0.020447459 -0.11943097 -0.0034173056 8.4874294e-39
-0.035124674 -0.14040495 -0.077480488 1.3645291e-38
-0.032381058 -0.13469382 -0.055397086 1.318431e-38
-0.030265914 -0.13315077 -0.049430542 1.2816246e-38
-0.027910752 -0.12952723 -0.035419278 9.8659834e-39
-0.026034636 -0.12952723 -0.035419278 9.2206168e-39
-0.024158521 -0.12952723 -0.035419278 1.1341482e-38
-0.02220252 -0.12876706 -0.032479934 1.1526965e-38
-0.020228764 -0.12772138 -0.028436594 1.1801754e-38
-0.018293587 -0.12694232 -0.025424175 1.1707388e-38
-0.016304066 -0.1253974 -0.019450359 9.1835496e-40
-0.01445595 -0.1253974 -0.019450359 1.3775324e-39
-0.012423282 -0.12280498 -0.0094261691 1.7448744e-39
-0.010592742 -0.12280498 -0.0094261691 3.9582674e-39
-0.0087172966 -0.12202574 -0.0064130351 1.6222813e-38
-0.0068920348 -0.12202574 -0.0064130351 2.2956715e-38
-0.0050667766 -0.12202574 -0.0064130351 2.1208243e-38
-0.0032415185 -0.12202574 -0.0064130351 2.2499695e-38
-0.0014162567 -0.12202574 -0.0064130351 2.2316024e-38
0.00042738579 -0.121251 -0.0034173056 2.2316024e-38
0.0022473913 -0.121251 -0.0034173056 2.2775202e-38
0.0040673986 -0.121251 -0.0034173056 2.2681931e-38
0.0058874059 -0.121251 -0.0034173056 2.3509527e-38
0.0077100378 -0.12202574 -0.0064130351 2.2954557e-38
0.0095274188 -0.121251 -0.0034173056 2.3508809e-38
0.011347426 -0.121251 -0.0034173056 2.3509168e-38
0.013167432 -0.121251 -0.0034173056 2.3509886e-38
0.014987439 -0.121251 -0.0034173056 2.2497539e-38
0.016807444 -0.121251 -0.0034173056 2.2683366e-38
0.018582638 -0.12023406 0.00051493198 2.2499695e-38
0.02039575 -0.12023406 0.00051493198 2.2224189e-38
0.022267466 -0.121251 -0.0034173056 2.2040518e-38
-0.035124674 -0.14235483 -0.077480488 1.1524437e-38
-0.032381058 -0.13660498 -0.055397086 1.2723335e-38
-0.030265914 -0.13505147 -0.049430542 1.3000275e-38
-0.027815411 -0.13063805 -0.032479934 9.6812306e-39
-0.025944447 -0.13063805 -0.032479934 8.2060977e-39
-0.023956513 -0.12958528 -0.028436594 1.1341113e-38
-0.021929367 -0.12802102 -0.022428803 1.2170525e-38
-0.020076027 -0.12802102 -0.022428803 1.1432244e-38
-0.018152183 -0.12724553 -0.019450359 7.0039686e-39
-0.016215203 -0.12618984 -0.015395813 1.0101905e-39
-0.014314933 -0.12542458 -0.012456708 2.1122304e-39
-0.012367813 -0.12385099 -0.0064130351 1.3775352e-39
-0.010542555 -0.12385099 -0.0064130351 1.1938615e-39
-0.0087172966 -0.12385099 -0.0064130351 5.6206796e-39
-0.0068526398 -0.123071 -0.0034173056 1.668706e-38
-0.0050326344 -0.123071 -0.0034173056 2.2958873e-38
-0.0032126289 -0.123071 -0.0034173056 2.2775195e-38
-0.0013615955 -0.12204717 0.00051493198 2.2775195e-38
0.00045151636 -0.12204717 0.00051493198 2.2130201e-38
0.0022646282 -0.12204717 0.00051493198 2.323402e-38
0.00407774 -0.12204717 0.00051493198 2.3509168e-38
0.0058908518 -0.12204717 0.00051493198 2.3506298e-38
0.0077074114 -0.123071 -0.0034173056 2.3508092e-38
0.0095274188 -0.123071 -0.0034173056 2.3508092e-38
0.011347426 -0.123071 -0.0034173056 2.3506656e-38
0.013167432 -0.123071 -0.0034173056 2.2956349e-38
0.014987439 -0.123071 -0.0034173056 2.2866308e-38
0.016769525 -0.12204717 0.00051493198 2.2867032e-38
0.018547747 -0.12125005 0.0035763457 2.240786e-38
0.020355493 -0.12125005 0.0035763457 2.1672817e-38
0.022163238 -0.12125005 0.0035763457 2.1765011e-38
-0.032381058 -0.13851611 -0.055397086 1.2815176e-38
-0.030369634 -0.13774733 -0.05246418 1.2170158e-38
-0.027815411 -0.13250901 -0.032479934 9.4968365e-39
-0.025944447 -0.13250901 -0.032479934 8.1142552e-39
-0.023956513 -0.13144915 -0.028436594 1.1617336e-38
-0.021848423 -0.12909363 -0.019450359 1.2631142e-38
-0.020000303 -0.12909363 -0.019450359 6.1756541e-39
-0.018152183 -0.12909363 -0.019450359 3.0395593e-39
-0.016215203 -0.12803085 -0.015395813 1.8388665e-39
-0.014314933 -0.12726043 -0.012456708 1.6530571e-39
-0.012367813 -0.12567626 -0.0064130351 1.1938741e-39
-0.010542555 -0.12567626 -0.0064130351 1.102026e-39
-0.0087172966 -0.12567626 -0.0064130351 5.5101298e-40
-0.0068526398 -0.124891 -0.0034173056 1.1056427e-39
-0.0050326344 -0.124891 -0.0034173056 2.1851817e-38
-0.0032126289 -0.124891 -0.0034173056 2.2683354e-38
-0.0013615955 -0.12386028 0.00051493198 2.2222733e-38
0.00045151636 -0.12386028 0.00051493198 2.3234379e-38
0.0022646282 -0.12386028 0.00051493198 2.3509168e-38
0.00407774 -0.12386028 0.00051493198 2.3508092e-38
0.0058908518 -0.12386028 0.00051493198 2.3508092e-38
0.0077074114 -0.124891 -0.0034173056 2.3504505e-38
0.0095274188 -0.124891 -0.0034173056 2.3505222e-38
0.011330189 -0.12386028 0.00051493198 2.3507733e-38
0.013143301 -0.12386028 0.00051493198 2.3509521e-38
0.014987439 -0.124891 -0.0034173056 2.341804e-38
0.016769525 -0.12386028 0.00051493198 2.295886e-38
0.018547747 -0.1230578 0.0035763457 2.2591525e-38
0.020355493 -0.1230578 0.0035763457 2.2316024e-38
0.022163238 -0.1230578 0.0035763457 2.2224189e-38
0.024021974 -0.12386028 0.00051493198 2.0750875e-38
0.025907479 -0.124891 -0.0034173056 1.9737451e-38
-0.028140238 -0.13702248 -0.042494111 8.8507468e-39
-0.026034636 -0.13515557 -0.035419278 7.4681627e-39
-0.023956513 -0.13331302 -0.028436594 1.1801001e-38
-0.021738229 -0.12987186 -0.015395813 1.2722258e-38
-0.019897221 -0.12987186 -0.015395813 3.6734198e-40
-0.018056212 -0.12987186 -0.015395813 1.5640775e-39
-0.016215203 -0.12987186 -0.015395813 1.2864172e-39
-0.014374195 -0.12987186 -0.015395813 9.1836197e-40
-0.012367813 -0.1275015 -0.0064130351 7.3469378e-40
-0.010542555 -0.1275015 -0.0064130351 6.4284987e-40
-0.008672649 -0.126711 -0.0034173056 2.7550649e-40
-0.0068009328 -0.1256734 0.00051493198 1.0152421e-39
-0.0049878191 -0.1256734 0.00051493198 2.249826e-38
-0.0031747092 -0.1256734 0.00051493198 2.295887e-38
-0.0013374407 -0.12486555 0.0035763457 2.2867027e-38
0.000470303 -0.12486555 0.0035763457 2.3509886e-38
0.0022780467 -0.12486555 0.0035763457 2.3415179e-38
0.0040857922 -0.12486555 0.0035763457 2.350665e-38
0.0058908518 -0.1256734 0.00051493198 2.3508092e-38
0.0077039655 -0.1256734 0.00051493198 2.3507374e-38
0.0095170774 -0.1256734 0.00051493198 2.3507733e-38
0.011330189 -0.1256734 0.00051493198 2.3508451e-38
0.013143301 -0.1256734 0.00051493198 2.3509161e-38
0.014956414 -0.1256734 0.00051493198 2.3233648e-38
0.016711665 -0.12409012 0.0065149739 2.2774465e-38
0.018514257 -0.12409012 0.0065149739 2.249968e-38
0.02031685 -0.12409012 0.0065149739 2.2499691e-38
0.022163238 -0.12486555 0.0035763457 2.2132353e-38
0.023970982 -0.12486555 0.0035763457 2.2316024e-38
0.025907479 -0.126711 -0.0034173056 2.1303681e-38
-0.023579238 -0.13171287 -0.015395813 1.3183936e-38
-0.021738229 -0.13171287 -0.015395813 1.1800304e-38
-0.019897221 -0.13171287 -0.015395813 2.7550649e-40
-0.018056212 -0.13171287 -0.015395813 9.2015002e-40
-0.016215203 -0.13171287 -0.015395813 6.4284847e-40
-0.014374195 -0.13171287 -0.015395813 7.3468957e-40
-0.012129812 -0.12589271 0.0065149739 5.5101578e-40
-0.010327218 -0.12589271 0.0065149739 6.4393028e-40
-0.0085246246 -0.12589271 0.0065149739 6.4573235e-40
-0.0067606773 -0.1266733 0.0035763457 5.4413512e-39
-0.0049529318 -0.1266733 0.0035763457 2.2129483e-38
-0.0031451862 -0.1266733 0.0035763457 2.2958873e-38
-0.0013374407 -0.1266733 0.0035763457 2.3234379e-38
0.000470303 -0.1266733 0.0035763457 2.221915e-38
0.0022780467 -0.1266733 0.0035763457 2.3508448e-38
0.0040857922 -0.1266733 0.0035763457 2.3508802e-38
0.0058935359 -0.1266733 0.0035763457 2.3505924e-38
0.0076987054 -0.12589271 0.0065149739 2.3506297e-38
0.009501297 -0.12589271 0.0065149739 2.3508092e-38
0.011290627 -0.12508895 0.0095408633 2.3508809e-38
0.013087912 -0.12508895 0.0095408633 2.3508085e-38
0.014837869 -0.12349547 0.015539713 2.3325127e-38
0.016624637 -0.12349547 0.015539713 2.341804e-38
0.018411405 -0.12349547 0.015539713 2.3142534e-38
0.020198174 -0.12349547 0.015539713 2.2958866e-38
0.022074345 -0.12508895 0.0095408633 2.2867037e-38
0.023970982 -0.1266733 0.0035763457 2.2867037e-38
-0.02369654 -0.134638 -0.019450359 1.0418073e-38
-0.021848423 -0.134638 -0.019450359 1.0325543e-38
-0.019897221 -0.13355388 -0.015395813 5.5245772e-40
-0.018056212 -0.13355388 -0.015395813 2.7550649e-40
-0.016215203 -0.13355388 -0.015395813 1.0130645e-39
-0.014374195 -0.13355388 -0.015395813 7.361203e-40
-0.012533186 -0.13355388 -0.015395813 9.1835496e-41
-0.010327218 -0.12769531 0.0065149739 7.1746481e-43
-0.0085246246 -0.12769531 0.0065149739 1.5694837e-39
-0.0067220312 -0.12769531 0.0065149739 8.9455082e-39
-0.0049194414 -0.12769531 0.0065149739 2.2313513e-38
-0.0031168479 -0.12769531 0.0065149739 2.2958873e-38
-0.0013142563 -0.12769531 0.0065149739 2.2865602e-38
0.00048833527 -0.12769531 0.0065149739 2.2679772e-38
0.0022909287 -0.12769531 0.0065149739 2.3509524e-38
0.0040935203 -0.12769531 0.0065149739 2.3509153e-38
0.0058987644 -0.12688623 0.0095408633 2.3414794e-38
0.0076934155 -0.12608187 0.01254911 2.3509161e-38
0.0094775613 -0.12528224 0.015539713 2.3415529e-38
0.011251299 -0.1244873 0.018512793 2.3509168e-38
0.013014091 -0.12366976 0.021570273 2.3509527e-38
0.014790287 -0.12366976 0.021570273 2.3509527e-38
0.016595967 -0.1244873 0.018512793 2.31411e-38
0.018342678 -0.12366976 0.021570273 2.350988e-38
0.020118874 -0.12366976 0.021570273 2.2865587e-38
0.021940634 -0.1244873 0.018512793 2.341804e-38
0.02372219 -0.1244873 0.018512793 2.231241e-38
-0.023579238 -0.13539489 -0.015395813 9.2191734e-39
-0.021738229 -0.13539489 -0.015395813 8.3890835e-39
-0.019822499 -0.13460387 -0.012456708 9.1843904e-41
-0.017986646 -0.13460387 -0.012456708 3.5873241e-43
-0.016150789 -0.13460387 -0.012456708 3.6949438e-40
-0.014132669 -0.13217102 -0.0034173056 3.5873241e-43
-0.01224027 -0.13111271 0.00051493198 7.1746481e-43
-0.010327218 -0.1294979 0.0065149739 3.7092931e-40
-0.0085246246 -0.1294979 0.0065149739 5.3498563e-39
-0.0067220312 -0.1294979 0.0065149739 1.3002119e-38
-0.0049194414 -0.1294979 0.0065149739 2.2866678e-38
-0.0031168479 -0.1294979 0.0065149739 2.3142544e-38
-0.0013142563 -0.1294979 0.0065149739 2.3234379e-38
0.00050690584 -0.12868352 0.0095408633 2.3509527e-38
0.0023041908 -0.12868352 0.0095408633 2.3232936e-38
0.0041014794 -0.12868352 0.0095408633 2.3509866e-38
0.0059014019 -0.12787388 0.01254911 2.3509499e-38
0.0076907929 -0.12706901 0.015539713 2.3324756e-38
0.009469742 -0.12626885 0.018512793 2.3509876e-38
0.011237897 -0.12544595 0.021570273 2.350988e-38
0.012995442 -0.12462802 0.024609394 2.2771602e-38
0.014766308 -0.12462802 0.024609394 2.3048194e-38
0.016537175 -0.12462802 0.024609394 2.314039e-38
0.018308042 -0.12462802 0.024609394 2.3509527e-38
0.020078909 -0.12462802 0.024609394 2.2586842e-38
0.021895068 -0.12544595 0.021570273 2.304817e-38
0.023671264 -0.12544595 0.021570273 2.3509869e-38
0.025391508 -0.12462802 0.024609394 2.3509869e-38
0.027162375 -0.12462802 0.024609394 2.3509873e-38
0.029132018 -0.12706901 0.015539713 2.3508809e-38
-0.025237082 -0.13561879 -0.0094261691 8.7567533e-39
-0.023406541 -0.13561879 -0.0094261691 9.5872413e-39
-0.021658359 -0.13643973 -0.012456708 6.9143191e-39
-0.019822499 -0.13643973 -0.012456708 9.8090893e-45
-0.017986646 -0.13643973 -0.012456708 3.6985311e-40
-0.016150789 -0.13643973 -0.012456708 1.0761972e-42
-0.014132669 -0.13399105 -0.0034173056 7.1746481e-43
-0.01224027 -0.13292582 0.00051493198 1.0761972e-42
-0.010376165 -0.13209651 0.0035763457 2.7945254e-40
-0.0085684191 -0.13209651 0.0035763457 8.4844965e-39
-0.0067220312 -0.13130049 0.0065149739 1.6042777e-38
-0.0049194414 -0.13130049 0.0065149739 2.3233662e-38
-0.0031168479 -0.13130049 0.0065149739 2.2496821e-38
-0.0012903828 -0.13048081 0.0095408633 2.341805e-38
0.00050690584 -0.13048081 0.0095408633 2.3509527e-38
0.0023041908 -0.13048081 0.0095408633 2.3141103e-38
0.0041014794 -0.13048081 0.0095408633 2.3509865e-38
0.0059040245 -0.12885578 0.015539713 2.3509855e-38
0.0076907929 -0.12885578 0.015539713 2.350986e-38
0.009469742 -0.1280504 0.018512793 2.2497153e-38
0.011237897 -0.12722217 0.021570273 2.2772672e-38
0.012995442 -0.12639888 0.024609394 2.3324775e-38
0.014766308 -0.12639888 0.024609394 2.3509168e-38
0.016537175 -0.12639888 0.024609394 2.0742226e-38
0.018308042 -0.12639888 0.024609394 1.825258e-38
0.020040505 -0.12560774 0.027529903 1.7514284e-38
0.021806249 -0.12560774 0.027529903 1.7514635e-38
0.023620641 -0.12639888 0.024609394 1.6961453e-38
0.025337741 -0.12560774 0.027529903 1.7698299e-38
0.027103487 -0.12560774 0.027529903 2.0095032e-38
0.028999848 -0.12722217 0.021570273 2.3228257e-38
0.030776044 -0.12722217 0.021570273 1.9078751e-38
-0.026872715 -0.13581105 -0.0034173056 7.8340992e-39
-0.02505271 -0.13581105 -0.0034173056 9.3095754e-39
-0.023319369 -0.13662781 -0.0064130351 9.0337144e-39
-0.021658359 -0.13827558 -0.012456708 7.4671328e-39
-0.019822499 -0.13827558 -0.012456708 7.0064923e-45
-0.017986646 -0.13827558 -0.012456708 2.7765888e-40
-0.016150789 -0.13827558 -0.012456708 1.0761972e-42
-0.014193071 -0.13662781 -0.0064130351 1.8546465e-40
-0.012312664 -0.13581105 -0.0034173056 9.3270426e-41
-0.010376165 -0.13390426 0.0035763457 1.4349296e-42
-0.0085684191 -0.13390426 0.0035763457 9.5893993e-39
-0.0067220312 -0.13310309 0.0065149739 1.7516099e-38
-0.0049194414 -0.13310309 0.0065149739 2.3508809e-38
-0.0031168479 -0.13310309 0.0065149739 2.3509527e-38
-0.0012903828 -0.1322781 0.0095408633 2.350988e-38
0.00050690584 -0.1322781 0.0095408633 2.3509527e-38
0.0023041908 -0.1322781 0.0095408633 2.3509886e-38
0.0041014794 -0.1322781 0.0095408633 2.350987e-38
0.0059040245 -0.13064255 0.015539713 2.3142514e-38
0.0076881871 -0.12983195 0.018512793 2.2867006e-38
0.0094617009 -0.12899835 0.021570273 2.3234357e-38
0.011224575 -0.12816976 0.024609394 2.2773025e-38
0.01297752 -0.1273735 0.027529903 1.714874e-38
0.014743266 -0.1273735 0.027529903 1.5394875e-38
0.016509011 -0.1273735 0.027529903 1.4472203e-38
0.018274758 -0.1273735 0.027529903 1.4840259e-38
0.020040505 -0.1273735 0.027529903 1.530087e-38
0.021806249 -0.1273735 0.027529903 1.6591599e-38
0.023571996 -0.1273735 0.027529903 1.732916e-38
0.025337741 -0.1273735 0.027529903 1.7144046e-38
0.027103487 -0.1273735 0.027529903 1.6682715e-38
0.028933242 -0.12816976 0.024609394 1.7512128e-38
0.030704107 -0.12816976 0.024609394 2.0461683e-38
0.032474972 -0.12816976 0.024609394 1.9170239e-38
-0.026745168 -0.13655205 0.00051493198 7.1876564e-39
-0.024932055 -0.13655205 0.00051493198 8.5709398e-39
-0.023232704 -0.13763104 -0.0034173056 8.2039551e-39
-0.021658359 -0.14011143 -0.012456708 7.8359097e-39
-0.019822499 -0.14011143 -0.012456708 2.8025969e-45
-0.017914912 -0.13927986 -0.0094261691 1.8474719e-40
-0.016084371 -0.13927986 -0.0094261691 1.8474719e-40
-0.014193071 -0.13845308 -0.0064130351 9.2158916e-40
-0.012312664 -0.13763104 -0.0034173056 3.6770072e-40
-0.010427156 -0.13655205 0.00051493198 3.6770072e-40
-0.0085684191 -0.13571201 0.0035763457 1.0876901e-38
-0.0067220312 -0.13490568 0.0065149739 1.7697957e-38
-0.0049194414 -0.13490568 0.0065149739 2.3507006e-38
-0.0031168479 -0.13490568 0.0065149739 2.3508794e-38
-0.0012903828 -0.13407536 0.0095408633 2.3509873e-38
0.00050690584 -0.13407536 0.0095408633 2.3508444e-38
0.0023041908 -0.13407536 0.0095408633 2.3509886e-38
0.0041014794 -0.13407536 0.0095408633 2.3141816e-38
0.0059040245 -0.13242932 0.015539713 2.2590073e-38
0.0076881871 -0.13161351 0.018512793 2.323436e-38
0.0094617009 -0.13077454 0.021570273 2.2498229e-38
0.011224575 -0.12994061 0.024609394 1.945398e-38
0.01297752 -0.12913923 0.027529903 1.2815541e-38
0.014743266 -0.12913923 0.027529903 1.2629714e-38
0.016509011 -0.12913923 0.027529903 1.5026083e-38
0.018274758 -0.12913923 0.027529903 1.659233e-38
0.020001007 -0.12831511 0.030533381 1.6868196e-38
0.021761488 -0.12831511 0.030533381 1.8158572e-38
0.023571996 -0.12913923 0.027529903 1.7697591e-38
0.025337741 -0.12913923 0.027529903 1.7328809e-38
0.027103487 -0.12913923 0.027529903 1.6960029e-38
0.028869234 -0.12913923 0.027529903 1.5577462e-38
0.030634979 -0.12913923 0.027529903 1.8435173e-38
0.032400727 -0.12913923 0.027529903 1.8987995e-38
0.03416647 -0.12913923 0.027529903 1.336478e-38
-0.026745168 -0.13836516 0.00051493198 6.7263279e-39
-0.024932055 -0.13836516 0.00051493198 6.911424e-39
-0.023232704 -0.13945107 -0.0034173056 7.5575095e-39
-0.021658359 -0.14194728 -0.012456708 6.8213892e-39
-0.019822499 -0.14194728 -0.012456708 9.1835496e-41
-0.017914912 -0.14111041 -0.0094261691 3.6841958e-40
-0.016084371 -0.14111041 -0.0094261691 4.6061241e-40
-0.014193071 -0.14027832 -0.0064130351 7.3576017e-40
-0.012367813 -0.14027832 -0.0064130351 5.5101298e-40
-0.010427156 -0.13836516 0.00051493198 9.1835496e-40
-0.0085684191 -0.13751976 0.0035763457 1.1796348e-38
-0.0067220312 -0.13670824 0.0065149739 1.7789052e-38
-0.0048849564 -0.13587265 0.0095408633 2.2122247e-38
-0.0030876677 -0.13587265 0.0095408633 2.2859459e-38
-0.0012666453 -0.13504194 0.01254911 2.3508072e-38
0.00052536465 -0.13504194 0.01254911 2.3508437e-38
0.0023304876 -0.13421609 0.015539713 2.350988e-38
0.004117256 -0.13421609 0.015539713 2.3234379e-38
0.0059093107 -0.13255073 0.021570273 2.3142544e-38
0.007680282 -0.13090499 0.027529903 2.1760313e-38
0.0094460268 -0.13090499 0.027529903 1.4660525e-38
0.011211773 -0.13090499 0.027529903 1.2078328e-38
0.01297752 -0.13090499 0.027529903 1.1432599e-38
0.014743266 -0.13090499 0.027529903 1.5395932e-38
0.016509011 -0.13090499 0.027529903 1.7607909e-38
0.018274758 -0.13090499 0.027529903 1.6223899e-38
0.020001007 -0.13007559 0.030533381 1.4287074e-38
0.021761488 -0.13007559 0.030533381 1.5577457e-38
0.023571996 -0.13090499 0.027529903 1.2995981e-38
0.025337741 -0.13090499 0.027529903 1.3641713e-38
0.027103487 -0.13090499 0.027529903 1.7054034e-38
0.028869234 -0.13090499 0.027529903 1.6316468e-38
0.030634979 -0.13090499 0.027529903 1.5026449e-38
0.032400727 -0.13090499 0.027529903 1.4842778e-38
0.03416647 -0.13090499 0.027529903 1.2722278e-38
-0.023579238 -0.14459993 -0.015395813 5.2518999e-39
-0.021738229 -0.14459993 -0.015395813 4.884911e-39
-0.019897221 -0.14459993 -0.015395813 2.7550649e-40
-0.017986646 -0.14378314 -0.012456708 7.3505391e-40
-0.016150789 -0.14378314 -0.012456708 6.4285828e-40
-0.014253827 -0.14294095 -0.0094261691 6.4284847e-40
-0.012367813 -0.1421036 -0.0064130351 7.3468397e-40
-0.010427156 -0.14017828 0.00051493198 1.7456087e-39
-0.0085684191 -0.13932751 0.0035763457 9.6733413e-39
-0.0067220312 -0.13851084 0.0065149739 1.7510285e-38
-0.0048849564 -0.13766994 0.0095408633 2.0829679e-38
-0.0030298196 -0.13600285 0.015539713 2.0553123e-38
-0.001219593 -0.13517661 0.018512793 2.1015192e-38
0.0005619619 -0.13517661 0.018512793 2.1387203e-38
0.0023569204 -0.13432692 0.021570273 2.332548e-38
0.0041411091 -0.13348235 0.024609394 2.3141826e-38
0.0059119761 -0.13348235 0.024609394 2.2773767e-38
0.007680282 -0.13267075 0.027529903 1.8072139e-38
0.0094460268 -0.13267075 0.027529903 1.30932e-38
0.011211773 -0.13267075 0.027529903 1.3461619e-38
0.01297752 -0.13267075 0.027529903 1.1801731e-38
0.014743266 -0.13267075 0.027529903 1.3275781e-38
0.016480047 -0.13183604 0.030533381 1.6041651e-38
0.018240528 -0.13183604 0.030533381 1.5764351e-38
0.020001007 -0.13183604 0.030533381 1.3459109e-38
0.021761488 -0.13183604 0.030533381 1.3089619e-38
0.023571996 -0.13267075 0.027529903 1.2997073e-38
0.025337741 -0.13267075 0.027529903 1.3919393e-38
0.027103487 -0.13267075 0.027529903 1.5579994e-38
0.028869234 -0.13267075 0.027529903 1.6042405e-38
0.030634979 -0.13267075 0.027529903 1.5121878e-38
0.032400727 -0.13267075 0.027529903 1.4293188e-38
0.034328435 -0.13432692 0.021570273 1.0881231e-38
0.036104627 -0.13432692 0.021570273 1.0233352e-38
-0.023579238 -0.14644094 -0.015395813 3.7774915e-39
-0.021738229 -0.14644094 -0.015395813 3.410497e-39
-0.019897221 -0.14644094 -0.015395813 2.7586522e-40
-0.017986646 -0.14561899 -0.012456708 3.6734899e-40
-0.016150789 -0.14561899 -0.012456708 4.5918589e-40
-0.014253827 -0.1447715 -0.0094261691 5.5101298e-40
-0.012367813 -0.14392884 -0.0064130351 8.2651947e-40
-0.010427156 -0.14199139 0.00051493198 1.5612188e-39
-0.0085684191 -0.14113526 0.0035763457 5.9858762e-39
-0.0067220312 -0.14031343 0.0065149739 1.4284514e-38
-0.0048849564 -0.13946722 0.0095408633 1.7603906e-38
-0.0030298196 -0.13778962 0.015539713 1.6220283e-38
-0.001219593 -0.13695817 0.018512793 1.4377458e-38
0.00061729737 -0.13443647 0.027529903 1.5301927e-38
0.002383044 -0.13443647 0.027529903 1.9729126e-38
0.0041566882 -0.13359652 0.030533381 1.9452573e-38
0.0059171692 -0.13359652 0.030533381 1.6963655e-38
0.0076776482 -0.13359652 0.030533381 1.6780324e-38
0.0094381291 -0.13359652 0.030533381 9.0362367e-39
0.011211773 -0.13443647 0.027529903 1.0879785e-38
0.01297752 -0.13443647 0.027529903 1.1709899e-38
0.014743266 -0.13443647 0.027529903 1.0603548e-38
0.016480047 -0.13359652 0.030533381 9.0362255e-39
0.018240528 -0.13359652 0.030533381 8.6663724e-39
0.020001007 -0.13359652 0.030533381 9.2191958e-39
0.021761488 -0.13359652 0.030533381 1.1800325e-38
0.023571996 -0.13443647 0.027529903 1.0417757e-38
0.025282448 -0.13359652 0.030533381 1.1339358e-38
0.027042927 -0.13359652 0.030533381 1.4474365e-38
0.028803406 -0.13359652 0.030533381 1.6411188e-38
0.030563887 -0.13359652 0.030533381 1.3922256e-38
0.032400727 -0.13443647 0.027529903 1.3923684e-38
0.034328435 -0.13610314 0.021570273 1.3738214e-38
0.036104627 -0.13610314 0.021570273 1.0141154e-38
-0.023579238 -0.14828195 -0.015395813 3.5941848e-39
-0.021738229 -0.14828195 -0.015395813 2.5821797e-39
-0.019897221 -0.14828195 -0.015395813 8.3082566e-40
-0.018056212 -0.14828195 -0.015395813 0
-0.016150789 -0.14745484 -0.012456708 9.1835496e-41
-0.014253827 -0.14660202 -0.0094261691 3.6841818e-40
-0.012423282 -0.14660202 -0.0094261691 2.7550649e-40
-0.010492655 -0.14491107 -0.0034173056 6.4284847e-40
-0.0086140465 -0.14380451 0.00051493198 4.3299436e-39
-0.0067606773 -0.14294298 0.0035763457 9.4013969e-39
-0.0048849564 -0.14126451 0.0095408633 1.4103723e-38
-0.0030298196 -0.13957639 0.015539713 1.4471075e-38
-0.001219593 -0.13873972 0.018512793 1.3734236e-38
0.00061729737 -0.13620223 0.027529903 1.4471803e-38
0.002383044 -0.13620223 0.027529903 1.5578162e-38
0.0041566882 -0.13535701 0.030533381 1.7975264e-38
0.0059171692 -0.13535701 0.030533381 1.8161097e-38
0.0076776482 -0.13535701 0.030533381 1.6411174e-38
0.0094381291 -0.13535701 0.030533381 1.023478e-38
0.011198608 -0.13535701 0.030533381 7.9309682e-39
0.01297752 -0.13620223 0.027529903 9.8670792e-39
0.014743266 -0.13620223 0.027529903 9.1298771e-39
0.016509011 -0.13620223 0.027529903 7.1937703e-39
0.018274758 -0.13620223 0.027529903 7.6543953e-39
0.020040505 -0.13620223 0.027529903 9.3135635e-39
0.021806249 -0.13620223 0.027529903 1.1895043e-38
0.023571996 -0.13620223 0.027529903 9.4972401e-39
0.025282448 -0.13535701 0.030533381 1.1248234e-38
0.027042927 -0.13535701 0.030533381 1.5211566e-38
0.028803406 -0.13535701 0.030533381 1.7515731e-38
0.030563887 -0.13535701 0.030533381 1.6316466e-38
0.032324366 -0.13535701 0.030533381 1.6407937e-38
0.034328435 -0.13787933 0.021570273 1.2813383e-38
0.036104627 -0.13787933 0.021570273 1.1155304e-38
-0.017986646 -0.14929073 -0.012456708 7.1746481e-43
-0.016150789 -0.14929073 -0.012456708 7.1746481e-43
-0.014314933 -0.14929073 -0.012456708 7.3756504e-40
-0.012423282 -0.14843257 -0.0094261691 2.7658409e-40
-0.010492655 -0.14673109 -0.0034173056 2.7550649e-40
-0.008672649 -0.14673109 -0.0034173056 1.8431741e-39
-0.0068009328 -0.14561762 0.00051493198 6.9139225e-39
-0.0048165899 -0.14136316 0.015539713 1.1891758e-38
-0.0030011479 -0.14052127 0.018512793 1.2260177e-38
-0.0011954699 -0.13965552 0.021570273 1.1430417e-38
0.00059937499 -0.13879494 0.024609394 1.2627891e-38
0.002383044 -0.13796796 0.027529903 1.4379256e-38
0.0041566882 -0.13711749 0.030533381 1.6222461e-38
0.0059171692 -0.13711749 0.030533381 1.5670728e-38
0.0076776482 -0.13711749 0.030533381 1.5212265e-38
0.0094381291 -0.13711749 0.030533381 1.0603562e-38
0.011198608 -0.13711749 0.030533381 9.1291582e-39
0.01297752 -0.13796796 0.027529903 1.1434769e-38
0.014743266 -0.13796796 0.027529903 1.2080865e-38
0.016509011 -0.13796796 0.027529903 1.1712448e-38
0.018274758 -0.13796796 0.027529903 1.2265623e-38
0.020040505 -0.13796796 0.027529903 1.2910636e-38
0.021806249 -0.13796796 0.027529903 1.0144049e-38
0.023571996 -0.13796796 0.027529903 8.0228261e-39
0.025282448 -0.13711749 0.030533381 9.8652995e-39
0.027042927 -0.13711749 0.030533381 1.4197411e-38
0.028803406 -0.13711749 0.030533381 1.7146229e-38
0.030493215 -0.13627206 0.033519097 1.603844e-38
0.03224846 -0.13627206 0.033519097 1.5300153e-38
0.034003705 -0.13627206 0.033519097 1.1336458e-38
-0.0047827046 -0.14230286 0.018512793 8.8500252e-39
-0.0030011479 -0.14230286 0.018512793 1.0416628e-38
-0.0011714902 -0.14056583 0.024609394 9.7712612e-39
0.00061729737 -0.13973372 0.027529903 1.1153124e-38
0.002383044 -0.13973372 0.027529903 1.3365467e-38
0.0041566882 -0.13887797 0.030533381 1.53927e-38
0.0059171692 -0.13887797 0.030533381 1.5577813e-38
0.007680282 -0.13973372 0.027529903 1.4658012e-38
0.0094381291 -0.13887797 0.030533381 1.0050029e-38
0.011198608 -0.13887797 0.030533381 8.9440467e-39
0.01297752 -0.13973372 0.027529903 1.1710637e-38
0.014743266 -0.13973372 0.027529903 1.2817351e-38
0.016509011 -0.13973372 0.027529903 1.1527338e-38
0.018274758 -0.13973372 0.027529903 1.1250752e-38
0.020040505 -0.13973372 0.027529903 1.2080513e-38
0.021806249 -0.13973372 0.027529903 1.0696502e-38
0.023571996 -0.13973372 0.027529903 8.6674766e-39
0.025282448 -0.13887797 0.030533381 1.0141886e-38
0.027042927 -0.13887797 0.030533381 1.3920824e-38
0.02873797 -0.1380273 0.033519097 1.6777447e-38
0.030493215 -0.1380273 0.033519097 1.5208679e-38
0.03224846 -0.1380273 0.033519097 1.3732827e-38
0.034003705 -0.1380273 0.033519097 9.5847428e-39
-0.0047827046 -0.14408441 0.018512793 5.9919662e-39
-0.0030011479 -0.14408441 0.018512793 8.5723621e-39
-0.0011714902 -0.14233668 0.024609394 8.5723621e-39
0.00061729737 -0.14149947 0.027529903 9.4936065e-39
0.002383044 -0.14149947 0.027529903 1.0968383e-38
0.0041566882 -0.14063846 0.030533381 1.3364399e-38
0.0059171692 -0.14063846 0.030533381 1.5393066e-38
0.0076776482 -0.14063846 0.030533381 1.6409013e-38
0.0094381291 -0.14063846 0.030533381 1.1708834e-38
0.011198608 -0.14063846 0.030533381 1.1248219e-38
0.01297752 -0.14149947 0.027529903 1.5028601e-38
0.014719568 -0.14063846 0.030533381 1.5305914e-38
0.016480047 -0.14063846 0.030533381 1.1342223e-38
0.018274758 -0.14149947 0.027529903 9.6823474e-39
0.020040505 -0.14149947 0.027529903 1.1434064e-38
0.021806249 -0.14149947 0.027529903 1.180285e-38
0.023571996 -0.14149947 0.027529903 1.069578e-38
0.025282448 -0.14063846 0.030533381 1.1985798e-38
0.027042927 -0.14063846 0.030533381 1.4473998e-38
0.02873797 -0.13978253 0.033519097 1.6039884e-38
0.030493215 -0.13978253 0.033519097 1.3457322e-38
0.03224846 -0.13978253 0.033519097 1.1981832e-38
0.034003705 -0.13978253 0.033519097 8.5713097e-39
-0.0047827046 -0.14586596 0.018512793 4.3328092e-39
-0.0030011479 -0.14586596 0.018512793 6.6369783e-39
-0.0011714902 -0.14410757 0.024609394 7.7422497e-39
0.00061729737 -0.1432652 0.027529903 8.9400768e-39
0.002383044 -0.1432652 0.027529903 9.769483e-39
0.0041566882 -0.14239894 0.030533381 1.1613045e-38
0.0059171692 -0.14239894 0.030533381 1.5116479e-38
0.0076776482 -0.14239894 0.030533381 1.4748771e-38
0.0094381291 -0.14239894 0.030533381 1.1891427e-38
0.011198608 -0.14239894 0.030533381 1.1799953e-38
0.01297752 -0.1432652 0.027529903 1.4566547e-38
0.014719568 -0.14239894 0.030533381 1.4474714e-38
0.016480047 -0.14239894 0.030533381 1.0787252e-38
0.018274758 -0.1432652 0.027529903 9.5887126e-39
0.020040505 -0.1432652 0.027529903 1.1617737e-38
0.021806249 -0.1432652 0.027529903 1.2908476e-38
0.023571996 -0.1432652 0.027529903 1.3276538e-38
0.025337741 -0.1432652 0.027529903 1.4566556e-38
0.027042927 -0.14239894 0.030533381 1.548815e-38
0.028803406 -0.14239894 0.030533381 1.5118288e-38
0.030563887 -0.14239894 0.030533381 1.1336823e-38
0.032324366 -0.14239894 0.030533381 9.9535281e-39
-0.0011714902 -0.14587842 0.024609394 3.6863678e-39
0.00061729737 -0.14503096 0.027529903 6.5433548e-39
0.002383044 -0.14503096 0.027529903 8.0177716e-39
0.0041487906 -0.14503096 0.027529903 9.4925457e-39
0.0059145354 -0.14503096 0.027529903 1.364135e-38
0.007680282 -0.14503096 0.027529903 1.6222827e-38
0.0094460268 -0.14503096 0.027529903 1.5578176e-38
0.011211773 -0.14503096 0.027529903 1.4103047e-38
0.01297752 -0.14503096 0.027529903 1.2997423e-38
0.014743266 -0.14503096 0.027529903 1.2537887e-38
0.016509011 -0.14503096 0.027529903 1.2262022e-38
0.018274758 -0.14503096 0.027529903 1.3275818e-38
0.020040505 -0.14503096 0.027529903 1.5304842e-38
0.021806249 -0.14503096 0.027529903 1.512045e-38
0.023571996 -0.14503096 0.027529903 1.5950211e-38
0.025337741 -0.14503096 0.027529903 1.6779252e-38
0.027103487 -0.14503096 0.027529903 1.6225715e-38
0.028803406 -0.14415942 0.030533381 1.4472919e-38
-0.0011484493 -0.14679669 0.027529903 2.3952773e-39
0.00061729737 -0.14679669 0.027529903 4.8845593e-39
0.002383044 -0.14679669 0.027529903 6.911787e-39
0.0041487906 -0.14679669 0.027529903 8.5713097e-39
0.0059145354 -0.14679669 0.027529903 1.3272568e-38
0.007680282 -0.14679669 0.027529903 1.5116479e-38
0.0094460268 -0.14679669 0.027529903 1.6130631e-38
0.011211773 -0.14679669 0.027529903 1.4563307e-38
0.012995442 -0.14764927 0.024609394 1.1982192e-38
0.014743266 -0.14679669 0.027529903 1.1706687e-38
0.016509011 -0.14679669 0.027529903 1.2905593e-38
0.018274758 -0.14679669 0.027529903 1.4197414e-38
0.020001007 -0.1459199 0.030533381 1.57651e-38
0.021761488 -0.1459199 0.030533381 1.5396317e-38
0.023521967 -0.1459199 0.030533381 1.57651e-38
0.025282448 -0.1459199 0.030533381 1.5303761e-38
0.027042927 -0.1459199 0.030533381 1.3736433e-38
0.00059937499 -0.14942016 0.024609394 2.7550649e-40
0.002370242 -0.14942016 0.024609394 1.2889339e-39
0.0041411091 -0.14942016 0.024609394 3.1317675e-39
0.0059119761 -0.14942016 0.024609394 8.1103316e-39
0.0076828413 -0.14942016 0.024609394 1.0414142e-38
0.0094537083 -0.14942016 0.024609394 1.2811228e-38
0.011224575 -0.14942016 0.024609394 1.3549155e-38
0.012995442 -0.14942016 0.024609394 1.3456959e-38
0.014743266 -0.14856245 0.027529903 1.3918303e-38
0.016509011 -0.14856245 0.027529903 1.3458404e-38
0.018274758 -0.14856245 0.027529903 1.3089984e-38
0.020001007 -0.14768039 0.030533381 1.3828631e-38
0.021761488 -0.14768039 0.030533381 1.3091066e-38
0.023521967 -0.14768039 0.030533381 1.2538253e-38
0.025282448 -0.14768039 0.030533381 1.0970567e-38
0.027042927 -0.14768039 0.030533381 9.3110426e-39
0.018240528 -0.14944084 0.030533381 1.4196332e-38
0.020001007 -0.14944084 0.030533381 1.2445694e-38
0.021761488 -0.14944084 0.030533381 1.3183259e-38
0.023472235 -0.14855875 0.033519097 1.1800325e-38
0.02522748 -0.14855875 0.033519097 1.0232999e-38
0.026982725 -0.14855875 0.033519097 8.4812819e-39
