# .PCD v0.7 - Point Cloud Data file format
VERSION 0.7
FIELDS x y z rgb
SIZE 4 4 4 4
TYPE F F F F
COUNT 1 1 1 1
WIDTH 934
HEIGHT 1
VIEWPOINT 0 0 0 1 0 0 0
POINTS 934
DATA ascii
-0.022049485 -0.10523017 -0.0046104901 1.143479e-38
-0.02021363 -0.10523017 -0.0046104901 1.2910642e-38
-0.018395811 -0.10593875 -0.0075495951 1.3094676e-38
0.0056048427 -0.10691623 -0.011604141 1.5490661e-38
0.0074529592 -0.10691623 -0.011604141 1.5675052e-38
0.0094822701 -0.10908265 -0.020590376 1.6134951e-38
0.011346145 -0.10908265 -0.020590376 1.6411538e-38
0.013210019 -0.10908265 -0.020590376 1.6319343e-38
0.015176687 -0.11005743 -0.024633717 1.595056e-38
0.017127533 -0.11076607 -0.02757306 1.5305916e-38
0.019003648 -0.11076607 -0.02757306 1.3003188e-38
0.040126465 -0.11319371 -0.037642788 1.6230046e-38
0.042020239 -0.11319371 -0.037642788 1.6045658e-38
0.043914005 -0.11319371 -0.037642788 1.5861266e-38
0.045807779 -0.11319371 -0.037642788 1.4846759e-38
0.047701553 -0.11319371 -0.037642788 1.327907e-38
0.049424663 -0.11247168 -0.034647893 1.1248605e-38
0.051313184 -0.11247168 -0.034647893 4.7019911e-39
0.055090226 -0.11247168 -0.034647893 1.5666068e-39
-0.027466984 -0.10559841 0.0014331825 1.1802483e-38
-0.025641723 -0.10559841 0.0014331825 1.3093584e-38
-0.023850804 -0.10633011 -0.0015799515 1.4199933e-38
-0.022020262 -0.10633011 -0.0015799515 1.8072153e-38
-0.020189719 -0.10633011 -0.0015799515 2.1115331e-38
-0.018395811 -0.10777976 -0.0075495951 2.056216e-38
-0.016554801 -0.10777976 -0.0075495951 1.7796653e-38
-0.014690168 -0.10559841 0.0014331825 1.4384696e-38
0.0037567243 -0.10876434 -0.011604141 1.5859804e-38
0.0056048427 -0.10876434 -0.011604141 1.6044551e-38
0.0074529592 -0.10876434 -0.011604141 1.6228586e-38
0.0093010776 -0.10876434 -0.011604141 1.6320422e-38
0.011149196 -0.10876434 -0.011604141 1.6320422e-38
0.013067814 -0.10948761 -0.014582586 1.6412617e-38
0.015073892 -0.11094652 -0.020590376 1.6688848e-38
0.016937766 -0.11094652 -0.020590376 1.6966157e-38
0.018918613 -0.11192839 -0.024633717 1.6783209e-38
0.020789577 -0.11192839 -0.024633717 1.4939659e-38
0.02266054 -0.11192839 -0.024633717 1.4017703e-38
0.024531504 -0.11192839 -0.024633717 1.5031855e-38
0.026257137 -0.11094652 -0.020590376 1.5953811e-38
0.028121008 -0.11094652 -0.020590376 1.5308442e-38
0.029984882 -0.11094652 -0.020590376 1.4386485e-38
0.031848758 -0.11094652 -0.020590376 1.429429e-38
0.033886321 -0.11192839 -0.024633717 1.4202094e-38
0.042020239 -0.11508749 -0.037642788 1.825835e-38
0.043914005 -0.11508749 -0.037642788 1.7612983e-38
0.045647621 -0.1143602 -0.034647893 1.5768715e-38
0.047536142 -0.1143602 -0.034647893 1.5307374e-38
0.049424663 -0.1143602 -0.034647893 1.4198865e-38
0.051313184 -0.1143602 -0.034647893 8.8500756e-39
0.053201705 -0.1143602 -0.034647893 3.8715032e-39
0.055090226 -0.1143602 -0.034647893 1.1981803e-39
-0.040243797 -0.10742365 0.0014331825 2.3509527e-38
-0.038418539 -0.10742365 0.0014331825 2.2680125e-38
-0.031117501 -0.10742365 0.0014331825 2.2680844e-38
-0.029292243 -0.10742365 0.0014331825 2.2404977e-38
-0.027466984 -0.10742365 0.0014331825 2.3234379e-38
-0.025641723 -0.10742365 0.0014331825 2.3234379e-38
-0.023850804 -0.10816063 -0.0015799515 2.268193e-38
-0.022020262 -0.10816063 -0.0015799515 2.3234379e-38
-0.020189719 -0.10816063 -0.0015799515 2.3050708e-38
-0.018340686 -0.10742365 0.0014331825 2.240499e-38
-0.016515428 -0.10742365 0.0014331825 2.3142544e-38
-0.014690168 -0.10742365 0.0014331825 2.1390842e-38
-0.012864908 -0.10742365 0.0014331825 1.6596667e-38
0.0037567243 -0.11061247 -0.011604141 1.7518962e-38
0.0056048427 -0.11061247 -0.011604141 1.8256527e-38
0.0074529592 -0.11061247 -0.011604141 1.9547269e-38
0.0093010776 -0.11061247 -0.011604141 2.0561421e-38
0.011149196 -0.11061247 -0.011604141 2.1022399e-38
0.013067814 -0.11134095 -0.014582586 2.1574493e-38
0.015073892 -0.11281042 -0.020590376 2.2404257e-38
0.016937766 -0.11281042 -0.020590376 2.3050349e-38
0.018801641 -0.11281042 -0.020590376 2.2590813e-38
0.020789577 -0.11379938 -0.024633717 2.0932012e-38
0.02266054 -0.11379938 -0.024633717 2.0193728e-38
0.024393262 -0.11281042 -0.020590376 2.0102251e-38
0.026257137 -0.11281042 -0.020590376 1.9732749e-38
0.028121008 -0.11281042 -0.020590376 1.9088098e-38
0.029984882 -0.11281042 -0.020590376 1.8810792e-38
0.031848758 -0.11281042 -0.020590376 1.8350533e-38
0.033886321 -0.11379938 -0.024633717 2.0654706e-38
0.035757281 -0.11379938 -0.024633717 2.1392634e-38
0.037628248 -0.11379938 -0.024633717 2.1484114e-38
0.039499208 -0.11379938 -0.024633717 2.0839466e-38
0.042020239 -0.11698125 -0.037642788 2.0469965e-38
0.043914005 -0.11698125 -0.037642788 1.9363979e-38
0.045647621 -0.11624874 -0.034647893 1.7888133e-38
0.047536142 -0.11624874 -0.034647893 1.7241684e-38
0.049424663 -0.11624874 -0.034647893 1.7609382e-38
0.051313184 -0.11624874 -0.034647893 1.1984364e-38
0.053201705 -0.11624874 -0.034647893 4.9778479e-39
-0.04198239 -0.10851096 0.004428912 2.3509527e-38
-0.040162385 -0.10851096 0.004428912 2.2956715e-38
-0.038342379 -0.10851096 0.004428912 2.2957075e-38
-0.036429293 -0.10754226 0.0083611496 2.3141466e-38
-0.03461618 -0.10754226 0.0083611496 2.3326213e-38
-0.032882355 -0.10851096 0.004428912 2.341805e-38
-0.031117501 -0.10924892 0.0014331825 2.3418047e-38
-0.029292243 -0.10924892 0.0014331825 2.3418047e-38
-0.027466984 -0.10924892 0.0014331825 2.3418047e-38
-0.025641723 -0.10924892 0.0014331825 2.341805e-38
-0.023850804 -0.10999118 -0.0015799515 2.3050347e-38
-0.022020262 -0.10999118 -0.0015799515 2.341805e-38
-0.020165944 -0.10924892 0.0014331825 2.3234379e-38
-0.018340686 -0.10924892 0.0014331825 2.3234379e-38
-0.016515428 -0.10924892 0.0014331825 2.3234379e-38
-0.014690168 -0.10924892 0.0014331825 2.2773408e-38
9.4432384e-05 -0.1131943 -0.014582586 1.4845291e-38
0.0019086059 -0.11246057 -0.011604141 1.6965788e-38
0.0037567243 -0.11246057 -0.011604141 1.8347644e-38
0.0056048427 -0.11246057 -0.011604141 1.9361796e-38
0.0074529592 -0.11246057 -0.011604141 2.1113515e-38
0.0093010776 -0.11246057 -0.011604141 2.2680841e-38
0.011149196 -0.11246057 -0.011604141 2.3141822e-38
0.012997314 -0.11246057 -0.011604141 2.3048907e-38
0.014997307 -0.11393218 -0.017577957 2.3325497e-38
0.016855899 -0.11393218 -0.017577957 2.3509886e-38
0.018801641 -0.11467429 -0.020590376 2.3049273e-38
0.020665513 -0.11467429 -0.020590376 2.1759613e-38
0.02266054 -0.11567034 -0.024633717 2.1481945e-38
0.024393262 -0.11467429 -0.020590376 2.1390828e-38
0.026257137 -0.11467429 -0.020590376 2.2127314e-38
0.028121008 -0.11467429 -0.020590376 2.3234379e-38
0.029984882 -0.11467429 -0.020590376 2.341805e-38
0.031848758 -0.11467429 -0.020590376 2.2497173e-38
0.033886321 -0.11567034 -0.024633717 2.2864879e-38
0.035757281 -0.11567034 -0.024633717 2.1851809e-38
0.037628248 -0.11567034 -0.024633717 2.2219514e-38
0.039499208 -0.11567034 -0.024633717 2.0652911e-38
0.041370176 -0.11567034 -0.024633717 1.7885966e-38
0.043393165 -0.11639442 -0.02757306 1.7886689e-38
0.045433432 -0.11715056 -0.03064258 1.9913916e-38
0.047314934 -0.11715056 -0.03064258 1.9913916e-38
0.04919643 -0.11715056 -0.03064258 1.9175986e-38
0.051077925 -0.11715056 -0.03064258 1.0601427e-38
0.052959427 -0.11715056 -0.03064258 7.9273822e-39
-0.049692966 -0.11330278 -0.0075495951 2.3508809e-38
-0.047647856 -0.11182173 -0.0015799515 2.2493576e-38
-0.045622401 -0.11033095 0.004428912 2.3509527e-38
-0.043802395 -0.11033095 0.004428912 2.3509527e-38
-0.041868627 -0.10935538 0.0083611496 2.3324775e-38
-0.040055521 -0.10935538 0.0083611496 2.3509527e-38
-0.038342379 -0.11033095 0.004428912 2.341805e-38
-0.036429293 -0.10935538 0.0083611496 2.341805e-38
-0.03461618 -0.10935538 0.0083611496 2.3234018e-38
-0.032882355 -0.11033095 0.004428912 2.3234018e-38
-0.031062352 -0.11033095 0.004428912 2.3418047e-38
-0.029292243 -0.11107419 0.0014331825 2.3418047e-38
-0.027466984 -0.11107419 0.0014331825 2.3418047e-38
-0.025641723 -0.11107419 0.0014331825 2.3418047e-38
-0.023850804 -0.11182173 -0.0015799515 2.2773037e-38
-0.022020262 -0.11182173 -0.0015799515 2.3141822e-38
-0.020165944 -0.11107419 0.0014331825 2.341805e-38
-0.018340686 -0.11107419 0.0014331825 2.2772686e-38
-0.016515428 -0.11107419 0.0014331825 2.3141467e-38
-0.014690168 -0.11107419 0.0014331825 2.341805e-38
-0.012864908 -0.11107419 0.0014331825 2.2772332e-38
6.048847e-05 -0.1143087 -0.011604141 2.31411e-38
0.0019086059 -0.1143087 -0.011604141 2.350988e-38
0.0037567243 -0.1143087 -0.011604141 2.1849999e-38
0.0056048427 -0.1143087 -0.011604141 2.2218781e-38
0.0074529592 -0.1143087 -0.011604141 2.3325131e-38
0.0093010776 -0.1143087 -0.011604141 2.3509883e-38
0.011149196 -0.1143087 -0.011604141 2.3509527e-38
0.012997314 -0.1143087 -0.011604141 2.3509527e-38
0.014921155 -0.11504765 -0.014582586 2.3508091e-38
0.016774494 -0.11504765 -0.014582586 2.3509168e-38
0.018627835 -0.11504765 -0.014582586 2.3509527e-38
0.020481175 -0.11504765 -0.014582586 2.2495015e-38
0.022431673 -0.11579077 -0.017577957 2.2126232e-38
0.024290266 -0.11579077 -0.017577957 2.2218784e-38
0.026148858 -0.11579077 -0.017577957 2.2310979e-38
0.02800745 -0.11579077 -0.017577957 2.2771958e-38
0.029866042 -0.11579077 -0.017577957 2.0651458e-38
0.031724639 -0.11579077 -0.017577957 1.6318264e-38
0.033712633 -0.11653815 -0.020590376 1.3091061e-38
0.035576507 -0.11653815 -0.020590376 1.0601781e-38
0.037440382 -0.11653815 -0.020590376 1.0233002e-38
0.039499208 -0.1175413 -0.024633717 8.8497099e-39
0.041370176 -0.1175413 -0.024633717 5.4384744e-39
0.043393165 -0.11827053 -0.02757306 5.3462815e-39
0.045433432 -0.11903207 -0.03064258 6.6366644e-39
0.047314934 -0.11903207 -0.03064258 5.3459256e-39
0.04919643 -0.11903207 -0.03064258 7.4667782e-39
0.051077925 -0.11903207 -0.03064258 5.6221412e-39
0.052773751 -0.11827053 -0.02757306 7.005063e-39
0.054649867 -0.11827053 -0.02757306 7.0043357e-39
-0.051423177 -0.11440946 -0.0046104901 2.3508809e-38
-0.049587324 -0.11440946 -0.0046104901 2.3414453e-38
-0.047544837 -0.11289944 0.0014331825 2.3138945e-38
-0.045622401 -0.11215095 0.004428912 2.3509527e-38
-0.043681741 -0.11116849 0.0083611496 2.3509527e-38
-0.041868627 -0.11116849 0.0083611496 2.3233299e-38
-0.040055521 -0.11116849 0.0083611496 2.3141467e-38
-0.038242407 -0.11116849 0.0083611496 2.3234379e-38
-0.036429293 -0.11116849 0.0083611496 2.341805e-38
-0.03461618 -0.11116849 0.0083611496 2.3326213e-38
-0.032803066 -0.11116849 0.0083611496 2.3326213e-38
-0.031062352 -0.11215095 0.004428912 2.332621e-38
-0.029242342 -0.11215095 0.004428912 2.3049621e-38
-0.027422337 -0.11215095 0.004428912 2.2773034e-38
-0.025641723 -0.11289944 0.0014331825 2.350988e-38
-0.023816464 -0.11289944 0.0014331825 2.3509883e-38
-0.021991206 -0.11289944 0.0014331825 2.3509883e-38
-0.020165944 -0.11289944 0.0014331825 2.3509886e-38
-0.018340686 -0.11289944 0.0014331825 2.3417691e-38
-0.016515428 -0.11289944 0.0014331825 2.3232944e-38
-0.014690168 -0.11289944 0.0014331825 2.3509527e-38
-0.012862282 -0.11215095 0.004428912 2.3509168e-38
-0.011042276 -0.11215095 0.004428912 2.3509168e-38
-0.0092222691 -0.11215095 0.004428912 2.3047837e-38
6.048847e-05 -0.1161568 -0.011604141 2.3509524e-38
0.0019086059 -0.1161568 -0.011604141 2.3139658e-38
0.0036962982 -0.11514379 -0.0075495951 2.3509521e-38
0.0055373069 -0.11514379 -0.0075495951 2.3508441e-38
0.0074529592 -0.1161568 -0.011604141 2.3047463e-38
0.0093010776 -0.1161568 -0.011604141 2.3324052e-38
0.011149196 -0.1161568 -0.011604141 2.3323336e-38
0.012997314 -0.1161568 -0.011604141 2.2770163e-38
0.014921155 -0.11690097 -0.014582586 2.2585774e-38
0.016774494 -0.11690097 -0.014582586 2.2954557e-38
0.018627835 -0.11690097 -0.014582586 2.2308105e-38
0.020481175 -0.11690097 -0.014582586 2.2031516e-38
0.022334514 -0.11690097 -0.014582586 2.258469e-38
0.024290266 -0.11764936 -0.017577957 2.0741133e-38
0.026148858 -0.11764936 -0.017577957 1.6131351e-38
0.02800745 -0.11764936 -0.017577957 1.3088896e-38
0.029866042 -0.11764936 -0.017577957 1.0968396e-38
0.031724639 -0.11764936 -0.017577957 7.9259403e-39
0.033712633 -0.11840202 -0.020590376 8.3869184e-39
0.035576507 -0.11840202 -0.020590376 7.0958237e-39
0.037440382 -0.11840202 -0.020590376 7.0958265e-39
0.039499208 -0.11941226 -0.024633717 7.4646118e-39
0.041370176 -0.11941226 -0.024633717 7.0954748e-39
0.043393165 -0.12014665 -0.02757306 7.0954776e-39
0.045269288 -0.12014665 -0.02757306 6.5419479e-39
0.047314934 -0.12091358 -0.03064258 4.7913099e-39
0.04919643 -0.12091358 -0.03064258 4.5150761e-39
0.051077925 -0.12091358 -0.03064258 5.9905607e-39
0.052773751 -0.12014665 -0.02757306 6.3596922e-39
0.054649867 -0.12014665 -0.02757306 6.8199417e-39
-0.049587324 -0.11624531 -0.0046104901 1.6868198e-38
-0.047544837 -0.11472471 0.0014331825 2.1570892e-38
-0.045622401 -0.11397095 0.004428912 2.3509517e-38
-0.043681741 -0.1129816 0.0083611496 2.3138568e-38
-0.041780062 -0.11221133 0.011422563 2.3509873e-38
-0.03997232 -0.11221133 0.011422563 2.3509883e-38
-0.038242407 -0.1129816 0.0083611496 2.3141822e-38
-0.036429293 -0.1129816 0.0083611496 2.3141822e-38
-0.03461618 -0.1129816 0.0083611496 2.341805e-38
-0.032803066 -0.1129816 0.0083611496 2.3509883e-38
-0.030989958 -0.1129816 0.0083611496 2.332621e-38
-0.029242342 -0.11397095 0.004428912 2.3509883e-38
-0.027422337 -0.11397095 0.004428912 2.3509883e-38
-0.025641723 -0.11472471 0.0014331825 2.3048905e-38
-0.023816464 -0.11472471 0.0014331825 2.3509883e-38
-0.021962317 -0.11397095 0.004428912 2.3509883e-38
-0.020142309 -0.11397095 0.004428912 2.2956712e-38
-0.018322302 -0.11397095 0.004428912 2.3509886e-38
-0.016502297 -0.11397095 0.004428912 2.3509886e-38
-0.014682289 -0.11397095 0.004428912 2.3509527e-38
-0.012862282 -0.11397095 0.004428912 2.314039e-38
-0.011042276 -0.11397095 0.004428912 2.3509168e-38
-0.0092222691 -0.11397095 0.004428912 2.3509168e-38
-0.0074022617 -0.11397095 0.004428912 2.3509168e-38
-0.0055822562 -0.11397095 0.004428912 2.3509168e-38
-0.0037386129 -0.11472471 0.0014331825 2.3416251e-38
-0.0019133529 -0.11472471 0.0014331825 2.3509524e-38
-5.3754076e-05 -0.11548282 -0.0015799515 2.3415884e-38
0.0018166397 -0.11624531 -0.0046104901 2.1479773e-38
0.0036524953 -0.11624531 -0.0046104901 1.8806099e-38
0.0055373069 -0.1169848 -0.0075495951 1.6409013e-38
0.0073783156 -0.1169848 -0.0075495951 1.373534e-38
0.0092193242 -0.1169848 -0.0075495951 1.2075821e-38
0.011060335 -0.1169848 -0.0075495951 1.0784728e-38
0.012997314 -0.11800493 -0.011604141 9.4939947e-39
0.014845433 -0.11800493 -0.011604141 9.1237772e-39
0.016693551 -0.11800493 -0.011604141 9.2163288e-39
0.018627835 -0.11875431 -0.014582586 8.2943669e-39
0.020481175 -0.11875431 -0.014582586 6.8195927e-39
0.022334514 -0.11875431 -0.014582586 7.5571564e-39
0.024290266 -0.11950795 -0.017577957 7.9259389e-39
0.026148858 -0.11950795 -0.017577957 6.2656987e-39
0.02800745 -0.11950795 -0.017577957 6.173859e-39
0.029866042 -0.11950795 -0.017577957 7.0950992e-39
0.031724639 -0.11950795 -0.017577957 6.2642568e-39
0.033583231 -0.11950795 -0.017577957 7.1858473e-39
0.035576507 -0.12026589 -0.020590376 8.2003566e-39
0.037440382 -0.12026589 -0.020590376 8.1081581e-39
0.039304256 -0.12026589 -0.020590376 7.9237669e-39
0.041168123 -0.12026589 -0.020590376 7.924134e-39
0.043241136 -0.12128322 -0.024633717 6.909629e-39
0.045269288 -0.12202276 -0.02757306 5.8036528e-39
0.047145404 -0.12202276 -0.02757306 6.2653526e-39
0.04919643 -0.12279506 -0.03064258 6.1731513e-39
0.051077925 -0.12279506 -0.03064258 2.2098112e-39
0.052959427 -0.12279506 -0.03064258 5.2526216e-39
0.054840922 -0.12279506 -0.03064258 5.8054282e-39
-0.049587324 -0.11808117 -0.0046104901 1.2164414e-38
-0.047544837 -0.11654995 0.0014331825 1.5115023e-38
-0.045494854 -0.11479472 0.0083611496 2.0924056e-38
-0.043587811 -0.11401908 0.011422563 2.3509844e-38
-0.041695051 -0.11327456 0.014361192 2.3508766e-38
-0.039892457 -0.11327456 0.014361192 2.3509869e-38
-0.038164571 -0.11401908 0.011422563 2.2680477e-38
-0.036356829 -0.11401908 0.011422563 2.350988e-38
-0.034549087 -0.11401908 0.011422563 2.350988e-38
-0.032741338 -0.11401908 0.011422563 2.314074e-38
-0.030933598 -0.11401908 0.011422563 2.3509883e-38
-0.029176844 -0.11479472 0.0083611496 2.3509527e-38
-0.027422337 -0.11579098 0.004428912 2.3509167e-38
-0.025602328 -0.11579098 0.004428912 2.3509527e-38
-0.023782322 -0.11579098 0.004428912 2.3509527e-38
-0.021924397 -0.11479472 0.0083611496 2.3509527e-38
-0.020111283 -0.11479472 0.0083611496 2.3509527e-38
-0.018322302 -0.11579098 0.004428912 2.3509527e-38
-0.016502297 -0.11579098 0.004428912 2.3509527e-38
-0.014671948 -0.11479472 0.0083611496 2.3509527e-38
-0.012858836 -0.11479472 0.0083611496 2.3509527e-38
-0.011045722 -0.11479472 0.0083611496 2.3509527e-38
-0.0092222691 -0.11579098 0.004428912 2.2863077e-38
-0.0074022617 -0.11579098 0.004428912 2.3509527e-38
-0.0055822562 -0.11579098 0.004428912 2.3508804e-38
-0.0037622489 -0.11579098 0.004428912 2.267868e-38
-0.0019422425 -0.11579098 0.004428912 2.0005364e-38
-0.00012223516 -0.11579098 0.004428912 1.4934599e-38
0.0017371653 -0.11654995 0.0014331825 1.1708107e-38
0.0036073299 -0.11731337 -0.0015799515 9.9563867e-39
0.005488351 -0.11808117 -0.0046104901 9.8641911e-39
0.0073783156 -0.11882581 -0.0075495951 9.0344332e-39
0.0092193242 -0.11882581 -0.0075495951 8.8496875e-39
0.011060335 -0.11882581 -0.0075495951 8.4805532e-39
0.012997314 -0.11985306 -0.011604141 7.8348335e-39
0.014845433 -0.11985306 -0.011604141 8.2025454e-39
0.016693551 -0.11985306 -0.011604141 7.742642e-39
0.018541668 -0.11985306 -0.011604141 7.1898172e-39
0.020389786 -0.11985306 -0.011604141 6.176017e-39
0.022334514 -0.12060766 -0.014582586 5.715036e-39
0.024187854 -0.12060766 -0.014582586 7.0976104e-39
0.026041197 -0.12060766 -0.014582586 7.5575095e-39
0.02800745 -0.12136655 -0.017577957 7.4638761e-39
0.029866042 -0.12136655 -0.017577957 8.0156136e-39
0.031724639 -0.12136655 -0.017577957 7.5528292e-39
0.033583231 -0.12136655 -0.017577957 8.1049071e-39
0.035441823 -0.12136655 -0.017577957 8.5655111e-39
0.037300415 -0.12136655 -0.017577957 8.3814618e-39
0.039304256 -0.12212978 -0.020590376 9.5803651e-39
0.041168123 -0.12212978 -0.020590376 9.3974214e-39
0.043241136 -0.12315418 -0.024633717 6.17131e-39
0.045112096 -0.12315418 -0.024633717 7.0018134e-39
0.047145404 -0.12389888 -0.02757306 5.9876727e-39
0.04902152 -0.12389888 -0.02757306 5.8036345e-39
0.050897636 -0.12389888 -0.02757306 4.0519148e-39
0.052773751 -0.12389888 -0.02757306 4.6065277e-39
0.054649867 -0.12389888 -0.02757306 5.7139514e-39
-0.049478397 -0.11914389 -0.0015799515 1.0780757e-38
-0.047442414 -0.11761098 0.004428912 1.1057691e-38
-0.045395553 -0.11582683 0.011422563 1.2164025e-38
-0.043497644 -0.11507715 0.014361192 1.8434032e-38
-0.041695051 -0.11507715 0.014361192 2.3509116e-38
-0.039892457 -0.11507715 0.014361192 2.3509863e-38
-0.038089864 -0.11507715 0.014361192 2.3048896e-38
-0.03628727 -0.11507715 0.014361192 2.3509879e-38
-0.034484677 -0.11507715 0.014361192 2.3509879e-38
-0.032682091 -0.11507715 0.014361192 2.3417327e-38
-0.030879499 -0.11507715 0.014361192 2.3509523e-38
-0.029125853 -0.11582683 0.011422563 2.3509527e-38
-0.027318107 -0.11582683 0.011422563 2.3509527e-38
-0.025550621 -0.11660783 0.0083611496 2.3509527e-38
-0.023737507 -0.11660783 0.0083611496 2.3509527e-38
-0.021924397 -0.11660783 0.0083611496 2.3509527e-38
-0.020111283 -0.11660783 0.0083611496 2.3509527e-38
-0.018298171 -0.11660783 0.0083611496 2.3509527e-38
-0.016502297 -0.11761098 0.004428912 2.3509527e-38
-0.014671948 -0.11660783 0.0083611496 2.3509883e-38
-0.012858836 -0.11660783 0.0083611496 2.3509883e-38
-0.011045722 -0.11660783 0.0083611496 2.3139661e-38
-0.0092326105 -0.11660783 0.0083611496 1.8622075e-38
-0.0074194986 -0.11660783 0.0083611496 1.7146945e-38
-0.0056063868 -0.11660783 0.0083611496 9.0337298e-39
-0.0037622489 -0.11761098 0.004428912 8.8493357e-39
-0.0019422425 -0.11761098 0.004428912 7.8355383e-39
-0.00012223516 -0.11761098 0.004428912 8.5734565e-39
0.0017371653 -0.11837523 0.0014331825 7.0061266e-39
0.0036073299 -0.11914389 -0.0015799515 8.2050257e-39
0.0054378733 -0.11914389 -0.0015799515 8.2972213e-39
0.0073242076 -0.11991702 -0.0046104901 7.8358873e-39
0.0091600623 -0.11991702 -0.0046104901 7.9280871e-39
0.011060335 -0.12066682 -0.0075495951 8.75678e-39
0.012901343 -0.12066682 -0.0075495951 9.1255751e-39
0.014742352 -0.12066682 -0.0075495951 8.8479176e-39
0.016583361 -0.12066682 -0.0075495951 7.3735036e-39
0.018541668 -0.12170117 -0.011604141 7.8351894e-39
0.020389786 -0.12170117 -0.011604141 7.927734e-39
0.022237903 -0.12170117 -0.011604141 7.466753e-39
0.024086023 -0.12170117 -0.011604141 6.7295439e-39
0.025934139 -0.12170117 -0.011604141 6.4511619e-39
0.027894536 -0.12246101 -0.014582586 7.0950936e-39
0.029747875 -0.12246101 -0.014582586 7.3688022e-39
0.031601213 -0.12246101 -0.014582586 5.5230806e-39
0.03345456 -0.12246101 -0.014582586 6.4435795e-39
0.035307899 -0.12246101 -0.014582586 1.5478009e-38
0.037300415 -0.12322514 -0.017577957 2.1747292e-38
0.039304256 -0.12399365 -0.020590376 2.3506204e-38
0.041168123 -0.12399365 -0.020590376 2.1842373e-38
0.043241136 -0.12502514 -0.024633717 8.2903578e-39
0.045112096 -0.12502514 -0.024633717 5.6174342e-39
0.046983063 -0.12502514 -0.024633717 8.0145318e-39
0.04902152 -0.12577499 -0.02757306 6.5397562e-39
0.050724983 -0.12502514 -0.024633717 7.1862046e-39
0.052595951 -0.12502514 -0.024633717 6.5422744e-39
0.054466911 -0.12502514 -0.024633717 4.8841908e-39
-0.049478397 -0.12097444 -0.0015799515 9.6751321e-39
-0.047307968 -0.11842094 0.0083611496 9.3070545e-39
-0.045395553 -0.11763458 0.011422563 7.2780205e-39
-0.043497644 -0.11687975 0.014361192 1.2533879e-38
-0.041695051 -0.11687975 0.014361192 2.295343e-38
-0.039892457 -0.11687975 0.014361192 2.3509866e-38
-0.038089864 -0.11687975 0.014361192 2.3417679e-38
-0.03628727 -0.11687975 0.014361192 2.3140736e-38
-0.034484677 -0.11687975 0.014361192 2.3509879e-38
-0.032682091 -0.11687975 0.014361192 2.3509883e-38
-0.030879499 -0.11687975 0.014361192 2.3417327e-38
-0.029076906 -0.11687975 0.014361192 2.3324778e-38
-0.027274312 -0.11687975 0.014361192 2.3509527e-38
-0.025510365 -0.11763458 0.011422563 2.3509527e-38
-0.02370262 -0.11763458 0.011422563 2.3509527e-38
-0.021894874 -0.11763458 0.011422563 2.3509527e-38
-0.020087129 -0.11763458 0.011422563 2.3509527e-38
-0.018298171 -0.11842094 0.0083611496 2.3509527e-38
-0.01648506 -0.11842094 0.0083611496 2.3509527e-38
-0.014671948 -0.11842094 0.0083611496 2.3509883e-38
-0.012856152 -0.11763458 0.011422563 2.3509883e-38
-0.011048406 -0.11763458 0.011422563 2.350988e-38
-0.0092406627 -0.11763458 0.011422563 2.0467064e-38
-0.0074194986 -0.11842094 0.0083611496 1.8990858e-38
-0.0056063868 -0.11842094 0.0083611496 9.1259254e-39
-0.0037932741 -0.11842094 0.0083611496 7.9273822e-39
-0.0019422425 -0.11943097 0.004428912 7.4664013e-39
-0.00012223516 -0.11943097 0.004428912 8.941167e-39
0.0016977713 -0.11943097 0.004428912 7.1898032e-39
0.0035624243 -0.12020047 0.0014331825 9.4946925e-39
0.0053876843 -0.12020047 0.0014331825 8.849679e-39
0.0072684139 -0.12097444 -0.0015799515 8.2039537e-39
0.0091600623 -0.12175287 -0.0046104901 7.927371e-39
0.010995919 -0.12175287 -0.0046104901 8.1103316e-39
0.012901343 -0.12250783 -0.0075495951 7.7422777e-39
0.014742352 -0.12250783 -0.0075495951 7.0954776e-39
0.016583361 -0.12250783 -0.0075495951 6.2664372e-39
0.018424369 -0.12250783 -0.0075495951 7.926669e-39
0.02026538 -0.12250783 -0.0075495951 7.0047071e-39
0.022237903 -0.1235493 -0.011604141 6.451885e-39
0.023947397 -0.12250783 -0.0075495951 6.0823794e-39
0.025788406 -0.12250783 -0.0075495951 5.9887489e-39
0.02778226 -0.1235493 -0.011604141 6.9092632e-39
0.029630376 -0.1235493 -0.011604141 7.5513956e-39
0.031478494 -0.1235493 -0.011604141 6.9045731e-39
0.033326611 -0.1235493 -0.011604141 7.1797026e-39
0.035307899 -0.12431435 -0.014582586 2.1008307e-38
0.037440382 -0.12585752 -0.020590376 2.3501891e-38
0.039304256 -0.12585752 -0.020590376 2.3499366e-38
0.041168123 -0.12585752 -0.020590376 2.2946925e-38
0.043241136 -0.1268961 -0.024633717 9.2105176e-39
0.045112096 -0.1268961 -0.024633717 6.3532042e-39
0.046983063 -0.1268961 -0.024633717 7.7372316e-39
0.048854023 -0.1268961 -0.024633717 7.462437e-39
0.050724983 -0.1268961 -0.024633717 1.069e-38
0.052595951 -0.1268961 -0.024633717 9.5850917e-39
0.054466911 -0.1268961 -0.024633717 7.5585857e-39
0.056525983 -0.12765111 -0.02757306 6.1760142e-39
-0.047307968 -0.12023406 0.0083611496 1.0782194e-38
-0.045395553 -0.11944233 0.011422563 9.2155763e-39
-0.043497644 -0.11868234 0.014361192 1.0875445e-38
-0.041695051 -0.11868234 0.014361192 1.7330581e-38
-0.039892457 -0.11868234 0.014361192 2.1665235e-38
-0.038089864 -0.11868234 0.014361192 2.3509876e-38
-0.03628727 -0.11868234 0.014361192 2.3232932e-38
-0.034484677 -0.11868234 0.014361192 2.3509879e-38
-0.032682091 -0.11868234 0.014361192 2.3417327e-38
-0.030879499 -0.11868234 0.014361192 2.3509883e-38
-0.029076906 -0.11868234 0.014361192 2.3416971e-38
-0.027274312 -0.11868234 0.014361192 2.3509527e-38
-0.025471719 -0.11868234 0.014361192 2.3509527e-38
-0.02370262 -0.11944233 0.011422563 2.3509527e-38
-0.021894874 -0.11944233 0.011422563 2.3509527e-38
-0.020087129 -0.11944233 0.011422563 2.3509527e-38
-0.018279385 -0.11944233 0.011422563 2.3509527e-38
-0.016471641 -0.11944233 0.011422563 2.3509527e-38
-0.014663896 -0.11944233 0.011422563 2.3509883e-38
-0.012856152 -0.11944233 0.011422563 2.350988e-38
-0.011048406 -0.11944233 0.011422563 2.3417323e-38
-0.0092406627 -0.11944233 0.011422563 2.1665606e-38
-0.0074329171 -0.11944233 0.011422563 1.9820616e-38
-0.0056251734 -0.11944233 0.011422563 1.2168381e-38
-0.0037932741 -0.12023406 0.0083611496 8.2961648e-39
-0.0019422425 -0.121251 0.004428912 8.7571429e-39
-0.00012223516 -0.121251 0.004428912 8.4801931e-39
0.0016977713 -0.121251 0.004428912 7.6504282e-39
0.0035624243 -0.12202574 0.0014331825 7.8351754e-39
0.0053876843 -0.12202574 0.0014331825 7.2809198e-39
0.0072129425 -0.12202574 0.0014331825 7.741898e-39
0.0090989564 -0.12280498 -0.0015799515 7.8333803e-39
0.010995919 -0.12358873 -0.0046104901 7.0954608e-39
0.012901343 -0.12434883 -0.0075495951 5.9887629e-39
0.014742352 -0.12434883 -0.0075495951 5.2508433e-39
0.016583361 -0.12434883 -0.0075495951 6.0806068e-39
0.018424369 -0.12434883 -0.0075495951 5.804736e-39
0.02026538 -0.12434883 -0.0075495951 5.8983651e-39
0.022106389 -0.12434883 -0.0075495951 7.0958237e-39
0.023947397 -0.12434883 -0.0075495951 6.3578943e-39
0.025788406 -0.12434883 -0.0075495951 5.895477e-39
0.027629415 -0.12434883 -0.0075495951 7.6457521e-39
0.029470423 -0.12434883 -0.0075495951 9.6711763e-39
0.03131143 -0.12434883 -0.0075495951 1.1052658e-38
0.033152446 -0.12434883 -0.0075495951 1.1880241e-38
0.035307899 -0.12616767 -0.014582586 2.2021019e-38
0.037161238 -0.12616767 -0.014582586 2.2574894e-38
0.039159007 -0.12694232 -0.017577957 2.322134e-38
0.041017599 -0.12694232 -0.017577957 2.3504786e-38
0.042876191 -0.12694232 -0.017577957 9.2094456e-39
0.044734783 -0.12694232 -0.017577957 6.3514105e-39
0.046759747 -0.12772138 -0.020590376 7.551767e-39
0.048623621 -0.12772138 -0.020590376 7.2780485e-39
0.050724983 -0.12876706 -0.024633717 1.0321941e-38
0.052595951 -0.12876706 -0.024633717 9.4936177e-39
0.054466911 -0.12876706 -0.024633717 1.0047871e-38
0.056525983 -0.12952723 -0.02757306 7.3756364e-39
-0.045494854 -0.12204717 0.0083611496 1.0508121e-38
-0.043587811 -0.12125005 0.011422563 9.9552993e-39
-0.041695051 -0.12048493 0.014361192 1.0970173e-38
-0.039892457 -0.12048493 0.014361192 1.7792664e-38
-0.038089864 -0.12048493 0.014361192 2.3509879e-38
-0.03628727 -0.12048493 0.014361192 2.3509879e-38
-0.034484677 -0.12048493 0.014361192 2.3509518e-38
-0.032621078 -0.11969708 0.017387081 2.3048545e-38
-0.030823791 -0.11969708 0.017387081 2.3509883e-38
-0.029026503 -0.11969708 0.017387081 2.3509527e-38
-0.027229218 -0.11969708 0.017387081 2.3509167e-38
-0.025471719 -0.12048493 0.014361192 2.3509527e-38
-0.023669129 -0.12048493 0.014361192 2.3509527e-38
-0.021866536 -0.12048493 0.014361192 2.3509527e-38
-0.020063944 -0.12048493 0.014361192 2.3509527e-38
-0.018261353 -0.12048493 0.014361192 2.3509527e-38
-0.016471641 -0.12125005 0.011422563 2.3509883e-38
-0.014663896 -0.12125005 0.011422563 2.3509883e-38
-0.012856152 -0.12125005 0.011422563 2.350988e-38
-0.011048406 -0.12125005 0.011422563 2.3509876e-38
-0.0092406627 -0.12125005 0.011422563 2.1112788e-38
-0.0074329171 -0.12125005 0.011422563 1.9452911e-38
-0.0056251734 -0.12125005 0.011422563 1.2999221e-38
-0.0037932741 -0.12204717 0.0083611496 8.941537e-39
-0.0019422425 -0.123071 0.004428912 7.7429938e-39
-0.00012223516 -0.123071 0.004428912 7.0047099e-39
0.0016977713 -0.123071 0.004428912 7.4646062e-39
0.0035177786 -0.123071 0.004428912 6.8195913e-39
0.0053876843 -0.12385099 0.0014331825 6.8192284e-39
0.0072129425 -0.12385099 0.0014331825 7.2802065e-39
0.0090989564 -0.12463553 -0.0015799515 5.8043576e-39
0.010929499 -0.12463553 -0.0015799515 5.5274162e-39
0.012831774 -0.12542458 -0.0046104901 6.5415737e-39
0.014742352 -0.12618984 -0.0075495951 5.8025766e-39
0.016583361 -0.12618984 -0.0075495951 5.3423229e-39
0.018424369 -0.12618984 -0.0075495951 6.9103703e-39
0.02026538 -0.12618984 -0.0075495951 6.6341435e-39
0.022011055 -0.12542458 -0.0046104901 7.463893e-39
0.023846908 -0.12542458 -0.0046104901 5.251551e-39
0.025788406 -0.12618984 -0.0075495951 4.0515658e-39
0.027629415 -0.12618984 -0.0075495951 6.44649e-39
0.029234922 -0.12463553 -0.0015799515 9.1172822e-39
0.031065466 -0.12463553 -0.0015799515 1.1512557e-38
0.033152446 -0.12618984 -0.0075495951 1.2432693e-38
0.035307899 -0.12802102 -0.014582586 2.1282735e-38
0.037161238 -0.12802102 -0.014582586 2.3127349e-38
0.039159007 -0.12880091 -0.017577957 2.3500812e-38
0.041017599 -0.12880091 -0.017577957 2.3501189e-38
0.042876191 -0.12880091 -0.017577957 8.3782486e-39
0.044734783 -0.12880091 -0.017577957 5.704609e-39
0.046759747 -0.12958528 -0.020590376 5.3379985e-39
0.048623621 -0.12958528 -0.020590376 5.6181727e-39
0.050724983 -0.13063805 -0.024633717 7.4645978e-39
0.052595951 -0.13063805 -0.024633717 6.8206675e-39
0.054466911 -0.13063805 -0.024633717 9.2184728e-39
0.056525983 -0.13140334 -0.02757306 7.6525862e-39
-0.045719579 -0.12567626 0.0014331825 9.956035e-39
-0.043802395 -0.124891 0.004428912 9.9563895e-39
-0.041780062 -0.1230578 0.011422563 1.0048585e-38
-0.039892457 -0.12228753 0.014361192 1.4290311e-38
-0.038089864 -0.12228753 0.014361192 2.3417323e-38
-0.03628727 -0.12228753 0.014361192 2.3509879e-38
-0.034484677 -0.12228753 0.014361192 2.350952e-38
-0.032621078 -0.12149437 0.017387081 2.2956346e-38
-0.030823791 -0.12149437 0.017387081 2.3509883e-38
-0.029026503 -0.12149437 0.017387081 2.3509527e-38
-0.027229218 -0.12149437 0.017387081 2.3509527e-38
-0.025431929 -0.12149437 0.017387081 2.3509527e-38
-0.023669129 -0.12228753 0.014361192 2.3509527e-38
-0.021866536 -0.12228753 0.014361192 2.3509527e-38
-0.020063944 -0.12228753 0.014361192 2.3509527e-38
-0.018261353 -0.12228753 0.014361192 2.3509883e-38
-0.016458759 -0.12228753 0.014361192 2.3509883e-38
-0.014656167 -0.12228753 0.014361192 2.3509883e-38
-0.012853576 -0.12228753 0.014361192 2.3509879e-38
-0.011048406 -0.1230578 0.011422563 2.3048893e-38
-0.0092406627 -0.1230578 0.011422563 1.8254721e-38
-0.0074329171 -0.1230578 0.011422563 1.8069976e-38
-0.0056251734 -0.1230578 0.011422563 1.13397e-38
-0.0037932741 -0.12386028 0.0083611496 9.5865504e-39
-0.0019422425 -0.124891 0.004428912 5.0689674e-39
-0.00012223516 -0.124891 0.004428912 5.5281477e-39
0.0016977713 -0.124891 0.004428912 5.8972861e-39
0.0035177786 -0.124891 0.004428912 6.5422898e-39
0.0053377841 -0.124891 0.004428912 7.2791332e-39
0.0072129425 -0.12567626 0.0014331825 7.5560774e-39
0.0090989564 -0.12646608 -0.0015799515 5.7110858e-39
0.010929499 -0.12646608 -0.0015799515 1.0228673e-38
0.012831774 -0.12726043 -0.0046104901 1.9078737e-38
0.014742352 -0.12803085 -0.0075495951 2.1198884e-38
0.016583361 -0.12803085 -0.0075495951 2.0185096e-38
0.018339342 -0.12726043 -0.0046104901 1.7881296e-38
0.020175198 -0.12726043 -0.0046104901 8.6624516e-39
0.022011055 -0.12726043 -0.0046104901 4.0530218e-39
0.023846908 -0.12726043 -0.0046104901 3.3150896e-39
0.025682764 -0.12726043 -0.0046104901 3.6824274e-39
0.027404381 -0.12646608 -0.0015799515 4.2345166e-39
0.029116055 -0.12567626 0.0014331825 5.7989598e-39
0.030941313 -0.12567626 0.0014331825 1.0682796e-38
0.032766573 -0.12567626 0.0014331825 1.206391e-38
0.034591831 -0.12567626 0.0014331825 1.7226127e-38
0.036834463 -0.12803085 -0.0075495951 1.6673655e-38
0.039159007 -0.13065951 -0.017577957 1.6582181e-38
0.041017599 -0.13065951 -0.017577957 1.7136091e-38
0.042876191 -0.13065951 -0.017577957 7.2715465e-39
0.044734783 -0.13065951 -0.017577957 5.9808413e-39
0.046759747 -0.13144915 -0.020590376 3.0327532e-39
0.048623621 -0.13144915 -0.020590376 2.3916886e-39
0.050487496 -0.13144915 -0.020590376 3.0395705e-39
0.052595951 -0.13250901 -0.024633717 1.9346635e-39
0.054466911 -0.13250901 -0.024633717 2.949893e-39
0.056722425 -0.13408406 -0.03064258 2.4903526e-39
-0.047751464 -0.12909628 -0.0046104901 1.0325192e-38
-0.045817308 -0.1282966 -0.0015799515 1.0509939e-38
-0.043802395 -0.126711 0.004428912 1.1155304e-38
-0.041868627 -0.1256734 0.0083611496 1.1431891e-38
-0.039892457 -0.12409012 0.014361192 1.2814827e-38
-0.038089864 -0.12409012 0.014361192 2.3325129e-38
-0.03628727 -0.12409012 0.014361192 2.3417324e-38
-0.034484677 -0.12409012 0.014361192 2.350988e-38
-0.032621078 -0.12329166 0.017387081 2.3232933e-38
-0.030823791 -0.12329166 0.017387081 2.350988e-38
-0.029026503 -0.12329166 0.017387081 2.3325131e-38
-0.027229218 -0.12329166 0.017387081 2.3509883e-38
-0.025431929 -0.12329166 0.017387081 2.3509883e-38
-0.023634644 -0.12329166 0.017387081 2.3509883e-38
-0.021837356 -0.12329166 0.017387081 2.3509883e-38
-0.020063944 -0.12409012 0.014361192 2.3509883e-38
-0.018261353 -0.12409012 0.014361192 2.3509883e-38
-0.016458759 -0.12409012 0.014361192 2.3509883e-38
-0.014656167 -0.12409012 0.014361192 2.350988e-38
-0.012853576 -0.12409012 0.014361192 2.3509879e-38
-0.011050982 -0.12409012 0.014361192 2.350987e-38
-0.0092483908 -0.12409012 0.014361192 1.7702263e-38
-0.0074329171 -0.12486555 0.011422563 1.6594846e-38
-0.0056251734 -0.12486555 0.011422563 1.0141156e-38
-0.0037932741 -0.1256734 0.0083611496 8.941181e-39
-0.0019422425 -0.126711 0.004428912 4.6079906e-39
-0.00012223516 -0.126711 0.004428912 5.5281491e-39
0.0016977713 -0.126711 0.004428912 6.6344952e-39
0.0035177786 -0.126711 0.004428912 6.5419367e-39
0.0053377841 -0.126711 0.004428912 6.4493753e-39
0.0072129425 -0.1275015 0.0014331825 6.3564566e-39
0.0090989564 -0.1282966 -0.0015799515 4.1430426e-39
0.010929499 -0.1282966 -0.0015799515 1.0227954e-38
0.012831774 -0.12909628 -0.0046104901 2.1659136e-38
0.014742352 -0.12987186 -0.0075495951 2.3507733e-38
0.016583361 -0.12987186 -0.0075495951 2.350594e-38
0.018339342 -0.12909628 -0.0046104901 2.3507733e-38
0.020175198 -0.12909628 -0.0046104901 1.0599286e-38
0.021912752 -0.1282966 -0.0015799515 3.1317886e-39
0.023743296 -0.1282966 -0.0015799515 3.2232569e-39
0.025573837 -0.1282966 -0.0015799515 4.1444873e-39
0.027404381 -0.1282966 -0.0015799515 3.6820631e-39
0.029116055 -0.1275015 0.0014331825 4.8777224e-39
0.030941313 -0.1275015 0.0014331825 1.1145572e-38
0.032766573 -0.1275015 0.0014331825 1.4554274e-38
0.034993455 -0.12987186 -0.0075495951 1.2802177e-38
0.036834463 -0.12987186 -0.0075495951 9.3909222e-39
0.038870968 -0.13094176 -0.011604141 1.1880924e-38
0.041017599 -0.1325181 -0.017577957 1.4462783e-38
0.042876191 -0.1325181 -0.017577957 6.0744481e-39
0.044734783 -0.1325181 -0.017577957 4.0458177e-39
0.046593376 -0.1325181 -0.017577957 3.4951761e-39
0.048623621 -0.13331302 -0.020590376 3.498762e-39
0.050487496 -0.13331302 -0.020590376 2.6718684e-39
0.052595951 -0.13437997 -0.024633717 1.6591584e-39
-0.051533975 -0.13171287 -0.0075495951 1.0509949e-38
-0.049692966 -0.13171287 -0.0075495951 9.9567749e-39
-0.047751464 -0.13093217 -0.0046104901 1.0602144e-38
-0.045817308 -0.13012715 -0.0015799515 1.1617012e-38
-0.043802395 -0.12853102 0.004428912 1.1524454e-38
-0.04198239 -0.12853102 0.004428912 1.0786886e-38
-0.039892457 -0.12589271 0.014361192 1.2630438e-38
-0.038089864 -0.12589271 0.014361192 2.3140737e-38
-0.03628727 -0.12589271 0.014361192 2.3048542e-38
-0.034484677 -0.12589271 0.014361192 2.350988e-38
-0.032621078 -0.12508895 0.017387081 2.350988e-38
-0.030823791 -0.12508895 0.017387081 2.350988e-38
-0.029026503 -0.12508895 0.017387081 2.2864153e-38
-0.027229218 -0.12508895 0.017387081 2.3509883e-38
-0.025431929 -0.12508895 0.017387081 2.3509883e-38
-0.023634644 -0.12508895 0.017387081 2.3509883e-38
-0.021837356 -0.12508895 0.017387081 2.3509883e-38
-0.020040071 -0.12508895 0.017387081 2.3509883e-38
-0.018242782 -0.12508895 0.017387081 2.3509883e-38
-0.016445497 -0.12508895 0.017387081 2.3509883e-38
-0.014648208 -0.12508895 0.017387081 2.350988e-38
-0.012853576 -0.12589271 0.014361192 2.3509876e-38
-0.011050982 -0.12589271 0.014361192 2.350987e-38
-0.0092483908 -0.12589271 0.014361192 1.8071044e-38
-0.0074457992 -0.12589271 0.014361192 1.6042028e-38
-0.0056251734 -0.1266733 0.011422563 1.2261656e-38
-0.0037932741 -0.12748651 0.0083611496 9.1255751e-39
-0.0019422425 -0.12853102 0.004428912 5.8065338e-39
-0.00012223516 -0.12853102 0.004428912 3.9608262e-39
0.0016977713 -0.12853102 0.004428912 4.8827797e-39
0.0035177786 -0.12853102 0.004428912 5.1582861e-39
0.0053377841 -0.12853102 0.004428912 4.3288786e-39
0.0072129425 -0.12932678 0.0014331825 5.3415886e-39
0.0090989564 -0.13012715 -0.0015799515 4.3274339e-39
0.010995919 -0.13093217 -0.0046104901 9.3971145e-39
0.012831774 -0.13093217 -0.0046104901 1.7786917e-38
0.014742352 -0.13171287 -0.0075495951 1.9537921e-38
0.016583361 -0.13171287 -0.0075495951 1.9539008e-38
0.018339342 -0.13093217 -0.0046104901 1.9173479e-38
0.020175198 -0.13093217 -0.0046104901 9.8631626e-39
0.021912752 -0.13012715 -0.0015799515 5.437401e-39
0.023743296 -0.13012715 -0.0015799515 2.6711635e-39
0.025573837 -0.13012715 -0.0015799515 1.6562843e-39
0.027404381 -0.13012715 -0.0015799515 2.6686314e-39
0.029116055 -0.12932678 0.0014331825 4.4181862e-39
0.030941313 -0.12932678 0.0014331825 9.9473918e-39
0.032766573 -0.12932678 0.0014331825 1.3173137e-38
0.034993455 -0.13171287 -0.0075495951 1.3725215e-38
0.036834463 -0.13171287 -0.0075495951 9.9455379e-39
0.038870968 -0.13278987 -0.011604141 9.208333e-39
0.041017599 -0.13437669 -0.017577957 9.762248e-39
0.042876191 -0.13437669 -0.017577957 3.4940536e-39
0.044734783 -0.13437669 -0.017577957 1.561209e-39
0.046593376 -0.13437669 -0.017577957 1.7448982e-39
0.048623621 -0.13517688 -0.020590376 9.1836477e-40
0.050724983 -0.13625093 -0.024633717 2.7550649e-40
0.052595951 -0.13625093 -0.024633717 4.6061521e-40
-0.055383056 -0.134638 -0.011604141 2.350988e-38
-0.053534932 -0.134638 -0.011604141 1.2815193e-38
-0.051533975 -0.13355388 -0.0075495951 1.0970927e-38
-0.049692966 -0.13355388 -0.0075495951 1.1063843e-38
-0.047751464 -0.13276802 -0.0046104901 1.0418473e-38
-0.045915611 -0.13276802 -0.0046104901 1.2078715e-38
-0.043986768 -0.13195769 -0.0015799515 1.0971646e-38
-0.04198239 -0.13035102 0.004428912 1.1985795e-38
-0.040162385 -0.13035102 0.004428912 1.2446407e-38
-0.038089864 -0.12769531 0.014361192 2.0467067e-38
-0.03628727 -0.12769531 0.014361192 2.3509883e-38
-0.034484677 -0.12769531 0.014361192 2.3509883e-38
-0.032621078 -0.12688623 0.017387081 2.3325129e-38
-0.030823791 -0.12688623 0.017387081 2.3417324e-38
-0.028976398 -0.12608187 0.020395327 2.350988e-38
-0.027184384 -0.12608187 0.020395327 2.3325129e-38
-0.02539237 -0.12608187 0.020395327 2.350988e-38
-0.02360036 -0.12608187 0.020395327 2.203439e-38
-0.021808347 -0.12608187 0.020395327 2.350988e-38
-0.020040071 -0.12688623 0.017387081 2.350988e-38
-0.018242782 -0.12688623 0.017387081 2.350952e-38
-0.016445497 -0.12688623 0.017387081 2.350988e-38
-0.014648208 -0.12688623 0.017387081 2.350988e-38
-0.012850923 -0.12688623 0.017387081 2.3509876e-38
-0.011050982 -0.12769531 0.014361192 2.350987e-38
-0.0092483908 -0.12769531 0.014361192 1.7702262e-38
-0.0074457992 -0.12769531 0.014361192 1.622642e-38
-0.0056251734 -0.12848105 0.011422563 1.0970917e-38
-0.0038174288 -0.12848105 0.011422563 9.402162e-39
-0.0019422425 -0.13035102 0.004428912 3.8704256e-39
-0.00012223516 -0.13035102 0.004428912 4.2374102e-39
0.0016977713 -0.13035102 0.004428912 4.5139957e-39
0.0035624243 -0.13115202 0.0014331825 4.9738921e-39
0.0053876843 -0.13115202 0.0014331825 4.1444845e-39
0.0072129425 -0.13115202 0.0014331825 5.1571945e-39
0.0090989564 -0.13195769 -0.0015799515 3.6820631e-39
0.010995919 -0.13276802 -0.0046104901 5.9858762e-39
0.012831774 -0.13276802 -0.0046104901 1.6311787e-38
0.014742352 -0.13355388 -0.0075495951 1.9076942e-38
0.016583361 -0.13355388 -0.0075495951 1.7880205e-38
0.018339342 -0.13276802 -0.0046104901 1.7514674e-38
0.020175198 -0.13276802 -0.0046104901 1.0601444e-38
0.022011055 -0.13276802 -0.0046104901 4.0559029e-39
0.023743296 -0.13195769 -0.0015799515 2.2119819e-39
0.025573837 -0.13195769 -0.0015799515 2.2109001e-39
0.027404381 -0.13195769 -0.0015799515 1.3793345e-39
0.029116055 -0.13115202 0.0014331825 3.1288893e-39
0.030941313 -0.13115202 0.0014331825 6.906378e-39
0.032896005 -0.13195769 -0.0015799515 1.252921e-38
0.035174727 -0.134638 -0.011604141 1.3081288e-38
0.037022851 -0.134638 -0.011604141 6.9970784e-39
0.039014578 -0.13543437 -0.014582586 6.6293777e-39
0.041017599 -0.13623528 -0.017577957 6.9985414e-39
0.042721257 -0.13543437 -0.014582586 2.2054868e-39
0.044574596 -0.13543437 -0.014582586 1.561216e-39
0.046593376 -0.13623528 -0.017577957 9.1837458e-40
0.048623621 -0.13704078 -0.020590376 6.4285688e-40
0.050724983 -0.13812189 -0.024633717 2.7550649e-40
0.052595951 -0.13812189 -0.024633717 9.1835496e-41
-0.057487786 -0.13809387 -0.017577957 2.3509876e-38
-0.055383056 -0.13648613 -0.011604141 2.2957065e-38
-0.053534932 -0.13648613 -0.011604141 1.3091782e-38
-0.051533975 -0.13539489 -0.0075495951 1.1063843e-38
-0.049692966 -0.13539489 -0.0075495951 1.1616661e-38
-0.047751464 -0.13460387 -0.0046104901 1.1156761e-38
-0.045915611 -0.13460387 -0.0046104901 1.2355302e-38
-0.043986768 -0.13378824 -0.0015799515 1.1525898e-38
-0.042069055 -0.13297729 0.0014331825 1.2262382e-38
-0.040243797 -0.13297729 0.0014331825 1.2077628e-38
-0.038242407 -0.13111271 0.0083611496 1.724022e-38
-0.03628727 -0.1294979 0.014361192 2.0559263e-38
-0.034484677 -0.1294979 0.014361192 2.3509523e-38
-0.032621078 -0.12868352 0.017387081 2.350988e-38
-0.030823791 -0.12868352 0.017387081 2.3140737e-38
-0.028976398 -0.12787388 0.020395327 2.3325129e-38
-0.027139815 -0.12706901 0.023385931 2.3509879e-38
-0.025353046 -0.12706901 0.023385931 2.304854e-38
-0.023566278 -0.12706901 0.023385931 2.0559258e-38
-0.021808347 -0.12787388 0.020395327 2.2956345e-38
-0.020016333 -0.12787388 0.020395327 2.3417324e-38
-0.018224323 -0.12787388 0.020395327 2.2495368e-38
-0.01643231 -0.12787388 0.020395327 2.350988e-38
-0.014640298 -0.12787388 0.020395327 2.350988e-38
-0.012850923 -0.12868352 0.017387081 2.3417323e-38
-0.011053635 -0.12868352 0.017387081 2.350987e-38
-0.0092563499 -0.12868352 0.017387081 1.7978848e-38
-0.0074457992 -0.1294979 0.014361192 1.5857637e-38
-0.0056251734 -0.13028879 0.011422563 1.0509936e-38
-0.0038174288 -0.13028879 0.011422563 9.4021592e-39
-0.0019422425 -0.13217102 0.004428912 3.8704242e-39
-0.00012223516 -0.13217102 0.004428912 3.6842351e-39
0.0016977713 -0.13217102 0.004428912 3.684591e-39
0.0035624243 -0.13297729 0.0014331825 3.4994781e-39
0.0053876843 -0.13297729 0.0014331825 3.1303298e-39
0.0072684139 -0.13378824 -0.0015799515 4.0515644e-39
0.0092193242 -0.13539489 -0.0075495951 2.8523024e-39
0.010995919 -0.13460387 -0.0046104901 5.1571945e-39
0.012831774 -0.13460387 -0.0046104901 1.5574225e-38
0.014742352 -0.13539489 -0.0075495951 1.7602531e-38
0.016583361 -0.13539489 -0.0075495951 1.5390923e-38
0.018424369 -0.13539489 -0.0075495951 1.5947345e-38
0.020175198 -0.13460387 -0.0046104901 8.6660515e-39
0.022011055 -0.13460387 -0.0046104901 9.2196751e-40
0.023743296 -0.13378824 -0.0015799515 3.6842939e-40
0.025573837 -0.13378824 -0.0015799515 8.2904461e-40
0.027404381 -0.13378824 -0.0015799515 1.6562815e-39
0.029234922 -0.13378824 -0.0015799515 2.8530227e-39
0.031065466 -0.13378824 -0.0015799515 3.3121903e-39
0.032896005 -0.13378824 -0.0015799515 1.0133567e-38
0.034993455 -0.13539489 -0.0075495951 1.1884906e-38
0.036834463 -0.13539489 -0.0075495951 6.537545e-39
0.038870968 -0.13648613 -0.011604141 4.4177896e-39
0.040719084 -0.13648613 -0.011604141 4.6958128e-39
0.042721257 -0.13728772 -0.014582586 1.1938615e-39
0.044574596 -0.13728772 -0.014582586 1.0102045e-39
0.046593376 -0.13809387 -0.017577957 5.5102979e-40
0.048451968 -0.13809387 -0.017577957 6.4285688e-40
0.05031056 -0.13809387 -0.017577957 2.7550929e-40
-0.059346378 -0.13995247 -0.017577957 1.5396656e-38
-0.057487786 -0.13995247 -0.017577957 2.2403171e-38
-0.055505767 -0.13914107 -0.014582586 2.2495731e-38
-0.053534932 -0.13833423 -0.011604141 1.4659108e-38
-0.051686816 -0.13833423 -0.011604141 1.217019e-38
-0.049692966 -0.13723589 -0.0075495951 1.2630813e-38
-0.047851957 -0.13723589 -0.0075495951 1.2723364e-38
-0.045915611 -0.13643973 -0.0046104901 1.281556e-38
-0.043986768 -0.13561879 -0.0015799515 1.272336e-38
-0.042156227 -0.13561879 -0.0015799515 1.263152e-38
-0.040325686 -0.13561879 -0.0015799515 1.2169823e-38
-0.038342379 -0.13399105 0.004428912 1.5488147e-38
-0.03628727 -0.13130049 0.014361192 1.7793394e-38
-0.034484677 -0.13130049 0.014361192 2.2771958e-38
-0.032621078 -0.13048081 0.017387081 2.3048542e-38
-0.030823791 -0.13048081 0.017387081 2.350988e-38
-0.028976398 -0.1296659 0.020395327 2.3325127e-38
-0.027139815 -0.12885578 0.023385931 2.3509879e-38
-0.025353046 -0.12885578 0.023385931 2.3509879e-38
-0.023566278 -0.12885578 0.023385931 1.8439115e-38
-0.021779507 -0.12885578 0.023385931 2.1112788e-38
-0.020016333 -0.1296659 0.020395327 2.3509879e-38
-0.018224323 -0.1296659 0.020395327 2.3417323e-38
-0.01643231 -0.1296659 0.020395327 2.3509879e-38
-0.014640298 -0.1296659 0.020395327 2.350988e-38
-0.012850923 -0.13048081 0.017387081 2.3509879e-38
-0.011053635 -0.13048081 0.017387081 2.2956695e-38
-0.0092563499 -0.13048081 0.017387081 1.6595197e-38
-0.0074457992 -0.13130049 0.014361192 1.4013725e-38
-0.0056251734 -0.13209651 0.011422563 9.034806e-39
-0.0038174288 -0.13209651 0.011422563 8.8493413e-39
-0.0019422425 -0.13399105 0.004428912 3.7782258e-39
-0.00012223516 -0.13399105 0.004428912 3.5001969e-39
0.0016977713 -0.13399105 0.004428912 3.5001941e-39
0.0035624243 -0.13480256 0.0014331825 4.4217875e-39
0.0054378733 -0.13561879 -0.0015799515 3.0384915e-39
0.0073242076 -0.13643973 -0.0046104901 2.5775106e-39
0.0092193242 -0.13723589 -0.0075495951 1.1938615e-39
0.011060335 -0.13723589 -0.0075495951 2.4842387e-39
0.012901343 -0.13723589 -0.0075495951 1.1979674e-38
0.014742352 -0.13723589 -0.0075495951 1.5574948e-38
0.016583361 -0.13723589 -0.0075495951 1.5299805e-38
0.018424369 -0.13723589 -0.0075495951 1.3551693e-38
0.020175198 -0.13643973 -0.0046104901 7.0990775e-39
0.022011055 -0.13643973 -0.0046104901 5.6051939e-45
0.023743296 -0.13561879 -0.0015799515 1.4751329e-39
0.025573837 -0.13561879 -0.0015799515 3.6806365e-40
0.027404381 -0.13561879 -0.0015799515 1.0119939e-39
0.029116055 -0.13480256 0.0014331825 3.038137e-39
0.030941313 -0.13480256 0.0014331825 2.3905984e-39
0.032896005 -0.13561879 -0.0015799515 7.8297622e-39
0.034862041 -0.13643973 -0.0046104901 1.216222e-38
0.036834463 -0.13723589 -0.0075495951 8.106314e-39
0.038675472 -0.13723589 -0.0075495951 3.5894765e-39
0.040516481 -0.13723589 -0.0075495951 3.7749411e-39
0.042567201 -0.13833423 -0.011604141 9.1835496e-40
0.044415317 -0.13833423 -0.011604141 1.2871501e-39
0.046263441 -0.13833423 -0.011604141 3.673588e-40
0.048111558 -0.13833423 -0.011604141 3.6734899e-40
-0.057359114 -0.14099441 -0.014582586 2.0928042e-38
-0.055505767 -0.14099441 -0.014582586 2.1204998e-38
-0.053534932 -0.14018236 -0.011604141 1.5672904e-38
-0.051686816 -0.14018236 -0.011604141 1.3091431e-38
-0.049838699 -0.14018236 -0.011604141 1.2354226e-38
