# .PCD v0.7 - Point Cloud Data file format
VERSION 0.7
FIELDS x y z rgb
SIZE 4 4 4 4
TYPE F F F F
COUNT 1 1 1 1
WIDTH 932
HEIGHT 1
VIEWPOINT 0 0 0 1 0 0 0
POINTS 932
DATA ascii
-0.029080521 -0.11639442 -0.023144566 2.3418033e-38
-0.027204402 -0.11639442 -0.023144566 2.2680474e-38
-0.025408916 -0.11813726 -0.030219398 2.0929124e-38
-0.023452166 -0.11639442 -0.023144566 2.3509527e-38
-0.021576051 -0.11639442 -0.023144566 2.3233662e-38
0.011886568 -0.1131943 -0.010154091 3.5959645e-39
0.013739909 -0.1131943 -0.010154091 3.4123033e-39
0.015593248 -0.1131943 -0.010154091 4.7037722e-39
0.017446589 -0.1131943 -0.010154091 4.8853006e-39
0.019208539 -0.11246057 -0.0071756467 1.8417686e-39
0.020925142 -0.11146177 -0.0031211004 3.5016389e-39
0.022665661 -0.11073773 -0.00018199533 4.0555203e-39
0.024501517 -0.11073773 -0.00018199533 3.8707633e-39
0.026109546 -0.10924892 0.0058616772 4.4228581e-39
0.027934808 -0.10924892 0.0058616772 3.1317661e-39
-0.069360584 -0.1224993 -0.040189467 1.419884e-38
-0.067454591 -0.1224993 -0.040189467 2.3234376e-38
-0.065402314 -0.12174667 -0.037155829 2.295887e-38
-0.063318491 -0.1207688 -0.033214293 2.3142544e-38
-0.061424721 -0.1207688 -0.033214293 2.3142544e-38
-0.059402306 -0.12002577 -0.030219398 2.3142544e-38
-0.057513777 -0.12002577 -0.030219398 2.3142544e-38
-0.055625256 -0.12002577 -0.030219398 2.3234379e-38
-0.053736735 -0.12002577 -0.030219398 2.341805e-38
-0.051848214 -0.12002577 -0.030219398 2.3509883e-38
-0.049959693 -0.12002577 -0.030219398 2.350988e-38
-0.047941253 -0.11903207 -0.026214086 2.3509521e-38
-0.046059754 -0.11903207 -0.026214086 2.3509879e-38
-0.044178255 -0.11903207 -0.026214086 2.3509521e-38
-0.042296756 -0.11903207 -0.026214086 2.3509883e-38
-0.040517088 -0.12002577 -0.030219398 2.3509883e-38
-0.038628567 -0.12002577 -0.030219398 2.3509883e-38
-0.03665226 -0.11903207 -0.026214086 2.350988e-38
-0.034649603 -0.1175413 -0.020205222 2.3509879e-38
-0.032778639 -0.1175413 -0.020205222 2.2680477e-38
-0.030907676 -0.1175413 -0.020205222 2.3509876e-38
-0.029036712 -0.1175413 -0.020205222 2.3509876e-38
-0.027165752 -0.1175413 -0.020205222 2.2772669e-38
-0.025294784 -0.1175413 -0.020205222 2.3509879e-38
-0.023452166 -0.11827053 -0.023144566 2.3141456e-38
-0.021576051 -0.11827053 -0.023144566 2.1850364e-38
-0.0066284528 -0.11579077 -0.013149463 2.1853248e-38
-0.004793494 -0.11504765 -0.010154091 2.286632e-38
-0.0029401537 -0.11504765 -0.010154091 2.3234379e-38
-0.0010868134 -0.11504765 -0.010154091 2.350988e-38
0.015593248 -0.11504765 -0.010154091 4.4279224e-39
0.017446589 -0.11504765 -0.010154091 5.9923782e-39
0.019208539 -0.1143087 -0.0071756467 5.4384856e-39
0.020731505 -0.11182173 0.0028485432 6.0845626e-39
0.022562049 -0.11182173 0.0028485432 7.467846e-39
0.02439259 -0.11182173 0.0028485432 6.1767415e-39
0.026109546 -0.11107419 0.0058616772 5.8994329e-39
0.027934808 -0.11107419 0.0058616772 7.4664041e-39
0.029760066 -0.11107419 0.0058616772 5.9909251e-39
0.031456638 -0.11033095 0.0088574067 3.7775223e-39
-0.069360584 -0.12440531 -0.040189467 1.4753448e-38
-0.067454591 -0.12440531 -0.040189467 2.277483e-38
-0.065402314 -0.12364738 -0.037155829 2.3142538e-38
-0.063318491 -0.12266256 -0.033214293 2.295887e-38
-0.061424721 -0.12266256 -0.033214293 2.2683362e-38
-0.059402306 -0.12191428 -0.030219398 2.1853604e-38
-0.057513777 -0.12191428 -0.030219398 2.3142544e-38
-0.055625256 -0.12191428 -0.030219398 2.3234379e-38
-0.053736735 -0.12191428 -0.030219398 2.341805e-38
-0.05170425 -0.12091358 -0.026214086 2.3509886e-38
-0.049822751 -0.12091358 -0.026214086 2.3509527e-38
-0.047941253 -0.12091358 -0.026214086 2.3509527e-38
-0.046059754 -0.12091358 -0.026214086 2.3509165e-38
-0.044178255 -0.12091358 -0.026214086 2.3509165e-38
-0.042296756 -0.12091358 -0.026214086 2.3509527e-38
-0.040517088 -0.12191428 -0.030219398 2.3324778e-38
-0.038533758 -0.12091358 -0.026214086 2.3509168e-38
-0.036584985 -0.12014665 -0.023144566 2.3047838e-38
-0.034649603 -0.11941226 -0.020205222 2.3047838e-38
-0.032778639 -0.11941226 -0.020205222 2.3508809e-38
-0.030907676 -0.11941226 -0.020205222 2.3509527e-38
-0.029036712 -0.11941226 -0.020205222 2.2310979e-38
-0.027165752 -0.11941226 -0.020205222 2.3325483e-38
-0.025294784 -0.11941226 -0.020205222 2.350987e-38
-0.023423824 -0.11941226 -0.020205222 2.2495717e-38
-0.021552861 -0.11941226 -0.020205222 2.3048893e-38
-0.0066284528 -0.11764936 -0.013149463 2.3142544e-38
-0.004793494 -0.11690097 -0.010154091 2.2958155e-38
-0.0029401537 -0.11690097 -0.010154091 2.341805e-38
-0.0010868134 -0.11690097 -0.010154091 2.2311342e-38
0.01523988 -0.11365227 0.0028485432 8.2083216e-39
0.017070424 -0.11365227 0.0028485432 6.7317565e-39
0.018900964 -0.11365227 0.0028485432 6.3622482e-39
0.020731505 -0.11365227 0.0028485432 5.7168675e-39
0.02245903 -0.11289944 0.0058616772 5.4406296e-39
0.024284288 -0.11289944 0.0058616772 4.3339135e-39
0.026109546 -0.11289944 0.0058616772 3.7807397e-39
0.027816627 -0.11215095 0.0088574067 5.9923628e-39
0.029636633 -0.11215095 0.0088574067 7.6515352e-39
0.031456638 -0.11215095 0.0088574067 8.8493722e-39
-0.069203675 -0.12554805 -0.037155829 1.5674678e-38
-0.067302994 -0.12554805 -0.037155829 2.2957777e-38
-0.065212265 -0.12455635 -0.033214293 2.3234372e-38
-0.063318491 -0.12455635 -0.033214293 2.2497529e-38
-0.061290819 -0.12380283 -0.030219398 2.3142544e-38
-0.059402306 -0.12380283 -0.030219398 2.3142544e-38
-0.057348747 -0.12279506 -0.026214086 2.3234379e-38
-0.055467252 -0.12279506 -0.026214086 2.341805e-38
-0.053585749 -0.12279506 -0.026214086 2.3509527e-38
-0.05170425 -0.12279506 -0.026214086 2.3509527e-38
-0.049822751 -0.12279506 -0.026214086 2.3509168e-38
-0.047941253 -0.12279506 -0.026214086 2.3509527e-38
-0.046059754 -0.12279506 -0.026214086 2.3509168e-38
-0.044178255 -0.12279506 -0.026214086 2.3509168e-38
-0.042296756 -0.12279506 -0.026214086 2.3509168e-38
-0.040415257 -0.12279506 -0.026214086 1.9728426e-38
-0.038533758 -0.12279506 -0.026214086 2.2861631e-38
-0.036584985 -0.12202276 -0.023144566 2.3509161e-38
-0.034649603 -0.12128322 -0.020205222 2.3509165e-38
-0.032778639 -0.12128322 -0.020205222 2.3509524e-38
-0.030907676 -0.12128322 -0.020205222 2.3417324e-38
-0.029036712 -0.12128322 -0.020205222 2.3509876e-38
-0.027165752 -0.12128322 -0.020205222 2.3509869e-38
-0.025294784 -0.12128322 -0.020205222 2.24028e-38
-0.023423824 -0.12128322 -0.020205222 2.3509876e-38
-0.021552861 -0.12128322 -0.020205222 2.3233296e-38
-0.0085001746 -0.11875431 -0.010154091 2.2681917e-38
-0.0066468343 -0.11875431 -0.010154091 2.3142542e-38
-0.0048169941 -0.11800493 -0.0071756467 2.3234379e-38
-0.0029688757 -0.11800493 -0.0071756467 2.341805e-38
-0.0011207573 -0.11800493 -0.0071756467 2.3509886e-38
0.00072736014 -0.11800493 -0.0071756467 2.350988e-38
0.013409338 -0.11548282 0.0028485432 2.286632e-38
0.01523988 -0.11548282 0.0028485432 2.203693e-38
0.017070424 -0.11548282 0.0028485432 2.2958514e-38
0.018900964 -0.11548282 0.0028485432 1.5213386e-38
0.020731505 -0.11548282 0.0028485432 1.0235172e-38
0.02245903 -0.11472471 0.0058616772 5.9948767e-39
0.024284288 -0.11472471 0.0058616772 4.9810625e-39
0.026109546 -0.11472471 0.0058616772 5.8108232e-39
0.027816627 -0.11397095 0.0088574067 1.0051119e-38
0.029636633 -0.11397095 0.0088574067 2.2312078e-38
0.031456638 -0.11397095 0.0088574067 2.2772691e-38
0.033276647 -0.11397095 0.0088574067 1.2077664e-38
-0.071104363 -0.12744872 -0.037155829 1.3735322e-38
-0.068999812 -0.12645011 -0.033214293 1.7884851e-38
-0.067106038 -0.12645011 -0.033214293 2.3139647e-38
-0.065212265 -0.12645011 -0.033214293 2.3509879e-38
-0.063179344 -0.12569134 -0.030219398 2.3509883e-38
-0.061290819 -0.12569134 -0.030219398 2.3509886e-38
-0.059230242 -0.12467657 -0.026214086 2.3325138e-38
-0.057348747 -0.12467657 -0.026214086 2.3509527e-38
-0.055467252 -0.12467657 -0.026214086 2.3509527e-38
-0.053585749 -0.12467657 -0.026214086 2.3140033e-38
-0.05170425 -0.12467657 -0.026214086 2.2863803e-38
-0.049822751 -0.12467657 -0.026214086 2.3509168e-38
-0.047841687 -0.12389888 -0.023144566 2.3509527e-38
-0.045965571 -0.12389888 -0.023144566 2.2955267e-38
-0.044089455 -0.12389888 -0.023144566 1.9083053e-38
-0.042213339 -0.12389888 -0.023144566 1.6041326e-38
-0.040415257 -0.12467657 -0.026214086 1.3550228e-38
-0.038533758 -0.12467657 -0.026214086 1.58522e-38
-0.036584985 -0.12389888 -0.023144566 2.3509105e-38
-0.034649603 -0.12315418 -0.020205222 2.3509835e-38
-0.032778639 -0.12315418 -0.020205222 2.3509844e-38
-0.030907676 -0.12315418 -0.020205222 2.3509848e-38
-0.029036712 -0.12315418 -0.020205222 2.3418014e-38
-0.027112581 -0.12212978 -0.016161881 2.3509855e-38
-0.025248706 -0.12212978 -0.016161881 2.350987e-38
-0.023384832 -0.12212978 -0.016161881 2.267942e-38
-0.021520957 -0.12212978 -0.016161881 2.3142185e-38
-0.012209467 -0.11985306 -0.0071756467 2.2863077e-38
-0.010361348 -0.11985306 -0.0071756467 2.3509886e-38
-0.0085132299 -0.11985306 -0.0071756467 2.3325846e-38
-0.0066651115 -0.11985306 -0.0071756467 2.3418045e-38
-0.0048489841 -0.11882581 -0.0031211004 2.2128041e-38
-0.0030079754 -0.11882581 -0.0031211004 2.3234379e-38
-0.0011669658 -0.11882581 -0.0031211004 2.341805e-38
0.0006353939 -0.11808117 -0.00018199533 2.3142174e-38
0.0024712496 -0.11808117 -0.00018199533 2.3325846e-38
0.0043560611 -0.11882581 -0.0031211004 2.3509883e-38
0.0061970698 -0.11882581 -0.0031211004 2.3324421e-38
0.0080380784 -0.11882581 -0.0031211004 2.0927337e-38
0.0098146731 -0.11808117 -0.00018199533 2.0928042e-38
0.011650528 -0.11808117 -0.00018199533 2.3509883e-38
0.013409338 -0.11731337 0.0028485432 2.2771972e-38
0.01523988 -0.11731337 0.0028485432 2.3509168e-38
0.017070424 -0.11731337 0.0028485432 2.3417333e-38
0.018900964 -0.11731337 0.0028485432 2.2588661e-38
0.020731505 -0.11731337 0.0028485432 1.7610453e-38
0.022562049 -0.11731337 0.0028485432 5.9948571e-39
0.024284288 -0.11654995 0.0058616772 5.07573e-39
0.026109546 -0.11654995 0.0058616772 5.5367054e-39
0.027816627 -0.11579098 0.0088574067 1.2449622e-38
0.029636633 -0.11579098 0.0088574067 2.3142544e-38
0.031456638 -0.11579098 0.0088574067 2.3142185e-38
0.033276647 -0.11579098 0.0088574067 1.2078732e-38
0.049656704 -0.11579098 0.0088574067 2.2958873e-38
0.05551181 -0.11731337 0.0028485432 7.7494748e-39
0.05734235 -0.11731337 0.0028485432 7.3806937e-39
-0.071104363 -0.12934943 -0.037155829 1.4656197e-38
-0.069203675 -0.12934943 -0.037155829 1.8805365e-38
-0.067106038 -0.1283439 -0.033214293 2.3415512e-38
-0.065212265 -0.1283439 -0.033214293 2.3509517e-38
-0.063179344 -0.12757985 -0.030219398 2.3508804e-38
-0.061290819 -0.12757985 -0.030219398 2.3509168e-38
-0.059230242 -0.12655805 -0.026214086 2.3509168e-38
-0.057348747 -0.12655805 -0.026214086 2.3416615e-38
-0.055467252 -0.12655805 -0.026214086 2.3509168e-38
-0.053585749 -0.12655805 -0.026214086 2.3509168e-38
-0.05170425 -0.12655805 -0.026214086 2.3509527e-38
-0.049822751 -0.12655805 -0.026214086 2.2402099e-38
-0.047841687 -0.12577499 -0.023144566 1.7331336e-38
-0.045965571 -0.12577499 -0.023144566 1.5948757e-38
-0.044004418 -0.12502514 -0.020205222 1.1338618e-38
-0.042133454 -0.12502514 -0.020205222 4.5161467e-39
-0.04033722 -0.12577499 -0.023144566 2.8551652e-39
-0.038461104 -0.12577499 -0.023144566 1.1610819e-38
-0.036520567 -0.12502514 -0.020205222 2.2489885e-38
-0.034649603 -0.12502514 -0.020205222 1.9265568e-38
-0.032778639 -0.12502514 -0.020205222 1.6134165e-38
-0.030907676 -0.12502514 -0.020205222 1.466192e-38
-0.029036712 -0.12502514 -0.020205222 8.1156789e-39
-0.027112581 -0.12399365 -0.016161881 1.6778126e-38
-0.025214374 -0.12322514 -0.013149463 2.3508432e-38
-0.023355782 -0.12322514 -0.013149463 2.3508809e-38
-0.02149719 -0.12322514 -0.013149463 2.2958155e-38
-0.017696675 -0.11837523 0.0058616772 2.2314228e-38
-0.012209467 -0.12170117 -0.0071756467 2.3509527e-38
-0.010372012 -0.12066682 -0.0031211004 2.3509886e-38
-0.0085310033 -0.12066682 -0.0031211004 2.2864868e-38
-0.0066899927 -0.12066682 -0.0031211004 2.3418043e-38
-0.0048489841 -0.12066682 -0.0031211004 2.341805e-38
-0.0030079754 -0.12066682 -0.0031211004 2.3234379e-38
-0.0012004618 -0.11991702 -0.00018199533 2.2036548e-38
0.0006353939 -0.11991702 -0.00018199533 2.3326203e-38
0.0024260841 -0.11914389 0.0028485432 2.341804e-38
0.0042566275 -0.11914389 0.0028485432 2.2957425e-38
0.0060316967 -0.11837523 0.0058616772 2.3509527e-38
0.0078569567 -0.11837523 0.0058616772 2.3509527e-38
0.0096822148 -0.11837523 0.0058616772 2.2771953e-38
0.011507475 -0.11837523 0.0058616772 2.3416603e-38
0.013332735 -0.11837523 0.0058616772 2.3509168e-38
0.015157993 -0.11837523 0.0058616772 2.3509168e-38
0.016983252 -0.11837523 0.0058616772 2.2956362e-38
0.01880851 -0.11837523 0.0058616772 2.341805e-38
0.020633772 -0.11837523 0.0058616772 2.2497178e-38
0.02245903 -0.11837523 0.0058616772 1.2264868e-38
0.024284288 -0.11837523 0.0058616772 1.051561e-38
0.025996618 -0.11761098 0.0088574067 1.4665129e-38
0.027816627 -0.11761098 0.0088574067 2.0655741e-38
0.029636633 -0.11761098 0.0088574067 2.2682283e-38
0.031456638 -0.11761098 0.0088574067 2.2681214e-38
0.033276647 -0.11761098 0.0088574067 1.3278706e-38
0.049656704 -0.11761098 0.0088574067 2.2958873e-38
0.051476717 -0.11761098 0.0088574067 2.2591529e-38
0.053296722 -0.11761098 0.0088574067 2.1669937e-38
0.055116728 -0.11761098 0.0088574067 1.927393e-38
0.057138957 -0.11837523 0.0058616772 1.6139641e-38
0.058964215 -0.11837523 0.0058616772 1.3743637e-38
0.060789473 -0.11837523 0.0058616772 1.3650365e-38
0.062614731 -0.11837523 0.0058616772 1.1806452e-38
-0.07300505 -0.1312501 -0.037155829 1.4564363e-38
-0.071104363 -0.1312501 -0.037155829 1.5578154e-38
-0.069203675 -0.1312501 -0.037155829 1.9819517e-38
-0.067106038 -0.13023765 -0.033214293 2.3509149e-38
-0.065212265 -0.13023765 -0.033214293 2.3509517e-38
-0.063179344 -0.1294684 -0.030219398 2.3047463e-38
-0.061290819 -0.1294684 -0.030219398 2.3415895e-38
-0.059230242 -0.12843956 -0.026214086 2.3509168e-38
-0.057348747 -0.12843956 -0.026214086 2.3324421e-38
-0.055467252 -0.12843956 -0.026214086 2.2955641e-38
-0.053585749 -0.12843956 -0.026214086 2.3416615e-38
-0.05170425 -0.12843956 -0.026214086 2.3509527e-38
-0.049717806 -0.12765111 -0.023144566 2.3508444e-38
-0.047841687 -0.12765111 -0.023144566 1.5856204e-38
-0.045875382 -0.1268961 -0.020205222 1.484169e-38
-0.044004418 -0.1268961 -0.020205222 7.8348195e-39
-0.042133454 -0.1268961 -0.020205222 6.4511647e-39
-0.040262494 -0.1268961 -0.020205222 5.8054142e-39
-0.038391527 -0.1268961 -0.020205222 1.2441299e-38
-0.036520567 -0.1268961 -0.020205222 2.0462302e-38
-0.034649603 -0.1268961 -0.020205222 1.908082e-38
-0.032778639 -0.1268961 -0.020205222 1.3827837e-38
-0.030907676 -0.1268961 -0.020205222 1.3092794e-38
-0.029036712 -0.1268961 -0.020205222 1.0973025e-38
-0.027112581 -0.12585752 -0.016161881 1.3828589e-38
-0.025214374 -0.12508373 -0.013149463 2.2863426e-38
-0.023355782 -0.12508373 -0.013149463 2.2956362e-38
-0.02149719 -0.12508373 -0.013149463 2.3049632e-38
-0.019638598 -0.12508373 -0.013149463 2.2406066e-38
-0.017696675 -0.12020047 0.0058616772 2.3234379e-38
-0.015871413 -0.12020047 0.0058616772 2.3509514e-38
-0.014046154 -0.12020047 0.0058616772 2.3509511e-38
-0.012220896 -0.12020047 0.0058616772 2.2680478e-38
-0.010372012 -0.12250783 -0.0031211004 2.3234379e-38
-0.0085310033 -0.12250783 -0.0031211004 2.3234376e-38
-0.0066899927 -0.12250783 -0.0031211004 2.1851078e-38
-0.0048489841 -0.12250783 -0.0031211004 2.3418045e-38
-0.0030363183 -0.12175287 -0.00018199533 2.3418043e-38
-0.0012004618 -0.12175287 -0.00018199533 2.2865581e-38
0.0006353939 -0.12175287 -0.00018199533 2.3509873e-38
0.0024260841 -0.12097444 0.0028485432 2.3049612e-38
0.0042064385 -0.12020047 0.0058616772 2.3509873e-38
0.0060316967 -0.12020047 0.0058616772 2.3509879e-38
0.0078569567 -0.12020047 0.0058616772 2.3417324e-38
0.0096822148 -0.12020047 0.0058616772 2.350988e-38
0.011507475 -0.12020047 0.0058616772 2.3509883e-38
0.013332735 -0.12020047 0.0058616772 2.3509527e-38
0.015076579 -0.11943097 0.0088574067 2.2956715e-38
0.016896587 -0.11943097 0.0088574067 2.2680492e-38
0.018716592 -0.11943097 0.0088574067 2.341805e-38
0.020536598 -0.11943097 0.0088574067 2.341805e-38
0.022356607 -0.11943097 0.0088574067 1.6413671e-38
0.024176612 -0.11943097 0.0088574067 9.2248739e-39
0.025848385 -0.11842094 0.012789644 1.4756609e-38
0.027661499 -0.11842094 0.012789644 2.3050673e-38
0.029474612 -0.11842094 0.012789644 2.3142544e-38
0.031287722 -0.11842094 0.012789644 2.3142544e-38
0.033100836 -0.11842094 0.012789644 1.3185431e-38
0.046016693 -0.11943097 0.0088574067 2.3234374e-38
0.047605734 -0.11842094 0.012789644 2.3234379e-38
0.049418844 -0.11842094 0.012789644 2.3142544e-38
0.051476717 -0.11943097 0.0088574067 2.2958873e-38
0.053296722 -0.11943097 0.0088574067 2.2867037e-38
0.055116728 -0.11943097 0.0088574067 2.2224189e-38
0.057138957 -0.12020047 0.0058616772 2.102565e-38
0.058964215 -0.12020047 0.0058616772 2.0011861e-38
0.060789473 -0.12020047 0.0058616772 1.8167229e-38
0.062614731 -0.12020047 0.0058616772 1.6599904e-38
0.06443999 -0.12020047 0.0058616772 1.5031139e-38
0.066265255 -0.12020047 0.0058616772 1.4108461e-38
-0.07300505 -0.13315077 -0.037155829 1.1982886e-38
-0.071104363 -0.13315077 -0.037155829 1.3734601e-38
-0.069203675 -0.13315077 -0.037155829 1.8989756e-38
-0.067106038 -0.13213144 -0.033214293 2.3508428e-38
-0.065067858 -0.13135691 -0.030219398 2.3509517e-38
-0.063179344 -0.13135691 -0.030219398 2.3509521e-38
-0.061290819 -0.13135691 -0.030219398 2.3509527e-38
-0.059230242 -0.13032107 -0.026214086 2.3509527e-38
-0.057348747 -0.13032107 -0.026214086 2.3509527e-38
-0.055467252 -0.13032107 -0.026214086 2.3232585e-38
-0.053470038 -0.12952723 -0.023144566 2.3232585e-38
-0.051593922 -0.12952723 -0.023144566 2.3509527e-38
-0.049717806 -0.12952723 -0.023144566 2.3509524e-38
-0.047746345 -0.12876706 -0.020205222 1.567217e-38
-0.045875382 -0.12876706 -0.020205222 1.5487057e-38
-0.043887448 -0.12772138 -0.016161881 6.9121373e-39
-0.042023573 -0.12772138 -0.016161881 7.2805555e-39
-0.040262494 -0.12876706 -0.020205222 7.9255423e-39
-0.038391527 -0.12876706 -0.020205222 1.253493e-38
-0.036520567 -0.12876706 -0.020205222 1.7697874e-38
-0.034568075 -0.12772138 -0.016161881 1.7513494e-38
-0.032704201 -0.12772138 -0.016161881 1.1614421e-38
-0.030907676 -0.12876706 -0.020205222 9.1265798e-39
-0.029036712 -0.12876706 -0.020205222 1.48438e-38
-0.027072966 -0.12694232 -0.013149463 1.7701527e-38
-0.025180239 -0.12616767 -0.010154091 2.3417324e-38
-0.023326896 -0.12616767 -0.010154091 1.2907053e-38
-0.021473557 -0.12616767 -0.010154091 1.0141907e-38
-0.019521933 -0.12202574 0.0058616772 1.0787252e-38
-0.017696675 -0.12202574 0.0058616772 2.1850353e-38
-0.015871413 -0.12202574 0.0058616772 2.3509869e-38
-0.014046154 -0.12202574 0.0058616772 2.3508788e-38
-0.012220896 -0.12202574 0.0058616772 2.341804e-38
-0.010379742 -0.12358873 -0.00018199533 1.9179202e-38
-0.0085438853 -0.12358873 -0.00018199533 1.3646392e-38
-0.0066899927 -0.12434883 -0.0031211004 4.7037694e-39
-0.0048489841 -0.12434883 -0.0031211004 1.0971981e-38
-0.0030363183 -0.12358873 -0.00018199533 2.0376288e-38
-0.0012004618 -0.12358873 -0.00018199533 2.3509866e-38
0.0005955426 -0.12280498 0.0028485432 2.3509866e-38
0.0023811786 -0.12202574 0.0058616772 2.3509869e-38
0.0042064385 -0.12202574 0.0058616772 1.5764351e-38
0.0059765456 -0.121251 0.0088574067 1.8715328e-38
0.007796553 -0.121251 0.0088574067 2.3509869e-38
0.0096165584 -0.121251 0.0088574067 2.350952e-38
0.011507475 -0.12202574 0.0058616772 2.194256e-38
0.013256573 -0.121251 0.0088574067 2.3418047e-38
0.014969715 -0.12023406 0.012789644 2.3418047e-38
0.016782828 -0.12023406 0.012789644 2.341805e-38
0.018595938 -0.12023406 0.012789644 2.2957079e-38
0.020409051 -0.12023406 0.012789644 2.3141466e-38
0.022222161 -0.12023406 0.012789644 2.3418025e-38
0.024176612 -0.121251 0.0088574067 1.6691644e-38
0.025848385 -0.12023406 0.012789644 2.176348e-38
0.027661499 -0.12023406 0.012789644 2.3418021e-38
0.029474612 -0.12023406 0.012789644 2.2865955e-38
0.031287722 -0.12023406 0.012789644 2.2496467e-38
0.033100836 -0.12023406 0.012789644 8.0224729e-39
0.040556673 -0.121251 0.0088574067 2.3142544e-38
0.042376678 -0.121251 0.0088574067 2.3142537e-38
0.044196688 -0.121251 0.0088574067 2.3234364e-38
0.046016693 -0.121251 0.0088574067 2.3418045e-38
0.047605734 -0.12023406 0.012789644 2.3326213e-38
0.049418844 -0.12023406 0.012789644 2.2958154e-38
0.051231958 -0.12023406 0.012789644 2.2958873e-38
0.053296722 -0.121251 0.0088574067 2.2775202e-38
0.055116728 -0.121251 0.0088574067 2.2775202e-38
0.056936733 -0.121251 0.0088574067 2.2775202e-38
0.058756739 -0.121251 0.0088574067 2.2683366e-38
0.060576744 -0.121251 0.0088574067 2.2775202e-38
0.062614731 -0.12202574 0.0058616772 2.2775202e-38
0.06443999 -0.12202574 0.0058616772 2.2958873e-38
0.066036768 -0.121251 0.0088574067 2.3142544e-38
0.067856774 -0.121251 0.0088574067 2.3141467e-38
0.069676779 -0.121251 0.0088574067 2.3509527e-38
-0.071104363 -0.13505147 -0.037155829 1.3089232e-38
-0.069203675 -0.13505147 -0.037155829 1.7975602e-38
-0.067106038 -0.1340252 -0.033214293 2.2401358e-38
-0.065067858 -0.13324542 -0.030219398 2.313965e-38
-0.063179344 -0.13324542 -0.030219398 2.3232211e-38
-0.061111744 -0.13220255 -0.026214086 2.3509164e-38
-0.059230242 -0.13220255 -0.026214086 2.3140387e-38
-0.057222273 -0.13140334 -0.023144566 2.3509527e-38
-0.05534615 -0.13140334 -0.023144566 2.3509527e-38
-0.053470038 -0.13140334 -0.023144566 2.3509527e-38
-0.051593922 -0.13140334 -0.023144566 2.3509527e-38
-0.049617309 -0.13063805 -0.020205222 2.2494289e-38
-0.047746345 -0.13063805 -0.020205222 1.4658018e-38
-0.045751318 -0.12958528 -0.016161881 1.5579252e-38
-0.043887448 -0.12958528 -0.016161881 7.7422525e-39
-0.042023573 -0.12958528 -0.016161881 7.1876228e-39
-0.040262494 -0.13063805 -0.020205222 8.5705418e-39
-0.038295824 -0.12958528 -0.016161881 1.4472836e-38
-0.03643195 -0.12958528 -0.016161881 1.8160657e-38
-0.034568075 -0.12958528 -0.016161881 1.5946171e-38
-0.032704201 -0.12958528 -0.016161881 1.2718971e-38
-0.030907676 -0.13063805 -0.020205222 8.294657e-39
-0.029036712 -0.13063805 -0.020205222 1.6778467e-38
-0.027072966 -0.12880091 -0.013149463 1.7241274e-38
-0.025180239 -0.12802102 -0.010154091 1.8901899e-38
-0.023326896 -0.12802102 -0.010154091 8.8515218e-39
-0.021394875 -0.12542458 -0.00018199533 8.2972662e-39
-0.019540422 -0.12463553 0.0028485432 1.0232625e-38
-0.017696675 -0.12385099 0.0058616772 2.101842e-38
-0.015871413 -0.12385099 0.0058616772 2.3507705e-38
-0.014046154 -0.12385099 0.0058616772 2.3140365e-38
-0.012220896 -0.12385099 0.0058616772 2.1022745e-38
-0.010379742 -0.12542458 -0.00018199533 1.6414411e-38
-0.0085438853 -0.12542458 -0.00018199533 1.4015897e-38
-0.0066899927 -0.12618984 -0.0031211004 5.625004e-39
-0.0048489841 -0.12618984 -0.0031211004 8.7592715e-39
-0.0030363183 -0.12542458 -0.00018199533 1.6779201e-38
-0.0012004618 -0.12542458 -0.00018199533 2.2586098e-38
0.0005955426 -0.12463553 0.0028485432 2.3322947e-38
0.0023811786 -0.12385099 0.0058616772 2.3509502e-38
0.0042064385 -0.12385099 0.0058616772 1.5946933e-38
0.0059765456 -0.123071 0.0088574067 1.935924e-38
0.007796553 -0.123071 0.0088574067 2.2218394e-38
0.0096165584 -0.123071 0.0088574067 2.3509879e-38
0.011436566 -0.123071 0.0088574067 2.341805e-38
0.013256573 -0.123071 0.0088574067 2.2866307e-38
0.014886516 -0.12125005 0.015851058 2.258972e-38
0.016694259 -0.12125005 0.015851058 2.2957078e-38
0.018502004 -0.12125005 0.015851058 2.3509527e-38
0.020309746 -0.12125005 0.015851058 2.3509886e-38
0.022222161 -0.12204717 0.012789644 2.350986e-38
0.024176612 -0.123071 0.0088574067 1.4938853e-38
0.025996618 -0.123071 0.0088574067 2.0932285e-38
0.027540725 -0.12125005 0.015851058 2.3326182e-38
0.02934847 -0.12125005 0.015851058 2.332621e-38
0.031585325 -0.12385099 0.0058616772 1.5488883e-38
0.033410586 -0.12385099 0.0058616772 6.8235696e-39
0.034771703 -0.12125005 0.015851058 8.7607288e-39
0.036579449 -0.12125005 0.015851058 1.337051e-38
0.038387194 -0.12125005 0.015851058 1.7518263e-38
0.040194936 -0.12125005 0.015851058 2.323402e-38
0.042166397 -0.12204717 0.012789644 2.1852875e-38
0.043979511 -0.12204717 0.012789644 2.2313486e-38
0.045792621 -0.12204717 0.012789644 2.3418045e-38
0.047605734 -0.12204717 0.012789644 2.341805e-38
0.049418844 -0.12204717 0.012789644 2.3233662e-38
0.051231958 -0.12204717 0.012789644 2.3234379e-38
0.053045072 -0.12204717 0.012789644 2.3142544e-38
0.054858185 -0.12204717 0.012789644 2.2958873e-38
0.056671292 -0.12204717 0.012789644 2.2867037e-38
0.058484405 -0.12204717 0.012789644 2.2867037e-38
0.060297519 -0.12204717 0.012789644 2.2407142e-38
0.062396757 -0.123071 0.0088574067 2.2222031e-38
0.06443999 -0.12385099 0.0058616772 2.2405343e-38
0.066036768 -0.123071 0.0088574067 2.2958154e-38
0.067856774 -0.123071 0.0088574067 2.3048907e-38
-0.071104363 -0.13695215 -0.037155829 1.3458014e-38
-0.068999812 -0.13591899 -0.033214293 1.6869973e-38
-0.067106038 -0.13591899 -0.033214293 1.981988e-38
-0.065212265 -0.13591899 -0.033214293 2.0004999e-38
-0.063179344 -0.13513394 -0.030219398 2.0558538e-38
-0.061111744 -0.13408406 -0.026214086 2.1389023e-38
-0.059230242 -0.13408406 -0.026214086 2.1296472e-38
-0.057222273 -0.13327946 -0.023144566 2.0558907e-38
-0.05534615 -0.13327946 -0.023144566 1.9913537e-38
-0.053470038 -0.13327946 -0.023144566 1.9452559e-38
-0.051593922 -0.13327946 -0.023144566 1.9268524e-38
-0.049617309 -0.13250901 -0.020205222 1.862243e-38
-0.047615193 -0.13144915 -0.016161881 1.2353124e-38
-0.045751318 -0.13144915 -0.016161881 1.2260566e-38
-0.043887448 -0.13144915 -0.016161881 5.6213873e-39
-0.042023573 -0.13144915 -0.016161881 5.5277315e-39
-0.040159699 -0.13144915 -0.016161881 1.0138574e-38
-0.038295824 -0.13144915 -0.016161881 1.3552319e-38
-0.03643195 -0.13144915 -0.016161881 1.4843058e-38
-0.034568075 -0.13144915 -0.016161881 1.4747631e-38
-0.032704201 -0.13144915 -0.016161881 1.3732404e-38
-0.030840326 -0.13144915 -0.016161881 8.9385872e-39
-0.028976452 -0.13144915 -0.016161881 2.0095712e-38
-0.027112581 -0.13144915 -0.016161881 2.1574831e-38
-0.025214374 -0.13065951 -0.013149463 2.148374e-38
-0.023355782 -0.13065951 -0.013149463 1.9361821e-38
-0.021394875 -0.12726043 -0.00018199533 1.6226079e-38
-0.019540422 -0.12646608 0.0028485432 1.4472171e-38
-0.017709881 -0.12646608 0.0028485432 1.3826787e-38
-0.015879337 -0.12646608 0.0028485432 1.2812646e-38
-0.014046154 -0.12567626 0.0058616772 9.2199035e-39
-0.012220896 -0.12567626 0.0058616772 8.2997479e-39
-0.010372012 -0.12803085 -0.0031211004 2.5850636e-39
-0.0085310033 -0.12803085 -0.0031211004 3.1360905e-39
-0.0066899927 -0.12803085 -0.0031211004 3.4115872e-39
-0.0048489841 -0.12803085 -0.0031211004 9.5879419e-39
-0.0030363183 -0.12726043 -0.00018199533 1.3919329e-38
-0.0012349999 -0.12646608 0.0028485432 1.9725864e-38
0.0005955426 -0.12646608 0.0028485432 2.3505892e-38
0.0023811786 -0.12567626 0.0058616772 2.3504091e-38
0.0041565383 -0.124891 0.0088574067 7.2783751e-39
0.0059765456 -0.124891 0.0088574067 1.5117152e-38
0.007796553 -0.124891 0.0088574067 2.3509846e-38
0.0096165584 -0.124891 0.0088574067 2.3508795e-38
0.011436566 -0.124891 0.0088574067 2.2772318e-38
0.013256573 -0.124891 0.0088574067 2.2958859e-38
0.014886516 -0.1230578 0.015851058 2.3234372e-38
0.016694259 -0.1230578 0.015851058 2.3509527e-38
0.018502004 -0.1230578 0.015851058 2.3509527e-38
0.020309746 -0.1230578 0.015851058 2.3141103e-38
0.022117492 -0.1230578 0.015851058 1.9915307e-38
0.023925237 -0.1230578 0.015851058 1.3740316e-38
0.025622204 -0.12228753 0.018789686 2.0747181e-38
0.027424797 -0.12228753 0.018789686 2.2404227e-38
0.029227391 -0.12228753 0.018789686 2.231134e-38
0.031456638 -0.124891 0.0088574067 1.6871095e-38
0.033276647 -0.124891 0.0088574067 3.6878364e-39
0.034771703 -0.1230578 0.015851058 4.0576727e-39
0.036579449 -0.1230578 0.015851058 1.1249288e-38
0.038387194 -0.1230578 0.015851058 1.576654e-38
0.040194936 -0.1230578 0.015851058 2.3234379e-38
0.042166397 -0.12386028 0.012789644 2.3234374e-38
0.043979511 -0.12386028 0.012789644 2.3234369e-38
0.045792621 -0.12386028 0.012789644 2.2864513e-38
0.047605734 -0.12386028 0.012789644 2.3509886e-38
0.049418844 -0.12386028 0.012789644 2.3509886e-38
0.051231958 -0.12386028 0.012789644 2.341805e-38
0.053045072 -0.12386028 0.012789644 2.2958155e-38
0.054858185 -0.12386028 0.012789644 2.268193e-38
0.056671292 -0.12386028 0.012789644 2.2775202e-38
0.058272384 -0.1230578 0.015851058 2.2958873e-38
0.060080126 -0.1230578 0.015851058 2.2958873e-38
0.061887875 -0.1230578 0.015851058 2.3142544e-38
0.063695617 -0.1230578 0.015851058 2.3234379e-38
-0.07300505 -0.13885282 -0.037155829 1.1799213e-38
-0.071104363 -0.13885282 -0.037155829 1.2628254e-38
-0.068999812 -0.13781275 -0.033214293 1.5302647e-38
-0.067106038 -0.13781275 -0.033214293 1.7054011e-38
-0.065212265 -0.13781275 -0.033214293 1.6593757e-38
-0.063179344 -0.13702248 -0.030219398 1.7516079e-38
-0.061290819 -0.13702248 -0.030219398 1.9268521e-38
-0.059230242 -0.13596557 -0.026214086 1.9821697e-38
-0.057348747 -0.13596557 -0.026214086 2.0835849e-38
-0.05534615 -0.13515557 -0.023144566 1.8991937e-38
-0.053470038 -0.13515557 -0.023144566 1.7607923e-38
-0.051593922 -0.13515557 -0.023144566 1.7331334e-38
-0.049617309 -0.13437997 -0.020205222 1.6593407e-38
-0.047615193 -0.13331302 -0.016161881 1.1061667e-38
-0.045751318 -0.13331302 -0.016161881 9.4014221e-39
-0.043887448 -0.13331302 -0.016161881 5.0678519e-39
-0.042023573 -0.13331302 -0.016161881 3.5912701e-39
-0.040159699 -0.13331302 -0.016161881 9.1236946e-39
-0.038295824 -0.13331302 -0.016161881 1.0325835e-38
-0.03643195 -0.13331302 -0.016161881 1.2446337e-38
-0.034568075 -0.13331302 -0.016161881 1.4840551e-38
-0.032704201 -0.13331302 -0.016161881 1.1150209e-38
-0.030840326 -0.13331302 -0.016161881 7.9226374e-39
-0.028931558 -0.1325181 -0.013149463 1.8804613e-38
-0.027072966 -0.1325181 -0.013149463 2.2312759e-38
-0.025180239 -0.13172771 -0.010154091 1.9733102e-38
-0.023298174 -0.13094176 -0.0071756467 2.1667426e-38
-0.021418065 -0.12987186 -0.0031211004 1.6410103e-38
-0.019559022 -0.12909628 -0.00018199533 1.4286686e-38
-0.017709881 -0.1282966 0.0028485432 1.4009732e-38
-0.015879337 -0.1282966 0.0028485432 1.4933144e-38
-0.014046154 -0.1275015 0.0058616772 1.0234055e-38
-0.012220896 -0.1275015 0.0058616772 7.3777916e-39
-0.010379742 -0.12909628 -0.00018199533 4.7041211e-39
-0.0085438853 -0.12909628 -0.00018199533 4.1491551e-39
-0.0066899927 -0.12987186 -0.0031211004 5.3458892e-39
-0.004872174 -0.12909628 -0.00018199533 9.6783355e-39
-0.0030655423 -0.1282966 0.0028485432 9.2144693e-39
-0.0012693396 -0.1275015 0.0058616772 1.5113196e-38
0.00055591948 -0.1275015 0.0058616772 2.3505165e-38
0.0023811786 -0.1275015 0.0058616772 2.3508406e-38
0.0041565383 -0.126711 0.0088574067 1.1332456e-38
0.0059765456 -0.126711 0.0088574067 1.5298662e-38
0.007796553 -0.126711 0.0088574067 2.3509123e-38
0.0095303776 -0.1256734 0.012789644 2.3230402e-38
0.011343489 -0.1256734 0.012789644 2.3140016e-38
0.013156603 -0.1256734 0.012789644 2.2311691e-38
0.014886516 -0.12486555 0.015851058 2.2865587e-38
0.016694259 -0.12486555 0.015851058 2.3509527e-38
0.018502004 -0.12486555 0.015851058 2.332478e-38
0.020309746 -0.12486555 0.015851058 2.3509883e-38
0.022117492 -0.12486555 0.015851058 1.1432949e-38
0.023925237 -0.12486555 0.015851058 8.6684827e-39
0.025622204 -0.12409012 0.018789686 1.9639763e-38
0.027305424 -0.12329166 0.021815576 2.350986e-38
0.029102713 -0.12329166 0.021815576 2.2126588e-38
0.031029981 -0.12409012 0.018789686 1.7055124e-38
0.032832574 -0.12409012 0.018789686 6.7292104e-39
0.034635168 -0.12409012 0.018789686 3.2268302e-39
0.036437757 -0.12409012 0.018789686 9.8656344e-39
0.038387194 -0.12486555 0.015851058 1.7978511e-38
0.040194936 -0.12486555 0.015851058 2.2957796e-38
0.042166397 -0.1256734 0.012789644 2.1391181e-38
0.043979511 -0.1256734 0.012789644 2.3142535e-38
0.045792621 -0.1256734 0.012789644 2.3509883e-38
0.047605734 -0.1256734 0.012789644 2.3509886e-38
0.049418844 -0.1256734 0.012789644 2.3233299e-38
0.051231958 -0.1256734 0.012789644 2.341805e-38
0.053045072 -0.1256734 0.012789644 2.341805e-38
0.054858185 -0.1256734 0.012789644 2.3234379e-38
0.056464642 -0.12486555 0.015851058 2.3234379e-38
0.058068864 -0.12409012 0.018789686 2.2866674e-38
0.059871458 -0.12409012 0.018789686 2.2129109e-38
0.061234981 -0.12249784 0.024823822 2.2313137e-38
0.063026994 -0.12249784 0.024823822 2.2957425e-38
0.064819008 -0.12249784 0.024823822 2.3325846e-38
0.066611022 -0.12249784 0.024823822 2.3509879e-38
0.068403035 -0.12249784 0.024823822 2.3509876e-38
0.070440307 -0.12329166 0.021815576 2.3508793e-38
-0.07451047 -0.13891099 -0.030219398 1.2813735e-38
-0.072621942 -0.13891099 -0.030219398 1.3458735e-38
-0.070893586 -0.13970654 -0.033214293 1.4011907e-38
-0.068999812 -0.13970654 -0.033214293 1.5763269e-38
-0.067106038 -0.13970654 -0.033214293 1.5764351e-38
-0.065212265 -0.13970654 -0.033214293 1.3828607e-38
-0.063179344 -0.13891099 -0.030219398 1.3736059e-38
-0.061290819 -0.13891099 -0.030219398 1.5211912e-38
-0.059230242 -0.13784705 -0.026214086 1.5672891e-38
-0.057348747 -0.13784705 -0.026214086 1.5949481e-38
-0.05534615 -0.13703169 -0.023144566 1.4658739e-38
-0.053470038 -0.13703169 -0.023144566 1.38279e-38
-0.051342942 -0.13517688 -0.016161881 1.355167e-38
-0.049479067 -0.13517688 -0.016161881 1.1799232e-38
-0.047615193 -0.13517688 -0.016161881 6.5444366e-39
-0.045751318 -0.13517688 -0.016161881 5.7135941e-39
-0.043887448 -0.13517688 -0.016161881 5.2522404e-39
-0.042023573 -0.13517688 -0.016161881 6.1723666e-39
-0.040159699 -0.13517688 -0.016161881 6.1734316e-39
-0.038295824 -0.13517688 -0.016161881 7.8376347e-39
-0.03643195 -0.13517688 -0.016161881 1.309315e-38
-0.034568075 -0.13517688 -0.016161881 1.3088484e-38
-0.032704201 -0.13517688 -0.016161881 6.2634902e-39
-0.03079015 -0.13437669 -0.013149463 8.0141184e-39
-0.028931558 -0.13437669 -0.013149463 1.5207548e-38
-0.027033579 -0.13358103 -0.010154091 1.2816609e-38
-0.025146294 -0.13278987 -0.0071756467 2.5854335e-39
-0.023259073 -0.13171287 -0.0031211004 8.8525867e-39
-0.021418065 -0.13171287 -0.0031211004 1.6779239e-38
-0.019559022 -0.13093217 -0.00018199533 1.8710633e-38
-0.017723165 -0.13093217 -0.00018199533 1.6313897e-38
-0.015879337 -0.13012715 0.0028485432 1.6961448e-38
-0.014048795 -0.13012715 0.0028485432 1.8346914e-38
-0.012218255 -0.13012715 0.0028485432 1.5121148e-38
-0.010379742 -0.13093217 -0.00018199533 1.3277236e-38
-0.0085438853 -0.13093217 -0.00018199533 6.6373483e-39
-0.0066899927 -0.13171287 -0.0031211004 4.3306484e-39
-0.004872174 -0.13093217 -0.00018199533 9.6754614e-39
-0.0030655423 -0.13012715 0.0028485432 9.8576835e-39
-0.0012693396 -0.12932678 0.0058616772 1.5295065e-38
0.00055591948 -0.12932678 0.0058616772 2.3505879e-38
0.0023811786 -0.12932678 0.0058616772 2.35066e-38
0.0041565383 -0.12853102 0.0088574067 6.0755019e-39
0.0059765456 -0.12853102 0.0088574067 8.1970831e-39
0.007796553 -0.12853102 0.0088574067 2.1383588e-38
0.0095303776 -0.12748651 0.012789644 2.0463086e-38
0.011343489 -0.12748651 0.012789644 2.1386851e-38
0.013156603 -0.12748651 0.012789644 2.3509873e-38
0.014886516 -0.1266733 0.015851058 2.350988e-38
0.016694259 -0.1266733 0.015851058 2.3509527e-38
0.018502004 -0.1266733 0.015851058 2.314039e-38
0.020309746 -0.1266733 0.015851058 2.350988e-38
0.022017021 -0.12589271 0.018789686 5.439154e-39
0.023819614 -0.12589271 0.018789686 9.2205831e-39
0.025622204 -0.12589271 0.018789686 2.3509834e-38
0.027305424 -0.12508895 0.021815576 2.350986e-38
0.029102713 -0.12508895 0.021815576 7.1894543e-39
0.030899998 -0.12508895 0.021815576 5.6214237e-39
0.032697286 -0.12508895 0.021815576 4.1470083e-39
0.034494571 -0.12508895 0.021815576 5.9919789e-39
0.03629186 -0.12508895 0.021815576 1.161699e-38
0.038240351 -0.12589271 0.018789686 1.7332778e-38
0.040042941 -0.12589271 0.018789686 2.3325856e-38
0.042002682 -0.1266733 0.015851058 2.3418047e-38
0.043979511 -0.12748651 0.012789644 2.3418045e-38
0.045792621 -0.12748651 0.012789644 2.3048905e-38
0.047605734 -0.12748651 0.012789644 2.3509527e-38
0.049418844 -0.12748651 0.012789644 2.3509886e-38
0.051041402 -0.1266733 0.015851058 2.3509886e-38
0.052849151 -0.1266733 0.015851058 2.304891e-38
0.054656893 -0.1266733 0.015851058 2.2865235e-38
0.056266271 -0.12589271 0.018789686 2.3326213e-38
0.057859302 -0.12508895 0.021815576 2.3234376e-38
0.05965659 -0.12508895 0.021815576 2.3418047e-38
0.061234981 -0.12428986 0.024823822 2.3418045e-38
0.062804148 -0.12349547 0.027814426 2.3509879e-38
0.064590916 -0.12349547 0.027814426 2.3509874e-38
0.066377684 -0.12349547 0.027814426 2.3509513e-38
0.068403035 -0.12428986 0.024823822 2.350951e-38
0.070195049 -0.12428986 0.024823822 2.3508431e-38
0.071987063 -0.12428986 0.024823822 1.4011927e-38
-0.076163724 -0.13972856 -0.026214086 1.2353477e-38
-0.074282229 -0.13972856 -0.026214086 1.3274713e-38
-0.072621942 -0.14079951 -0.030219398 1.3366183e-38
-0.070893586 -0.1416003 -0.033214293 1.3919713e-38
-0.0688449 -0.14079951 -0.030219398 1.4656922e-38
-0.066956386 -0.14079951 -0.030219398 1.4104474e-38
-0.065067858 -0.14079951 -0.030219398 1.3367629e-38
-0.063179344 -0.14079951 -0.030219398 1.392045e-38
-0.061111744 -0.13972856 -0.026214086 1.4105564e-38
-0.059230242 -0.13972856 -0.026214086 1.3460195e-38
-0.057222273 -0.13890781 -0.023144566 1.4474348e-38
-0.05534615 -0.13890781 -0.023144566 1.3183609e-38
-0.053470038 -0.13890781 -0.023144566 1.3920095e-38
-0.051342942 -0.13704078 -0.016161881 1.2537518e-38
-0.049479067 -0.13704078 -0.016161881 1.0416297e-38
-0.047615193 -0.13704078 -0.016161881 5.3448144e-39
-0.045751318 -0.13704078 -0.016161881 4.3299408e-39
-0.043800298 -0.13623528 -0.013149463 6.9117617e-39
-0.041941706 -0.13623528 -0.013149463 6.9099316e-39
-0.040159699 -0.13704078 -0.016161881 6.9120784e-39
-0.038295824 -0.13704078 -0.016161881 7.5614121e-39
-0.03643195 -0.13704078 -0.016161881 1.0142539e-38
-0.034568075 -0.13704078 -0.016161881 1.0782885e-38
-0.032704201 -0.13704078 -0.016161881 4.9724025e-39
-0.03079015 -0.13623528 -0.013149463 4.9713137e-39
-0.028931558 -0.13623528 -0.013149463 1.4562903e-38
-0.027033579 -0.13543437 -0.010154091 1.2817688e-38
-0.025146294 -0.134638 -0.0071756467 4.9832359e-39
-0.023259073 -0.13355388 -0.0031211004 9.0373325e-39
-0.021418065 -0.13355388 -0.0031211004 1.2907377e-38
-0.019559022 -0.13276802 -0.00018199533 1.6867074e-38
-0.017723165 -0.13276802 -0.00018199533 1.5945113e-38
-0.015887309 -0.13276802 -0.00018199533 1.6131689e-38
-0.014051453 -0.13276802 -0.00018199533 1.5120072e-38
-0.012215597 -0.13276802 -0.00018199533 1.5765804e-38
-0.010379742 -0.13276802 -0.00018199533 1.2354203e-38
-0.0085438853 -0.13276802 -0.00018199533 6.912489e-39
-0.0066899927 -0.13355388 -0.0031211004 4.6979876e-39
-0.004872174 -0.13276802 -0.00018199533 6.8148872e-39
-0.0030655423 -0.13195769 0.0028485432 6.4442984e-39
-0.0012693396 -0.13115202 0.0058616772 1.0960072e-38
0.00055591948 -0.13115202 0.0058616772 2.3498312e-38
0.0023811786 -0.13115202 0.0058616772 2.3503354e-38
0.0041565383 -0.13035102 0.0088574067 7.0871356e-39
0.0059765456 -0.13035102 0.0088574067 7.4577314e-39
0.007796553 -0.13035102 0.0088574067 1.5296166e-38
0.0095303776 -0.1292996 0.012789644 2.1107371e-38
0.011343489 -0.1292996 0.012789644 2.3322232e-38
0.013156603 -0.1292996 0.012789644 2.2862707e-38
0.014886516 -0.12848105 0.015851058 2.3509524e-38
0.016694259 -0.12848105 0.015851058 2.3415898e-38
0.018502004 -0.12848105 0.015851058 2.3509168e-38
0.020214427 -0.12769531 0.018789686 2.304782e-38
0.022017021 -0.12769531 0.018789686 7.466739e-39
0.023819614 -0.12769531 0.018789686 1.1155618e-38
0.025622204 -0.12769531 0.018789686 2.3509472e-38
0.027305424 -0.12688623 0.021815576 2.3509863e-38
0.029102713 -0.12688623 0.021815576 4.6990933e-39
0.030899998 -0.12688623 0.021815576 3.7764307e-39
0.032697286 -0.12688623 0.021815576 4.6065445e-39
0.034494571 -0.12688623 0.021815576 4.9771081e-39
0.03629186 -0.12688623 0.021815576 1.2814454e-38
0.038240351 -0.12769531 0.018789686 1.6687043e-38
0.040042941 -0.12769531 0.018789686 2.341769e-38
0.042002682 -0.12848105 0.015851058 2.3418047e-38
0.043979511 -0.1292996 0.012789644 2.3141819e-38
0.045792621 -0.1292996 0.012789644 2.3509883e-38
0.047605734 -0.1292996 0.012789644 2.3417327e-38
0.049418844 -0.1292996 0.012789644 2.3325131e-38
0.051041402 -0.12848105 0.015851058 2.3509883e-38
0.052849151 -0.12848105 0.015851058 2.3509886e-38
0.054463677 -0.12769531 0.018789686 2.3325494e-38
0.056266271 -0.12769531 0.018789686 2.3233299e-38
0.057650961 -0.12608187 0.024823822 2.3418047e-38
0.059442975 -0.12608187 0.024823822 2.3509883e-38
0.061017379 -0.12528224 0.027814426 2.350988e-38
0.062582605 -0.1244873 0.030787505 2.2680474e-38
0.064364158 -0.1244873 0.030787505 2.3509873e-38
0.066145718 -0.1244873 0.030787505 2.3509869e-38
0.068164453 -0.12528224 0.027814426 2.2863059e-38
0.070195049 -0.12608187 0.024823822 2.3509866e-38
0.071987063 -0.12608187 0.024823822 1.3551302e-38
-0.079926729 -0.14161004 -0.026214086 1.0048231e-38
-0.078045234 -0.14161004 -0.026214086 1.1338969e-38
-0.076163724 -0.14161004 -0.026214086 1.2906651e-38
-0.074282229 -0.14161004 -0.026214086 1.3828606e-38
-0.072621942 -0.14268802 -0.030219398 1.2906284e-38
-0.070733428 -0.14268802 -0.030219398 1.3090675e-38
-0.0688449 -0.14268802 -0.030219398 1.3459461e-38
-0.066956386 -0.14268802 -0.030219398 1.2722258e-38
-0.065067858 -0.14268802 -0.030219398 1.2076534e-38
-0.063179344 -0.14268802 -0.030219398 1.2814102e-38
-0.061111744 -0.14161004 -0.026214086 1.3367999e-38
-0.059230242 -0.14161004 -0.026214086 1.2814825e-38
-0.057222273 -0.14078392 -0.023144566 1.3644587e-38
-0.05534615 -0.14078392 -0.023144566 1.3183609e-38
-0.053470038 -0.14078392 -0.023144566 1.3736061e-38
-0.051342942 -0.13890465 -0.016161881 1.1799234e-38
-0.049479067 -0.13890465 -0.016161881 9.6780118e-39
-0.047615193 -0.13890465 -0.016161881 5.1604231e-39
-0.045751318 -0.13890465 -0.016161881 4.8831174e-39
-0.043800298 -0.13809387 -0.013149463 7.0961558e-39
-0.041941706 -0.13809387 -0.013149463 7.7400581e-39
-0.040159699 -0.13890465 -0.016161881 6.2670748e-39
-0.038295824 -0.13890465 -0.016161881 5.9015377e-39
-0.03643195 -0.13890465 -0.016161881 7.4685144e-39
-0.034568075 -0.13890465 -0.016161881 7.3716581e-39
-0.032704201 -0.13890465 -0.016161881 2.3909515e-39
-0.03079015 -0.13809387 -0.013149463 2.9441169e-39
-0.028931558 -0.13809387 -0.013149463 1.1889954e-38
-0.027072966 -0.13809387 -0.013149463 9.8674281e-39
-0.025180239 -0.13728772 -0.010154091 6.9189798e-39
-0.023259073 -0.13539489 -0.0031211004 1.0143674e-38
-0.021418065 -0.13539489 -0.0031211004 1.0786872e-38
-0.019559022 -0.13460387 -0.00018199533 1.1797753e-38
-0.017723165 -0.13460387 -0.00018199533 1.4009729e-38
-0.015887309 -0.13460387 -0.00018199533 1.5485967e-38
-0.014051453 -0.13460387 -0.00018199533 1.567217e-38
-0.012215597 -0.13460387 -0.00018199533 1.3921177e-38
-0.010379742 -0.13460387 -0.00018199533 9.3106684e-39
-0.0085310033 -0.13539489 -0.0031211004 3.4086907e-39
-0.0066899927 -0.13539489 -0.0031211004 1.7473856e-39
-0.004872174 -0.13460387 -0.00018199533 4.4167302e-39
-0.0030655423 -0.13378824 0.0028485432 4.2305355e-39
-0.0012349999 -0.13378824 0.0028485432 8.9306937e-39
0.00055591948 -0.13297729 0.0058616772 2.1099787e-38
0.0023811786 -0.13297729 0.0058616772 2.017783e-38
0.0041565383 -0.13217102 0.0088574067 6.2563016e-39
0.0059765456 -0.13217102 0.0088574067 3.9528724e-39
0.0077172657 -0.13111271 0.012789644 6.4439551e-39
0.0095303776 -0.13111271 0.012789644 1.0688543e-38
0.011343489 -0.13111271 0.012789644 1.4286336e-38
0.013078771 -0.13028879 0.015851058 1.4932444e-38
0.014886516 -0.13028879 0.015851058 1.4472559e-38
0.016694259 -0.13028879 0.015851058 1.3826835e-38
0.018502004 -0.13028879 0.015851058 1.0877292e-38
0.020214427 -0.1294979 0.018789686 1.0231906e-38
0.022017021 -0.1294979 0.018789686 7.0050406e-39
0.023819614 -0.1294979 0.018789686 1.4565783e-38
0.025622204 -0.1294979 0.018789686 2.3508043e-38
0.027305424 -0.12868352 0.021815576 2.2124052e-38
0.029102713 -0.12868352 0.021815576 5.5274162e-39
0.030899998 -0.12868352 0.021815576 4.236327e-39
0.032697286 -0.12868352 0.021815576 4.6983772e-39
0.034635168 -0.1294979 0.018789686 5.0682247e-39
0.036437757 -0.1294979 0.018789686 1.272154e-38
0.038240351 -0.1294979 0.018789686 1.6686322e-38
0.040194936 -0.13028879 0.015851058 2.3509523e-38
0.042002682 -0.13028879 0.015851058 2.3509886e-38
0.043810427 -0.13028879 0.015851058 2.3233296e-38
0.045618173 -0.13028879 0.015851058 2.3509883e-38
0.047425915 -0.13028879 0.015851058 2.3509883e-38
0.04923366 -0.13028879 0.015851058 2.3509883e-38
0.051041402 -0.13028879 0.015851058 2.3509883e-38
0.052661084 -0.1294979 0.018789686 2.3509886e-38
0.054463677 -0.1294979 0.018789686 2.3509886e-38
0.056062013 -0.12868352 0.021815576 2.3509883e-38
0.057650961 -0.12787388 0.024823822 2.3509883e-38
0.059230611 -0.12706901 0.027814426 2.3325847e-38
0.061017379 -0.12706901 0.027814426 2.3509879e-38
0.062582605 -0.12626885 0.030787505 2.3509876e-38
0.064130962 -0.12544595 0.033844985 2.2955975e-38
0.065907158 -0.12544595 0.033844985 2.3509869e-38
0.068164453 -0.12706901 0.027814426 2.3509866e-38
0.070195049 -0.12787388 0.024823822 2.2124771e-38
0.071987063 -0.12787388 0.024823822 8.0195638e-39
0.074034885 -0.12868352 0.021815576 8.758582e-39
0.075832173 -0.12868352 0.021815576 1.1340425e-38
0.077629462 -0.12868352 0.021815576 1.1616296e-38
-0.079926729 -0.14349155 -0.026214086 9.4028612e-39
-0.078045234 -0.14349155 -0.026214086 1.1707752e-38
-0.076163724 -0.14349155 -0.026214086 1.2354198e-38
-0.074282229 -0.14349155 -0.026214086 1.2445672e-38
-0.072621942 -0.14457656 -0.030219398 1.2353113e-38
-0.070733428 -0.14457656 -0.030219398 1.2168722e-38
-0.0688449 -0.14457656 -0.030219398 1.1983975e-38
-0.066956386 -0.14457656 -0.030219398 1.1062739e-38
-0.065067858 -0.14457656 -0.030219398 1.0324818e-38
-0.063179344 -0.14457656 -0.030219398 1.1063464e-38
-0.061290819 -0.14457656 -0.030219398 1.207726e-38
-0.059230242 -0.14349155 -0.026214086 1.1892871e-38
-0.057348747 -0.14349155 -0.026214086 1.2077262e-38
-0.055467252 -0.14349155 -0.026214086 1.2630436e-38
-0.053470038 -0.14266007 -0.023144566 1.3275083e-38
-0.051593922 -0.14266007 -0.023144566 1.0877278e-38
-0.049479067 -0.14076851 -0.016161881 8.387273e-39
-0.047615193 -0.14076851 -0.016161881 3.9618799e-39
-0.045751318 -0.14076851 -0.016161881 4.0533567e-39
-0.043887448 -0.14076851 -0.016161881 5.8050625e-39
-0.042023573 -0.14076851 -0.016161881 6.5426051e-39
-0.040159699 -0.14076851 -0.016161881 3.5937813e-39
-0.038295824 -0.14076851 -0.016161881 2.8580211e-39
-0.03643195 -0.14076851 -0.016161881 4.2405968e-39
-0.034568075 -0.14076851 -0.016161881 4.0522693e-39
-0.032704201 -0.14076851 -0.016161881 1.0101905e-39
-0.03079015 -0.13995247 -0.013149463 1.9306978e-39
-0.028931558 -0.13995247 -0.013149463 9.0329773e-39
-0.027072966 -0.13995247 -0.013149463 9.2213356e-39
-0.025180239 -0.13914107 -0.010154091 8.5781326e-39
-0.023298174 -0.13833423 -0.0071756467 9.6826879e-39
-0.021450058 -0.13833423 -0.0071756467 7.8373292e-39
-0.019577056 -0.13723589 -0.0031211004 7.9269815e-39
-0.017736048 -0.13723589 -0.0031211004 1.2075066e-38
-0.015887309 -0.13643973 -0.00018199533 1.2166569e-38
-0.014051453 -0.13643973 -0.00018199533 1.1614489e-38
-0.012213021 -0.13723589 -0.0031211004 1.0047529e-38
-0.010372012 -0.13723589 -0.0031211004 6.3596922e-39
-0.0085310033 -0.13723589 -0.0031211004 2.4867344e-39
-0.0066899927 -0.13723589 -0.0031211004 2.2072805e-39
-0.0048489841 -0.13723589 -0.0031211004 3.6795337e-39
-0.0030655423 -0.13561879 0.0028485432 2.2040519e-39
-0.0012349999 -0.13561879 0.0028485432 5.1514016e-39
0.00055591948 -0.13480256 0.0058616772 1.5660613e-38
0.0023811786 -0.13480256 0.0058616772 1.5476222e-38
0.0041565383 -0.13399105 0.0088574067 7.2708221e-39
0.0059765456 -0.13399105 0.0088574067 2.9394533e-39
0.0077172657 -0.13292582 0.012789644 1.8367099e-39
0.0095303776 -0.13292582 0.012789644 3.2206995e-39
0.011343489 -0.13292582 0.012789644 5.0667729e-39
0.013078771 -0.13209651 0.015851058 5.2515468e-39
