# .PCD v0.7 - Point Cloud Data file format
VERSION 0.7
FIELDS x y z rgb
SIZE 4 4 4 4
TYPE F F F F
COUNT 1 1 1 1
WIDTH 563
HEIGHT 1
VIEWPOINT 0 0 0 1 0 0 0
POINTS 563
DATA ascii
-0.010380056 -0.1161568 -0.038472004 2.3418047e-38
-0.008428853 -0.11514379 -0.034417458 2.3142544e-38
-0.0065182783 -0.11440946 -0.031478353 2.2958507e-38
-0.0046824217 -0.11440946 -0.031478353 7.1008544e-39
-0.010269862 -0.1169848 -0.034417458 2.2865229e-38
-0.008428853 -0.1169848 -0.034417458 2.3050703e-38
-0.0064465441 -0.11548282 -0.028447814 2.3142539e-38
-0.0046160035 -0.11548282 -0.028447814 5.9023154e-39
-0.010189991 -0.11808117 -0.031478353 2.3509879e-38
-0.0082770847 -0.11731337 -0.028447814 2.2865587e-38
-0.0063752234 -0.11654995 -0.02543468 2.3234379e-38
-0.004484307 -0.11579098 -0.022438951 5.5346231e-39
-0.0026643015 -0.11579098 -0.022438951 1.6624178e-39
-0.0007719025 -0.11479472 -0.018506713 4.3371813e-39
0.0010412112 -0.11479472 -0.018506713 4.0609629e-39
0.0028543212 -0.11479472 -0.018506713 3.3230434e-39
0.0046674348 -0.11479472 -0.018506713 4.7059778e-39
0.0064805485 -0.11479472 -0.018506713 3.9684044e-39
0.0082936585 -0.11479472 -0.018506713 4.6126808e-39
-0.010107629 -0.11914389 -0.028447814 2.3509879e-38
-0.0082004853 -0.11837523 -0.02543468 2.3325127e-38
-0.0063043125 -0.11761098 -0.022438951 2.341805e-38
-0.0043981262 -0.11660783 -0.018506713 1.5214088e-38
-0.0025850125 -0.11660783 -0.018506713 1.5214822e-38
-0.00071554258 -0.11582683 -0.015445299 1.5585417e-38
0.001092203 -0.11582683 -0.015445299 1.3005029e-38
0.0028543212 -0.11660783 -0.018506713 8.5800034e-39
0.0046674348 -0.11660783 -0.018506713 5.1687679e-39
0.0064805485 -0.11660783 -0.018506713 6.1825526e-39
0.0082936585 -0.11660783 -0.018506713 4.4293825e-39
0.010075746 -0.11761098 -0.022438951 2.1237505e-39
-0.010025743 -0.12020047 -0.02543468 2.3324052e-38
-0.0082004853 -0.12020047 -0.02543468 2.3509521e-38
-0.0063043125 -0.11943097 -0.022438951 2.3509527e-38
-0.0043981262 -0.11842094 -0.018506713 2.2957078e-38
-0.0025850125 -0.11842094 -0.018506713 2.3142544e-38
-0.00071554258 -0.11763458 -0.015445299 2.2590813e-38
0.001092203 -0.11763458 -0.015445299 2.1669947e-38
0.0028999485 -0.11763458 -0.015445299 1.7891384e-38
0.0046674348 -0.11842094 -0.018506713 1.2082706e-38
0.0064805485 -0.11842094 -0.018506713 1.0515736e-38
0.0082936585 -0.11842094 -0.018506713 7.3803559e-39
0.010075746 -0.11943097 -0.022438951 3.0471501e-39
-0.0099443272 -0.121251 -0.022438951 2.3508091e-38
-0.0081243217 -0.121251 -0.022438951 2.3508451e-38
-0.0063043125 -0.121251 -0.022438951 2.3507728e-38
-0.00433103 -0.11944233 -0.015445299 2.3509527e-38
-0.0024640337 -0.11868234 -0.012506671 2.3509886e-38
-0.00066144392 -0.11868234 -0.012506671 2.268157e-38
0.001092203 -0.11944233 -0.015445299 2.2958873e-38
0.0028999485 -0.11944233 -0.015445299 2.2775202e-38
0.0046674348 -0.12023406 -0.018506713 2.2591531e-38
0.0064805485 -0.12023406 -0.018506713 2.2499695e-38
0.0082936585 -0.12023406 -0.018506713 2.1301888e-38
0.010106772 -0.12023406 -0.018506713 1.3281228e-38
0.011895753 -0.121251 -0.022438951 9.4093633e-39
-0.0098374635 -0.12204717 -0.018506713 2.3508451e-38
-0.0080243535 -0.12204717 -0.018506713 2.3507733e-38
-0.0062112398 -0.12204717 -0.018506713 2.3413734e-38
-0.0042666234 -0.12048493 -0.012506671 2.3508086e-38
-0.0024640337 -0.12048493 -0.012506671 2.3416603e-38
-0.00066144392 -0.12048493 -0.012506671 2.3509518e-38
0.0011411496 -0.12048493 -0.012506671 2.3049621e-38
0.002943743 -0.12048493 -0.012506671 2.3142544e-38
0.0047076903 -0.12125005 -0.015445299 2.2222032e-38
0.0065154359 -0.12125005 -0.015445299 2.2315307e-38
0.0083231814 -0.12125005 -0.015445299 2.2591531e-38
0.010106772 -0.12204717 -0.018506713 2.0012232e-38
0.011919884 -0.12204717 -0.018506713 1.0516804e-38
-0.009592168 -0.12149437 -0.0094807819 2.3508451e-38
-0.0077948831 -0.12149437 -0.0094807819 2.3506657e-38
-0.0062112398 -0.12386028 -0.018506713 2.3508451e-38
-0.0042666234 -0.12228753 -0.012506671 2.3508801e-38
-0.0024640337 -0.12228753 -0.012506671 2.3509154e-38
-0.00066144392 -0.12228753 -0.012506671 2.350987e-38
0.0011411496 -0.12228753 -0.012506671 2.3324757e-38
0.002943743 -0.12228753 -0.012506671 2.3509876e-38
0.0047076903 -0.1230578 -0.015445299 2.3234376e-38
0.0065154359 -0.1230578 -0.015445299 2.2958873e-38
0.0083231814 -0.1230578 -0.015445299 2.1853977e-38
0.010130927 -0.1230578 -0.015445299 2.2499695e-38
0.011938671 -0.1230578 -0.015445299 2.0934546e-38
0.013732996 -0.12386028 -0.018506713 1.3744738e-38
0.015546108 -0.12386028 -0.018506713 7.7523853e-39
-0.011215907 -0.12170871 -0.003481932 2.3509168e-38
-0.0094291382 -0.12170871 -0.003481932 2.3324421e-38
-0.0077184029 -0.12249784 -0.0064725354 2.3508451e-38
-0.0060692169 -0.12409012 -0.012506671 2.3509168e-38
-0.0042003058 -0.12329166 -0.0094807819 2.3508801e-38
-0.0024030209 -0.12329166 -0.0094807819 2.3508791e-38
-0.00060573593 -0.12329166 -0.0094807819 2.3509869e-38
0.0011915527 -0.12329166 -0.0094807819 2.3509869e-38
0.002943743 -0.12409012 -0.012506671 2.350987e-38
0.0047076903 -0.12486555 -0.015445299 2.3325129e-38
0.0065154359 -0.12486555 -0.015445299 2.304927e-38
0.0083231814 -0.12486555 -0.015445299 2.249826e-38
0.010130927 -0.12486555 -0.015445299 2.2775202e-38
0.011938671 -0.12486555 -0.015445299 2.1948323e-38
0.013746414 -0.12486555 -0.015445299 1.9920766e-38
0.01555416 -0.12486555 -0.015445299 1.143985e-38
0.017359219 -0.1256734 -0.018506713 2.5876111e-39
-0.014593836 -0.12189357 0.0025486276 2.341805e-38
-0.01281764 -0.12189357 0.0025486276 2.3417691e-38
-0.011129897 -0.12270571 -0.0005088523 2.3417691e-38
-0.0093483403 -0.12270571 -0.0005088523 2.3233303e-38
-0.0076423697 -0.12349547 -0.003481932 2.3417333e-38
-0.0058556013 -0.12349547 -0.003481932 2.3509527e-38
-0.0041343756 -0.12428986 -0.0064725354 2.3324407e-38
-0.0023423657 -0.12428986 -0.0064725354 2.350987e-38
-0.00049529597 -0.12349547 -0.003481932 2.3508428e-38
0.0012914725 -0.12349547 -0.003481932 2.3509511e-38
0.0030336715 -0.12428986 -0.0064725354 2.3508074e-38
0.0047463365 -0.12589271 -0.012506671 2.3509165e-38
0.0065489262 -0.12589271 -0.012506671 2.3509527e-38
0.0083515197 -0.12589271 -0.012506671 2.3417691e-38
0.010154111 -0.12589271 -0.012506671 2.2405707e-38
0.011956703 -0.12589271 -0.012506671 2.2498978e-38
0.013746414 -0.1266733 -0.015445299 2.2499695e-38
0.01555416 -0.1266733 -0.015445299 2.2040518e-38
0.017361904 -0.1266733 -0.015445299 6.2743573e-39
0.019169649 -0.1266733 -0.015445299 2.5818406e-39
0.020985445 -0.12748651 -0.018506713 5.2547655e-39
-0.014593836 -0.12366976 0.0025486276 2.314075e-38
-0.01281764 -0.12366976 0.0025486276 2.3509527e-38
-0.011129897 -0.1244873 -0.0005088523 2.3325856e-38
-0.0093483403 -0.1244873 -0.0005088523 2.3142544e-38
-0.0075667836 -0.1244873 -0.0005088523 2.3142544e-38
-0.0057852305 -0.1244873 -0.0005088523 2.2957428e-38
-0.0040688328 -0.12528224 -0.003481932 2.3141455e-38
-0.0022820644 -0.12528224 -0.003481932 2.3509876e-38
-0.00044056401 -0.1244873 -0.0005088523 2.3509517e-38
0.0013409965 -0.1244873 -0.0005088523 2.3508801e-38
0.0031225495 -0.1244873 -0.0005088523 2.3508807e-38
0.0048256852 -0.12608187 -0.0064725354 2.3507012e-38
0.0066176951 -0.12608187 -0.0064725354 2.3508809e-38
0.0084097087 -0.12608187 -0.0064725354 2.3509168e-38
0.010201722 -0.12608187 -0.0064725354 2.3141109e-38
0.011975273 -0.12688623 -0.0094807819 2.2865961e-38
0.013759296 -0.12769531 -0.012506671 2.2867037e-38
0.015561888 -0.12769531 -0.012506671 2.1762133e-38
0.01736448 -0.12769531 -0.012506671 1.1251115e-38
0.019167073 -0.12769531 -0.012506671 5.7157885e-39
0.020977393 -0.12848105 -0.015445299 2.4885659e-39
0.022798557 -0.1292996 -0.018506713 4.3342344e-39
0.024611669 -0.1292996 -0.018506713 1.0880479e-38
-0.021345019 -0.12303366 0.011511736 9.3110398e-39
-0.018036988 -0.12462802 0.0055877492 2.3509527e-38
-0.016266122 -0.12462802 0.0055877492 2.3509886e-38
-0.014495257 -0.12462802 0.0055877492 2.3509886e-38
-0.012724388 -0.12462802 0.0055877492 2.3509886e-38
-0.011041444 -0.12544595 0.0025486276 2.3234018e-38
-0.0092652477 -0.12544595 0.0025486276 2.1945797e-38
-0.0074117891 -0.12462802 0.0055877492 2.295887e-38
-0.0056409203 -0.12462802 0.0055877492 2.3142538e-38
-0.0039366633 -0.12544595 0.0025486276 2.3326206e-38
-0.0021604709 -0.12544595 0.0025486276 2.3140736e-38
-0.00038427487 -0.12544595 0.0025486276 2.3231854e-38
0.0013919212 -0.12544595 0.0025486276 2.3507366e-38
0.0031681173 -0.12544595 0.0025486276 2.3508451e-38
0.0049443133 -0.12544595 0.0025486276 2.3507733e-38
0.006685663 -0.12626885 -0.0005088523 2.3508092e-38
0.0084385481 -0.12706901 -0.003481932 2.3508451e-38
0.010225317 -0.12706901 -0.003481932 2.3323345e-38
0.011993732 -0.12787388 -0.0064725354 2.314075e-38
0.013772558 -0.12868352 -0.0094807819 2.3234379e-38
0.015569847 -0.12868352 -0.0094807819 2.2958864e-38
0.01736448 -0.1294979 -0.012506671 1.3830786e-38
0.019167073 -0.1294979 -0.012506671 6.9136213e-39
0.020977393 -0.13028879 -0.015445299 2.3034712e-39
0.022798557 -0.13111271 -0.018506713 2.3970696e-39
0.024611669 -0.13111271 -0.018506713 4.4257251e-39
-0.023229253 -0.12560774 0.0085082576 1.0048958e-38
-0.021345019 -0.12479414 0.011511736 1.521156e-38
-0.01958454 -0.12479414 0.011511736 2.1296474e-38
-0.018146224 -0.12722217 0.0025486276 2.3232583e-38
-0.016266122 -0.12639888 0.0055877492 2.2955993e-38
-0.014495257 -0.12639888 0.0055877492 2.2771958e-38
-0.012724388 -0.12639888 0.0055877492 2.2035109e-38
-0.011041444 -0.12722217 0.0025486276 2.0560696e-38
-0.0092652477 -0.12722217 0.0025486276 1.7797347e-38
-0.0074117891 -0.12639888 0.0055877492 1.9272477e-38
-0.0056409203 -0.12639888 0.0055877492 2.1207505e-38
-0.0038700588 -0.12639888 0.0055877492 2.3142174e-38
-0.0020991899 -0.12639888 0.0055877492 2.3509879e-38
-0.00032832101 -0.12639888 0.0055877492 2.3509521e-38
0.0014425442 -0.12639888 0.0055877492 2.3508449e-38
0.0032569356 -0.12560774 0.0085082576 2.3508451e-38
0.0050226822 -0.12560774 0.0085082576 2.3508092e-38
0.0067205094 -0.12722217 0.0025486276 2.3507733e-38
0.0084672198 -0.1280504 -0.0005088523 2.3508451e-38
0.010225317 -0.12885578 -0.003481932 2.3507733e-38
0.011993732 -0.1296659 -0.0064725354 2.3416248e-38
0.013785746 -0.1296659 -0.0064725354 2.3509874e-38
0.015577758 -0.1296659 -0.0064725354 2.350987e-38
0.017367132 -0.13048081 -0.0094807819 1.6226784e-38
0.019167073 -0.13130049 -0.012506671 9.4950989e-39
0.020969665 -0.13130049 -0.012506671 2.3956781e-39
0.022798557 -0.13292582 -0.018506713 2.3967347e-39
-0.025251005 -0.12899835 0.0025486276 1.1154578e-38
-0.023229253 -0.1273735 0.0085082576 1.12475e-38
-0.021345019 -0.12655462 0.011511736 1.724022e-38
-0.01958454 -0.12655462 0.011511736 1.9175972e-38
-0.018146224 -0.12899835 0.0025486276 1.5856929e-38
-0.016266122 -0.12816976 0.0055877492 1.5396307e-38
-0.014495257 -0.12816976 0.0055877492 1.419776e-38
-0.012724388 -0.12816976 0.0055877492 1.2539311e-38
-0.011041444 -0.12899835 0.0025486276 1.106418e-38
-0.009182658 -0.12816976 0.0055877492 1.1342209e-38
-0.0074117891 -0.12816976 0.0055877492 1.2540752e-38
-0.0056409203 -0.12816976 0.0055877492 1.4199192e-38
-0.0038060509 -0.1273735 0.0085082576 1.6872505e-38
-0.0020403005 -0.1273735 0.0085082576 2.0836198e-38
-0.00027455762 -0.1273735 0.0085082576 2.3324404e-38
0.001491189 -0.1273735 0.0085082576 2.3508441e-38
0.0032569356 -0.1273735 0.0085082576 2.3506649e-38
0.0050226822 -0.1273735 0.0085082576 2.3508451e-38
0.0067551434 -0.12816976 0.0055877492 2.3508092e-38
0.0084672198 -0.12983195 -0.0005088523 2.3508451e-38
0.010225317 -0.13064255 -0.003481932 2.3509168e-38
0.011993732 -0.13145791 -0.0064725354 2.3509521e-38
0.013785746 -0.13145791 -0.0064725354 2.3141089e-38
0.015577758 -0.13145791 -0.0064725354 2.3509869e-38
0.017367132 -0.1322781 -0.0094807819 1.8623869e-38
0.019167073 -0.13310309 -0.012506671 1.041705e-38
0.020969665 -0.13310309 -0.012506671 2.6624671e-44
0.022772256 -0.13310309 -0.012506671 9.1852312e-41
-0.025251005 -0.13077454 0.0025486276 1.1339325e-38
-0.023474809 -0.13077454 0.0025486276 1.2998496e-38
-0.021698616 -0.13077454 0.0025486276 1.8253293e-38
-0.01992242 -0.13077454 0.0025486276 1.6133516e-38
-0.018146224 -0.13077454 0.0025486276 1.364459e-38
-0.016266122 -0.12994061 0.0055877492 1.2261653e-38
-0.014495257 -0.12994061 0.0055877492 1.004931e-38
-0.012724388 -0.12994061 0.0055877492 1.0234055e-38
-0.010953523 -0.12994061 0.0055877492 1.1709183e-38
-0.009182658 -0.12994061 0.0055877492 1.2721904e-38
-0.0073375404 -0.12913923 0.0085082576 1.4658012e-38
-0.0055717938 -0.12913923 0.0085082576 1.4657649e-38
-0.0037402213 -0.12831511 0.011511736 1.419667e-38
-0.0019797422 -0.12831511 0.011511736 1.7423873e-38
-0.00021926314 -0.12831511 0.011511736 2.2310241e-38
0.0015412159 -0.12831511 0.011511736 2.350987e-38
0.0033016987 -0.12831511 0.011511736 2.3509873e-38
0.0050621778 -0.12831511 0.011511736 2.3509521e-38
0.0068226568 -0.12831511 0.011511736 2.3509524e-38
0.0085541736 -0.12913923 0.0085082576 2.3509527e-38
0.010272898 -0.13077454 0.0025486276 2.3509527e-38
0.012012087 -0.13242932 -0.003481932 2.314074e-38
0.013785746 -0.13324992 -0.0064725354 2.1942912e-38
0.015577758 -0.13324992 -0.0064725354 2.3509873e-38
0.017367132 -0.13407536 -0.0094807819 2.0375587e-38
0.019167073 -0.13490568 -0.012506671 1.4197425e-38
0.020969665 -0.13490568 -0.012506671 5.5283607e-40
0.022772256 -0.13490568 -0.012506671 2.7695403e-40
-0.027027201 -0.13255073 0.0025486276 1.1985047e-38
-0.025251005 -0.13255073 0.0025486276 1.1708107e-38
-0.023349587 -0.1317115 0.0055877492 1.1523364e-38
-0.021578722 -0.1317115 0.0055877492 1.613279e-38
-0.01992242 -0.13255073 0.0025486276 1.3921177e-38
-0.018146224 -0.13255073 0.0025486276 1.3552395e-38
-0.016266122 -0.1317115 0.0055877492 1.0694682e-38
-0.014495257 -0.1317115 0.0055877492 8.4819811e-39
-0.012724388 -0.1317115 0.0055877492 1.0787224e-38
-0.010953523 -0.1317115 0.0055877492 1.5856544e-38
-0.009182658 -0.1317115 0.0055877492 1.6222817e-38
-0.0073375404 -0.13090499 0.0085082576 1.723589e-38
-0.0055717938 -0.13090499 0.0085082576 1.7052573e-38
-0.0037402213 -0.13007559 0.011511736 1.6500472e-38
-0.0019797422 -0.13007559 0.011511736 1.6408275e-38
-0.00021926314 -0.13007559 0.011511736 1.7146556e-38
0.0015412159 -0.13007559 0.011511736 1.9913506e-38
0.0033016987 -0.13007559 0.011511736 2.3417305e-38
0.0050621778 -0.13007559 0.011511736 2.3232562e-38
0.0068226568 -0.13007559 0.011511736 2.3233288e-38
0.0085831359 -0.13007559 0.011511736 2.2495731e-38
0.010319918 -0.13090499 0.0085082576 2.1020604e-38
0.012049094 -0.13255073 0.0025486276 1.9269606e-38
0.013811886 -0.13339506 -0.0005088523 1.7425693e-38
0.015585624 -0.13421609 -0.003481932 1.9638385e-38
0.01736977 -0.13504194 -0.0064725354 1.7517533e-38
0.019164421 -0.13587265 -0.0094807819 1.3552772e-38
0.020961706 -0.13587265 -0.0094807819 8.2977188e-40
0.022772256 -0.13670824 -0.012506671 3.5873241e-43
0.024611669 -0.13836516 -0.018506713 7.1746481e-43
0.026455807 -0.13945107 -0.022438951 5.6051939e-45
0.028304704 -0.14027832 -0.02543468 5.6051939e-45
0.030129962 -0.14027832 -0.02543468 9.1835496e-41
-0.026760746 -0.13267075 0.0085082576 1.3091391e-38
-0.024994995 -0.13267075 0.0085082576 1.263006e-38
-0.023349587 -0.13348235 0.0055877492 1.3182885e-38
-0.021578722 -0.13348235 0.0055877492 1.5118639e-38
-0.01992242 -0.13432692 0.0025486276 1.428996e-38
-0.018146224 -0.13432692 0.0025486276 1.253824e-38
-0.016370028 -0.13432692 0.0025486276 9.4961359e-39
-0.014495257 -0.13348235 0.0055877492 8.2057488e-39
-0.012724388 -0.13348235 0.0055877492 9.4968393e-39
-0.010953523 -0.13348235 0.0055877492 1.4104104e-38
-0.009182658 -0.13348235 0.0055877492 1.6220297e-38
-0.0073375404 -0.13267075 0.0085082576 1.6034827e-38
-0.0055717938 -0.13267075 0.0085082576 1.6588714e-38
-0.0037402213 -0.13183604 0.011511736 1.7881244e-38
-0.0019797422 -0.13183604 0.011511736 1.7144748e-38
-0.00021926314 -0.13183604 0.011511736 1.4933849e-38
0.0015412159 -0.13183604 0.011511736 1.6502614e-38
0.0033016987 -0.13183604 0.011511736 2.1020564e-38
0.0050621778 -0.13183604 0.011511736 2.3418022e-38
0.0068226568 -0.13183604 0.011511736 2.3418033e-38
0.0085831359 -0.13183604 0.011511736 2.3234372e-38
0.010343617 -0.13183604 0.011511736 2.1575217e-38
0.012067743 -0.13348235 0.0055877492 1.90863e-38
0.013811886 -0.13517661 -0.0005088523 1.6504827e-38
0.015585624 -0.13600285 -0.003481932 1.8440579e-38
0.01736977 -0.13683395 -0.0064725354 1.6873253e-38
0.019164421 -0.13766994 -0.0094807819 1.2170913e-38
0.020961706 -0.13766994 -0.0094807819 6.4716447e-40
0.022772256 -0.13851084 -0.012506671 1.4349296e-42
0.024611669 -0.14017828 -0.018506713 1.8618212e-40
0.026455807 -0.14127107 -0.022438951 2.7658969e-40
0.028304704 -0.1421036 -0.02543468 3.6808047e-40
0.030129962 -0.1421036 -0.02543468 5.5175707e-40
0.03195522 -0.1421036 -0.02543468 3.6771753e-40
-0.026760746 -0.13443647 0.0085082576 1.4843111e-38
-0.024994995 -0.13443647 0.0085082576 1.3275429e-38
-0.023349587 -0.13525321 0.0055877492 1.3459469e-38
-0.021578722 -0.13525321 0.0055877492 1.2353127e-38
-0.019807857 -0.13525321 0.0055877492 1.2998139e-38
-0.018036988 -0.13525321 0.0055877492 9.4957841e-39
-0.016266122 -0.13525321 0.0055877492 8.4819867e-39
-0.014495257 -0.13525321 0.0055877492 9.5883287e-39
-0.012724388 -0.13525321 0.0055877492 8.9433138e-39
-0.01086903 -0.13443647 0.0085082576 1.0877983e-38
-0.009103287 -0.13443647 0.0085082576 9.8602422e-39
-0.0073375404 -0.13443647 0.0085082576 1.1056988e-38
-0.0055717938 -0.13443647 0.0085082576 1.0966223e-38
-0.0037402213 -0.13359652 0.011511736 1.1243523e-38
-0.0019797422 -0.13359652 0.011511736 1.2812998e-38
-0.00021926314 -0.13359652 0.011511736 1.4565431e-38
0.0015412159 -0.13359652 0.011511736 1.5304435e-38
0.0033016987 -0.13359652 0.011511736 1.5858335e-38
0.0050621778 -0.13359652 0.011511736 1.8071394e-38
0.0068226568 -0.13359652 0.011511736 2.0100067e-38
0.0085831359 -0.13359652 0.011511736 2.0377025e-38
0.010343617 -0.13359652 0.011511736 1.8901543e-38
0.012085665 -0.13443647 0.0085082576 1.6596658e-38
0.013811886 -0.13695817 -0.0005088523 1.3646762e-38
0.015585624 -0.13778962 -0.003481932 1.5489959e-38
0.01736977 -0.13862596 -0.0064725354 1.3830437e-38
0.019164421 -0.13946722 -0.0094807819 1.2815558e-38
0.020969665 -0.14031343 -0.012506671 8.3083126e-40
0.022785138 -0.14113526 -0.015445299 1.793662e-42
0.024611669 -0.14199139 -0.018506713 9.3629158e-41
0.026455807 -0.14309107 -0.022438951 2.7658689e-40
0.028304704 -0.14392884 -0.02543468 1.5414283e-44
0.030129962 -0.14392884 -0.02543468 9.1859318e-41
0.03195522 -0.14392884 -0.02543468 1.2900382e-39
-0.027027201 -0.13787933 0.0025486276 1.5118626e-38
-0.025251005 -0.13787933 0.0025486276 1.3366909e-38
-0.023349587 -0.13702409 0.0055877492 1.3090323e-38
-0.021578722 -0.13702409 0.0055877492 1.3090686e-38
-0.019807857 -0.13702409 0.0055877492 1.355167e-38
-0.018036988 -0.13702409 0.0055877492 8.9415314e-39
-0.016266122 -0.13702409 0.0055877492 7.0987006e-39
-0.014495257 -0.13702409 0.0055877492 9.3113957e-39
-0.012724388 -0.13702409 0.0055877492 8.5741936e-39
-0.01086903 -0.13620223 0.0085082576 9.2195602e-39
-0.009103287 -0.13620223 0.0085082576 8.3901554e-39
-0.0072611831 -0.13535701 0.011511736 9.2199161e-39
-0.0055007003 -0.13535701 0.011511736 8.9433278e-39
-0.0037402213 -0.13535701 0.011511736 1.0418455e-38
-0.0019797422 -0.13535701 0.011511736 1.1801745e-38
-0.00016429648 -0.13451682 0.014497451 1.3276876e-38
0.0015909486 -0.13451682 0.014497451 1.5950549e-38
0.0033461936 -0.13451682 0.014497451 1.4752006e-38
0.0051014386 -0.13451682 0.014497451 1.4936041e-38
0.0068226568 -0.13535701 0.011511736 1.8900456e-38
0.0085831359 -0.13535701 0.011511736 1.8347283e-38
0.010343617 -0.13535701 0.011511736 1.7609363e-38
0.012104098 -0.13535701 0.011511736 1.5581061e-38
0.013811886 -0.13873972 -0.0005088523 1.4382521e-38
0.015585624 -0.13957639 -0.003481932 1.5395954e-38
0.01736977 -0.14041798 -0.0064725354 1.2814474e-38
0.019164421 -0.14126451 -0.0094807819 9.0348088e-39
0.020969665 -0.14211603 -0.012506671 1.0141407e-39
0.022785138 -0.14294298 -0.015445299 9.2194229e-41
0.024611669 -0.14380451 -0.018506713 7.1746481e-43
-0.027027201 -0.13965552 0.0025486276 1.2629345e-38
-0.025120456 -0.13879494 0.0055877492 1.3274713e-38
-0.023349587 -0.13879494 0.0055877492 1.2168367e-38
-0.021578722 -0.13879494 0.0055877492 1.3366913e-38
-0.019807857 -0.13879494 0.0055877492 1.4380709e-38
-0.018036988 -0.13879494 0.0055877492 1.023227e-38
-0.016266122 -0.13879494 0.0055877492 9.2188441e-39
-0.014495257 -0.13879494 0.0055877492 1.2445697e-38
-0.012724388 -0.13879494 0.0055877492 1.1524102e-38
-0.010782141 -0.13711749 0.011511736 1.0971647e-38
-0.0090216622 -0.13711749 0.011511736 1.0973438e-38
-0.0072611831 -0.13711749 0.011511736 1.1712079e-38
-0.0055007003 -0.13711749 0.011511736 1.0974514e-38
-0.0037402213 -0.13711749 0.011511736 1.0605732e-38
-0.0019797422 -0.13711749 0.011511736 1.0328066e-38
-0.00016429648 -0.13627206 0.014497451 1.2816988e-38
0.0015909486 -0.13627206 0.014497451 1.5120799e-38
0.0033461936 -0.13627206 0.014497451 1.4752017e-38
0.0051014386 -0.13627206 0.014497451 1.5304472e-38
0.0068226568 -0.13711749 0.011511736 1.6318624e-38
0.0085831359 -0.13711749 0.011511736 1.4935329e-38
0.010343617 -0.13711749 0.011511736 1.4197764e-38
0.012104098 -0.13711749 0.011511736 1.3735707e-38
0.013811886 -0.14052127 -0.0005088523 1.2629359e-38
0.015585624 -0.14136316 -0.003481932 1.2998142e-38
0.017372392 -0.14136316 -0.003481932 8.9415314e-39
0.019161783 -0.14220999 -0.0064725354 6.1753009e-39
0.020953795 -0.14220999 -0.0064725354 2.7550649e-40
0.022785138 -0.14475073 -0.015445299 9.1835496e-41
-0.025120456 -0.14056583 0.0055877492 1.1337528e-38
-0.023229253 -0.13973372 0.0085082576 1.1245335e-38
-0.02146351 -0.13973372 0.0085082576 1.3182522e-38
-0.019697763 -0.13973372 0.0085082576 1.45651e-38
-0.017932016 -0.13973372 0.0085082576 1.1062031e-38
-0.016266122 -0.14056583 0.0055877492 1.0693974e-38
-0.014495257 -0.14056583 0.0055877492 1.4013022e-38
-0.012451012 -0.1380273 0.014497451 1.2907036e-38
-0.010695767 -0.1380273 0.014497451 1.1156037e-38
-0.0089405216 -0.1380273 0.014497451 1.1065634e-38
-0.0072611831 -0.13887797 0.011511736 1.1251101e-38
-0.0055007003 -0.13887797 0.011511736 1.0143674e-38
-0.0037402213 -0.13887797 0.011511736 9.0373269e-39
-0.0019797422 -0.13887797 0.011511736 8.5759886e-39
-0.00016429648 -0.1380273 0.014497451 1.3646748e-38
0.0015909486 -0.1380273 0.014497451 1.4567626e-38
0.0033461936 -0.1380273 0.014497451 1.4198843e-38
0.0050621778 -0.13887797 0.011511736 1.364495e-38
0.0068226568 -0.13887797 0.011511736 1.3921537e-38
0.0085831359 -0.13887797 0.011511736 1.3828982e-38
0.010343617 -0.13887797 0.011511736 1.2261656e-38
0.012104098 -0.13887797 0.011511736 1.2537164e-38
0.013811886 -0.14230286 -0.0005088523 1.198399e-38
0.015585624 -0.14314993 -0.003481932 1.2352772e-38
0.017372392 -0.14314993 -0.003481932 5.8068799e-39
0.019161783 -0.14400201 -0.0064725354 2.7647815e-39
0.020953795 -0.14400201 -0.0064725354 2.7550649e-40
-0.025120456 -0.14233668 0.0055877492 9.0326368e-39
-0.023229253 -0.14149947 0.0085082576 1.050777e-38
-0.02146351 -0.14149947 0.0085082576 1.2443881e-38
-0.019697763 -0.14149947 0.0085082576 1.3826459e-38
-0.017932016 -0.14149947 0.0085082576 1.1246062e-38
-0.01616627 -0.14149947 0.0085082576 1.0693254e-38
-0.014206253 -0.13978253 0.014497451 1.2445694e-38
-0.012451012 -0.13978253 0.014497451 1.1431545e-38
-0.010695767 -0.13978253 0.014497451 9.8652981e-39
-0.0089405216 -0.13978253 0.014497451 1.0420264e-38
-0.0071852766 -0.13978253 0.014497451 9.4071884e-39
-0.0055007003 -0.14063846 0.011511736 7.7465881e-39
-0.0037402213 -0.14063846 0.011511736 7.1934143e-39
-0.0019797422 -0.14063846 0.011511736 8.3915974e-39
-0.00021926314 -0.14063846 0.011511736 1.613603e-38
0.0015909486 -0.13978253 0.014497451 1.5581778e-38
0.0033461936 -0.13978253 0.014497451 1.4291039e-38
0.0050621778 -0.14063846 0.011511736 1.4198124e-38
0.0068226568 -0.14063846 0.011511736 1.364495e-38
0.0085831359 -0.14063846 0.011511736 1.364459e-38
0.010343617 -0.14063846 0.011511736 1.0141156e-38
0.012104098 -0.14063846 0.011511736 1.0232273e-38
0.013811886 -0.14408441 -0.0005088523 9.9556861e-39
0.015585624 -0.1449367 -0.003481932 9.6790992e-39
0.017372392 -0.1449367 -0.003481932 1.1970984e-39
0.019161783 -0.14579402 -0.0064725354 7.3647763e-40
0.020961706 -0.14665638 -0.0094807819 9.2194229e-41
-0.021227233 -0.14153777 0.014497451 1.1153142e-38
-0.019471988 -0.14153777 0.014497451 1.2443525e-38
-0.017716743 -0.14153777 0.014497451 1.1522649e-38
-0.015856653 -0.1406533 0.017564051 1.0693254e-38
-0.014106784 -0.1406533 0.017564051 1.0693977e-38
-0.012356918 -0.1406533 0.017564051 1.0417393e-38
-0.010695767 -0.14153777 0.014497451 1.06025e-38
-0.0089405216 -0.14153777 0.014497451 1.1249306e-38
-0.0071852766 -0.14153777 0.014497451 9.774892e-39
-0.0055007003 -0.14239894 0.011511736 7.3778056e-39
-0.0037402213 -0.14239894 0.011511736 7.0090231e-39
-0.0019797422 -0.14239894 0.011511736 8.483793e-39
-0.00021926314 -0.14239894 0.011511736 1.6320422e-38
0.0015412159 -0.14239894 0.011511736 1.5489582e-38
0.0033016987 -0.14239894 0.011511736 1.4106647e-38
0.0050621778 -0.14239894 0.011511736 1.5581059e-38
0.0068226568 -0.14239894 0.011511736 1.2538603e-38
0.0085541736 -0.1432652 0.0085082576 1.1708842e-38
0.010343617 -0.14239894 0.011511736 8.6663864e-39
0.012104098 -0.14239894 0.011511736 8.5738306e-39
0.013825288 -0.14498411 0.0025486276 7.1908962e-39
0.015601484 -0.14498411 0.0025486276 6.729918e-39
0.017377678 -0.14498411 0.0025486276 9.1835496e-41
0.019161783 -0.14758603 -0.0064725354 9.1835496e-41
-0.019471988 -0.14329304 0.014497451 1.0968396e-38
-0.017716743 -0.14329304 0.014497451 1.2074388e-38
-0.015856653 -0.14240317 0.017564051 1.1614491e-38
-0.014106784 -0.14240317 0.017564051 1.0877645e-38
-0.012356918 -0.14240317 0.017564051 1.170705e-38
-0.010695767 -0.14329304 0.014497451 1.3183978e-38
-0.0089405216 -0.14329304 0.014497451 1.3093219e-38
-0.0071852766 -0.14329304 0.014497451 1.2171978e-38
-0.0055007003 -0.14415942 0.011511736 1.023587e-38
-0.0037402213 -0.14415942 0.011511736 9.6826963e-39
-0.0019797422 -0.14415942 0.011511736 9.9589231e-39
-0.00021926314 -0.14415942 0.011511736 1.4937487e-38
0.0015412159 -0.14415942 0.011511736 1.5212995e-38
0.0033016987 -0.14415942 0.011511736 1.4383234e-38
0.0050621778 -0.14415942 0.011511736 1.2262016e-38
0.0068226568 -0.14415942 0.011511736 8.4819951e-39
0.0085541736 -0.14503096 0.0085082576 8.8507777e-39
0.010343617 -0.14415942 0.011511736 8.021017e-39
0.012104098 -0.14415942 0.011511736 5.9001574e-39
0.013825288 -0.1467603 0.0025486276 1.3825715e-39
0.015601484 -0.1467603 0.0025486276 1.013789e-39
0.017377678 -0.1467603 0.0025486276 9.1835496e-41
-0.017606519 -0.14415304 0.017564051 1.161341e-38
-0.015856653 -0.14415304 0.017564051 1.1798883e-38
-0.014106784 -0.14415304 0.017564051 1.0969841e-38
-0.012356918 -0.14415304 0.017564051 1.2444971e-38
-0.010695767 -0.14504828 0.014497451 1.4289604e-38
-0.0089405216 -0.14504828 0.014497451 1.4659821e-38
-0.0071852766 -0.14504828 0.014497451 1.46609e-38
-0.0055007003 -0.1459199 0.011511736 1.3738944e-38
-0.0037402213 -0.1459199 0.011511736 1.3923335e-38
-0.0019797422 -0.1459199 0.011511736 1.3093575e-38
-0.00021926314 -0.1459199 0.011511736 1.3923335e-38
0.0015412159 -0.1459199 0.011511736 1.4567626e-38
0.0033016987 -0.1459199 0.011511736 1.3369082e-38
0.0050621778 -0.1459199 0.011511736 1.1617365e-38
0.0067884289 -0.14679669 0.0085082576 8.0217359e-39
0.0085541736 -0.14679669 0.0085082576 7.6522345e-39
0.010272898 -0.14853649 0.0025486276 7.3756476e-39
0.012049094 -0.14853649 0.0025486276 4.5175831e-39
-0.017606519 -0.14590292 0.017564051 1.0599258e-38
-0.015856653 -0.14590292 0.017564051 1.1061318e-38
-0.014106784 -0.14590292 0.017564051 1.0508144e-38
-0.012356918 -0.14590292 0.017564051 1.1891797e-38
-0.010695767 -0.14680351 0.014497451 1.3367647e-38
-0.0090216622 -0.14768039 0.011511736 1.3461278e-38
-0.0072611831 -0.14768039 0.011511736 1.3923335e-38
-0.0055007003 -0.14768039 0.011511736 1.3738944e-38
-0.0037402213 -0.14768039 0.011511736 1.4937487e-38
-0.0019797422 -0.14768039 0.011511736 1.4015531e-38
-0.00021926314 -0.14768039 0.011511736 1.1618444e-38
0.0015412159 -0.14768039 0.011511736 1.152517e-38
0.0033016987 -0.14768039 0.011511736 9.1280834e-39
0.0050621778 -0.14768039 0.011511736 8.0217359e-39
0.0068226568 -0.14768039 0.011511736 3.1353675e-39
0.0085541736 -0.14856245 0.0085082576 0
0.010319918 -0.14856245 0.0085082576 0
-0.015856653 -0.14765279 0.017564051 9.8627716e-39
-0.014106784 -0.14765279 0.017564051 1.0416664e-38
-0.012356918 -0.14765279 0.017564051 1.1523012e-38
-0.010695767 -0.14855875 0.014497451 1.2353851e-38
-0.0090216622 -0.14944084 0.011511736 1.2262735e-38
-0.0072611831 -0.14944084 0.011511736 1.318577e-38
-0.0055007003 -0.14944084 0.011511736 1.2448205e-38
-0.0037402213 -0.14944084 0.011511736 1.2356009e-38
-0.0019797422 -0.14944084 0.011511736 1.3461278e-38
-0.00021926314 -0.14944084 0.011511736 1.1432974e-38
0.0015412159 -0.14944084 0.011511736 8.482714e-39
0.0033016987 -0.14944084 0.011511736 8.2983228e-39
0.0050621778 -0.14944084 0.011511736 5.0714757e-39
0.0068226568 -0.14944084 0.011511736 1.3836505e-39
