# .PCD v0.7 - Point Cloud Data file format
VERSION 0.7
FIELDS x y z rgb
SIZE 4 4 4 4
TYPE F F F F
COUNT 1 1 1 1
WIDTH 797
HEIGHT 1
VIEWPOINT 0 0 0 1 0 0 0
POINTS 797
DATA ascii
-0.01047565 -0.093105495 0.012664318 5.9106083e-39
-0.0087151714 -0.093105495 0.012664318 6.6445481e-39
-0.0069546904 -0.093105495 0.012664318 7.0118775e-39
-0.012220213 -0.093406871 0.018716633 6.8311591e-39
-0.010470346 -0.093406871 0.018716633 1.1157321e-39
-0.0087177884 -0.094146177 0.015650034 2.4039205e-39
-0.0069625434 -0.094146177 0.015650034 3.6006504e-39
-0.012220213 -0.095156729 0.018716633 8.2119439e-39
-0.010470346 -0.095156729 0.018716633 1.8511503e-39
-0.0087177884 -0.095901415 0.015650034 3.4177235e-39
-0.0069625434 -0.095901415 0.015650034 6.3672466e-39
-0.012220213 -0.096906602 0.018716633 1.6415913e-38
-0.010470346 -0.096906602 0.018716633 1.4019534e-38
-0.0087177884 -0.097656667 0.015650034 1.540136e-38
-0.0069625434 -0.097656667 0.015650034 1.8535638e-38
-0.0052072983 -0.097656667 0.015650034 1.6785002e-38
-0.0016732514 -0.098386943 0.012664318 1.4756343e-38
8.7228604e-05 -0.098386943 0.012664318 1.4018779e-38
-0.012251711 -0.10160676 0.0067403316 2.2499336e-38
-0.010473033 -0.099411905 0.015650034 2.2591531e-38
-0.0087204762 -0.098656476 0.018716633 1.9825311e-38
-0.0069706086 -0.098656476 0.018716633 1.7427858e-38
-0.0052072983 -0.099411905 0.015650034 1.6691012e-38
-0.0034337314 -0.10014741 0.012664318 1.3925143e-38
-0.0016732514 -0.10014741 0.012664318 1.2635123e-38
8.7228604e-05 -0.10014741 0.012664318 1.3096101e-38
0.0018477086 -0.10014741 0.012664318 1.1159993e-38
0.0036081877 -0.10014741 0.012664318 1.1160713e-38
0.0053686677 -0.10014741 0.012664318 1.0053288e-38
-0.012220213 -0.10040633 0.018716633 2.2774484e-38
-0.010470346 -0.10040633 0.018716633 2.2958873e-38
-0.0087204762 -0.10040633 0.018716633 2.3050708e-38
-0.0069706086 -0.10040633 0.018716633 1.3369454e-38
-0.0052072983 -0.10116716 0.015650034 1.4107736e-38
-0.0034337314 -0.10190789 0.012664318 1.5121888e-38
-0.0016732514 -0.10190789 0.012664318 1.3832584e-38
8.7228604e-05 -0.10190789 0.012664318 1.7704798e-38
0.0018477086 -0.10190789 0.012664318 2.0102603e-38
0.0036081877 -0.10190789 0.012664318 2.0747973e-38
0.0053686677 -0.10190789 0.012664318 2.2038355e-38
0.0071291476 -0.10190789 0.012664318 2.2499334e-38
0.0088896286 -0.10190789 0.012664318 2.2407142e-38
-0.025304412 -0.1161568 -0.037319422 1.3371266e-38
-0.023456296 -0.1161568 -0.037319422 8.9454858e-39
-0.021608179 -0.1161568 -0.037319422 1.1342914e-38
-0.019760059 -0.1161568 -0.037319422 1.5674308e-38
-0.012325421 -0.11215095 -0.021286368 2.3050703e-38
-0.010505414 -0.11215095 -0.021286368 2.3050347e-38
-0.0087125376 -0.1044188 0.00966084 2.3141467e-38
-0.0069467928 -0.1044188 0.00966084 1.5027536e-38
-0.0051810462 -0.1044188 0.00966084 1.4290688e-38
-0.0034152996 -0.1044188 0.00966084 1.5950207e-38
-0.0016495539 -0.1044188 0.00966084 1.5674696e-38
0.0001161918 -0.1044188 0.00966084 1.8901896e-38
0.0018819375 -0.1044188 0.00966084 2.2221658e-38
0.0036081877 -0.10366838 0.012664318 2.2958866e-38
0.0053686677 -0.10366838 0.012664318 2.2958867e-38
0.0071291476 -0.10366838 0.012664318 2.295887e-38
0.0088896286 -0.10366838 0.012664318 2.2591169e-38
-0.025304412 -0.11800493 -0.037319422 1.4845677e-38
-0.023456296 -0.11800493 -0.037319422 1.4384673e-38
-0.021608179 -0.11800493 -0.037319422 1.401588e-38
-0.019760059 -0.11800493 -0.037319422 1.6595914e-38
-0.017911943 -0.11800493 -0.037319422 2.3233282e-38
-0.015965434 -0.11397095 -0.021286368 2.350988e-38
-0.014145428 -0.11397095 -0.021286368 2.3048905e-38
-0.012325421 -0.11397095 -0.021286368 2.3142174e-38
-0.010505414 -0.11397095 -0.021286368 2.3509879e-38
-0.0086854082 -0.11397095 -0.021286368 2.3509527e-38
-0.0069391113 -0.10691936 0.0067403316 2.3509527e-38
-0.0051682442 -0.10691936 0.0067403316 2.2403185e-38
-0.0033973772 -0.10691936 0.0067403316 2.2956715e-38
-0.0016265111 -0.10691936 0.0067403316 2.3418047e-38
0.0001161918 -0.10618456 0.00966084 2.3234374e-38
0.0018819375 -0.10618456 0.00966084 2.2958864e-38
0.0036476841 -0.10618456 0.00966084 2.3142537e-38
0.0054134298 -0.10618456 0.00966084 2.3142538e-38
0.0071791764 -0.10618456 0.00966084 2.3142541e-38
0.0089449212 -0.10618456 0.00966084 2.2590087e-38
-0.027302211 -0.12212978 -0.046305656 1.567362e-38
-0.025348803 -0.12060766 -0.040297866 1.6964359e-38
-0.02336433 -0.11808117 -0.03032577 1.4567626e-38
-0.021493936 -0.11731337 -0.027295232 1.6872514e-38
-0.019634338 -0.11654995 -0.024282098 2.0467783e-38
-0.017809076 -0.11654995 -0.024282098 2.3233652e-38
-0.015965434 -0.11579098 -0.021286368 2.3509886e-38
-0.014145428 -0.11579098 -0.021286368 2.3509886e-38
-0.012325421 -0.11579098 -0.021286368 2.341769e-38
-0.010505414 -0.11579098 -0.021286368 2.3509883e-38
-0.0087046325 -0.11023484 0.00064373016 2.3232936e-38
-0.0069311187 -0.10946019 0.00370121 2.3509527e-38
-0.0051549226 -0.10946019 0.00370121 2.3509886e-38
-0.0033787284 -0.10946019 0.00370121 2.2680125e-38
-0.0016025323 -0.10946019 0.00370121 2.341805e-38
0.000144355 -0.10869022 0.0067403316 2.2958151e-38
0.001915222 -0.10869022 0.0067403316 2.3050707e-38
0.0036860881 -0.10869022 0.0067403316 2.3142544e-38
0.0054569552 -0.10869022 0.0067403316 2.3142544e-38
0.0071791764 -0.10795029 0.00966084 2.295887e-38
0.0089449212 -0.10795029 0.00966084 2.3234379e-38
0.010769555 -0.10869022 0.0067403316 2.3234379e-38
0.012540422 -0.10869022 0.0067403316 2.341805e-38
0.014311288 -0.10869022 0.0067403316 2.3509886e-38
0.016237151 -0.11023484 0.00064373016 2.3141103e-38
0.018018706 -0.11023484 0.00064373016 2.3141106e-38
-0.027152533 -0.12170117 -0.037319422 1.5858e-38
-0.025200186 -0.11991702 -0.03032577 2.0467782e-38
-0.02332448 -0.11914389 -0.027295232 2.3509883e-38
-0.021459596 -0.11837523 -0.024282098 2.3509883e-38
-0.019605448 -0.11761098 -0.021286368 2.3509886e-38
-0.017785441 -0.11761098 -0.021286368 2.3509886e-38
-0.015941303 -0.11660783 -0.017354131 2.3509886e-38
-0.014128191 -0.11660783 -0.017354131 2.3141106e-38
-0.01228343 -0.11353777 -0.005319953 2.304891e-38
-0.010491418 -0.11353777 -0.005319953 2.341769e-38
-0.0087046325 -0.11201639 0.00064373016 2.3509883e-38
-0.0069230776 -0.11201639 0.00064373016 2.350988e-38
-0.0051549226 -0.11123641 0.00370121 2.3509883e-38
-0.0033787284 -0.11123641 0.00370121 2.3141819e-38
-0.0016025323 -0.11123641 0.00370121 2.341805e-38
0.00017366279 -0.11123641 0.00370121 2.277376e-38
0.0019498579 -0.11123641 0.00370121 2.259009e-38
0.0037260531 -0.11123641 0.00370121 2.2682286e-38
0.0054569552 -0.11046107 0.0067403316 2.3142544e-38
0.0072278213 -0.11046107 0.0067403316 2.2682286e-38
0.0089986883 -0.11046107 0.0067403316 2.3234379e-38
0.010769555 -0.11046107 0.0067403316 2.3234376e-38
0.012540422 -0.11046107 0.0067403316 2.350988e-38
0.014311288 -0.11046107 0.0067403316 2.350988e-38
0.016237151 -0.11201639 0.00064373016 2.3509879e-38
0.018018706 -0.11201639 0.00064373016 2.350988e-38
0.019800263 -0.11201639 0.00064373016 2.3415895e-38
0.021764806 -0.11353777 -0.005319953 2.3509527e-38
-0.029000649 -0.1235493 -0.037319422 1.4935681e-38
-0.027152533 -0.1235493 -0.037319422 1.5765086e-38
-0.025200186 -0.12175287 -0.03032577 2.2771953e-38
-0.02332448 -0.12097444 -0.027295232 2.3509883e-38
-0.021459596 -0.12020047 -0.024282098 2.3233296e-38
-0.019605448 -0.11943097 -0.021286368 2.2772321e-38
-0.017785441 -0.11943097 -0.021286368 2.2956712e-38
-0.015941303 -0.11842094 -0.017354131 2.3417691e-38
-0.014128191 -0.11842094 -0.017354131 2.3509886e-38
-0.01228343 -0.11532979 -0.005319953 2.3509886e-38
-0.010488795 -0.11456163 -0.0023293495 2.3509886e-38
-0.0087046325 -0.11379795 0.00064373016 2.3048545e-38
-0.0069230776 -0.11379795 0.00064373016 2.3048542e-38
-0.0051549226 -0.1130126 0.00370121 2.3233296e-38
-0.0033787284 -0.1130126 0.00370121 2.3418047e-38
-0.0016025323 -0.1130126 0.00370121 2.341805e-38
0.00017366279 -0.1130126 0.00370121 2.3234379e-38
0.0019498579 -0.1130126 0.00370121 2.3142544e-38
0.0037260531 -0.1130126 0.00370121 2.3142544e-38
0.0054569552 -0.11223195 0.0067403316 2.3142544e-38
0.0072278213 -0.11223195 0.0067403316 2.2774481e-38
0.0089986883 -0.11223195 0.0067403316 2.3234379e-38
0.010769555 -0.11223195 0.0067403316 2.3050703e-38
0.012540422 -0.11223195 0.0067403316 2.3141456e-38
0.014383225 -0.1130126 0.00370121 2.3418043e-38
0.016159419 -0.1130126 0.00370121 2.2956345e-38
0.017935615 -0.1130126 0.00370121 2.3509161e-38
0.019711809 -0.1130126 0.00370121 2.3509165e-38
0.021581819 -0.11379795 0.00064373016 2.3048191e-38
-0.029055482 -0.12616767 -0.040297866 1.4566896e-38
-0.027152533 -0.1253974 -0.037319422 1.5396659e-38
-0.025243988 -0.12434883 -0.033264875 2.2495367e-38
-0.02336433 -0.12358873 -0.03032577 2.3232933e-38
-0.021459596 -0.12202574 -0.024282098 2.2772318e-38
-0.019605448 -0.121251 -0.021286368 2.2587929e-38
-0.017754415 -0.12023406 -0.017354131 2.3048907e-38
-0.015885914 -0.11789979 -0.0083281994 2.3509886e-38
-0.014062332 -0.1163484 -0.0023293495 2.3509886e-38
-0.012275564 -0.1163484 -0.0023293495 2.3509886e-38
-0.010486189 -0.1155795 0.00064373016 2.3325494e-38
-0.0087046325 -0.1155795 0.00064373016 2.3509883e-38
-0.0069230776 -0.1155795 0.00064373016 2.350988e-38
-0.0051549226 -0.11478879 0.00370121 2.3325492e-38
-0.0033787284 -0.11478879 0.00370121 2.3418047e-38
-0.0016025323 -0.11478879 0.00370121 2.2219866e-38
0.00017366279 -0.11478879 0.00370121 2.3234379e-38
0.0019498579 -0.11478879 0.00370121 2.2958873e-38
0.0037662592 -0.1155795 0.00064373016 2.2313503e-38
0.0055022482 -0.11478879 0.00370121 2.2313503e-38
0.0072278213 -0.11400281 0.0067403316 2.2866677e-38
0.0089986883 -0.11400281 0.0067403316 2.3234379e-38
0.010830835 -0.11478879 0.00370121 2.2958151e-38
0.012607029 -0.11478879 0.00370121 2.3417687e-38
0.014455594 -0.1155795 0.00064373016 2.350988e-38
0.016159419 -0.11478879 0.00370121 2.350988e-38
0.017935615 -0.11478879 0.00370121 2.3140016e-38
0.019711809 -0.11478879 0.00370121 2.3509161e-38
0.021488005 -0.11478879 0.00370121 2.3509521e-38
0.023264201 -0.11478879 0.00370121 2.2681567e-38
-0.029055482 -0.12802102 -0.040297866 1.4197034e-38
-0.027152533 -0.12724553 -0.037319422 1.539558e-38
-0.025200186 -0.12542458 -0.03032577 2.2034388e-38
-0.02332448 -0.12463553 -0.027295232 2.350988e-38
-0.021425454 -0.123071 -0.021286368 2.350988e-38
-0.019567529 -0.12204717 -0.017354131 2.3509883e-38
-0.017707076 -0.12048493 -0.011354089 2.3325131e-38
-0.015867455 -0.11891381 -0.005319953 2.3233299e-38
-0.014049301 -0.11736105 0.00064373016 2.3509886e-38
-0.012267744 -0.11736105 0.00064373016 2.341805e-38
-0.010483509 -0.11656497 0.00370121 2.3509886e-38
-0.0087073129 -0.11656497 0.00370121 2.3232933e-38
-0.0069311187 -0.11656497 0.00370121 2.3325127e-38
-0.0051549226 -0.11656497 0.00370121 2.3325847e-38
-0.0033787284 -0.11656497 0.00370121 2.3418047e-38
-0.0016025323 -0.11656497 0.00370121 2.2588648e-38
0.00017366279 -0.11656497 0.00370121 2.3234379e-38
0.0019498579 -0.11656497 0.00370121 2.3142544e-38
0.0037662592 -0.11736105 0.00064373016 2.3142544e-38
0.0055022482 -0.11656497 0.00370121 1.8810069e-38
0.0072784442 -0.11656497 0.00370121 1.8994461e-38
0.0090546384 -0.11656497 0.00370121 2.0376673e-38
0.010830835 -0.11656497 0.00370121 2.0192282e-38
0.012607029 -0.11656497 0.00370121 2.0651818e-38
0.014383225 -0.11656497 0.00370121 2.1758522e-38
0.016159419 -0.11656497 0.00370121 2.2679759e-38
0.017935615 -0.11656497 0.00370121 2.3509879e-38
0.019711809 -0.11656497 0.00370121 2.3509514e-38
0.021488005 -0.11656497 0.00370121 2.2124419e-38
0.023264201 -0.11656497 0.00370121 2.3509883e-38
-0.029000649 -0.12909363 -0.037319422 1.3920447e-38
-0.027036039 -0.12726043 -0.03032577 1.5856558e-38
-0.025155021 -0.12646608 -0.027295232 2.2494643e-38
-0.023284854 -0.12567626 -0.024282098 2.2218059e-38
-0.021380639 -0.12386028 -0.017354131 2.2771955e-38
-0.019538006 -0.1230578 -0.014292717 2.3417324e-38
-0.017683202 -0.12149437 -0.0083281994 2.3417327e-38
-0.015867455 -0.12070583 -0.005319953 2.3141103e-38
-0.014049301 -0.11914261 0.00064373016 2.341769e-38
-0.012259703 -0.11834116 0.00370121 2.341805e-38
-0.010483509 -0.11834116 0.00370121 2.341805e-38
-0.0087073129 -0.11834116 0.00370121 2.3232933e-38
-0.0069311187 -0.11834116 0.00370121 2.3509879e-38
-0.0051549226 -0.11834116 0.00370121 2.350988e-38
-0.0033787284 -0.11834116 0.00370121 2.2588643e-38
-0.0016025323 -0.11834116 0.00370121 1.9269603e-38
0.00017366279 -0.11834116 0.00370121 1.6965435e-38
0.0019498579 -0.11834116 0.00370121 1.4292483e-38
0.0037662592 -0.11914261 0.00064373016 1.226418e-38
0.0055022482 -0.11834116 0.00370121 1.1711006e-38
0.0072784442 -0.11834116 0.00370121 1.0696854e-38
0.0090546384 -0.11834116 0.00370121 1.1894675e-38
0.010830835 -0.11834116 0.00370121 1.2447849e-38
0.012607029 -0.11834116 0.00370121 1.1985429e-38
0.014383225 -0.11834116 0.00370121 1.1985429e-38
0.016159419 -0.11834116 0.00370121 1.4843131e-38
0.017935615 -0.11834116 0.00370121 2.0097557e-38
0.019711809 -0.11834116 0.00370121 2.2031859e-38
0.021488005 -0.11834116 0.00370121 2.350951e-38
-0.029000649 -0.13094176 -0.037319422 1.4934239e-38
-0.027036039 -0.12909628 -0.03032577 1.723913e-38
-0.025110116 -0.1275015 -0.024282098 2.1203905e-38
-0.023245459 -0.126711 -0.021286368 2.1111709e-38
-0.021312261 -0.12409012 -0.011354089 2.2679038e-38
-0.019480487 -0.12329166 -0.0083281994 2.350988e-38
-0.017635871 -0.12170871 -0.0023293495 2.3509883e-38
-0.0158491 -0.12170871 -0.0023293495 2.3509886e-38
-0.014049301 -0.12092416 0.00064373016 2.3509886e-38
-0.012259703 -0.12011738 0.00370121 2.3233662e-38
-0.010483509 -0.12011738 0.00370121 2.3049626e-38
-0.0087099783 -0.11931543 0.0067403316 2.350952e-38
-0.0069391113 -0.11931543 0.0067403316 2.3509879e-38
-0.0051549226 -0.12011738 0.00370121 2.3233652e-38
-0.0033787284 -0.12011738 0.00370121 1.9822774e-38
-0.0016025323 -0.12011738 0.00370121 1.7241299e-38
0.00017366279 -0.12011738 0.00370121 1.4015175e-38
0.0020526694 -0.12249784 -0.005319953 1.2079788e-38
0.0038446812 -0.12249784 -0.005319953 1.0881245e-38
0.0055022482 -0.12011738 0.00370121 1.2632962e-38
0.0072784442 -0.12011738 0.00370121 1.1434419e-38
0.0090546384 -0.12011738 0.00370121 1.2079067e-38
0.010892482 -0.12092416 0.00064373016 1.1894675e-38
0.012607029 -0.12011738 0.00370121 1.1247864e-38
0.014383225 -0.12011738 0.00370121 1.1063473e-38
0.016159419 -0.12011738 0.00370121 1.2630436e-38
0.017935615 -0.12011738 0.00370121 1.6501928e-38
0.019711809 -0.12011738 0.00370121 2.0648922e-38
-0.028760633 -0.12932678 -0.024282098 1.6317173e-38
-0.025110116 -0.12932678 -0.024282098 1.9175238e-38
-0.023114851 -0.12589271 -0.011354089 2.0004643e-38
-0.021277776 -0.12508895 -0.0083281994 2.1480492e-38
-0.019451478 -0.12428986 -0.005319953 2.304782e-38
-0.017635871 -0.12349547 -0.0023293495 2.3325129e-38
-0.015830858 -0.12270571 0.00064373016 2.3233296e-38
-0.014049301 -0.12270571 0.00064373016 2.341769e-38
-0.012259703 -0.12189357 0.00370121 2.341805e-38
-0.010480843 -0.12108628 0.0067403316 2.341805e-38
-0.0087099783 -0.12108628 0.0067403316 2.350988e-38
-0.0069391113 -0.12108628 0.0067403316 2.2864149e-38
-0.0051682442 -0.12108628 0.0067403316 1.9545827e-38
-0.0033787284 -0.12189357 0.00370121 1.3830058e-38
-0.0016025323 -0.12189357 0.00370121 1.2631517e-38
0.00017366279 -0.12189357 0.00370121 1.1157466e-38
0.0020185858 -0.12349547 -0.0023293495 1.2725155e-38
0.0038053552 -0.12349547 -0.0023293495 1.4200288e-38
0.005547815 -0.12270571 0.00064373016 1.3647114e-38
0.0072784442 -0.12189357 0.00370121 1.3462723e-38
0.0090546384 -0.12189357 0.00370121 1.3830784e-38
0.010892482 -0.12270571 0.00064373016 1.2724436e-38
0.012674039 -0.12270571 0.00064373016 1.2907388e-38
0.014383225 -0.12189357 0.00370121 1.3552755e-38
0.016159419 -0.12189357 0.00370121 1.2446047e-38
0.017935615 -0.12189357 0.00370121 1.1892146e-38
0.019711809 -0.12189357 0.00370121 1.520938e-38
-0.023035502 -0.12608187 -0.005319953 1.935855e-38
-0.021243492 -0.12608187 -0.005319953 2.1479773e-38
-0.019422639 -0.12528224 -0.0023293495 2.2033668e-38
-0.017612413 -0.1244873 0.00064373016 2.350988e-38
-0.015830858 -0.1244873 0.00064373016 2.3233296e-38
-0.014049301 -0.1244873 0.00064373016 2.3509883e-38
-0.012259703 -0.12366976 0.00370121 2.341805e-38
-0.010480843 -0.12285714 0.0067403316 2.3418047e-38
-0.0087099783 -0.12285714 0.0067403316 2.3509879e-38
-0.0069391113 -0.12285714 0.0067403316 1.9545462e-38
-0.0051682442 -0.12285714 0.0067403316 1.7701913e-38
-0.0033973772 -0.12285714 0.0067403316 1.4106645e-38
-0.0016025323 -0.12366976 0.00370121 1.2631517e-38
0.00017366279 -0.12366976 0.00370121 1.3923335e-38
0.0019847024 -0.1244873 0.00064373016 1.2817351e-38
0.0037662592 -0.1244873 0.00064373016 1.3739307e-38
0.005547815 -0.1244873 0.00064373016 1.3831505e-38
0.0073293708 -0.1244873 0.00064373016 1.3370527e-38
0.0091109276 -0.1244873 0.00064373016 1.3001026e-38
0.010892482 -0.1244873 0.00064373016 1.2908827e-38
0.012674039 -0.1244873 0.00064373016 1.3276171e-38
0.014455594 -0.1244873 0.00064373016 1.3091777e-38
0.016159419 -0.12366976 0.00370121 1.2630438e-38
0.017935615 -0.12366976 0.00370121 1.2353127e-38
0.019711809 -0.12366976 0.00370121 1.2627905e-38
-0.022996178 -0.12706901 -0.0023293495 1.8620982e-38
-0.021209409 -0.12706901 -0.0023293495 2.0372702e-38
-0.019422639 -0.12706901 -0.0023293495 2.1295381e-38
-0.017612413 -0.12626885 0.00064373016 2.3509879e-38
-0.015830858 -0.12626885 0.00064373016 2.3325129e-38
-0.014035899 -0.12544595 0.00370121 2.3509883e-38
-0.012259703 -0.12544595 0.00370121 2.3049626e-38
-0.010483509 -0.12544595 0.00370121 2.1205711e-38
-0.0087099783 -0.12462802 0.0067403316 2.0006803e-38
-0.0069391113 -0.12462802 0.0067403316 1.5027876e-38
-0.0051549226 -0.12544595 0.00370121 1.4290674e-38
-0.0033787284 -0.12544595 0.00370121 1.309285e-38
-0.0016025323 -0.12544595 0.00370121 1.2631515e-38
0.00017366279 -0.12544595 0.00370121 1.3738944e-38
0.0019847024 -0.12626885 0.00064373016 1.3093937e-38
0.0037662592 -0.12626885 0.00064373016 1.4108089e-38
0.005547815 -0.12626885 0.00064373016 1.4384679e-38
0.0073293708 -0.12626885 0.00064373016 1.4292483e-38
0.0091109276 -0.12626885 0.00064373016 1.4199569e-38
0.010892482 -0.12626885 0.00064373016 1.4015178e-38
0.012674039 -0.12626885 0.00064373016 1.4198127e-38
0.014455594 -0.12626885 0.00064373016 1.4105931e-38
0.016237151 -0.12626885 0.00064373016 1.4013373e-38
0.018018706 -0.12626885 0.00064373016 1.4104487e-38
0.019800263 -0.12626885 0.00064373016 1.3734614e-38
-0.022957081 -0.1280504 0.00064373016 1.926599e-38
-0.021175524 -0.1280504 0.00064373016 1.8805374e-38
-0.019393967 -0.1280504 0.00064373016 1.9912803e-38
-0.017612413 -0.1280504 0.00064373016 2.3509876e-38
-0.015830858 -0.1280504 0.00064373016 2.350988e-38
-0.014035899 -0.12722217 0.00370121 2.3325492e-38
-0.012259703 -0.12722217 0.00370121 2.2496453e-38
-0.010483509 -0.12722217 0.00370121 2.0283755e-38
-0.0087073129 -0.12722217 0.00370121 1.9361431e-38
-0.0069311187 -0.12722217 0.00370121 1.3921529e-38
-0.0051549226 -0.12722217 0.00370121 1.4014087e-38
-0.003359965 -0.1280504 0.00064373016 1.4936763e-38
-0.0015784092 -0.1280504 0.00064373016 1.484421e-38
0.0002031466 -0.1280504 0.00064373016 1.5214074e-38
0.0020185858 -0.12885578 -0.0023293495 1.4753459e-38
0.0038053552 -0.12885578 -0.0023293495 1.5398828e-38
0.0055921236 -0.12885578 -0.0023293495 1.456907e-38
0.0073293708 -0.1280504 0.00064373016 1.4661266e-38
0.0091109276 -0.1280504 0.00064373016 1.4752743e-38
0.010892482 -0.1280504 0.00064373016 1.4660547e-38
0.012674039 -0.1280504 0.00064373016 1.4751301e-38
0.014455594 -0.1280504 0.00064373016 1.4751301e-38
0.016237151 -0.1280504 0.00064373016 1.5119364e-38
0.018018706 -0.1280504 0.00064373016 1.5304112e-38
0.019800263 -0.1280504 0.00064373016 1.5026081e-38
0.021673044 -0.12885578 -0.0023293495 1.4012283e-38
-0.024738638 -0.12983195 0.00064373016 1.7697946e-38
-0.022957081 -0.12983195 0.00064373016 1.9634054e-38
-0.021175524 -0.12983195 0.00064373016 1.7606469e-38
-0.019393967 -0.12983195 0.00064373016 1.8805374e-38
-0.017612413 -0.12983195 0.00064373016 2.3509516e-38
-0.015830858 -0.12983195 0.00064373016 2.2587562e-38
-0.014035899 -0.12899835 0.00370121 2.1943273e-38
-0.012259703 -0.12899835 0.00370121 2.1943279e-38
-0.010483509 -0.12899835 0.00370121 2.0560342e-38
-0.0087073129 -0.12899835 0.00370121 1.8623866e-38
-0.0069311187 -0.12899835 0.00370121 1.4198113e-38
-0.0051549226 -0.12899835 0.00370121 1.475165e-38
-0.003359965 -0.12983195 0.00064373016 1.604311e-38
-0.0015784092 -0.12983195 0.00064373016 1.5581775e-38
0.0002031466 -0.12983195 0.00064373016 1.5582854e-38
0.0019847024 -0.12983195 0.00064373016 1.5306633e-38
0.0038053552 -0.13064255 -0.0023293495 1.5214437e-38
0.0055921236 -0.13064255 -0.0023293495 1.4845657e-38
0.0073293708 -0.12983195 0.00064373016 1.4845657e-38
0.0091109276 -0.12983195 0.00064373016 1.4937134e-38
0.01095243 -0.13064255 -0.0023293495 1.4844938e-38
0.012739198 -0.13064255 -0.0023293495 1.5212279e-38
0.014525967 -0.13064255 -0.0023293495 1.5304475e-38
0.016312737 -0.13064255 -0.0023293495 1.5672538e-38
0.018099505 -0.13064255 -0.0023293495 1.5856929e-38
0.019886274 -0.13064255 -0.0023293495 1.5580699e-38
0.021673044 -0.13064255 -0.0023293495 1.38279e-38
0.023459813 -0.13064255 -0.0023293495 1.4749495e-38
-0.024738638 -0.13161351 0.00064373016 1.5485248e-38
-0.022957081 -0.13161351 0.00064373016 1.732916e-38
-0.021175524 -0.13161351 0.00064373016 1.7329882e-38
-0.019364486 -0.13077454 0.00370121 1.8713178e-38
-0.017588289 -0.13077454 0.00370121 2.1756716e-38
-0.015812093 -0.13077454 0.00370121 2.0282671e-38
-0.014035899 -0.13077454 0.00370121 2.1482295e-38
-0.012259703 -0.13077454 0.00370121 2.212767e-38
-0.010483509 -0.13077454 0.00370121 1.9638385e-38
-0.0087073129 -0.13077454 0.00370121 1.6779954e-38
-0.0069311187 -0.13077454 0.00370121 1.4751287e-38
-0.0051549226 -0.13077454 0.00370121 1.558141e-38
-0.003359965 -0.13161351 0.00064373016 1.6135306e-38
-0.0015784092 -0.13161351 0.00064373016 1.5489579e-38
0.0002031466 -0.13161351 0.00064373016 1.5859441e-38
0.0019847024 -0.13161351 0.00064373016 1.6136393e-38
0.0038053552 -0.13242932 -0.0023293495 1.5675415e-38
0.0055921236 -0.13242932 -0.0023293495 1.5952005e-38
0.007378893 -0.13242932 -0.0023293495 1.5583222e-38
0.0091656614 -0.13242932 -0.0023293495 1.5398112e-38
0.01095243 -0.13242932 -0.0023293495 1.5490308e-38
0.012739198 -0.13242932 -0.0023293495 1.6042042e-38
0.014525967 -0.13242932 -0.0023293495 1.6318629e-38
0.016388766 -0.13324992 -0.005319953 1.6410103e-38
0.018099505 -0.13242932 -0.0023293495 1.6226434e-38
0.019886274 -0.13242932 -0.0023293495 1.5672905e-38
0.021673044 -0.13242932 -0.0023293495 1.4750948e-38
0.023459813 -0.13242932 -0.0023293495 1.5395228e-38
0.025246581 -0.13242932 -0.0023293495 1.6039154e-38
-0.02469307 -0.13255073 0.00370121 1.3271832e-38
-0.022916874 -0.13255073 0.00370121 1.4102313e-38
-0.021140678 -0.13255073 0.00370121 1.8158921e-38
-0.019364486 -0.13255073 0.00370121 1.9634415e-38
-0.017588289 -0.13255073 0.00370121 1.9451825e-38
-0.015812093 -0.13255073 0.00370121 1.862315e-38
-0.014035899 -0.13255073 0.00370121 2.2957425e-38
-0.012259703 -0.13255073 0.00370121 2.3234015e-38
-0.010483509 -0.13255073 0.00370121 1.7794473e-38
-0.0087073129 -0.13255073 0.00370121 1.6318975e-38
-0.0069311187 -0.13255073 0.00370121 1.6779591e-38
-0.0051415209 -0.13339506 0.00064373016 1.7240932e-38
-0.0033417204 -0.13421609 -0.0023293495 1.6965064e-38
-0.0015549511 -0.13421609 -0.0023293495 1.6688122e-38
0.00023181736 -0.13421609 -0.0023293495 1.7057984e-38
0.0020185858 -0.13421609 -0.0023293495 1.7427132e-38
0.0038446812 -0.13504194 -0.005319953 1.705835e-38
0.0056815268 -0.13587265 -0.0083281994 1.6966157e-38
0.0074287057 -0.13504194 -0.005319953 1.6505179e-38
0.0091656614 -0.13421609 -0.0023293495 1.6227873e-38
0.01095243 -0.13421609 -0.0023293495 1.6320068e-38
0.012739198 -0.13421609 -0.0023293495 1.6963999e-38
0.014525967 -0.13421609 -0.0023293495 1.714839e-38
0.016388766 -0.13504194 -0.005319953 1.7055473e-38
0.018099505 -0.13421609 -0.0023293495 1.6687056e-38
0.019886274 -0.13421609 -0.0023293495 1.5950581e-38
0.021673044 -0.13421609 -0.0023293495 1.6779619e-38
0.023459813 -0.13421609 -0.0023293495 1.5580348e-38
0.025246581 -0.13421609 -0.0023293495 1.613243e-38
-0.028245462 -0.13432692 0.00370121 8.4791015e-39
-0.026469266 -0.13432692 0.00370121 8.3854639e-39
-0.02469307 -0.13432692 0.00370121 1.1612308e-38
-0.022916874 -0.13432692 0.00370121 1.2810854e-38
-0.021140678 -0.13432692 0.00370121 1.8251117e-38
-0.019335177 -0.13348235 0.0067403316 1.889685e-38
-0.01756431 -0.13348235 0.0067403316 1.7515717e-38
-0.015793445 -0.13348235 0.0067403316 1.8162528e-38
-0.014035899 -0.13432692 0.00370121 2.3418045e-38
-0.012259703 -0.13432692 0.00370121 2.3418047e-38
-0.010483509 -0.13432692 0.00370121 1.6780321e-38
-0.0087073129 -0.13432692 0.00370121 1.5950193e-38
-0.0069230776 -0.13517661 0.00064373016 1.7793743e-38
-0.0051415209 -0.13517661 0.00064373016 1.7609714e-38
-0.0033417204 -0.13600285 -0.0023293495 1.7149455e-38
-0.0015549511 -0.13600285 -0.0023293495 1.7610079e-38
0.00023181736 -0.13600285 -0.0023293495 1.7242375e-38
0.0020185858 -0.13600285 -0.0023293495 1.7150545e-38
0.0038446812 -0.13683395 -0.005319953 1.7519328e-38
0.0056815268 -0.13766994 -0.0083281994 1.7611526e-38
0.0074287057 -0.13683395 -0.005319953 1.7427135e-38
0.0092207175 -0.13683395 -0.005319953 1.7334223e-38
0.011012731 -0.13683395 -0.005319953 1.7334223e-38
0.012739198 -0.13600285 -0.0023293495 1.7793759e-38
0.014525967 -0.13600285 -0.0023293495 1.7793759e-38
0.016388766 -0.13683395 -0.005319953 1.7793041e-38
0.018099505 -0.13600285 -0.0023293495 1.7516818e-38
0.019886274 -0.13600285 -0.0023293495 1.7057293e-38
0.021673044 -0.13600285 -0.0023293495 1.7610467e-38
0.023459813 -0.13600285 -0.0023293495 1.6594862e-38
0.025348829 -0.13683395 -0.005319953 1.6685248e-38
-0.028245462 -0.13610314 0.00370121 7.8344481e-39
-0.026469266 -0.13610314 0.00370121 7.1887158e-39
-0.024647778 -0.13525321 0.0067403316 1.0323364e-38
-0.022838505 -0.13443647 0.00966084 1.2628258e-38
-0.021072758 -0.13443647 0.00966084 1.7054008e-38
-0.019335177 -0.13525321 0.0067403316 1.6593756e-38
-0.01756431 -0.13525321 0.0067403316 1.6041303e-38
-0.015793445 -0.13525321 0.0067403316 1.8162528e-38
-0.014035899 -0.13610314 0.00370121 2.3418045e-38
-0.012259703 -0.13610314 0.00370121 2.2773037e-38
-0.010483509 -0.13610314 0.00370121 1.6597008e-38
-0.0087073129 -0.13610314 0.00370121 1.5582852e-38
-0.0069230776 -0.13695817 0.00064373016 1.7887743e-38
-0.0051415209 -0.13695817 0.00064373016 1.7334569e-38
-0.0033417204 -0.13778962 -0.0023293495 1.7426766e-38
-0.0015549511 -0.13778962 -0.0023293495 1.8625309e-38
0.00023181736 -0.13778962 -0.0023293495 1.7887744e-38
0.0020185858 -0.13778962 -0.0023293495 1.761116e-38
0.0038446812 -0.13862596 -0.005319953 1.8532761e-38
0.0056815268 -0.13946722 -0.0083281994 1.8256174e-38
0.0074788127 -0.13946722 -0.0083281994 1.8440568e-38
0.0092760995 -0.13946722 -0.0083281994 1.8716079e-38
0.011012731 -0.13862596 -0.005319953 1.8716079e-38
0.012804743 -0.13862596 -0.005319953 1.8531689e-38
0.014596755 -0.13862596 -0.005319953 1.8347297e-38
0.016388766 -0.13862596 -0.005319953 1.8439493e-38
0.01818078 -0.13862596 -0.005319953 1.8348023e-38
0.019886274 -0.13778962 -0.0023293495 1.8163996e-38
0.021673044 -0.13778962 -0.0023293495 1.7610823e-38
0.023459813 -0.13778962 -0.0023293495 1.7794124e-38
0.025348829 -0.13862596 -0.005319953 1.6317908e-38
0.027248969 -0.13946722 -0.0083281994 1.7423165e-38
-0.028245462 -0.13787933 0.00370121 7.191594e-39
-0.026469266 -0.13787933 0.00370121 7.0075573e-39
-0.024604252 -0.13620223 0.00966084 9.3124453e-39
-0.022838505 -0.13620223 0.00966084 1.0879771e-38
-0.021072758 -0.13620223 0.00966084 1.539736e-38
-0.019335177 -0.13702409 0.0067403316 1.4660159e-38
-0.01756431 -0.13702409 0.0067403316 1.4752001e-38
-0.015793445 -0.13702409 0.0067403316 1.7056896e-38
-0.014035899 -0.13787933 0.00370121 2.3234369e-38
-0.012259703 -0.13787933 0.00370121 2.3418047e-38
-0.010483509 -0.13787933 0.00370121 1.7150545e-38
-0.0087046325 -0.13873972 0.00064373016 1.5033285e-38
-0.0069230776 -0.13873972 0.00064373016 1.6047798e-38
-0.0051284898 -0.13957639 -0.0023293495 1.6139633e-38
-0.0033233678 -0.14041798 -0.005319953 1.7336734e-38
-0.001531356 -0.14041798 -0.005319953 1.7703716e-38
0.0002606567 -0.14041798 -0.005319953 1.9730578e-38
0.0020526694 -0.14041798 -0.005319953 1.9453631e-38
0.0038842401 -0.14126451 -0.0083281994 1.9268521e-38
0.0056815268 -0.14126451 -0.0083281994 1.871535e-38
0.0074788127 -0.14126451 -0.0083281994 1.9268168e-38
0.0092760995 -0.14126451 -0.0083281994 1.9360729e-38
0.011012731 -0.14041798 -0.005319953 1.880792e-38
0.012804743 -0.14041798 -0.005319953 1.779485e-38
0.014596755 -0.14041798 -0.005319953 1.7334956e-38
0.016388766 -0.14041798 -0.005319953 1.7796656e-38
0.018099505 -0.13957639 -0.0023293495 1.8442022e-38
0.019886274 -0.13957639 -0.0023293495 1.9085949e-38
0.021673044 -0.13957639 -0.0023293495 1.8440213e-38
0.023459813 -0.13957639 -0.0023293495 1.7701927e-38
0.025246581 -0.13957639 -0.0023293495 1.7332778e-38
0.027033349 -0.13957639 -0.0023293495 1.724058e-38
0.028820118 -0.13957639 -0.0023293495 2.2495368e-38
0.030606886 -0.13957639 -0.0023293495 2.2126584e-38
0.032393657 -0.13957639 -0.0023293495 1.8716065e-38
-0.026469266 -0.13965552 0.00370121 9.0369402e-39
-0.024604252 -0.13796796 0.00966084 9.0372961e-39
-0.022799009 -0.13711749 0.012664318 1.0973404e-38
-0.02103853 -0.13711749 0.012664318 1.5214047e-38
-0.019335177 -0.13879494 0.0067403316 1.4753071e-38
-0.01756431 -0.13879494 0.0067403316 1.364637e-38
-0.015793445 -0.13879494 0.0067403316 1.5858713e-38
-0.014035899 -0.13965552 0.00370121 2.3326206e-38
-0.012259703 -0.13965552 0.00370121 2.3418045e-38
-0.010483509 -0.13965552 0.00370121 1.7242741e-38
-0.0087073129 -0.13965552 0.00370121 1.4297162e-38
-0.0069230776 -0.14052127 0.00064373016 1.4850698e-38
-0.0051284898 -0.14136316 -0.0023293495 1.4850336e-38
-0.0033417204 -0.14136316 -0.0023293495 1.6968315e-38
-0.0015549511 -0.14136316 -0.0023293495 1.7796994e-38
0.00023181736 -0.14136316 -0.0023293495 2.0283755e-38
0.0020526694 -0.14220999 -0.005319953 2.0190477e-38
0.0038446812 -0.14220999 -0.005319953 2.0373789e-38
0.0056815268 -0.1430618 -0.0083281994 2.1019162e-38
0.0074788127 -0.1430618 -0.0083281994 2.111136e-38
0.0092207175 -0.14220999 -0.005319953 2.0835499e-38
0.011012731 -0.14220999 -0.005319953 2.0098659e-38
0.012739198 -0.14136316 -0.0023293495 1.890156e-38
0.014525967 -0.14136316 -0.0023293495 1.7795937e-38
0.016312737 -0.14136316 -0.0023293495 1.7059454e-38
0.018099505 -0.14136316 -0.0023293495 1.6783223e-38
0.019800263 -0.14052127 0.00064373016 1.7426061e-38
0.021581819 -0.14052127 0.00064373016 1.8900467e-38
0.023363376 -0.14052127 0.00064373016 1.7978511e-38
0.025246581 -0.14136316 -0.0023293495 1.6872163e-38
0.027033349 -0.14136316 -0.0023293495 1.7333497e-38
0.028708043 -0.14052127 0.00064373016 2.1851083e-38
0.030489599 -0.14052127 0.00064373016 2.1112796e-38
0.032271154 -0.14052127 0.00064373016 1.8254732e-38
0.034052707 -0.14052127 0.00064373016 1.6687762e-38
0.035834268 -0.14052127 0.00064373016 1.2631153e-38
0.037473761 -0.13965552 0.00370121 1.0694682e-38
0.039249957 -0.13965552 0.00370121 7.2834435e-39
-0.026469266 -0.1414317 0.00370121 9.9581818e-39
-0.024647778 -0.14056583 0.0067403316 8.5752446e-39
-0.022799009 -0.13887797 0.012664318 1.0880493e-38
-0.02103853 -0.13887797 0.012664318 1.3553809e-38
-0.019307014 -0.13973372 0.00966084 1.3830398e-38
-0.017541269 -0.13973372 0.00966084 1.2723698e-38
-0.015775522 -0.13973372 0.00966084 1.5212981e-38
-0.014009776 -0.13973372 0.00966084 2.3509876e-38
-0.012259703 -0.1414317 0.00370121 2.3509879e-38
-0.010483509 -0.1414317 0.00370121 1.973202e-38
-0.0087073129 -0.1414317 0.00370121 1.7522567e-38
-0.0069230776 -0.14230286 0.00064373016 1.6417662e-38
-0.0051415209 -0.14230286 0.00064373016 1.5125844e-38
-0.003359965 -0.14230286 0.00064373016 1.6322945e-38
-0.0015549511 -0.14314993 -0.0023293495 1.6875037e-38
0.00023181736 -0.14314993 -0.0023293495 1.9270326e-38
0.0020526694 -0.14400201 -0.005319953 2.0283036e-38
0.0038446812 -0.14400201 -0.005319953 2.1573059e-38
0.0056815268 -0.14485909 -0.0083281994 2.1019885e-38
0.0074287057 -0.14400201 -0.005319953 2.0927692e-38
0.0092207175 -0.14400201 -0.005319953 2.0835859e-38
0.01095243 -0.14314993 -0.0023293495 2.0744384e-38
0.012739198 -0.14314993 -0.0023293495 2.009974e-38
0.014455594 -0.14230286 0.00064373016 1.9085951e-38
0.016237151 -0.14230286 0.00064373016 1.7611543e-38
0.018018706 -0.14230286 0.00064373016 1.6597748e-38
0.019800263 -0.14230286 0.00064373016 1.7149475e-38
0.021581819 -0.14230286 0.00064373016 1.8808271e-38
0.023363376 -0.14230286 0.00064373016 1.7886315e-38
0.025246581 -0.14314993 -0.0023293495 1.7240946e-38
0.027033349 -0.14314993 -0.0023293495 1.770228e-38
0.028708043 -0.14230286 0.00064373016 2.0099366e-38
0.030489599 -0.14230286 0.00064373016 1.9176688e-38
0.032271154 -0.14230286 0.00064373016 1.6963993e-38
0.034052707 -0.14230286 0.00064373016 1.6503371e-38
0.035697564 -0.1414317 0.00370121 1.1340414e-38
0.037473761 -0.1414317 0.00370121 1.0418095e-38
0.039249957 -0.1414317 0.00370121 7.1912479e-39
-0.026469266 -0.14320792 0.00370121 1.0695394e-38
-0.024647778 -0.14233668 0.0067403316 1.0419163e-38
-0.022838505 -0.14149947 0.00966084 1.0787226e-38
-0.021072758 -0.14149947 0.00966084 1.1617706e-38
-0.019307014 -0.14149947 0.00966084 1.2538943e-38
-0.017541269 -0.14149947 0.00966084 1.2170524e-38
-0.015775522 -0.14149947 0.00966084 1.484348e-38
-0.014009776 -0.14149947 0.00966084 2.268083e-38
-0.012251711 -0.14233668 0.0067403316 2.3509876e-38
-0.010483509 -0.14320792 0.00370121 2.2774111e-38
-0.0087073129 -0.14320792 0.00370121 2.1762485e-38
-0.0069230776 -0.14408441 0.00064373016 1.9459036e-38
-0.0051415209 -0.14408441 0.00064373016 1.641622e-38
-0.003359965 -0.14408441 0.00064373016 1.5954163e-38
-0.0015549511 -0.1449367 -0.0023293495 1.5031127e-38
0.00023181736 -0.1449367 -0.0023293495 1.7058352e-38
0.0020526694 -0.14579402 -0.005319953 1.9730228e-38
0.0038446812 -0.14579402 -0.005319953 2.2864879e-38
0.0056366939 -0.14579402 -0.005319953 2.3509886e-38
0.0074287057 -0.14579402 -0.005319953 2.3509527e-38
0.0092207175 -0.14579402 -0.005319953 2.3509527e-38
0.01095243 -0.1449367 -0.0023293495 2.341805e-38
0.012739198 -0.1449367 -0.0023293495 2.341805e-38
0.014455594 -0.14408441 0.00064373016 2.3234379e-38
0.016237151 -0.14408441 0.00064373016 2.2404628e-38
0.018018706 -0.14408441 0.00064373016 2.1574865e-38
0.019800263 -0.14408441 0.00064373016 1.7240949e-38
0.021581819 -0.14408441 0.00064373016 1.6411185e-38
0.023363376 -0.14408441 0.00064373016 1.6411185e-38
0.025246581 -0.1449367 -0.0023293495 1.7978511e-38
0.027033349 -0.1449367 -0.0023293495 1.8439845e-38
0.028708043 -0.14408441 0.00064373016 1.9546192e-38
0.030489599 -0.14408441 0.00064373016 1.9545471e-38
0.032393657 -0.1449367 -0.0023293495 1.6871797e-38
0.034052707 -0.14408441 0.00064373016 1.5489219e-38
0.035697564 -0.14320792 0.00370121 1.0234068e-38
0.037473761 -0.14320792 0.00370121 1.0417739e-38
0.039249957 -0.14320792 0.00370121 7.0990523e-39
-0.026418643 -0.14410757 0.0067403316 9.7727228e-39
-0.024647778 -0.14410757 0.0067403316 1.0786875e-38
-0.022838505 -0.1432652 0.00966084 1.0417013e-38
-0.021072758 -0.1432652 0.00966084 1.1340046e-38
-0.019307014 -0.1432652 0.00966084 1.2537869e-38
-0.017541269 -0.1432652 0.00966084 1.1616633e-38
-0.015775522 -0.1432652 0.00966084 1.3552021e-38
-0.014009776 -0.1432652 0.00966084 2.1297174e-38
-0.012251711 -0.14410757 0.0067403316 2.3509869e-38
-0.010483509 -0.14498411 0.00370121 2.3509876e-38
-0.0087073129 -0.14498411 0.00370121 2.295887e-38
-0.0069311187 -0.14498411 0.00370121 2.1485901e-38
-0.0051415209 -0.14586596 0.00064373016 1.8811508e-38
-0.003359965 -0.14586596 0.00064373016 1.752077e-38
-0.0015784092 -0.14586596 0.00064373016 1.5307714e-38
0.0002031466 -0.14586596 0.00064373016 1.6597018e-38
0.0020185858 -0.14672346 -0.0023293495 1.9270692e-38
0.0038053552 -0.14672346 -0.0023293495 2.3234379e-38
0.0055921236 -0.14672346 -0.0023293495 2.3325856e-38
0.007378893 -0.14672346 -0.0023293495 2.3325856e-38
0.0091656614 -0.14672346 -0.0023293495 2.3325856e-38
0.01095243 -0.14672346 -0.0023293495 2.341805e-38
0.012739198 -0.14672346 -0.0023293495 2.3509886e-38
0.014455594 -0.14586596 0.00064373016 2.3325497e-38
0.016237151 -0.14586596 0.00064373016 2.2956715e-38
0.018018706 -0.14586596 0.00064373016 2.2680128e-38
0.019800263 -0.14586596 0.00064373016 2.0467793e-38
0.021488005 -0.14498411 0.00370121 1.8070706e-38
0.023264201 -0.14498411 0.00370121 1.8255454e-38
0.025246581 -0.14672346 -0.0023293495 1.9730584e-38
0.026926486 -0.14586596 0.00064373016 1.8993019e-38
0.028708043 -0.14586596 0.00064373016 1.9822779e-38
0.030489599 -0.14586596 0.00064373016 2.0283036e-38
0.032271154 -0.14586596 0.00064373016 1.429032e-38
0.034052707 -0.14586596 0.00064373016 1.3737502e-38
0.035697564 -0.14498411 0.00370121 9.3121117e-39
0.037473761 -0.14498411 0.00370121 9.7723696e-39
0.039249957 -0.14498411 0.00370121 6.0845444e-39
-0.026418643 -0.14587842 0.0067403316 7.5589542e-39
-0.024647778 -0.14587842 0.0067403316 8.3887149e-39
-0.022838505 -0.14503096 0.00966084 8.6653018e-39
-0.021072758 -0.14503096 0.00966084 1.1431171e-38
-0.019307014 -0.14503096 0.00966084 1.2260929e-38
-0.017541269 -0.14503096 0.00966084 1.0970187e-38
-0.015775522 -0.14503096 0.00966084 1.1800304e-38
-0.014009776 -0.14503096 0.00966084 1.9360344e-38
-0.012244029 -0.14503096 0.00966084 2.323256e-38
-0.010480843 -0.14587842 0.0067403316 2.350987e-38
-0.0087073129 -0.1467603 0.00370121 2.3234372e-38
-0.0069311187 -0.1467603 0.00370121 2.295887e-38
-0.0051415209 -0.14764751 0.00064373016 2.1944718e-38
-0.003359965 -0.14764751 0.00064373016 2.1483743e-38
-0.0015784092 -0.14764751 0.00064373016 1.8718597e-38
0.0002031466 -0.14764751 0.00064373016 1.8626401e-38
0.0020185858 -0.14851023 -0.0023293495 1.9823867e-38
0.0038053552 -0.14851023 -0.0023293495 2.249754e-38
0.0055921236 -0.14851023 -0.0023293495 2.3234379e-38
0.007378893 -0.14851023 -0.0023293495 2.3234379e-38
0.0091656614 -0.14851023 -0.0023293495 2.341805e-38
0.010892482 -0.14764751 0.00064373016 2.3509886e-38
0.012674039 -0.14764751 0.00064373016 2.3416971e-38
0.014455594 -0.14764751 0.00064373016 2.3417327e-38
0.016237151 -0.14764751 0.00064373016 2.3509521e-38
0.018018706 -0.14764751 0.00064373016 2.350988e-38
0.019800263 -0.14764751 0.00064373016 2.3509886e-38
0.021488005 -0.1467603 0.00370121 2.2588292e-38
0.023264201 -0.1467603 0.00370121 2.2404257e-38
0.025246581 -0.14851023 -0.0023293495 2.212767e-38
0.026926486 -0.14764751 0.00064373016 2.065254e-38
0.028708043 -0.14764751 0.00064373016 2.0560344e-38
0.030489599 -0.14764751 0.00064373016 2.0283036e-38
0.032271154 -0.14764751 0.00064373016 1.1616647e-38
0.034052707 -0.14764751 0.00064373016 1.1340416e-38
0.035697564 -0.1467603 0.00370121 8.2057642e-39
0.037473761 -0.1467603 0.00370121 8.2972409e-39
0.039249957 -0.1467603 0.00370121 4.7938056e-39
-0.021072758 -0.14679669 0.00966084 1.0692888e-38
-0.019307014 -0.14679669 0.00966084 1.1061669e-38
-0.017541269 -0.14679669 0.00966084 1.1430449e-38
-0.015757089 -0.1459199 0.012664318 1.106202e-38
-0.01399661 -0.1459199 0.012664318 1.5948387e-38
-0.012244029 -0.14679669 0.00966084 2.1296089e-38
-0.010480843 -0.14764927 0.0067403316 2.3509867e-38
-0.0087073129 -0.14853649 0.00370121 2.3509876e-38
-0.0069311187 -0.14853649 0.00370121 2.3418045e-38
-0.0051415209 -0.14942907 0.00064373016 2.3234376e-38
-0.003359965 -0.14942907 0.00064373016 2.3234379e-38
-0.0015784092 -0.14942907 0.00064373016 2.2129112e-38
0.0002031466 -0.14942907 0.00064373016 2.1944366e-38
0.005547815 -0.14942907 0.00064373016 2.3050708e-38
0.0073293708 -0.14942907 0.00064373016 2.3049991e-38
0.0091109276 -0.14942907 0.00064373016 2.3233662e-38
0.010892482 -0.14942907 0.00064373016 2.341769e-38
0.012674039 -0.14942907 0.00064373016 2.3509883e-38
0.014455594 -0.14942907 0.00064373016 2.3509879e-38
0.016237151 -0.14942907 0.00064373016 2.3509517e-38
0.018018706 -0.14942907 0.00064373016 2.3509517e-38
0.019800263 -0.14942907 0.00064373016 2.31411e-38
0.021581819 -0.14942907 0.00064373016 2.341805e-38
0.026926486 -0.14942907 0.00064373016 2.2865235e-38
0.028708043 -0.14942907 0.00064373016 1.9730584e-38
0.030489599 -0.14942907 0.00064373016 1.7978145e-38
0.032271154 -0.14942907 0.00064373016 1.134006e-38
0.034052707 -0.14942907 0.00064373016 9.8649296e-39
0.035697564 -0.14853649 0.00370121 8.1135686e-39
0.037473761 -0.14853649 0.00370121 8.3894366e-39
0.039249957 -0.14853649 0.00370121 5.9923502e-39
-0.021072758 -0.14856245 0.00966084 1.0047166e-38
-0.019307014 -0.14856245 0.00966084 9.9553232e-39
-0.017541269 -0.14856245 0.00966084 1.2628992e-38
-0.015757089 -0.14768039 0.012664318 1.1154215e-38
-0.01399661 -0.14768039 0.012664318 1.2352757e-38
-0.012244029 -0.14856245 0.00966084 1.8345829e-38
-0.010478284 -0.14856245 0.00966084 2.3140002e-38
-0.01751757 -0.14944084 0.012664318 1.1799234e-38
-0.015757089 -0.14944084 0.012664318 1.2259487e-38
-0.01399661 -0.14944084 0.012664318 1.1891059e-38
