# .PCD v0.7 - Point Cloud Data file format
VERSION 0.7
FIELDS x y z rgb
SIZE 4 4 4 4
TYPE F F F F
COUNT 1 1 1 1
WIDTH 936
HEIGHT 1
VIEWPOINT 0 0 0 1 0 0 0
POINTS 936
DATA ascii
-0.079153217 -0.13241051 -0.05393834 2.3142537e-38
-0.077191047 -0.13241051 -0.05393834 2.3142539e-38
-0.074925058 -0.13139187 -0.049861263 2.3050347e-38
-0.072755612 -0.13065563 -0.046914648 2.341805e-38
-0.070519842 -0.12964968 -0.042888355 2.341805e-38
-0.068367146 -0.12889244 -0.039857578 2.3509168e-38
-0.066429652 -0.12889244 -0.039857578 2.3509527e-38
-0.064492159 -0.12889244 -0.039857578 2.3508809e-38
-0.062300257 -0.12789918 -0.035882186 2.3324052e-38
-0.060369737 -0.12789918 -0.035882186 2.3323688e-38
-0.058439218 -0.12789918 -0.035882186 1.7883423e-38
-0.056508698 -0.12789918 -0.035882186 1.281266e-38
-0.054578178 -0.12789918 -0.035882186 5.5173044e-40
-0.052429669 -0.12691309 -0.031935405 1.8438846e-40
-0.050126165 -0.12513812 -0.024831247 3.6770072e-40
-0.048215024 -0.12513812 -0.024831247 3.6838553e-39
-0.046303876 -0.12513812 -0.024831247 8.0141717e-39
-0.044392727 -0.12513812 -0.024831247 9.5782604e-39
-0.042345308 -0.12440531 -0.02189834 4.5056944e-39
-0.040439315 -0.12440531 -0.02189834 7.0875098e-39
-0.038533308 -0.12440531 -0.02189834 2.0917216e-38
-0.036627308 -0.12440531 -0.02189834 2.2024306e-38
-0.034601629 -0.12364738 -0.018864702 2.3507013e-38
-0.032700941 -0.12364738 -0.018864702 2.3507374e-38
-0.030658586 -0.12266256 -0.014923166 2.3507006e-38
-0.028662419 -0.12191428 -0.011928272 1.9545074e-38
-0.026773898 -0.12191428 -0.011928272 1.3829661e-38
-0.02476248 -0.12091358 -0.0079229586 1.3276157e-38
-0.022880981 -0.12091358 -0.0079229586 1.3460199e-38
-0.020999482 -0.12091358 -0.0079229586 1.4565465e-38
-0.019117983 -0.12091358 -0.0079229586 1.4288514e-38
-0.017236484 -0.12091358 -0.0079229586 1.3458384e-38
-0.01528771 -0.12014665 -0.0048534386 1.41963e-38
-0.013411595 -0.12014665 -0.0048534386 1.4288131e-38
-0.011535479 -0.12014665 -0.0048534386 1.3181418e-38
-0.009659363 -0.12014665 -0.0048534386 1.2995592e-38
-0.0077832472 -0.12014665 -0.0048534386 1.2073641e-38
-0.0058684777 -0.11941226 -0.0019140951 1.0413768e-38
-0.0039975103 -0.11941226 -0.0019140951 1.1797071e-38
-0.0021265503 -0.11941226 -0.0019140951 1.2903424e-38
-0.00022368319 -0.11840202 0.0021292455 1.2535003e-38
0.0016401894 -0.11840202 0.0021292455 1.1982548e-38
0.0035040639 -0.11840202 0.0021292455 1.1983626e-38
0.0053679366 -0.11840202 0.0021292455 1.2352405e-38
0.0072318111 -0.11840202 0.0021292455 1.1985781e-38
0.0090956856 -0.11840202 0.0021292455 8.8529357e-39
0.01095956 -0.11840202 0.0021292455 8.8547335e-39
0.012810228 -0.11764936 0.0051416643 8.3015626e-39
0.01466882 -0.11764936 0.0051416643 7.9327772e-39
0.016503779 -0.11690097 0.0081370361 5.1661923e-39
0.01835712 -0.11690097 0.0081370361 8.9462131e-39
0.020176515 -0.1161568 0.01111548 1.1804278e-38
0.022024633 -0.1161568 0.01111548 2.1023841e-38
0.023872752 -0.1161568 0.01111548 2.3050707e-38
0.02572087 -0.1161568 0.01111548 2.3050707e-38
0.027568987 -0.1161568 0.01111548 2.3050708e-38
0.029417105 -0.1161568 0.01111548 2.295887e-38
0.031265222 -0.1161568 0.01111548 2.2774481e-38
0.033017371 -0.11514379 0.015170027 2.2682286e-38
0.03485838 -0.11514379 0.015170027 2.2589371e-38
0.036699388 -0.11514379 0.015170027 2.2405699e-38
0.038455367 -0.11440946 0.018109132 2.3142544e-38
0.040291227 -0.11440946 0.018109132 2.3142541e-38
0.04212708 -0.11440946 0.018109132 2.3234376e-38
0.043859325 -0.11365227 0.02113967 2.3233296e-38
0.045689866 -0.11365227 0.02113967 2.3508446e-38
0.047520407 -0.11365227 0.02113967 2.3508808e-38
0.049470507 -0.11440946 0.018109132 2.3508451e-38
0.051306359 -0.11440946 0.018109132 2.3507374e-38
0.05326847 -0.11514379 0.015170027 2.3508451e-38
0.055109479 -0.11514379 0.015170027 2.1662384e-38
0.056950487 -0.11514379 0.015170027 1.8528456e-38
0.059130602 -0.11690097 0.0081370361 1.2167679e-38
0.061133623 -0.11764936 0.0051416643 1.0693991e-38
-0.083077572 -0.1343727 -0.05393834 2.2037973e-38
-0.081115402 -0.1343727 -0.05393834 2.3142531e-38
-0.079153217 -0.1343727 -0.05393834 2.2405329e-38
-0.07688009 -0.13334687 -0.049861263 2.3418045e-38
-0.074705474 -0.13260551 -0.046914648 2.3141819e-38
-0.072462656 -0.13159247 -0.042888355 2.350988e-38
-0.070304625 -0.13082992 -0.039857578 2.3509883e-38
-0.068367146 -0.13082992 -0.039857578 2.3509527e-38
-0.066161297 -0.12982969 -0.035882186 2.2770526e-38
-0.064230777 -0.12982969 -0.035882186 2.3509168e-38
-0.062300257 -0.12982969 -0.035882186 2.3509521e-38
-0.060369737 -0.12982969 -0.035882186 2.3508788e-38
-0.058439218 -0.12982969 -0.035882186 1.2352031e-38
-0.056508698 -0.12982969 -0.035882186 5.4370072e-39
-0.054353274 -0.12883668 -0.031935405 3.4097852e-39
-0.052259021 -0.12805928 -0.028845619 4.3331806e-39
-0.050126165 -0.12704925 -0.024831247 6.913582e-39
-0.048215024 -0.12704925 -0.024831247 7.2794905e-39
-0.046157323 -0.12631132 -0.02189834 5.8011248e-39
-0.044251315 -0.12631132 -0.02189834 8.4712051e-39
-0.042345308 -0.12631132 -0.02189834 1.1143425e-38
-0.040439315 -0.12631132 -0.02189834 9.2076519e-39
-0.038533308 -0.12631132 -0.02189834 1.7690723e-38
-0.036627308 -0.12631132 -0.02189834 1.4095113e-38
-0.034601629 -0.12554805 -0.018864702 6.6287205e-39
-0.032552361 -0.12455635 -0.014923166 6.8156425e-39
-0.03055094 -0.12380283 -0.011928272 6.818155e-39
-0.028662419 -0.12380283 -0.011928272 7.7436804e-39
-0.026643978 -0.12279506 -0.0079229586 7.0079104e-39
-0.02476248 -0.12279506 -0.0079229586 7.0994124e-39
-0.022792181 -0.12202276 -0.0048534386 7.467846e-39
-0.020916065 -0.12202276 -0.0048534386 8.1117763e-39
-0.019117983 -0.12279506 -0.0079229586 8.9411712e-39
-0.01716383 -0.12202276 -0.0048534386 9.0337158e-39
-0.01528771 -0.12202276 -0.0048534386 1.0508119e-38
-0.013411595 -0.12202276 -0.0048534386 1.1430064e-38
-0.011535479 -0.12202276 -0.0048534386 1.1614452e-38
-0.009659363 -0.12202276 -0.0048534386 1.2904831e-38
-0.0077832472 -0.12202276 -0.0048534386 1.3088866e-38
-0.0058684777 -0.12128322 -0.0019140951 1.3457297e-38
-0.0039975103 -0.12128322 -0.0019140951 1.4194512e-38
-0.0021265503 -0.12128322 -0.0019140951 1.474805e-38
-0.00022368319 -0.12026589 0.0021292455 1.4655501e-38
0.0016401894 -0.12026589 0.0021292455 1.4195242e-38
0.0035172682 -0.11950795 0.0051416643 1.3827538e-38
0.0053758603 -0.11950795 0.0051416643 1.3919731e-38
0.0072344523 -0.11950795 0.0051416643 1.3828977e-38
0.0090930443 -0.11950795 0.0051416643 1.2172334e-38
0.01095956 -0.12026589 0.0021292455 1.3003537e-38
0.012810228 -0.11950795 0.0051416643 1.1159261e-38
0.01466882 -0.11950795 0.0051416643 1.0052912e-38
0.016503779 -0.11875431 0.0081370361 8.6681801e-39
0.01835712 -0.11875431 0.0081370361 1.604383e-38
0.020176515 -0.11800493 0.01111548 1.761116e-38
0.022024633 -0.11800493 0.01111548 2.3234379e-38
0.023872752 -0.11800493 0.01111548 2.2865961e-38
0.02572087 -0.11800493 0.01111548 2.286632e-38
0.027568987 -0.11800493 0.01111548 2.3050708e-38
0.029417105 -0.11800493 0.01111548 2.2958873e-38
0.031176362 -0.1169848 0.015170027 2.2958873e-38
0.033017371 -0.1169848 0.015170027 2.2958873e-38
0.03485838 -0.1169848 0.015170027 2.3142541e-38
0.036699388 -0.1169848 0.015170027 2.3142541e-38
0.038455367 -0.11624531 0.018109132 2.2774479e-38
0.040291227 -0.11624531 0.018109132 2.3142544e-38
0.042028777 -0.11548282 0.02113967 2.341805e-38
0.043859325 -0.11548282 0.02113967 2.3509883e-38
0.045689866 -0.11548282 0.02113967 2.3509524e-38
0.047520407 -0.11548282 0.02113967 2.3509165e-38
0.049350947 -0.11548282 0.02113967 2.3508809e-38
0.051306359 -0.11624531 0.018109132 2.3508091e-38
0.053142212 -0.11624531 0.018109132 2.3507373e-38
0.054978073 -0.11624531 0.018109132 1.6315392e-38
0.056950487 -0.1169848 0.015170027 1.0323399e-38
0.059130602 -0.11875431 0.0081370361 8.9411852e-39
-0.083077572 -0.13633488 -0.05393834 2.1114568e-38
-0.081115402 -0.13633488 -0.05393834 2.3418032e-38
-0.079153217 -0.13633488 -0.05393834 2.3326199e-38
-0.076655351 -0.13455538 -0.046914648 2.3417679e-38
-0.074405454 -0.13353528 -0.042888355 2.3509873e-38
-0.072242118 -0.13276742 -0.039857578 2.3509502e-38
-0.070304625 -0.13276742 -0.039857578 2.3509866e-38
-0.068091817 -0.13176022 -0.035882186 2.350952e-38
-0.066161297 -0.13176022 -0.035882186 2.3509168e-38
-0.064230777 -0.13176022 -0.035882186 2.3508091e-38
-0.062047668 -0.13076027 -0.031935405 2.3415881e-38
-0.060124077 -0.13076027 -0.031935405 2.3509846e-38
-0.058200471 -0.13076027 -0.031935405 8.5741459e-39
-0.056276865 -0.13076027 -0.031935405 4.4242888e-39
-0.054353274 -0.13076027 -0.031935405 4.1477131e-39
-0.052259021 -0.12997745 -0.028845619 5.1618623e-39
-0.050126165 -0.12896039 -0.024831247 6.6362791e-39
-0.048215024 -0.12896039 -0.024831247 6.6334134e-39
-0.046157323 -0.12821732 -0.02189834 6.4465068e-39
-0.044251315 -0.12821732 -0.02189834 8.3804515e-39
-0.042345308 -0.12821732 -0.02189834 8.1946042e-39
-0.040439315 -0.12821732 -0.02189834 9.0250586e-39
-0.038533308 -0.12821732 -0.02189834 1.5202517e-38
-0.036502309 -0.12744872 -0.018864702 1.3451163e-38
-0.034446135 -0.12645011 -0.014923166 5.339041e-39
-0.032439463 -0.12569134 -0.011928272 3.4047503e-39
-0.03055094 -0.12569134 -0.011928272 4.328873e-39
-0.028525477 -0.12467657 -0.0079229586 4.3313883e-39
-0.026643978 -0.12467657 -0.0079229586 5.5324426e-39
-0.024668297 -0.12389888 -0.0048534386 5.0729008e-39
-0.022792181 -0.12389888 -0.0048534386 5.2572921e-39
-0.020916065 -0.12389888 -0.0048534386 5.9005035e-39
-0.019117983 -0.12467657 -0.0079229586 5.8997832e-39
-0.01716383 -0.12389888 -0.0048534386 7.651496e-39
-0.015223293 -0.12315418 -0.0019140951 8.665285e-39
-0.013352329 -0.12315418 -0.0019140951 7.7433259e-39
-0.011535479 -0.12389888 -0.0048534386 7.3749007e-39
-0.009659363 -0.12389888 -0.0048534386 8.9422264e-39
-0.0077832472 -0.12389888 -0.0048534386 1.124676e-38
-0.0058684777 -0.12315418 -0.0019140951 1.2076523e-38
-0.0039975103 -0.12315418 -0.0019140951 1.115457e-38
-0.0021265503 -0.12315418 -0.0019140951 1.2168366e-38
-0.00022368319 -0.12212978 0.0021292455 1.189178e-38
0.0016401894 -0.12212978 0.0021292455 1.2352758e-38
0.0035172682 -0.12136655 0.0051416643 1.3552021e-38
0.0053758603 -0.12136655 0.0051416643 1.2445673e-38
0.0072370786 -0.12060766 0.0081370361 1.299957e-38
0.009090418 -0.12060766 0.0081370361 1.1987223e-38
0.010935925 -0.11985306 0.01111548 1.2264884e-38
0.012784043 -0.11985306 0.01111548 1.1433679e-38
0.014632162 -0.11985306 0.01111548 1.0879422e-38
0.016480278 -0.11985306 0.01111548 9.40285e-39
0.018328398 -0.11985306 0.01111548 1.7975967e-38
0.020176515 -0.11985306 0.01111548 2.3507351e-38
0.022024633 -0.11985306 0.01111548 2.3509521e-38
0.023812326 -0.11882581 0.015170027 2.3508092e-38
0.025653334 -0.11882581 0.015170027 2.3509168e-38
0.027568987 -0.11985306 0.01111548 2.323402e-38
0.029335352 -0.11882581 0.015170027 2.3050349e-38
0.031176362 -0.11882581 0.015170027 2.3050708e-38
0.033017371 -0.11882581 0.015170027 2.3142538e-38
0.03485838 -0.11882581 0.015170027 2.3234364e-38
0.036619514 -0.11808117 0.018109132 2.2958856e-38
0.038455367 -0.11808117 0.018109132 2.3234379e-38
0.040291227 -0.11808117 0.018109132 2.2957078e-38
0.042028777 -0.11731337 0.02113967 2.3233662e-38
0.043756306 -0.11654995 0.024152804 2.3509527e-38
0.045581564 -0.11654995 0.024152804 2.3509521e-38
0.047406822 -0.11654995 0.024152804 2.350952e-38
0.049350947 -0.11731337 0.02113967 2.3507716e-38
0.051181495 -0.11731337 0.02113967 2.3509517e-38
0.053012036 -0.11731337 0.02113967 2.3509517e-38
0.054842576 -0.11731337 0.02113967 1.3273285e-38
0.057277262 -0.12060766 0.0081370361 9.3099537e-39
0.059130602 -0.12060766 0.0081370361 9.7705788e-39
-0.08079014 -0.13725694 -0.049861263 2.3509862e-38
-0.078835107 -0.13725694 -0.049861263 2.350987e-38
-0.076655351 -0.13650523 -0.046914648 2.350952e-38
-0.074405454 -0.13547809 -0.042888355 2.350843e-38
-0.072242118 -0.1347049 -0.039857578 2.3324016e-38
-0.070022337 -0.13369073 -0.035882186 2.3509853e-38
-0.068091817 -0.13369073 -0.035882186 2.2954182e-38
-0.066161297 -0.13369073 -0.035882186 2.3508809e-38
-0.064230777 -0.13369073 -0.035882186 2.3508809e-38
-0.062047668 -0.13268389 -0.031935405 2.2861981e-38
-0.060124077 -0.13268389 -0.031935405 2.102055e-38
-0.058200471 -0.13268389 -0.031935405 4.0572733e-39
-0.056276865 -0.13268389 -0.031935405 2.1197582e-39
-0.054177202 -0.13189565 -0.028845619 4.4243028e-39
-0.052259021 -0.13189565 -0.028845619 3.1335612e-39
-0.049969323 -0.13012333 -0.02189834 3.6860203e-39
-0.048063315 -0.13012333 -0.02189834 2.9455924e-39
-0.046157323 -0.13012333 -0.02189834 2.298428e-39
-0.044251315 -0.13012333 -0.02189834 4.2327299e-39
-0.042204358 -0.12934943 -0.018864702 4.7848079e-39
-0.040303677 -0.12934943 -0.018864702 6.7205307e-39
-0.038402997 -0.12934943 -0.018864702 1.2898343e-38
-0.036502309 -0.12934943 -0.018864702 1.336004e-38
-0.034327984 -0.12757985 -0.011928272 7.2762185e-39
-0.032439463 -0.12757985 -0.011928272 4.4192568e-39
-0.03055094 -0.12757985 -0.011928272 4.4210686e-39
-0.028525477 -0.12655805 -0.0079229586 4.1466481e-39
-0.026643978 -0.12655805 -0.0079229586 4.0566049e-39
-0.024668297 -0.12577499 -0.0048534386 3.5977707e-39
-0.022792181 -0.12577499 -0.0048534386 3.6903209e-39
-0.020916065 -0.12577499 -0.0048534386 4.7945105e-39
-0.019039946 -0.12577499 -0.0048534386 4.7934343e-39
-0.01716383 -0.12577499 -0.0048534386 5.162214e-39
-0.015223293 -0.12502514 -0.0019140951 5.4388009e-39
-0.013352329 -0.12502514 -0.0019140951 6.2685615e-39
-0.011481365 -0.12502514 -0.0019140951 6.6373441e-39
-0.0096104015 -0.12502514 -0.0019140951 6.0841703e-39
-0.0077394377 -0.12502514 -0.0019140951 6.5451484e-39
-0.0058684777 -0.12502514 -0.0019140951 6.1763659e-39
-0.0039975103 -0.12502514 -0.0019140951 6.6373441e-39
-0.0020875577 -0.12399365 0.0021292455 8.2968682e-39
-0.00022368319 -0.12399365 0.0021292455 8.0202813e-39
0.0016401894 -0.12399365 0.0021292455 8.7578464e-39
0.0035172682 -0.12322514 0.0051416643 9.0344332e-39
0.0053758603 -0.12322514 0.0051416643 8.6656521e-39
0.0072370786 -0.12246101 0.0081370361 8.205397e-39
0.0090878066 -0.12170117 0.01111548 9.4050248e-39
0.010935925 -0.12170117 0.01111548 9.405022e-39
0.012784043 -0.12170117 0.01111548 9.2188245e-39
0.014632162 -0.12170117 0.01111548 7.8347998e-39
0.016480278 -0.12170117 0.01111548 9.0311794e-39
0.018328398 -0.12170117 0.01111548 2.0002099e-38
0.020176515 -0.12170117 0.01111548 2.3044203e-38
0.022024633 -0.12170117 0.01111548 2.3505916e-38
0.023812326 -0.12066682 0.015170027 2.3508809e-38
0.025653334 -0.12066682 0.015170027 2.3508809e-38
0.027494343 -0.12066682 0.015170027 2.3508809e-38
0.029335352 -0.12066682 0.015170027 2.2865243e-38
0.031176362 -0.12066682 0.015170027 2.2865602e-38
0.032947801 -0.11991702 0.018109132 2.3142541e-38
0.034783658 -0.11991702 0.018109132 2.3234364e-38
0.036619514 -0.11991702 0.018109132 2.3234367e-38
0.038367696 -0.11914389 0.02113967 2.341805e-38
0.040198237 -0.11914389 0.02113967 2.3233662e-38
0.042028777 -0.11914389 0.02113967 2.3417333e-38
0.043756306 -0.11837523 0.024152804 2.3416971e-38
0.045581564 -0.11837523 0.024152804 2.3508801e-38
0.047406822 -0.11837523 0.024152804 2.3509517e-38
0.049232081 -0.11837523 0.024152804 2.3509873e-38
0.051181495 -0.11914389 0.02113967 2.3509511e-38
0.053012036 -0.11914389 0.02113967 2.2954177e-38
0.054707862 -0.11837523 0.024152804 1.0416653e-38
0.056533121 -0.11837523 0.024152804 8.941167e-39
-0.085039757 -0.14025922 -0.05393834 9.1280582e-39
-0.083077572 -0.14025922 -0.05393834 2.1021293e-38
-0.08079014 -0.13921197 -0.049861263 2.2771932e-38
-0.078835107 -0.13921197 -0.049861263 2.1941821e-38
-0.076655351 -0.13845511 -0.046914648 2.3509165e-38
-0.074405454 -0.13742088 -0.042888355 2.323149e-38
-0.071952857 -0.13562126 -0.035882186 2.0374108e-38
-0.070022337 -0.13562126 -0.035882186 2.2771194e-38
-0.06781847 -0.13460748 -0.031935405 2.3509161e-38
-0.065894879 -0.13460748 -0.031935405 2.3045673e-38
-0.063971274 -0.13460748 -0.031935405 2.267724e-38
-0.062047668 -0.13460748 -0.031935405 2.1755985e-38
-0.060124077 -0.13460748 -0.031935405 1.9084092e-38
-0.058013566 -0.13381381 -0.028845619 3.2271623e-39
-0.056095384 -0.13381381 -0.028845619 1.8431741e-39
-0.054177202 -0.13381381 -0.028845619 3.7796537e-39
-0.052037306 -0.13278268 -0.024831247 3.1346402e-39
-0.049969323 -0.13202934 -0.02189834 2.6722285e-39
-0.048063315 -0.13202934 -0.02189834 1.7474094e-39
-0.046157323 -0.13202934 -0.02189834 1.1020386e-39
-0.044251315 -0.13202934 -0.02189834 2.7586788e-39
-0.042204358 -0.1312501 -0.018864702 3.7713776e-39
-0.040303677 -0.1312501 -0.018864702 5.891133e-39
-0.038233675 -0.13023765 -0.014923166 1.1423578e-38
-0.036339901 -0.13023765 -0.014923166 1.3175295e-38
-0.034327984 -0.1294684 -0.011928272 9.8573402e-39
-0.032288477 -0.12843956 -0.0079229586 5.6177999e-39
-0.030406976 -0.12843956 -0.0079229586 3.9600905e-39
-0.028525477 -0.12843956 -0.0079229586 3.9622541e-39
-0.026544413 -0.12765111 -0.0048534386 2.8580617e-39
-0.024668297 -0.12765111 -0.0048534386 3.1367926e-39
-0.022707144 -0.1268961 -0.0019140951 3.413734e-39
-0.02083618 -0.1268961 -0.0019140951 4.3331778e-39
-0.019039946 -0.12765111 -0.0048534386 4.7934357e-39
-0.017094253 -0.1268961 -0.0019140951 5.0700226e-39
-0.015223293 -0.1268961 -0.0019140951 4.70124e-39
-0.013352329 -0.1268961 -0.0019140951 5.3466094e-39
-0.011481365 -0.1268961 -0.0019140951 4.8856313e-39
-0.0096104015 -0.1268961 -0.0019140951 5.0700226e-39
-0.0077394377 -0.1268961 -0.0019140951 9.0344346e-39
-0.0058684777 -0.1268961 -0.0019140951 7.7436958e-39
-0.0039975103 -0.1268961 -0.0019140951 5.5310007e-39
-0.0020875577 -0.12585752 0.0021292455 6.3607614e-39
-0.00022368319 -0.12585752 0.0021292455 8.2968696e-39
0.0016586762 -0.12508373 0.0051416643 9.6794481e-39
0.0035172682 -0.12508373 0.0051416643 5.6228404e-39
0.0053837374 -0.12431435 0.0081370361 5.9916229e-39
0.0072370786 -0.12431435 0.0081370361 6.5455226e-39
0.0090878066 -0.1235493 0.01111548 7.0990635e-39
0.010935925 -0.1235493 0.01111548 6.7302782e-39
0.012784043 -0.1235493 0.01111548 7.8351726e-39
0.014632162 -0.1235493 0.01111548 7.0965159e-39
0.016480278 -0.1235493 0.01111548 8.7542268e-39
0.018328398 -0.1235493 0.01111548 1.7973068e-38
0.020130306 -0.12250783 0.015170027 1.9171257e-38
0.021971315 -0.12250783 0.015170027 2.3505542e-38
0.023812326 -0.12250783 0.015170027 2.3507718e-38
0.025653334 -0.12250783 0.015170027 2.3415895e-38
0.027440235 -0.12175287 0.018109132 2.3325138e-38
0.02927609 -0.12175287 0.018109132 2.3234379e-38
0.031111946 -0.12175287 0.018109132 2.3234379e-38
0.032947801 -0.12175287 0.018109132 2.3050349e-38
0.034783658 -0.12175287 0.018109132 2.3141816e-38
0.036537156 -0.12097444 0.02113967 2.3141816e-38
0.038280524 -0.12020047 0.024152804 2.3234379e-38
0.040105782 -0.12020047 0.024152804 2.3325856e-38
0.041931048 -0.12020047 0.024152804 2.3509527e-38
0.043756306 -0.12020047 0.024152804 2.3509886e-38
0.045581564 -0.12020047 0.024152804 2.3232936e-38
0.047406822 -0.12020047 0.024152804 2.3509879e-38
0.049232081 -0.12020047 0.024152804 2.3509517e-38
0.051057339 -0.12020047 0.024152804 2.3509153e-38
0.052882597 -0.12020047 0.024152804 2.1756716e-38
0.054707862 -0.12020047 0.024152804 8.7571317e-39
0.056533121 -0.12020047 0.024152804 9.4943408e-39
-0.085039757 -0.14222141 -0.05393834 1.1709186e-38
-0.083077572 -0.14222141 -0.05393834 1.5673592e-38
-0.08079014 -0.141167 -0.049861263 1.8715323e-38
-0.078835107 -0.141167 -0.049861263 2.3509144e-38
-0.076655351 -0.14040495 -0.046914648 2.3415535e-38
-0.074405454 -0.13936369 -0.042888355 1.9174885e-38
-0.071952857 -0.1375518 -0.035882186 1.8069569e-38
-0.070022337 -0.1375518 -0.035882186 2.3509837e-38
-0.06781847 -0.13653107 -0.031935405 2.3509161e-38
-0.065894879 -0.13653107 -0.031935405 1.9634079e-38
-0.063971274 -0.13653107 -0.031935405 1.8067811e-38
-0.061849944 -0.13573201 -0.028845619 1.7977398e-38
-0.059931763 -0.13573201 -0.028845619 1.6134196e-38
-0.058013566 -0.13573201 -0.028845619 2.3048571e-39
-0.056095384 -0.13573201 -0.028845619 3.6877691e-40
-0.054177202 -0.13573201 -0.028845619 1.4747629e-39
-0.052037306 -0.13469382 -0.024831247 2.4896337e-39
-0.049969323 -0.13393532 -0.02189834 1.1981803e-39
-0.048063315 -0.13393532 -0.02189834 7.3505531e-40
-0.046157323 -0.13393532 -0.02189834 7.3469518e-40
-0.044251315 -0.13393532 -0.02189834 1.9299972e-39
-0.042021222 -0.13213144 -0.014923166 2.3898823e-39
-0.040127449 -0.13213144 -0.014923166 3.4954914e-39
-0.038233675 -0.13213144 -0.014923166 7.3676952e-39
-0.036216505 -0.13135691 -0.011928272 1.2346978e-38
-0.034169979 -0.13032107 -0.0079229586 1.179453e-38
-0.032288477 -0.13032107 -0.0079229586 6.5397576e-39
-0.030406976 -0.13032107 -0.0079229586 3.0381342e-39
-0.028525477 -0.13032107 -0.0079229586 4.1455663e-39
-0.026544413 -0.12952723 -0.0048534386 2.765506e-39
-0.024668297 -0.12952723 -0.0048534386 4.1498683e-39
-0.022707144 -0.12876706 -0.0019140951 4.5190054e-39
-0.02083618 -0.12876706 -0.0019140951 4.7941587e-39
-0.019039946 -0.12952723 -0.0048534386 4.7008869e-39
-0.017094253 -0.12876706 -0.0019140951 5.0696694e-39
-0.015223293 -0.12876706 -0.0019140951 5.0696694e-39
-0.013352329 -0.12876706 -0.0019140951 5.3462563e-39
-0.011481365 -0.12876706 -0.0019140951 3.686735e-39
-0.0096104015 -0.12876706 -0.0019140951 5.9916257e-39
-0.0077394377 -0.12876706 -0.0019140951 1.5672167e-38
-0.0058684777 -0.12876706 -0.0019140951 1.4473624e-38
-0.0039514322 -0.12772138 0.0021292455 9.7716466e-39
-0.0020875577 -0.12772138 0.0021292455 1.1246777e-38
-0.00019991584 -0.12694232 0.0051416643 1.7147297e-38
0.0016586762 -0.12694232 0.0051416643 1.8161449e-38
0.003530398 -0.12616767 0.0081370361 7.1901689e-39
0.0053837374 -0.12616767 0.0081370361 5.2540635e-39
0.0072396901 -0.1253974 0.01111548 6.3600537e-39
0.0090878066 -0.1253974 0.01111548 6.3607852e-39
0.010935925 -0.1253974 0.01111548 6.6362903e-39
0.012784043 -0.1253974 0.01111548 6.9114212e-39
0.014632162 -0.1253974 0.01111548 7.2794681e-39
0.016480278 -0.1253974 0.01111548 9.0293732e-39
0.018289298 -0.12434883 0.015170027 1.4838048e-38
0.020130306 -0.12434883 0.015170027 1.5944399e-38
0.021971315 -0.12434883 0.015170027 2.3136745e-38
0.023812326 -0.12434883 0.015170027 2.3509504e-38
0.025604378 -0.12358873 0.018109132 2.3509517e-38
0.027440235 -0.12358873 0.018109132 2.3509527e-38
0.02927609 -0.12358873 0.018109132 2.3417691e-38
0.031111946 -0.12358873 0.018109132 2.3417691e-38
0.032947801 -0.12358873 0.018109132 2.3417691e-38
0.034783658 -0.12358873 0.018109132 2.3325856e-38
0.036537156 -0.12280498 0.02113967 2.341805e-38
0.038280524 -0.12202574 0.024152804 2.2773765e-38
0.040105782 -0.12202574 0.024152804 2.3050349e-38
0.041931048 -0.12202574 0.024152804 2.341805e-38
0.043756306 -0.12202574 0.024152804 2.3509886e-38
0.045581564 -0.12202574 0.024152804 2.3509523e-38
0.047406822 -0.12202574 0.024152804 2.3509879e-38
0.049232081 -0.12202574 0.024152804 2.3509516e-38
0.051057339 -0.12202574 0.024152804 2.1203902e-38
0.052882597 -0.12202574 0.024152804 2.0005361e-38
0.054707862 -0.12202574 0.024152804 9.402864e-39
-0.085039757 -0.14418359 -0.05393834 9.3117474e-39
-0.083077572 -0.14418359 -0.05393834 1.3644936e-38
-0.08079014 -0.14312203 -0.049861263 1.4935658e-38
-0.078835107 -0.14312203 -0.049861263 2.0467044e-38
-0.076655351 -0.14235483 -0.046914648 2.3508451e-38
-0.074405454 -0.1413065 -0.042888355 1.67778e-38
-0.071952857 -0.1394823 -0.035882186 1.2906966e-38
-0.070022337 -0.1394823 -0.035882186 2.3509461e-38
-0.06781847 -0.13845469 -0.031935405 2.3508801e-38
-0.065894879 -0.13845469 -0.031935405 1.8712123e-38
-0.063971274 -0.13845469 -0.031935405 1.6686308e-38
-0.061849944 -0.13765021 -0.028845619 1.6225676e-38
-0.059931763 -0.13765021 -0.028845619 1.3552724e-38
-0.057770737 -0.13660498 -0.024831247 1.2903605e-39
-0.055859603 -0.13660498 -0.024831247 3.6877691e-40
-0.053948455 -0.13660498 -0.024831247 2.5818308e-39
-0.051875323 -0.13584132 -0.02189834 1.6602346e-39
-0.049969323 -0.13584132 -0.02189834 3.5873241e-43
-0.048063315 -0.13584132 -0.02189834 9.1842503e-41
-0.046005726 -0.13505147 -0.018864702 3.6734899e-40
-0.044105045 -0.13505147 -0.018864702 9.1836057e-40
-0.042021222 -0.1340252 -0.014923166 1.0101905e-39
-0.039993547 -0.13324542 -0.011928272 1.2856969e-39
-0.038105033 -0.13324542 -0.011928272 3.2203408e-39
-0.036051475 -0.13220255 -0.0079229586 1.1149161e-38
-0.034169979 -0.13220255 -0.0079229586 1.2993439e-38
-0.032172762 -0.13140334 -0.0048534386 8.015608e-39
-0.030296648 -0.13140334 -0.0048534386 2.6693517e-39
-0.028420532 -0.13140334 -0.0048534386 3.9611723e-39
-0.026544413 -0.13140334 -0.0048534386 2.764427e-39
-0.024668297 -0.13140334 -0.0048534386 3.68853e-39
-0.022707144 -0.13063805 -0.0019140951 3.7807229e-39
-0.02083618 -0.13063805 -0.0019140951 4.5175747e-39
-0.019039946 -0.13140334 -0.0048534386 3.2257596e-39
-0.017094253 -0.13063805 -0.0019140951 3.133564e-39
-0.015223293 -0.13063805 -0.0019140951 3.5945422e-39
-0.013270801 -0.12958528 0.0021292455 5.1618679e-39
-0.011406926 -0.12958528 0.0021292455 3.871129e-39
-0.0095430519 -0.12958528 0.0021292455 5.3459018e-39
-0.0076791774 -0.12958528 0.0021292455 1.5764008e-38
-0.0058153067 -0.12958528 0.0021292455 1.8068899e-38
-0.0039514322 -0.12958528 0.0021292455 1.4565465e-38
-0.0020875577 -0.12958528 0.0021292455 1.5211192e-38
-0.00019991584 -0.12880091 0.0051416643 1.7884865e-38
0.0016586762 -0.12880091 0.0051416643 1.6594126e-38
0.003530398 -0.12802102 0.0081370361 5.8072373e-39
0.0053837374 -0.12802102 0.0081370361 4.4239455e-39
0.0072396901 -0.12724553 0.01111548 5.4381002e-39
0.0090878066 -0.12724553 0.01111548 5.6214237e-39
0.010935925 -0.12724553 0.01111548 6.6348512e-39
0.012784043 -0.12724553 0.01111548 5.5270476e-39
0.014632162 -0.12724553 0.01111548 8.7528003e-39
0.016480278 -0.12724553 0.01111548 1.1426094e-38
0.018289298 -0.12618984 0.015170027 1.428379e-38
0.020130306 -0.12618984 0.015170027 1.4837684e-38
0.021971315 -0.12618984 0.015170027 2.1661244e-38
0.023812326 -0.12618984 0.015170027 2.3509495e-38
0.025604378 -0.12542458 0.018109132 2.3509866e-38
0.027384441 -0.12463553 0.02113967 2.3416245e-38
0.029214984 -0.12463553 0.02113967 2.3048554e-38
0.031045526 -0.12463553 0.02113967 2.3048556e-38
0.032947801 -0.12542458 0.018109132 2.3048197e-38
0.034783658 -0.12542458 0.018109132 2.3416974e-38
0.036619514 -0.12542458 0.018109132 2.3509527e-38
0.038367696 -0.12463553 0.02113967 2.3233662e-38
0.040198237 -0.12463553 0.02113967 2.3234379e-38
0.041931048 -0.12385099 0.024152804 2.3325856e-38
0.043756306 -0.12385099 0.024152804 2.341805e-38
0.045581564 -0.12385099 0.024152804 2.3417687e-38
0.047293894 -0.123071 0.027148534 2.350988e-38
0.049113899 -0.123071 0.027148534 2.3232932e-38
0.050933905 -0.123071 0.027148534 1.8623506e-38
0.05275391 -0.123071 0.027148534 1.6318259e-38
0.054707862 -0.12385099 0.024152804 1.0417739e-38
-0.085039757 -0.14614578 -0.05393834 1.216946e-38
-0.083077572 -0.14614578 -0.05393834 1.2722986e-38
-0.081115402 -0.14614578 -0.05393834 1.2538572e-38
-0.078835107 -0.14507706 -0.049861263 1.3921152e-38
-0.076655351 -0.14430468 -0.046914648 1.4195617e-38
-0.074405454 -0.14324932 -0.042888355 1.382754e-38
-0.071952857 -0.14141284 -0.035882186 1.5027463e-38
-0.070022337 -0.14141284 -0.035882186 2.2495306e-38
-0.06781847 -0.14037828 -0.031935405 2.2493202e-38
-0.065894879 -0.14037828 -0.031935405 1.6960759e-38
-0.063971274 -0.14037828 -0.031935405 1.4289216e-38
-0.061849944 -0.13956837 -0.028845619 1.2998829e-38
-0.059931763 -0.13956837 -0.028845619 1.0141131e-38
-0.057770737 -0.13851611 -0.024831247 9.2194229e-41
-0.055859603 -0.13851611 -0.024831247 9.1835496e-41
-0.053948455 -0.13851611 -0.024831247 2.6736733e-39
-0.051707782 -0.13695215 -0.018864702 3.0438949e-39
-0.049807094 -0.13695215 -0.018864702 1.0804011e-42
-0.047906406 -0.13695215 -0.018864702 7.0064923e-45
-0.04580877 -0.13591899 -0.014923166 5.5210319e-40
-0.043914996 -0.13591899 -0.014923166 9.187221e-40
-0.041882075 -0.13513394 -0.011928272 1.102026e-39
-0.039993547 -0.13513394 -0.011928272 1.1938615e-39
-0.03793297 -0.13408406 -0.0079229586 2.2069218e-39
-0.036051475 -0.13408406 -0.0079229586 8.9371929e-39
-0.034169979 -0.13408406 -0.0079229586 1.2901608e-38
-0.032172762 -0.13327946 -0.0048534386 1.0043915e-38
-0.030296648 -0.13327946 -0.0048534386 2.7619046e-39
-0.028420532 -0.13327946 -0.0048534386 3.2236072e-39
-0.026544413 -0.13327946 -0.0048534386 1.8421077e-39
-0.024668297 -0.13327946 -0.0048534386 1.7517058e-39
-0.022707144 -0.13250901 -0.0019140951 1.1985292e-39
-0.02083618 -0.13250901 -0.0019140951 2.395999e-39
-0.019039946 -0.13327946 -0.0048534386 1.9346635e-39
-0.017094253 -0.13250901 -0.0019140951 3.041011e-39
-0.015223293 -0.13250901 -0.0019140951 2.7644242e-39
-0.013270801 -0.13144915 0.0021292455 4.055163e-39
-0.011406926 -0.13144915 0.0021292455 3.1332067e-39
-0.0095430519 -0.13144915 0.0021292455 3.1332095e-39
-0.0076791774 -0.13144915 0.0021292455 1.1707403e-38
-0.0058153067 -0.13144915 0.0021292455 1.7146945e-38
-0.0039514322 -0.13144915 0.0021292455 1.7792312e-38
-0.0020875577 -0.13144915 0.0021292455 1.6593769e-38
-0.00019991584 -0.13065951 0.0051416643 1.0693248e-38
0.0016586762 -0.13065951 0.0051416643 6.2678581e-39
0.003530398 -0.12987436 0.0081370361 2.2116077e-39
0.0053837374 -0.12987436 0.0081370361 3.9633247e-39
0.0072396901 -0.12909363 0.01111548 4.6076207e-39
0.0090878066 -0.12909363 0.01111548 4.422156e-39
0.010925261 -0.12803085 0.015170027 4.8820524e-39
0.01276627 -0.12803085 0.015170027 6.0787795e-39
0.01460728 -0.12803085 0.015170027 1.4467848e-38
0.016448289 -0.12803085 0.015170027 1.6403219e-38
0.018289298 -0.12803085 0.015170027 1.2531351e-38
0.020130306 -0.12803085 0.015170027 1.1333527e-38
0.021932667 -0.12726043 0.018109132 2.0093556e-38
0.023768522 -0.12726043 0.018109132 2.3506968e-38
0.025604378 -0.12726043 0.018109132 2.3509143e-38
0.027384441 -0.12646608 0.02113967 2.350952e-38
0.02915423 -0.12567626 0.024152804 2.3509527e-38
0.030979488 -0.12567626 0.024152804 2.3509168e-38
0.032876067 -0.12646608 0.02113967 2.3509168e-38
0.034706611 -0.12646608 0.02113967 2.3508809e-38
0.036537156 -0.12646608 0.02113967 2.3416615e-38
0.038280524 -0.12567626 0.024152804 2.341805e-38
0.040105782 -0.12567626 0.024152804 2.3234379e-38
0.041931048 -0.12567626 0.024152804 2.3141822e-38
0.043756306 -0.12567626 0.024152804 2.3418047e-38
0.045581564 -0.12567626 0.024152804 2.3049624e-38
0.047293894 -0.124891 0.027148534 2.3418045e-38
0.049113899 -0.124891 0.027148534 2.3325847e-38
0.050933905 -0.124891 0.027148534 1.7149458e-38
0.05275391 -0.124891 0.027148534 1.2907741e-38
0.060098089 -0.13513394 -0.011928272 1.152517e-38
0.06198661 -0.13513394 -0.011928272 1.0603937e-38
0.063875131 -0.13513394 -0.011928272 1.4660547e-38
0.065763652 -0.13513394 -0.011928272 2.2312784e-38
-0.085371412 -0.14915876 -0.057920527 1.1891441e-38
-0.083077572 -0.14810793 -0.05393834 1.2076183e-38
-0.081115402 -0.14810793 -0.05393834 1.1431508e-38
-0.078835107 -0.1470321 -0.049861263 1.3920433e-38
-0.076655351 -0.14625455 -0.046914648 1.5761863e-38
-0.074405454 -0.1451921 -0.042888355 1.2443526e-38
-0.072242118 -0.14439236 -0.039857578 1.0693915e-38
-0.070022337 -0.14334334 -0.035882186 1.9913831e-38
-0.06781847 -0.14230187 -0.031935405 2.1110619e-38
-0.065894879 -0.14230187 -0.031935405 1.6223546e-38
-0.063971274 -0.14230187 -0.031935405 1.3459455e-38
-0.061849944 -0.14148657 -0.028845619 1.2169071e-38
-0.059931763 -0.14148657 -0.028845619 1.0140778e-38
-0.057770737 -0.14042725 -0.024831247 8.2974946e-40
-0.055859603 -0.14042725 -0.024831247 2.7622395e-40
-0.053948455 -0.14042725 -0.024831247 4.1491663e-39
-0.051490091 -0.13781275 -0.014923166 4.2431598e-39
-0.049596317 -0.13781275 -0.014923166 1.8034711e-42
-0.047906406 -0.13885282 -0.018864702 7.0064923e-45
-0.04580877 -0.13781275 -0.014923166 2.7623376e-40
-0.043770589 -0.13702248 -0.011928272 2.7550929e-40
-0.041882075 -0.13702248 -0.011928272 8.268782e-40
-0.039993547 -0.13702248 -0.011928272 9.1835496e-40
-0.03793297 -0.13596557 -0.0079229586 1.1938615e-39
-0.036051475 -0.13596557 -0.0079229586 5.895463e-39
-0.034169979 -0.13596557 -0.0079229586 1.1150617e-38
-0.032172762 -0.13515557 -0.0048534386 1.1150981e-38
-0.030296648 -0.13515557 -0.0048534386 2.3009265e-39
-0.028420532 -0.13515557 -0.0048534386 1.9325055e-39
-0.026544413 -0.13515557 -0.0048534386 1.0112681e-39
-0.024668297 -0.13515557 -0.0048534386 6.4356594e-40
-0.022707144 -0.13437997 -0.0019140951 2.7550649e-40
-0.02083618 -0.13437997 -0.0019140951 7.3647763e-40
-0.019039946 -0.13515557 -0.0048534386 8.2867326e-40
-0.017094253 -0.13437997 -0.0019140951 3.4101509e-39
-0.015134675 -0.13331302 0.0021292455 2.8569771e-39
-0.013270801 -0.13331302 0.0021292455 2.6722285e-39
-0.011406926 -0.13331302 0.0021292455 1.3814897e-39
-0.0095430519 -0.13331302 0.0021292455 1.4736881e-39
-0.0076791774 -0.13331302 0.0021292455 1.0232273e-38
-0.0057756919 -0.1325181 0.0051416643 1.5210834e-38
-0.0039170999 -0.1325181 0.0051416643 1.8345486e-38
-0.0020585079 -0.1325181 0.0051416643 1.7792312e-38
-0.0001762826 -0.13172771 0.0081370361 9.1262799e-39
0.0016770568 -0.13172771 0.0081370361 2.8569771e-39
0.0035434533 -0.13094176 0.01111548 1.935018e-39
0.0053915717 -0.13094176 0.01111548 2.8569743e-39
0.0072396901 -0.13094176 0.01111548 2.9484511e-39
0.0090842526 -0.12987186 0.015170027 4.1448391e-39
0.010925261 -0.12987186 0.015170027 3.8668074e-39
0.01276627 -0.12987186 0.015170027 7.0003686e-39
0.01460728 -0.12987186 0.015170027 1.5481276e-38
0.016448289 -0.12987186 0.015170027 1.5941162e-38
0.018289298 -0.12987186 0.015170027 1.0686365e-38
0.020130306 -0.12987186 0.015170027 7.8293796e-39
0.021932667 -0.12909628 0.018109132 1.7971984e-38
0.023768522 -0.12909628 0.018109132 2.2399183e-38
0.025604378 -0.12909628 0.018109132 2.3322951e-38
0.027384441 -0.1282966 0.02113967 2.350916e-38
0.02915423 -0.1275015 0.024152804 2.3508807e-38
0.030979488 -0.1275015 0.024152804 2.3509168e-38
0.032876067 -0.1282966 0.02113967 2.3508809e-38
0.034706611 -0.1282966 0.02113967 2.3508809e-38
0.036537156 -0.1282966 0.02113967 2.2955644e-38
0.038280524 -0.1275015 0.024152804 2.2680491e-38
0.040105782 -0.1275015 0.024152804 2.3234379e-38
0.041931048 -0.1275015 0.024152804 2.2865955e-38
0.043756306 -0.1275015 0.024152804 2.3234376e-38
0.045473889 -0.126711 0.027148534 2.2774116e-38
0.047293894 -0.126711 0.027148534 2.3234376e-38
0.048958771 -0.1256734 0.031080771 2.3418047e-38
0.050771885 -0.1256734 0.031080771 1.6136027e-38
0.052584998 -0.1256734 0.031080771 1.1986148e-38
0.056321047 -0.13702248 -0.011928272 1.0327706e-38
0.058209568 -0.13702248 -0.011928272 1.0696488e-38
0.060098089 -0.13702248 -0.011928272 1.1618088e-38
0.06198661 -0.13702248 -0.011928272 1.0973438e-38
0.063875131 -0.13702248 -0.011928272 1.4753462e-38
0.065763652 -0.13702248 -0.011928272 1.9824221e-38
0.068364806 -0.14042725 -0.024831247 2.2681567e-38
0.070275947 -0.14042725 -0.024831247 2.2772321e-38
-0.078835107 -0.14898713 -0.049861263 1.0232608e-38
-0.076655351 -0.14820443 -0.046914648 1.0322674e-38
-0.074405454 -0.14713491 -0.042888355 9.9542428e-39
-0.072242118 -0.14632986 -0.039857578 1.0048194e-38
-0.070022337 -0.14527388 -0.035882186 1.6871023e-38
-0.068091817 -0.14527388 -0.035882186 1.6962169e-38
-0.066161297 -0.14527388 -0.035882186 1.4103754e-38
-0.063971274 -0.14422549 -0.031935405 1.2721893e-38
-0.061849944 -0.14340474 -0.028845619 1.1431873e-38
-0.059931763 -0.14340474 -0.028845619 9.2199035e-39
-0.057770737 -0.14233841 -0.024831247 3.6877691e-40
-0.055859603 -0.14233841 -0.024831247 0
-0.053948455 -0.14233841 -0.024831247 4.9789298e-39
-0.051490091 -0.13970654 -0.014923166 4.7970566e-39
-0.049596317 -0.13970654 -0.014923166 2.5251398e-42
-0.047702543 -0.13970654 -0.014923166 3.657389e-43
-0.045659117 -0.13891099 -0.011928272 2.7695263e-40
-0.043770589 -0.13891099 -0.011928272 9.1835496e-41
-0.041882075 -0.13891099 -0.011928272 3.6734198e-40
-0.039993547 -0.13891099 -0.011928272 6.4284847e-40
-0.03793297 -0.13784705 -0.0079229586 7.3468397e-40
-0.036051475 -0.13784705 -0.0079229586 3.4987438e-39
-0.034169979 -0.13784705 -0.0079229586 9.3992641e-39
-0.032172762 -0.13703169 -0.0048534386 1.1243177e-38
-0.030296648 -0.13703169 -0.0048534386 1.7466709e-39
-0.028420532 -0.13703169 -0.0048534386 7.3468397e-40
-0.026544413 -0.13703169 -0.0048534386 7.3468397e-40
-0.024668297 -0.13703169 -0.0048534386 9.1943116e-40
-0.022707144 -0.13625093 -0.0019140951 1.1045385e-39
-0.02083618 -0.13625093 -0.0019140951 1.0130617e-39
-0.01896522 -0.13625093 -0.0019140951 2.7550649e-40
-0.017094253 -0.13625093 -0.0019140951 1.6584311e-39
-0.015134675 -0.13517688 0.0021292455 2.1194121e-39
-0.013270801 -0.13517688 0.0021292455 1.9350208e-39
-0.011351468 -0.13437669 0.0051416643 3.6734198e-40
-0.009492876 -0.13437669 0.0051416643 9.2051156e-40
-0.007634284 -0.13437669 0.0051416643 1.0785444e-38
-0.0057756919 -0.13437669 0.0051416643 1.5764008e-38
-0.0039170999 -0.13437669 0.0051416643 1.6778517e-38
-0.0020585079 -0.13437669 0.0051416643 1.5856561e-38
-0.00015278347 -0.13278987 0.01111548 8.3887121e-39
0.0016953349 -0.13278987 0.01111548 1.8428196e-39
0.0035434533 -0.13278987 0.01111548 7.3647763e-40
0.0053915717 -0.13278987 0.01111548 4.6025368e-40
0.007243244 -0.13171287 0.015170027 2.1190421e-39
0.0090842526 -0.13171287 0.015170027 4.88203e-39
0.010917531 -0.13093217 0.018109132 4.696194e-39
0.012753388 -0.13093217 0.018109132 6.3546321e-39
0.014589244 -0.13093217 0.018109132 8.8435442e-39
0.016425099 -0.13093217 0.018109132 1.0040644e-38
0.018260956 -0.13093217 0.018109132 1.1239184e-38
0.020096812 -0.13093217 0.018109132 8.0134192e-39
0.021932667 -0.13093217 0.018109132 1.511357e-38
0.023768522 -0.13093217 0.018109132 1.9909552e-38
0.025604378 -0.13093217 0.018109132 2.0371619e-38
0.027384441 -0.13012715 0.02113967 1.9728059e-38
0.02915423 -0.12932678 0.024152804 1.8529882e-38
0.030979488 -0.12932678 0.024152804 1.8990505e-38
0.03280475 -0.12932678 0.024152804 2.1018092e-38
0.034630008 -0.12932678 0.024152804 2.1940049e-38
0.036537156 -0.13012715 0.02113967 2.1479787e-38
0.038280524 -0.12932678 0.024152804 2.129719e-38
0.040105782 -0.12932678 0.024152804 2.268192e-38
0.041931048 -0.12932678 0.024152804 2.2958507e-38
0.043756306 -0.12932678 0.024152804 2.3234376e-38
0.045473889 -0.12853102 0.027148534 2.2958507e-38
0.047293894 -0.12853102 0.027148534 2.3234376e-38
0.048958771 -0.12748651 0.031080771 2.3050703e-38
0.050771885 -0.12748651 0.031080771 1.530627e-38
0.052584998 -0.12748651 0.031080771 1.2355654e-38
0.056321047 -0.13891099 -0.011928272 1.0051482e-38
0.058209568 -0.13891099 -0.011928272 1.0789047e-38
0.059756964 -0.13703169 -0.0048534386 1.1895397e-38
0.06163308 -0.13703169 -0.0048534386 1.1711006e-38
0.06366796 -0.13784705 -0.0079229586 1.5859809e-38
0.065549463 -0.13784705 -0.0079229586 1.8257975e-38
0.067817584 -0.13970654 -0.014923166 2.3234379e-38
0.06971135 -0.13970654 -0.014923166 2.1849645e-38
0.071605124 -0.13970654 -0.014923166 1.3458401e-38
-0.074405454 -0.14907773 -0.042888355 9.401069e-39
-0.072242118 -0.14826734 -0.039857578 1.0323713e-38
-0.070304625 -0.14826734 -0.039857578 1.5118238e-38
-0.068091817 -0.14720438 -0.035882186 1.6501542e-38
-0.066161297 -0.14720438 -0.035882186 1.4657278e-38
-0.064230777 -0.14720438 -0.035882186 1.2537148e-38
-0.061849944 -0.14532293 -0.028845619 9.8641953e-39
-0.059931763 -0.14532293 -0.028845619 8.6663724e-39
-0.057770737 -0.14424954 -0.024831247 7.3755383e-40
-0.055859603 -0.14424954 -0.024831247 6.4536941e-40
-0.053948455 -0.14424954 -0.024831247 3.0439005e-39
-0.051707782 -0.1426542 -0.018864702 3.4137676e-39
-0.049807094 -0.1426542 -0.018864702 7.286752e-43
-0.047702543 -0.1416003 -0.014923166 3.7058739e-40
-0.045659117 -0.14079951 -0.011928272 1.858332e-40
-0.043770589 -0.14079951 -0.011928272 0
-0.041882075 -0.14079951 -0.011928272 1.8402972e-40
-0.039993547 -0.14079951 -0.011928272 5.5101298e-40
-0.03793297 -0.13972856 -0.0079229586 6.4284847e-40
-0.036051475 -0.13972856 -0.0079229586 1.0101905e-39
-0.034169979 -0.13972856 -0.0079229586 1.0044278e-38
-0.032172762 -0.13890781 -0.0048534386 9.7680466e-39
-0.030296648 -0.13890781 -0.0048534386 3.683135e-39
-0.028420532 -0.13890781 -0.0048534386 1.3789674e-39
-0.026544413 -0.13890781 -0.0048534386 1.3789674e-39
-0.024668297 -0.13890781 -0.0048534386 1.1031022e-39
-0.022707144 -0.13812189 -0.0019140951 6.4284847e-40
-0.02083618 -0.13812189 -0.0019140951 3.6734198e-40
-0.01896522 -0.13812189 -0.0019140951 2.7550649e-40
-0.017094253 -0.13812189 -0.0019140951 5.5208917e-40
-0.015134675 -0.13704078 0.0021292455 5.1618623e-39
-0.013270801 -0.13704078 0.0021292455 6.3604083e-39
-0.011351468 -0.13623528 0.0051416643 3.3179553e-39
-0.009492876 -0.13623528 0.0051416643 2.4881946e-39
-0.007634284 -0.13623528 0.0051416643 8.8496931e-39
-0.0057756919 -0.13623528 0.0051416643 1.060141e-38
-0.0039170999 -0.13623528 0.0051416643 1.1431168e-38
-0.0020585079 -0.13623528 0.0051416643 1.4658012e-38
-0.00015278347 -0.134638 0.01111548 8.6656521e-39
0.0016953349 -0.134638 0.01111548 2.0275654e-39
0.0035434533 -0.134638 0.01111548 9.2122482e-40
0.0053915717 -0.134638 0.01111548 2.7586522e-40
0.007243244 -0.13355388 0.015170027 3.1335444e-39
0.0090842526 -0.13355388 0.015170027 6.2656665e-39
0.010917531 -0.13276802 0.018109132 5.7110493e-39
0.012753388 -0.13276802 0.018109132 6.7244824e-39
0.014589244 -0.13276802 0.018109132 8.4747602e-39
0.016425099 -0.13276802 0.018109132 8.3807681e-39
0.018260956 -0.13276802 0.018109132 8.5651622e-39
0.020096812 -0.13276802 0.018109132 8.9346734e-39
0.021932667 -0.13276802 0.018109132 1.5481651e-38
0.023768522 -0.13276802 0.018109132 1.6866391e-38
0.025553901 -0.13195769 0.02113967 1.7697957e-38
0.02732897 -0.13115202 0.024152804 1.8252574e-38
0.02915423 -0.13115202 0.024152804 1.7331339e-38
0.030979488 -0.13115202 0.024152804 1.6961835e-38
0.03280475 -0.13115202 0.024152804 1.8805748e-38
0.034630008 -0.13115202 0.024152804 2.0648937e-38
0.036455266 -0.13115202 0.024152804 2.0189038e-38
0.038280524 -0.13115202 0.024152804 1.9914609e-38
0.040105782 -0.13115202 0.024152804 2.3418047e-38
0.041931048 -0.13115202 0.024152804 2.332621e-38
0.043756306 -0.13115202 0.024152804 2.3418047e-38
0.045581564 -0.13115202 0.024152804 2.277376e-38
0.047406822 -0.13115202 0.024152804 2.3142542e-38
0.049232081 -0.13115202 0.024152804 2.3142544e-38
0.051057339 -0.13115202 0.024152804 1.5214437e-38
0.05412861 -0.13890781 -0.0048534386 1.2448571e-38
0.056141965 -0.13972856 -0.0079229586 1.0605737e-38
0.057880849 -0.13890781 -0.0048534386 1.097452e-38
0.059756964 -0.13890781 -0.0048534386 1.2818432e-38
0.06163308 -0.13890781 -0.0048534386 1.2726237e-38
0.06366796 -0.13972856 -0.0079229586 1.9087735e-38
0.065549463 -0.13972856 -0.0079229586 2.1116039e-38
0.067652173 -0.14079951 -0.011928272 2.3050347e-38
0.06971135 -0.1416003 -0.014923166 2.1480863e-38
0.071605124 -0.1416003 -0.014923166 1.179888e-38
0.073498897 -0.1416003 -0.014923166 1.2166939e-38
-0.068091817 -0.14913492 -0.035882186 1.0785408e-38
-0.066161297 -0.14913492 -0.035882186 1.1892484e-38
-0.064230777 -0.14913492 -0.035882186 1.2721544e-38
-0.061849944 -0.1472411 -0.028845619 1.060141e-38
-0.059931763 -0.1472411 -0.028845619 8.2053942e-39
-0.058013566 -0.1472411 -0.028845619 9.2911693e-41
-0.056095384 -0.1472411 -0.028845619 5.5388984e-40
-0.053948455 -0.14616071 -0.024831247 3.5970743e-39
-0.051707782 -0.14455487 -0.018864702 2.2152245e-39
-0.049807094 -0.14455487 -0.018864702 3.685415e-43
-0.047547631 -0.14268802 -0.011928272 1.8048724e-42
-0.045659117 -0.14268802 -0.011928272 1.9375474e-39
-0.043770589 -0.14268802 -0.011928272 2.3056068e-39
-0.041882075 -0.14268802 -0.011928272 2.3967234e-39
-0.039993547 -0.14268802 -0.011928272 1.4729721e-39
-0.03793297 -0.14161004 -0.0079229586 5.5101298e-40
-0.036051475 -0.14161004 -0.0079229586 8.2652227e-40
-0.034169979 -0.14161004 -0.0079229586 8.2932851e-39
-0.032172762 -0.14078392 -0.0048534386 9.1226772e-39
-0.030296648 -0.14078392 -0.0048534386 4.6972828e-39
-0.028420532 -0.14078392 -0.0048534386 1.748103e-39
-0.026544413 -0.14078392 -0.0048534386 7.3468397e-40
-0.024578108 -0.13999285 -0.0019140951 1.1023847e-39
-0.022707144 -0.13999285 -0.0019140951 1.1031022e-39
-0.02083618 -0.13999285 -0.0019140951 1.6580654e-39
-0.01896522 -0.13999285 -0.0019140951 6.3607614e-39
-0.01699855 -0.13890465 0.0021292455 8.3890652e-39
-0.015134675 -0.13890465 0.0021292455 1.0786152e-38
-0.013270801 -0.13890465 0.0021292455 1.179995e-38
-0.011351468 -0.13809387 0.0051416643 1.1154581e-38
-0.009492876 -0.13809387 0.0051416643 8.7574946e-39
-0.007634284 -0.13809387 0.0051416643 1.0140429e-38
-0.0057363044 -0.13728772 0.0081370361 9.7716466e-39
-0.0038829651 -0.13728772 0.0081370361 7.3745574e-39
-0.002029622 -0.13728772 0.0081370361 1.0878347e-38
-0.00015278347 -0.13648613 0.01111548 6.5451512e-39
0.0016953349 -0.13648613 0.01111548 2.9495189e-39
0.0035434533 -0.13648613 0.01111548 2.4888966e-39
0.0053915717 -0.13648613 0.01111548 3.7796327e-39
0.0072396901 -0.13648613 0.01111548 6.0841563e-39
0.0090842526 -0.13539489 0.015170027 7.0046594e-39
0.010925261 -0.13539489 0.015170027 7.9251738e-39
0.012753388 -0.13460387 0.018109132 9.0297263e-39
0.014589244 -0.13460387 0.018109132 8.3836436e-39
0.016425099 -0.13460387 0.018109132 6.6304959e-39
0.018260956 -0.13460387 0.018109132 7.183318e-39
0.020062273 -0.13378824 0.02113967 8.3815108e-39
0.021892816 -0.13378824 0.02113967 1.4744097e-38
0.023723356 -0.13378824 0.02113967 1.6866402e-38
0.025553901 -0.13378824 0.02113967 1.7236627e-38
0.02732897 -0.13297729 0.024152804 1.7607207e-38
0.029093826 -0.13217102 0.027148534 1.6962554e-38
0.030913832 -0.13217102 0.027148534 1.6593409e-38
0.032733839 -0.13217102 0.027148534 1.7975618e-38
0.034630008 -0.13297729 0.024152804 1.9081244e-38
0.036455266 -0.13297729 0.024152804 1.8436594e-38
0.038193859 -0.13217102 0.027148534 2.0006085e-38
0.040013865 -0.13217102 0.027148534 2.3418045e-38
0.041931048 -0.13297729 0.024152804 2.3234012e-38
0.043756306 -0.13297729 0.024152804 2.3418047e-38
0.045473889 -0.13217102 0.027148534 2.341805e-38
0.047293894 -0.13217102 0.027148534 2.3234379e-38
0.049113899 -0.13217102 0.027148534 2.259009e-38
0.052252494 -0.14078392 -0.0048534386 1.4384323e-38
0.05412861 -0.14078392 -0.0048534386 1.1988316e-38
0.056141965 -0.14161004 -0.0079229586 1.1250751e-38
0.058023468 -0.14161004 -0.0079229586 1.1527338e-38
0.059904963 -0.14161004 -0.0079229586 1.3463446e-38
0.061786465 -0.14161004 -0.0079229586 1.4385402e-38
0.06366796 -0.14161004 -0.0079229586 2.130043e-38
0.065549463 -0.14161004 -0.0079229586 2.2498973e-38
0.067652173 -0.14268802 -0.011928272 2.3234379e-38
0.06971135 -0.14349405 -0.014923166 2.3048189e-38
0.071605124 -0.14349405 -0.014923166 1.1983271e-38
0.073498897 -0.14349405 -0.014923166 1.0784728e-38
-0.062047668 -0.1499963 -0.031935405 9.033727e-39
-0.060124077 -0.1499963 -0.031935405 7.1912451e-39
-0.058013566 -0.1491593 -0.028845619 7.3827129e-40
-0.056095384 -0.1491593 -0.028845619 1.0148652e-39
-0.053948455 -0.14807184 -0.024831247 2.6751152e-39
-0.051875323 -0.14727734 -0.02189834 3.3208518e-39
-0.049969323 -0.14727734 -0.02189834 9.4004706e-41
-0.047547631 -0.14457656 -0.011928272 7.2026741e-43
-0.045659117 -0.14457656 -0.011928272 2.7676612e-39
-0.04357747 -0.14349155 -0.0079229586 4.057321e-39
-0.041695975 -0.14349155 -0.0079229586 3.503071e-39
-0.039993547 -0.14457656 -0.011928272 3.409446e-39
-0.03793297 -0.14349155 -0.0079229586 2.0247137e-39
-0.036051475 -0.14349155 -0.0079229586 6.4285408e-40
-0.034169979 -0.14349155 -0.0079229586 4.9749641e-39
-0.032172762 -0.14266007 -0.0048534386 7.9248543e-39
-0.030296648 -0.14266007 -0.0048534386 7.7408148e-39
-0.028420532 -0.14266007 -0.0048534386 4.7898315e-39
-0.026544413 -0.14266007 -0.0048534386 1.3786086e-39
-0.024578108 -0.14186381 -0.0019140951 1.0101905e-39
-0.022707144 -0.14186381 -0.0019140951 8.2651947e-40
-0.02083618 -0.14186381 -0.0019140951 1.0127016e-39
-0.01896522 -0.14186381 -0.0019140951 7.6514988e-39
-0.01699855 -0.14076851 0.0021292455 9.3110215e-39
-0.015134675 -0.14076851 0.0021292455 8.2968696e-39
-0.013270801 -0.14076851 0.0021292455 7.7433427e-39
