# .PCD v0.7 - Point Cloud Data file format
VERSION 0.7
FIELDS x y z rgb
SIZE 4 4 4 4
TYPE F F F F
COUNT 1 1 1 1
WIDTH 944
HEIGHT 1
VIEWPOINT 0 0 0 1 0 0 0
POINTS 944
DATA ascii
-0.039427958 -0.12726043 0.01233062 2.3509886e-38
-0.037592102 -0.12726043 0.01233062 2.3509886e-38
-0.035810355 -0.12803085 0.0093915146 2.3509886e-38
-0.033969346 -0.12803085 0.0093915146 2.3509886e-38
-0.032233153 -0.12987436 0.0023585241 2.3509886e-38
-0.030379813 -0.12987436 0.0023585241 2.3509886e-38
-0.028526474 -0.12987436 0.0023585241 2.3509886e-38
-0.026673131 -0.12987436 0.0023585241 2.3509886e-38
-0.024741113 -0.12726043 0.01233062 2.3509886e-38
-0.02288666 -0.12646608 0.015361158 2.3509886e-38
-0.021042909 -0.12567626 0.018374292 2.3509886e-38
-0.019217651 -0.12567626 0.018374292 2.3509886e-38
-0.017392389 -0.12567626 0.018374292 2.3509886e-38
-0.015567132 -0.12567626 0.018374292 2.3509886e-38
-0.013749751 -0.124891 0.021370022 2.3509886e-38
-0.011929744 -0.124891 0.021370022 2.3509886e-38
-0.010109738 -0.124891 0.021370022 2.3509886e-38
-0.0082897311 -0.124891 0.021370022 2.3509886e-38
-0.0065655047 -0.12228753 0.031302303 2.3509886e-38
-0.0047629122 -0.12228753 0.031302303 2.3509886e-38
-0.0029603206 -0.12228753 0.031302303 2.3509886e-38
-0.0012922268 -0.11992194 0.040327042 2.3509886e-38
0.0003940938 -0.11834116 0.046357602 2.3509886e-38
0.0025015557 -0.1230578 0.028363673 2.3509886e-38
0.0043093013 -0.1230578 0.028363673 2.3509886e-38
0.0061170449 -0.1230578 0.028363673 2.3509886e-38
0.0078552319 -0.12228753 0.031302303 2.3509886e-38
0.0096578253 -0.12228753 0.031302303 2.3509886e-38
0.011460417 -0.12228753 0.031302303 2.3509886e-38
0.013263009 -0.12228753 0.031302303 2.3509886e-38
0.015065602 -0.12228753 0.031302303 2.3509886e-38
0.016868193 -0.12228753 0.031302303 2.3509886e-38
0.018771257 -0.1230578 0.028363673 2.3509886e-38
0.02068904 -0.12386028 0.025302259 2.3509886e-38
0.02250215 -0.12386028 0.025302259 2.3509886e-38
0.024470393 -0.124891 0.021370022 2.3509886e-38
0.026413832 -0.12567626 0.018374292 2.3509886e-38
0.02823909 -0.12567626 0.018374292 2.3509883e-38
0.03019907 -0.12646608 0.015361158 2.3418043e-38
0.032170419 -0.12726043 0.01233062 2.3325846e-38
0.034147989 -0.12803085 0.0093915146 2.3418039e-38
0.035988998 -0.12803085 0.0093915146 2.3509873e-38
0.038039722 -0.12909363 0.0053369682 2.3509869e-38
0.0402073 -0.13065951 -0.00063684769 2.3141804e-38
0.042232268 -0.13144915 -0.0036492664 2.286557e-38
0.044326544 -0.13250901 -0.0076926071 2.2313112e-38
0.046197504 -0.13250901 -0.0076926071 2.1114568e-38
0.048246272 -0.13327946 -0.010631951 2.0561747e-38
0.050313443 -0.13408406 -0.013701471 2.083869e-38
0.052451268 -0.13513394 -0.017706783 2.0377707e-38
0.054536708 -0.13591899 -0.020701678 1.9179164e-38
0.056430481 -0.13591899 -0.020701678 1.8810383e-38
0.058597229 -0.13695215 -0.024643214 1.9363204e-38
0.060713328 -0.13774733 -0.027676852 2.0469198e-38
0.062619336 -0.13774733 -0.027676852 2.0561042e-38
0.065043025 -0.13956837 -0.03462413 2.0192264e-38
0.067196853 -0.14037828 -0.037713915 1.9454343e-38
0.069428407 -0.14141284 -0.041660696 1.963909e-38
0.071676068 -0.14245488 -0.045636088 1.7610785e-38
0.074188925 -0.14430468 -0.052693158 1.7426394e-38
0.076138787 -0.14430468 -0.052693158 1.5582478e-38
0.078339212 -0.14507706 -0.055639774 1.5950898e-38
0.080648102 -0.14614578 -0.059716851 1.5490283e-38
0.082962878 -0.1471896 -0.063699037 1.6043459e-38
0.085203402 -0.14797734 -0.066704303 1.5030751e-38
0.087537341 -0.14900111 -0.070609957 1.4755251e-38
-0.097470067 -0.126711 0.021370022 2.3141103e-38
-0.095878549 -0.1275015 0.018374292 2.3048907e-38
-0.094053276 -0.1275015 0.018374292 2.3509883e-38
-0.092228018 -0.1275015 0.018374292 2.3509886e-38
-0.090190031 -0.126711 0.021370022 2.2864513e-38
-0.088370033 -0.126711 0.021370022 2.2864516e-38
-0.086284585 -0.1256734 0.025302259 2.341769e-38
-0.084471472 -0.1256734 0.025302259 2.3509886e-38
-0.082658358 -0.1256734 0.025302259 2.3509886e-38
-0.080845244 -0.1256734 0.025302259 2.3509886e-38
-0.078846954 -0.12486555 0.028363673 2.3232944e-38
-0.077039205 -0.12486555 0.028363673 2.3509527e-38
-0.074891582 -0.12329166 0.034328192 2.3417691e-38
-0.073094301 -0.12329166 0.034328192 2.3509886e-38
-0.071136139 -0.12249784 0.037336439 2.3509886e-38
-0.069344126 -0.12249784 0.037336439 2.3509886e-38
-0.067702435 -0.12329166 0.034328192 2.3509886e-38
-0.065760098 -0.12249784 0.037336439 2.3509886e-38
-0.063829131 -0.12170871 0.040327042 2.3509886e-38
-0.061909441 -0.12092416 0.043300122 2.3509886e-38
-0.06012788 -0.12092416 0.043300122 2.3509886e-38
-0.058346327 -0.12092416 0.043300122 2.3509886e-38
-0.056564771 -0.12092416 0.043300122 2.3509886e-38
-0.054895289 -0.12170871 0.040327042 2.3509886e-38
-0.053001657 -0.12092416 0.043300122 2.3509886e-38
-0.0512201 -0.12092416 0.043300122 2.3509886e-38
-0.049438547 -0.12092416 0.043300122 2.3509886e-38
-0.047196548 -0.11696436 0.058306426 2.3509886e-38
-0.046973709 -0.13094176 0.0053369682 2.3509886e-38
-0.045125592 -0.13094176 0.0053369682 2.3509886e-38
-0.04317439 -0.12987186 0.0093915146 2.3509886e-38
-0.041333381 -0.12987186 0.0093915146 2.3509886e-38
-0.039427958 -0.12909628 0.01233062 2.3509886e-38
-0.037592102 -0.12909628 0.01233062 2.3509886e-38
-0.035810355 -0.12987186 0.0093915146 2.3509886e-38
-0.033969346 -0.12987186 0.0093915146 2.3509886e-38
-0.032233153 -0.13172771 0.0023585241 2.3509886e-38
-0.030419201 -0.1325181 -0.00063684769 2.3509886e-38
-0.028560609 -0.1325181 -0.00063684769 2.3509886e-38
-0.026576966 -0.12909628 0.01233062 2.3509886e-38
-0.024741113 -0.12909628 0.01233062 2.3509886e-38
-0.02288666 -0.1282966 0.015361158 2.3509886e-38
-0.021042909 -0.1275015 0.018374292 2.3509886e-38
-0.019217651 -0.1275015 0.018374292 2.3509886e-38
-0.017389763 -0.126711 0.021370022 2.3509886e-38
-0.015569759 -0.126711 0.021370022 2.3509886e-38
-0.013760093 -0.1256734 0.025302259 2.3509886e-38
-0.011946981 -0.1256734 0.025302259 2.3509886e-38
-0.010133869 -0.1256734 0.025302259 2.3509886e-38
-0.0083919708 -0.12329166 0.034328192 2.3509886e-38
-0.006594684 -0.12329166 0.034328192 2.3509886e-38
-0.0048657646 -0.12170871 0.040327042 2.3509886e-38
-0.0030789953 -0.12170871 0.040327042 2.3509886e-38
-0.0012922268 -0.12170871 0.040327042 2.3509886e-38
0.0003940938 -0.12011738 0.046357602 2.3509886e-38
0.002170288 -0.12011738 0.046357602 2.3509886e-38
0.0042500487 -0.12409012 0.031302303 2.3509886e-38
0.0060526403 -0.12409012 0.031302303 2.3509886e-38
0.0077836094 -0.12329166 0.034328192 2.3509886e-38
0.0095808962 -0.12329166 0.034328192 2.3509886e-38
0.011460417 -0.12409012 0.031302303 2.3509886e-38
0.013263009 -0.12409012 0.031302303 2.3509886e-38
0.015065602 -0.12409012 0.031302303 2.3509527e-38
0.016868193 -0.12409012 0.031302303 2.3509527e-38
0.018771257 -0.12486555 0.028363673 2.3509527e-38
0.02068904 -0.1256734 0.025302259 2.3509527e-38
0.02250215 -0.1256734 0.025302259 2.3509886e-38
0.024315264 -0.1256734 0.025302259 2.3509886e-38
0.026290398 -0.126711 0.021370022 2.3509886e-38
0.028110404 -0.126711 0.021370022 2.3509883e-38
0.030064352 -0.1275015 0.018374292 2.3418042e-38
0.03202961 -0.1282966 0.015361158 2.3233648e-38
0.034006275 -0.12909628 0.01233062 2.3326196e-38
0.035988998 -0.12987186 0.0093915146 2.3509869e-38
0.038039722 -0.13094176 0.0053369682 2.3326189e-38
0.0402073 -0.1325181 -0.00063684769 2.2957766e-38
0.042232268 -0.13331302 -0.0036492664 2.2496785e-38
0.044326544 -0.13437997 -0.0076926071 2.1759937e-38
0.046197504 -0.13437997 -0.0076926071 2.0469554e-38
0.048246272 -0.13515557 -0.010631951 1.9916734e-38
0.050313443 -0.13596557 -0.013701471 2.0193318e-38
0.052451268 -0.13702248 -0.017706783 1.9548303e-38
0.054536708 -0.13781275 -0.020701678 1.8073173e-38
0.056696549 -0.13885282 -0.024643214 1.779623e-38
0.058597229 -0.13885282 -0.024643214 1.8625995e-38
0.060713328 -0.13965334 -0.027676852 1.9547242e-38
0.062619336 -0.13965334 -0.027676852 2.010042e-38
0.065043025 -0.14148657 -0.03462413 2.0192262e-38
0.066961206 -0.14148657 -0.03462413 1.9270308e-38
0.069120459 -0.14230187 -0.037713915 1.9178112e-38
0.071358927 -0.14334334 -0.041660696 1.7149807e-38
0.074188925 -0.14625455 -0.052693158 1.7149807e-38
0.076138787 -0.14625455 -0.052693158 1.5490283e-38
0.078339212 -0.1470321 -0.055639774 1.5858702e-38
0.080648102 -0.14810793 -0.059716851 1.5029304e-38
0.082610272 -0.14810793 -0.059716851 1.5490285e-38
0.084932037 -0.14915876 -0.063699037 1.4754164e-38
0.086901195 -0.14915876 -0.063699037 1.5031476e-38
0.089152254 -0.14995177 -0.066704303 1.3096451e-38
-0.097470067 -0.12853102 0.021370022 2.3509886e-38
-0.095650055 -0.12853102 0.021370022 2.3325494e-38
-0.093830056 -0.12853102 0.021370022 2.341769e-38
-0.092010044 -0.12853102 0.021370022 2.3509886e-38
-0.090190031 -0.12853102 0.021370022 2.3509886e-38
-0.088370033 -0.12853102 0.021370022 2.3509886e-38
-0.086284585 -0.12748651 0.025302259 2.3509886e-38
-0.084471472 -0.12748651 0.025302259 2.3325497e-38
-0.082658358 -0.12748651 0.025302259 2.3509886e-38
-0.080845244 -0.12748651 0.025302259 2.3509527e-38
-0.078846954 -0.1266733 0.028363673 2.3325138e-38
-0.077039205 -0.1266733 0.028363673 2.3509527e-38
-0.074891582 -0.12508895 0.034328192 2.3509886e-38
-0.073094301 -0.12508895 0.034328192 2.3509886e-38
-0.071136139 -0.12428986 0.037336439 2.3509886e-38
-0.069344126 -0.12428986 0.037336439 2.3509886e-38
-0.067552112 -0.12428986 0.037336439 2.3509886e-38
-0.065760098 -0.12428986 0.037336439 2.3509886e-38
-0.063690998 -0.12270571 0.043300122 2.3509886e-38
-0.061909441 -0.12270571 0.043300122 2.3509886e-38
-0.06012788 -0.12270571 0.043300122 2.3509886e-38
-0.058220346 -0.12189357 0.046357602 2.3509886e-38
-0.056444153 -0.12189357 0.046357602 2.3509886e-38
-0.054783214 -0.12270571 0.043300122 2.3509886e-38
-0.052891761 -0.12189357 0.046357602 2.3509886e-38
-0.051011659 -0.12108628 0.049396724 2.3509886e-38
-0.04914606 -0.1203105 0.052317232 2.3509886e-38
-0.047196548 -0.11871959 0.058306426 2.3509886e-38
-0.045441303 -0.11871959 0.058306426 2.3509886e-38
-0.043767199 -0.11951269 0.05532071 2.3509886e-38
-0.04200672 -0.11951269 0.05532071 2.3509886e-38
-0.040175568 -0.11871959 0.058306426 2.3509886e-38
-0.038420323 -0.11871959 0.058306426 2.3509886e-38
-0.036665078 -0.11871959 0.058306426 2.3509886e-38
-0.034909833 -0.11871959 0.058306426 2.3509886e-38
-0.033154588 -0.11871959 0.058306426 2.3509886e-38
-0.031399343 -0.11871959 0.058306426 2.3509886e-38
-0.029644098 -0.11871959 0.058306426 2.3509886e-38
-0.027888853 -0.11871959 0.058306426 2.3509886e-38
-0.026104037 -0.11790501 0.061373025 2.3509886e-38
-0.024330895 -0.11712147 0.064322799 2.3509886e-38
-0.022868168 -0.12932678 0.018374292 2.3509886e-38
-0.021042909 -0.12932678 0.018374292 2.3509886e-38
-0.019217651 -0.12932678 0.018374292 2.3509886e-38
-0.017389763 -0.12853102 0.021370022 2.3509886e-38
-0.015569759 -0.12853102 0.021370022 2.3509886e-38
-0.013760093 -0.12748651 0.025302259 2.3509886e-38
-0.011986543 -0.12508895 0.034328192 2.3509886e-38
-0.010189258 -0.12508895 0.034328192 2.3509886e-38
-0.0084393015 -0.12349547 0.040327042 2.3509886e-38
-0.0066525331 -0.12349547 0.040327042 2.3509886e-38
-0.004899648 -0.12270571 0.043300122 2.3509886e-38
-0.0031180913 -0.12270571 0.043300122 2.3509886e-38
-0.0013821023 -0.12189357 0.046357602 2.3509886e-38
0.0003940938 -0.12189357 0.046357602 2.3509886e-38
0.002170288 -0.12189357 0.046357602 2.3509886e-38
0.0040680794 -0.12349547 0.040327042 2.3509886e-38
0.0058548478 -0.12349547 0.040327042 2.3509886e-38
0.0076416163 -0.12349547 0.040327042 2.3509886e-38
0.009504416 -0.12428986 0.037336439 2.3509886e-38
0.011378183 -0.12508895 0.034328192 2.3509886e-38
0.01317547 -0.12508895 0.034328192 2.3509527e-38
0.014972757 -0.12508895 0.034328192 2.3509527e-38
0.016868193 -0.12589271 0.031302303 2.3509527e-38
0.018771257 -0.1266733 0.028363673 2.3509527e-38
0.02068904 -0.12748651 0.025302259 2.3509527e-38
0.02250215 -0.12748651 0.025302259 2.3509886e-38
0.024315264 -0.12748651 0.025302259 2.3509886e-38
0.026290398 -0.12853102 0.021370022 2.3509883e-38
0.028110404 -0.12853102 0.021370022 2.350988e-38
0.030064352 -0.12932678 0.018374292 2.3418039e-38
0.03202961 -0.13012715 0.015361158 2.3234004e-38
0.034006275 -0.13093217 0.01233062 2.3326195e-38
0.035988998 -0.13171287 0.0093915146 2.3418026e-38
0.038039722 -0.13278987 0.0053369682 2.323435e-38
0.040047117 -0.13358103 0.0023585241 2.2773729e-38
0.042065892 -0.13437669 -0.00063684769 2.2312748e-38
0.044096142 -0.13517688 -0.0036492664 2.1944684e-38
0.046197504 -0.13625093 -0.0076926071 2.0561747e-38
0.048246272 -0.13703169 -0.010631951 1.9916731e-38
0.050313443 -0.13784705 -0.013701471 2.0101121e-38
0.052451268 -0.13891099 -0.017706783 1.9179517e-38
0.054339789 -0.13891099 -0.017706783 1.74278e-38
0.056430481 -0.13970654 -0.020701678 1.7151216e-38
0.058807328 -0.14155935 -0.027676852 1.8257209e-38
0.060713328 -0.14155935 -0.027676852 1.844125e-38
0.062619336 -0.14155935 -0.027676852 1.9547246e-38
0.065043025 -0.14340474 -0.03462413 2.0007871e-38
0.066961206 -0.14340474 -0.03462413 1.9178112e-38
0.069120459 -0.14422549 -0.037713915 1.8901525e-38
0.071044065 -0.14422549 -0.037713915 1.687322e-38
0.074188925 -0.14820443 -0.052693158 1.7241999e-38
0.076384194 -0.14898713 -0.055639774 1.5951261e-38
0.078339212 -0.14898713 -0.055639774 1.5858702e-38
-0.10135432 -0.13115202 0.018374292 2.3417687e-38
-0.099290065 -0.13035102 0.021370022 2.3325494e-38
-0.097470067 -0.13035102 0.021370022 2.3325494e-38
-0.095650055 -0.13035102 0.021370022 2.3509886e-38
-0.093830056 -0.13035102 0.021370022 2.341769e-38
-0.092010044 -0.13035102 0.021370022 2.3509886e-38
-0.090190031 -0.13035102 0.021370022 2.3233302e-38
-0.088097699 -0.1292996 0.025302259 2.3509886e-38
-0.086284585 -0.1292996 0.025302259 2.3509527e-38
-0.084471472 -0.1292996 0.025302259 2.3509527e-38
-0.082658358 -0.1292996 0.025302259 2.3509527e-38
-0.080845244 -0.1292996 0.025302259 2.3509527e-38
-0.078846954 -0.12848105 0.028363673 2.3509527e-38
-0.077039205 -0.12848105 0.028363673 2.3509527e-38
-0.074891582 -0.12688623 0.034328192 2.3509886e-38
-0.073094301 -0.12688623 0.034328192 2.3509886e-38
-0.071136139 -0.12608187 0.037336439 2.3509886e-38
-0.069189444 -0.12528224 0.040327042 2.3509886e-38
-0.067402676 -0.12528224 0.040327042 2.3509886e-38
-0.0656159 -0.12528224 0.040327042 2.3509886e-38
-0.063690998 -0.1244873 0.043300122 2.3509886e-38
-0.061772738 -0.12366976 0.046357602 2.3509886e-38
-0.059996542 -0.12366976 0.046357602 2.3509886e-38
-0.058220346 -0.12366976 0.046357602 2.3509886e-38
-0.056444153 -0.12366976 0.046357602 2.3509886e-38
-0.054667957 -0.12366976 0.046357602 2.3509886e-38
-0.052782524 -0.12285714 0.049396724 2.3509886e-38
-0.050911807 -0.12207626 0.052317232 2.3509886e-38
-0.04914606 -0.12207626 0.052317232 2.3509886e-38
-0.047196548 -0.12047486 0.058306426 2.3509886e-38
-0.045441303 -0.12047486 0.058306426 2.3509886e-38
-0.043767199 -0.12127317 0.05532071 2.3509886e-38
-0.04200672 -0.12127317 0.05532071 2.3509886e-38
-0.040175568 -0.12047486 0.058306426 2.3509886e-38
-0.038420323 -0.12047486 0.058306426 2.3509886e-38
-0.036665078 -0.12047486 0.058306426 2.3509886e-38
-0.034909833 -0.12047486 0.058306426 2.3509886e-38
-0.033154588 -0.12047486 0.058306426 2.3509886e-38
-0.031399343 -0.12047486 0.058306426 2.3509886e-38
-0.029644098 -0.12047486 0.058306426 2.3509886e-38
-0.027853902 -0.11965488 0.061373025 2.3509886e-38
-0.026104037 -0.11965488 0.061373025 2.3509886e-38
-0.024330895 -0.11886616 0.064322799 2.3509886e-38
-0.022567604 -0.11805601 0.067352682 2.3509886e-38
-0.020828221 -0.11805601 0.067352682 2.3509886e-38
-0.019088838 -0.11805601 0.067352682 2.3509886e-38
-0.017349452 -0.11805601 0.067352682 2.3509886e-38
-0.01561007 -0.11805601 0.067352682 2.3509886e-38
-0.013870685 -0.11805601 0.067352682 2.3509886e-38
-0.01201284 -0.12528224 0.040327042 2.3509886e-38
-0.010226071 -0.12528224 0.040327042 2.3509886e-38
-0.0084393015 -0.12528224 0.040327042 2.3509886e-38
-0.0066525331 -0.12528224 0.040327042 2.3509886e-38
-0.0049344925 -0.12366976 0.046357602 2.3509886e-38
-0.0031582974 -0.12366976 0.046357602 2.3509886e-38
-0.0014273953 -0.12285714 0.049396724 2.3509886e-38
0.00034347083 -0.12285714 0.049396724 2.3509886e-38
0.002170288 -0.12366976 0.046357602 2.3509886e-38
0.004008132 -0.1244873 0.043300122 2.3509886e-38
0.0057896888 -0.1244873 0.043300122 2.3509886e-38
0.0075712437 -0.1244873 0.043300122 2.3509886e-38
0.0094283866 -0.12528224 0.040327042 2.3509886e-38
0.01129643 -0.12608187 0.037336439 2.3509886e-38
0.013088441 -0.12608187 0.037336439 2.3509527e-38
0.014972757 -0.12688623 0.034328192 2.3509527e-38
0.016770046 -0.12688623 0.034328192 2.3509527e-38
0.018771257 -0.12848105 0.028363673 2.3509527e-38
0.02068904 -0.1292996 0.025302259 2.3509886e-38
0.02250215 -0.1292996 0.025302259 2.3509886e-38
0.024315264 -0.1292996 0.025302259 2.3509886e-38
0.026290398 -0.13035102 0.021370022 2.3509883e-38
0.028110404 -0.13035102 0.021370022 2.3509879e-38
0.030064352 -0.13115202 0.018374292 2.3418036e-38
0.03202961 -0.13195769 0.015361158 2.350987e-38
0.034006275 -0.13276802 0.01233062 2.3418029e-38
0.035988998 -0.13355388 0.0093915146 2.3049958e-38
0.038039722 -0.134638 0.0053369682 2.3234345e-38
0.040047117 -0.13543437 0.0023585241 2.2958115e-38
0.042065892 -0.13623528 -0.00063684769 2.1759571e-38
0.044096142 -0.13704078 -0.0036492664 2.1022725e-38
0.046197504 -0.13812189 -0.0076926071 2.0931606e-38
0.048246272 -0.13890781 -0.010631951 2.0563178e-38
0.050313443 -0.13972856 -0.013701471 1.9641219e-38
0.052451268 -0.14079951 -0.017706783 1.8535224e-38
0.054339789 -0.14079951 -0.017706783 1.7889855e-38
0.056430481 -0.1416003 -0.020701678 1.7521075e-38
0.058807328 -0.14346536 -0.027676852 1.7520722e-38
0.060713328 -0.14346536 -0.027676852 1.7796957e-38
0.062619336 -0.14346536 -0.027676852 1.8902953e-38
0.065043025 -0.14532293 -0.03462413 1.9363578e-38
0.066961206 -0.14532293 -0.03462413 1.8994798e-38
0.069120459 -0.14614908 -0.037713915 1.8257233e-38
0.071044065 -0.14614908 -0.037713915 1.6689908e-38
-0.10135432 -0.13297729 0.018374292 2.3509883e-38
-0.099529065 -0.13297729 0.018374292 2.341769e-38
-0.097470067 -0.13217102 0.021370022 2.3325494e-38
-0.095650055 -0.13217102 0.021370022 2.3509886e-38
-0.093830056 -0.13217102 0.021370022 2.3325494e-38
-0.092010044 -0.13217102 0.021370022 2.3509886e-38
-0.089910813 -0.13111271 0.025302259 2.3233302e-38
-0.088097699 -0.13111271 0.025302259 2.3509527e-38
-0.086284585 -0.13111271 0.025302259 2.3509527e-38
-0.084270187 -0.13028879 0.028363673 2.3509527e-38
-0.082462437 -0.13028879 0.028363673 2.3509527e-38
-0.080654688 -0.13028879 0.028363673 2.3509527e-38
-0.078669198 -0.1294979 0.031302303 2.3509527e-38
-0.076866604 -0.1294979 0.031302303 2.3509527e-38
-0.074891582 -0.12868352 0.034328192 2.3509886e-38
-0.072928153 -0.12787388 0.037336439 2.3509886e-38
-0.071136139 -0.12787388 0.037336439 2.3509886e-38
-0.069189444 -0.12706901 0.040327042 2.3509886e-38
-0.067402676 -0.12706901 0.040327042 2.3509886e-38
-0.065472551 -0.12626885 0.043300122 2.3509886e-38
-0.063548937 -0.12544595 0.046357602 2.3509886e-38
-0.061772738 -0.12544595 0.046357602 2.3509886e-38
-0.059996542 -0.12544595 0.046357602 2.3509886e-38
-0.058220346 -0.12544595 0.046357602 2.3509886e-38
-0.056324258 -0.12462802 0.049396724 2.3509886e-38
-0.054553393 -0.12462802 0.049396724 2.3509886e-38
-0.052677553 -0.12384202 0.052317232 2.3509886e-38
-0.050911807 -0.12384202 0.052317232 2.3509886e-38
-0.04904864 -0.12303366 0.05532071 2.3509886e-38
-0.047196548 -0.1222301 0.058306426 2.3509886e-38
-0.045441303 -0.1222301 0.058306426 2.3509886e-38
-0.043767199 -0.12303366 0.05532071 2.3509886e-38
-0.04200672 -0.12303366 0.05532071 2.3509886e-38
-0.040246237 -0.12303366 0.05532071 2.3509886e-38
-0.038420323 -0.1222301 0.058306426 2.3509886e-38
-0.036665078 -0.1222301 0.058306426 2.3509886e-38
-0.034909833 -0.1222301 0.058306426 2.3509886e-38
-0.033154588 -0.1222301 0.058306426 2.3509886e-38
-0.031399343 -0.1222301 0.058306426 2.3509886e-38
-0.029644098 -0.1222301 0.058306426 2.3509886e-38
-0.027853902 -0.12140475 0.061373025 2.3509886e-38
-0.026104037 -0.12140475 0.061373025 2.3509886e-38
-0.024330895 -0.12061088 0.064322799 2.3509886e-38
-0.022567604 -0.1197954 0.067352682 2.3509886e-38
-0.020828221 -0.1197954 0.067352682 2.3509886e-38
-0.019088838 -0.1197954 0.067352682 2.3509886e-38
-0.017346814 -0.11898489 0.070364207 2.3509886e-38
-0.015612709 -0.11898489 0.070364207 2.3509886e-38
-0.013883944 -0.11843865 0.072393864 2.3509886e-38
-0.012153399 -0.11843865 0.072393864 2.3509886e-38
-0.010410399 -0.11898489 0.070364207 2.3509886e-38
-0.0086762952 -0.11898489 0.070364207 2.3509886e-38
-0.0067106877 -0.12544595 0.046357602 2.3509886e-38
-0.0049344925 -0.12544595 0.046357602 2.3509886e-38
-0.0031582974 -0.12544595 0.046357602 2.3509886e-38
-0.0014273953 -0.12462802 0.049396724 2.3509886e-38
0.00034347083 -0.12462802 0.049396724 2.3509886e-38
0.0021143379 -0.12462802 0.049396724 2.3509886e-38
0.0039464841 -0.12544595 0.046357602 2.3509886e-38
0.0057226783 -0.12544595 0.046357602 2.3509886e-38
0.0074988743 -0.12544595 0.046357602 2.3509886e-38
0.0093528004 -0.12626885 0.043300122 2.3509886e-38
0.011215155 -0.12706901 0.040327042 2.3509886e-38
0.013001923 -0.12706901 0.040327042 2.3509886e-38
0.014880455 -0.12787388 0.037336439 2.3509527e-38
0.016672466 -0.12787388 0.037336439 2.3509527e-38
0.018670786 -0.1294979 0.031302303 2.3509886e-38
0.020579003 -0.13028879 0.028363673 2.3509886e-38
0.022386748 -0.13028879 0.028363673 2.3509886e-38
0.024315264 -0.13111271 0.025302259 2.3509883e-38
0.026290398 -0.13217102 0.021370022 2.350988e-38
0.028110404 -0.13217102 0.021370022 2.3509876e-38
0.030064352 -0.13297729 0.018374292 2.3326199e-38
0.03202961 -0.13378824 0.015361158 2.3418032e-38
0.034006275 -0.13460387 0.01233062 2.3418026e-38
0.035988998 -0.13539489 0.0093915146 2.3050316e-38
0.038039722 -0.13648613 0.0053369682 2.3142506e-38
0.039887838 -0.13648613 0.0053369682 2.2774079e-38
0.041900456 -0.13728772 0.0023585241 2.1484059e-38
0.044096142 -0.13890465 -0.0036492664 2.083869e-38
0.046197504 -0.13999285 -0.0076926071 2.0378788e-38
0.048246272 -0.14078392 -0.010631951 1.9733414e-38
0.050313443 -0.14161004 -0.013701471 1.890401e-38
0.052451268 -0.14268802 -0.017706783 1.8074245e-38
0.054536708 -0.14349405 -0.020701678 1.7613267e-38
0.056696549 -0.14455487 -0.024643214 1.7428877e-38
0.058807328 -0.14537133 -0.027676852 1.7428524e-38
0.060921595 -0.14616071 -0.030609759 1.7520367e-38
0.062832743 -0.14616071 -0.030609759 1.8534169e-38
0.065043025 -0.1472411 -0.03462413 1.8810404e-38
0.066961206 -0.1472411 -0.03462413 1.8441624e-38
0.069120459 -0.14807267 -0.037713915 1.7704059e-38
0.071044065 -0.14807267 -0.037713915 1.6321122e-38
-0.10111008 -0.13399105 0.021370022 2.350988e-38
-0.099290065 -0.13399105 0.021370022 2.3509883e-38
-0.097470067 -0.13399105 0.021370022 2.3325492e-38
-0.095650055 -0.13399105 0.021370022 2.3509886e-38
-0.093830056 -0.13399105 0.021370022 2.3325494e-38
-0.092010044 -0.13399105 0.021370022 2.3509886e-38
-0.089910813 -0.13292582 0.025302259 2.3417333e-38
-0.088097699 -0.13292582 0.025302259 2.3509527e-38
-0.086077936 -0.13209651 0.028363673 2.3509527e-38
-0.084270187 -0.13209651 0.028363673 2.3509527e-38
-0.082462437 -0.13209651 0.028363673 2.3509527e-38
-0.080471791 -0.13130049 0.031302303 2.3509886e-38
-0.078486152 -0.13048081 0.034328192 2.3509886e-38
-0.076688871 -0.13048081 0.034328192 2.3509886e-38
-0.074720167 -0.1296659 0.037336439 2.3509886e-38
-0.072928153 -0.1296659 0.037336439 2.3509886e-38
-0.071136139 -0.1296659 0.037336439 2.3509886e-38
-0.069189444 -0.12885578 0.040327042 2.3509886e-38
-0.067254104 -0.1280504 0.043300122 2.3509886e-38
-0.065472551 -0.1280504 0.043300122 2.3509886e-38
-0.063548937 -0.12722217 0.046357602 2.3509886e-38
-0.061772738 -0.12722217 0.046357602 2.3509886e-38
-0.059996542 -0.12722217 0.046357602 2.3509886e-38
-0.058095124 -0.12639888 0.049396724 2.3509886e-38
-0.056324258 -0.12639888 0.049396724 2.3509886e-38
-0.054553393 -0.12639888 0.049396724 2.3509886e-38
-0.052677553 -0.12560774 0.052317232 2.3509886e-38
-0.050911807 -0.12560774 0.052317232 2.3509886e-38
-0.04904864 -0.12479414 0.05532071 2.3509886e-38
-0.047196548 -0.12398534 0.058306426 2.3509886e-38
-0.045441303 -0.12398534 0.058306426 2.3509886e-38
-0.043767199 -0.12479414 0.05532071 2.3509886e-38
-0.04200672 -0.12479414 0.05532071 2.3509886e-38
-0.040246237 -0.12479414 0.05532071 2.3509886e-38
-0.038420323 -0.12398534 0.058306426 2.3509886e-38
-0.036665078 -0.12398534 0.058306426 2.3509886e-38
-0.034909833 -0.12398534 0.058306426 2.3509886e-38
-0.033154588 -0.12398534 0.058306426 2.3509886e-38
-0.031399343 -0.12398534 0.058306426 2.3509886e-38
-0.029603772 -0.12315463 0.061373025 2.3509886e-38
-0.027820285 -0.12235557 0.064322799 2.3509886e-38
-0.02607559 -0.12235557 0.064322799 2.3509886e-38
-0.024306986 -0.12153481 0.067352682 2.3509886e-38
-0.022567604 -0.12153481 0.067352682 2.3509886e-38
-0.020828221 -0.12153481 0.067352682 2.3509886e-38
-0.019080918 -0.120719 0.070364207 2.3509886e-38
-0.017346814 -0.120719 0.070364207 2.3509886e-38
-0.015614488 -0.12016918 0.072393864 2.3509886e-38
-0.013883944 -0.12016918 0.072393864 2.3509886e-38
-0.012153399 -0.12016918 0.072393864 2.3509886e-38
-0.010422855 -0.12016918 0.072393864 2.3509886e-38
-0.0086923093 -0.12016918 0.072393864 2.3509886e-38
-0.0069131507 -0.12153481 0.067352682 2.3509886e-38
-0.0051056184 -0.12315463 0.061373025 2.3509886e-38
-0.0032761628 -0.12479414 0.05532071 2.3509886e-38
-0.0014709206 -0.12560774 0.052317232 2.3509886e-38
0.00029482599 -0.12560774 0.052317232 2.3509886e-38
0.0020605708 -0.12560774 0.052317232 2.3509886e-38
0.0038852049 -0.12639888 0.049396724 2.3509886e-38
0.0057226783 -0.12722217 0.046357602 2.3509886e-38
0.0074988743 -0.12722217 0.046357602 2.3509886e-38
0.0093528004 -0.1280504 0.043300122 2.3509886e-38
0.011215155 -0.12885578 0.040327042 2.3509886e-38
0.013001923 -0.12885578 0.040327042 2.3509886e-38
0.014880455 -0.1296659 0.037336439 2.3509886e-38
0.016672466 -0.1296659 0.037336439 2.3509886e-38
0.018670786 -0.13130049 0.031302303 2.3509886e-38
0.020579003 -0.13209651 0.028363673 2.3509886e-38
0.022386748 -0.13209651 0.028363673 2.3509886e-38
0.024315264 -0.13292582 0.025302259 2.3509883e-38
0.026290398 -0.13399105 0.021370022 2.3509879e-38
0.028110404 -0.13399105 0.021370022 2.3509873e-38
0.030064352 -0.13480256 0.018374292 2.3326196e-38
0.032170419 -0.13643973 0.01233062 2.3418029e-38
0.034147989 -0.13723589 0.0093915146 2.3326187e-38
0.035988998 -0.13723589 0.0093915146 2.2865922e-38
0.038039722 -0.13833423 0.0053369682 2.2865919e-38
0.039887838 -0.13833423 0.0053369682 2.2497492e-38
0.041900456 -0.13914107 0.0023585241 2.120747e-38
0.044096142 -0.14076851 -0.0036492664 2.0654296e-38
0.046197504 -0.14186381 -0.0076926071 1.9733417e-38
0.048431948 -0.14349155 -0.013701471 1.8719618e-38
0.050562747 -0.14457656 -0.017706783 1.8074246e-38
0.052642934 -0.14538784 -0.020701678 1.7705818e-38
0.054536708 -0.14538784 -0.020701678 1.7521427e-38
0.056901328 -0.14727734 -0.027676852 1.7336681e-38
0.058807328 -0.14727734 -0.027676852 1.7244132e-38
0.060921595 -0.14807184 -0.030609759 1.7428172e-38
0.062832743 -0.14807184 -0.030609759 1.8534525e-38
0.065043025 -0.1491593 -0.03462413 1.8718565e-38
0.066961206 -0.1491593 -0.03462413 1.825723e-38
0.069120459 -0.1499963 -0.037713915 1.7611861e-38
0.071044065 -0.1499963 -0.037713915 1.6321122e-38
-0.10293009 -0.13581105 0.021370022 1.2169812e-38
-0.10111008 -0.13581105 0.021370022 2.350988e-38
-0.099290065 -0.13581105 0.021370022 2.350988e-38
-0.097470067 -0.13581105 0.021370022 2.3417687e-38
-0.095650055 -0.13581105 0.021370022 2.3509886e-38
-0.093830056 -0.13581105 0.021370022 2.3233299e-38
-0.091723926 -0.13473894 0.025302259 2.3509886e-38
-0.089910813 -0.13473894 0.025302259 2.3417333e-38
-0.088097699 -0.13473894 0.025302259 2.3509527e-38
-0.086077936 -0.13390426 0.028363673 2.3509527e-38
-0.084270187 -0.13390426 0.028363673 2.3509527e-38
-0.082462437 -0.13390426 0.028363673 2.3509886e-38
-0.080471791 -0.13310309 0.031302303 2.3509886e-38
-0.078486152 -0.1322781 0.034328192 2.3509886e-38
-0.076688871 -0.1322781 0.034328192 2.3509886e-38
-0.074720167 -0.13145791 0.037336439 2.3509886e-38
-0.072928153 -0.13145791 0.037336439 2.3509886e-38
-0.070976213 -0.13064255 0.040327042 2.3509886e-38
-0.069189444 -0.13064255 0.040327042 2.3509886e-38
-0.067254104 -0.12983195 0.043300122 2.3509886e-38
-0.065472551 -0.12983195 0.043300122 2.3509886e-38
-0.063548937 -0.12899835 0.046357602 2.3509886e-38
-0.061772738 -0.12899835 0.046357602 2.3509886e-38
-0.059996542 -0.12899835 0.046357602 2.3509886e-38
-0.058095124 -0.12816976 0.049396724 2.3509886e-38
-0.056324258 -0.12816976 0.049396724 2.3509886e-38
-0.054553393 -0.12816976 0.049396724 2.3509886e-38
-0.052677553 -0.1273735 0.052317232 2.3509886e-38
-0.050809119 -0.12655462 0.05532071 2.3509886e-38
-0.04895179 -0.12574057 0.058306426 2.3509886e-38
-0.047196548 -0.12574057 0.058306426 2.3509886e-38
-0.045441303 -0.12574057 0.058306426 2.3509886e-38
-0.043767199 -0.12655462 0.05532071 2.3509886e-38
-0.04200672 -0.12655462 0.05532071 2.3509886e-38
-0.040175568 -0.12574057 0.058306426 2.3509886e-38
-0.038420323 -0.12574057 0.058306426 2.3509886e-38
-0.036665078 -0.12574057 0.058306426 2.3509886e-38
-0.034909833 -0.12574057 0.058306426 2.3509886e-38
-0.033154588 -0.12574057 0.058306426 2.3509886e-38
-0.031353641 -0.1249045 0.061373025 2.3509886e-38
-0.029525138 -0.12327419 0.067352682 2.3509886e-38
-0.027785756 -0.12327419 0.067352682 2.3509886e-38
-0.026046373 -0.12327419 0.067352682 2.3509886e-38
-0.024283227 -0.12245311 0.070364207 2.3509886e-38
-0.022549123 -0.12245311 0.070364207 2.3509886e-38
-0.020815019 -0.12245311 0.070364207 2.3509886e-38
-0.019080918 -0.12245311 0.070364207 2.3509886e-38
-0.017346814 -0.12245311 0.070364207 2.3509886e-38
-0.015617101 -0.12108697 0.075374871 2.3509886e-38
-0.013891784 -0.12108697 0.075374871 2.3509886e-38
-0.012166466 -0.12108697 0.075374871 2.3509886e-38
-0.010441148 -0.12108697 0.075374871 2.3509886e-38
-0.0087158298 -0.12108697 0.075374871 2.3509886e-38
-0.0069617638 -0.12189974 0.072393864 2.3509886e-38
-0.0052080881 -0.12245311 0.070364207 2.3509886e-38
-0.0034343824 -0.12327419 0.067352682 2.3509886e-38
-0.0015601795 -0.12574057 0.058306426 2.3509886e-38
0.00019506458 -0.12574057 0.058306426 2.3509886e-38
0.0020052781 -0.12655462 0.05532071 2.3509886e-38
0.0038263174 -0.1273735 0.052317232 2.3509886e-38
0.0056560719 -0.12816976 0.049396724 2.3509886e-38
0.0074269371 -0.12816976 0.049396724 2.3509886e-38
0.0093528004 -0.12983195 0.043300122 2.3509886e-38
0.011134355 -0.12983195 0.043300122 2.3509886e-38
0.012915912 -0.12983195 0.043300122 2.3509886e-38
0.014788694 -0.13064255 0.040327042 2.3509886e-38
0.016672466 -0.13145791 0.037336439 2.3509886e-38
0.018670786 -0.13310309 0.031302303 2.3509886e-38
0.020579003 -0.13390426 0.028363673 2.3509886e-38
0.022386748 -0.13390426 0.028363673 2.3509883e-38
0.024315264 -0.13473894 0.025302259 2.350988e-38
0.026290398 -0.13581105 0.021370022 2.3509879e-38
0.02823909 -0.13662781 0.018374292 2.3509873e-38
0.03019907 -0.13744931 0.015361158 2.3233999e-38
0.032170419 -0.13827558 0.01233062 2.3326192e-38
0.034147989 -0.1390769 0.0093915146 2.3142154e-38
0.035988998 -0.1390769 0.0093915146 2.268153e-38
0.038039722 -0.14018236 0.0053369682 2.2589688e-38
0.039887838 -0.14018236 0.0053369682 2.212871e-38
0.041900456 -0.14099441 0.0023585241 2.0746491e-38
0.044096142 -0.14263238 -0.0036492664 2.0286591e-38
0.046370156 -0.14453618 -0.010631951 1.9180241e-38
0.048431948 -0.14537306 -0.013701471 1.8074246e-38
0.050562747 -0.14646508 -0.017706783 1.7705462e-38
0.052642934 -0.1472816 -0.020701678 1.7705815e-38
0.054536708 -0.1472816 -0.020701678 1.7429228e-38
0.056901328 -0.14918335 -0.027676852 1.7060093e-38
0.058807328 -0.14918335 -0.027676852 1.6875706e-38
0.060921595 -0.14998297 -0.030609759 1.7151941e-38
0.062832743 -0.14998297 -0.030609759 1.8350134e-38
-0.10260259 -0.13655205 0.025302259 1.1985418e-38
-0.10078948 -0.13655205 0.025302259 2.3509879e-38
-0.099290065 -0.13763104 0.021370022 2.350988e-38
-0.097470067 -0.13763104 0.021370022 2.3417687e-38
-0.095350139 -0.13655205 0.025302259 2.3509886e-38
-0.09353704 -0.13655205 0.025302259 2.3233299e-38
-0.091723926 -0.13655205 0.025302259 2.3509886e-38
-0.089910813 -0.13655205 0.025302259 2.3509886e-38
-0.08788567 -0.13571201 0.028363673 2.3509527e-38
-0.086077936 -0.13571201 0.028363673 2.3509527e-38
-0.084270187 -0.13571201 0.028363673 2.3509886e-38
-0.08227437 -0.13490568 0.031302303 2.3509886e-38
-0.080471791 -0.13490568 0.031302303 2.3509886e-38
-0.078486152 -0.13407536 0.034328192 2.3509886e-38
-0.076688871 -0.13407536 0.034328192 2.3509886e-38
-0.074720167 -0.13324992 0.037336439 2.3509883e-38
-0.072928153 -0.13324992 0.037336439 2.3509886e-38
-0.070976213 -0.13242932 0.040327042 2.3509886e-38
-0.069189444 -0.13242932 0.040327042 2.3509886e-38
-0.067254104 -0.13161351 0.043300122 2.3509886e-38
-0.065472551 -0.13161351 0.043300122 2.3509886e-38
-0.063548937 -0.13077454 0.046357602 2.3509886e-38
-0.061772738 -0.13077454 0.046357602 2.3509886e-38
-0.059996542 -0.13077454 0.046357602 2.3509886e-38
-0.058095124 -0.12994061 0.049396724 2.3509886e-38
-0.056324258 -0.12994061 0.049396724 2.3509886e-38
-0.054553393 -0.12994061 0.049396724 2.3509886e-38
-0.052677553 -0.12913923 0.052317232 2.3509886e-38
-0.050809119 -0.12831511 0.05532071 2.3509886e-38
-0.04895179 -0.12749584 0.058306426 2.3509886e-38
-0.047196548 -0.12749584 0.058306426 2.3509886e-38
-0.045441303 -0.12749584 0.058306426 2.3509886e-38
-0.043767199 -0.12831511 0.05532071 2.3509886e-38
-0.041930813 -0.12749584 0.058306426 2.3509886e-38
-0.040175568 -0.12749584 0.058306426 2.3509886e-38
-0.038420323 -0.12749584 0.058306426 2.3509886e-38
-0.036665078 -0.12749584 0.058306426 2.3509886e-38
-0.034853376 -0.12665437 0.061373025 2.3509886e-38
-0.033103507 -0.12665437 0.061373025 2.3509886e-38
-0.031309679 -0.12584494 0.064322799 2.3509886e-38
-0.029525138 -0.12501357 0.067352682 2.3509886e-38
-0.027751435 -0.12418722 0.070364207 2.3509886e-38
-0.026017331 -0.12418722 0.070364207 2.3509886e-38
-0.024283227 -0.12418722 0.070364207 2.3509886e-38
-0.022549123 -0.12418722 0.070364207 2.3509886e-38
-0.020806123 -0.12363027 0.072393864 2.3509886e-38
-0.01907558 -0.12363027 0.072393864 2.3509886e-38
-0.017345034 -0.12363027 0.072393864 2.3509886e-38
-0.015617101 -0.12281232 0.075374871 2.3509886e-38
-0.013899577 -0.12199925 0.078337938 2.3509886e-38
-0.012179454 -0.12199925 0.078337938 2.3509886e-38
-0.010459331 -0.12199925 0.078337938 2.3509886e-38
-0.0087158298 -0.12281232 0.075374871 2.3509886e-38
-0.0069617638 -0.12363027 0.072393864 2.3509886e-38
-0.0052080881 -0.12418722 0.070364207 2.3509886e-38
-0.0034739841 -0.12418722 0.070364207 2.3509886e-38
-0.0016498435 -0.12584494 0.064322799 2.3509886e-38
0.00014398526 -0.12665437 0.061373025 2.3509886e-38
0.0019503096 -0.12749584 0.058306426 2.3509886e-38
0.0037657572 -0.12831511 0.05532071 2.3509886e-38
0.0056560719 -0.12994061 0.049396724 2.3509886e-38
0.0074269371 -0.12994061 0.049396724 2.3509886e-38
0.0092750685 -0.13077454 0.046357602 2.3509886e-38
0.011051265 -0.13077454 0.046357602 2.3509886e-38
0.012915912 -0.13161351 0.043300122 2.3509886e-38
0.014788694 -0.13242932 0.040327042 2.3509883e-38
0.016672466 -0.13324992 0.037336439 2.3509886e-38
0.018567331 -0.13407536 0.034328192 2.3509883e-38
0.020579003 -0.13571201 0.028363673 2.3509883e-38
0.022386748 -0.13571201 0.028363673 2.350988e-38
0.024315264 -0.13655205 0.025302259 2.3509879e-38
0.026290398 -0.13763104 0.021370022 2.3509876e-38
0.02823909 -0.13845308 0.018374292 2.3509873e-38
0.03019907 -0.13927986 0.015361158 2.3141804e-38
0.032170419 -0.14011143 0.01233062 2.3142157e-38
0.034147989 -0.14091791 0.0093915146 2.3050316e-38
0.035988998 -0.14091791 0.0093915146 2.2497139e-38
0.038039722 -0.14203046 0.0053369682 2.2313101e-38
0.040047117 -0.14284773 0.0023585241 2.1759927e-38
0.041900456 -0.14284773 0.0023585241 2.0285513e-38
0.044096142 -0.14449625 -0.0036492664 1.9825613e-38
0.046370156 -0.1464123 -0.010631951 1.8535587e-38
0.048431948 -0.14725454 -0.013701471 1.752179e-38
0.050562747 -0.14835359 -0.017706783 1.7521787e-38
0.052642934 -0.14917539 -0.020701678 1.7614339e-38
0.054536708 -0.14917539 -0.020701678 1.715336e-38
-0.10260259 -0.13836516 0.025302259 1.1616635e-38
-0.10078948 -0.13836516 0.025302259 2.3509876e-38
-0.098976366 -0.13836516 0.025302259 2.3509879e-38
-0.097163253 -0.13836516 0.025302259 2.350988e-38
-0.095350139 -0.13836516 0.025302259 2.3509883e-38
-0.09353704 -0.13836516 0.025302259 2.3141103e-38
-0.091501169 -0.13751976 0.028363673 2.3509886e-38
-0.08969342 -0.13751976 0.028363673 2.3417691e-38
-0.08788567 -0.13751976 0.028363673 2.3509527e-38
-0.085879557 -0.13670824 0.031302303 2.3509886e-38
-0.084076963 -0.13670824 0.031302303 2.3509886e-38
-0.08227437 -0.13670824 0.031302303 2.3509886e-38
-0.080283441 -0.13587265 0.034328192 2.3509886e-38
-0.078486152 -0.13587265 0.034328192 2.3509883e-38
-0.07651218 -0.13504194 0.037336439 2.3509883e-38
-0.074720167 -0.13504194 0.037336439 2.3509883e-38
-0.072762981 -0.13421609 0.040327042 2.3509886e-38
-0.070976213 -0.13421609 0.040327042 2.3509886e-38
-0.069035664 -0.13339506 0.043300122 2.3509886e-38
-0.067254104 -0.13339506 0.043300122 2.3509886e-38
-0.065325134 -0.13255073 0.046357602 2.3509886e-38
-0.063548937 -0.13255073 0.046357602 2.3509886e-38
-0.061772738 -0.13255073 0.046357602 2.3509886e-38
-0.059996542 -0.13255073 0.046357602 2.3509886e-38
-0.058095124 -0.1317115 0.049396724 2.3509886e-38
-0.056324258 -0.1317115 0.049396724 2.3509886e-38
-0.054553393 -0.1317115 0.049396724 2.3509886e-38
-0.052677553 -0.13090499 0.052317232 2.3509886e-38
-0.050809119 -0.13007559 0.05532071 2.3509886e-38
-0.04895179 -0.12925108 0.058306426 2.3509886e-38
-0.047196548 -0.12925108 0.058306426 2.3509886e-38
-0.045441303 -0.12925108 0.058306426 2.3509886e-38
-0.043767199 -0.13007559 0.05532071 2.3509886e-38
-0.041930813 -0.12925108 0.058306426 2.3509886e-38
-0.040175568 -0.12925108 0.058306426 2.3509886e-38
-0.038353112 -0.12840421 0.061373025 2.3509886e-38
-0.036603246 -0.12840421 0.061373025 2.3509886e-38
-0.034853376 -0.12840421 0.061373025 2.3509886e-38
-0.033054374 -0.12758966 0.064322799 2.3509886e-38
-0.031264525 -0.12675296 0.067352682 2.3509886e-38
-0.029485539 -0.12592132 0.070364207 2.3509886e-38
-0.027751435 -0.12592132 0.070364207 2.3509886e-38
-0.026017331 -0.12592132 0.070364207 2.3509886e-38
-0.024283227 -0.12592132 0.070364207 2.3509886e-38
-0.022536669 -0.12536083 0.072393864 2.3509886e-38
-0.020806123 -0.12536083 0.072393864 2.3509886e-38
-0.019067738 -0.12453763 0.075374871 2.3509886e-38
-0.017342422 -0.12453763 0.075374871 2.3509886e-38
-0.015617101 -0.12453763 0.075374871 2.3509886e-38
-0.013899577 -0.12371938 0.078337938 2.3509886e-38
-0.012179454 -0.12371938 0.078337938 2.3509886e-38
-0.010459331 -0.12371938 0.078337938 2.3509886e-38
-0.0087158298 -0.12453763 0.075374871 2.3509886e-38
-0.006990511 -0.12453763 0.075374871 2.3509886e-38
-0.0052312193 -0.12536083 0.072393864 2.3509886e-38
-0.0034739841 -0.12592132 0.070364207 2.3509886e-38
-0.0016949987 -0.12675296 0.067352682 2.3509886e-38
0.00014398526 -0.12840421 0.061373025 2.3509886e-38
0.0018938547 -0.12840421 0.061373025 2.3509886e-38
0.0037055546 -0.12925108 0.058306426 2.3509886e-38
0.005592064 -0.13090499 0.052317232 2.3509886e-38
0.0073578088 -0.13090499 0.052317232 2.3509886e-38
0.0092750685 -0.13255073 0.046357602 2.3509886e-38
0.011051265 -0.13255073 0.046357602 2.3509886e-38
0.012827459 -0.13255073 0.046357602 2.3509883e-38
0.014697469 -0.13339506 0.043300122 2.3509883e-38
0.016575463 -0.13421609 0.040327042 2.3509883e-38
0.018567331 -0.13587265 0.034328192 2.350988e-38
0.020579003 -0.13751976 0.028363673 2.350988e-38
0.022386748 -0.13751976 0.028363673 2.3509879e-38
0.024315264 -0.13836516 0.025302259 2.3509876e-38
0.026290398 -0.13945107 0.021370022 2.3509873e-38
0.02823909 -0.14027832 0.018374292 2.3418033e-38
0.03019907 -0.14111041 0.015361158 2.3049608e-38
0.032170419 -0.14194728 0.01233062 2.3049961e-38
0.034147989 -0.14275892 0.0093915146 2.2865925e-38
0.035988998 -0.14275892 0.0093915146 2.2312748e-38
0.038039722 -0.14387859 0.0053369682 2.2036514e-38
0.040047117 -0.14470108 0.0023585241 2.1391145e-38
0.042065892 -0.14552824 -0.00063684769 1.9916729e-38
0.044096142 -0.14636014 -0.0036492664 1.9180241e-38
0.046197504 -0.14747669 -0.0076926071 1.7890218e-38
0.048431948 -0.14913605 -0.013701471 1.7060812e-38
-0.10260259 -0.14017828 0.025302259 1.124785e-38
-0.10078948 -0.14017828 0.025302259 2.3233648e-38
-0.098976366 -0.14017828 0.025302259 2.3509879e-38
-0.097163253 -0.14017828 0.025302259 2.350988e-38
-0.095350139 -0.14017828 0.025302259 2.3509883e-38
-0.09353704 -0.14017828 0.025302259 2.3141103e-38
-0.091501169 -0.13932751 0.028363673 2.3509886e-38
-0.089484744 -0.13851084 0.031302303 2.3325497e-38
-0.08768215 -0.13851084 0.031302303 2.3509886e-38
-0.085879557 -0.13851084 0.031302303 2.3509886e-38
-0.084076963 -0.13851084 0.031302303 2.3509886e-38
-0.082080729 -0.13766994 0.034328192 2.3509886e-38
-0.080283441 -0.13766994 0.034328192 2.3509886e-38
-0.078304186 -0.13683395 0.037336439 2.3509883e-38
-0.07651218 -0.13683395 0.037336439 2.3509883e-38
-0.074720167 -0.13683395 0.037336439 2.3509883e-38
-0.072762981 -0.13600285 0.040327042 2.3509886e-38
-0.070817225 -0.13517661 0.043300122 2.3509886e-38
-0.069035664 -0.13517661 0.043300122 2.3509886e-38
-0.067254104 -0.13517661 0.043300122 2.3509886e-38
-0.065325134 -0.13432692 0.046357602 2.3509886e-38
-0.063548937 -0.13432692 0.046357602 2.3509886e-38
-0.061772738 -0.13432692 0.046357602 2.3509886e-38
-0.059865993 -0.13348235 0.049396724 2.3509886e-38
-0.058095124 -0.13348235 0.049396724 2.3509886e-38
-0.056324258 -0.13348235 0.049396724 2.3509886e-38
-0.054553393 -0.13348235 0.049396724 2.3509886e-38
-0.052677553 -0.13267075 0.052317232 2.3509886e-38
-0.050809119 -0.13183604 0.05532071 2.3509886e-38
-0.04904864 -0.13183604 0.05532071 2.3509886e-38
-0.047196548 -0.13100632 0.058306426 2.3509886e-38
-0.045441303 -0.13100632 0.058306426 2.3509886e-38
-0.043767199 -0.13183604 0.05532071 2.3509886e-38
-0.04200672 -0.13183604 0.05532071 2.3509886e-38
-0.040175568 -0.13100632 0.058306426 2.3509886e-38
-0.038353112 -0.13015409 0.061373025 2.3509886e-38
-0.036603246 -0.13015409 0.061373025 2.3509886e-38
-0.034799073 -0.12933435 0.064322799 2.3509886e-38
-0.033054374 -0.12933435 0.064322799 2.3509886e-38
-0.031264525 -0.12849234 0.067352682 2.3509886e-38
-0.029485539 -0.12765543 0.070364207 2.3509886e-38
-0.027751435 -0.12765543 0.070364207 2.3509886e-38
-0.026017331 -0.12765543 0.070364207 2.3509886e-38
-0.024267212 -0.12709136 0.072393864 2.3509886e-38
-0.022536669 -0.12709136 0.072393864 2.3509886e-38
-0.020793058 -0.12626295 0.075374871 2.3509886e-38
-0.019067738 -0.12626295 0.075374871 2.3509886e-38
-0.017339822 -0.12543948 0.078337938 2.3509886e-38
-0.0156197 -0.12543948 0.078337938 2.3509886e-38
-0.013899577 -0.12543948 0.078337938 2.3509886e-38
-0.012179454 -0.12543948 0.078337938 2.3509886e-38
-0.010459331 -0.12543948 0.078337938 2.3509886e-38
-0.0087158298 -0.12626295 0.075374871 2.3509886e-38
-0.006990511 -0.12626295 0.075374871 2.3509886e-38
-0.0052312193 -0.12709136 0.072393864 2.3509886e-38
-0.0034739841 -0.12765543 0.070364207 2.3509886e-38
-0.0016949987 -0.12849234 0.067352682 2.3509886e-38
0.00014398526 -0.13015409 0.061373025 2.3509886e-38
0.0018938547 -0.13015409 0.061373025 2.3509886e-38
0.0037055546 -0.13100632 0.058306426 2.3509886e-38
0.005592064 -0.13267075 0.052317232 2.3509886e-38
0.0073578088 -0.13267075 0.052317232 2.3509886e-38
0.0092750685 -0.13432692 0.046357602 2.3509886e-38
0.011051265 -0.13432692 0.046357602 2.3509886e-38
0.012827459 -0.13432692 0.046357602 2.3509883e-38
0.014697469 -0.13517661 0.043300122 2.350988e-38
0.016575463 -0.13600285 0.040327042 2.350988e-38
0.018567331 -0.13766994 0.034328192 2.350988e-38
0.020579003 -0.13932751 0.028363673 2.350988e-38
0.022386748 -0.13932751 0.028363673 2.3509879e-38
0.02419449 -0.13932751 0.028363673 2.3509876e-38
0.026128378 -0.14017828 0.025302259 2.3509873e-38
0.02823909 -0.1421036 0.018374292 2.3418033e-38
0.030064352 -0.1421036 0.018374292 2.2957768e-38
0.032170419 -0.14378314 0.01233062 2.3049961e-38
0.034147989 -0.14459993 0.0093915146 2.2773729e-38
0.035988998 -0.14459993 0.0093915146 2.2128357e-38
0.038039722 -0.1457267 0.0053369682 2.1852123e-38
0.040047117 -0.14655443 0.0023585241 2.1114558e-38
0.042065892 -0.14738683 -0.00063684769 1.9547947e-38
0.044096142 -0.14822401 -0.0036492664 1.8811458e-38
0.046197504 -0.14934768 -0.0076926071 1.7521791e-38
-0.10570807 -0.14031343 0.031302303 1.1892499e-38
-0.10390548 -0.14031343 0.031302303 9.6805243e-39
-0.10260259 -0.14199139 0.025302259 1.0787954e-38
-0.10078948 -0.14199139 0.025302259 2.2774111e-38
-0.098976366 -0.14199139 0.025302259 2.3234372e-38
-0.097163253 -0.14199139 0.025302259 2.3234374e-38
-0.095350139 -0.14199139 0.025302259 2.3418047e-38
-0.09353704 -0.14199139 0.025302259 2.3049626e-38
-0.091501169 -0.14113526 0.028363673 2.3509886e-38
-0.089484744 -0.14031343 0.031302303 2.3325497e-38
-0.08768215 -0.14031343 0.031302303 2.3509886e-38
-0.085879557 -0.14031343 0.031302303 2.3509527e-38
-0.083878018 -0.13946722 0.034328192 2.3509527e-38
-0.082080729 -0.13946722 0.034328192 2.3509527e-38
-0.080283441 -0.13946722 0.034328192 2.3509883e-38
-0.078304186 -0.13862596 0.037336439 2.3509883e-38
-0.07651218 -0.13862596 0.037336439 2.3509883e-38
-0.074549749 -0.13778962 0.040327042 2.3509883e-38
-0.072762981 -0.13778962 0.040327042 2.3509883e-38
-0.070817225 -0.13695817 0.043300122 2.3509886e-38
-0.069035664 -0.13695817 0.043300122 2.3509886e-38
-0.067101322 -0.13610314 0.046357602 2.3509886e-38
-0.065325134 -0.13610314 0.046357602 2.3509886e-38
-0.063548937 -0.13610314 0.046357602 2.3509886e-38
-0.061772738 -0.13610314 0.046357602 2.3509886e-38
-0.059865993 -0.13525321 0.049396724 2.3509886e-38
-0.058095124 -0.13525321 0.049396724 2.3509886e-38
-0.056324258 -0.13525321 0.049396724 2.3509886e-38
-0.054553393 -0.13525321 0.049396724 2.3509886e-38
-0.052677553 -0.13443647 0.052317232 2.3509886e-38
-0.050911807 -0.13443647 0.052317232 2.3509886e-38
-0.04904864 -0.13359652 0.05532071 2.3509886e-38
-0.047288161 -0.13359652 0.05532071 2.3509886e-38
-0.045527678 -0.13359652 0.05532071 2.3509886e-38
-0.043767199 -0.13359652 0.05532071 2.3509886e-38
-0.04200672 -0.13359652 0.05532071 2.3509886e-38
-0.040175568 -0.13276155 0.058306426 2.3509886e-38
-0.038420323 -0.13276155 0.058306426 2.3509886e-38
-0.036603246 -0.13190396 0.061373025 2.3509886e-38
-0.034799073 -0.13107903 0.064322799 2.3509886e-38
-0.033054374 -0.13107903 0.064322799 2.3509886e-38
-0.031264525 -0.13023172 0.067352682 2.3509886e-38
-0.029485539 -0.12938951 0.070364207 2.3509886e-38
-0.027751435 -0.12938951 0.070364207 2.3509886e-38
-0.026017331 -0.12938951 0.070364207 2.3509886e-38
-0.024267212 -0.12882192 0.072393864 2.3509886e-38
-0.022536669 -0.12882192 0.072393864 2.3509886e-38
-0.020793058 -0.12798826 0.075374871 2.3509886e-38
-0.019067738 -0.12798826 0.075374871 2.3509886e-38
-0.017339822 -0.12715961 0.078337938 2.3509886e-38
-0.0156197 -0.12715961 0.078337938 2.3509886e-38
-0.013899577 -0.12715961 0.078337938 2.3509886e-38
-0.012179454 -0.12715961 0.078337938 2.3509886e-38
-0.010459331 -0.12715961 0.078337938 2.3509886e-38
-0.0087158298 -0.12798826 0.075374871 2.3509886e-38
-0.006990511 -0.12798826 0.075374871 2.3509886e-38
-0.0052312193 -0.12882192 0.072393864 2.3509886e-38
-0.0034739841 -0.12938951 0.070364207 2.3509886e-38
-0.0016949987 -0.13023172 0.067352682 2.3509886e-38
9.485241e-05 -0.13107903 0.064322799 2.3509886e-38
0.0018395493 -0.13107903 0.064322799 2.3509886e-38
0.0037055546 -0.13276155 0.058306426 2.3509886e-38
0.005592064 -0.13443647 0.052317232 2.3509886e-38
0.0074269371 -0.13525321 0.049396724 2.3509886e-38
0.0091978041 -0.13525321 0.049396724 2.3509886e-38
