# .PCD v0.7 - Point Cloud Data file format
VERSION 0.7
FIELDS x y z rgb
SIZE 4 4 4 4
TYPE F F F F
COUNT 1 1 1 1
WIDTH 953
HEIGHT 1
VIEWPOINT 0 0 0 1 0 0 0
POINTS 953
DATA ascii
-0.026716165 -0.11690097 0.0089961421 2.3509886e-38
-0.024771437 -0.1161568 0.011974586 2.3509886e-38
-0.022923321 -0.1161568 0.011974586 2.3509886e-38
-0.021075204 -0.1161568 0.011974586 2.3509886e-38
-0.019124001 -0.11514379 0.016029133 2.3509886e-38
-0.017282993 -0.11514379 0.016029133 2.3509886e-38
-0.01537757 -0.11440946 0.018968238 2.3509886e-38
-0.013480607 -0.11365227 0.021998776 2.3509886e-38
-0.011594594 -0.11289944 0.02501191 2.3509886e-38
-0.0097693354 -0.11289944 0.02501191 2.3509886e-38
-0.0079440773 -0.11289944 0.02501191 2.3509886e-38
-0.0060794204 -0.11215095 0.02800764 2.3509886e-38
-0.004259415 -0.11215095 0.02800764 2.3509886e-38
-0.0024394095 -0.11215095 0.02800764 2.3509886e-38
-0.00061940216 -0.11215095 0.02800764 2.3509886e-38
0.0012006052 -0.11215095 0.02800764 2.3509886e-38
0.0030378476 -0.11116849 0.031939879 2.3509886e-38
0.0048590116 -0.11040358 0.035001293 2.3509886e-38
0.0066667553 -0.11040358 0.035001293 2.3509886e-38
0.0084745008 -0.11040358 0.035001293 2.3509886e-38
0.010282245 -0.11040358 0.035001293 2.3509886e-38
0.012077108 -0.10966937 0.037939921 2.3509886e-38
0.013879701 -0.10966937 0.037939921 2.3509886e-38
0.015705477 -0.11040358 0.035001293 2.3509886e-38
0.017513223 -0.11040358 0.035001293 2.3509886e-38
0.019320969 -0.11040358 0.035001293 2.3509886e-38
0.021090068 -0.10966937 0.037939921 2.3509886e-38
0.022892661 -0.10966937 0.037939921 2.3509886e-38
0.024695253 -0.10966937 0.037939921 2.3509886e-38
0.028044201 -0.13065563 -0.04605554 2.3509886e-38
0.029912883 -0.12964968 -0.042029247 2.3509886e-38
0.031855687 -0.12964968 -0.042029247 2.3509886e-38
0.033726752 -0.12889244 -0.03899847 2.3509886e-38
0.035664245 -0.12889244 -0.03899847 2.3509886e-38
0.03738644 -0.12691309 -0.031076299 2.3509886e-38
0.03922065 -0.12614109 -0.027986513 2.3509886e-38
0.041138832 -0.12614109 -0.027986513 2.3509886e-38
0.043057017 -0.12614109 -0.027986513 2.3509886e-38
0.044975199 -0.12614109 -0.027986513 2.3509886e-38
0.046893384 -0.12614109 -0.027986513 2.3509886e-38
0.048660237 -0.12513812 -0.023972141 2.3509886e-38
0.049388949 -0.11764936 0.0060007703 2.3509886e-38
0.051124122 -0.11690097 0.0089961421 2.3509886e-38
0.052977465 -0.11690097 0.0089961421 2.3509886e-38
0.054830804 -0.11690097 0.0089961421 2.3509886e-38
0.056684144 -0.11690097 0.0089961421 2.3509886e-38
0.058537483 -0.11690097 0.0089961421 2.3509886e-38
0.060241994 -0.1161568 0.011974586 2.3509886e-38
0.06209011 -0.1161568 0.011974586 2.3509886e-38
0.066240445 -0.12691309 -0.031076299 2.3509886e-38
0.065562412 -0.11514379 0.016029133 2.3509886e-38
0.067403421 -0.11514379 0.016029133 2.3416971e-38
0.069244429 -0.11514379 0.016029133 2.3509527e-38
0.071085438 -0.11514379 0.016029133 2.3416971e-38
0.072926447 -0.11514379 0.016029133 2.3509527e-38
0.075026929 -0.1161568 0.011974586 2.3509527e-38
0.076875061 -0.1161568 0.011974586 2.2863797e-38
0.078723177 -0.1161568 0.011974586 2.258721e-38
0.080571294 -0.1161568 0.011974586 2.3509527e-38
0.085756719 -0.12789918 -0.035023078 2.323258e-38
0.087400049 -0.12691309 -0.031076299 2.3324775e-38
0.089323655 -0.12691309 -0.031076299 2.3509167e-38
0.091247246 -0.12691309 -0.031076299 2.3509527e-38
0.093170851 -0.12691309 -0.031076299 2.3509527e-38
0.095409319 -0.12789918 -0.035023078 2.3509527e-38
0.097339839 -0.12789918 -0.035023078 2.3509527e-38
0.099270359 -0.12789918 -0.035023078 2.3509883e-38
0.10120088 -0.12789918 -0.035023078 2.3418045e-38
0.1031314 -0.12789918 -0.035023078 2.3234372e-38
0.10471246 -0.12691309 -0.031076299 2.3234374e-38
0.10663606 -0.12691309 -0.031076299 2.1667765e-38
0.10827525 -0.12614109 -0.027986513 1.9362877e-38
0.11019343 -0.12614109 -0.027986513 1.1157466e-38
0.11240686 -0.12691309 -0.031076299 9.7748948e-39
0.11402979 -0.12614109 -0.027986513 1.5694837e-39
0.11594798 -0.12614109 -0.027986513 1.0163099e-39
0.11786616 -0.12614109 -0.027986513 1.1085056e-39
-0.11612752 -0.12380283 -0.011069166 1.6503007e-38
-0.11423901 -0.12380283 -0.011069166 2.3048542e-38
-0.11156279 -0.12202276 -0.0039943326 2.341805e-38
-0.10968667 -0.12202276 -0.0039943326 2.2128041e-38
-0.10533451 -0.11624531 0.018968238 2.341805e-38
-0.10349865 -0.11624531 0.018968238 2.3234379e-38
-0.1016628 -0.11624531 0.018968238 2.341805e-38
-0.099826932 -0.11624531 0.018968238 2.2772684e-38
-0.097991079 -0.11624531 0.018968238 2.341805e-38
-0.096155226 -0.11624531 0.018968238 2.2957431e-38
-0.094319373 -0.11624531 0.018968238 2.3418047e-38
-0.092483521 -0.11624531 0.018968238 2.3418047e-38
-0.090923354 -0.1169848 0.016029133 2.332621e-38
-0.089455575 -0.11800493 0.011974586 2.3049621e-38
-0.088146865 -0.11950795 0.0060007703 2.3418045e-38
-0.086555004 -0.12026589 0.0029883515 2.3418045e-38
-0.084691122 -0.12026589 0.0029883515 2.3326208e-38
-0.083171085 -0.12128322 -0.0010549892 2.3509886e-38
-0.081300125 -0.12128322 -0.0010549892 2.3509168e-38
-0.079429165 -0.12128322 -0.0010549892 2.3509168e-38
-0.077558205 -0.12128322 -0.0010549892 2.3509168e-38
-0.075371757 -0.12026589 0.0029883515 2.3509168e-38
-0.07350789 -0.12026589 0.0029883515 2.3509527e-38
-0.071419537 -0.11950795 0.0060007703 2.3509527e-38
-0.069342986 -0.11875431 0.0089961421 2.3509886e-38
-0.067278147 -0.11800493 0.011974586 2.3509886e-38
-0.064945683 -0.11624531 0.018968238 2.3418047e-38
-0.063109815 -0.11624531 0.018968238 2.3418047e-38
-0.060876593 -0.11472471 0.02501191 2.3234376e-38
-0.059051335 -0.11472471 0.02501191 2.3234374e-38
-0.057226077 -0.11472471 0.02501191 2.3234376e-38
-0.055400819 -0.11472471 0.02501191 2.3234376e-38
-0.05357556 -0.11472471 0.02501191 2.3142541e-38
-0.051750302 -0.11472471 0.02501191 2.3234376e-38
-0.049925037 -0.11472471 0.02501191 2.341805e-38
-0.048260912 -0.11548282 0.021998776 2.3509886e-38
-0.046587117 -0.11624531 0.018968238 2.3509886e-38
-0.044751264 -0.11624531 0.018968238 2.3509886e-38
-0.042915404 -0.11624531 0.018968238 2.3509886e-38
-0.041216113 -0.1169848 0.016029133 2.3509886e-38
-0.039556384 -0.11800493 0.011974586 2.3509886e-38
-0.037836209 -0.11875431 0.0089961421 2.3509886e-38
-0.035982862 -0.11875431 0.0089961421 2.3509886e-38
-0.034129526 -0.11875431 0.0089961421 2.3509886e-38
-0.032389101 -0.11950795 0.0060007703 2.3509886e-38
-0.030422848 -0.11875431 0.0089961421 2.3509886e-38
-0.028569505 -0.11875431 0.0089961421 2.3509886e-38
-0.026619554 -0.11800493 0.011974586 2.3509886e-38
-0.024771437 -0.11800493 0.011974586 2.3509886e-38
-0.022923321 -0.11800493 0.011974586 2.3509886e-38
-0.021075204 -0.11800493 0.011974586 2.3509886e-38
-0.019124001 -0.1169848 0.016029133 2.3509886e-38
-0.017213427 -0.11624531 0.018968238 2.3509886e-38
-0.015311152 -0.11548282 0.021998776 2.3509886e-38
-0.013480607 -0.11548282 0.021998776 2.3509886e-38
-0.011594594 -0.11472471 0.02501191 2.3509886e-38
-0.0097693354 -0.11472471 0.02501191 2.3509886e-38
-0.0079440773 -0.11472471 0.02501191 2.3509886e-38
-0.0060794204 -0.11397095 0.02800764 2.3509886e-38
-0.004259415 -0.11397095 0.02800764 2.3509886e-38
-0.0024394095 -0.11397095 0.02800764 2.3509886e-38
-0.00061940216 -0.11397095 0.02800764 2.3509886e-38
0.0012247358 -0.1129816 0.031939879 2.3509886e-38
0.0030378476 -0.1129816 0.031939879 2.3509886e-38
0.0048667397 -0.11147197 0.037939921 2.3509886e-38
0.0066693313 -0.11147197 0.037939921 2.3509886e-38
0.0084719248 -0.11147197 0.037939921 2.3509886e-38
0.010274516 -0.11147197 0.037939921 2.3509886e-38
0.012063846 -0.11071064 0.04096581 2.3509886e-38
0.013861132 -0.11071064 0.04096581 2.3509886e-38
0.01565842 -0.11071064 0.04096581 2.3509886e-38
0.017484885 -0.11147197 0.037939921 2.3509886e-38
0.019287478 -0.11147197 0.037939921 2.3509886e-38
0.021090068 -0.11147197 0.037939921 2.3509886e-38
0.022892661 -0.11147197 0.037939921 2.3509886e-38
0.024695253 -0.11147197 0.037939921 2.3509886e-38
0.026497846 -0.11147197 0.037939921 2.3509886e-38
0.028300438 -0.11147197 0.037939921 2.3509886e-38
0.030036712 -0.11071064 0.04096581 2.3509886e-38
0.031833999 -0.11071064 0.04096581 2.3509886e-38
0.035664245 -0.13082992 -0.03899847 2.3509886e-38
0.03738644 -0.12883668 -0.031076299 2.3509886e-38
0.039104514 -0.12704925 -0.023972141 2.3509886e-38
0.041015659 -0.12704925 -0.023972141 2.3509886e-38
0.042926803 -0.12704925 -0.023972141 2.3509886e-38
0.044837948 -0.12704925 -0.023972141 2.3509886e-38
0.046749093 -0.12704925 -0.023972141 2.3509886e-38
0.048660237 -0.12704925 -0.023972141 2.3509886e-38
0.049388949 -0.11950795 0.0060007703 2.3509886e-38
0.051124122 -0.11875431 0.0089961421 2.3509886e-38
0.052977465 -0.11875431 0.0089961421 2.3509886e-38
0.054830804 -0.11875431 0.0089961421 2.3509886e-38
0.056684144 -0.11875431 0.0089961421 2.3509886e-38
0.058537483 -0.11875431 0.0089961421 2.3509886e-38
0.060241994 -0.11800493 0.011974586 2.3509886e-38
0.061880395 -0.1169848 0.016029133 2.3509886e-38
0.063721403 -0.1169848 0.016029133 2.3509886e-38
0.065562412 -0.1169848 0.016029133 2.3509886e-38
0.067403421 -0.1169848 0.016029133 2.3509527e-38
0.069244429 -0.1169848 0.016029133 2.3509527e-38
0.071085438 -0.1169848 0.016029133 2.3048189e-38
0.072926447 -0.1169848 0.016029133 2.2863797e-38
0.075026929 -0.11800493 0.011974586 2.3509527e-38
0.076875061 -0.11800493 0.011974586 2.3140384e-38
0.078723177 -0.11800493 0.011974586 2.3509527e-38
0.080571294 -0.11800493 0.011974586 2.3509527e-38
0.08241941 -0.11800493 0.011974586 2.3509527e-38
0.087175235 -0.12805928 -0.027986513 2.3509527e-38
0.089093417 -0.12805928 -0.027986513 2.3509527e-38
0.091011599 -0.12805928 -0.027986513 2.3509167e-38
0.093478799 -0.12982969 -0.035023078 2.3509167e-38
0.095409319 -0.12982969 -0.035023078 2.3509527e-38
0.097339839 -0.12982969 -0.035023078 2.3509527e-38
0.099601448 -0.13082992 -0.03899847 2.3509883e-38
0.10120088 -0.12982969 -0.035023078 2.350988e-38
0.1031314 -0.12982969 -0.035023078 2.3234369e-38
0.10471246 -0.12883668 -0.031076299 2.3418043e-38
0.10635705 -0.12805928 -0.027986513 2.0376305e-38
0.10827525 -0.12805928 -0.027986513 1.8532035e-38
0.11019343 -0.12805928 -0.027986513 1.1709558e-38
0.11211161 -0.12805928 -0.027986513 1.023551e-38
0.11402979 -0.12805928 -0.027986513 1.8453517e-39
0.11594798 -0.12805928 -0.027986513 4.6241728e-40
0.11786616 -0.12805928 -0.027986513 1.2921808e-39
-0.11612752 -0.12569134 -0.011069166 2.0742929e-38
-0.11423901 -0.12569134 -0.011069166 2.3509521e-38
-0.11156279 -0.12389888 -0.0039943326 2.3509886e-38
-0.10968667 -0.12389888 -0.0039943326 2.341805e-38
-0.10705762 -0.12212978 0.0029883515 2.3509886e-38
-0.10349865 -0.11808117 0.018968238 2.341805e-38
-0.1016628 -0.11808117 0.018968238 2.3509886e-38
-0.099826932 -0.11808117 0.018968238 2.3509886e-38
-0.097991079 -0.11808117 0.018968238 2.3509886e-38
-0.096155226 -0.11808117 0.018968238 2.3509886e-38
-0.094319373 -0.11808117 0.018968238 2.3509886e-38
-0.092483521 -0.11808117 0.018968238 2.3509886e-38
-0.090923354 -0.11882581 0.016029133 2.3509886e-38
-0.089455575 -0.11985306 0.011974586 2.3509883e-38
-0.087876394 -0.12060766 0.0089961421 2.3509883e-38
-0.086288273 -0.12136655 0.0060007703 2.3509883e-38
-0.084691122 -0.12212978 0.0029883515 2.3325492e-38
-0.082827255 -0.12212978 0.0029883515 2.3141103e-38
-0.081300125 -0.12315418 -0.0010549892 2.341805e-38
-0.079099506 -0.12212978 0.0029883515 2.341805e-38
-0.077235639 -0.12212978 0.0029883515 2.341805e-38
-0.075371757 -0.12212978 0.0029883515 2.341805e-38
-0.073278129 -0.12136655 0.0060007703 2.341805e-38
-0.071196333 -0.12060766 0.0089961421 2.341805e-38
-0.069126263 -0.11985306 0.011974586 2.341805e-38
-0.066990241 -0.11882581 0.016029133 2.341805e-38
-0.064945683 -0.11808117 0.018968238 2.341805e-38
-0.063109815 -0.11808117 0.018968238 2.341805e-38
-0.060679629 -0.11579098 0.02800764 2.341805e-38
-0.058859617 -0.11579098 0.02800764 2.3418047e-38
-0.057039618 -0.11579098 0.02800764 2.341805e-38
-0.055219606 -0.11579098 0.02800764 2.341805e-38
-0.053399593 -0.11579098 0.02800764 2.341805e-38
-0.051750302 -0.11654995 0.02501191 2.341805e-38
-0.049925037 -0.11654995 0.02501191 2.3509886e-38
-0.048260912 -0.11731337 0.021998776 2.3509886e-38
-0.046587117 -0.11808117 0.018968238 2.3509886e-38
-0.044751264 -0.11808117 0.018968238 2.3509886e-38
-0.042915404 -0.11808117 0.018968238 2.3509886e-38
-0.041216113 -0.11882581 0.016029133 2.3509886e-38
-0.039375104 -0.11882581 0.016029133 2.3509886e-38
-0.037708268 -0.11985306 0.011974586 2.3509886e-38
-0.035860151 -0.11985306 0.011974586 2.3509886e-38
-0.034012027 -0.11985306 0.011974586 2.3509886e-38
-0.032163911 -0.11985306 0.011974586 2.3509886e-38
-0.030422848 -0.12060766 0.0089961421 2.3509886e-38
-0.028467674 -0.11985306 0.011974586 2.3509886e-38
-0.02648804 -0.11882581 0.016029133 2.3509886e-38
-0.024647031 -0.11882581 0.016029133 2.3509886e-38
-0.022806019 -0.11882581 0.016029133 2.3509886e-38
-0.02096501 -0.11882581 0.016029133 2.3509886e-38
-0.019049279 -0.11808117 0.018968238 2.3509886e-38
-0.017213427 -0.11808117 0.018968238 2.3509886e-38
-0.015311152 -0.11731337 0.021998776 2.3509886e-38
-0.013419852 -0.11654995 0.02501191 2.3509886e-38
-0.011594594 -0.11654995 0.02501191 2.3509886e-38
-0.0097693354 -0.11654995 0.02501191 2.3509886e-38
-0.0079440773 -0.11654995 0.02501191 2.3509886e-38
-0.0060794204 -0.11579098 0.02800764 2.3509886e-38
-0.004259415 -0.11579098 0.02800764 2.3509886e-38
-0.0024394095 -0.11579098 0.02800764 2.3509886e-38
-0.00061940216 -0.11579098 0.02800764 2.3509886e-38
0.0012247358 -0.11479472 0.031939879 2.3509886e-38
0.0030378476 -0.11479472 0.031939879 2.3509886e-38
0.0048667397 -0.11327456 0.037939921 2.3509886e-38
0.0066693313 -0.11327456 0.037939921 2.3509886e-38
0.0084719248 -0.11327456 0.037939921 2.3509886e-38
0.010274516 -0.11327456 0.037939921 2.3509886e-38
0.012063846 -0.11250792 0.04096581 2.3509886e-38
0.013861132 -0.11250792 0.04096581 2.3509886e-38
0.01565842 -0.11250792 0.04096581 2.3509886e-38
0.017455705 -0.11250792 0.04096581 2.3509886e-38
0.019252993 -0.11250792 0.04096581 2.3509886e-38
0.021050278 -0.11250792 0.04096581 2.3509886e-38
0.022847567 -0.11250792 0.04096581 2.3509886e-38
0.024644852 -0.11250792 0.04096581 2.3509886e-38
0.026497846 -0.11327456 0.037939921 2.3509886e-38
0.028300438 -0.11327456 0.037939921 2.3509886e-38
0.030036712 -0.11250792 0.04096581 2.3509886e-38
0.031833999 -0.11250792 0.04096581 2.3509886e-38
0.033631288 -0.11250792 0.04096581 2.3509886e-38
0.035265543 -0.1109881 0.04696466 2.3509886e-38
0.037052311 -0.1109881 0.04696466 2.3509886e-38
0.038839083 -0.1109881 0.04696466 2.3509886e-38
0.042926803 -0.12896039 -0.023972141 2.3509886e-38
0.044837948 -0.12896039 -0.023972141 2.3509886e-38
0.046749093 -0.12896039 -0.023972141 2.3509886e-38
0.048811566 -0.12997745 -0.027986513 2.3509886e-38
0.049388949 -0.12136655 0.0060007703 2.3509886e-38
0.051247545 -0.12136655 0.0060007703 2.3509886e-38
0.052977465 -0.12060766 0.0089961421 2.3509886e-38
0.054830804 -0.12060766 0.0089961421 2.3509886e-38
0.056684144 -0.12060766 0.0089961421 2.3509886e-38
0.058537483 -0.12060766 0.0089961421 2.3509886e-38
0.060241994 -0.11985306 0.011974586 2.3509886e-38
0.061880395 -0.11882581 0.016029133 2.3509886e-38
0.063721403 -0.11882581 0.016029133 2.3509886e-38
0.065562412 -0.11882581 0.016029133 2.3509886e-38
0.067403421 -0.11882581 0.016029133 2.3509886e-38
0.069244429 -0.11882581 0.016029133 2.3509886e-38
0.071085438 -0.11882581 0.016029133 2.3509886e-38
0.072926447 -0.11882581 0.016029133 2.3509886e-38
0.074767455 -0.11882581 0.016029133 2.3509886e-38
0.076608464 -0.11882581 0.016029133 2.3509886e-38
0.078723177 -0.11985306 0.011974586 2.3509886e-38
0.080571294 -0.11985306 0.011974586 2.3509886e-38
0.08241941 -0.11985306 0.011974586 2.3509886e-38
0.084267527 -0.11985306 0.011974586 2.3509886e-38
0.089093417 -0.12997745 -0.027986513 2.3509886e-38
0.091011599 -0.12997745 -0.027986513 2.3509886e-38
0.097663954 -0.13276742 -0.03899847 2.3509886e-38
0.099601448 -0.13276742 -0.03899847 2.3509883e-38
0.10120088 -0.13176022 -0.035023078 2.3416245e-38
0.1031314 -0.13176022 -0.035023078 2.3509879e-38
0.10471246 -0.13076027 -0.031076299 2.3509876e-38
0.10635705 -0.12997745 -0.027986513 1.6409732e-38
0.10827525 -0.12997745 -0.027986513 1.6134224e-38
0.11019343 -0.12997745 -0.027986513 1.1800673e-38
0.11211161 -0.12997745 -0.027986513 1.0510655e-38
0.11402979 -0.12997745 -0.027986513 2.4892792e-39
0.11594798 -0.12997745 -0.027986513 9.2198432e-41
0.11786616 -0.12997745 -0.027986513 1.6591682e-39
-0.11754905 -0.12655805 -0.0070638526 2.3509879e-38
-0.11612752 -0.12757985 -0.011069166 2.3509521e-38
-0.11423901 -0.12757985 -0.011069166 2.267868e-38
-0.11156279 -0.12577499 -0.0039943326 2.3509527e-38
-0.10968667 -0.12577499 -0.0039943326 2.3509886e-38
-0.10673279 -0.12322514 0.0060007703 2.3509886e-38
-0.10424051 -0.12170117 0.011974586 2.3509886e-38
-0.10196941 -0.12066682 0.016029133 2.3509886e-38
-0.099826932 -0.11991702 0.018968238 2.3509886e-38
-0.097991079 -0.11991702 0.018968238 2.3509886e-38
-0.096155226 -0.11991702 0.018968238 2.3509886e-38
-0.094319373 -0.11991702 0.018968238 2.3325494e-38
-0.092483521 -0.11991702 0.018968238 2.341769e-38
-0.090923354 -0.12066682 0.016029133 2.341769e-38
-0.089082345 -0.12066682 0.016029133 2.3509886e-38
-0.087607443 -0.12170117 0.011974586 2.3509886e-38
-0.086023048 -0.12246101 0.0089961421 2.3509886e-38
-0.084429681 -0.12322514 0.0060007703 2.3509886e-38
-0.082571089 -0.12322514 0.0060007703 2.341805e-38
-0.080712497 -0.12322514 0.0060007703 2.3234018e-38
-0.079099506 -0.12399365 0.0029883515 2.3142542e-38
-0.076995313 -0.12322514 0.0060007703 2.3234379e-38
-0.075136721 -0.12322514 0.0060007703 2.3234379e-38
-0.073049664 -0.12246101 0.0089961421 2.3234379e-38
-0.071196333 -0.12246101 0.0089961421 2.3234379e-38
-0.069126263 -0.12170117 0.011974586 2.341805e-38
-0.066990241 -0.12066682 0.016029133 2.341805e-38
-0.064945683 -0.11991702 0.018968238 2.341805e-38
-0.063109815 -0.11991702 0.018968238 2.341805e-38
-0.060679629 -0.11761098 0.02800764 2.3509886e-38
-0.058859617 -0.11761098 0.02800764 2.3509886e-38
-0.057039618 -0.11761098 0.02800764 2.3509886e-38
-0.055219606 -0.11761098 0.02800764 2.3509886e-38
-0.053399593 -0.11761098 0.02800764 2.3509886e-38
-0.051750302 -0.11837523 0.02501191 2.3509886e-38
-0.049925037 -0.11837523 0.02501191 2.3509886e-38
-0.048099779 -0.11837523 0.02501191 2.3509886e-38
-0.046430364 -0.11914389 0.021998776 2.3509886e-38
-0.044751264 -0.11991702 0.018968238 2.3509886e-38
-0.042915404 -0.11991702 0.018968238 2.3509886e-38
-0.041079551 -0.11991702 0.018968238 2.3509886e-38
-0.039375104 -0.12066682 0.016029133 2.3509886e-38
-0.037534095 -0.12066682 0.016029133 2.3509886e-38
-0.035693079 -0.12066682 0.016029133 2.3509886e-38
-0.033852074 -0.12066682 0.016029133 2.3509886e-38
-0.032011066 -0.12066682 0.016029133 2.3509886e-38
-0.030170057 -0.12066682 0.016029133 2.3509886e-38
-0.028329048 -0.12066682 0.016029133 2.3509886e-38
-0.026392706 -0.11991702 0.018968238 2.3509886e-38
-0.024463862 -0.11914389 0.021998776 2.3509886e-38
-0.022633322 -0.11914389 0.021998776 2.3509886e-38
-0.020802777 -0.11914389 0.021998776 2.3509886e-38
-0.018972233 -0.11914389 0.021998776 2.3509886e-38
-0.017141692 -0.11914389 0.021998776 2.3509886e-38
-0.01524511 -0.11837523 0.02501191 2.3509886e-38
-0.013419852 -0.11837523 0.02501191 2.3509886e-38
-0.011594594 -0.11837523 0.02501191 2.3509886e-38
-0.0097693354 -0.11837523 0.02501191 2.3509886e-38
-0.0079440773 -0.11837523 0.02501191 2.3509886e-38
-0.0060794204 -0.11761098 0.02800764 2.3509886e-38
-0.004259415 -0.11761098 0.02800764 2.3509886e-38
-0.0024394095 -0.11761098 0.02800764 2.3509886e-38
-0.00061940216 -0.11761098 0.02800764 2.3509886e-38
0.0012006052 -0.11761098 0.02800764 2.3509886e-38
0.0030378476 -0.11660783 0.031939879 2.3509886e-38
0.0048590116 -0.11582683 0.035001293 2.3509886e-38
0.0066667553 -0.11582683 0.035001293 2.3509886e-38
0.0084719248 -0.11507715 0.037939921 2.3509886e-38
0.010274516 -0.11507715 0.037939921 2.3509886e-38
0.012063846 -0.11430521 0.04096581 2.3509886e-38
0.013861132 -0.11430521 0.04096581 2.3509886e-38
0.01565842 -0.11430521 0.04096581 2.3509886e-38
0.017455705 -0.11430521 0.04096581 2.3509886e-38
0.019252993 -0.11430521 0.04096581 2.3509886e-38
0.021050278 -0.11430521 0.04096581 2.3509886e-38
0.022847567 -0.11430521 0.04096581 2.3509886e-38
0.024644852 -0.11430521 0.04096581 2.3509886e-38
0.026497846 -0.11507715 0.037939921 2.3509886e-38
0.028300438 -0.11507715 0.037939921 2.3509886e-38
0.030036712 -0.11430521 0.04096581 2.3509886e-38
0.031833999 -0.11430521 0.04096581 2.3509886e-38
0.033631288 -0.11430521 0.04096581 2.3509886e-38
0.035184745 -0.11201639 0.04993774 2.3509886e-38
0.036966302 -0.11201639 0.04993774 2.3509886e-38
0.038654044 -0.11123641 0.05299522 2.3509886e-38
0.04043024 -0.11123641 0.05299522 2.3509886e-38
0.044837948 -0.13087155 -0.023972141 2.3509886e-38
0.046749093 -0.13087155 -0.023972141 2.3509886e-38
0.047417443 -0.12246101 0.0089961421 2.3509886e-38
0.049270783 -0.12246101 0.0089961421 2.3509886e-38
0.051124122 -0.12246101 0.0089961421 2.3509886e-38
0.052977465 -0.12246101 0.0089961421 2.3509886e-38
0.054830804 -0.12246101 0.0089961421 2.3509886e-38
0.056684144 -0.12246101 0.0089961421 2.3509886e-38
0.058393873 -0.12170117 0.011974586 2.3509886e-38
0.060241994 -0.12170117 0.011974586 2.3509886e-38
0.061880395 -0.12066682 0.016029133 2.3509886e-38
0.063721403 -0.12066682 0.016029133 2.3509886e-38
0.065562412 -0.12066682 0.016029133 2.3509886e-38
0.067403421 -0.12066682 0.016029133 2.3509886e-38
0.069244429 -0.12066682 0.016029133 2.3509886e-38
0.071085438 -0.12066682 0.016029133 2.3509886e-38
0.072926447 -0.12066682 0.016029133 2.3509886e-38
0.074767455 -0.12066682 0.016029133 2.3509886e-38
0.076608464 -0.12066682 0.016029133 2.3509886e-38
0.078449473 -0.12066682 0.016029133 2.3509886e-38
0.080571294 -0.12170117 0.011974586 2.3509886e-38
0.08241941 -0.12170117 0.011974586 2.3509886e-38
0.084267527 -0.12170117 0.011974586 2.3509886e-38
0.086115643 -0.12170117 0.011974586 2.3509886e-38
0.08796376 -0.12170117 0.011974586 2.3509886e-38
0.089811876 -0.12170117 0.011974586 2.3509886e-38
0.090619922 -0.11837523 0.02501191 2.3509886e-38
0.10635705 -0.13189565 -0.027986513 1.723913e-38
0.10827525 -0.13189565 -0.027986513 1.6778512e-38
0.11019343 -0.13189565 -0.027986513 1.1892146e-38
0.11211161 -0.13189565 -0.027986513 1.060213e-38
0.11402979 -0.13189565 -0.027986513 3.3186797e-39
0.11594798 -0.13189565 -0.027986513 1.4744168e-39
-0.11943054 -0.12843956 -0.0070638526 2.3326206e-38
-0.11754905 -0.12843956 -0.0070638526 2.3509879e-38
-0.11566754 -0.12843956 -0.0070638526 2.3508801e-38
-0.1134389 -0.12765111 -0.0039943326 2.3509521e-38
-0.11123553 -0.1268961 -0.0010549892 2.3509527e-38
-0.10936457 -0.1268961 -0.0010549892 2.3509886e-38
-0.10673279 -0.12508373 0.0060007703 2.3509886e-38
-0.10424051 -0.1235493 0.011974586 2.3509886e-38
-0.10196941 -0.12250783 0.016029133 2.3509886e-38
-0.099826932 -0.12175287 0.018968238 2.3509886e-38
-0.097991079 -0.12175287 0.018968238 2.3509886e-38
-0.09644638 -0.12250783 0.016029133 2.3509886e-38
-0.094319373 -0.12175287 0.018968238 2.3509886e-38
-0.092483521 -0.12175287 0.018968238 2.341769e-38
-0.090923354 -0.12250783 0.016029133 2.3325494e-38
-0.089082345 -0.12250783 0.016029133 2.3233299e-38
-0.087607443 -0.1235493 0.011974586 2.3233299e-38
-0.086023048 -0.12431435 0.0089961421 2.341769e-38
-0.084429681 -0.12508373 0.0060007703 2.3509886e-38
-0.082571089 -0.12508373 0.0060007703 2.341805e-38
-0.080712497 -0.12508373 0.0060007703 2.3326213e-38
-0.078853905 -0.12508373 0.0060007703 2.3142542e-38
-0.076995313 -0.12508373 0.0060007703 2.3234379e-38
-0.075136721 -0.12508373 0.0060007703 2.3234379e-38
-0.073049664 -0.12431435 0.0089961421 2.3234379e-38
-0.070974395 -0.1235493 0.011974586 2.3234379e-38
-0.069126263 -0.1235493 0.011974586 2.341805e-38
-0.067278147 -0.1235493 0.011974586 2.341805e-38
-0.065149233 -0.12250783 0.016029133 2.341805e-38
-0.063308224 -0.12250783 0.016029133 2.341805e-38
-0.061273962 -0.12175287 0.018968238 2.3509886e-38
-0.059051335 -0.12020047 0.02501191 2.3509886e-38
-0.057226077 -0.12020047 0.02501191 2.3509886e-38
-0.055400819 -0.12020047 0.02501191 2.3509886e-38
-0.05357556 -0.12020047 0.02501191 2.3509886e-38
-0.051750302 -0.12020047 0.02501191 2.3509886e-38
-0.049925037 -0.12020047 0.02501191 2.3509886e-38
-0.048099779 -0.12020047 0.02501191 2.3509886e-38
-0.046430364 -0.12097444 0.021998776 2.3509886e-38
-0.044599831 -0.12097444 0.021998776 2.3509886e-38
-0.042769283 -0.12097444 0.021998776 2.3509886e-38
-0.041079551 -0.12175287 0.018968238 2.3509886e-38
-0.039243698 -0.12175287 0.018968238 2.3509886e-38
-0.037407838 -0.12175287 0.018968238 2.3509886e-38
-0.035571985 -0.12175287 0.018968238 2.3509886e-38
-0.033736128 -0.12175287 0.018968238 2.3509886e-38
-0.031900272 -0.12175287 0.018968238 2.3509886e-38
-0.030064415 -0.12175287 0.018968238 2.3509886e-38
-0.028124947 -0.12097444 0.021998776 2.3509886e-38
-0.026294403 -0.12097444 0.021998776 2.3509886e-38
-0.024371408 -0.12020047 0.02501191 2.3509886e-38
-0.02254615 -0.12020047 0.02501191 2.3509886e-38
-0.020720892 -0.12020047 0.02501191 2.3509886e-38
-0.018895634 -0.12020047 0.02501191 2.3509886e-38
-0.017070372 -0.12020047 0.02501191 2.3509886e-38
-0.01524511 -0.12020047 0.02501191 2.3509886e-38
-0.013419852 -0.12020047 0.02501191 2.3509886e-38
-0.011594594 -0.12020047 0.02501191 2.3509886e-38
-0.0097693354 -0.12020047 0.02501191 2.3509886e-38
-0.0079440773 -0.12020047 0.02501191 2.3509886e-38
-0.0060794204 -0.11943097 0.02800764 2.3509886e-38
-0.004259415 -0.11943097 0.02800764 2.3509886e-38
-0.0024394095 -0.11943097 0.02800764 2.3509886e-38
-0.00061940216 -0.11943097 0.02800764 2.3509886e-38
0.0012006052 -0.11943097 0.02800764 2.3509886e-38
0.0030378476 -0.11842094 0.031939879 2.3509886e-38
0.0048590116 -0.11763458 0.035001293 2.3509886e-38
0.0066667553 -0.11763458 0.035001293 2.3509886e-38
0.0084719248 -0.11687975 0.037939921 2.3509886e-38
0.010274516 -0.11687975 0.037939921 2.3509886e-38
0.012063846 -0.1161025 0.04096581 2.3509886e-38
0.013861132 -0.1161025 0.04096581 2.3509886e-38
0.01565842 -0.1161025 0.04096581 2.3509886e-38
0.017455705 -0.1161025 0.04096581 2.3509886e-38
0.019252993 -0.1161025 0.04096581 2.3509886e-38
0.021050278 -0.1161025 0.04096581 2.3509886e-38
0.022847567 -0.1161025 0.04096581 2.3509886e-38
0.024644852 -0.1161025 0.04096581 2.3509886e-38
0.026497846 -0.11687975 0.037939921 2.3509886e-38
0.028300438 -0.11687975 0.037939921 2.3509886e-38
0.030036712 -0.1161025 0.04096581 2.3509886e-38
0.031833999 -0.1161025 0.04096581 2.3509886e-38
0.033631288 -0.1161025 0.04096581 2.3509886e-38
0.035184745 -0.11379795 0.04993774 2.3509886e-38
0.036966302 -0.11379795 0.04993774 2.3509886e-38
0.038654044 -0.1130126 0.05299522 2.3509886e-38
0.04043024 -0.1130126 0.05299522 2.3509886e-38
0.04261772 -0.1161025 0.04096581 2.3509886e-38
0.044629391 -0.11763458 0.035001293 2.3509886e-38
0.046437137 -0.11763458 0.035001293 2.3509886e-38
0.048520781 -0.11943097 0.02800764 2.3509886e-38
0.05046422 -0.12020047 0.02501191 2.3509886e-38
0.052675352 -0.12250783 0.016029133 2.3509886e-38
0.054697637 -0.1235493 0.011974586 2.3509886e-38
0.056545757 -0.1235493 0.011974586 2.3509886e-38
0.058393873 -0.1235493 0.011974586 2.3509886e-38
0.060039386 -0.12250783 0.016029133 2.3509886e-38
0.061880395 -0.12250783 0.016029133 2.3509886e-38
0.063721403 -0.12250783 0.016029133 2.3509886e-38
0.065400086 -0.12175287 0.018968238 2.3509886e-38
0.067235947 -0.12175287 0.018968238 2.3509886e-38
0.0690718 -0.12175287 0.018968238 2.3509886e-38
0.070907652 -0.12175287 0.018968238 2.3509886e-38
0.072743505 -0.12175287 0.018968238 2.3509886e-38
0.074767455 -0.12250783 0.016029133 2.3509886e-38
0.076608464 -0.12250783 0.016029133 2.3509886e-38
0.078449473 -0.12250783 0.016029133 2.3509886e-38
0.080290481 -0.12250783 0.016029133 2.3509886e-38
0.08213149 -0.12250783 0.016029133 2.3509886e-38
0.083972499 -0.12250783 0.016029133 2.3509886e-38
0.085144147 -0.12020047 0.02501191 2.3509886e-38
0.10635705 -0.13381381 -0.027986513 1.6686319e-38
0.10827525 -0.13381381 -0.027986513 1.5856555e-38
0.11019343 -0.13381381 -0.027986513 1.179995e-38
0.11211161 -0.13381381 -0.027986513 1.0509935e-38
0.11402979 -0.13381381 -0.027986513 2.6733103e-39
0.11594798 -0.13381381 -0.027986513 2.1205023e-39
-0.11943054 -0.13032107 -0.0070638526 2.3234372e-38
-0.11719114 -0.12952723 -0.0039943326 2.3418043e-38
-0.11531502 -0.12952723 -0.0039943326 2.3048542e-38
-0.1131065 -0.12876706 -0.0010549892 2.3509883e-38
-0.11078537 -0.12772138 0.0029883515 2.3509886e-38
-0.10892148 -0.12772138 0.0029883515 2.3509886e-38
-0.10673279 -0.12694232 0.0060007703 2.3509886e-38
-0.10455646 -0.12616767 0.0089961421 2.3509886e-38
-0.10196941 -0.12434883 0.016029133 2.3509886e-38
-0.1001284 -0.12434883 0.016029133 2.3509886e-38
-0.098287389 -0.12434883 0.016029133 2.3509886e-38
-0.09644638 -0.12434883 0.016029133 2.3509886e-38
-0.094605371 -0.12434883 0.016029133 2.3509886e-38
-0.092764363 -0.12434883 0.016029133 2.3509886e-38
-0.090923354 -0.12434883 0.016029133 2.3509886e-38
-0.089082345 -0.12434883 0.016029133 2.341769e-38
-0.087607443 -0.1253974 0.011974586 2.3509886e-38
-0.085759327 -0.1253974 0.011974586 2.3509886e-38
-0.084169716 -0.12616767 0.0089961421 2.3509886e-38
-0.082316369 -0.12616767 0.0089961421 2.341805e-38
-0.080463037 -0.12616767 0.0089961421 2.341805e-38
-0.07860969 -0.12616767 0.0089961421 2.3234379e-38
-0.076756358 -0.12616767 0.0089961421 2.3234379e-38
-0.074903011 -0.12616767 0.0089961421 2.3234379e-38
-0.073049664 -0.12616767 0.0089961421 2.3234379e-38
-0.070974395 -0.1253974 0.011974586 2.3050347e-38
-0.069126263 -0.1253974 0.011974586 2.3141822e-38
-0.067278147 -0.1253974 0.011974586 2.2957431e-38
-0.065149233 -0.12434883 0.016029133 2.341805e-38
-0.063308224 -0.12434883 0.016029133 2.341805e-38
-0.061467215 -0.12434883 0.016029133 2.3509886e-38
-0.059438109 -0.12358873 0.018968238 2.3509886e-38
-0.057413623 -0.12280498 0.021998776 2.3509886e-38
-0.055583075 -0.12280498 0.021998776 2.3509886e-38
-0.053752542 -0.12280498 0.021998776 2.3509886e-38
-0.051921993 -0.12280498 0.021998776 2.3509886e-38
-0.050091453 -0.12280498 0.021998776 2.3509886e-38
-0.048260912 -0.12280498 0.021998776 2.3509886e-38
-0.046430364 -0.12280498 0.021998776 2.3509886e-38
-0.044599831 -0.12280498 0.021998776 2.3509886e-38
-0.042769283 -0.12280498 0.021998776 2.3509886e-38
-0.040938742 -0.12280498 0.021998776 2.3509886e-38
-0.039108202 -0.12280498 0.021998776 2.3509886e-38
-0.037277654 -0.12280498 0.021998776 2.3509886e-38
-0.035447121 -0.12280498 0.021998776 2.3509886e-38
-0.033616573 -0.12280498 0.021998776 2.3509886e-38
-0.031786032 -0.12280498 0.021998776 2.3509886e-38
-0.029955488 -0.12280498 0.021998776 2.3509886e-38
-0.028021928 -0.12202574 0.02501191 2.3509886e-38
-0.02619667 -0.12202574 0.02501191 2.3509886e-38
-0.02427949 -0.121251 0.02800764 2.3509886e-38
-0.022459485 -0.121251 0.02800764 2.3509886e-38
-0.020720892 -0.12202574 0.02501191 2.3509886e-38
-0.018895634 -0.12202574 0.02501191 2.3509886e-38
-0.017070372 -0.12202574 0.02501191 2.3509886e-38
-0.01524511 -0.12202574 0.02501191 2.3509886e-38
-0.013419852 -0.12202574 0.02501191 2.3509886e-38
-0.011539444 -0.121251 0.02800764 2.3509886e-38
-0.0097194351 -0.121251 0.02800764 2.3509886e-38
-0.0079440773 -0.12202574 0.02501191 2.3509886e-38
-0.0060794204 -0.121251 0.02800764 2.3509886e-38
-0.004259415 -0.121251 0.02800764 2.3509886e-38
-0.0024394095 -0.121251 0.02800764 2.3509886e-38
-0.00061940216 -0.121251 0.02800764 2.3509886e-38
0.0012006052 -0.121251 0.02800764 2.3509886e-38
0.0030378476 -0.12023406 0.031939879 2.3509886e-38
0.0048590116 -0.11944233 0.035001293 2.3509886e-38
0.0066667553 -0.11944233 0.035001293 2.3509886e-38
0.0084719248 -0.11868234 0.037939921 2.3509886e-38
0.010274516 -0.11868234 0.037939921 2.3509886e-38
0.012063846 -0.11789979 0.04096581 2.3509886e-38
0.013861132 -0.11789979 0.04096581 2.3509886e-38
0.01565842 -0.11789979 0.04096581 2.3509886e-38
0.017484885 -0.11868234 0.037939921 2.3509886e-38
0.019252993 -0.11789979 0.04096581 2.3509886e-38
0.021050278 -0.11789979 0.04096581 2.3509886e-38
0.022892661 -0.11868234 0.037939921 2.3509886e-38
0.024695253 -0.11868234 0.037939921 2.3509886e-38
0.026497846 -0.11868234 0.037939921 2.3509886e-38
0.028300438 -0.11868234 0.037939921 2.3509886e-38
0.030036712 -0.11789979 0.04096581 2.3509886e-38
0.031833999 -0.11789979 0.04096581 2.3509886e-38
0.033631288 -0.11789979 0.04096581 2.3509886e-38
0.035428572 -0.11789979 0.04096581 2.3509886e-38
0.037225857 -0.11789979 0.04096581 2.3509886e-38
0.039023146 -0.11789979 0.04096581 2.3509886e-38
0.040820435 -0.11789979 0.04096581 2.3509886e-38
0.04261772 -0.11789979 0.04096581 2.3509886e-38
0.044415008 -0.11789979 0.04096581 2.3509886e-38
0.046437137 -0.11944233 0.035001293 2.3509886e-38
0.048128951 -0.11868234 0.037939921 2.3509886e-38
0.049931545 -0.11868234 0.037939921 2.3509886e-38
0.052675352 -0.12434883 0.016029133 2.3509886e-38
0.054697637 -0.1253974 0.011974586 2.3509886e-38
0.056220807 -0.12358873 0.018968238 2.3509886e-38
0.058056664 -0.12358873 0.018968238 2.3509886e-38
0.05989252 -0.12358873 0.018968238 2.3509886e-38
0.061415777 -0.12202574 0.02501191 2.3509886e-38
0.063080832 -0.121251 0.02800764 2.3509886e-38
0.064514577 -0.11944233 0.035001293 2.3509886e-38
0.066322327 -0.11944233 0.035001293 2.3509886e-38
0.06889379 -0.12280498 0.021998776 2.3509886e-38
0.070542067 -0.12202574 0.02501191 2.3509886e-38
0.072367325 -0.12202574 0.02501191 2.3509886e-38
0.074385419 -0.12280498 0.021998776 2.3509886e-38
0.076415226 -0.12358873 0.018968238 2.3509886e-38
0.078449473 -0.12434883 0.016029133 2.3509886e-38
0.080290481 -0.12434883 0.016029133 2.3509886e-38
0.081493631 -0.12202574 0.02501191 2.3509886e-38
0.083318889 -0.12202574 0.02501191 2.3509886e-38
0.085144147 -0.12202574 0.02501191 2.3509886e-38
-0.12059036 -0.13063805 -0.0010549892 1.5583927e-38
-0.1187194 -0.13063805 -0.0010549892 2.3142537e-38
-0.11684842 -0.13063805 -0.0010549892 2.30507e-38
-0.11497746 -0.13063805 -0.0010549892 2.31411e-38
-0.11264923 -0.12958528 0.0029883515 2.2956709e-38
-0.11078537 -0.12958528 0.0029883515 2.3509886e-38
-0.10859138 -0.12880091 0.0060007703 2.3509886e-38
-0.10673279 -0.12880091 0.0060007703 2.3509886e-38
-0.10455646 -0.12802102 0.0089961421 2.3509886e-38
-0.10239239 -0.12724553 0.011974586 2.3509886e-38
-0.10054427 -0.12724553 0.011974586 2.3509886e-38
-0.098287389 -0.12618984 0.016029133 2.3509886e-38
-0.09644638 -0.12618984 0.016029133 2.3509886e-38
-0.094605371 -0.12618984 0.016029133 2.3325494e-38
-0.092764363 -0.12618984 0.016029133 2.341769e-38
-0.090923354 -0.12618984 0.016029133 2.3509886e-38
-0.089082345 -0.12618984 0.016029133 2.3509886e-38
-0.087241337 -0.12618984 0.016029133 2.3509886e-38
-0.085759327 -0.12724553 0.011974586 2.3325494e-38
-0.08391121 -0.12724553 0.011974586 2.3141103e-38
-0.082063094 -0.12724553 0.011974586 2.2865235e-38
-0.080214977 -0.12724553 0.011974586 2.2773039e-38
-0.078366861 -0.12724553 0.011974586 2.2681564e-38
-0.076518744 -0.12724553 0.011974586 2.2865955e-38
-0.074903011 -0.12802102 0.0089961421 2.3142542e-38
-0.072822511 -0.12724553 0.011974586 2.3234379e-38
-0.070974395 -0.12724553 0.011974586 2.3234379e-38
-0.069126263 -0.12724553 0.011974586 2.341805e-38
-0.067278147 -0.12724553 0.011974586 2.341805e-38
-0.065149233 -0.12618984 0.016029133 2.341805e-38
-0.063308224 -0.12618984 0.016029133 2.341805e-38
-0.061467215 -0.12618984 0.016029133 2.3509886e-38
-0.059626207 -0.12618984 0.016029133 2.3509886e-38
-0.057602257 -0.12542458 0.018968238 2.3509886e-38
-0.055766404 -0.12542458 0.018968238 2.3509886e-38
-0.053930543 -0.12542458 0.018968238 2.3509886e-38
-0.052094683 -0.12542458 0.018968238 2.3509886e-38
-0.050091453 -0.12463553 0.021998776 2.3509886e-38
-0.048260912 -0.12463553 0.021998776 2.3509886e-38
-0.046430364 -0.12463553 0.021998776 2.3509886e-38
-0.044599831 -0.12463553 0.021998776 2.3509886e-38
-0.042769283 -0.12463553 0.021998776 2.3509886e-38
-0.040938742 -0.12463553 0.021998776 2.3509886e-38
-0.039108202 -0.12463553 0.021998776 2.3509886e-38
-0.037277654 -0.12463553 0.021998776 2.3509886e-38
-0.035447121 -0.12463553 0.021998776 2.3509886e-38
-0.033497706 -0.12385099 0.02501191 2.3509886e-38
-0.031672444 -0.12385099 0.02501191 2.3509886e-38
-0.029847186 -0.12385099 0.02501191 2.3509886e-38
-0.027919505 -0.123071 0.02800764 2.3509886e-38
-0.026099496 -0.123071 0.02800764 2.3509886e-38
-0.02427949 -0.123071 0.02800764 2.3509886e-38
-0.022459485 -0.123071 0.02800764 2.3509886e-38
-0.020720892 -0.12385099 0.02501191 2.3509886e-38
-0.018895634 -0.12385099 0.02501191 2.3509886e-38
-0.017070372 -0.12385099 0.02501191 2.3509886e-38
-0.01524511 -0.12385099 0.02501191 2.3509886e-38
-0.013419852 -0.12385099 0.02501191 2.3509886e-38
-0.011539444 -0.123071 0.02800764 2.3509886e-38
-0.0097194351 -0.123071 0.02800764 2.3509886e-38
-0.0079440773 -0.12385099 0.02501191 2.3509886e-38
-0.0060794204 -0.123071 0.02800764 2.3509886e-38
-0.004259415 -0.123071 0.02800764 2.3509886e-38
-0.0024394095 -0.123071 0.02800764 2.3509886e-38
-0.00061940216 -0.123071 0.02800764 2.3509886e-38
0.0012006052 -0.123071 0.02800764 2.3509886e-38
0.0030378476 -0.12204717 0.031939879 2.3509886e-38
0.0048509594 -0.12204717 0.031939879 2.3509886e-38
0.0066640712 -0.12204717 0.031939879 2.3509886e-38
0.0084745008 -0.12125005 0.035001293 2.3509886e-38
0.010274516 -0.12048493 0.037939921 2.3509886e-38
0.012077108 -0.12048493 0.037939921 2.3509886e-38
0.013879701 -0.12048493 0.037939921 2.3509886e-38
0.015682293 -0.12048493 0.037939921 2.3509886e-38
0.017484885 -0.12048493 0.037939921 2.3509886e-38
0.019287478 -0.12048493 0.037939921 2.3509886e-38
0.021090068 -0.12048493 0.037939921 2.3509886e-38
0.022892661 -0.12048493 0.037939921 2.3509886e-38
0.024695253 -0.12048493 0.037939921 2.3509886e-38
0.026497846 -0.12048493 0.037939921 2.3509886e-38
0.028300438 -0.12048493 0.037939921 2.3509886e-38
0.030036712 -0.11969708 0.04096581 2.3509886e-38
0.031833999 -0.11969708 0.04096581 2.3509886e-38
0.033631288 -0.11969708 0.04096581 2.3509886e-38
0.035428572 -0.11969708 0.04096581 2.3509886e-38
0.037225857 -0.11969708 0.04096581 2.3509886e-38
0.039023146 -0.11969708 0.04096581 2.3509886e-38
0.040820435 -0.11969708 0.04096581 2.3509886e-38
0.04261772 -0.11969708 0.04096581 2.3509886e-38
0.044415008 -0.11969708 0.04096581 2.3509886e-38
0.046212293 -0.11969708 0.04096581 2.3509886e-38
0.048128951 -0.12048493 0.037939921 2.3509886e-38
0.049931545 -0.12048493 0.037939921 2.3509886e-38
0.051604152 -0.11969708 0.04096581 2.3509886e-38
0.05340144 -0.11969708 0.04096581 2.3509886e-38
0.055198725 -0.11969708 0.04096581 2.3509886e-38
0.057141911 -0.12048493 0.037939921 2.3509886e-38
0.058944505 -0.12048493 0.037939921 2.3509886e-38
0.060747094 -0.12048493 0.037939921 2.3509886e-38
0.062706836 -0.12125005 0.035001293 2.3509886e-38
0.064352281 -0.12048493 0.037939921 2.3509886e-38
0.066154867 -0.12048493 0.037939921 2.3509886e-38
0.067957461 -0.12048493 0.037939921 2.3509886e-38
0.069760054 -0.12048493 0.037939921 2.3509886e-38
0.071562648 -0.12048493 0.037939921 2.3509886e-38
0.073365241 -0.12048493 0.037939921 2.3509886e-38
0.075361043 -0.12125005 0.035001293 2.3509886e-38
0.077168792 -0.12125005 0.035001293 2.3509886e-38
0.079188555 -0.12204717 0.031939879 2.3509886e-38
0.081280902 -0.123071 0.02800764 2.3509886e-38
0.083100915 -0.123071 0.02800764 2.3509886e-38
0.084920913 -0.123071 0.02800764 2.3509886e-38
0.085983381 -0.12048493 0.037939921 2.3509886e-38
0.087785974 -0.12048493 0.037939921 2.3509886e-38
0.089588568 -0.12048493 0.037939921 2.3509886e-38
0.09244518 -0.12385099 0.02501191 2.3509886e-38
0.094270438 -0.12385099 0.02501191 2.3509886e-38
0.096095696 -0.12385099 0.02501191 2.3509527e-38
-0.11824086 -0.13144915 0.0029883515 2.2867027e-38
-0.11602575 -0.13065951 0.0060007703 2.2682636e-38
-0.11416715 -0.13065951 0.0060007703 2.3418047e-38
-0.11230856 -0.13065951 0.0060007703 2.3509883e-38
-0.11044997 -0.13065951 0.0060007703 2.3509886e-38
-0.10859138 -0.13065951 0.0060007703 2.3509886e-38
-0.10673279 -0.13065951 0.0060007703 2.3509886e-38
-0.10455646 -0.12987436 0.0089961421 2.3509886e-38
-0.10239239 -0.12909363 0.011974586 2.3509886e-38
-0.10054427 -0.12909363 0.011974586 2.3509886e-38
-0.098287389 -0.12803085 0.016029133 2.3509886e-38
-0.09644638 -0.12803085 0.016029133 2.3509886e-38
-0.094605371 -0.12803085 0.016029133 2.3509886e-38
-0.092764363 -0.12803085 0.016029133 2.3509886e-38
-0.090923354 -0.12803085 0.016029133 2.3509886e-38
-0.089082345 -0.12803085 0.016029133 2.3233299e-38
-0.087241337 -0.12803085 0.016029133 2.2680125e-38
-0.085759327 -0.12909363 0.011974586 2.1850364e-38
-0.08391121 -0.12909363 0.011974586 2.1020604e-38
-0.082063094 -0.12909363 0.011974586 2.0468149e-38
-0.080214977 -0.12909363 0.011974586 2.0836931e-38
-0.078366861 -0.12909363 0.011974586 2.1022043e-38
-0.076518744 -0.12909363 0.011974586 2.1575217e-38
-0.074670628 -0.12909363 0.011974586 2.2220586e-38
-0.072822511 -0.12909363 0.011974586 2.277376e-38
-0.070974395 -0.12909363 0.011974586 2.3142542e-38
-0.06883125 -0.12803085 0.016029133 2.341805e-38
-0.066990241 -0.12803085 0.016029133 2.341805e-38
-0.06543003 -0.12909363 0.011974586 2.341805e-38
-0.063308224 -0.12803085 0.016029133 2.341805e-38
-0.061467215 -0.12803085 0.016029133 2.3509886e-38
-0.059626207 -0.12803085 0.016029133 2.3509886e-38
-0.057785198 -0.12803085 0.016029133 2.3509886e-38
-0.055944189 -0.12803085 0.016029133 2.3509886e-38
-0.053930543 -0.12726043 0.018968238 2.3509886e-38
-0.052094683 -0.12726043 0.018968238 2.3509886e-38
-0.05025883 -0.12726043 0.018968238 2.3509886e-38
-0.048260912 -0.12646608 0.021998776 2.3509886e-38
-0.046430364 -0.12646608 0.021998776 2.3509886e-38
-0.044599831 -0.12646608 0.021998776 2.3509886e-38
-0.042769283 -0.12646608 0.021998776 2.3509886e-38
-0.040938742 -0.12646608 0.021998776 2.3509886e-38
-0.03897348 -0.12567626 0.02501191 2.3509886e-38
-0.037148222 -0.12567626 0.02501191 2.3509886e-38
-0.035322964 -0.12567626 0.02501191 2.3509886e-38
-0.033497706 -0.12567626 0.02501191 2.3509886e-38
-0.031559516 -0.124891 0.02800764 2.3509886e-38
-0.02973951 -0.124891 0.02800764 2.3509886e-38
-0.027919505 -0.124891 0.02800764 2.3509886e-38
-0.026099496 -0.124891 0.02800764 2.3509886e-38
-0.02427949 -0.124891 0.02800764 2.3509886e-38
-0.022459485 -0.124891 0.02800764 2.3509886e-38
-0.020720892 -0.12567626 0.02501191 2.3509886e-38
-0.018895634 -0.12567626 0.02501191 2.3509886e-38
-0.017070372 -0.12567626 0.02501191 2.3509886e-38
-0.01524511 -0.12567626 0.02501191 2.3509886e-38
-0.013419852 -0.12567626 0.02501191 2.3509886e-38
-0.011539444 -0.124891 0.02800764 2.3509886e-38
-0.0097194351 -0.124891 0.02800764 2.3509886e-38
-0.0079440773 -0.12567626 0.02501191 2.3509886e-38
-0.0061188154 -0.12567626 0.02501191 2.3509886e-38
-0.0042935573 -0.12567626 0.02501191 2.3509886e-38
-0.0024394095 -0.124891 0.02800764 2.3509886e-38
-0.00061940216 -0.124891 0.02800764 2.3509886e-38
0.0012006052 -0.124891 0.02800764 2.3509886e-38
0.0030206107 -0.124891 0.02800764 2.3509886e-38
0.0048509594 -0.12386028 0.031939879 2.3509886e-38
0.0066640712 -0.12386028 0.031939879 2.3509886e-38
0.0084745008 -0.1230578 0.035001293 2.3509886e-38
0.010282245 -0.1230578 0.035001293 2.3509886e-38
0.01208999 -0.1230578 0.035001293 2.3509886e-38
0.013897734 -0.1230578 0.035001293 2.3509886e-38
0.015705477 -0.1230578 0.035001293 2.3509886e-38
0.017513223 -0.1230578 0.035001293 2.3509886e-38
0.019320969 -0.1230578 0.035001293 2.3509886e-38
0.021128712 -0.1230578 0.035001293 2.3509886e-38
0.022892661 -0.12228753 0.037939921 2.3509886e-38
0.024695253 -0.12228753 0.037939921 2.3509886e-38
0.026497846 -0.12228753 0.037939921 2.3509886e-38
0.028300438 -0.12228753 0.037939921 2.3509886e-38
0.030036712 -0.12149437 0.04096581 2.3509886e-38
0.031833999 -0.12149437 0.04096581 2.3509886e-38
0.033631288 -0.12149437 0.04096581 2.3509886e-38
0.035428572 -0.12149437 0.04096581 2.3509886e-38
0.037225857 -0.12149437 0.04096581 2.3509886e-38
0.039023146 -0.12149437 0.04096581 2.3509886e-38
0.040820435 -0.12149437 0.04096581 2.3509886e-38
0.04261772 -0.12149437 0.04096581 2.3509886e-38
0.044415008 -0.12149437 0.04096581 2.3509886e-38
0.046212293 -0.12149437 0.04096581 2.3509886e-38
0.048009578 -0.12149437 0.04096581 2.3509886e-38
0.049806867 -0.12149437 0.04096581 2.3509886e-38
0.051604152 -0.12149437 0.04096581 2.3509886e-38
0.05340144 -0.12149437 0.04096581 2.3509886e-38
0.055198725 -0.12149437 0.04096581 2.3509886e-38
0.056996014 -0.12149437 0.04096581 2.3509886e-38
0.058944505 -0.12228753 0.037939921 2.3509886e-38
0.060747094 -0.12228753 0.037939921 2.3509886e-38
0.062549688 -0.12228753 0.037939921 2.3509886e-38
0.064352281 -0.12228753 0.037939921 2.3509886e-38
0.066154867 -0.12228753 0.037939921 2.3509886e-38
0.067957461 -0.12228753 0.037939921 2.3509886e-38
0.069760054 -0.12228753 0.037939921 2.3509886e-38
0.071374312 -0.12149437 0.04096581 2.3509886e-38
0.073171601 -0.12149437 0.04096581 2.3509886e-38
0.075167835 -0.12228753 0.037939921 2.3509886e-38
0.076970428 -0.12228753 0.037939921 2.3509886e-38
0.078773022 -0.12228753 0.037939921 2.3509886e-38
0.080575615 -0.12228753 0.037939921 2.3509886e-38
0.082158029 -0.12149437 0.04096581 2.3509886e-38
0.083955318 -0.12149437 0.04096581 2.3509886e-38
0.085983381 -0.12228753 0.037939921 2.3509886e-38
0.087785974 -0.12228753 0.037939921 2.3509886e-38
0.089588568 -0.12228753 0.037939921 2.3509886e-38
0.091391161 -0.12228753 0.037939921 2.3509886e-38
0.093193755 -0.12228753 0.037939921 2.3509886e-38
0.095840961 -0.124891 0.02800764 2.3509886e-38
0.097920954 -0.12567626 0.02501191 2.0191206e-38
-0.11788434 -0.1325181 0.0060007703 2.286703e-38
-0.11602575 -0.1325181 0.0060007703 2.3142538e-38
-0.11416715 -0.1325181 0.0060007703 2.3049624e-38
-0.11230856 -0.1325181 0.0060007703 2.1758885e-38
-0.11044997 -0.1325181 0.0060007703 2.3509886e-38
-0.10859138 -0.1325181 0.0060007703 2.3509886e-38
-0.1064098 -0.13172771 0.0089961421 2.3509886e-38
-0.10455646 -0.13172771 0.0089961421 2.3509886e-38
-0.10239239 -0.13094176 0.011974586 2.3509886e-38
-0.10054427 -0.13094176 0.011974586 2.3509886e-38
-0.098696157 -0.13094176 0.011974586 2.3509886e-38
-0.09644638 -0.12987186 0.016029133 2.3509886e-38
-0.094605371 -0.12987186 0.016029133 2.3509886e-38
-0.092764363 -0.12987186 0.016029133 2.3509886e-38
-0.090923354 -0.12987186 0.016029133 2.3509886e-38
-0.089082345 -0.12987186 0.016029133 2.3233299e-38
-0.087241337 -0.12987186 0.016029133 2.2587929e-38
-0.085759327 -0.13094176 0.011974586 2.1665973e-38
-0.083559319 -0.12987186 0.016029133 2.0744017e-38
-0.081718311 -0.12987186 0.016029133 2.0099366e-38
-0.079877302 -0.12987186 0.016029133 2.0468149e-38
-0.078036293 -0.12987186 0.016029133 2.065326e-38
-0.076195285 -0.12987186 0.016029133 2.1206434e-38
-0.074354276 -0.12987186 0.016029133 2.1943999e-38
-0.072513267 -0.12987186 0.016029133 2.2497173e-38
-0.070672259 -0.12987186 0.016029133 2.2958151e-38
-0.06883125 -0.12987186 0.016029133 2.3326213e-38
-0.066990241 -0.12987186 0.016029133 2.341805e-38
-0.065149233 -0.12987186 0.016029133 2.341805e-38
-0.063308224 -0.12987186 0.016029133 2.341805e-38
-0.061467215 -0.12987186 0.016029133 2.3509886e-38
-0.059626207 -0.12987186 0.016029133 2.3509886e-38
-0.057785198 -0.12987186 0.016029133 2.3509886e-38
-0.055944189 -0.12987186 0.016029133 2.3509886e-38
-0.053930543 -0.12909628 0.018968238 2.3509886e-38
-0.052094683 -0.12909628 0.018968238 2.3509886e-38
-0.050091453 -0.1282966 0.021998776 2.3509886e-38
-0.048260912 -0.1282966 0.021998776 2.3509886e-38
-0.046430364 -0.1282966 0.021998776 2.3509886e-38
-0.044449262 -0.1275015 0.02501191 2.3509886e-38
-0.042623997 -0.1275015 0.02501191 2.3509886e-38
-0.040798739 -0.1275015 0.02501191 2.3509886e-38
-0.03897348 -0.1275015 0.02501191 2.3509886e-38
-0.037148222 -0.1275015 0.02501191 2.3509886e-38
-0.035322964 -0.1275015 0.02501191 2.3509886e-38
-0.033497706 -0.1275015 0.02501191 2.3509886e-38
-0.031559516 -0.126711 0.02800764 2.3509886e-38
