# .PCD v0.7 - Point Cloud Data file format
VERSION 0.7
FIELDS x y z rgb
SIZE 4 4 4 4
TYPE F F F F
COUNT 1 1 1 1
WIDTH 946
HEIGHT 1
VIEWPOINT 0 0 0 1 0 0 0
POINTS 946
DATA ascii
0.046103712 -0.11813517 0.045101866 2.3509886e-38
0.047794044 -0.11736105 0.048074946 2.341769e-38
0.049471062 -0.11656497 0.051132426 2.3325494e-38
0.051247258 -0.11656497 0.051132426 2.3325494e-38
0.053023454 -0.11656497 0.051132426 2.3509886e-38
0.05479965 -0.11656497 0.051132426 2.3509886e-38
0.05645062 -0.11577369 0.054171547 2.3509886e-38
0.058221489 -0.11577369 0.054171547 2.3509886e-38
0.059992354 -0.11577369 0.054171547 2.3509886e-38
0.062184628 -0.11813517 0.045101866 2.3509886e-38
0.064260647 -0.11969708 0.039103016 2.3509886e-38
0.066057928 -0.11969708 0.039103016 2.3509886e-38
0.067855217 -0.11969708 0.039103016 2.3509886e-38
0.070135176 -0.12204717 0.030077087 2.3509886e-38
0.07194829 -0.12204717 0.030077087 2.3509886e-38
0.073761404 -0.12204717 0.030077087 2.3509886e-38
0.075981438 -0.12385099 0.02314912 2.3509886e-38
0.077806696 -0.12385099 0.02314912 2.3509886e-38
0.079631954 -0.12385099 0.02314912 2.3509886e-38
0.081650048 -0.12463553 0.020135986 2.3509886e-38
0.083679855 -0.12542458 0.017105447 2.3509886e-38
0.085714102 -0.12618984 0.014166342 2.3509883e-38
0.08755511 -0.12618984 0.014166342 2.3509883e-38
0.089684039 -0.12724553 0.010111796 2.3417687e-38
0.091532156 -0.12724553 0.010111796 2.3509883e-38
0.09360221 -0.12802102 0.0071333516 2.3325847e-38
0.095455557 -0.12802102 0.0071333516 2.3141456e-38
0.09777765 -0.12958528 0.0011255611 2.3141456e-38
0.10019857 -0.13140334 -0.0058571231 2.3141456e-38
0.1020747 -0.13140334 -0.0058571231 2.2496087e-38
0.10395081 -0.13140334 -0.0058571231 2.1850717e-38
0.10582693 -0.13140334 -0.0058571231 2.1297907e-38
0.10709701 -0.12958528 0.0011255611 6.6388014e-39
0.10842894 -0.12802102 0.0071333516 1.2914549e-39
0.11028227 -0.12802102 0.0071333516 1.5673229e-39
0.11186145 -0.12724553 0.010111796 2.0283011e-39
0.11370957 -0.12724553 0.010111796 1.6591584e-39
0.11555769 -0.12724553 0.010111796 2.2112532e-39
-0.11161384 -0.14141284 -0.036885872 2.3418047e-38
-0.10968332 -0.14141284 -0.036885872 2.3417687e-38
-0.1077528 -0.14141284 -0.036885872 2.3509886e-38
-0.10538977 -0.14037828 -0.032939091 2.3509527e-38
-0.10313301 -0.13956837 -0.029849304 2.3509527e-38
-0.10121483 -0.13956837 -0.029849304 2.3509527e-38
-0.099296644 -0.13956837 -0.029849304 2.3509527e-38
-0.096966699 -0.13851611 -0.025834931 2.3509527e-38
-0.095055565 -0.13851611 -0.025834931 2.3509527e-38
-0.092853874 -0.13774733 -0.022902025 2.3509527e-38
-0.090947866 -0.13774733 -0.022902025 2.3509527e-38
-0.089041859 -0.13774733 -0.022902025 2.3509527e-38
-0.086851299 -0.13695215 -0.019868387 2.3509527e-38
-0.084587798 -0.13591899 -0.015926851 2.3509527e-38
-0.082694024 -0.13591899 -0.015926851 2.3509527e-38
-0.080535069 -0.13513394 -0.012931956 2.3509527e-38
-0.078646556 -0.13513394 -0.012931956 2.3509527e-38
-0.076758027 -0.13513394 -0.012931956 2.3509527e-38
-0.074535936 -0.13408406 -0.0089266431 2.3509886e-38
-0.072654441 -0.13408406 -0.0089266431 2.3509886e-38
-0.070772931 -0.13408406 -0.0089266431 2.3509886e-38
-0.068891436 -0.13408406 -0.0089266431 2.3509886e-38
-0.066775829 -0.13327946 -0.0058571231 2.3509886e-38
-0.064899713 -0.13327946 -0.0058571231 2.3509886e-38
-0.063023597 -0.13327946 -0.0058571231 2.3509886e-38
-0.06065163 -0.13144915 0.0011255611 2.3509886e-38
-0.058787763 -0.13144915 0.0011255611 2.3509886e-38
-0.056923881 -0.13144915 0.0011255611 2.3509886e-38
-0.054861948 -0.13065951 0.0041379798 2.3509886e-38
-0.053003356 -0.13065951 0.0041379798 2.3509886e-38
-0.051144764 -0.13065951 0.0041379798 2.3509886e-38
-0.049286172 -0.13065951 0.0041379798 2.3509886e-38
-0.04742758 -0.13065951 0.0041379798 2.3509886e-38
-0.045568988 -0.13065951 0.0041379798 2.3509886e-38
-0.043710396 -0.13065951 0.0041379798 2.3509886e-38
-0.041691616 -0.12987436 0.0071333516 2.3509886e-38
-0.039684221 -0.12909363 0.010111796 2.3509886e-38
-0.037633501 -0.12803085 0.014166342 2.3509886e-38
-0.035650775 -0.12726043 0.017105447 2.3509886e-38
-0.033814922 -0.12726043 0.017105447 2.3509886e-38
-0.031843573 -0.12646608 0.020135986 2.3509886e-38
-0.030013025 -0.12646608 0.020135986 2.3509886e-38
-0.028182492 -0.12646608 0.020135986 2.3509886e-38
-0.026233077 -0.12567626 0.02314912 2.3509886e-38
-0.024407815 -0.12567626 0.02314912 2.3509886e-38
-0.022582557 -0.12567626 0.02314912 2.3509886e-38
-0.020654876 -0.124891 0.026144849 2.3509886e-38
-0.018834867 -0.124891 0.026144849 2.3509886e-38
-0.017014861 -0.124891 0.026144849 2.3509886e-38
-0.015194856 -0.124891 0.026144849 2.3509886e-38
-0.013456263 -0.12567626 0.02314912 2.3509886e-38
-0.011631005 -0.12567626 0.02314912 2.3509886e-38
-0.0098057427 -0.12567626 0.02314912 2.3509886e-38
-0.0079804808 -0.12567626 0.02314912 2.3509886e-38
-0.0061552227 -0.12567626 0.02314912 2.3509886e-38
-0.0042748153 -0.124891 0.026144849 2.3509886e-38
-0.0024548061 -0.124891 0.026144849 2.3509886e-38
-0.00063480064 -0.124891 0.026144849 2.3509886e-38
0.0011852086 -0.124891 0.026144849 2.3509886e-38
0.003118407 -0.12228753 0.036077127 2.3509886e-38
0.0049210005 -0.12228753 0.036077127 2.3509886e-38
0.0064478256 -0.13144915 0.0011255611 2.3509886e-38
0.0083116982 -0.13144915 0.0011255611 2.3509886e-38
0.010175573 -0.13144915 0.0011255611 2.3509886e-38
0.012039445 -0.13144915 0.0011255611 2.3509886e-38
0.01390332 -0.13144915 0.0011255611 2.3509886e-38
0.015767194 -0.13144915 0.0011255611 2.3509886e-38
0.017491557 -0.11754455 0.054171547 2.3509886e-38
0.019262424 -0.11754455 0.054171547 2.3509886e-38
0.021033291 -0.11754455 0.054171547 2.3509886e-38
0.022852259 -0.11914261 0.048074946 2.3509886e-38
0.024633814 -0.11914261 0.048074946 2.3509886e-38
0.026380526 -0.11834116 0.051132426 2.3509886e-38
0.02815672 -0.11834116 0.051132426 2.3509886e-38
0.029932916 -0.11834116 0.051132426 2.3509886e-38
0.032392379 -0.12909363 0.010111796 2.3509886e-38
0.034165852 -0.12803085 0.014166342 2.3509886e-38
0.03600686 -0.12803085 0.014166342 2.3509886e-38
0.036907084 -0.11677901 0.057092056 2.3509886e-38
0.038672827 -0.11677901 0.057092056 2.3509886e-38
0.041455165 -0.12726043 0.017105447 2.3509886e-38
0.043291025 -0.12726043 0.017105447 2.3509886e-38
0.044142477 -0.11834116 0.051132426 2.3509886e-38
0.045918673 -0.11834116 0.051132426 2.3509886e-38
0.047596291 -0.11754455 0.054171547 2.3509886e-38
0.049367156 -0.11754455 0.054171547 2.3509886e-38
0.051138021 -0.11754455 0.054171547 2.3509886e-38
0.05290889 -0.11754455 0.054171547 2.3509886e-38
0.05479965 -0.11834116 0.051132426 2.3509886e-38
0.05645062 -0.11754455 0.054171547 2.3141103e-38
0.058221489 -0.11754455 0.054171547 2.3509886e-38
0.059992354 -0.11754455 0.054171547 2.3509886e-38
0.062184628 -0.11992194 0.045101866 2.3509886e-38
0.0639714 -0.11992194 0.045101866 2.3509886e-38
0.065907612 -0.12070583 0.042111263 2.3509886e-38
0.067699619 -0.12070583 0.042111263 2.3509886e-38
0.069814317 -0.12228753 0.036077127 2.3509886e-38
0.071779206 -0.1230578 0.033138499 2.3509886e-38
0.073586956 -0.1230578 0.033138499 2.3509886e-38
0.075805485 -0.124891 0.026144849 2.3509886e-38
0.077806696 -0.12567626 0.02314912 2.3509886e-38
0.079631954 -0.12567626 0.02314912 2.3509886e-38
0.081650048 -0.12646608 0.020135986 2.3509886e-38
0.083480597 -0.12646608 0.020135986 2.3509886e-38
0.085515708 -0.12726043 0.017105447 2.3509883e-38
0.08755511 -0.12803085 0.014166342 2.3509883e-38
0.089396119 -0.12803085 0.014166342 2.3509883e-38
0.091532156 -0.12909363 0.010111796 2.3509883e-38
0.093380272 -0.12909363 0.010111796 2.3325847e-38
0.095228389 -0.12909363 0.010111796 2.3141456e-38
0.097542599 -0.13065951 0.0041379798 2.3141456e-38
0.099964082 -0.13250901 -0.0029177796 2.2957065e-38
0.1020747 -0.13327946 -0.0058571231 2.22195e-38
0.10395081 -0.13327946 -0.0058571231 2.1389739e-38
0.10608795 -0.13408406 -0.0089266431 2.1297188e-38
0.10744794 -0.13250901 -0.0029177796 7.1912563e-39
0.10869417 -0.13065951 0.0041379798 1.0141491e-39
0.10964723 -0.12803085 0.014166342 8.2939773e-40
0.11148824 -0.12803085 0.014166342 1.4747671e-39
0.11332925 -0.12803085 0.014166342 1.1971013e-39
-0.11161384 -0.14334334 -0.036885872 2.3418047e-38
-0.10968332 -0.14334334 -0.036885872 2.3234015e-38
-0.10731338 -0.14230187 -0.032939091 2.341805e-38
-0.10538977 -0.14230187 -0.032939091 2.3509886e-38
-0.10313301 -0.14148657 -0.029849304 2.3509886e-38
-0.10121483 -0.14148657 -0.029849304 2.3509886e-38
-0.099296644 -0.14148657 -0.029849304 2.3509886e-38
-0.096966699 -0.14042725 -0.025834931 2.3509886e-38
-0.095055565 -0.14042725 -0.025834931 2.3509886e-38
-0.092853874 -0.13965334 -0.022902025 2.3509886e-38
-0.090947866 -0.13965334 -0.022902025 2.3509886e-38
-0.089041859 -0.13965334 -0.022902025 2.3509886e-38
-0.086851299 -0.13885282 -0.019868387 2.3509527e-38
-0.084587798 -0.13781275 -0.015926851 2.3509527e-38
-0.082694024 -0.13781275 -0.015926851 2.3509527e-38
-0.080535069 -0.13702248 -0.012931956 2.3509527e-38
-0.078646556 -0.13702248 -0.012931956 2.3509527e-38
-0.076758027 -0.13702248 -0.012931956 2.3509527e-38
-0.074535936 -0.13596557 -0.0089266431 2.3509886e-38
-0.072654441 -0.13596557 -0.0089266431 2.3509886e-38
-0.070772931 -0.13596557 -0.0089266431 2.3509886e-38
-0.068891436 -0.13596557 -0.0089266431 2.3509886e-38
-0.066775829 -0.13515557 -0.0058571231 2.3509886e-38
-0.064899713 -0.13515557 -0.0058571231 2.3509886e-38
-0.062809721 -0.13437997 -0.0029177796 2.3509886e-38
-0.06065163 -0.13331302 0.0011255611 2.3509886e-38
-0.058787763 -0.13331302 0.0011255611 2.3509886e-38
-0.056923881 -0.13331302 0.0011255611 2.3509886e-38
-0.055060014 -0.13331302 0.0011255611 2.3509886e-38
-0.053003356 -0.1325181 0.0041379798 2.3509886e-38
-0.051144764 -0.1325181 0.0041379798 2.3509886e-38
-0.049286172 -0.1325181 0.0041379798 2.3509886e-38
-0.04742758 -0.1325181 0.0041379798 2.3509886e-38
-0.045568988 -0.1325181 0.0041379798 2.3509886e-38
-0.043544963 -0.13172771 0.0071333516 2.3509886e-38
-0.041532338 -0.13094176 0.010111796 2.3509886e-38
-0.03947451 -0.12987186 0.014166342 2.3509886e-38
-0.037633501 -0.12987186 0.014166342 2.3509886e-38
-0.035650775 -0.12909628 0.017105447 2.3509886e-38
-0.033814922 -0.12909628 0.017105447 2.3509886e-38
-0.031843573 -0.1282966 0.020135986 2.3509886e-38
-0.030013025 -0.1282966 0.020135986 2.3509886e-38
-0.028182492 -0.1282966 0.020135986 2.3509886e-38
-0.026233077 -0.1275015 0.02314912 2.3509886e-38
-0.024407815 -0.1275015 0.02314912 2.3509886e-38
-0.022582557 -0.1275015 0.02314912 2.3509886e-38
-0.020654876 -0.126711 0.026144849 2.3509886e-38
-0.018834867 -0.126711 0.026144849 2.3509886e-38
-0.016894206 -0.1256734 0.030077087 2.3509886e-38
-0.015081093 -0.1256734 0.030077087 2.3509886e-38
-0.013374846 -0.126711 0.026144849 2.3509886e-38
-0.011554841 -0.126711 0.026144849 2.3509886e-38
-0.0097348318 -0.126711 0.026144849 2.3509886e-38
-0.0079148263 -0.126711 0.026144849 2.3509886e-38
-0.0060948208 -0.126711 0.026144849 2.3509886e-38
-0.0042024218 -0.1256734 0.030077087 2.3509886e-38
-0.0023383163 -0.12486555 0.033138499 2.3509886e-38
-0.00053057075 -0.12486555 0.033138499 2.3509886e-38
0.0012771711 -0.12486555 0.033138499 2.3509886e-38
0.003118407 -0.12409012 0.036077127 2.3509886e-38
0.0049210005 -0.12409012 0.036077127 2.3509886e-38
0.0067474656 -0.12329166 0.039103016 2.3509886e-38
0.0085447542 -0.12329166 0.039103016 2.3509886e-38
0.010342039 -0.12329166 0.039103016 2.3509886e-38
0.012139328 -0.12329166 0.039103016 2.3509886e-38
0.013941873 -0.12170871 0.045101866 2.3509886e-38
0.015728641 -0.12170871 0.045101866 2.3509886e-38
0.017491557 -0.11931543 0.054171547 2.3509886e-38
0.019262424 -0.11931543 0.054171547 2.3509886e-38
0.021070704 -0.12092416 0.048074946 2.3509886e-38
0.022852259 -0.12092416 0.048074946 2.3509886e-38
0.024633814 -0.12092416 0.048074946 2.3509886e-38
0.026380526 -0.12011738 0.051132426 2.3509886e-38
0.02815672 -0.12011738 0.051132426 2.3509886e-38
0.029844098 -0.11854477 0.057092056 2.3509886e-38
0.031609844 -0.11854477 0.057092056 2.3509886e-38
0.033320297 -0.11775221 0.060095534 2.3509886e-38
0.035080776 -0.11775221 0.060095534 2.3509886e-38
0.036841255 -0.11775221 0.060095534 2.3509886e-38
0.038601734 -0.11775221 0.060095534 2.3509886e-38
0.040362217 -0.11775221 0.060095534 2.3509886e-38
0.04220432 -0.11854477 0.057092056 2.3509886e-38
0.043970063 -0.11854477 0.057092056 2.3325494e-38
0.045735814 -0.11854477 0.057092056 2.341769e-38
0.047501557 -0.11854477 0.057092056 2.3509886e-38
0.049267303 -0.11854477 0.057092056 2.3509886e-38
0.05103305 -0.11854477 0.057092056 2.3509886e-38
0.052798796 -0.11854477 0.057092056 2.3509886e-38
0.054679755 -0.11931543 0.054171547 2.3233299e-38
0.05645062 -0.11931543 0.054171547 2.3048907e-38
0.058221489 -0.11931543 0.054171547 2.3509886e-38
0.060128234 -0.12011738 0.051132426 2.3509886e-38
0.062046491 -0.12092416 0.048074946 2.3509886e-38
0.0639714 -0.12170871 0.045101866 2.3509886e-38
0.065907612 -0.12249784 0.042111263 2.3509886e-38
0.067699619 -0.12249784 0.042111263 2.3509886e-38
0.069652498 -0.12329166 0.039103016 2.3509886e-38
0.07161691 -0.12409012 0.036077127 2.3509886e-38
0.073419496 -0.12409012 0.036077127 2.3509886e-38
0.075574517 -0.1256734 0.030077087 2.3509886e-38
0.077625483 -0.126711 0.026144849 2.3509886e-38
0.079631954 -0.1275015 0.02314912 2.3509886e-38
0.081457213 -0.1275015 0.02314912 2.3509886e-38
0.083480597 -0.1282966 0.020135986 2.3509886e-38
0.085515708 -0.12909628 0.017105447 2.3509883e-38
0.08755511 -0.12987186 0.014166342 2.3509883e-38
0.089396119 -0.12987186 0.014166342 2.3509883e-38
0.091532156 -0.13094176 0.010111796 2.3509883e-38
0.093380272 -0.13094176 0.010111796 2.3418043e-38
0.095228389 -0.13094176 0.010111796 2.3141456e-38
0.097542599 -0.1325181 0.0041379798 2.3141456e-38
0.099641517 -0.13331302 0.0011255611 2.2957065e-38
0.1020747 -0.13515557 -0.0058571231 2.2127304e-38
0.10395081 -0.13515557 -0.0058571231 2.1205348e-38
0.10608795 -0.13596557 -0.0089266431 2.074437e-38
0.10770305 -0.13515557 -0.0058571231 7.5596759e-39
0.10957916 -0.13515557 -0.0058571231 1.013789e-39
0.10964723 -0.12987186 0.014166342 8.2831873e-40
0.11148824 -0.12987186 0.014166342 1.6580822e-39
0.11332925 -0.12987186 0.014166342 1.2885808e-39
-0.11354436 -0.14527388 -0.036885872 2.3142541e-38
-0.11161384 -0.14527388 -0.036885872 2.3234376e-38
-0.10968332 -0.14527388 -0.036885872 2.332621e-38
-0.10731338 -0.14422549 -0.032939091 2.341805e-38
-0.10505119 -0.14340474 -0.029849304 2.341805e-38
-0.10313301 -0.14340474 -0.029849304 2.341805e-38
-0.10121483 -0.14340474 -0.029849304 2.3509886e-38
-0.098877847 -0.14233841 -0.025834931 2.3509886e-38
-0.096966699 -0.14233841 -0.025834931 2.3509886e-38
-0.095055565 -0.14233841 -0.025834931 2.3509886e-38
-0.092853874 -0.14155935 -0.022902025 2.3509886e-38
-0.090947866 -0.14155935 -0.022902025 2.3509886e-38
-0.088751987 -0.14075352 -0.019868387 2.3509886e-38
-0.086851299 -0.14075352 -0.019868387 2.3509527e-38
-0.084587798 -0.13970654 -0.015926851 2.3509527e-38
-0.082694024 -0.13970654 -0.015926851 2.3509527e-38
-0.080535069 -0.13891099 -0.012931956 2.3509527e-38
-0.078646556 -0.13891099 -0.012931956 2.3509527e-38
-0.076758027 -0.13891099 -0.012931956 2.3509527e-38
-0.074535936 -0.13784705 -0.0089266431 2.3509886e-38
-0.072404176 -0.13703169 -0.0058571231 2.3509886e-38
-0.07052806 -0.13703169 -0.0058571231 2.3509886e-38
-0.068651944 -0.13703169 -0.0058571231 2.3509886e-38
-0.066551641 -0.13625093 -0.0029177796 2.3509886e-38
-0.064680681 -0.13625093 -0.0029177796 2.3509886e-38
-0.062809721 -0.13625093 -0.0029177796 2.3509886e-38
-0.06065163 -0.13517688 0.0011255611 2.3509886e-38
-0.058787763 -0.13517688 0.0011255611 2.3509886e-38
-0.056923881 -0.13517688 0.0011255611 2.3509886e-38
-0.055060014 -0.13517688 0.0011255611 2.3509886e-38
-0.053003356 -0.13437669 0.0041379798 2.3509886e-38
-0.051144764 -0.13437669 0.0041379798 2.3509886e-38
-0.049286172 -0.13437669 0.0041379798 2.3509886e-38
-0.04742758 -0.13437669 0.0041379798 2.3509886e-38
-0.045398295 -0.13358103 0.0071333516 2.3509886e-38
-0.043544963 -0.13358103 0.0071333516 2.3509886e-38
-0.041532338 -0.13278987 0.010111796 2.3509886e-38
-0.03947451 -0.13171287 0.014166342 2.3509886e-38
-0.037633501 -0.13171287 0.014166342 2.3509886e-38
-0.035650775 -0.13093217 0.017105447 2.3509886e-38
-0.033814922 -0.13093217 0.017105447 2.3509886e-38
-0.031843573 -0.13012715 0.020135986 2.3509886e-38
-0.030013025 -0.13012715 0.020135986 2.3509886e-38
-0.028182492 -0.13012715 0.020135986 2.3509886e-38
-0.026233077 -0.12932678 0.02314912 2.3509886e-38
-0.024294887 -0.12853102 0.026144849 2.3509886e-38
-0.022474881 -0.12853102 0.026144849 2.3509886e-38
-0.02052043 -0.12748651 0.030077087 2.3509886e-38
-0.01870732 -0.12748651 0.030077087 2.3509886e-38
-0.016894206 -0.12748651 0.030077087 2.3509886e-38
-0.015081093 -0.12748651 0.030077087 2.3509886e-38
-0.013374846 -0.12853102 0.026144849 2.3509886e-38
-0.011554841 -0.12853102 0.026144849 2.3509886e-38
-0.0097348318 -0.12853102 0.026144849 2.3509886e-38
-0.0079148263 -0.12853102 0.026144849 2.3509886e-38
-0.0060948208 -0.12853102 0.026144849 2.3509886e-38
-0.0041460618 -0.1266733 0.033138499 2.3509886e-38
-0.0023383163 -0.1266733 0.033138499 2.3509886e-38
-0.00048677623 -0.12589271 0.036077127 2.3509886e-38
0.0013158172 -0.12589271 0.036077127 2.3509886e-38
0.003118407 -0.12589271 0.036077127 2.3509886e-38
0.0049210005 -0.12589271 0.036077127 2.3509886e-38
0.0067474656 -0.12508895 0.039103016 2.3509886e-38
0.0085632131 -0.12428986 0.042111263 2.3509886e-38
0.010355227 -0.12428986 0.042111263 2.3509886e-38
0.012147238 -0.12428986 0.042111263 2.3509886e-38
0.013941873 -0.12349547 0.045101866 2.3509886e-38
0.015726035 -0.12270571 0.048074946 2.3509886e-38
0.017499549 -0.12189357 0.051132426 2.3509886e-38
0.019275745 -0.12189357 0.051132426 2.3509886e-38
0.021070704 -0.12270571 0.048074946 2.3509886e-38
0.022828136 -0.12189357 0.051132426 2.3509886e-38
0.024604332 -0.12189357 0.051132426 2.3509886e-38
0.026380526 -0.12189357 0.051132426 2.3509886e-38
0.028116755 -0.12108628 0.054171547 2.3509886e-38
0.029844098 -0.1203105 0.057092056 2.3509886e-38
0.031609844 -0.1203105 0.057092056 2.3509886e-38
0.033320297 -0.11951269 0.060095534 2.3509886e-38
0.035080776 -0.11951269 0.060095534 2.3509886e-38
0.036841255 -0.11951269 0.060095534 2.3509886e-38
0.038601734 -0.11951269 0.060095534 2.3509886e-38
0.040362217 -0.11951269 0.060095534 2.3509886e-38
0.042122696 -0.11951269 0.060095534 2.3509886e-38
0.043970063 -0.1203105 0.057092056 2.341769e-38
0.045643657 -0.11951269 0.060095534 2.341769e-38
0.047404137 -0.11951269 0.060095534 2.3509886e-38
0.049164616 -0.11951269 0.060095534 2.341769e-38
0.050925095 -0.11951269 0.060095534 2.3325494e-38
0.052798796 -0.1203105 0.057092056 2.341769e-38
0.054564543 -0.1203105 0.057092056 2.3509886e-38
0.05645062 -0.12108628 0.054171547 2.3509886e-38
0.058221489 -0.12108628 0.054171547 2.3509886e-38
0.060128234 -0.12189357 0.051132426 2.3509886e-38
0.062046491 -0.12270571 0.048074946 2.3509886e-38
0.0639714 -0.12349547 0.045101866 2.3509886e-38
0.065907612 -0.12428986 0.042111263 2.3509886e-38
0.067699619 -0.12428986 0.042111263 2.3509886e-38
0.069652498 -0.12508895 0.039103016 2.3509886e-38
0.07161691 -0.12589271 0.036077127 2.3509886e-38
0.073419496 -0.12589271 0.036077127 2.3509886e-38
0.075394697 -0.1266733 0.033138499 2.3509886e-38
0.077387631 -0.12748651 0.030077087 2.3509886e-38
0.079445496 -0.12853102 0.026144849 2.3509886e-38
0.081457213 -0.12932678 0.02314912 2.3509886e-38
0.083480597 -0.13012715 0.020135986 2.3509886e-38
0.08531113 -0.13012715 0.020135986 2.3509883e-38
0.08755511 -0.13171287 0.014166342 2.3509883e-38
0.089396119 -0.13171287 0.014166342 2.3417687e-38
0.091532156 -0.13278987 0.010111796 2.3325492e-38
0.093380272 -0.13278987 0.010111796 2.3049261e-38
0.095228389 -0.13278987 0.010111796 2.2772674e-38
0.097308904 -0.13358103 0.0071333516 2.2772674e-38
0.099641517 -0.13517688 0.0011255611 2.2588282e-38
0.10183504 -0.13625093 -0.0029177796 2.1666326e-38
0.10420644 -0.13784705 -0.0089266431 2.074437e-38
0.10608795 -0.13784705 -0.0089266431 2.0098282e-38
0.10796945 -0.13784705 -0.0089266431 7.5596759e-39
0.10985094 -0.13784705 -0.0089266431 1.4736881e-39
0.11173244 -0.13784705 -0.0089266431 1.3814925e-39
-0.11354436 -0.14720438 -0.036885872 2.2958867e-38
-0.11161384 -0.14720438 -0.036885872 2.2958507e-38
-0.10923699 -0.14614908 -0.032939091 2.3234376e-38
-0.10731338 -0.14614908 -0.032939091 2.3234379e-38
-0.10505119 -0.14532293 -0.029849304 2.3234379e-38
-0.10313301 -0.14532293 -0.029849304 2.3234379e-38
-0.100789 -0.14424954 -0.025834931 2.341805e-38
-0.098877847 -0.14424954 -0.025834931 2.341805e-38
-0.096966699 -0.14424954 -0.025834931 2.341805e-38
-0.095055565 -0.14424954 -0.025834931 2.341805e-38
-0.092853874 -0.14346536 -0.022902025 2.341805e-38
-0.090947866 -0.14346536 -0.022902025 2.3509886e-38
-0.088751987 -0.1426542 -0.019868387 2.3509886e-38
-0.086851299 -0.1426542 -0.019868387 2.3509527e-38
-0.084587798 -0.1416003 -0.015926851 2.3509527e-38
-0.082423598 -0.14079951 -0.012931956 2.3509527e-38
-0.080535069 -0.14079951 -0.012931956 2.3509527e-38
-0.078646556 -0.14079951 -0.012931956 2.3509527e-38
-0.076758027 -0.14079951 -0.012931956 2.3509527e-38
-0.074535936 -0.13972856 -0.0089266431 2.3509886e-38
-0.072404176 -0.13890781 -0.0058571231 2.3509886e-38
-0.07052806 -0.13890781 -0.0058571231 2.3509886e-38
-0.068651944 -0.13890781 -0.0058571231 2.3509886e-38
-0.066551641 -0.13812189 -0.0029177796 2.3509886e-38
-0.064680681 -0.13812189 -0.0029177796 2.3509886e-38
-0.062809721 -0.13812189 -0.0029177796 2.3509886e-38
-0.06065163 -0.13704078 0.0011255611 2.3509886e-38
-0.058787763 -0.13704078 0.0011255611 2.3509886e-38
-0.056923881 -0.13704078 0.0011255611 2.3509886e-38
-0.055060014 -0.13704078 0.0011255611 2.3509886e-38
-0.053003356 -0.13623528 0.0041379798 2.3509886e-38
-0.051144764 -0.13623528 0.0041379798 2.3509886e-38
-0.049286172 -0.13623528 0.0041379798 2.3509886e-38
-0.04742758 -0.13623528 0.0041379798 2.3509886e-38
-0.045398295 -0.13543437 0.0071333516 2.3509886e-38
-0.043380462 -0.134638 0.010111796 2.3509886e-38
-0.041532338 -0.134638 0.010111796 2.3509886e-38
-0.03947451 -0.13355388 0.014166342 2.3509886e-38
-0.037633501 -0.13355388 0.014166342 2.3509886e-38
-0.035650775 -0.13276802 0.017105447 2.3509886e-38
-0.033814922 -0.13276802 0.017105447 2.3509886e-38
-0.031843573 -0.13195769 0.020135986 2.3509886e-38
-0.030013025 -0.13195769 0.020135986 2.3509886e-38
-0.028058335 -0.13115202 0.02314912 2.3509886e-38
-0.026233077 -0.13115202 0.02314912 2.3509886e-38
-0.024294887 -0.13035102 0.026144849 2.3509886e-38
-0.022474881 -0.13035102 0.026144849 2.3509886e-38
-0.02052043 -0.1292996 0.030077087 2.3509886e-38
-0.01870732 -0.1292996 0.030077087 2.3509886e-38
-0.016894206 -0.1292996 0.030077087 2.3509886e-38
-0.015081093 -0.1292996 0.030077087 2.3509886e-38
-0.013374846 -0.13035102 0.026144849 2.3509886e-38
-0.011554841 -0.13035102 0.026144849 2.3509886e-38
-0.0097348318 -0.13035102 0.026144849 2.3509886e-38
-0.0079148263 -0.13035102 0.026144849 2.3509886e-38
-0.0060948208 -0.13035102 0.026144849 2.3509886e-38
-0.0041460618 -0.12848105 0.033138499 2.3509886e-38
-0.0022893697 -0.12769531 0.036077127 2.3509886e-38
-0.00048677623 -0.12769531 0.036077127 2.3509886e-38
0.0013158172 -0.12769531 0.036077127 2.3509886e-38
0.003152892 -0.12688623 0.039103016 2.3509886e-38
0.0049501806 -0.12688623 0.039103016 2.3509886e-38
0.0067712031 -0.12608187 0.042111263 2.3509886e-38
0.0085632131 -0.12608187 0.042111263 2.3509886e-38
0.010368336 -0.12528224 0.045101866 2.3509886e-38
0.012155104 -0.12528224 0.045101866 2.3509886e-38
0.013941873 -0.12528224 0.045101866 2.3509886e-38
0.015726035 -0.1244873 0.048074946 2.3509886e-38
0.01750759 -0.1244873 0.048074946 2.3509886e-38
0.019289147 -0.1244873 0.048074946 2.3509886e-38
0.021070704 -0.1244873 0.048074946 2.3509886e-38
0.022828136 -0.12366976 0.051132426 2.3509886e-38
0.024604332 -0.12366976 0.051132426 2.3509886e-38
0.026380526 -0.12366976 0.051132426 2.3509886e-38
0.028116755 -0.12285714 0.054171547 2.3509886e-38
0.029844098 -0.12207626 0.057092056 2.3509886e-38
0.031559817 -0.12127317 0.060095534 2.3509886e-38
0.033320297 -0.12127317 0.060095534 2.3509886e-38
0.035080776 -0.12127317 0.060095534 2.3509886e-38
0.036841255 -0.12127317 0.060095534 2.3509886e-38
0.038601734 -0.12127317 0.060095534 2.3509886e-38
0.04028631 -0.12047486 0.06308125 2.3509886e-38
0.042041555 -0.12047486 0.06308125 2.3509886e-38
0.043883175 -0.12127317 0.060095534 2.3509886e-38
0.045552045 -0.12047486 0.06308125 2.3509886e-38
0.047307286 -0.12047486 0.06308125 2.3509886e-38
0.049062531 -0.12047486 0.06308125 2.3509886e-38
0.050817776 -0.12047486 0.06308125 2.3509886e-38
0.052685574 -0.12127317 0.060095534 2.3509886e-38
0.054446053 -0.12127317 0.060095534 2.3509886e-38
0.05645062 -0.12285714 0.054171547 2.3509886e-38
0.058221489 -0.12285714 0.054171547 2.3509886e-38
0.060128234 -0.12366976 0.051132426 2.3509886e-38
0.062046491 -0.1244873 0.048074946 2.3509886e-38
0.0639714 -0.12528224 0.045101866 2.3509886e-38
0.065907612 -0.12608187 0.042111263 2.3509886e-38
0.067699619 -0.12608187 0.042111263 2.3509886e-38
0.069652498 -0.12688623 0.039103016 2.3509886e-38
0.071449786 -0.12688623 0.039103016 2.3509886e-38
0.073247075 -0.12688623 0.039103016 2.3325494e-38
0.07522209 -0.12769531 0.036077127 2.3509886e-38
0.077202439 -0.12848105 0.033138499 2.3509886e-38
0.079445496 -0.13035102 0.026144849 2.3509886e-38
0.081457213 -0.13115202 0.02314912 2.3509886e-38
0.083480597 -0.13195769 0.020135986 2.341769e-38
0.08531113 -0.13195769 0.020135986 2.3509883e-38
0.08755511 -0.13355388 0.014166342 2.3509883e-38
0.089396119 -0.13355388 0.014166342 2.3509883e-38
0.091532156 -0.134638 0.010111796 2.3325492e-38
0.093380272 -0.134638 0.010111796 2.3233652e-38
0.095228389 -0.134638 0.010111796 2.2864869e-38
0.097308904 -0.13543437 0.0071333516 2.2311696e-38
0.099641517 -0.13704078 0.0011255611 2.2496087e-38
0.10183504 -0.13812189 -0.0029177796 2.1850717e-38
0.10395081 -0.13890781 -0.0058571231 2.0191196e-38
0.10582693 -0.13890781 -0.0058571231 1.9637302e-38
0.10796945 -0.13972856 -0.0089266431 8.6653018e-39
0.11020559 -0.14079951 -0.012931956 1.9346635e-39
0.1120941 -0.14079951 -0.012931956 2.3034488e-39
-0.11354436 -0.14913492 -0.036885872 2.2775196e-38
-0.11116059 -0.14807267 -0.032939091 2.2958867e-38
-0.10923699 -0.14807267 -0.032939091 2.3142539e-38
-0.10696937 -0.1472411 -0.029849304 2.3142542e-38
-0.10505119 -0.1472411 -0.029849304 2.3142542e-38
-0.10270014 -0.14616071 -0.025834931 2.3234379e-38
-0.100789 -0.14616071 -0.025834931 2.3234379e-38
-0.098877847 -0.14616071 -0.025834931 2.341805e-38
-0.096966699 -0.14616071 -0.025834931 2.341805e-38
-0.095055565 -0.14616071 -0.025834931 2.341805e-38
-0.092853874 -0.14537133 -0.022902025 2.341805e-38
-0.090947866 -0.14537133 -0.022902025 2.3509886e-38
-0.088751987 -0.14455487 -0.019868387 2.3509886e-38
-0.086481571 -0.14349405 -0.015926851 2.3509527e-38
-0.084587798 -0.14349405 -0.015926851 2.3509527e-38
-0.082423598 -0.14268802 -0.012931956 2.3509527e-38
-0.080535069 -0.14268802 -0.012931956 2.3509527e-38
-0.078646556 -0.14268802 -0.012931956 2.3509527e-38
-0.076758027 -0.14268802 -0.012931956 2.3509527e-38
-0.074535936 -0.14161004 -0.0089266431 2.3509886e-38
-0.072654441 -0.14161004 -0.0089266431 2.3509886e-38
-0.07052806 -0.14078392 -0.0058571231 2.3509886e-38
-0.068651944 -0.14078392 -0.0058571231 2.3509886e-38
-0.066551641 -0.13999285 -0.0029177796 2.3509886e-38
-0.064680681 -0.13999285 -0.0029177796 2.3509886e-38
-0.062809721 -0.13999285 -0.0029177796 2.3509886e-38
-0.06065163 -0.13890465 0.0011255611 2.3509886e-38
-0.058787763 -0.13890465 0.0011255611 2.3509886e-38
-0.056923881 -0.13890465 0.0011255611 2.3509886e-38
-0.054861948 -0.13809387 0.0041379798 2.3509886e-38
-0.053003356 -0.13809387 0.0041379798 2.3509886e-38
-0.051144764 -0.13809387 0.0041379798 2.3509886e-38
-0.049104974 -0.13728772 0.0071333516 2.3509886e-38
-0.047251642 -0.13728772 0.0071333516 2.3509886e-38
-0.045228578 -0.13648613 0.010111796 2.3509886e-38
-0.043380462 -0.13648613 0.010111796 2.3509886e-38
-0.041315518 -0.13539489 0.014166342 2.3509886e-38
-0.03947451 -0.13539489 0.014166342 2.3509886e-38
-0.037486635 -0.13460387 0.017105447 2.3509886e-38
-0.035650775 -0.13460387 0.017105447 2.3509886e-38
-0.033814922 -0.13460387 0.017105447 2.3509886e-38
-0.031843573 -0.13378824 0.020135986 2.3509886e-38
-0.029883593 -0.13297729 0.02314912 2.3509886e-38
-0.028058335 -0.13297729 0.02314912 2.3509886e-38
-0.026233077 -0.13297729 0.02314912 2.3509886e-38
-0.024294887 -0.13217102 0.026144849 2.3509886e-38
-0.022474881 -0.13217102 0.026144849 2.3509886e-38
-0.02052043 -0.13111271 0.030077087 2.3509886e-38
-0.01870732 -0.13111271 0.030077087 2.3509886e-38
-0.016894206 -0.13111271 0.030077087 2.3509886e-38
-0.015081093 -0.13111271 0.030077087 2.3509886e-38
-0.013374846 -0.13217102 0.026144849 2.3509886e-38
-0.011554841 -0.13217102 0.026144849 2.3509886e-38
-0.0097348318 -0.13217102 0.026144849 2.3509886e-38
-0.0078286454 -0.13111271 0.030077087 2.3509886e-38
-0.0060155317 -0.13111271 0.030077087 2.3509886e-38
-0.0041460618 -0.13028879 0.033138499 2.3509886e-38
-0.0022893697 -0.1294979 0.036077127 2.3509886e-38
-0.00048677623 -0.1294979 0.036077127 2.3509886e-38
0.0013158172 -0.1294979 0.036077127 2.3509886e-38
0.003152892 -0.12868352 0.039103016 2.3509886e-38
0.0049501806 -0.12868352 0.039103016 2.3509886e-38
0.0067712031 -0.12787388 0.042111263 2.3509886e-38
0.0085632131 -0.12787388 0.042111263 2.3509886e-38
0.010368336 -0.12706901 0.045101866 2.3509886e-38
0.012155104 -0.12706901 0.045101866 2.3509886e-38
0.013941873 -0.12706901 0.045101866 2.3509886e-38
0.015726035 -0.12626885 0.048074946 2.3509886e-38
0.01750759 -0.12626885 0.048074946 2.3509886e-38
0.019289147 -0.12626885 0.048074946 2.3509886e-38
0.021070704 -0.12626885 0.048074946 2.3509886e-38
0.022828136 -0.12544595 0.051132426 2.3509886e-38
0.024604332 -0.12544595 0.051132426 2.3509886e-38
0.026380526 -0.12544595 0.051132426 2.3509886e-38
0.028116755 -0.12462802 0.054171547 2.3509886e-38
0.029844098 -0.12384202 0.057092056 2.3509886e-38
0.031559817 -0.12303366 0.060095534 2.3509886e-38
0.033320297 -0.12303366 0.060095534 2.3509886e-38
0.035080776 -0.12303366 0.060095534 2.3509886e-38
0.036841255 -0.12303366 0.060095534 2.3509886e-38
0.038531065 -0.1222301 0.06308125 2.3509886e-38
0.04028631 -0.1222301 0.06308125 2.3509886e-38
0.042041555 -0.1222301 0.06308125 2.3509886e-38
0.0437968 -0.1222301 0.06308125 2.3509886e-38
0.045457952 -0.12140475 0.066147849 2.3509886e-38
0.047207817 -0.12140475 0.066147849 2.3509886e-38
0.048957687 -0.12140475 0.066147849 2.3509886e-38
0.050707553 -0.12140475 0.066147849 2.3509886e-38
0.052457422 -0.12140475 0.066147849 2.3509886e-38
0.054328267 -0.1222301 0.06308125 2.3509886e-38
0.056330286 -0.12384202 0.057092056 2.3509886e-38
0.058096033 -0.12384202 0.057092056 2.3509886e-38
0.059992354 -0.12462802 0.054171547 2.3509886e-38
0.06190443 -0.12544595 0.051132426 2.3509886e-38
0.0639714 -0.12706901 0.045101866 2.3509886e-38
0.065758169 -0.12706901 0.045101866 2.3509886e-38
0.067544937 -0.12706901 0.045101866 2.3509886e-38
0.069491632 -0.12787388 0.042111263 2.3509886e-38
0.071449786 -0.12868352 0.039103016 2.3509886e-38
0.073247075 -0.12868352 0.039103016 2.341769e-38
0.07522209 -0.1294979 0.036077127 2.3509886e-38
0.077024683 -0.1294979 0.036077127 2.3509886e-38
0.079200745 -0.13111271 0.030077087 2.3509886e-38
0.081457213 -0.13297729 0.02314912 2.3509886e-38
0.083480597 -0.13378824 0.020135986 2.341769e-38
0.08531113 -0.13378824 0.020135986 2.3417687e-38
0.087351561 -0.13460387 0.017105447 2.3417687e-38
0.089187413 -0.13460387 0.017105447 2.3509883e-38
0.091237128 -0.13539489 0.014166342 2.3048905e-38
0.093078136 -0.13539489 0.014166342 2.2864869e-38
0.095228389 -0.13648613 0.010111796 2.2311696e-38
0.097076505 -0.13648613 0.010111796 2.1758522e-38
0.099162236 -0.13728772 0.0071333516 2.2035109e-38
0.10183504 -0.13999285 -0.0029177796 2.1666326e-38
0.103706 -0.13999285 -0.0029177796 2.0099e-38
0.10557698 -0.13999285 -0.0029177796 1.8807541e-38
0.10744794 -0.13999285 -0.0029177796 8.5731062e-39
0.1093189 -0.13999285 -0.0029177796 2.5800329e-39
-0.11116059 -0.1499963 -0.032939091 2.2866671e-38
-0.10923699 -0.1499963 -0.032939091 2.2497889e-38
-0.10696937 -0.1491593 -0.029849304 2.3050707e-38
-0.10505119 -0.1491593 -0.029849304 2.3050707e-38
-0.10270014 -0.14807184 -0.025834931 2.3050707e-38
-0.100789 -0.14807184 -0.025834931 2.3050707e-38
-0.098877847 -0.14807184 -0.025834931 2.3142542e-38
-0.096966699 -0.14807184 -0.025834931 2.3234379e-38
-0.095055565 -0.14807184 -0.025834931 2.341805e-38
-0.092853874 -0.14727734 -0.022902025 2.341805e-38
-0.090947866 -0.14727734 -0.022902025 2.3509886e-38
-0.088751987 -0.14645557 -0.019868387 2.3509886e-38
-0.086481571 -0.14538784 -0.015926851 2.3509527e-38
-0.084587798 -0.14538784 -0.015926851 2.3509527e-38
-0.082423598 -0.14457656 -0.012931956 2.3509527e-38
-0.080535069 -0.14457656 -0.012931956 2.3509527e-38
-0.078646556 -0.14457656 -0.012931956 2.3509527e-38
-0.076758027 -0.14457656 -0.012931956 2.3509527e-38
-0.074535936 -0.14349155 -0.0089266431 2.3509886e-38
-0.072654441 -0.14349155 -0.0089266431 2.3509886e-38
-0.07052806 -0.14266007 -0.0058571231 2.3509886e-38
-0.068651944 -0.14266007 -0.0058571231 2.3509886e-38
-0.066551641 -0.14186381 -0.0029177796 2.3509886e-38
-0.064680681 -0.14186381 -0.0029177796 2.3509886e-38
-0.062809721 -0.14186381 -0.0029177796 2.3509886e-38
-0.06065163 -0.14076851 0.0011255611 2.3509886e-38
-0.058579132 -0.13995247 0.0041379798 2.3509886e-38
-0.05672054 -0.13995247 0.0041379798 2.3509886e-38
-0.054861948 -0.13995247 0.0041379798 2.3509886e-38
-0.053003356 -0.13995247 0.0041379798 2.3509886e-38
-0.05095832 -0.13914107 0.0071333516 2.3509886e-38
-0.049104974 -0.13914107 0.0071333516 2.3509886e-38
-0.047076702 -0.13833423 0.010111796 2.3509886e-38
-0.045228578 -0.13833423 0.010111796 2.3509886e-38
-0.043156527 -0.13723589 0.014166342 2.3509886e-38
-0.041315518 -0.13723589 0.014166342 2.3509886e-38
-0.03947451 -0.13723589 0.014166342 2.3509886e-38
-0.037486635 -0.13643973 0.017105447 2.3509886e-38
-0.035650775 -0.13643973 0.017105447 2.3509886e-38
-0.033674113 -0.13561879 0.020135986 2.3509886e-38
-0.031843573 -0.13561879 0.020135986 2.3509886e-38
-0.029883593 -0.13480256 0.02314912 2.3509886e-38
-0.028058335 -0.13480256 0.02314912 2.3509886e-38
-0.026233077 -0.13480256 0.02314912 2.3509886e-38
-0.024294887 -0.13399105 0.026144849 2.3509886e-38
-0.022474881 -0.13399105 0.026144849 2.3509886e-38
-0.02052043 -0.13292582 0.030077087 2.3509886e-38
-0.01870732 -0.13292582 0.030077087 2.3509886e-38
-0.016894206 -0.13292582 0.030077087 2.3509886e-38
-0.015081093 -0.13292582 0.030077087 2.3509886e-38
-0.013374846 -0.13399105 0.026144849 2.3509886e-38
-0.011554841 -0.13399105 0.026144849 2.3509886e-38
-0.0096417591 -0.13292582 0.030077087 2.3509886e-38
-0.0078286454 -0.13292582 0.030077087 2.3509886e-38
-0.0059538037 -0.13209651 0.033138499 2.3509886e-38
-0.0041460618 -0.13209651 0.033138499 2.3509886e-38
-0.0022893697 -0.13130049 0.036077127 2.3509886e-38
-0.00048677623 -0.13130049 0.036077127 2.3509886e-38
0.0013556071 -0.13048081 0.039103016 2.3509886e-38
0.003152892 -0.13048081 0.039103016 2.3509886e-38
0.0049501806 -0.13048081 0.039103016 2.3509886e-38
0.0067712031 -0.1296659 0.042111263 2.3509886e-38
0.0085632131 -0.1296659 0.042111263 2.3509886e-38
0.010368336 -0.12885578 0.045101866 2.3509886e-38
0.012155104 -0.12885578 0.045101866 2.3509886e-38
0.013941873 -0.12885578 0.045101866 2.3509886e-38
0.015726035 -0.1280504 0.048074946 2.3509886e-38
0.01750759 -0.1280504 0.048074946 2.3509886e-38
0.019289147 -0.1280504 0.048074946 2.3509886e-38
0.021070704 -0.1280504 0.048074946 2.3509886e-38
0.022828136 -0.12722217 0.051132426 2.3509886e-38
0.024604332 -0.12722217 0.051132426 2.3509886e-38
0.02634589 -0.12639888 0.054171547 2.3509886e-38
0.028116755 -0.12639888 0.054171547 2.3509886e-38
0.029844098 -0.12560774 0.057092056 2.3509886e-38
0.031559817 -0.12479414 0.060095534 2.3509886e-38
0.033320297 -0.12479414 0.060095534 2.3509886e-38
0.035080776 -0.12479414 0.060095534 2.3509886e-38
0.03677582 -0.12398534 0.06308125 2.3509886e-38
0.038531065 -0.12398534 0.06308125 2.3509886e-38
0.04028631 -0.12398534 0.06308125 2.3509886e-38
0.042041555 -0.12398534 0.06308125 2.3509886e-38
0.043708082 -0.12315463 0.066147849 2.3509886e-38
0.045457952 -0.12315463 0.066147849 2.3509886e-38
0.047112137 -0.12235557 0.069097623 2.3509886e-38
0.048856832 -0.12235557 0.069097623 2.3509886e-38
0.050601531 -0.12235557 0.069097623 2.3509886e-38
0.052457422 -0.12315463 0.066147849 2.3509886e-38
0.054207291 -0.12315463 0.066147849 2.3509886e-38
0.056206536 -0.12479414 0.060095534 2.3509886e-38
0.058096033 -0.12560774 0.057092056 2.3509886e-38
0.059992354 -0.12639888 0.054171547 2.3509886e-38
0.06190443 -0.12722217 0.051132426 2.3509886e-38
0.063828051 -0.1280504 0.048074946 2.3509886e-38
0.065609604 -0.1280504 0.048074946 2.3509886e-38
0.067544937 -0.12885578 0.045101866 2.3509886e-38
0.069331706 -0.12885578 0.045101866 2.3509886e-38
0.071283646 -0.1296659 0.042111263 2.3509886e-38
0.073247075 -0.13048081 0.039103016 2.341769e-38
0.07522209 -0.13130049 0.036077127 2.3509886e-38
0.077024683 -0.13130049 0.036077127 2.3509886e-38
0.079200745 -0.13292582 0.030077087 2.3509886e-38
0.081457213 -0.13480256 0.02314912 2.3509886e-38
0.083480597 -0.13561879 0.020135986 2.341769e-38
0.08531113 -0.13561879 0.020135986 2.3325492e-38
0.087351561 -0.13643973 0.017105447 2.3233296e-38
0.089187413 -0.13643973 0.017105447 2.31411e-38
0.091237128 -0.13723589 0.014166342 2.2587927e-38
0.093078136 -0.13723589 0.014166342 2.2127304e-38
0.095228389 -0.13833423 0.010111796 2.1481935e-38
0.097076505 -0.13833423 0.010111796 2.1020957e-38
0.099162236 -0.13914107 0.0071333516 2.1389739e-38
0.1015054 -0.14076851 0.0011255611 2.1113152e-38
0.10336927 -0.14076851 0.0011255611 1.9638022e-38
0.10523315 -0.14076851 0.0011255611 1.8254368e-38
0.10709701 -0.14076851 0.0011255611 8.4816308e-39
-0.10270014 -0.14998297 -0.025834931 2.295887e-38
-0.100789 -0.14998297 -0.025834931 2.295887e-38
-0.098877847 -0.14998297 -0.025834931 2.3142542e-38
-0.096966699 -0.14998297 -0.025834931 2.3142542e-38
-0.095055565 -0.14998297 -0.025834931 2.341805e-38
-0.092853874 -0.14918335 -0.022902025 2.341805e-38
-0.090947866 -0.14918335 -0.022902025 2.3509886e-38
-0.088751987 -0.14835624 -0.019868387 2.3509886e-38
-0.086481571 -0.1472816 -0.015926851 2.3509527e-38
-0.084587798 -0.1472816 -0.015926851 2.3509527e-38
-0.082423598 -0.14646508 -0.012931956 2.3509527e-38
-0.080535069 -0.14646508 -0.012931956 2.3509527e-38
-0.078646556 -0.14646508 -0.012931956 2.3509527e-38
-0.076758027 -0.14646508 -0.012931956 2.3509527e-38
-0.074535936 -0.14537306 -0.0089266431 2.3509527e-38
-0.072654441 -0.14537306 -0.0089266431 2.3509886e-38
-0.07052806 -0.14453618 -0.0058571231 2.3509886e-38
-0.068651944 -0.14453618 -0.0058571231 2.3509886e-38
-0.066551641 -0.14373477 -0.0029177796 2.3509886e-38
-0.064680681 -0.14373477 -0.0029177796 2.3509886e-38
-0.062515512 -0.14263238 0.0011255611 2.3509886e-38
-0.06065163 -0.14263238 0.0011255611 2.3509886e-38
-0.058579132 -0.14181106 0.0041379798 2.3509886e-38
-0.05672054 -0.14181106 0.0041379798 2.3509886e-38
-0.054861948 -0.14181106 0.0041379798 2.3509886e-38
-0.053003356 -0.14181106 0.0041379798 2.3509886e-38
-0.05095832 -0.14099441 0.0071333516 2.3509886e-38
-0.049104974 -0.14099441 0.0071333516 2.3509886e-38
-0.047076702 -0.14018236 0.010111796 2.3509886e-38
-0.045228578 -0.14018236 0.010111796 2.3509886e-38
-0.043156527 -0.1390769 0.014166342 2.3509886e-38
-0.041315518 -0.1390769 0.014166342 2.3509886e-38
-0.03947451 -0.1390769 0.014166342 2.3509886e-38
-0.037486635 -0.13827558 0.017105447 2.3509886e-38
-0.035650775 -0.13827558 0.017105447 2.3509886e-38
-0.033674113 -0.13744931 0.020135986 2.3509886e-38
-0.031843573 -0.13744931 0.020135986 2.3509886e-38
-0.029883593 -0.13662781 0.02314912 2.3509886e-38
-0.028058335 -0.13662781 0.02314912 2.3509886e-38
-0.026233077 -0.13662781 0.02314912 2.3509886e-38
-0.024294887 -0.13581105 0.026144849 2.3509886e-38
-0.022474881 -0.13581105 0.026144849 2.3509886e-38
-0.02052043 -0.13473894 0.030077087 2.3509886e-38
-0.01870732 -0.13473894 0.030077087 2.3509886e-38
-0.016894206 -0.13473894 0.030077087 2.3509886e-38
-0.015081093 -0.13473894 0.030077087 2.3509886e-38
-0.013374846 -0.13581105 0.026144849 2.3509886e-38
-0.011554841 -0.13581105 0.026144849 2.3509886e-38
-0.0096417591 -0.13473894 0.030077087 2.3509886e-38
-0.0078286454 -0.13473894 0.030077087 2.3509886e-38
-0.0059538037 -0.13390426 0.033138499 2.3509886e-38
-0.0041460618 -0.13390426 0.033138499 2.3509886e-38
-0.0022893697 -0.13310309 0.036077127 2.3509886e-38
-0.00048677623 -0.13310309 0.036077127 2.3509886e-38
0.0013556071 -0.1322781 0.039103016 2.3509886e-38
0.003152892 -0.1322781 0.039103016 2.3509886e-38
0.0049501806 -0.1322781 0.039103016 2.3509886e-38
0.0067712031 -0.13145791 0.042111263 2.3509886e-38
0.0085632131 -0.13145791 0.042111263 2.3509886e-38
0.010368336 -0.13064255 0.045101866 2.3509886e-38
0.012155104 -0.13064255 0.045101866 2.3509886e-38
0.013944479 -0.12983195 0.048074946 2.3509886e-38
0.015726035 -0.12983195 0.048074946 2.3509886e-38
0.01750759 -0.12983195 0.048074946 2.3509886e-38
0.019289147 -0.12983195 0.048074946 2.3509886e-38
0.021070704 -0.12983195 0.048074946 2.3509886e-38
0.022828136 -0.12899835 0.051132426 2.3509886e-38
0.024604332 -0.12899835 0.051132426 2.3509886e-38
0.02634589 -0.12816976 0.054171547 2.3509886e-38
0.028116755 -0.12816976 0.054171547 2.3509886e-38
0.029844098 -0.1273735 0.057092056 2.3509886e-38
0.031559817 -0.12655462 0.060095534 2.3509886e-38
0.033320297 -0.12655462 0.060095534 2.3509886e-38
0.035020575 -0.12574057 0.06308125 2.3509886e-38
0.03677582 -0.12574057 0.06308125 2.3509886e-38
0.038531065 -0.12574057 0.06308125 2.3509886e-38
0.04028631 -0.12574057 0.06308125 2.3509886e-38
0.041958213 -0.1249045 0.066147849 2.3509886e-38
0.043708082 -0.1249045 0.066147849 2.3509886e-38
0.045457952 -0.1249045 0.066147849 2.3509886e-38
0.047112137 -0.12410025 0.069097623 2.3509886e-38
0.048856832 -0.12410025 0.069097623 2.3509886e-38
0.050601531 -0.12410025 0.069097623 2.3509886e-38
0.052457422 -0.1249045 0.066147849 2.3509886e-38
0.054207291 -0.1249045 0.066147849 2.3509886e-38
0.056206536 -0.12655462 0.060095534 2.3509886e-38
0.057967015 -0.12655462 0.060095534 2.3509886e-38
0.059861779 -0.1273735 0.057092056 2.3509886e-38
0.06190443 -0.12899835 0.051132426 2.3509886e-38
0.063828051 -0.12983195 0.048074946 2.3509886e-38
0.065609604 -0.12983195 0.048074946 2.3509886e-38
0.067544937 -0.13064255 0.045101866 2.3509886e-38
0.069331706 -0.13064255 0.045101866 2.3509886e-38
0.071283646 -0.13145791 0.042111263 2.3509886e-38
0.073247075 -0.1322781 0.039103016 2.3509886e-38
0.07522209 -0.13310309 0.036077127 2.3509886e-38
0.077024683 -0.13310309 0.036077127 2.3509886e-38
0.079445496 -0.13581105 0.026144849 2.3509886e-38
0.081457213 -0.13662781 0.02314912 2.3509886e-38
0.083480597 -0.13744931 0.020135986 2.3325494e-38
0.08531113 -0.13744931 0.020135986 2.31411e-38
0.08755511 -0.1390769 0.014166342 2.2956709e-38
0.089396119 -0.1390769 0.014166342 2.2587927e-38
0.091532156 -0.14018236 0.010111796 2.2034753e-38
0.093380272 -0.14018236 0.010111796 2.1666326e-38
0.095228389 -0.14018236 0.010111796 2.1113152e-38
0.097076505 -0.14018236 0.010111796 2.0559979e-38
0.099162236 -0.14099441 0.0071333516 2.0836565e-38
0.1015054 -0.14263238 0.0011255611 2.0467783e-38
0.10311839 -0.14181106 0.0041379798 1.8992651e-38
0.10497698 -0.14181106 0.0041379798 1.8530954e-38
0.10683557 -0.14181106 0.0041379798 9.0351605e-39
-0.084587798 -0.14917539 -0.015926851 2.3509527e-38
-0.082423598 -0.14835359 -0.012931956 2.3509527e-38
-0.080535069 -0.14835359 -0.012931956 2.3509527e-38
-0.078646556 -0.14835359 -0.012931956 2.3509527e-38
-0.076758027 -0.14835359 -0.012931956 2.3509527e-38
-0.074535936 -0.14725454 -0.0089266431 2.3509527e-38
-0.072654441 -0.14725454 -0.0089266431 2.3509886e-38
-0.07052806 -0.1464123 -0.0058571231 2.3509886e-38
-0.068651944 -0.1464123 -0.0058571231 2.3509886e-38
-0.066551641 -0.14560573 -0.0029177796 2.3509886e-38
-0.064379379 -0.14449625 0.0011255611 2.3509886e-38
-0.062515512 -0.14449625 0.0011255611 2.3509886e-38
-0.06065163 -0.14449625 0.0011255611 2.3509886e-38
-0.058579132 -0.14366965 0.0041379798 2.3509886e-38
-0.05672054 -0.14366965 0.0041379798 2.3509886e-38
-0.054861948 -0.14366965 0.0041379798 2.3509886e-38
-0.053003356 -0.14366965 0.0041379798 2.3509886e-38
-0.05095832 -0.14284773 0.0071333516 2.3509886e-38
-0.049104974 -0.14284773 0.0071333516 2.3509886e-38
-0.047076702 -0.14203046 0.010111796 2.3509886e-38
-0.045228578 -0.14203046 0.010111796 2.3509886e-38
-0.043156527 -0.14091791 0.014166342 2.3509886e-38
-0.041315518 -0.14091791 0.014166342 2.3509886e-38
-0.039322488 -0.14011143 0.017105447 2.3509886e-38
-0.037486635 -0.14011143 0.017105447 2.3509886e-38
-0.035650775 -0.14011143 0.017105447 2.3509886e-38
-0.033674113 -0.13927986 0.020135986 2.3509886e-38
-0.031843573 -0.13927986 0.020135986 2.3509886e-38
-0.029883593 -0.13845308 0.02314912 2.3509886e-38
-0.028058335 -0.13845308 0.02314912 2.3509886e-38
-0.026233077 -0.13845308 0.02314912 2.3509886e-38
-0.024294887 -0.13763104 0.026144849 2.3509886e-38
-0.022474881 -0.13763104 0.026144849 2.3509886e-38
-0.02052043 -0.13655205 0.030077087 2.3509886e-38
-0.01870732 -0.13655205 0.030077087 2.3509886e-38
-0.016894206 -0.13655205 0.030077087 2.3509886e-38
-0.015081093 -0.13655205 0.030077087 2.3509886e-38
-0.013374846 -0.13763104 0.026144849 2.3509886e-38
-0.011554841 -0.13763104 0.026144849 2.3509886e-38
-0.0096417591 -0.13655205 0.030077087 2.3509886e-38
-0.0078286454 -0.13655205 0.030077087 2.3509886e-38
-0.0059538037 -0.13571201 0.033138499 2.3509886e-38
-0.0041460618 -0.13571201 0.033138499 2.3509886e-38
-0.0022893697 -0.13490568 0.036077127 2.3509886e-38
-0.00048677623 -0.13490568 0.036077127 2.3509886e-38
0.0013556071 -0.13407536 0.039103016 2.3509886e-38
0.003152892 -0.13407536 0.039103016 2.3509886e-38
0.0049501806 -0.13407536 0.039103016 2.3509886e-38
0.0067712031 -0.13324992 0.042111263 2.3509886e-38
0.0085632131 -0.13324992 0.042111263 2.3509886e-38
0.010368336 -0.13242932 0.045101866 2.3509886e-38
0.012155104 -0.13242932 0.045101866 2.3509886e-38
0.013944479 -0.13161351 0.048074946 2.3509886e-38
0.015726035 -0.13161351 0.048074946 2.3509886e-38
0.01750759 -0.13161351 0.048074946 2.3509886e-38
0.019275745 -0.13077454 0.051132426 2.3509886e-38
0.02105194 -0.13077454 0.051132426 2.3509886e-38
0.022828136 -0.13077454 0.051132426 2.3509886e-38
0.024604332 -0.13077454 0.051132426 2.3509886e-38
0.02634589 -0.12994061 0.054171547 2.3509886e-38
0.028116755 -0.12994061 0.054171547 2.3509886e-38
0.029844098 -0.12913923 0.057092056 2.3509886e-38
0.031559817 -0.12831511 0.060095534 2.3509886e-38
0.033320297 -0.12831511 0.060095534 2.3509886e-38
0.035020575 -0.12749584 0.06308125 2.3509886e-38
0.03677582 -0.12749584 0.06308125 2.3509886e-38
0.038531065 -0.12749584 0.06308125 2.3509886e-38
0.040208347 -0.12665437 0.066147849 2.3509886e-38
0.041958213 -0.12665437 0.066147849 2.3509886e-38
0.043708082 -0.12665437 0.066147849 2.3509886e-38
0.045367442 -0.12584494 0.069097623 2.3509886e-38
0.047112137 -0.12584494 0.069097623 2.3509886e-38
0.048856832 -0.12584494 0.069097623 2.3509886e-38
0.050601531 -0.12584494 0.069097623 2.3509886e-38
0.052457422 -0.12665437 0.066147849 2.3509886e-38
0.054207291 -0.12665437 0.066147849 2.3509886e-38
0.056083512 -0.12749584 0.06308125 2.3509886e-38
0.057967015 -0.12831511 0.060095534 2.3509886e-38
0.059861779 -0.12913923 0.057092056 2.3509886e-38
0.06190443 -0.13077454 0.051132426 2.3509886e-38
0.063680626 -0.13077454 0.051132426 2.3509886e-38
0.065609604 -0.13161351 0.048074946 2.3509886e-38
0.067391157 -0.13161351 0.048074946 2.3509886e-38
0.069331706 -0.13242932 0.045101866 2.3509886e-38
