# .PCD v0.7 - Point Cloud Data file format
VERSION 0.7
FIELDS x y z rgb
SIZE 4 4 4 4
TYPE F F F F
COUNT 1 1 1 1
WIDTH 936
HEIGHT 1
VIEWPOINT 0 0 0 1 0 0 0
POINTS 936
DATA ascii
-0.027187601 -0.11914389 -0.041520156 2.3509886e-38
-0.025362328 -0.11761098 -0.035511293 2.3509886e-38
-0.023560714 -0.11582683 -0.028517641 2.3509886e-38
-0.02176585 -0.11507715 -0.025579013 2.3509886e-38
-0.020000286 -0.11353777 -0.019544877 2.3509886e-38
-0.018231869 -0.11277486 -0.016554274 2.3509886e-38
-0.016473772 -0.11201639 -0.013581194 2.3509886e-38
-0.014727061 -0.11123641 -0.010523714 2.3509886e-38
-0.01299083 -0.11046107 -0.0074845925 2.3509886e-38
-0.011308251 -0.10894983 -0.0015606061 2.3509886e-38
-0.0096977158 -0.10665329 0.0074414834 2.3509886e-38
-0.0080087995 -0.10588033 0.010471366 2.3509886e-38
-0.0063301371 -0.10511206 0.013482891 2.3509886e-38
-0.0047707921 -0.1030779 0.021456622 2.3509886e-38
-0.0031226268 -0.10230236 0.024496637 2.3509886e-38
-0.0014078328 -0.10230236 0.024496637 2.3509886e-38
0.0027276007 -0.12502514 -0.064573921 2.3509886e-38
0.0045985626 -0.12502514 -0.064573921 2.3509886e-38
0.006345463 -0.12399365 -0.060530581 2.3509886e-38
0.0081116231 -0.12322514 -0.057518162 2.3509886e-38
0.0094232457 -0.11914389 -0.041520156 2.3509886e-38
0.011253786 -0.11914389 -0.041520156 2.3509886e-38
0.012970743 -0.11837523 -0.038507022 2.3509886e-38
0.014796005 -0.11837523 -0.038507022 2.3509886e-38
0.016497828 -0.11761098 -0.035511293 2.3509886e-38
0.018148918 -0.11660783 -0.031579055 2.3509886e-38
0.019825157 -0.11582683 -0.028517641 2.3509886e-38
0.021496363 -0.11507715 -0.025579013 2.3509886e-38
0.023153055 -0.11430521 -0.022553124 2.3509886e-38
0.024650581 -0.11277486 -0.016554274 2.3509886e-38
0.026125427 -0.11123641 -0.010523714 2.3509886e-38
0.0277391 -0.11046107 -0.0074845925 2.3509886e-38
0.029348668 -0.10971604 -0.0045640841 2.3509886e-38
0.031114414 -0.10971604 -0.0045640841 2.3509886e-38
0.033051699 -0.11046107 -0.0074845925 2.3509886e-38
0.034822568 -0.11046107 -0.0074845925 2.3509886e-38
0.036782596 -0.11123641 -0.010523714 2.3509886e-38
0.038558792 -0.11123641 -0.010523714 2.3509886e-38
0.040334988 -0.11123641 -0.010523714 2.3509886e-38
0.042111184 -0.11123641 -0.010523714 2.3509886e-38
0.044099133 -0.11201639 -0.013581194 2.3509886e-38
0.046091806 -0.11277486 -0.016554274 2.3509886e-38
0.04766224 -0.11201639 -0.013581194 2.3509886e-38
0.0494438 -0.11201639 -0.013581194 2.3509886e-38
0.051225353 -0.11201639 -0.013581194 2.3509886e-38
0.05323888 -0.11277486 -0.016554274 2.3509886e-38
0.055025648 -0.11277486 -0.016554274 2.3509886e-38
0.05657002 -0.11201639 -0.013581194 2.3509886e-38
0.058351584 -0.11201639 -0.013581194 2.3509527e-38
0.060133137 -0.11201639 -0.013581194 2.3509165e-38
0.062172718 -0.11277486 -0.016554274 2.3509165e-38
0.063696243 -0.11201639 -0.013581194 2.2863074e-38
0.065477796 -0.11201639 -0.013581194 2.2680122e-38
0.067259364 -0.11201639 -0.013581194 2.3142544e-38
-0.10083722 -0.1441002 -0.13155153 1.8727653e-40
-0.098848827 -0.1441002 -0.13155153 2.8616645e-39
-0.096607707 -0.14305727 -0.12749127 8.8554524e-39
-0.094390176 -0.14205404 -0.12358562 1.78917e-38
-0.092239223 -0.1412821 -0.12058035 1.9920722e-38
-0.090270065 -0.1412821 -0.12058035 2.084196e-38
-0.087855794 -0.13921197 -0.11252109 2.1854683e-38
-0.085153207 -0.13562126 -0.098542012 2.1853964e-38
-0.083222687 -0.13562126 -0.098542012 2.1945794e-38
-0.080940552 -0.13381381 -0.091505446 2.2314931e-38
-0.078687392 -0.13202934 -0.084558167 2.3050693e-38
-0.076640435 -0.1312501 -0.081524529 2.3234364e-38
-0.074563526 -0.13023765 -0.077582993 2.3509873e-38
-0.07254111 -0.1294684 -0.074588098 2.3418039e-38
-0.070361078 -0.12765111 -0.067513265 2.3509883e-38
-0.068209492 -0.12585752 -0.060530581 2.3509527e-38
-0.066345617 -0.12585752 -0.060530581 2.3509527e-38
-0.064265803 -0.12431435 -0.05452279 2.3509527e-38
-0.062310632 -0.1235493 -0.051544346 2.3509527e-38
-0.060330998 -0.12250783 -0.0474898 2.3509527e-38
-0.058489989 -0.12250783 -0.0474898 2.3509886e-38
-0.056648977 -0.12250783 -0.0474898 2.3509883e-38
-0.054645736 -0.12097444 -0.041520156 2.3509886e-38
-0.052738592 -0.12020047 -0.038507022 2.3509886e-38
-0.05091333 -0.12020047 -0.038507022 2.3509886e-38
-0.049220528 -0.12175287 -0.044550695 2.3509886e-38
-0.047443934 -0.12250783 -0.0474898 2.3509886e-38
-0.045548819 -0.12175287 -0.044550695 2.3509886e-38
-0.043712959 -0.12175287 -0.044550695 2.3509886e-38
-0.041920908 -0.12250783 -0.0474898 2.3509886e-38
-0.040133215 -0.1235493 -0.051544346 2.3509886e-38
-0.038285099 -0.1235493 -0.051544346 2.3509886e-38
-0.036562629 -0.1268961 -0.064573921 2.3509886e-38
-0.034691665 -0.1268961 -0.064573921 2.3509886e-38
-0.032795887 -0.12585752 -0.060530581 2.3509886e-38
-0.030918811 -0.12508373 -0.057518162 2.3509886e-38
-0.029018141 -0.12097444 -0.041520156 2.3509886e-38
-0.02718496 -0.12020047 -0.038507022 2.3509886e-38
-0.025362328 -0.11943097 -0.035511293 2.3509886e-38
-0.02355266 -0.11842094 -0.031579055 2.3509886e-38
-0.02176585 -0.11687975 -0.025579013 2.3509886e-38
-0.019981826 -0.1161025 -0.022553124 2.3509886e-38
-0.018231869 -0.11456163 -0.016554274 2.3509886e-38
-0.016503256 -0.1130126 -0.010523714 2.3509886e-38
-0.014727061 -0.1130126 -0.010523714 2.3509886e-38
-0.01299083 -0.11223195 -0.0074845925 2.3509886e-38
-0.011308251 -0.11071031 -0.0015606061 2.3509886e-38
-0.0096485829 -0.10915567 0.0044917092 2.3509886e-38
-0.0080087995 -0.10761972 0.010471366 2.3509886e-38
-0.0063301371 -0.10684617 0.013482891 2.3509886e-38
-0.0047707921 -0.104798 0.021456622 2.3509886e-38
-0.0031226268 -0.10401715 0.024496637 2.3509886e-38
-0.0014078328 -0.10401715 0.024496637 2.3509886e-38
0.0027276007 -0.1268961 -0.064573921 2.3509886e-38
0.0045985626 -0.1268961 -0.064573921 2.3509886e-38
0.006345463 -0.12585752 -0.060530581 2.3509886e-38
0.0072702477 -0.11842094 -0.031579055 2.3509886e-38
0.0090833576 -0.11842094 -0.031579055 2.3509886e-38
0.011037809 -0.11943097 -0.035511293 2.3509886e-38
0.012709581 -0.11842094 -0.031579055 2.3509886e-38
0.014522695 -0.11842094 -0.031579055 2.3509886e-38
0.016335808 -0.11842094 -0.031579055 2.3509886e-38
0.018148918 -0.11842094 -0.031579055 2.3509886e-38
0.019825157 -0.11763458 -0.028517641 2.3509886e-38
0.021496363 -0.11687975 -0.025579013 2.3509886e-38
0.023153055 -0.1161025 -0.022553124 2.3509886e-38
0.024349231 -0.1130126 -0.010523714 2.3509886e-38
0.025968235 -0.11223195 -0.0074845925 2.3509886e-38
0.027582921 -0.11148177 -0.0045640841 2.3509886e-38
0.029182784 -0.11071031 -0.0015606061 2.3509886e-38
0.030943267 -0.11071031 -0.0015606061 2.3509886e-38
0.032703746 -0.11071031 -0.0015606061 2.3509886e-38
0.034464225 -0.11071031 -0.0015606061 2.3509886e-38
0.036224704 -0.11071031 -0.0015606061 2.3509886e-38
0.037985187 -0.11071031 -0.0015606061 2.3509886e-38
0.03994314 -0.11148177 -0.0045640841 2.3509886e-38
0.04170889 -0.11148177 -0.0045640841 2.3509886e-38
0.043887381 -0.1130126 -0.010523714 2.3509886e-38
0.045663577 -0.1130126 -0.010523714 2.3509886e-38
0.047439773 -0.1130126 -0.010523714 2.3509886e-38
0.049215961 -0.1130126 -0.010523714 2.3509886e-38
0.051225353 -0.11379795 -0.013581194 2.3509886e-38
0.05323888 -0.11456163 -0.016554274 2.3509886e-38
0.054788467 -0.11379795 -0.013581194 2.3509886e-38
0.05657002 -0.11379795 -0.013581194 2.3509886e-38
0.058351584 -0.11379795 -0.013581194 2.3509886e-38
0.060133137 -0.11379795 -0.013581194 2.3417691e-38
0.06191469 -0.11379795 -0.013581194 2.2772332e-38
0.063425533 -0.1130126 -0.010523714 2.3141467e-38
0.065201722 -0.1130126 -0.010523714 2.3509886e-38
0.066977911 -0.1130126 -0.010523714 2.3509883e-38
0.067068912 -0.10839801 0.0074414834 2.3048905e-38
-0.10083722 -0.14608859 -0.13155153 3.4130432e-39
-0.098848827 -0.14608859 -0.13155153 2.5850776e-39
-0.096607707 -0.14503856 -0.12749127 7.5647136e-39
-0.094390176 -0.14402847 -0.12358562 1.8629264e-38
-0.092239223 -0.14325126 -0.12058035 2.1119262e-38
-0.09004315 -0.14222141 -0.11659817 2.0473177e-38
-0.087693051 -0.14040495 -0.10957447 2.1670289e-38
-0.084942147 -0.13653107 -0.094595231 2.1669573e-38
-0.082858734 -0.13573201 -0.091505446 2.1853598e-38
-0.0805934 -0.13393532 -0.084558167 2.2314931e-38
-0.078541122 -0.13315077 -0.081524529 2.3050693e-38
-0.076318152 -0.13135691 -0.074588098 2.3234364e-38
-0.074429624 -0.13135691 -0.074588098 2.350987e-38
-0.072369047 -0.13032107 -0.070582785 2.3325843e-38
-0.070361078 -0.12952723 -0.067513265 2.350988e-38
-0.068090647 -0.12694232 -0.057518162 2.3509527e-38
-0.066232055 -0.12694232 -0.057518162 2.3509527e-38
-0.064158745 -0.1253974 -0.051544346 2.3509527e-38
-0.062172007 -0.12434883 -0.0474898 2.3509527e-38
-0.060235664 -0.12358873 -0.044550695 2.3509527e-38
-0.058306821 -0.12280498 -0.041520156 2.3509883e-38
-0.05647628 -0.12280498 -0.041520156 2.3509883e-38
-0.05456385 -0.12202574 -0.038507022 2.3509886e-38
-0.052738592 -0.12202574 -0.038507022 2.3509886e-38
-0.05091333 -0.12202574 -0.038507022 2.3509886e-38
-0.04915411 -0.12280498 -0.041520156 2.3509886e-38
-0.047323566 -0.12280498 -0.041520156 2.3509886e-38
-0.045493022 -0.12280498 -0.041520156 2.3509886e-38
-0.043662481 -0.12280498 -0.041520156 2.3509886e-38
-0.041920908 -0.12434883 -0.0474898 2.3509886e-38
-0.040079899 -0.12434883 -0.0474898 2.3509886e-38
-0.03823889 -0.12434883 -0.0474898 2.3509886e-38
-0.036523636 -0.12772138 -0.060530581 2.3509886e-38
-0.034659762 -0.12772138 -0.060530581 2.3509886e-38
-0.032795887 -0.12772138 -0.060530581 2.3509886e-38
-0.030918811 -0.12694232 -0.057518162 2.3509886e-38
-0.029010218 -0.12202574 -0.038507022 2.3509886e-38
-0.02718496 -0.12202574 -0.038507022 2.3509886e-38
-0.025362328 -0.121251 -0.035511293 2.3509886e-38
-0.02355266 -0.12023406 -0.031579055 2.3509886e-38
-0.02176585 -0.11868234 -0.025579013 2.3509886e-38
-0.019981826 -0.11789979 -0.022553124 2.3509886e-38
-0.018255327 -0.1155795 -0.013581194 2.3509886e-38
-0.016503256 -0.11478879 -0.010523714 2.3509886e-38
-0.014727061 -0.11478879 -0.010523714 2.3509886e-38
-0.01299083 -0.11400281 -0.0074845925 2.3509886e-38
-0.011308251 -0.11247079 -0.0015606061 2.3509886e-38
-0.0095975036 -0.11169861 0.0014251098 2.3509886e-38
-0.0080087995 -0.1093591 0.010471366 2.3509886e-38
-0.0062694149 -0.1093591 0.010471366 2.3509886e-38
-0.004596035 -0.10858028 0.013482891 2.3509886e-38
-0.002861931 -0.10858028 0.013482891 2.3509886e-38
-0.001127827 -0.10858028 0.013482891 2.3509886e-38
0.00060627703 -0.10858028 0.013482891 2.3509886e-38
0.0032093553 -0.1163484 -0.016554274 2.3509886e-38
0.0049961256 -0.1163484 -0.016554274 2.3509886e-38
0.006782894 -0.1163484 -0.016554274 2.3509886e-38
0.0086719105 -0.1171218 -0.019544877 2.3509886e-38
0.010680811 -0.11868234 -0.025579013 2.3509886e-38
0.012594179 -0.11944233 -0.028517641 2.3509886e-38
0.014285994 -0.11868234 -0.025579013 2.3509886e-38
0.016088586 -0.11868234 -0.025579013 2.3509886e-38
0.018148918 -0.12023406 -0.031579055 2.3509886e-38
0.019825157 -0.11944233 -0.028517641 2.3509886e-38
0.021496363 -0.11868234 -0.025579013 2.3509886e-38
0.021706816 -0.11014269 0.0074414834 2.3509886e-38
0.023451511 -0.11014269 0.0074414834 2.3509886e-38
0.025507394 -0.11169861 0.0014251098 2.3509886e-38
0.027098648 -0.11090554 0.0044917092 2.3509886e-38
0.028848518 -0.11090554 0.0044917092 2.3509886e-38
0.030598383 -0.11090554 0.0044917092 2.3509886e-38
0.032528374 -0.11169861 0.0014251098 2.3509886e-38
0.034283619 -0.11169861 0.0014251098 2.3509886e-38
0.036038864 -0.11169861 0.0014251098 2.3509886e-38
0.037794109 -0.11169861 0.0014251098 2.3509886e-38
0.039549354 -0.11169861 0.0014251098 2.3509886e-38
0.041304599 -0.11169861 0.0014251098 2.3509886e-38
0.043266628 -0.11247079 -0.0015606061 2.3509886e-38
0.045027103 -0.11247079 -0.0015606061 2.3509886e-38
0.046787586 -0.11247079 -0.0015606061 2.3509886e-38
0.048548061 -0.11247079 -0.0015606061 2.3509886e-38
0.050308544 -0.11247079 -0.0015606061 2.3509886e-38
0.053006914 -0.1155795 -0.013581194 2.3509886e-38
0.054544549 -0.11478879 -0.010523714 2.3509886e-38
0.056320745 -0.11478879 -0.010523714 2.3509886e-38
0.058096938 -0.11478879 -0.010523714 2.341805e-38
0.059873141 -0.11478879 -0.010523714 2.2773767e-38
0.06164933 -0.11478879 -0.010523714 2.3142544e-38
0.063425533 -0.11478879 -0.010523714 2.3417691e-38
0.065201722 -0.11478879 -0.010523714 2.3509886e-38
0.066977911 -0.11478879 -0.010523714 2.3509521e-38
0.067068912 -0.11014269 0.0074414834 2.350952e-38
0.068813615 -0.11014269 0.0074414834 2.3508441e-38
0.070263468 -0.1093591 0.010471366 2.3508085e-38
0.07200285 -0.1093591 0.010471366 2.3509168e-38
0.073742233 -0.1093591 0.010471366 2.2495748e-38
-0.10083722 -0.148077 -0.13155153 5.9948767e-39
-0.098848827 -0.148077 -0.13155153 3.7839767e-39
-0.096607707 -0.14701982 -0.12749127 7.6569064e-39
-0.094208397 -0.14522041 -0.12058035 1.8905851e-38
-0.092005335 -0.14418359 -0.11659817 2.1580237e-38
-0.09004315 -0.14418359 -0.11659817 2.0657565e-38
-0.087303288 -0.14051737 -0.1025174 2.1393702e-38
-0.084942147 -0.13845469 -0.094595231 2.1485538e-38
-0.082858734 -0.13765021 -0.091505446 2.1761759e-38
-0.0805934 -0.13584132 -0.084558167 2.2222733e-38
-0.078541122 -0.13505147 -0.081524529 2.305069e-38
-0.076318152 -0.13324542 -0.074588098 2.3234362e-38
-0.074250549 -0.13220255 -0.070582785 2.3509869e-38
-0.072237194 -0.13140334 -0.067513265 2.3326199e-38
-0.070073366 -0.12958528 -0.060530581 2.3509879e-38
-0.067972481 -0.12802102 -0.05452279 2.3509883e-38
-0.066119142 -0.12802102 -0.05452279 2.3509527e-38
-0.064013012 -0.12618984 -0.0474898 2.3509527e-38
-0.062071517 -0.12542458 -0.044550695 2.3509527e-38
-0.060137361 -0.12463553 -0.041520156 2.3509527e-38
-0.058214366 -0.12385099 -0.038507022 2.3509883e-38
-0.056389108 -0.12385099 -0.038507022 2.3509883e-38
-0.05456385 -0.12385099 -0.038507022 2.3509886e-38
-0.052662428 -0.123071 -0.035511293 2.3509886e-38
-0.050842419 -0.123071 -0.035511293 2.3509886e-38
-0.049088068 -0.12385099 -0.038507022 2.3509886e-38
-0.04726281 -0.12385099 -0.038507022 2.3509886e-38
-0.045437552 -0.12385099 -0.038507022 2.3509886e-38
-0.043662481 -0.12463553 -0.041520156 2.3509886e-38
-0.04183194 -0.12463553 -0.041520156 2.3509886e-38
-0.0400014 -0.12463553 -0.041520156 2.3509886e-38
-0.034194488 -0.11423124 -0.0015606061 2.3509886e-38
-0.029010218 -0.12385099 -0.038507022 2.3509886e-38
-0.027182333 -0.123071 -0.035511293 2.3509886e-38
-0.025365774 -0.12204717 -0.031579055 2.3509886e-38
-0.02356844 -0.12048493 -0.025579013 2.3509886e-38
-0.021779113 -0.11969708 -0.022553124 2.3509886e-38
-0.019981826 -0.11969708 -0.022553124 2.3509886e-38
-0.018255327 -0.11736105 -0.013581194 2.3509886e-38
-0.016473772 -0.11736105 -0.013581194 2.3509886e-38
-0.014727061 -0.11656497 -0.010523714 2.3509886e-38
-0.013029234 -0.11501329 -0.0045640841 2.3509886e-38
-0.011308251 -0.11423124 -0.0015606061 2.3509886e-38
-0.0095975036 -0.11345388 0.0014251098 2.3509886e-38
-0.0080087995 -0.11109848 0.010471366 2.3509886e-38
-0.0062694149 -0.11109848 0.010471366 2.3509886e-38
-0.004596035 -0.11031438 0.013482891 2.3509886e-38
-0.002861931 -0.11031438 0.013482891 2.3509886e-38
-0.001127827 -0.11031438 0.013482891 2.3509886e-38
0.00060627703 -0.11031438 0.013482891 2.3509886e-38
0.0032093553 -0.11813517 -0.016554274 2.3509886e-38
0.0049961256 -0.11813517 -0.016554274 2.3509886e-38
0.006782894 -0.11813517 -0.016554274 2.3509886e-38
0.0085696625 -0.11813517 -0.016554274 2.3509886e-38
0.010356431 -0.11813517 -0.016554274 2.3509886e-38
0.012369336 -0.11969708 -0.022553124 2.3509886e-38
0.014285994 -0.12048493 -0.025579013 2.3509886e-38
0.016088586 -0.12048493 -0.025579013 2.3509886e-38
0.018148918 -0.12204717 -0.031579055 2.3509886e-38
0.018081956 -0.11109848 0.010471366 2.3509886e-38
0.019821342 -0.11109848 0.010471366 2.3509886e-38
0.021560725 -0.11109848 0.010471366 2.3509886e-38
0.023300108 -0.11109848 0.010471366 2.3509886e-38
0.025196206 -0.11188738 0.0074414834 2.3509886e-38
0.026940905 -0.11188738 0.0074414834 2.3509886e-38
0.0286856 -0.11188738 0.0074414834 2.3509886e-38
0.030430295 -0.11188738 0.0074414834 2.3509886e-38
0.032174993 -0.11188738 0.0074414834 2.3509886e-38
0.033919688 -0.11188738 0.0074414834 2.3509886e-38
0.035847988 -0.11265542 0.0044917092 2.3509886e-38
0.037597854 -0.11265542 0.0044917092 2.3509886e-38
0.039549354 -0.11345388 0.0014251098 2.3509886e-38
0.041304599 -0.11345388 0.0014251098 2.3509886e-38
0.043059845 -0.11345388 0.0014251098 2.3509886e-38
0.045027103 -0.11423124 -0.0015606061 2.3509886e-38
0.046787586 -0.11423124 -0.0015606061 2.3509886e-38
0.04832558 -0.11345388 0.0014251098 2.3509886e-38
0.050080825 -0.11345388 0.0014251098 2.3509886e-38
0.052069027 -0.11423124 -0.0015606061 2.3509886e-38
0.053829502 -0.11423124 -0.0015606061 2.3509886e-38
0.055834856 -0.11501329 -0.0045640841 2.3509886e-38
0.05760061 -0.11501329 -0.0045640841 2.341805e-38
0.059366353 -0.11501329 -0.0045640841 2.323402e-38
0.061385565 -0.11577369 -0.0074845925 2.323402e-38
0.062367536 -0.11345388 0.0014251098 2.3417691e-38
0.06384588 -0.11265542 0.0044917092 2.2864519e-38
0.065045319 -0.11109848 0.010471366 2.3231854e-38
0.066784702 -0.11109848 0.010471366 2.350952e-38
0.068524085 -0.11109848 0.010471366 2.3509163e-38
0.070263468 -0.11109848 0.010471366 2.3509165e-38
0.07200285 -0.11109848 0.010471366 2.3509168e-38
0.073742233 -0.11109848 0.010471366 2.3417691e-38
0.075481616 -0.11109848 0.010471366 2.2497901e-38
0.077221014 -0.11109848 0.010471366 2.1855053e-38
0.078960396 -0.11109848 0.010471366 2.1948682e-38
0.080375038 -0.11031438 0.013482891 1.3931643e-38
-0.096607707 -0.14900111 -0.12749127 1.0053631e-38
-0.094208397 -0.1471896 -0.12058035 1.8536345e-38
-0.092005335 -0.14614578 -0.11659817 2.0381331e-38
-0.09004315 -0.14614578 -0.11659817 2.0565725e-38
-0.087303288 -0.14245488 -0.1025174 2.1209667e-38
-0.085153207 -0.14141284 -0.098542012 2.1393342e-38
-0.083018549 -0.14037828 -0.094595231 2.1669563e-38
-0.080739953 -0.13851611 -0.087491073 2.2223089e-38
-0.078541122 -0.13695215 -0.081524529 2.305069e-38
-0.076318152 -0.13513394 -0.074588098 2.323436e-38
-0.074250549 -0.13408406 -0.070582785 2.3509869e-38
-0.072237194 -0.13327946 -0.067513265 2.3326196e-38
-0.069949247 -0.13065951 -0.057518162 2.3509876e-38
-0.067854986 -0.12909363 -0.051544346 2.350988e-38
-0.066006869 -0.12909363 -0.051544346 2.3509527e-38
-0.064013012 -0.12803085 -0.0474898 2.3509527e-38
-0.061967906 -0.12646608 -0.041520156 2.3509527e-38
-0.060039628 -0.12567626 -0.038507022 2.3509883e-38
-0.058214366 -0.12567626 -0.038507022 2.350988e-38
-0.056389108 -0.12567626 -0.038507022 2.350988e-38
-0.054482434 -0.124891 -0.035511293 2.3509883e-38
-0.052662428 -0.124891 -0.035511293 2.3509886e-38
-0.050842419 -0.124891 -0.035511293 2.3509886e-38
-0.049022414 -0.124891 -0.035511293 2.3509886e-38
-0.047202408 -0.124891 -0.035511293 2.3509886e-38
-0.045437552 -0.12567626 -0.038507022 2.3509886e-38
-0.043612294 -0.12567626 -0.038507022 2.3509886e-38
-0.041146211 -0.11440529 0.0044917092 2.3509886e-38
-0.039396342 -0.11440529 0.0044917092 2.3509886e-38
-0.037681423 -0.11520912 0.0014251098 2.3509886e-38
-0.035926178 -0.11520912 0.0014251098 2.3509886e-38
-0.034194488 -0.11599173 -0.0015606061 2.3509886e-38
-0.032434009 -0.11599173 -0.0015606061 2.3509886e-38
-0.030835479 -0.12567626 -0.038507022 2.3509886e-38
-0.029010218 -0.12567626 -0.038507022 2.3509886e-38
-0.027182333 -0.124891 -0.035511293 2.3509886e-38
-0.025365774 -0.12386028 -0.031579055 2.3509886e-38
-0.02356844 -0.12228753 -0.025579013 2.3509886e-38
-0.021779113 -0.12149437 -0.022553124 2.3509886e-38
-0.019981826 -0.12149437 -0.022553124 2.3509886e-38
-0.018255327 -0.11914261 -0.013581194 2.3509886e-38
-0.016473772 -0.11914261 -0.013581194 2.3509886e-38
-0.014761697 -0.11754455 -0.0074845925 2.3509886e-38
-0.013029234 -0.11677901 -0.0045640841 2.3509886e-38
-0.011308251 -0.11599173 -0.0015606061 2.3509886e-38
-0.0095975036 -0.11520912 0.0014251098 2.3509886e-38
-0.0080087995 -0.11283787 0.010471366 2.3509886e-38
-0.0062694149 -0.11283787 0.010471366 2.3509886e-38
-0.004596035 -0.11204849 0.013482891 2.3509886e-38
-0.002861931 -0.11204849 0.013482891 2.3509886e-38
-0.001127827 -0.11204849 0.013482891 2.3509886e-38
0.00060627703 -0.11204849 0.013482891 2.3509886e-38
0.0032093553 -0.11992194 -0.016554274 2.3509886e-38
0.0049961256 -0.11992194 -0.016554274 2.3509886e-38
0.0066864574 -0.11914261 -0.013581194 2.3509886e-38
0.0084680105 -0.11914261 -0.013581194 2.3509886e-38
0.010356431 -0.11992194 -0.016554274 2.3509886e-38
0.012369336 -0.12149437 -0.022553124 2.3509886e-38
0.014166621 -0.12149437 -0.022553124 2.3509886e-38
0.014603191 -0.11283787 0.010471366 2.3509886e-38
0.016342573 -0.11283787 0.010471366 2.3509886e-38
0.017947312 -0.11204849 0.013482891 2.3509886e-38
0.019681416 -0.11204849 0.013482891 2.3509886e-38
0.021560725 -0.11283787 0.010471366 2.3509886e-38
0.023300108 -0.11283787 0.010471366 2.3509886e-38
0.02503949 -0.11283787 0.010471366 2.3509886e-38
0.026778877 -0.11283787 0.010471366 2.3509886e-38
0.02851826 -0.11283787 0.010471366 2.3509886e-38
0.030257642 -0.11283787 0.010471366 2.3509886e-38
0.032174993 -0.11363207 0.0074414834 2.3509886e-38
0.033919688 -0.11363207 0.0074414834 2.3509886e-38
0.035847988 -0.11440529 0.0044917092 2.3509886e-38
0.037597854 -0.11440529 0.0044917092 2.3509886e-38
0.039549354 -0.11520912 0.0014251098 2.3509886e-38
0.041304599 -0.11520912 0.0014251098 2.3509886e-38
0.043059845 -0.11520912 0.0014251098 2.3509886e-38
0.04481509 -0.11520912 0.0014251098 2.3509886e-38
0.046570335 -0.11520912 0.0014251098 2.3509886e-38
0.048097063 -0.11440529 0.0044917092 2.3509886e-38
0.049846936 -0.11440529 0.0044917092 2.3509886e-38
0.051596802 -0.11440529 0.0044917092 2.3509886e-38
0.053346667 -0.11440529 0.0044917092 2.3509886e-38
0.05534656 -0.11520912 0.0014251098 2.3509886e-38
0.057101808 -0.11520912 0.0014251098 2.3509886e-38
0.058857046 -0.11520912 0.0014251098 2.3509527e-38
0.060612299 -0.11520912 0.0014251098 2.3509168e-38
0.062096007 -0.11440529 0.0044917092 2.3509527e-38
0.06384588 -0.11440529 0.0044917092 2.3509527e-38
0.065045319 -0.11283787 0.010471366 2.3509883e-38
0.066784702 -0.11283787 0.010471366 2.3417327e-38
0.068524085 -0.11283787 0.010471366 2.3325497e-38
0.069970421 -0.11204849 0.013482891 2.341805e-38
0.071704529 -0.11204849 0.013482891 2.3049632e-38
0.073438622 -0.11204849 0.013482891 2.268229e-38
0.07517273 -0.11204849 0.013482891 2.2591531e-38
0.076906838 -0.11204849 0.013482891 2.2224189e-38
0.07864093 -0.11204849 0.013482891 2.1948682e-38
0.080375038 -0.11204849 0.013482891 2.1029968e-38
-0.094208397 -0.14915876 -0.12058035 1.8259756e-38
-0.092005335 -0.14810793 -0.11659817 1.9367179e-38
-0.09004315 -0.14810793 -0.11659817 2.0381334e-38
-0.087693051 -0.14625455 -0.10957447 2.1117471e-38
-0.085153207 -0.14334334 -0.098542012 2.1301144e-38
-0.083018549 -0.14230187 -0.094595231 2.1669562e-38
-0.080739953 -0.14042725 -0.087491073 2.2223086e-38
-0.078541122 -0.13885282 -0.081524529 2.3050689e-38
-0.076318152 -0.13702248 -0.074588098 2.3234357e-38
-0.074113309 -0.13515557 -0.067513265 2.3509866e-38
-0.072110929 -0.13437997 -0.064573921 2.3326195e-38
-0.069949247 -0.1325181 -0.057518162 2.3509873e-38
-0.067854986 -0.13094176 -0.051544346 2.3509879e-38
-0.06585402 -0.12987186 -0.0474898 2.3509883e-38
-0.06390737 -0.12909628 -0.044550695 2.3509883e-38
-0.061967906 -0.1282966 -0.041520156 2.3509883e-38
-0.060039628 -0.1275015 -0.038507022 2.3509883e-38
-0.058122449 -0.126711 -0.035511293 2.350988e-38
-0.056302443 -0.126711 -0.035511293 2.350988e-38
-0.05437557 -0.1256734 -0.031579055 2.3509883e-38
-0.052484624 -0.12486555 -0.028517641 2.3509886e-38
-0.050676882 -0.12486555 -0.028517641 2.3509886e-38
-0.048278328 -0.11775221 -0.0015606061 2.3509886e-38
-0.046517849 -0.11775221 -0.0015606061 2.3509886e-38
-0.044702403 -0.11696436 0.0014251098 2.3509886e-38
-0.042947158 -0.11696436 0.0014251098 2.3509886e-38
-0.041146211 -0.11615516 0.0044917092 2.3509886e-38
-0.039396342 -0.11615516 0.0044917092 2.3509886e-38
-0.037681423 -0.11696436 0.0014251098 2.3509886e-38
-0.035926178 -0.11696436 0.0014251098 2.3509886e-38
-0.034194488 -0.11775221 -0.0015606061 2.3509886e-38
-0.032434009 -0.11775221 -0.0015606061 2.3509886e-38
-0.03067353 -0.11775221 -0.0015606061 2.3509886e-38
-0.029010218 -0.1275015 -0.038507022 2.3509886e-38
-0.02718496 -0.1275015 -0.038507022 2.3509886e-38
-0.025362328 -0.126711 -0.035511293 2.3509886e-38
-0.02356844 -0.12409012 -0.025579013 2.3509886e-38
-0.021779113 -0.12329166 -0.022553124 2.3509886e-38
-0.019981826 -0.12329166 -0.022553124 2.3509886e-38
-0.018255327 -0.12092416 -0.013581194 2.3509886e-38
-0.016473772 -0.12092416 -0.013581194 2.3509886e-38
-0.014794981 -0.11854477 -0.0045640841 2.3509886e-38
-0.013029234 -0.11854477 -0.0045640841 2.3509886e-38
-0.011308251 -0.11775221 -0.0015606061 2.3509886e-38
-0.0096485829 -0.11615516 0.0044917092 2.3509886e-38
-0.0080642411 -0.1137826 0.013482891 2.3509886e-38
-0.0063301371 -0.1137826 0.013482891 2.3509886e-38
-0.004596035 -0.1137826 0.013482891 2.3509886e-38
-0.0029099723 -0.11324702 0.015512548 2.3509886e-38
-0.0011794278 -0.11324702 0.015512548 2.3509886e-38
0.00055111665 -0.11324702 0.015512548 2.3509886e-38
0.0033829017 -0.12329166 -0.022553124 2.3509886e-38
0.0050878869 -0.12249784 -0.019544877 2.3509886e-38
0.0065872828 -0.12011738 -0.010523714 2.3509886e-38
0.0081597166 -0.11854477 -0.0045640841 2.3509886e-38
0.009817508 -0.11775221 -0.0015606061 2.3509886e-38
0.011465435 -0.11696436 0.0014251098 2.3509886e-38
0.013099705 -0.11615516 0.0044917092 2.3509886e-38
0.014603191 -0.11457725 0.010471366 2.3509886e-38
0.016342573 -0.11457725 0.010471366 2.3509886e-38
0.017947312 -0.1137826 0.013482891 2.3509886e-38
0.019681416 -0.1137826 0.013482891 2.3509886e-38
0.02141552 -0.1137826 0.013482891 2.3509886e-38
0.023300108 -0.11457725 0.010471366 2.3509886e-38
0.02503949 -0.11457725 0.010471366 2.3509886e-38
0.026778877 -0.11457725 0.010471366 2.3509886e-38
0.02851826 -0.11457725 0.010471366 2.3509886e-38
0.030257642 -0.11457725 0.010471366 2.3509886e-38
0.031997029 -0.11457725 0.010471366 2.3509886e-38
0.033736411 -0.11457725 0.010471366 2.3509886e-38
0.035664383 -0.11537679 0.0074414834 2.3509886e-38
0.037597854 -0.11615516 0.0044917092 2.3509886e-38
0.039549354 -0.11696436 0.0014251098 2.3509886e-38
0.041304599 -0.11696436 0.0014251098 2.3509886e-38
0.043059845 -0.11696436 0.0014251098 2.3509886e-38
0.04481509 -0.11696436 0.0014251098 2.3509886e-38
0.046570335 -0.11696436 0.0014251098 2.3509886e-38
0.048097063 -0.11615516 0.0044917092 2.3509886e-38
0.049846936 -0.11615516 0.0044917092 2.3509886e-38
0.051596802 -0.11615516 0.0044917092 2.3509886e-38
0.053346667 -0.11615516 0.0044917092 2.3509886e-38
0.05534656 -0.11696436 0.0014251098 2.3509886e-38
0.057101808 -0.11696436 0.0014251098 2.3509883e-38
0.058596276 -0.11615516 0.0044917092 2.3509163e-38
0.060346149 -0.11615516 0.0044917092 2.3508442e-38
0.061566554 -0.11457725 0.010471366 2.3508081e-38
0.063305937 -0.11457725 0.010471366 2.350988e-38
0.064768113 -0.1137826 0.013482891 2.3234379e-38
0.066502206 -0.1137826 0.013482891 2.2958873e-38
0.068236314 -0.1137826 0.013482891 2.2591531e-38
0.069970421 -0.1137826 0.013482891 2.2316024e-38
0.071704529 -0.1137826 0.013482891 2.2224189e-38
0.073438622 -0.1137826 0.013482891 2.2132353e-38
0.07517273 -0.1137826 0.013482891 2.1948682e-38
0.076906838 -0.1137826 0.013482891 2.1856847e-38
0.07864093 -0.1137826 0.013482891 2.0660115e-38
0.080375038 -0.1137826 0.013482891 2.1765011e-38
-0.089810826 -0.14898713 -0.11252109 2.0749038e-38
-0.087303288 -0.14632986 -0.1025174 2.1116749e-38
-0.085153207 -0.14527388 -0.098542012 2.1208945e-38
-0.083018549 -0.14422549 -0.094595231 2.1577363e-38
-0.0805934 -0.14155935 -0.084558167 2.2223086e-38
-0.078687392 -0.14155935 -0.084558167 2.3050683e-38
-0.076318152 -0.13891099 -0.074588098 2.3234354e-38
-0.074113309 -0.13703169 -0.067513265 2.350986e-38
-0.072110929 -0.13625093 -0.064573921 2.3326189e-38
-0.069825821 -0.13358103 -0.05452279 2.3509869e-38
-0.067695029 -0.13171287 -0.0474898 2.3509873e-38
-0.06585402 -0.13171287 -0.0474898 2.3509879e-38
-0.06390737 -0.13093217 -0.044550695 2.350988e-38
-0.061864886 -0.12932678 -0.038507022 2.350988e-38
-0.059942454 -0.12853102 -0.035511293 2.350988e-38
-0.058001794 -0.12748651 -0.031579055 2.3509879e-38
-0.05618868 -0.12748651 -0.031579055 2.350988e-38
-0.053803355 -0.12189357 -0.010523714 2.3509883e-38
-0.052027158 -0.12189357 -0.010523714 2.3509886e-38
-0.050323337 -0.12270571 -0.013581194 2.3509886e-38
-0.048278328 -0.11951269 -0.0015606061 2.3509886e-38
-0.046517849 -0.11951269 -0.0015606061 2.3509886e-38
-0.044702403 -0.11871959 0.0014251098 2.3509886e-38
-0.042947158 -0.11871959 0.0014251098 2.3509886e-38
-0.041146211 -0.11790501 0.0044917092 2.3509886e-38
-0.039396342 -0.11790501 0.0044917092 2.3509886e-38
-0.037681423 -0.11871959 0.0014251098 2.3509886e-38
-0.035926178 -0.11871959 0.0014251098 2.3509886e-38
-0.034170933 -0.11871959 0.0014251098 2.3509886e-38
-0.032415688 -0.11871959 0.0014251098 2.3509886e-38
-0.028852515 -0.11339863 0.021456622 2.3509886e-38
-0.027173627 -0.12589271 -0.025579013 2.3509886e-38
-0.025371034 -0.12589271 -0.025579013 2.3509886e-38
-0.02356844 -0.12589271 -0.025579013 2.3509886e-38
-0.02176585 -0.12589271 -0.025579013 2.3509886e-38
-0.019963257 -0.12589271 -0.025579013 2.3509886e-38
-0.018160664 -0.12589271 -0.025579013 2.3509886e-38
-0.01658969 -0.11951269 -0.0015606061 2.3509886e-38
-0.01482921 -0.11951269 -0.0015606061 2.3509886e-38
-0.013068731 -0.11951269 -0.0015606061 2.3509886e-38
-0.011352748 -0.11871959 0.0014251098 2.3509886e-38
-0.0097481841 -0.11631663 0.010471366 2.3509886e-38
-0.0080642411 -0.11551671 0.013482891 2.3509886e-38
-0.0063301371 -0.11551671 0.013482891 2.3509886e-38
-0.004596035 -0.11551671 0.013482891 2.3509886e-38
-0.0029099723 -0.11497755 0.015512548 2.3509886e-38
-0.0011794278 -0.11497755 0.015512548 2.3509886e-38
0.00055111665 -0.11497755 0.015512548 2.3509886e-38
0.0033829017 -0.12508895 -0.022553124 2.3509886e-38
0.0049961256 -0.12349547 -0.016554274 2.3509886e-38
0.0064887041 -0.12108628 -0.0074845925 2.3509886e-38
0.0081597166 -0.1203105 -0.0045640841 2.3509886e-38
0.009817508 -0.11951269 -0.0015606061 2.3509886e-38
0.011465435 -0.11871959 0.0014251098 2.3509886e-38
0.012983334 -0.11712147 0.0074414834 2.3509886e-38
0.014603191 -0.11631663 0.010471366 2.3509886e-38
0.016342573 -0.11631663 0.010471366 2.3509886e-38
0.018081956 -0.11631663 0.010471366 2.3509886e-38
0.019681416 -0.11551671 0.013482891 2.3509886e-38
0.02141552 -0.11551671 0.013482891 2.3509886e-38
0.023149621 -0.11551671 0.013482891 2.3509886e-38
0.024883725 -0.11551671 0.013482891 2.3509886e-38
0.026617829 -0.11551671 0.013482891 2.3509886e-38
0.028351933 -0.11551671 0.013482891 2.3509886e-38
0.030257642 -0.11631663 0.010471366 2.3509886e-38
0.031997029 -0.11631663 0.010471366 2.3509886e-38
0.033736411 -0.11631663 0.010471366 2.3509886e-38
0.035664383 -0.11712147 0.0074414834 2.3509886e-38
0.037597854 -0.11790501 0.0044917092 2.3509886e-38
0.039549354 -0.11871959 0.0014251098 2.3509886e-38
0.041097593 -0.11790501 0.0044917092 2.3509886e-38
0.042847458 -0.11790501 0.0044917092 2.3509886e-38
0.04481509 -0.11871959 0.0014251098 2.3509886e-38
0.046570335 -0.11871959 0.0014251098 2.3509886e-38
0.04832558 -0.11871959 0.0014251098 2.3509886e-38
0.050080825 -0.11871959 0.0014251098 2.3509886e-38
0.051596802 -0.11790501 0.0044917092 2.3509886e-38
0.053346667 -0.11790501 0.0044917092 2.3509886e-38
0.055096541 -0.11790501 0.0044917092 2.3509886e-38
0.056846403 -0.11790501 0.0044917092 2.3509521e-38
0.05834543 -0.11712147 0.0074414834 2.3509158e-38
0.059827171 -0.11631663 0.010471366 2.3509153e-38
0.061299898 -0.11551671 0.013482891 2.3508797e-38
0.063034005 -0.11551671 0.013482891 2.3418042e-38
0.064581282 -0.11497755 0.015512548 2.2958873e-38
0.066311829 -0.11497755 0.015512548 2.2224189e-38
0.068042375 -0.11497755 0.015512548 1.9091713e-38
0.069970421 -0.11551671 0.013482891 1.5867033e-38
0.071704529 -0.11551671 0.013482891 8.8605335e-39
0.073438622 -0.11551671 0.013482891 9.5984601e-39
0.07517273 -0.11551671 0.013482891 6.7403956e-39
0.076906838 -0.11551671 0.013482891 4.7117274e-39
0.07864093 -0.11551671 0.013482891 2.8667246e-39
0.080375038 -0.11551671 0.013482891 3.1433002e-39
-0.087303288 -0.14826734 -0.1025174 2.0932358e-38
-0.084942147 -0.14614908 -0.094595231 2.0840163e-38
-0.082858734 -0.14532293 -0.091505446 2.1300776e-38
-0.0805934 -0.14346536 -0.084558167 2.2130889e-38
-0.078541122 -0.1426542 -0.081524529 2.2958843e-38
-0.076457299 -0.1416003 -0.077582993 2.2958842e-38
-0.074250549 -0.13972856 -0.070582785 2.3142511e-38
-0.071937241 -0.13704078 -0.060530581 2.3142154e-38
-0.069825821 -0.13543437 -0.05452279 2.3418028e-38
-0.067695029 -0.13355388 -0.0474898 2.3417673e-38
-0.06585402 -0.13355388 -0.0474898 2.3417679e-38
-0.06390737 -0.13276802 -0.044550695 2.3509879e-38
-0.061762463 -0.13035102 -0.035511293 2.3509879e-38
-0.059942454 -0.13035102 -0.035511293 2.3509879e-38
-0.058001794 -0.1292996 -0.031579055 2.3509879e-38
-0.056100115 -0.12848105 -0.028517641 2.3509879e-38
-0.053803355 -0.12366976 -0.010523714 2.3509883e-38
-0.052027158 -0.12366976 -0.010523714 2.3509886e-38
-0.050109901 -0.12207626 -0.0045640841 2.3509886e-38
-0.048278328 -0.12127317 -0.0015606061 2.3509886e-38
-0.046517849 -0.12127317 -0.0015606061 2.3509886e-38
-0.044702403 -0.12047486 0.0014251098 2.3509886e-38
-0.042947158 -0.12047486 0.0014251098 2.3509886e-38
-0.041146211 -0.11965488 0.0044917092 2.3509886e-38
-0.039396342 -0.11965488 0.0044917092 2.3509886e-38
-0.037646472 -0.11965488 0.0044917092 2.3509886e-38
-0.035896603 -0.11965488 0.0044917092 2.3509886e-38
-0.034146737 -0.11965488 0.0044917092 2.3509886e-38
-0.032396868 -0.11965488 0.0044917092 2.3509886e-38
-0.030598693 -0.11670811 0.015512548 2.3509886e-38
-0.028852515 -0.11511876 0.021456622 2.3509886e-38
-0.027132392 -0.11511876 0.021456622 2.3509886e-38
-0.025368456 -0.12848105 -0.028517641 2.3509886e-38
-0.023560714 -0.12848105 -0.028517641 2.3509886e-38
-0.021752968 -0.12848105 -0.028517641 2.3509886e-38
-0.019945223 -0.12848105 -0.028517641 2.3509886e-38
-0.018350169 -0.12127317 -0.0015606061 2.3509886e-38
-0.01658969 -0.12127317 -0.0015606061 2.3509886e-38
-0.014863238 -0.12047486 0.0014251098 2.3509886e-38
-0.013107993 -0.12047486 0.0014251098 2.3509886e-38
-0.01139845 -0.11965488 0.0044917092 2.3509886e-38
-0.0097983452 -0.11725079 0.013482891 2.3509886e-38
-0.0081016077 -0.11670811 0.015512548 2.3509886e-38
-0.0063710632 -0.11670811 0.015512548 2.3509886e-38
-0.0046405187 -0.11670811 0.015512548 2.3509886e-38
-0.0029805331 -0.11591102 0.018493555 2.3509886e-38
-0.0012552151 -0.11591102 0.018493555 2.3509886e-38
0.00047010276 -0.11591102 0.018493555 2.3509886e-38
0.0031233439 -0.1244873 -0.013581194 2.3509886e-38
0.0049049007 -0.1244873 -0.013581194 2.3509886e-38
0.0064887041 -0.12285714 -0.0074845925 2.3509886e-38
0.008057029 -0.12127317 -0.0015606061 2.3509886e-38
0.0097101899 -0.12047486 0.0014251098 2.3509886e-38
0.011349835 -0.11965488 0.0044917092 2.3509886e-38
0.012983334 -0.11886616 0.0074414834 2.3509886e-38
0.014603191 -0.11805601 0.010471366 2.3509886e-38
0.016342573 -0.11805601 0.010471366 2.3509886e-38
0.018081956 -0.11805601 0.010471366 2.3509886e-38
0.019681416 -0.11725079 0.013482891 2.3509886e-38
0.02141552 -0.11725079 0.013482891 2.3509886e-38
0.023149621 -0.11725079 0.013482891 2.3509886e-38
0.024883725 -0.11725079 0.013482891 2.3509886e-38
0.026617829 -0.11725079 0.013482891 2.3509886e-38
0.028351933 -0.11725079 0.013482891 2.3509886e-38
0.030257642 -0.11805601 0.010471366 2.3509886e-38
0.031997029 -0.11805601 0.010471366 2.3509886e-38
0.033736411 -0.11805601 0.010471366 2.3509886e-38
0.035664383 -0.11886616 0.0074414834 2.3509886e-38
0.037409078 -0.11886616 0.0074414834 2.3509886e-38
0.039549354 -0.12047486 0.0014251098 2.3509886e-38
0.041097593 -0.11965488 0.0044917092 2.3509886e-38
0.042847458 -0.11965488 0.0044917092 2.3509886e-38
0.04481509 -0.12047486 0.0014251098 2.3509886e-38
0.046570335 -0.12047486 0.0014251098 2.3509886e-38
0.048097063 -0.11965488 0.0044917092 2.3509886e-38
0.049846936 -0.11965488 0.0044917092 2.3509886e-38
0.051596802 -0.11965488 0.0044917092 2.3509886e-38
0.053346667 -0.11965488 0.0044917092 2.3509886e-38
0.055096541 -0.11965488 0.0044917092 2.3509886e-38
0.056846403 -0.11965488 0.0044917092 2.350988e-38
0.05834543 -0.11886616 0.0074414834 2.3509517e-38
0.059827171 -0.11805601 0.010471366 2.3508431e-38
0.061299898 -0.11725079 0.013482891 2.3509874e-38
0.063034005 -0.11725079 0.013482891 2.3234372e-38
0.064581282 -0.11670811 0.015512548 2.2867037e-38
0.066032194 -0.11591102 0.018493555 2.121148e-38
0.06775751 -0.11591102 0.018493555 1.7709855e-38
0.069772907 -0.11670811 0.015512548 1.4761404e-38
0.071503453 -0.11670811 0.015512548 6.0950247e-39
0.073233999 -0.11670811 0.015512548 6.0961051e-39
0.074964546 -0.11670811 0.015512548 1.3941266e-39
0.076695092 -0.11670811 0.015512548 3.329509e-39
0.078425638 -0.11670811 0.015512548 2.1302357e-39
0.080156185 -0.11670811 0.015512548 1.2079081e-39
-0.084776916 -0.1472411 -0.091505446 2.0932716e-38
-0.082858734 -0.1472411 -0.091505446 2.1393328e-38
-0.0805934 -0.14537133 -0.084558167 2.222344e-38
-0.078541122 -0.14455487 -0.081524529 2.3142516e-38
-0.076457299 -0.14349405 -0.077582993 2.314251e-38
-0.074250549 -0.14161004 -0.070582785 2.332618e-38
-0.071937241 -0.13890465 -0.060530581 2.3326182e-38
-0.069949247 -0.13809387 -0.057518162 2.3418022e-38
-0.067854986 -0.13648613 -0.051544346 2.3418028e-38
-0.06585402 -0.13539489 -0.0474898 2.3417676e-38
-0.063798442 -0.13378824 -0.041520156 2.3509874e-38
-0.061762463 -0.13217102 -0.035511293 2.3509876e-38
-0.059814908 -0.13111271 -0.031579055 2.3509876e-38
-0.057817694 -0.1294979 -0.025579013 2.3509876e-38
-0.05592756 -0.12868352 -0.022553124 2.3418042e-38
-0.053803355 -0.12544595 -0.010523714 2.3509883e-38
-0.052027158 -0.12544595 -0.010523714 2.3509886e-38
-0.050109901 -0.12384202 -0.0045640841 2.3509886e-38
-0.048278328 -0.12303366 -0.0015606061 2.3509886e-38
-0.046517849 -0.12303366 -0.0015606061 2.3509886e-38
-0.044702403 -0.1222301 0.0014251098 2.3509886e-38
-0.042947158 -0.1222301 0.0014251098 2.3509886e-38
-0.041146211 -0.12140475 0.0044917092 2.3509886e-38
-0.03935755 -0.12061088 0.0074414834 2.3509886e-38
-0.037612855 -0.12061088 0.0074414834 2.3509886e-38
-0.03586816 -0.12061088 0.0074414834 2.3509886e-38
-0.034146737 -0.12140475 0.0044917092 2.3509886e-38
-0.032396868 -0.12140475 0.0044917092 2.3509886e-38
-0.030598693 -0.11843865 0.015512548 2.3509886e-38
-0.028852515 -0.11683889 0.021456622 2.3509886e-38
-0.027132392 -0.11683889 0.021456622 2.3509886e-38
-0.025409669 -0.11763634 0.018493555 2.3509886e-38
-0.023684353 -0.11763634 0.018493555 2.3509886e-38
-0.021752968 -0.13028879 -0.028517641 2.3509886e-38
-0.019945223 -0.13028879 -0.028517641 2.3509886e-38
-0.018350169 -0.12303366 -0.0015606061 2.3509886e-38
-0.01658969 -0.12303366 -0.0015606061 2.3509886e-38
-0.014863238 -0.1222301 0.0014251098 2.3509886e-38
-0.013107993 -0.1222301 0.0014251098 2.3509886e-38
-0.01139845 -0.12140475 0.0044917092 2.3509886e-38
-0.0097983452 -0.11898489 0.013482891 2.3509886e-38
-0.0082110381 -0.11683889 0.021456622 2.3509886e-38
-0.0064909151 -0.11683889 0.021456622 2.3509886e-38
-0.004705851 -0.11763634 0.018493555 2.3509886e-38
-0.0030506691 -0.11683889 0.021456622 2.3509886e-38
-0.0013305461 -0.11683889 0.021456622 2.3509886e-38
0.00038957689 -0.11683889 0.021456622 2.3509886e-38
0.0021096999 -0.11683889 0.021456622 2.3509886e-38
0.0049049007 -0.12626885 -0.013581194 2.3509886e-38
0.00639397 -0.12384202 -0.0045640841 2.3509886e-38
0.008057029 -0.12303366 -0.0015606061 2.3509886e-38
0.0097101899 -0.1222301 0.0014251098 2.3509886e-38
0.011349835 -0.12140475 0.0044917092 2.3509886e-38
0.012983334 -0.12061088 0.0074414834 2.3509886e-38
0.014603191 -0.1197954 0.010471366 2.3509886e-38
0.016213208 -0.11898489 0.013482891 2.3509886e-38
0.017947312 -0.11898489 0.013482891 2.3509886e-38
0.019681416 -0.11898489 0.013482891 2.3509886e-38
0.02141552 -0.11898489 0.013482891 2.3509886e-38
0.023149621 -0.11898489 0.013482891 2.3509886e-38
0.024778746 -0.11843865 0.015512548 2.3509886e-38
0.026509289 -0.11843865 0.015512548 2.3509886e-38
0.028351933 -0.11898489 0.013482891 2.3509886e-38
0.030086037 -0.11898489 0.013482891 2.3509886e-38
0.031820141 -0.11898489 0.013482891 2.3509886e-38
0.033736411 -0.1197954 0.010471366 2.3509886e-38
0.035664383 -0.12061088 0.0074414834 2.3509886e-38
0.037409078 -0.12061088 0.0074414834 2.3509886e-38
0.039549354 -0.1222301 0.0014251098 2.3509886e-38
0.041097593 -0.12140475 0.0044917092 2.3509886e-38
0.042847458 -0.12140475 0.0044917092 2.3509886e-38
0.04481509 -0.1222301 0.0014251098 2.3509886e-38
0.046570335 -0.1222301 0.0014251098 2.3509886e-38
0.048097063 -0.12140475 0.0044917092 2.3509886e-38
0.049846936 -0.12140475 0.0044917092 2.3509886e-38
0.051596802 -0.12140475 0.0044917092 2.3509886e-38
0.053346667 -0.12140475 0.0044917092 2.3509886e-38
0.055096541 -0.12140475 0.0044917092 2.3509886e-38
0.056846403 -0.12140475 0.0044917092 2.3509883e-38
0.058596276 -0.12140475 0.0044917092 2.350988e-38
0.059827171 -0.1197954 0.010471366 2.3418042e-38
0.061566554 -0.1197954 0.010471366 2.2681916e-38
0.063034005 -0.11898489 0.013482891 2.2591519e-38
0.064768113 -0.11898489 0.013482891 2.2775202e-38
0.066032194 -0.11763634 0.018493555 2.2499695e-38
0.06775751 -0.11763634 0.018493555 2.1672817e-38
0.069772907 -0.11843865 0.015512548 2.075231e-38
0.071503453 -0.11843865 0.015512548 2.0292415e-38
0.073233999 -0.11843865 0.015512548 1.8541425e-38
0.074964546 -0.11843865 0.015512548 1.1995535e-38
0.076695092 -0.11843865 0.015512548 6.2794034e-39
0.078425638 -0.11843865 0.015512548 1.6699736e-39
-0.084776916 -0.1491593 -0.091505446 2.0748324e-38
-0.082858734 -0.1491593 -0.091505446 2.1393325e-38
-0.0805934 -0.14727734 -0.084558167 2.2223438e-38
-0.078541122 -0.14645557 -0.081524529 2.3050676e-38
-0.076457299 -0.14538784 -0.077582993 2.305067e-38
-0.074250549 -0.14349155 -0.070582785 2.3326177e-38
-0.072110929 -0.14186381 -0.064573921 2.332618e-38
-0.069949247 -0.13995247 -0.057518162 2.3418021e-38
-0.067695029 -0.13723589 -0.0474898 2.3418025e-38
-0.06574323 -0.13643973 -0.044550695 2.3509869e-38
-0.063798442 -0.13561879 -0.041520156 2.3509872e-38
-0.061762463 -0.13399105 -0.035511293 2.3509874e-38
-0.059814908 -0.13292582 -0.031579055 2.3509874e-38
-0.057817694 -0.13130049 -0.025579013 2.3325843e-38
-0.055840533 -0.1296659 -0.019544877 2.3325843e-38
-0.053803355 -0.12722217 -0.010523714 2.3509883e-38
-0.052027158 -0.12722217 -0.010523714 2.3509886e-38
-0.050109901 -0.12560774 -0.0045640841 2.3509886e-38
-0.048278328 -0.12479414 -0.0015606061 2.3509886e-38
-0.046517849 -0.12479414 -0.0015606061 2.3509886e-38
-0.044702403 -0.12398534 0.0014251098 2.3509886e-38
-0.042947158 -0.12398534 0.0014251098 2.3509886e-38
-0.041146211 -0.12315463 0.0044917092 2.3509886e-38
-0.039317708 -0.12153481 0.010471366 2.3509886e-38
-0.037578326 -0.12153481 0.010471366 2.3509886e-38
-0.035838939 -0.12153481 0.010471366 2.3509886e-38
-0.034099557 -0.12153481 0.010471366 2.3509886e-38
-0.032360174 -0.12153481 0.010471366 2.3509886e-38
-0.030598693 -0.12016918 0.015512548 2.3509886e-38
-0.028852515 -0.11855899 0.021456622 2.3509886e-38
-0.027132392 -0.11855899 0.021456622 2.3509886e-38
-0.025412269 -0.11855899 0.021456622 2.3509886e-38
-0.023692146 -0.11855899 0.021456622 2.3509886e-38
-0.021972023 -0.11855899 0.021456622 2.3509886e-38
-0.0203012 -0.11638273 0.029490374 2.3509886e-38
-0.01855576 -0.11773549 0.024496637 2.3509886e-38
-0.016840968 -0.11773549 0.024496637 2.3509886e-38
-0.015307734 -0.11341999 0.040427409 2.3509886e-38
-0.013187108 -0.12235557 0.0074414834 2.3509886e-38
-0.011442412 -0.12235557 0.0074414834 2.3509886e-38
-0.0099311611 -0.11855899 0.021456622 2.3509886e-38
-0.0083589396 -0.11638273 0.029490374 2.3509886e-38
-0.0066529019 -0.11638273 0.029490374 2.3509886e-38
-0.0049015703 -0.11694257 0.027423702 2.3509886e-38
-0.0031226268 -0.11773549 0.024496637 2.3509886e-38
-0.0014078328 -0.11773549 0.024496637 2.3509886e-38
0.00038957689 -0.11855899 0.021456622 2.3509886e-38
0.0021096999 -0.11855899 0.021456622 2.3509886e-38
0.004536069 -0.12479414 -0.0015606061 2.3509886e-38
0.0062965499 -0.12479414 -0.0015606061 2.3509886e-38
0.0079549449 -0.12398534 0.0014251098 2.3509886e-38
0.0097101899 -0.12398534 0.0014251098 2.3509886e-38
0.011349835 -0.12315463 0.0044917092 2.3509886e-38
0.012863805 -0.12153481 0.010471366 2.3509886e-38
0.014479105 -0.120719 0.013482891 2.3509886e-38
0.016213208 -0.120719 0.013482891 2.3509886e-38
0.017947312 -0.120719 0.013482891 2.3509886e-38
0.019587111 -0.12016918 0.015512548 2.3509886e-38
0.021317657 -0.12016918 0.015512548 2.3509886e-38
0.0230482 -0.12016918 0.015512548 2.3509886e-38
0.024778746 -0.12016918 0.015512548 2.3509886e-38
0.026509289 -0.12016918 0.015512548 2.3509886e-38
0.028239835 -0.12016918 0.015512548 2.3509886e-38
0.029970381 -0.12016918 0.015512548 2.3509886e-38
0.031700924 -0.12016918 0.015512548 2.3509886e-38
0.03343147 -0.12016918 0.015512548 2.3509886e-38
0.035664383 -0.12235557 0.0074414834 2.3509886e-38
0.037409078 -0.12235557 0.0074414834 2.3509886e-38
0.039745662 -0.12479414 -0.0015606061 2.3509886e-38
0.041506145 -0.12479414 -0.0015606061 2.3509886e-38
0.043266628 -0.12479414 -0.0015606061 2.3509886e-38
0.041831452 -0.11260332 0.043442212 2.3509886e-38
0.046570335 -0.12398534 0.0014251098 2.3509886e-38
0.04832558 -0.12398534 0.0014251098 2.3509886e-38
0.050080825 -0.12398534 0.0014251098 2.3509886e-38
0.051596802 -0.12315463 0.0044917092 2.3509886e-38
0.053346667 -0.12315463 0.0044917092 2.3509886e-38
0.055096541 -0.12315463 0.0044917092 2.3509886e-38
0.057101808 -0.12398534 0.0014251098 2.3234379e-38
0.058857046 -0.12398534 0.0014251098 2.2867037e-38
0.060612299 -0.12398534 0.0014251098 2.2683366e-38
0.062367536 -0.12398534 0.0014251098 2.2591531e-38
0.064122789 -0.12398534 0.0014251098 2.2775197e-38
0.064306878 -0.11936165 0.018493555 2.2867032e-38
0.066032194 -0.11936165 0.018493555 2.2867032e-38
0.06775751 -0.11936165 0.018493555 2.2867032e-38
0.069772907 -0.12016918 0.015512548 2.2775202e-38
0.069822527 -0.11557265 0.032480799 2.2591531e-38
0.071523316 -0.11557265 0.032480799 2.2316024e-38
0.073742814 -0.11694257 0.027423702 2.093562e-38
0.075452484 -0.11694257 0.027423702 1.5221292e-38
0.078425638 -0.12016918 0.015512548 1.0428558e-38
-0.0805934 -0.14918335 -0.084558167 2.2131239e-38
-0.078541122 -0.14835624 -0.081524529 2.2866999e-38
-0.076457299 -0.1472816 -0.077582993 2.2866994e-38
-0.074250549 -0.14537306 -0.070582785 2.3050663e-38
-0.072110929 -0.14373477 -0.064573921 2.323434e-38
-0.069949247 -0.14181106 -0.057518162 2.3326181e-38
-0.067695029 -0.1390769 -0.0474898 2.3418022e-38
-0.06574323 -0.13827558 -0.044550695 2.3509867e-38
-0.063798442 -0.13744931 -0.041520156 2.350987e-38
-0.061762463 -0.13581105 -0.035511293 2.3509873e-38
-0.059715603 -0.13390426 -0.028517641 2.3509872e-38
-0.057724848 -0.1322781 -0.022553124 2.3509873e-38
-0.055754013 -0.13064255 -0.016554274 2.3509876e-38
-0.053803355 -0.12899835 -0.010523714 2.3509883e-38
-0.052027158 -0.12899835 -0.010523714 2.3509886e-38
-0.050109901 -0.1273735 -0.0045640841 2.3509886e-38
-0.048278328 -0.12655462 -0.0015606061 2.3509886e-38
-0.046457648 -0.12574057 0.0014251098 2.3509886e-38
-0.044645946 -0.1249045 0.0044917092 2.3509886e-38
-0.042896077 -0.1249045 0.0044917092 2.3509886e-38
-0.041102249 -0.12410025 0.0074414834 2.3509886e-38
-0.039317708 -0.12327419 0.010471366 2.3509886e-38
-0.037544005 -0.12245311 0.013482891 2.3509886e-38
-0.035809901 -0.12245311 0.013482891 2.3509886e-38
-0.034059782 -0.12189974 0.015512548 2.3509886e-38
-0.032329235 -0.12189974 0.015512548 2.3509886e-38
-0.030585624 -0.12108697 0.018493555 2.3509886e-38
-0.02884452 -0.11945029 0.024496637 2.3509886e-38
-0.027129725 -0.11945029 0.024496637 2.3509886e-38
-0.025414933 -0.11945029 0.024496637 2.3509886e-38
-0.023713272 -0.11808877 0.029490374 2.3509886e-38
