# .PCD v0.7 - Point Cloud Data file format
VERSION 0.7
FIELDS x y z rgb
SIZE 4 4 4 4
TYPE F F F F
COUNT 1 1 1 1
WIDTH 945
HEIGHT 1
VIEWPOINT 0 0 0 1 0 0 0
POINTS 945
DATA ascii
0.038605046 -0.13460387 0.0076189674 2.3418033e-38
0.040440902 -0.13460387 0.0076189674 2.341804e-38
0.042428777 -0.13539489 0.0046798624 2.3418047e-38
0.044269785 -0.13539489 0.0046798624 2.341805e-38
0.046110794 -0.13539489 0.0046798624 2.3233662e-38
0.048182845 -0.13648613 0.00062531605 2.3509886e-38
0.050030965 -0.13648613 0.00062531605 2.3509886e-38
0.051879082 -0.13648613 0.00062531605 2.3509886e-38
0.053727198 -0.13648613 0.00062531605 2.3509886e-38
0.055765931 -0.13728772 -0.002353128 2.3509886e-38
0.05761927 -0.13728772 -0.002353128 2.3509886e-38
0.059472609 -0.13728772 -0.002353128 2.3509886e-38
0.061325949 -0.13728772 -0.002353128 2.3509886e-38
0.063179284 -0.13728772 -0.002353128 2.3509886e-38
0.065032624 -0.13728772 -0.002353128 2.3509886e-38
0.066885963 -0.13728772 -0.002353128 2.3509886e-38
0.06896776 -0.13809387 -0.0053484999 2.3509886e-38
0.071061395 -0.13890465 -0.0083609186 2.3509886e-38
0.07292527 -0.13890465 -0.0083609186 2.3509886e-38
0.074789152 -0.13890465 -0.0083609186 2.3509886e-38
0.076989755 -0.13999285 -0.012404259 2.3509883e-38
0.07886073 -0.13999285 -0.012404259 2.3049624e-38
0.08073169 -0.13999285 -0.012404259 2.2588643e-38
0.082862914 -0.14078392 -0.015343603 2.1852159e-38
0.085016191 -0.14161004 -0.018413123 1.9547632e-38
0.086897701 -0.14161004 -0.018413123 1.9547634e-38
0.088779196 -0.14161004 -0.018413123 1.8442729e-38
0.091043428 -0.14268802 -0.022418436 1.8442729e-38
0.092931941 -0.14268802 -0.022418436 1.7152351e-38
0.09482047 -0.14268802 -0.022418436 1.7614407e-38
0.096708983 -0.14268802 -0.022418436 1.733782e-38
0.098597512 -0.14268802 -0.022418436 1.6877558e-38
0.10048604 -0.14268802 -0.022418436 1.6693523e-38
0.10269225 -0.14349405 -0.025413331 1.6692804e-38
0.10458602 -0.14349405 -0.025413331 1.650841e-38
0.10647979 -0.14349405 -0.025413331 1.6599883e-38
0.10881239 -0.14455487 -0.029354867 1.6416214e-38
0.11071308 -0.14455487 -0.029354867 1.6785719e-38
0.11296216 -0.14537133 -0.032388505 1.6601327e-38
0.11486815 -0.14537133 -0.032388505 1.641622e-38
0.11677416 -0.14537133 -0.032388505 1.5955242e-38
0.11831582 -0.14455487 -0.029354867 1.6137835e-38
0.12021649 -0.14455487 -0.029354867 1.5123323e-38
0.12211718 -0.14455487 -0.029354867 1.2356375e-38
0.12439817 -0.14537133 -0.032388505 2.2141371e-39
0.12630416 -0.14537133 -0.032388505 1.7520827e-39
-0.12368295 -0.14807184 -0.035321411 9.6808943e-39
-0.12147611 -0.14727734 -0.032388505 1.0418103e-38
-0.11858244 -0.14457656 -0.022418436 1.9085211e-38
-0.11669393 -0.14457656 -0.022418436 2.2312058e-38
-0.11442268 -0.14349155 -0.018413123 2.332621e-38
-0.11197752 -0.14186381 -0.012404259 2.3509886e-38
-0.10973437 -0.14076851 -0.0083609186 2.3233299e-38
-0.10759848 -0.13995247 -0.0053484999 2.3509527e-38
-0.10547467 -0.13914107 -0.002353128 2.3509527e-38
-0.10336283 -0.13833423 0.00062531605 2.3324775e-38
-0.10116993 -0.13723589 0.0046798624 2.3509527e-38
-0.098831743 -0.13561879 0.010649506 2.3509886e-38
-0.096755549 -0.13480256 0.01366264 2.3509886e-38
-0.094133362 -0.13209651 0.023652021 2.3509886e-38
-0.092096344 -0.13130049 0.026590649 2.3509886e-38
-0.090062961 -0.13048081 0.029616538 2.3509886e-38
-0.088041514 -0.1296659 0.032624785 2.3509886e-38
-0.086249501 -0.1296659 0.032624785 2.3509886e-38
-0.08424513 -0.12885578 0.035615388 2.3509886e-38
-0.082252458 -0.1280504 0.038588468 2.3509886e-38
-0.080264509 -0.12722217 0.041645948 2.3509886e-38
-0.078288481 -0.12639888 0.044685069 2.3509886e-38
-0.076330721 -0.12560774 0.047605578 2.3509886e-38
-0.074378029 -0.12479414 0.050609056 2.3509886e-38
-0.072436944 -0.12398534 0.053594772 2.3509886e-38
-0.070681691 -0.12398534 0.053594772 2.3509886e-38
-0.068926454 -0.12398534 0.053594772 2.3509886e-38
-0.067171201 -0.12398534 0.053594772 2.3509886e-38
-0.065251969 -0.12315463 0.056661371 2.3509886e-38
-0.063502103 -0.12315463 0.056661371 2.3509886e-38
-0.06175223 -0.12315463 0.056661371 2.3509886e-38
-0.05986014 -0.12235557 0.059611145 2.3509886e-38
-0.058115438 -0.12235557 0.059611145 2.3509886e-38
-0.056370743 -0.12235557 0.059611145 2.341805e-38
-0.054495893 -0.12153481 0.062641025 2.341805e-38
-0.052756511 -0.12153481 0.062641025 2.341805e-38
-0.051017124 -0.12153481 0.062641025 2.341805e-38
-0.049391959 -0.12235557 0.059611145 2.3326213e-38
-0.047753286 -0.12315463 0.056661371 2.341805e-38
-0.04600342 -0.12315463 0.056661371 2.3234379e-38
-0.044353019 -0.12398534 0.053594772 2.3234379e-38
-0.042597778 -0.12398534 0.053594772 2.3050347e-38
-0.040928908 -0.12479414 0.050609056 2.2958507e-38
-0.039250053 -0.12560774 0.047605578 2.3234374e-38
-0.037484307 -0.12560774 0.047605578 2.3234372e-38
-0.035647467 -0.12479414 0.050609056 2.2958504e-38
-0.033886988 -0.12479414 0.050609056 2.2774113e-38
-0.032126509 -0.12479414 0.050609056 2.268192e-38
-0.03036603 -0.12479414 0.050609056 2.2681564e-38
-0.028605551 -0.12479414 0.050609056 2.2865958e-38
-0.026845068 -0.12479414 0.050609056 2.3050349e-38
-0.025084589 -0.12479414 0.050609056 2.2036197e-38
-0.023358338 -0.12560774 0.047605578 2.1390828e-38
-0.021620758 -0.12639888 0.044685069 2.1022043e-38
-0.019873869 -0.12722217 0.041645948 2.1298986e-38
-0.018097673 -0.12722217 0.041645948 2.1852155e-38
-0.01632148 -0.12722217 0.041645948 2.2405685e-38
-0.014545283 -0.12722217 0.041645948 2.2958856e-38
-0.012771769 -0.1280504 0.038588468 2.3234364e-38
-0.010990213 -0.1280504 0.038588468 2.3050686e-38
-0.0092086578 -0.1280504 0.038588468 2.2958846e-38
-0.007427101 -0.1280504 0.038588468 2.2867006e-38
-0.0056273006 -0.12885578 0.035615388 2.2775169e-38
-0.0038169362 -0.1296659 0.032624785 2.2682974e-38
-0.0020249235 -0.1296659 0.032624785 2.2682972e-38
-0.00023291074 -0.1296659 0.032624785 2.2775168e-38
0.001559101 -0.1296659 0.032624785 2.2775165e-38
0.0033959467 -0.13048081 0.029616538 2.2406741e-38
0.0051932326 -0.13048081 0.029616538 2.1853565e-38
0.0069905194 -0.13048081 0.029616538 2.1300391e-38
0.008848819 -0.13130049 0.026590649 2.1208193e-38
0.010651411 -0.13130049 0.026590649 2.1208193e-38
0.012454002 -0.13130049 0.026590649 2.1023801e-38
0.014256596 -0.13130049 0.026590649 2.0470628e-38
0.016139049 -0.13209651 0.023652021 1.9917454e-38
0.017946795 -0.13209651 0.023652021 2.0653943e-38
0.019848473 -0.13292582 0.020590607 2.0561747e-38
0.021789134 -0.13399105 0.016658369 2.0377712e-38
0.023609143 -0.13399105 0.016658369 2.019332e-38
0.025536824 -0.13480256 0.01366264 2.0377709e-38
0.027362082 -0.13480256 0.01366264 2.1023078e-38
0.029187344 -0.13480256 0.01366264 2.2129426e-38
0.031012602 -0.13480256 0.01366264 2.2866991e-38
0.03283786 -0.13480256 0.01366264 2.3142507e-38
0.03479784 -0.13561879 0.010649506 2.3326187e-38
0.036769189 -0.13643973 0.0076189674 2.3418031e-38
0.038605046 -0.13643973 0.0076189674 2.3418035e-38
0.040440902 -0.13643973 0.0076189674 2.3418043e-38
0.042276755 -0.13643973 0.0076189674 2.3418047e-38
0.044269785 -0.13723589 0.0046798624 2.341805e-38
0.046110794 -0.13723589 0.0046798624 2.3325856e-38
0.048182845 -0.13833423 0.00062531605 2.3509886e-38
0.050030965 -0.13833423 0.00062531605 2.3509886e-38
0.051879082 -0.13833423 0.00062531605 2.3509886e-38
0.053727198 -0.13833423 0.00062531605 2.3509886e-38
0.055765931 -0.13914107 -0.002353128 2.3509886e-38
0.05761927 -0.13914107 -0.002353128 2.3509886e-38
0.059472609 -0.13914107 -0.002353128 2.3509886e-38
0.061325949 -0.13914107 -0.002353128 2.3509886e-38
0.063179284 -0.13914107 -0.002353128 2.3509886e-38
0.065032624 -0.13914107 -0.002353128 2.3509886e-38
0.066885963 -0.13914107 -0.002353128 2.3509886e-38
0.06896776 -0.13995247 -0.0053484999 2.3509886e-38
0.071061395 -0.14076851 -0.0083609186 2.3509886e-38
0.07292527 -0.14076851 -0.0083609186 2.3509886e-38
0.075118795 -0.14186381 -0.012404259 2.3509886e-38
0.076989755 -0.14186381 -0.012404259 2.3509883e-38
0.07886073 -0.14186381 -0.012404259 2.3418042e-38
0.08073169 -0.14186381 -0.012404259 2.2681193e-38
0.082862914 -0.14266007 -0.015343603 2.1852155e-38
0.085016191 -0.14349155 -0.018413123 1.9547985e-38
0.086897701 -0.14349155 -0.018413123 1.9455436e-38
0.088779196 -0.14349155 -0.018413123 1.8258335e-38
0.091043428 -0.14457656 -0.022418436 1.8258337e-38
0.092931941 -0.14457656 -0.022418436 1.7152709e-38
0.09482047 -0.14457656 -0.022418436 1.6969039e-38
0.096708983 -0.14457656 -0.022418436 1.669317e-38
0.098597512 -0.14457656 -0.022418436 1.6324384e-38
0.10048604 -0.14457656 -0.022418436 1.6140349e-38
0.10269225 -0.14538784 -0.025413331 1.6232545e-38
0.10458602 -0.14538784 -0.025413331 1.6509129e-38
0.10647979 -0.14538784 -0.025413331 1.6785353e-38
0.10837357 -0.14538784 -0.025413331 1.6784997e-38
0.11071308 -0.14645557 -0.029354867 1.6693523e-38
0.11261377 -0.14645557 -0.029354867 1.6048877e-38
0.11486815 -0.14727734 -0.032388505 1.5863406e-38
0.11677416 -0.14727734 -0.032388505 1.5678655e-38
0.11784242 -0.14538784 -0.025413331 1.6137835e-38
0.11973619 -0.14538784 -0.025413331 1.539991e-38
0.12211718 -0.14645557 -0.029354867 1.2816997e-38
0.12401786 -0.14645557 -0.029354867 2.7676738e-39
-0.12368295 -0.14998297 -0.035321411 8.3901554e-39
-0.12147611 -0.14918335 -0.032388505 9.772734e-39
-0.11858244 -0.14646508 -0.022418436 1.9453994e-38
-0.11669393 -0.14646508 -0.022418436 2.2127667e-38
-0.11442268 -0.14537306 -0.018413123 2.3234015e-38
-0.11197752 -0.14373477 -0.012404259 2.3509886e-38
-0.10973437 -0.14263238 -0.0083609186 2.3325494e-38
-0.10759848 -0.14181106 -0.0053484999 2.3509527e-38
-0.10547467 -0.14099441 -0.002353128 2.3509527e-38
-0.10301094 -0.1390769 0.0046798624 2.3416971e-38
-0.10091999 -0.13827558 0.0076189674 2.3509527e-38
-0.098580807 -0.13662781 0.01366264 2.3509886e-38
-0.096511304 -0.13581105 0.016658369 2.3509886e-38
-0.094133362 -0.13390426 0.023652021 2.3509886e-38
-0.092096344 -0.13310309 0.026590649 2.3509886e-38
-0.090062961 -0.1322781 0.029616538 2.3509886e-38
-0.088041514 -0.13145791 0.032624785 2.3509886e-38
-0.086249501 -0.13145791 0.032624785 2.3509886e-38
-0.08424513 -0.13064255 0.035615388 2.3509886e-38
-0.082040697 -0.12899835 0.041645948 2.3509886e-38
-0.08005935 -0.12816976 0.044685069 2.3509886e-38
-0.078096464 -0.1273735 0.047605578 2.3509886e-38
-0.076138511 -0.12655462 0.050609056 2.3509886e-38
-0.074192181 -0.12574057 0.053594772 2.3509886e-38
-0.072436944 -0.12574057 0.053594772 2.3509886e-38
-0.070501573 -0.1249045 0.056661371 2.3509886e-38
-0.068751708 -0.1249045 0.056661371 2.3509886e-38
-0.067001835 -0.1249045 0.056661371 2.3509886e-38
-0.065094225 -0.12410025 0.059611145 2.3509886e-38
-0.06334953 -0.12410025 0.059611145 2.3509886e-38
-0.061604828 -0.12410025 0.059611145 2.3509886e-38
-0.05986014 -0.12410025 0.059611145 2.3509886e-38
-0.058115438 -0.12410025 0.059611145 2.3509886e-38
-0.056235276 -0.12327419 0.062641025 2.341805e-38
-0.054495893 -0.12327419 0.062641025 2.341805e-38
-0.052756511 -0.12327419 0.062641025 2.341805e-38
-0.051017124 -0.12327419 0.062641025 2.341805e-38
-0.049391959 -0.12410025 0.059611145 2.341805e-38
-0.047647264 -0.12410025 0.059611145 2.341805e-38
-0.04600342 -0.1249045 0.056661371 2.3234379e-38
-0.04425355 -0.1249045 0.056661371 2.3234379e-38
-0.042597778 -0.12574057 0.053594772 2.3050347e-38
-0.040842533 -0.12574057 0.053594772 2.2866311e-38
-0.039168429 -0.12655462 0.050609056 2.2866308e-38
-0.03740795 -0.12655462 0.050609056 2.2037267e-38
-0.035647467 -0.12655462 0.050609056 2.09302e-38
-0.033886988 -0.12655462 0.050609056 1.9916411e-38
-0.032126509 -0.12655462 0.050609056 1.9731304e-38
-0.03036603 -0.12655462 0.050609056 1.9824221e-38
-0.028605551 -0.12655462 0.050609056 2.0376679e-38
-0.026845068 -0.12655462 0.050609056 2.0653626e-38
-0.025084589 -0.12655462 0.050609056 2.092985e-38
-0.023358338 -0.1273735 0.047605578 2.0746175e-38
-0.021620758 -0.12816976 0.044685069 2.0930203e-38
-0.019873869 -0.12899835 0.041645948 2.1391897e-38
-0.018097673 -0.12899835 0.041645948 2.2221294e-38
-0.01632148 -0.12899835 0.041645948 2.2682988e-38
-0.014545283 -0.12899835 0.041645948 2.3142527e-38
-0.012769089 -0.12899835 0.041645948 2.323436e-38
-0.010990213 -0.12983195 0.038588468 2.2867009e-38
-0.0092086578 -0.12983195 0.038588468 2.2682974e-38
-0.007427101 -0.12983195 0.038588468 2.2406385e-38
-0.0056273006 -0.13064255 0.035615388 2.2129799e-38
-0.0038169362 -0.13145791 0.032624785 2.1945407e-38
-0.0020249235 -0.13145791 0.032624785 2.1853212e-38
-0.00023291074 -0.13145791 0.032624785 2.1945407e-38
0.001559101 -0.13145791 0.032624785 2.1945763e-38
0.0033959467 -0.1322781 0.029616538 2.1576981e-38
0.0051932326 -0.1322781 0.029616538 2.1300391e-38
0.0069905194 -0.1322781 0.029616538 2.0931609e-38
0.008848819 -0.13310309 0.026590649 2.0839413e-38
0.010651411 -0.13310309 0.026590649 2.0839413e-38
0.012454002 -0.13310309 0.026590649 2.0839413e-38
0.014331304 -0.13390426 0.023652021 2.0655019e-38
0.016139049 -0.13390426 0.023652021 2.047063e-38
0.01803536 -0.13473894 0.020590607 2.0469554e-38
0.019848473 -0.13473894 0.020590607 2.1206763e-38
0.021789134 -0.13581105 0.016658369 2.212872e-38
0.023609143 -0.13581105 0.016658369 2.2682249e-38
0.025429148 -0.13581105 0.016658369 2.2866641e-38
0.027249154 -0.13581105 0.016658369 2.2866641e-38
0.029187344 -0.13662781 0.01366264 2.3050673e-38
0.031012602 -0.13662781 0.01366264 2.323435e-38
0.03283786 -0.13662781 0.01366264 2.2958482e-38
0.03479784 -0.13744931 0.010649506 2.2958129e-38
0.036769189 -0.13827558 0.0076189674 2.3050328e-38
0.038605046 -0.13827558 0.0076189674 2.3234367e-38
0.040440902 -0.13827558 0.0076189674 2.3326206e-38
0.042276755 -0.13827558 0.0076189674 2.332621e-38
0.044269785 -0.1390769 0.0046798624 2.341805e-38
0.046110794 -0.1390769 0.0046798624 2.341805e-38
0.048182845 -0.14018236 0.00062531605 2.3509886e-38
0.050030965 -0.14018236 0.00062531605 2.3509886e-38
0.051879082 -0.14018236 0.00062531605 2.3509886e-38
0.053727198 -0.14018236 0.00062531605 2.3509886e-38
0.055575315 -0.14018236 0.00062531605 2.3509886e-38
0.057423439 -0.14018236 0.00062531605 2.3509886e-38
0.059271555 -0.14018236 0.00062531605 2.3509886e-38
0.061119672 -0.14018236 0.00062531605 2.3509886e-38
0.062967785 -0.14018236 0.00062531605 2.341769e-38
0.065032624 -0.14099441 -0.002353128 2.341769e-38
0.066885963 -0.14099441 -0.002353128 2.3509886e-38
0.06896776 -0.14181106 -0.0053484999 2.3509886e-38
0.070826352 -0.14181106 -0.0053484999 2.3509886e-38
0.07292527 -0.14263238 -0.0083609186 2.3509886e-38
0.074789152 -0.14263238 -0.0083609186 2.3509886e-38
0.076989755 -0.14373477 -0.012404259 2.350988e-38
0.07886073 -0.14373477 -0.012404259 2.3509876e-38
0.08073169 -0.14373477 -0.012404259 2.3141808e-38
0.082862914 -0.14453618 -0.015343603 2.2128019e-38
0.085016191 -0.14537306 -0.018413123 1.9362873e-38
0.086897701 -0.14537306 -0.018413123 1.8902259e-38
0.088779196 -0.14537306 -0.018413123 1.7613321e-38
0.091043428 -0.14646508 -0.022418436 1.8073943e-38
0.092931941 -0.14646508 -0.022418436 1.733782e-38
0.09482047 -0.14646508 -0.022418436 1.6415865e-38
0.096708983 -0.14646508 -0.022418436 1.6324389e-38
0.098597512 -0.14646508 -0.022418436 1.6139996e-38
0.10048604 -0.14646508 -0.022418436 1.5955602e-38
0.10237455 -0.14646508 -0.022418436 1.6232545e-38
0.10458602 -0.1472816 -0.025413331 1.669352e-38
0.10647979 -0.1472816 -0.025413331 1.6969388e-38
0.10837357 -0.1472816 -0.025413331 1.6785716e-38
0.11026733 -0.1472816 -0.025413331 1.5956681e-38
0.1121611 -0.1472816 -0.025413331 1.5680094e-38
0.11486815 -0.14918335 -0.032388505 1.5771211e-38
0.11677416 -0.14918335 -0.032388505 1.5770851e-38
0.11784242 -0.1472816 -0.025413331 1.623075e-38
0.11973619 -0.1472816 -0.025413331 1.5769053e-38
0.12162997 -0.1472816 -0.025413331 1.3832228e-38
-0.11858244 -0.14835359 -0.022418436 1.9361798e-38
-0.11669393 -0.14835359 -0.022418436 2.185108e-38
-0.11442268 -0.14725454 -0.018413123 2.3141819e-38
-0.11197752 -0.14560573 -0.012404259 2.3509886e-38
-0.10973437 -0.14449625 -0.0083609186 2.3325494e-38
-0.10732801 -0.14284773 -0.002353128 2.3509527e-38
-0.10521095 -0.14203046 0.00062531605 2.3509527e-38
-0.10301094 -0.14091791 0.0046798624 2.3416971e-38
-0.10091999 -0.14011143 0.0076189674 2.3509527e-38
-0.098580807 -0.13845308 0.01366264 2.3509886e-38
-0.096511304 -0.13763104 0.016658369 2.3509886e-38
-0.094133362 -0.13571201 0.023652021 2.3509886e-38
-0.092096344 -0.13490568 0.026590649 2.3509886e-38
-0.090062961 -0.13407536 0.029616538 2.3509886e-38
-0.088041514 -0.13324992 0.032624785 2.3509886e-38
-0.086031899 -0.13242932 0.035615388 2.3509886e-38
-0.084034011 -0.13161351 0.038588468 2.3509886e-38
-0.082040697 -0.13077454 0.041645948 2.3509886e-38
-0.08005935 -0.12994061 0.044685069 2.3509886e-38
-0.077898979 -0.12831511 0.050609056 2.3509886e-38
-0.075947434 -0.12749584 0.053594772 2.3509886e-38
-0.074192181 -0.12749584 0.053594772 2.3509886e-38
-0.072251439 -0.12665437 0.056661371 2.3509886e-38
-0.070501573 -0.12665437 0.056661371 2.3509886e-38
-0.068751708 -0.12665437 0.056661371 2.3509886e-38
-0.06683892 -0.12584494 0.059611145 2.3509527e-38
-0.065094225 -0.12584494 0.059611145 2.3509527e-38
-0.06334953 -0.12584494 0.059611145 2.3509527e-38
-0.061604828 -0.12584494 0.059611145 2.3509527e-38
-0.059714049 -0.12501357 0.062641025 2.3509886e-38
-0.057974666 -0.12501357 0.062641025 2.3509886e-38
-0.056235276 -0.12501357 0.062641025 2.341805e-38
-0.054495893 -0.12501357 0.062641025 2.341805e-38
-0.052756511 -0.12501357 0.062641025 2.341805e-38
-0.051017124 -0.12501357 0.062641025 2.341805e-38
-0.049277741 -0.12501357 0.062641025 2.3234379e-38
-0.047647264 -0.12584494 0.059611145 2.3234379e-38
-0.045902565 -0.12584494 0.059611145 2.3234379e-38
-0.04425355 -0.12665437 0.056661371 2.3234379e-38
-0.042503685 -0.12665437 0.056661371 2.3050707e-38
-0.040842533 -0.12749584 0.053594772 2.2866671e-38
-0.039168429 -0.12831511 0.050609056 2.2958864e-38
-0.03740795 -0.12831511 0.050609056 2.194615e-38
-0.035647467 -0.12831511 0.050609056 2.0838368e-38
-0.033886988 -0.12831511 0.050609056 1.9640906e-38
-0.032126509 -0.12831511 0.050609056 1.9455439e-38
-0.03036603 -0.12831511 0.050609056 1.9271771e-38
-0.028605551 -0.12831511 0.050609056 1.973167e-38
-0.026889831 -0.12913923 0.047605578 1.9640553e-38
-0.025124084 -0.12913923 0.047605578 2.0746178e-38
-0.023391623 -0.12994061 0.044685069 2.0470667e-38
-0.021650065 -0.13077454 0.041645948 2.0746528e-38
-0.019873869 -0.13077454 0.041645948 2.0931997e-38
-0.018097673 -0.13077454 0.041645948 2.1761032e-38
-0.01632148 -0.13077454 0.041645948 2.2223084e-38
-0.014545283 -0.13077454 0.041645948 2.268334e-38
-0.012769089 -0.13077454 0.041645948 2.2591141e-38
-0.010990213 -0.13161351 0.038588468 2.2590778e-38
-0.0092086578 -0.13161351 0.038588468 2.2406387e-38
-0.007427101 -0.13161351 0.038588468 2.2221996e-38
-0.0056273006 -0.13242932 0.035615388 2.1945409e-38
-0.0038169362 -0.13324992 0.032624785 2.1761017e-38
-0.0020249235 -0.13324992 0.032624785 2.1761017e-38
-0.00023291074 -0.13324992 0.032624785 2.1853213e-38
0.0015986599 -0.13407536 0.029616538 2.1853212e-38
0.0033959467 -0.13407536 0.029616538 2.166882e-38
0.0051932326 -0.13407536 0.029616538 2.1761016e-38
0.0069905194 -0.13407536 0.029616538 2.166882e-38
0.0087878061 -0.13407536 0.029616538 2.1392589e-38
0.010585093 -0.13407536 0.029616538 2.1023807e-38
0.012454002 -0.13490568 0.026590649 2.0931611e-38
0.014256596 -0.13490568 0.026590649 2.1116003e-38
0.016139049 -0.13571201 0.023652021 2.1392234e-38
0.017946795 -0.13571201 0.023652021 2.1206768e-38
0.019848473 -0.13655205 0.020590607 2.2128368e-38
0.021661587 -0.13655205 0.020590607 2.3234357e-38
0.023609143 -0.13763104 0.016658369 2.3418031e-38
0.025429148 -0.13763104 0.016658369 2.3418031e-38
0.027249154 -0.13763104 0.016658369 2.3418033e-38
0.029187344 -0.13845308 0.01366264 2.323436e-38
0.031012602 -0.13845308 0.01366264 2.3234361e-38
0.03283786 -0.13845308 0.01366264 2.3418038e-38
0.03479784 -0.13927986 0.010649506 2.3418038e-38
0.036769189 -0.14011143 0.0076189674 2.3418043e-38
0.038605046 -0.14011143 0.0076189674 2.3326206e-38
0.040440902 -0.14011143 0.0076189674 2.3326208e-38
0.042276755 -0.14011143 0.0076189674 2.332621e-38
0.044269785 -0.14091791 0.0046798624 2.3234018e-38
0.046110794 -0.14091791 0.0046798624 2.3326213e-38
0.047951803 -0.14091791 0.0046798624 2.3509886e-38
0.049792811 -0.14091791 0.0046798624 2.3509886e-38
0.051879082 -0.14203046 0.00062531605 2.3509886e-38
0.053727198 -0.14203046 0.00062531605 2.3509886e-38
0.055575315 -0.14203046 0.00062531605 2.3509886e-38
0.057423439 -0.14203046 0.00062531605 2.3509886e-38
0.059271555 -0.14203046 0.00062531605 2.3509886e-38
0.061119672 -0.14203046 0.00062531605 2.3509886e-38
0.062967785 -0.14203046 0.00062531605 2.3325494e-38
0.065032624 -0.14284773 -0.002353128 2.341769e-38
0.066885963 -0.14284773 -0.002353128 2.3509886e-38
0.06896776 -0.14366965 -0.0053484999 2.3509886e-38
0.070826352 -0.14366965 -0.0053484999 2.3509886e-38
0.07292527 -0.14449625 -0.0083609186 2.3509886e-38
0.074789152 -0.14449625 -0.0083609186 2.341769e-38
0.076989755 -0.14560573 -0.012404259 2.3418043e-38
0.07886073 -0.14560573 -0.012404259 2.350987e-38
0.08073169 -0.14560573 -0.012404259 2.3233999e-38
0.082862914 -0.1464123 -0.015343603 2.2497155e-38
0.084739029 -0.1464123 -0.015343603 1.9732012e-38
0.086615145 -0.1464123 -0.015343603 1.8718224e-38
0.088491261 -0.1464123 -0.015343603 1.7060145e-38
0.090660691 -0.14725454 -0.018413123 1.752077e-38
0.092542186 -0.14725454 -0.018413123 1.7061233e-38
0.094423696 -0.14725454 -0.018413123 1.632367e-38
0.096708983 -0.14835359 -0.022418436 1.6416584e-38
0.098597512 -0.14835359 -0.022418436 1.6324387e-38
0.10048604 -0.14835359 -0.022418436 1.6047798e-38
0.10237455 -0.14835359 -0.022418436 1.6047798e-38
0.10426308 -0.14835359 -0.022418436 1.6416936e-38
0.10647979 -0.14917539 -0.025413331 1.6232542e-38
0.10837357 -0.14917539 -0.025413331 1.5863759e-38
0.11026733 -0.14917539 -0.025413331 1.577229e-38
0.1121611 -0.14917539 -0.025413331 1.5680097e-38
-0.11442268 -0.14913605 -0.018413123 2.3049624e-38
-0.11197752 -0.14747669 -0.012404259 2.3509886e-38
-0.10973437 -0.14636014 -0.0083609186 2.341769e-38
-0.10732801 -0.14470108 -0.002353128 2.3509527e-38
-0.10521095 -0.14387859 0.00062531605 2.3509167e-38
-0.10301094 -0.14275892 0.0046798624 2.3416971e-38
-0.10091999 -0.14194728 0.0076189674 2.3509527e-38
-0.098580807 -0.14027832 0.01366264 2.3509886e-38
-0.096511304 -0.13945107 0.016658369 2.3509886e-38
-0.094133362 -0.13751976 0.023652021 2.3509886e-38
-0.092096344 -0.13670824 0.026590649 2.3509886e-38
-0.090062961 -0.13587265 0.029616538 2.3509886e-38
-0.088041514 -0.13504194 0.032624785 2.3509886e-38
-0.086031899 -0.13421609 0.035615388 2.3509886e-38
-0.084034011 -0.13339506 0.038588468 2.3509886e-38
-0.082040697 -0.13255073 0.041645948 2.3509886e-38
-0.08005935 -0.1317115 0.044685069 2.3509886e-38
-0.077898979 -0.13007559 0.050609056 2.3509886e-38
-0.075947434 -0.12925108 0.053594772 2.3509886e-38
-0.074001312 -0.12840421 0.056661371 2.3509886e-38
-0.072251439 -0.12840421 0.056661371 2.3509886e-38
-0.07032831 -0.12758966 0.059611145 2.3509886e-38
-0.068583615 -0.12758966 0.059611145 2.3509886e-38
-0.06667158 -0.12675296 0.062641025 2.3509527e-38
-0.064932197 -0.12675296 0.062641025 2.3509527e-38
-0.063192815 -0.12675296 0.062641025 2.3509527e-38
-0.061453432 -0.12675296 0.062641025 2.3509527e-38
-0.059714049 -0.12675296 0.062641025 2.3509886e-38
-0.057834737 -0.12592132 0.065652549 2.3509886e-38
-0.056100637 -0.12592132 0.065652549 2.341805e-38
-0.054366529 -0.12592132 0.065652549 2.341805e-38
-0.052632425 -0.12592132 0.065652549 2.341805e-38
-0.050898321 -0.12592132 0.065652549 2.3326213e-38
-0.049277741 -0.12675296 0.062641025 2.3142542e-38
-0.047647264 -0.12758966 0.059611145 2.3142542e-38
-0.045902565 -0.12758966 0.059611145 2.3234379e-38
-0.04425355 -0.12840421 0.056661371 2.3234379e-38
-0.042503685 -0.12840421 0.056661371 2.3142544e-38
-0.040842533 -0.12925108 0.053594772 2.295887e-38
-0.039168429 -0.13007559 0.050609056 2.295887e-38
-0.03740795 -0.13007559 0.050609056 2.2867034e-38
-0.035647467 -0.13007559 0.050609056 2.2591166e-38
-0.033886988 -0.13007559 0.050609056 2.2130551e-38
-0.032126509 -0.13007559 0.050609056 2.1945444e-38
-0.03036603 -0.13007559 0.050609056 2.1485184e-38
-0.028655577 -0.13090499 0.047605578 2.1023487e-38
-0.026889831 -0.13090499 0.047605578 2.0471033e-38
-0.025162488 -0.1317115 0.044685069 2.0747257e-38
-0.023391623 -0.1317115 0.044685069 2.0471386e-38
-0.021650065 -0.13255073 0.041645948 2.0194433e-38
-0.019873869 -0.13255073 0.041645948 2.0010756e-38
-0.018097673 -0.13255073 0.041645948 2.0563565e-38
-0.01632148 -0.13255073 0.041645948 2.1209649e-38
-0.014545283 -0.13255073 0.041645948 2.1762459e-38
-0.012769089 -0.13255073 0.041645948 2.1670261e-38
-0.010992893 -0.13255073 0.041645948 2.1853576e-38
-0.0092166988 -0.13255073 0.041645948 2.1945409e-38
-0.007427101 -0.13339506 0.038588468 2.1853216e-38
-0.0056273006 -0.13421609 0.035615388 2.1853216e-38
-0.0038169362 -0.13504194 0.032624785 2.1853216e-38
-0.0020249235 -0.13504194 0.032624785 2.1945412e-38
-0.00023291074 -0.13504194 0.032624785 2.2129803e-38
0.0015986599 -0.13587265 0.029616538 2.2221998e-38
0.0033959467 -0.13587265 0.029616538 2.1576629e-38
0.0051932326 -0.13587265 0.029616538 2.1945412e-38
0.0069905194 -0.13587265 0.029616538 2.2221996e-38
0.0087878061 -0.13587265 0.029616538 2.21298e-38
0.010585093 -0.13587265 0.029616538 2.1853213e-38
0.01238238 -0.13587265 0.029616538 2.1853213e-38
0.014256596 -0.13670824 0.026590649 2.2314191e-38
0.016059186 -0.13670824 0.026590649 2.2867009e-38
0.017946795 -0.13751976 0.023652021 2.3050327e-38
0.019848473 -0.13836516 0.020590607 2.3234361e-38
0.021661587 -0.13836516 0.020590607 2.3326198e-38
0.023609143 -0.13945107 0.016658369 2.3326201e-38
0.025429148 -0.13945107 0.016658369 2.3142171e-38
0.027249154 -0.13945107 0.016658369 2.3234369e-38
0.029187344 -0.14027832 0.01366264 2.3418043e-38
0.031012602 -0.14027832 0.01366264 2.3418045e-38
0.03283786 -0.14027832 0.01366264 2.3418045e-38
0.03479784 -0.14111041 0.010649506 2.3418047e-38
0.03662838 -0.14111041 0.010649506 2.3418047e-38
0.038458921 -0.14111041 0.010649506 2.3418047e-38
0.040440902 -0.14194728 0.0076189674 2.3418047e-38
0.042276755 -0.14194728 0.0076189674 2.3418047e-38
0.044112612 -0.14194728 0.0076189674 2.3418047e-38
0.045948468 -0.14194728 0.0076189674 2.3418047e-38
0.047951803 -0.14275892 0.0046798624 2.3509886e-38
0.049792811 -0.14275892 0.0046798624 2.3509886e-38
0.051633824 -0.14275892 0.0046798624 2.3509886e-38
0.053474832 -0.14275892 0.0046798624 2.3509886e-38
0.055575315 -0.14387859 0.00062531605 2.3509886e-38
0.057423439 -0.14387859 0.00062531605 2.3509886e-38
0.059271555 -0.14387859 0.00062531605 2.3509886e-38
0.061119672 -0.14387859 0.00062531605 2.3509886e-38
0.062967785 -0.14387859 0.00062531605 2.341769e-38
0.065032624 -0.14470108 -0.002353128 2.341769e-38
0.066885963 -0.14470108 -0.002353128 2.3509886e-38
0.06896776 -0.14552824 -0.0053484999 2.3509886e-38
0.070826352 -0.14552824 -0.0053484999 2.3509886e-38
0.07292527 -0.14636014 -0.0083609186 2.341769e-38
0.074789152 -0.14636014 -0.0083609186 2.3325494e-38
0.076989755 -0.14747669 -0.012404259 2.3233652e-38
0.07886073 -0.14747669 -0.012404259 2.3141804e-38
0.08073169 -0.14747669 -0.012404259 2.286557e-38
0.082862914 -0.14828841 -0.015343603 2.2681544e-38
0.084739029 -0.14828841 -0.015343603 2.0377378e-38
0.086615145 -0.14828841 -0.015343603 1.9363592e-38
0.088491261 -0.14828841 -0.015343603 1.7151621e-38
0.090660691 -0.14913605 -0.018413123 1.6967596e-38
0.092542186 -0.14913605 -0.018413123 1.6231473e-38
0.094423696 -0.14913605 -0.018413123 1.56783e-38
0.096305192 -0.14913605 -0.018413123 1.5955606e-38
0.098186687 -0.14913605 -0.018413123 1.5955605e-38
-0.11197752 -0.14934768 -0.012404259 2.3509886e-38
-0.10973437 -0.14822401 -0.0083609186 2.341769e-38
-0.10732801 -0.14655443 -0.002353128 2.3509527e-38
-0.10485195 -0.14459993 0.0046798624 2.3509167e-38
-0.10275586 -0.14378314 0.0076189674 2.3416971e-38
-0.10066229 -0.14294095 0.010649506 2.3509527e-38
-0.098580807 -0.1421036 0.01366264 2.3509886e-38
-0.096511304 -0.14127107 0.016658369 2.3509886e-38
-0.094133362 -0.13932751 0.023652021 2.3509886e-38
-0.09186025 -0.13766994 0.029616538 2.3509886e-38
-0.090062961 -0.13766994 0.029616538 2.3509886e-38
-0.088041514 -0.13683395 0.032624785 2.3509886e-38
-0.086031899 -0.13600285 0.035615388 2.3509886e-38
-0.084034011 -0.13517661 0.038588468 2.3509886e-38
-0.082040697 -0.13432692 0.041645948 2.3509886e-38
-0.08005935 -0.13348235 0.044685069 2.3509886e-38
-0.077898979 -0.13183604 0.050609056 2.3509886e-38
-0.075947434 -0.13100632 0.053594772 2.3509886e-38
-0.074001312 -0.13015409 0.056661371 2.3509886e-38
-0.072073013 -0.12933435 0.059611145 2.3509886e-38
-0.07032831 -0.12933435 0.059611145 2.3509886e-38
-0.068410963 -0.12849234 0.062641025 2.3509886e-38
-0.06667158 -0.12849234 0.062641025 2.3509527e-38
-0.064771146 -0.12765543 0.065652549 2.3509527e-38
-0.063037045 -0.12765543 0.065652549 2.3509527e-38
-0.061302945 -0.12765543 0.065652549 2.3509527e-38
-0.059568837 -0.12765543 0.065652549 2.3509886e-38
-0.057834737 -0.12765543 0.065652549 2.3509886e-38
-0.056100637 -0.12765543 0.065652549 2.3509886e-38
-0.054366529 -0.12765543 0.065652549 2.3509886e-38
-0.052632425 -0.12765543 0.065652549 2.3141822e-38
-0.050898321 -0.12765543 0.065652549 2.3049626e-38
-0.049164217 -0.12765543 0.065652549 2.277376e-38
-0.047647264 -0.12933435 0.059611145 2.2865955e-38
-0.045902565 -0.12933435 0.059611145 2.3050347e-38
-0.04425355 -0.13015409 0.056661371 2.3142542e-38
-0.042503685 -0.13015409 0.056661371 2.3050707e-38
-0.040842533 -0.13100632 0.053594772 2.2775199e-38
-0.039168429 -0.13183604 0.050609056 2.2683361e-38
-0.03740795 -0.13183604 0.050609056 2.2499688e-38
-0.035647467 -0.13183604 0.050609056 2.2591526e-38
-0.033886988 -0.13183604 0.050609056 2.2499694e-38
-0.032126509 -0.13183604 0.050609056 2.2407141e-38
-0.03036603 -0.13183604 0.050609056 2.1762133e-38
-0.028655577 -0.13267075 0.047605578 2.0839816e-38
-0.026889831 -0.13267075 0.047605578 2.0010773e-38
-0.025162488 -0.13348235 0.044685069 2.0194443e-38
-0.023391623 -0.13348235 0.044685069 2.0102963e-38
-0.021650065 -0.13432692 0.041645948 2.0010759e-38
-0.019873869 -0.13432692 0.041645948 1.9827081e-38
-0.018097673 -0.13432692 0.041645948 2.0379891e-38
-0.01632148 -0.13432692 0.041645948 2.1118172e-38
-0.014545283 -0.13432692 0.041645948 2.1486589e-38
-0.012769089 -0.13432692 0.041645948 2.1302197e-38
-0.010992893 -0.13432692 0.041645948 2.1853576e-38
-0.0092166988 -0.13432692 0.041645948 2.2037607e-38
-0.007427101 -0.13517661 0.038588468 2.2129447e-38
-0.0056273006 -0.13600285 0.035615388 2.2221643e-38
-0.0038405312 -0.13600285 0.035615388 2.2313838e-38
-0.0020249235 -0.13683395 0.032624785 2.2498229e-38
-0.00023291074 -0.13683395 0.032624785 2.2590425e-38
0.0015986599 -0.13766994 0.029616538 2.2682621e-38
0.0033959467 -0.13766994 0.029616538 2.1945056e-38
0.0051932326 -0.13766994 0.029616538 2.2221643e-38
0.0069905194 -0.13766994 0.029616538 2.2498232e-38
0.0087878061 -0.13766994 0.029616538 2.2682623e-38
0.010585093 -0.13766994 0.029616538 2.2682623e-38
0.01238238 -0.13766994 0.029616538 2.2958852e-38
0.014256596 -0.13851084 0.026590649 2.3234362e-38
0.016059186 -0.13851084 0.026590649 2.3234362e-38
0.017946795 -0.13932751 0.023652021 2.3418038e-38
0.01975454 -0.13932751 0.023652021 2.341804e-38
0.021562282 -0.13932751 0.023652021 2.341804e-38
0.023474697 -0.14017828 0.020590607 2.3142174e-38
0.025429148 -0.14127107 0.016658369 2.3141819e-38
0.027249154 -0.14127107 0.016658369 2.3326213e-38
0.029069163 -0.14127107 0.016658369 2.341805e-38
0.030889168 -0.14127107 0.016658369 2.341805e-38
0.03283786 -0.1421036 0.01366264 2.3141466e-38
0.034663122 -0.1421036 0.01366264 2.3141466e-38
0.03662838 -0.14294095 0.010649506 2.3141466e-38
0.038458921 -0.14294095 0.010649506 2.3233662e-38
0.040289465 -0.14294095 0.010649506 2.3326213e-38
0.042120006 -0.14294095 0.010649506 2.3418047e-38
0.044112612 -0.14378314 0.0076189674 2.3418047e-38
0.045948468 -0.14378314 0.0076189674 2.3418047e-38
0.047951803 -0.14459993 0.0046798624 2.3509886e-38
0.049792811 -0.14459993 0.0046798624 2.3509886e-38
0.051633824 -0.14459993 0.0046798624 2.3509886e-38
0.053474832 -0.14459993 0.0046798624 2.3509886e-38
0.055575315 -0.1457267 0.00062531605 2.3509886e-38
0.057423439 -0.1457267 0.00062531605 2.3509886e-38
0.059271555 -0.1457267 0.00062531605 2.3509886e-38
0.061119672 -0.1457267 0.00062531605 2.3509886e-38
0.062967785 -0.1457267 0.00062531605 2.341769e-38
0.065032624 -0.14655443 -0.002353128 2.3509886e-38
0.066885963 -0.14655443 -0.002353128 2.3509886e-38
0.06896776 -0.14738683 -0.0053484999 2.3509886e-38
0.070826352 -0.14738683 -0.0053484999 2.3509886e-38
0.07292527 -0.14822401 -0.0083609186 2.341769e-38
0.074789152 -0.14822401 -0.0083609186 2.3141103e-38
0.076989755 -0.14934768 -0.012404259 2.3049259e-38
0.07886073 -0.14934768 -0.012404259 2.295705e-38
0.08073169 -0.14934768 -0.012404259 2.2220198e-38
-0.10705906 -0.14757483 0.00062531605 2.3509883e-38
-0.10485195 -0.14644094 0.0046798624 2.3509523e-38
-0.10275586 -0.14561899 0.0076189674 2.3416971e-38
-0.10066229 -0.1447715 0.010649506 2.3509527e-38
-0.098580807 -0.14392884 0.01366264 2.3509886e-38
-0.096511304 -0.14309107 0.016658369 2.3509886e-38
-0.093898937 -0.14031343 0.026590649 2.3509886e-38
-0.09186025 -0.13946722 0.029616538 2.3509886e-38
-0.090062961 -0.13946722 0.029616538 2.3509886e-38
-0.088041514 -0.13862596 0.032624785 2.3509886e-38
-0.086031899 -0.13778962 0.035615388 2.3509886e-38
-0.084034011 -0.13695817 0.038588468 2.3509886e-38
-0.082040697 -0.13610314 0.041645948 2.3509886e-38
-0.08005935 -0.13525321 0.044685069 2.3509886e-38
-0.077898979 -0.13359652 0.050609056 2.3509886e-38
-0.075751171 -0.13190396 0.056661371 2.3509886e-38
-0.0738177 -0.13107903 0.059611145 2.3509886e-38
-0.072073013 -0.13107903 0.059611145 2.3509886e-38
-0.070150346 -0.13023172 0.062641025 2.3509886e-38
-0.068410963 -0.13023172 0.062641025 2.3509886e-38
-0.066505253 -0.12938951 0.065652549 2.3509527e-38
-0.064771146 -0.12938951 0.065652549 2.3509527e-38
-0.063037045 -0.12938951 0.065652549 2.3509527e-38
-0.061302945 -0.12938951 0.065652549 2.3509527e-38
-0.059568837 -0.12938951 0.065652549 2.3509886e-38
-0.057834737 -0.12938951 0.065652549 2.3509886e-38
-0.056100637 -0.12938951 0.065652549 2.3509886e-38
-0.054366529 -0.12938951 0.065652549 2.341805e-38
-0.052632425 -0.12938951 0.065652549 2.2957431e-38
-0.050898321 -0.12938951 0.065652549 2.2681564e-38
-0.049164217 -0.12938951 0.065652549 2.2589368e-38
-0.047538359 -0.13023172 0.062641025 2.2497892e-38
-0.045902565 -0.13107903 0.059611145 2.2682283e-38
-0.04415787 -0.13107903 0.059611145 2.2866674e-38
-0.042503685 -0.13190396 0.056661371 2.295887e-38
-0.040753815 -0.13190396 0.056661371 2.2775199e-38
-0.039168429 -0.13359652 0.050609056 2.2683362e-38
-0.03740795 -0.13359652 0.050609056 2.2499691e-38
-0.035647467 -0.13359652 0.050609056 2.2315658e-38
-0.033886988 -0.13359652 0.050609056 2.2315661e-38
-0.032126509 -0.13359652 0.050609056 2.2223468e-38
-0.030421324 -0.13443647 0.047605578 2.1578099e-38
-0.028655577 -0.13443647 0.047605578 2.0656143e-38
-0.026933357 -0.13525321 0.044685069 2.0010054e-38
-0.025162488 -0.13525321 0.044685069 1.9364682e-38
-0.023391623 -0.13525321 0.044685069 1.9733821e-38
-0.021650065 -0.13610314 0.041645948 2.0194793e-38
-0.019873869 -0.13610314 0.041645948 2.0471735e-38
-0.018097673 -0.13610314 0.041645948 2.1209297e-38
-0.01632148 -0.13610314 0.041645948 2.1855021e-38
-0.014545283 -0.13610314 0.041645948 2.1855018e-38
-0.012769089 -0.13610314 0.041645948 2.1485875e-38
-0.010990213 -0.13695817 0.038588468 2.2774819e-38
-0.0092086578 -0.13695817 0.038588468 2.2867015e-38
-0.007427101 -0.13695817 0.038588468 2.3142524e-38
-0.0056273006 -0.13778962 0.035615388 2.305069e-38
-0.0038405312 -0.13778962 0.035615388 2.3326198e-38
-0.0020249235 -0.13862596 0.032624785 2.3234367e-38
-0.00023291074 -0.13862596 0.032624785 2.3418038e-38
0.0015986599 -0.13946722 0.029616538 2.3234367e-38
0.0033959467 -0.13946722 0.029616538 2.3234364e-38
0.0051932326 -0.13946722 0.029616538 2.3050693e-38
0.0069905194 -0.13946722 0.029616538 2.3142171e-38
0.0087878061 -0.13946722 0.029616538 2.3050696e-38
0.010585093 -0.13946722 0.029616538 2.3326203e-38
0.012454002 -0.14031343 0.026590649 2.3142532e-38
0.014256596 -0.14031343 0.026590649 2.3326203e-38
0.016059186 -0.14031343 0.026590649 2.3326203e-38
0.017946795 -0.14113526 0.023652021 2.3418043e-38
0.01975454 -0.14113526 0.023652021 2.3418043e-38
0.021562282 -0.14113526 0.023652021 2.3418045e-38
0.023474697 -0.14199139 0.020590607 2.3418047e-38
0.025429148 -0.14309107 0.016658369 2.341805e-38
0.027249154 -0.14309107 0.016658369 2.341805e-38
0.029069163 -0.14309107 0.016658369 2.3141467e-38
0.030889168 -0.14309107 0.016658369 2.2864883e-38
0.03283786 -0.14392884 0.01366264 2.341805e-38
0.034663122 -0.14392884 0.01366264 2.341805e-38
0.03648838 -0.14392884 0.01366264 2.341805e-38
0.038313638 -0.14392884 0.01366264 2.3325856e-38
0.040289465 -0.1447715 0.010649506 2.3417687e-38
0.042120006 -0.1447715 0.010649506 2.3234012e-38
0.044112612 -0.14561899 0.0076189674 2.3325846e-38
0.045948468 -0.14561899 0.0076189674 2.3325843e-38
0.047784325 -0.14561899 0.0076189674 2.3509879e-38
0.049620181 -0.14561899 0.0076189674 2.350988e-38
0.051633824 -0.14644094 0.0046798624 2.350988e-38
0.053474832 -0.14644094 0.0046798624 2.3509883e-38
0.055315841 -0.14644094 0.0046798624 2.3509886e-38
0.057423439 -0.14757483 0.00062531605 2.3509886e-38
0.059271555 -0.14757483 0.00062531605 2.3509886e-38
0.061119672 -0.14757483 0.00062531605 2.3509886e-38
0.062967785 -0.14757483 0.00062531605 2.3509886e-38
0.065032624 -0.14840777 -0.002353128 2.3509883e-38
0.066885963 -0.14840777 -0.002353128 2.3509883e-38
0.06896776 -0.14924543 -0.0053484999 2.3509883e-38
0.070826352 -0.14924543 -0.0053484999 2.3509883e-38
-0.10705906 -0.14942293 0.00062531605 2.3509879e-38
-0.10485195 -0.14828195 0.0046798624 2.3509521e-38
-0.10275586 -0.14745484 0.0076189674 2.3416248e-38
-0.10066229 -0.14660202 0.010649506 2.3509527e-38
-0.098580807 -0.14575411 0.01366264 2.3509167e-38
-0.096511304 -0.14491107 0.016658369 2.3417691e-38
-0.093898937 -0.14211603 0.026590649 2.3417691e-38
-0.09186025 -0.14126451 0.029616538 2.3509886e-38
-0.090062961 -0.14126451 0.029616538 2.3509886e-38
-0.088041514 -0.14041798 0.032624785 2.3509886e-38
-0.086031899 -0.13957639 0.035615388 2.3509886e-38
-0.084034011 -0.13873972 0.038588468 2.3509886e-38
-0.082040697 -0.13787933 0.041645948 2.341769e-38
-0.08005935 -0.13702409 0.044685069 2.341769e-38
-0.077898979 -0.13535701 0.050609056 2.341769e-38
-0.075751171 -0.13365383 0.056661371 2.3509886e-38
-0.0738177 -0.13282375 0.059611145 2.3509886e-38
-0.071889728 -0.13197111 0.062641025 2.3509886e-38
-0.070150346 -0.13197111 0.062641025 2.3509886e-38
-0.068410963 -0.13197111 0.062641025 2.341769e-38
-0.066505253 -0.13112362 0.065652549 2.3509527e-38
-0.064771146 -0.13112362 0.065652549 2.3509527e-38
-0.063037045 -0.13112362 0.065652549 2.3509527e-38
-0.061302945 -0.13112362 0.065652549 2.3509527e-38
-0.059568837 -0.13112362 0.065652549 2.3509886e-38
-0.057834737 -0.13112362 0.065652549 2.3509886e-38
-0.056100637 -0.13112362 0.065652549 2.341805e-38
-0.054366529 -0.13112362 0.065652549 2.341805e-38
-0.052632425 -0.13112362 0.065652549 2.277376e-38
-0.050898321 -0.13112362 0.065652549 2.2497892e-38
-0.049164217 -0.13112362 0.065652549 2.23135e-38
-0.047538359 -0.13197111 0.062641025 2.2037993e-38
-0.045798976 -0.13197111 0.062641025 2.2037993e-38
-0.04415787 -0.13282375 0.059611145 2.2222384e-38
-0.042413175 -0.13282375 0.059611145 2.2406775e-38
-0.040753815 -0.13365383 0.056661371 2.249969e-38
-0.039168429 -0.13535701 0.050609056 2.2131267e-38
-0.03740795 -0.13535701 0.050609056 2.1855759e-38
-0.035647467 -0.13535701 0.050609056 2.2131267e-38
-0.033886988 -0.13535701 0.050609056 2.2223463e-38
-0.032126509 -0.13535701 0.050609056 2.2407138e-38
-0.030421324 -0.13620223 0.047605578 2.2130551e-38
-0.028655577 -0.13620223 0.047605578 2.1392986e-38
-0.026933357 -0.13702409 0.044685069 2.0931648e-38
-0.025162488 -0.13702409 0.044685069 1.9548711e-38
-0.023391623 -0.13702409 0.044685069 1.9733102e-38
-0.021650065 -0.13787933 0.041645948 2.0285194e-38
-0.019873869 -0.13787933 0.041645948 2.0838368e-38
-0.018097673 -0.13787933 0.041645948 2.1483374e-38
-0.01632148 -0.13787933 0.041645948 2.2036548e-38
-0.014545283 -0.13787933 0.041645948 2.2405329e-38
-0.012769089 -0.13787933 0.041645948 2.258972e-38
-0.010990213 -0.13873972 0.038588468 2.3418043e-38
-0.0092086578 -0.13873972 0.038588468 2.341804e-38
-0.007427101 -0.13873972 0.038588468 2.3509879e-38
-0.0056273006 -0.13957639 0.035615388 2.3418043e-38
-0.0038405312 -0.13957639 0.035615388 2.3509879e-38
-0.0020249235 -0.14041798 0.032624785 2.3418045e-38
-0.00023291074 -0.14041798 0.032624785 2.350988e-38
0.0015986599 -0.14126451 0.029616538 2.3418045e-38
0.0033959467 -0.14126451 0.029616538 2.350988e-38
0.0051932326 -0.14126451 0.029616538 2.3418045e-38
0.0069905194 -0.14126451 0.029616538 2.3509883e-38
0.0087878061 -0.14126451 0.029616538 2.3418047e-38
0.010585093 -0.14126451 0.029616538 2.3509886e-38
0.01238238 -0.14126451 0.029616538 2.341805e-38
0.014256596 -0.14211603 0.026590649 2.3509886e-38
0.016059186 -0.14211603 0.026590649 2.3509886e-38
0.01786178 -0.14211603 0.026590649 2.3509883e-38
0.01975454 -0.14294298 0.023652021 2.3509883e-38
0.021562282 -0.14294298 0.023652021 2.3509886e-38
0.023474697 -0.14380451 0.020590607 2.3509886e-38
0.025429148 -0.14491107 0.016658369 2.3509527e-38
0.027249154 -0.14491107 0.016658369 2.3509527e-38
0.029069163 -0.14491107 0.016658369 2.3509527e-38
0.030889168 -0.14491107 0.016658369 2.3509527e-38
0.03283786 -0.14575411 0.01366264 2.3417333e-38
0.034663122 -0.14575411 0.01366264 2.3417333e-38
0.03648838 -0.14575411 0.01366264 2.3325494e-38
0.038313638 -0.14575411 0.01366264 2.3417687e-38
0.040289465 -0.14660202 0.010649506 2.3509879e-38
0.042120006 -0.14660202 0.010649506 2.3509873e-38
0.044112612 -0.14745484 0.0076189674 2.3418031e-38
0.045948468 -0.14745484 0.0076189674 2.3234355e-38
0.047784325 -0.14745484 0.0076189674 2.3509866e-38
0.049620181 -0.14745484 0.0076189674 2.3509869e-38
0.051633824 -0.14828195 0.0046798624 2.3509873e-38
0.053474832 -0.14828195 0.0046798624 2.3509879e-38
0.055315841 -0.14828195 0.0046798624 2.3509886e-38
0.057423439 -0.14942293 0.00062531605 2.3417691e-38
0.059271555 -0.14942293 0.00062531605 2.3417691e-38
0.061119672 -0.14942293 0.00062531605 2.341769e-38
0.062967785 -0.14942293 0.00062531605 2.3509883e-38
-0.10275586 -0.14929073 0.0076189674 2.3508444e-38
-0.10091999 -0.14929073 0.0076189674 2.3509527e-38
-0.098831743 -0.14843257 0.010649506 2.3509168e-38
-0.096511304 -0.14673109 0.016658369 2.3417691e-38
-0.094133362 -0.14475073 0.023652021 2.3417691e-38
-0.092096344 -0.14391862 0.026590649 2.3509886e-38
-0.090062961 -0.1430618 0.029616538 2.3509886e-38
-0.088041514 -0.14220999 0.032624785 2.3509886e-38
-0.086031899 -0.14136316 0.035615388 2.3509886e-38
-0.084034011 -0.14052127 0.038588468 2.3509886e-38
-0.082040697 -0.13965552 0.041645948 2.3509886e-38
-0.08005935 -0.13879494 0.044685069 2.341769e-38
-0.077898979 -0.13711749 0.050609056 2.341769e-38
-0.075751171 -0.13540371 0.056661371 2.3509886e-38
-0.073629111 -0.13371049 0.062641025 2.3509886e-38
-0.071889728 -0.13371049 0.062641025 2.3509886e-38
-0.070150346 -0.13371049 0.062641025 2.3509886e-38
-0.068239361 -0.13285773 0.065652549 2.341769e-38
-0.066505253 -0.13285773 0.065652549 2.3509527e-38
-0.064771146 -0.13285773 0.065652549 2.3509527e-38
-0.063037045 -0.13285773 0.065652549 2.3509527e-38
-0.061302945 -0.13285773 0.065652549 2.3509527e-38
-0.059568837 -0.13285773 0.065652549 2.3509886e-38
-0.057834737 -0.13285773 0.065652549 2.3509886e-38
-0.056100637 -0.13285773 0.065652549 2.341805e-38
-0.054366529 -0.13285773 0.065652549 2.341805e-38
-0.052632425 -0.13285773 0.065652549 2.3142542e-38
-0.050898321 -0.13285773 0.065652549 2.2866674e-38
-0.049164217 -0.13285773 0.065652549 2.2406775e-38
-0.047430113 -0.13285773 0.065652549 2.2130188e-38
-0.045696009 -0.13285773 0.065652549 2.1946516e-38
-0.04405959 -0.13371049 0.062641025 2.185432e-38
-0.042413175 -0.13456844 0.059611145 2.185432e-38
-0.040753815 -0.13540371 0.056661371 2.185432e-38
-0.039087288 -0.13627206 0.053594772 2.102492e-38
-0.03740795 -0.13711749 0.050609056 2.1301506e-38
-0.035647467 -0.13711749 0.050609056 2.1670289e-38
-0.033886988 -0.13711749 0.050609056 2.1946876e-38
-0.032126509 -0.13711749 0.050609056 2.2130907e-38
-0.030421324 -0.13796796 0.047605578 2.2223103e-38
-0.028655577 -0.13796796 0.047605578 2.2406775e-38
-0.026889831 -0.13796796 0.047605578 2.2406775e-38
-0.025124084 -0.13796796 0.047605578 2.3142544e-38
-0.023391623 -0.13879494 0.044685069 2.3142544e-38
-0.021620758 -0.13879494 0.044685069 2.3234379e-38
-0.019849889 -0.13879494 0.044685069 2.3234379e-38
-0.018097673 -0.13965552 0.041645948 2.341805e-38
-0.01632148 -0.13965552 0.041645948 2.341805e-38
-0.014545283 -0.13965552 0.041645948 2.341805e-38
-0.012769089 -0.13965552 0.041645948 2.3418047e-38
-0.010990213 -0.14052127 0.038588468 2.3509883e-38
-0.0092086578 -0.14052127 0.038588468 2.350988e-38
-0.007427101 -0.14052127 0.038588468 2.350988e-38
-0.0056273006 -0.14136316 0.035615388 2.350988e-38
-0.0038405312 -0.14136316 0.035615388 2.3509883e-38
-0.0019959137 -0.1430618 0.029616538 2.3509883e-38
-0.00019862689 -0.1430618 0.029616538 2.3509886e-38
0.0015986599 -0.1430618 0.029616538 2.3509886e-38
0.0033959467 -0.1430618 0.029616538 2.3509886e-38
0.0051932326 -0.1430618 0.029616538 2.3509886e-38
0.0069905194 -0.1430618 0.029616538 2.3509886e-38
0.0087878061 -0.1430618 0.029616538 2.3509886e-38
0.010585093 -0.1430618 0.029616538 2.3509527e-38
0.01238238 -0.1430618 0.029616538 2.3509527e-38
0.014256596 -0.14391862 0.026590649 2.3509527e-38
0.016059186 -0.14391862 0.026590649 2.3509886e-38
0.01786178 -0.14391862 0.026590649 2.3509886e-38
0.019664373 -0.14391862 0.026590649 2.3509886e-38
0.021562282 -0.14475073 0.023652021 2.3509886e-38
0.023474697 -0.14561762 0.020590607 2.3509886e-38
0.025429148 -0.14673109 0.016658369 2.3509527e-38
0.027249154 -0.14673109 0.016658369 2.3509527e-38
0.029069163 -0.14673109 0.016658369 2.3509527e-38
0.030889168 -0.14673109 0.016658369 2.3509527e-38
0.03283786 -0.14757936 0.01366264 2.3509527e-38
0.034663122 -0.14757936 0.01366264 2.3509886e-38
0.03648838 -0.14757936 0.01366264 2.3509523e-38
0.038313638 -0.14757936 0.01366264 2.3509518e-38
0.0401389 -0.14757936 0.01366264 2.3509872e-38
0.042120006 -0.14843257 0.010649506 2.3509867e-38
0.044112612 -0.14929073 0.0076189674 2.3233634e-38
0.045948468 -0.14929073 0.0076189674 2.3141794e-38
0.047784325 -0.14929073 0.0076189674 2.3234348e-38
0.049620181 -0.14929073 0.0076189674 2.3418023e-38
-0.096190706 -0.14743073 0.020590607 2.3417691e-38
-0.094133362 -0.14655848 0.023652021 2.3417691e-38
-0.092096344 -0.14572121 0.026590649 2.3509886e-38
-0.090062961 -0.14485909 0.029616538 2.3509886e-38
-0.088041514 -0.14400201 0.032624785 2.3509886e-38
-0.086031899 -0.14314993 0.035615388 2.3509886e-38
-0.084034011 -0.14230286 0.038588468 2.3509886e-38
-0.082040697 -0.1414317 0.041645948 2.3509886e-38
-0.079862207 -0.13973372 0.047605578 2.341769e-38
-0.077898979 -0.13887797 0.050609056 2.341769e-38
-0.075751171 -0.13715358 0.056661371 2.3509886e-38
-0.073629111 -0.13544987 0.062641025 2.3509886e-38
-0.071889728 -0.13544987 0.062641025 2.3509886e-38
-0.070150346 -0.13544987 0.062641025 2.3509886e-38
-0.068239361 -0.13459183 0.065652549 2.3325494e-38
-0.066505253 -0.13459183 0.065652549 2.3509527e-38
-0.064771146 -0.13459183 0.065652549 2.3509527e-38
-0.063037045 -0.13459183 0.065652549 2.3509527e-38
-0.061302945 -0.13459183 0.065652549 2.3509527e-38
-0.059568837 -0.13459183 0.065652549 2.3509886e-38
-0.057834737 -0.13459183 0.065652549 2.3509886e-38
-0.056100637 -0.13459183 0.065652549 2.341805e-38
-0.054366529 -0.13459183 0.065652549 2.341805e-38
