# .PCD v0.7 - Point Cloud Data file format
VERSION 0.7
FIELDS x y z rgb
SIZE 4 4 4 4
TYPE F F F F
COUNT 1 1 1 1
WIDTH 940
HEIGHT 1
VIEWPOINT 0 0 0 1 0 0 0
POINTS 940
DATA ascii
-0.054024927 -0.12270571 -0.034442112 2.3509168e-38
-0.052360658 -0.12349547 -0.037415192 2.3509168e-38
-0.050461814 -0.12270571 -0.034442112 2.3509168e-38
-0.048680257 -0.12270571 -0.034442112 2.3509527e-38
-0.0468987 -0.12270571 -0.034442112 2.3509527e-38
-0.045117147 -0.12270571 -0.034442112 2.3509524e-38
-0.043335591 -0.12270571 -0.034442112 2.3509524e-38
-0.041554034 -0.12270571 -0.034442112 2.3509883e-38
-0.039772477 -0.12270571 -0.034442112 2.3509527e-38
-0.037302863 -0.11551671 -0.0073780268 2.3509886e-38
-0.035568759 -0.11551671 -0.0073780268 2.3509886e-38
-0.033724837 -0.11418571 -0.0023673624 2.3509886e-38
-0.031999521 -0.11418571 -0.0023673624 2.3509886e-38
-0.0077178711 -0.12189357 -0.031384632 2.3509886e-38
-0.0059603257 -0.12108628 -0.02834551 2.3509886e-38
-0.0042125024 -0.1203105 -0.025425002 2.3509886e-38
-0.0024467567 -0.1203105 -0.025425002 2.3509886e-38
-0.00064772647 -0.12108628 -0.02834551 2.3509886e-38
0.0010452392 -0.11951269 -0.022421524 2.3509886e-38
0.0028057192 -0.11951269 -0.022421524 2.3509886e-38
0.0045661991 -0.11951269 -0.022421524 2.3509886e-38
0.0063266801 -0.11951269 -0.022421524 2.3509886e-38
0.0080871591 -0.11951269 -0.022421524 2.3509886e-38
0.0098476382 -0.11951269 -0.022421524 2.3509886e-38
0.011608119 -0.11951269 -0.022421524 2.3509886e-38
0.013444957 -0.1203105 -0.025425002 2.3509886e-38
0.015210704 -0.1203105 -0.025425002 2.3509886e-38
0.01697645 -0.1203105 -0.025425002 2.3509886e-38
0.01865004 -0.11951269 -0.022421524 2.3509886e-38
0.020410519 -0.11951269 -0.022421524 2.3509886e-38
0.022068914 -0.11871959 -0.019435808 2.3509886e-38
0.023713935 -0.11790501 -0.016369209 2.3509886e-38
0.025463805 -0.11790501 -0.016369209 2.3509886e-38
0.026977774 -0.11631663 -0.010389552 2.3509886e-38
0.02871716 -0.11631663 -0.010389552 2.3509886e-38
0.030111935 -0.11418571 -0.0023673624 2.3509886e-38
0.031837255 -0.11418571 -0.0023673624 2.3509886e-38
0.033562575 -0.11418571 -0.0023673624 2.3509886e-38
0.035287891 -0.11418571 -0.0023673624 2.3509886e-38
0.036865145 -0.11339863 0.00059570372 2.3509886e-38
0.038585268 -0.11339863 0.00059570372 2.3509886e-38
0.040305391 -0.11339863 0.00059570372 2.3509886e-38
0.042025514 -0.11339863 0.00059570372 2.3509886e-38
0.044712353 -0.11790501 -0.016369209 2.3509883e-38
0.046462223 -0.11790501 -0.016369209 2.3509883e-38
0.048212092 -0.11790501 -0.016369209 2.3509883e-38
0.049961958 -0.11790501 -0.016369209 2.3509883e-38
0.051711824 -0.11790501 -0.016369209 2.3509883e-38
0.053461697 -0.11790501 -0.016369209 2.3509883e-38
0.055012446 -0.11712147 -0.013419434 2.3509527e-38
0.056757141 -0.11712147 -0.013419434 2.3509527e-38
0.058072839 -0.11551671 -0.0073780268 2.3509527e-38
0.059806939 -0.11551671 -0.0073780268 2.3509527e-38
0.061541039 -0.11551671 -0.0073780268 2.3509527e-38
0.063504837 -0.11631663 -0.010389552 7.0054259e-39
-0.057854675 -0.12608187 -0.040405795 2.341805e-38
-0.056062661 -0.12608187 -0.040405795 2.3417691e-38
-0.054270647 -0.12608187 -0.040405795 2.3509168e-38
-0.052478638 -0.12608187 -0.040405795 2.3509168e-38
-0.050686624 -0.12608187 -0.040405795 2.3509168e-38
-0.048894614 -0.12608187 -0.040405795 2.3509527e-38
-0.046794165 -0.12366976 -0.031384632 2.3509527e-38
-0.045017973 -0.12366976 -0.031384632 2.3509524e-38
-0.043335591 -0.1244873 -0.034442112 2.3509524e-38
-0.041554034 -0.1244873 -0.034442112 2.3509883e-38
-0.039772477 -0.1244873 -0.034442112 2.3509527e-38
-0.037302863 -0.11725079 -0.0073780268 2.3509886e-38
-0.035568759 -0.11725079 -0.0073780268 2.3509886e-38
-0.033724837 -0.11591102 -0.0023673624 2.3509886e-38
-0.031999521 -0.11591102 -0.0023673624 2.3509886e-38
-0.0077178711 -0.12366976 -0.031384632 2.3509886e-38
-0.0059603257 -0.12285714 -0.02834551 2.3509886e-38
-0.0042361999 -0.12127317 -0.022421524 2.3509886e-38
-0.0024757199 -0.12127317 -0.022421524 2.3509886e-38
-0.00064772647 -0.12285714 -0.02834551 2.3509886e-38
0.0010452392 -0.12127317 -0.022421524 2.3509886e-38
0.0028057192 -0.12127317 -0.022421524 2.3509886e-38
0.0045661991 -0.12127317 -0.022421524 2.3509886e-38
0.0063266801 -0.12127317 -0.022421524 2.3509886e-38
0.0080871591 -0.12127317 -0.022421524 2.3509886e-38
0.0098476382 -0.12127317 -0.022421524 2.3509886e-38
0.011537447 -0.12047486 -0.019435808 2.3509886e-38
0.013292692 -0.12047486 -0.019435808 2.3509886e-38
0.015210704 -0.12207626 -0.025425002 2.3509886e-38
0.01697645 -0.12207626 -0.025425002 2.3509886e-38
0.01865004 -0.12127317 -0.022421524 2.3509886e-38
0.020410519 -0.12127317 -0.022421524 2.3509886e-38
0.022068914 -0.12047486 -0.019435808 2.3509886e-38
0.023713935 -0.11965488 -0.016369209 2.3509886e-38
0.025352608 -0.11886616 -0.013419434 2.3509886e-38
0.026858971 -0.11725079 -0.0073780268 2.3509886e-38
0.028593075 -0.11725079 -0.0073780268 2.3509886e-38
0.030111935 -0.11591102 -0.0023673624 2.3509886e-38
0.031837255 -0.11591102 -0.0023673624 2.3509886e-38
0.033562575 -0.11591102 -0.0023673624 2.3509886e-38
0.035287891 -0.11591102 -0.0023673624 2.3509886e-38
0.036865145 -0.11511876 0.00059570372 2.3509886e-38
0.038585268 -0.11511876 0.00059570372 2.3509886e-38
0.040305391 -0.11511876 0.00059570372 2.3509886e-38
0.042025514 -0.11511876 0.00059570372 2.3509886e-38
0.043745637 -0.11511876 0.00059570372 2.3234015e-38
0.045639802 -0.11591102 -0.0023673624 2.3418047e-38
0.047185883 -0.11511876 0.00059570372 2.3509883e-38
0.048906006 -0.11511876 0.00059570372 2.3417687e-38
0.050626133 -0.11511876 0.00059570372 2.3509883e-38
0.052870523 -0.11725079 -0.0073780268 2.3325492e-38
0.05480792 -0.11805601 -0.010389552 2.3048545e-38
0.056547303 -0.11805601 -0.010389552 2.3509883e-38
0.058072839 -0.11725079 -0.0073780268 2.3416248e-38
0.059806939 -0.11725079 -0.0073780268 2.3509524e-38
0.061541039 -0.11725079 -0.0073780268 2.3415529e-38
0.063504837 -0.11805601 -0.010389552 4.6079766e-39
0.06524422 -0.11805601 -0.010389552 3.039216e-39
0.066743359 -0.11725079 -0.0073780268 5.8976364e-39
-0.054270647 -0.12787388 -0.040405795 2.3509527e-38
-0.052478638 -0.12787388 -0.040405795 2.3509168e-38
-0.050686624 -0.12787388 -0.040405795 2.3509527e-38
-0.048461124 -0.12462802 -0.02834551 2.3509527e-38
-0.046690259 -0.12462802 -0.02834551 2.3509527e-38
-0.045017973 -0.12544595 -0.031384632 2.3509527e-38
-0.043241777 -0.12544595 -0.031384632 2.3509524e-38
-0.04146558 -0.12544595 -0.031384632 2.3509883e-38
-0.039689384 -0.12544595 -0.031384632 2.3509886e-38
-0.037302863 -0.11898489 -0.0073780268 2.3509886e-38
-0.035450157 -0.11763634 -0.0023673624 2.3509886e-38
-0.033659898 -0.11683889 0.00059570372 2.3509886e-38
-0.031878479 -0.11602069 0.0036357194 2.3509886e-38
-0.030163683 -0.11602069 0.0036357194 2.3509886e-38
-0.0059966799 -0.12303366 -0.022421524 2.3509886e-38
-0.0042361999 -0.12303366 -0.022421524 2.3509886e-38
-0.0024757199 -0.12303366 -0.022421524 2.3509886e-38
-0.00064772647 -0.12462802 -0.02834551 2.3509886e-38
0.0010452392 -0.12303366 -0.022421524 2.3509886e-38
0.0028057192 -0.12303366 -0.022421524 2.3509886e-38
0.0045661991 -0.12303366 -0.022421524 2.3509886e-38
0.0063266801 -0.12303366 -0.022421524 2.3509886e-38
0.0080871591 -0.12303366 -0.022421524 2.3509886e-38
0.0098476382 -0.12303366 -0.022421524 2.3509886e-38
0.011537447 -0.1222301 -0.019435808 2.3509886e-38
0.013292692 -0.1222301 -0.019435808 2.3509886e-38
0.015290073 -0.12462802 -0.02834551 2.3509886e-38
0.017060939 -0.12462802 -0.02834551 2.3509886e-38
0.018742196 -0.12384202 -0.025425002 2.3509886e-38
0.020507939 -0.12384202 -0.025425002 2.3509886e-38
0.022068914 -0.1222301 -0.019435808 2.3509886e-38
0.023499008 -0.1197954 -0.010389552 2.3509886e-38
0.025238391 -0.1197954 -0.010389552 2.3509886e-38
0.026858971 -0.11898489 -0.0073780268 2.3509886e-38
0.028509445 -0.11843865 -0.0053483695 2.3509886e-38
0.030111935 -0.11763634 -0.0023673624 2.3509886e-38
0.031837255 -0.11763634 -0.0023673624 2.3509886e-38
0.033562575 -0.11763634 -0.0023673624 2.3509886e-38
0.035145022 -0.11683889 0.00059570372 2.3509886e-38
0.036713235 -0.11602069 0.0036357194 2.3509886e-38
0.038428027 -0.11602069 0.0036357194 2.3509886e-38
0.040142823 -0.11602069 0.0036357194 2.3509886e-38
0.041857615 -0.11602069 0.0036357194 2.3509886e-38
0.043572407 -0.11602069 0.0036357194 2.3418047e-38
0.04546576 -0.11683889 0.00059570372 2.1390102e-38
0.047185883 -0.11683889 0.00059570372 1.6595211e-38
0.048906006 -0.11683889 0.00059570372 9.9571252e-39
0.050626133 -0.11683889 0.00059570372 8.758582e-39
0.052737076 -0.11843865 -0.0053483695 6.3614957e-39
0.05480792 -0.1197954 -0.010389552 5.5313749e-39
0.056547303 -0.1197954 -0.010389552 4.9782011e-39
0.058072839 -0.11898489 -0.0073780268 6.728839e-39
0.059659254 -0.11843865 -0.0053483695 7.0976188e-39
0.0613898 -0.11843865 -0.0053483695 7.3738455e-39
0.063275151 -0.11898489 -0.0073780268 1.6577165e-39
0.065009251 -0.11898489 -0.0073780268 3.1317675e-39
0.066743359 -0.11898489 -0.0073780268 5.252267e-39
-0.052004553 -0.11476754 0.014592066 2.3509527e-38
-0.050308973 -0.11476754 0.014592066 2.3509527e-38
-0.050231993 -0.12639888 -0.02834551 2.3509527e-38
-0.048461124 -0.12639888 -0.02834551 2.3509527e-38
-0.046690259 -0.12639888 -0.02834551 2.3509527e-38
-0.044919394 -0.12639888 -0.02834551 2.3509527e-38
-0.043241777 -0.12722217 -0.031384632 2.3509527e-38
-0.04146558 -0.12722217 -0.031384632 2.3509527e-38
-0.039689384 -0.12722217 -0.031384632 2.3509886e-38
-0.037022859 -0.11773549 0.0036357194 2.3509886e-38
-0.035308063 -0.11773549 0.0036357194 2.3509886e-38
-0.033529118 -0.11694257 0.0065627843 2.3509886e-38
-0.031819459 -0.11694257 0.0065627843 2.3509886e-38
-0.03007175 -0.11638273 0.0086294562 2.3509886e-38
-0.028315902 -0.11557265 0.011619881 2.3509886e-38
-0.026615109 -0.11557265 0.011619881 2.3509886e-38
-0.024953641 -0.11638273 0.0086294562 2.3509886e-38
-0.023213521 -0.11557265 0.011619881 2.3509886e-38
-0.021512728 -0.11557265 0.011619881 2.3509886e-38
-0.019811932 -0.11557265 0.011619881 2.3509886e-38
-0.0062055802 -0.11557265 0.011619881 2.3509886e-38
-0.0045047868 -0.11557265 0.011619881 2.3509886e-38
-0.0023892857 -0.12722217 -0.031384632 2.3509886e-38
-0.00061309058 -0.12722217 -0.031384632 2.3509886e-38
0.0011631045 -0.12722217 -0.031384632 2.3509886e-38
0.0029392997 -0.12722217 -0.031384632 2.3509886e-38
0.0039991839 -0.11557265 0.011619881 2.3509886e-38
0.0056999763 -0.11557265 0.011619881 2.3509886e-38
0.0074007707 -0.11557265 0.011619881 2.3509886e-38
0.0090364246 -0.11476754 0.014592066 2.3509886e-38
0.010732007 -0.11476754 0.014592066 2.3509886e-38
0.01242759 -0.11476754 0.014592066 2.3509886e-38
0.014123172 -0.11476754 0.014592066 2.3509886e-38
0.015818756 -0.11476754 0.014592066 2.3509886e-38
0.01901887 -0.1280504 -0.034442112 2.3509886e-38
0.020800427 -0.1280504 -0.034442112 2.3509886e-38
0.02258198 -0.1280504 -0.034442112 2.3509886e-38
0.023499008 -0.12153481 -0.010389552 2.3509886e-38
0.025048357 -0.12016918 -0.0053483695 2.3509886e-38
0.026778899 -0.12016918 -0.0053483695 2.3509886e-38
0.028386619 -0.11936165 -0.0023673624 2.3509886e-38
0.029984653 -0.11855899 0.00059570372 2.3509886e-38
0.031704776 -0.11855899 0.00059570372 2.3509886e-38
0.033424899 -0.11855899 0.00059570372 2.3509886e-38
0.034998443 -0.11773549 0.0036357194 2.3509886e-38
0.036713235 -0.11773549 0.0036357194 2.3509886e-38
0.038428027 -0.11773549 0.0036357194 2.3509886e-38
0.03998629 -0.11694257 0.0065627843 2.3509886e-38
0.041695952 -0.11694257 0.0065627843 2.3509886e-38
0.043572407 -0.11773549 0.0036357194 2.3418047e-38
0.045287199 -0.11773549 0.0036357194 2.185108e-38
0.047001991 -0.11773549 0.0036357194 1.4935689e-38
0.048716787 -0.11773549 0.0036357194 4.4253874e-39
0.050626133 -0.11855899 0.00059570372 4.0569608e-39
0.052737076 -0.12016918 -0.0053483695 2.1208526e-39
0.054604631 -0.120719 -0.0073780268 2.8576988e-39
0.056338731 -0.120719 -0.0073780268 2.6733075e-39
0.058072839 -0.120719 -0.0073780268 3.4097936e-39
0.059659254 -0.12016918 -0.0053483695 3.3175979e-39
0.0613898 -0.12016918 -0.0053483695 2.3952815e-39
0.063275151 -0.120719 -0.0073780268 5.5299315e-39
0.065009251 -0.120719 -0.0073780268 5.9909097e-39
-0.053700138 -0.11646311 0.014592066 2.3141103e-38
-0.052004553 -0.11646311 0.014592066 2.3509527e-38
-0.050308973 -0.11646311 0.014592066 2.3509527e-38
-0.048613388 -0.11646311 0.014592066 2.3509527e-38
-0.046917807 -0.11646311 0.014592066 2.3509527e-38
-0.045222223 -0.11646311 0.014592066 2.3509527e-38
-0.043623049 -0.11727346 0.011619881 2.3509527e-38
-0.041922256 -0.11727346 0.011619881 2.3509527e-38
-0.04022146 -0.11727346 0.011619881 2.3509886e-38
-0.039689384 -0.12899835 -0.031384632 2.3509886e-38
-0.037022859 -0.11945029 0.0036357194 2.3509886e-38
-0.035308063 -0.11945029 0.0036357194 2.3509886e-38
-0.033529118 -0.11865224 0.0065627843 2.3509886e-38
-0.031819459 -0.11865224 0.0065627843 2.3509886e-38
-0.03007175 -0.11808877 0.0086294562 2.3509886e-38
-0.028315902 -0.11727346 0.011619881 2.3509886e-38
-0.026615109 -0.11727346 0.011619881 2.3509886e-38
-0.024953641 -0.11808877 0.0086294562 2.3509886e-38
-0.023213521 -0.11727346 0.011619881 2.3509886e-38
-0.021512728 -0.11727346 0.011619881 2.3509886e-38
-0.019811932 -0.11727346 0.011619881 2.3509886e-38
-0.01811114 -0.11727346 0.011619881 2.3509886e-38
-0.016410343 -0.11727346 0.011619881 2.3509886e-38
-0.013011378 -0.11808877 0.0086294562 2.3509886e-38
-0.011305341 -0.11808877 0.0086294562 2.3509886e-38
-0.0095993029 -0.11808877 0.0086294562 2.3509886e-38
-0.0078932671 -0.11808877 0.0086294562 2.3509886e-38
-0.0062055802 -0.11727346 0.011619881 2.3509886e-38
-0.0045047868 -0.11727346 0.011619881 2.3509886e-38
-0.0028039925 -0.11727346 0.011619881 2.3509886e-38
-0.0011031991 -0.11727346 0.011619881 2.3509886e-38
0.00059759524 -0.11727346 0.011619881 2.3509886e-38
0.0023429561 -0.11808877 0.0086294562 2.3509886e-38
0.0039991839 -0.11727346 0.011619881 2.3509886e-38
0.0056999763 -0.11727346 0.011619881 2.3509886e-38
0.0074007707 -0.11727346 0.011619881 2.3509886e-38
0.0090364246 -0.11646311 0.014592066 2.3509886e-38
0.010732007 -0.11646311 0.014592066 2.3509886e-38
0.01242759 -0.11646311 0.014592066 2.3509886e-38
0.014123172 -0.11646311 0.014592066 2.3509886e-38
0.015818756 -0.11646311 0.014592066 2.3509886e-38
0.017514337 -0.11646311 0.014592066 2.3509886e-38
0.020800427 -0.12983195 -0.034442112 2.3509886e-38
0.02258198 -0.12983195 -0.034442112 2.3509886e-38
0.024363536 -0.12983195 -0.034442112 2.3509886e-38
0.024408709 -0.11727346 0.011619881 2.3509886e-38
0.026109502 -0.11727346 0.011619881 2.3509886e-38
0.027933512 -0.11808877 0.0086294562 2.3509886e-38
0.02963955 -0.11808877 0.0086294562 2.3509886e-38
0.031345587 -0.11808877 0.0086294562 2.3509886e-38
0.033147648 -0.11865224 0.0065627843 2.3509886e-38
0.03485731 -0.11865224 0.0065627843 2.3509886e-38
0.036566969 -0.11865224 0.0065627843 2.3509886e-38
0.038276631 -0.11865224 0.0065627843 2.3509886e-38
0.039875772 -0.11808877 0.0086294562 2.3509886e-38
0.04158181 -0.11808877 0.0086294562 2.3509886e-38
0.043405615 -0.11865224 0.0065627843 2.3418047e-38
0.045115273 -0.11865224 0.0065627843 2.3418047e-38
0.047001991 -0.11945029 0.0036357194 1.6503015e-38
0.048716787 -0.11945029 0.0036357194 5.7161262e-39
0.050626133 -0.12027912 0.00059570372 5.3476997e-39
0.052737076 -0.12189974 -0.0053483695 4.8867215e-39
0.054604631 -0.12245311 -0.0073780268 5.8079589e-39
0.056338731 -0.12245311 -0.0073780268 6.1767415e-39
0.058072839 -0.12245311 -0.0073780268 4.8860026e-39
0.059806939 -0.12245311 -0.0073780268 4.9774766e-39
0.061541039 -0.12245311 -0.0073780268 3.4101509e-39
0.063275151 -0.12245311 -0.0073780268 6.5448023e-39
-0.060630992 -0.11897425 0.011619881 2.23135e-38
-0.058930188 -0.11897425 0.011619881 2.3234379e-38
-0.0572294 -0.11897425 0.011619881 2.341805e-38
-0.055528611 -0.11897425 0.011619881 2.3509886e-38
-0.053700138 -0.11815868 0.014592066 2.2495734e-38
-0.052004553 -0.11815868 0.014592066 2.3509527e-38
-0.050188806 -0.11732288 0.017638043 2.3509527e-38
-0.048498567 -0.11732288 0.017638043 2.3509527e-38
-0.046917807 -0.11815868 0.014592066 2.3509527e-38
-0.045222223 -0.11815868 0.014592066 2.3509527e-38
-0.043526642 -0.11815868 0.014592066 2.3509886e-38
-0.041831058 -0.11815868 0.014592066 2.3509886e-38
-0.040135473 -0.11815868 0.014592066 2.3509886e-38
-0.038520664 -0.11897425 0.011619881 2.3509886e-38
-0.036895901 -0.1197948 0.0086294562 2.3509886e-38
-0.035119079 -0.11897425 0.011619881 2.3509886e-38
-0.033418283 -0.11897425 0.011619881 2.3509886e-38
-0.031819459 -0.12036191 0.0065627843 2.3509886e-38
-0.0301098 -0.12036191 0.0065627843 2.3509886e-38
-0.028400138 -0.12036191 0.0065627843 2.3509886e-38
-0.026690476 -0.12036191 0.0065627843 2.3509886e-38
-0.024953641 -0.1197948 0.0086294562 2.3509886e-38
-0.0232476 -0.1197948 0.0086294562 2.3509886e-38
-0.021512728 -0.11897425 0.011619881 2.3509886e-38
-0.019811932 -0.11897425 0.011619881 2.3509886e-38
-0.01811114 -0.11897425 0.011619881 2.3509886e-38
-0.016410343 -0.11897425 0.011619881 2.3509886e-38
-0.01470955 -0.11897425 0.011619881 2.3509886e-38
-0.013008756 -0.11897425 0.011619881 2.3509886e-38
-0.011307963 -0.11897425 0.011619881 2.3509886e-38
-0.0096071688 -0.11897425 0.011619881 2.3509886e-38
-0.0079063745 -0.11897425 0.011619881 2.3509886e-38
-0.0062055802 -0.11897425 0.011619881 2.3509886e-38
-0.0045047868 -0.11897425 0.011619881 2.3509886e-38
-0.0028039925 -0.11897425 0.011619881 2.3509886e-38
-0.0011031991 -0.11897425 0.011619881 2.3509886e-38
0.00059759524 -0.11897425 0.011619881 2.3509886e-38
0.0022983896 -0.11897425 0.011619881 2.3509886e-38
0.0039991839 -0.11897425 0.011619881 2.3509886e-38
0.0056999763 -0.11897425 0.011619881 2.3509886e-38
0.0073408419 -0.11815868 0.014592066 2.3509886e-38
0.0090364246 -0.11815868 0.014592066 2.3509886e-38
0.010732007 -0.11815868 0.014592066 2.3509886e-38
0.01242759 -0.11815868 0.014592066 2.3509886e-38
0.014123172 -0.11815868 0.014592066 2.3509886e-38
0.015818756 -0.11815868 0.014592066 2.3509886e-38
0.017514337 -0.11815868 0.014592066 2.3509886e-38
0.019209921 -0.11815868 0.014592066 2.3509886e-38
0.021007121 -0.11897425 0.011619881 2.3509886e-38
0.022707917 -0.11897425 0.011619881 2.3509886e-38
0.024408709 -0.11897425 0.011619881 2.3509886e-38
0.026109502 -0.11897425 0.011619881 2.3509886e-38
0.027810298 -0.11897425 0.011619881 2.3509886e-38
0.02951109 -0.11897425 0.011619881 2.3509886e-38
0.031211887 -0.11897425 0.011619881 2.3509886e-38
0.032912679 -0.11897425 0.011619881 2.3509886e-38
0.034613471 -0.11897425 0.011619881 2.3509886e-38
0.036165748 -0.11815868 0.014592066 2.3509886e-38
0.037861329 -0.11815868 0.014592066 2.3509886e-38
0.039875772 -0.1197948 0.0086294562 2.3509886e-38
0.04158181 -0.1197948 0.0086294562 2.3509886e-38
0.043287847 -0.1197948 0.0086294562 2.3048905e-38
0.045115273 -0.12036191 0.0065627843 2.3509883e-38
0.047001991 -0.12116508 0.0036357194 1.6134588e-38
0.048716787 -0.12116508 0.0036357194 6.7306341e-39
0.050626133 -0.12199925 0.00059570372 5.3476997e-39
0.052346256 -0.12199925 0.00059570372 5.9930691e-39
-0.062331781 -0.12067504 0.011619881 2.3142544e-38
-0.060630992 -0.12067504 0.011619881 2.2589368e-38
-0.058930188 -0.12067504 0.011619881 2.341805e-38
-0.0572294 -0.12067504 0.011619881 2.3141822e-38
-0.055528611 -0.12067504 0.011619881 2.3233299e-38
-0.053827811 -0.12067504 0.011619881 2.3509886e-38
-0.052127019 -0.12067504 0.011619881 2.3509527e-38
-0.050188806 -0.11901312 0.017638043 2.3509527e-38
-0.048498567 -0.11901312 0.017638043 2.3509527e-38
-0.046917807 -0.11985429 0.014592066 2.3509886e-38
-0.045222223 -0.11985429 0.014592066 2.3509886e-38
-0.043526642 -0.11985429 0.014592066 2.341805e-38
-0.041831058 -0.11985429 0.014592066 2.341805e-38
-0.040135473 -0.11985429 0.014592066 2.341805e-38
-0.038520664 -0.12067504 0.011619881 2.3509886e-38
-0.036819875 -0.12067504 0.011619881 2.3509886e-38
-0.035119079 -0.12067504 0.011619881 2.3509886e-38
-0.033418283 -0.12067504 0.011619881 2.3509886e-38
-0.03171749 -0.12067504 0.011619881 2.3509886e-38
-0.030016698 -0.12067504 0.011619881 2.3509886e-38
-0.028315902 -0.12067504 0.011619881 2.3509886e-38
-0.026615109 -0.12067504 0.011619881 2.3509886e-38
-0.024914317 -0.12067504 0.011619881 2.3509886e-38
-0.023213521 -0.12067504 0.011619881 2.3509886e-38
-0.021512728 -0.12067504 0.011619881 2.3509886e-38
-0.019811932 -0.12067504 0.011619881 2.3509886e-38
-0.01811114 -0.12067504 0.011619881 2.3509886e-38
-0.016410343 -0.12067504 0.011619881 2.3509886e-38
-0.01470955 -0.12067504 0.011619881 2.3509886e-38
-0.013008756 -0.12067504 0.011619881 2.3509886e-38
-0.011307963 -0.12067504 0.011619881 2.3509886e-38
-0.0096071688 -0.12067504 0.011619881 2.3509886e-38
-0.0079063745 -0.12067504 0.011619881 2.3509886e-38
-0.0062055802 -0.12067504 0.011619881 2.3509886e-38
-0.0045047868 -0.12067504 0.011619881 2.3509886e-38
-0.0028039925 -0.12067504 0.011619881 2.3509886e-38
-0.0011031991 -0.12067504 0.011619881 2.3509886e-38
0.00055851135 -0.11985429 0.014592066 2.3509886e-38
0.002254094 -0.11985429 0.014592066 2.3509886e-38
0.0039991839 -0.12067504 0.011619881 2.3509886e-38
0.0056452593 -0.11985429 0.014592066 2.3509886e-38
0.0073408419 -0.11985429 0.014592066 2.3509886e-38
0.0090364246 -0.11985429 0.014592066 2.3509886e-38
0.010732007 -0.11985429 0.014592066 2.3509886e-38
0.01242759 -0.11985429 0.014592066 2.3509886e-38
0.014040393 -0.11901312 0.017638043 2.3509886e-38
0.015730634 -0.11901312 0.017638043 2.3509886e-38
0.017514337 -0.11985429 0.014592066 2.3509886e-38
0.019209921 -0.11985429 0.014592066 2.3509886e-38
0.021007121 -0.12067504 0.011619881 2.3509886e-38
0.022707917 -0.12067504 0.011619881 2.3509886e-38
0.024408709 -0.12067504 0.011619881 2.3509886e-38
0.026109502 -0.12067504 0.011619881 2.3509886e-38
0.027810298 -0.12067504 0.011619881 2.3509886e-38
0.02951109 -0.12067504 0.011619881 2.3509886e-38
0.031078998 -0.11985429 0.014592066 2.3509886e-38
0.032774583 -0.11985429 0.014592066 2.3509886e-38
0.034323297 -0.11901312 0.017638043 2.3509886e-38
0.035917174 -0.11848058 0.019566491 2.3509886e-38
0.037604034 -0.11848058 0.019566491 2.3509886e-38
0.039715856 -0.12067504 0.011619881 2.3509886e-38
0.040811248 -0.11764805 0.022581294 2.3509886e-38
0.042492826 -0.11764805 0.022581294 2.3325492e-38
0.044993885 -0.12150083 0.0086294562 2.2956709e-38
0.047001991 -0.12287988 0.0036357194 1.5304828e-38
0.048906006 -0.12371938 0.00059570372 7.6525904e-39
0.050815757 -0.12453763 -0.0023673624 6.5462428e-39
0.052870523 -0.12592132 -0.0073780268 8.0213729e-39
0.05480792 -0.12675296 -0.010389552 6.5462414e-39
-0.063873634 -0.12154986 0.014592066 2.2682286e-38
-0.062178046 -0.12154986 0.014592066 2.3234379e-38
-0.060482472 -0.12154986 0.014592066 2.3234379e-38
-0.058786884 -0.12154986 0.014592066 2.3234018e-38
-0.057091303 -0.12154986 0.014592066 2.2495734e-38
-0.055395722 -0.12154986 0.014592066 2.2679762e-38
-0.053700138 -0.12154986 0.014592066 2.3509883e-38
-0.052004553 -0.12154986 0.014592066 2.3509883e-38
-0.050308973 -0.12154986 0.014592066 2.3509883e-38
-0.048613388 -0.12154986 0.014592066 2.3509886e-38
-0.046917807 -0.12154986 0.014592066 2.3509886e-38
-0.045222223 -0.12154986 0.014592066 2.3509886e-38
-0.043526642 -0.12154986 0.014592066 2.341805e-38
-0.041831058 -0.12154986 0.014592066 2.341805e-38
-0.040135473 -0.12154986 0.014592066 2.341805e-38
-0.038520664 -0.12237583 0.011619881 2.3509886e-38
-0.036819875 -0.12237583 0.011619881 2.3509886e-38
-0.035119079 -0.12237583 0.011619881 2.3509886e-38
-0.033418283 -0.12237583 0.011619881 2.3509886e-38
-0.03171749 -0.12237583 0.011619881 2.3509886e-38
-0.030016698 -0.12237583 0.011619881 2.3509886e-38
-0.028266396 -0.12154986 0.014592066 2.3509886e-38
-0.026570812 -0.12154986 0.014592066 2.3509886e-38
-0.024875231 -0.12154986 0.014592066 2.3509886e-38
-0.023213521 -0.12237583 0.011619881 2.3509886e-38
-0.021512728 -0.12237583 0.011619881 2.3509886e-38
-0.019811932 -0.12237583 0.011619881 2.3509886e-38
-0.01811114 -0.12237583 0.011619881 2.3509886e-38
-0.016410343 -0.12237583 0.011619881 2.3509886e-38
-0.01470955 -0.12237583 0.011619881 2.3509886e-38
-0.013008756 -0.12237583 0.011619881 2.3509886e-38
-0.011307963 -0.12237583 0.011619881 2.3509886e-38
-0.0096149845 -0.12154986 0.014592066 2.3509886e-38
-0.0079194037 -0.12154986 0.014592066 2.3509886e-38
-0.0062238201 -0.12154986 0.014592066 2.3509886e-38
-0.0045282366 -0.12154986 0.014592066 2.3509886e-38
-0.0028326549 -0.12154986 0.014592066 2.3509886e-38
-0.0011370722 -0.12154986 0.014592066 2.3509886e-38
0.00055851135 -0.12154986 0.014592066 2.3509886e-38
0.002254094 -0.12154986 0.014592066 2.3509886e-38
0.0039496766 -0.12154986 0.014592066 2.3509886e-38
0.0056452593 -0.12154986 0.014592066 2.3509886e-38
0.0073408419 -0.12154986 0.014592066 2.3509886e-38
0.0090364246 -0.12154986 0.014592066 2.3509886e-38
0.01065991 -0.12070335 0.017638043 2.3509886e-38
0.01235015 -0.12070335 0.017638043 2.3509886e-38
0.014040393 -0.12070335 0.017638043 2.3509886e-38
0.015730634 -0.12070335 0.017638043 2.3509886e-38
0.017420877 -0.12070335 0.017638043 2.3509886e-38
0.019111119 -0.12070335 0.017638043 2.3509886e-38
0.020905502 -0.12154986 0.014592066 2.3509886e-38
0.022601087 -0.12154986 0.014592066 2.3509886e-38
0.024408709 -0.12237583 0.011619881 2.3509886e-38
0.026109502 -0.12237583 0.011619881 2.3509886e-38
0.027687833 -0.12154986 0.014592066 2.3509886e-38
0.029383417 -0.12154986 0.014592066 2.3509886e-38
0.030942813 -0.12070335 0.017638043 2.3509886e-38
0.032633055 -0.12070335 0.017638043 2.3509886e-38
0.034323297 -0.12070335 0.017638043 2.3509886e-38
0.035917174 -0.12016745 0.019566491 2.3509886e-38
0.037604034 -0.12016745 0.019566491 2.3509886e-38
0.039290898 -0.12016745 0.019566491 2.3509886e-38
0.040811248 -0.11932962 0.022581294 2.3509886e-38
0.042492826 -0.11932962 0.022581294 2.3509883e-38
0.044174399 -0.11932962 0.022581294 2.1942557e-38
0.047001991 -0.12459467 0.0036357194 1.5397023e-38
0.048906006 -0.12543948 0.00059570372 7.3760035e-39
0.051006529 -0.12709136 -0.0053483695 6.0852647e-39
0.052870523 -0.12765543 -0.0073780268 6.3618516e-39
0.05480792 -0.12849234 -0.010389552 6.6384371e-39
0.056547303 -0.12849234 -0.010389552 6.1774589e-39
-0.063873634 -0.12324543 0.014592066 2.3050347e-38
-0.062178046 -0.12324543 0.014592066 2.3234379e-38
-0.060482472 -0.12324543 0.014592066 2.341805e-38
-0.058786884 -0.12324543 0.014592066 2.3509886e-38
-0.057091303 -0.12324543 0.014592066 2.3509886e-38
-0.055395722 -0.12324543 0.014592066 2.3416971e-38
-0.053700138 -0.12324543 0.014592066 2.3509527e-38
-0.052004553 -0.12324543 0.014592066 2.3509527e-38
-0.050308973 -0.12324543 0.014592066 2.3509527e-38
-0.048613388 -0.12324543 0.014592066 2.3509886e-38
-0.046917807 -0.12324543 0.014592066 2.3509886e-38
-0.045118082 -0.12239362 0.017638043 2.341805e-38
-0.04342784 -0.12239362 0.017638043 2.341805e-38
-0.041831058 -0.12324543 0.014592066 2.341805e-38
-0.040135473 -0.12324543 0.014592066 2.341805e-38
-0.038439892 -0.12324543 0.014592066 2.3509886e-38
-0.036744311 -0.12324543 0.014592066 2.3509886e-38
-0.035048727 -0.12324543 0.014592066 2.3509886e-38
-0.033353142 -0.12324543 0.014592066 2.3509886e-38
-0.03171749 -0.12407662 0.011619881 2.3509886e-38
-0.029961981 -0.12324543 0.014592066 2.3509886e-38
-0.028266396 -0.12324543 0.014592066 2.3509886e-38
-0.026570812 -0.12324543 0.014592066 2.3509886e-38
-0.024875231 -0.12324543 0.014592066 2.3509886e-38
-0.023179647 -0.12324543 0.014592066 2.3509886e-38
-0.021484066 -0.12324543 0.014592066 2.3509886e-38
-0.019788481 -0.12324543 0.014592066 2.3509886e-38
-0.018092901 -0.12324543 0.014592066 2.3509886e-38
-0.016397316 -0.12324543 0.014592066 2.3509886e-38
-0.014701734 -0.12324543 0.014592066 2.3509886e-38
-0.013006152 -0.12324543 0.014592066 2.3509886e-38
-0.011310567 -0.12324543 0.014592066 2.3509886e-38
-0.0096149845 -0.12324543 0.014592066 2.3509886e-38
-0.0079327552 -0.12239362 0.017638043 2.3509886e-38
-0.0062425127 -0.12239362 0.017638043 2.3509886e-38
-0.0045522703 -0.12239362 0.017638043 2.3509886e-38
-0.0028620278 -0.12239362 0.017638043 2.3509886e-38
-0.0011717854 -0.12239362 0.017638043 2.3509886e-38
0.0005184561 -0.12239362 0.017638043 2.3509886e-38
0.0022086985 -0.12239362 0.017638043 2.3509886e-38
0.00389894 -0.12239362 0.017638043 2.3509886e-38
0.0055891825 -0.12239362 0.017638043 2.3509886e-38
0.0072794249 -0.12239362 0.017638043 2.3509886e-38
0.0089274021 -0.12185432 0.019566491 2.3509886e-38
0.010614262 -0.12185432 0.019566491 2.3509886e-38
0.012301124 -0.12185432 0.019566491 2.3509886e-38
0.014040393 -0.12239362 0.017638043 2.3509886e-38
0.015730634 -0.12239362 0.017638043 2.3509886e-38
0.017420877 -0.12239362 0.017638043 2.3509886e-38
0.019111119 -0.12239362 0.017638043 2.3509886e-38
0.020905502 -0.12324543 0.014592066 2.3509886e-38
0.022601087 -0.12324543 0.014592066 2.3509886e-38
0.024296667 -0.12324543 0.014592066 2.3509886e-38
0.025992252 -0.12324543 0.014592066 2.3509886e-38
0.027687833 -0.12324543 0.014592066 2.3509886e-38
0.029383417 -0.12324543 0.014592066 2.3509886e-38
0.030942813 -0.12239362 0.017638043 2.3509886e-38
0.032633055 -0.12239362 0.017638043 2.3509886e-38
0.034323297 -0.12239362 0.017638043 2.3509886e-38
0.035917174 -0.12185432 0.019566491 2.3509886e-38
0.037604034 -0.12185432 0.019566491 2.3509886e-38
0.039290898 -0.12185432 0.019566491 2.3509886e-38
0.040811248 -0.12101121 0.022581294 2.3509886e-38
0.042492826 -0.12101121 0.022581294 2.3509883e-38
0.044174399 -0.12101121 0.022581294 2.1389383e-38
0.04651903 -0.12407662 0.011619881 1.6595211e-38
0.049090438 -0.12798826 -0.0023673624 7.4681991e-39
0.051006529 -0.12882192 -0.0053483695 5.4395394e-39
0.052870523 -0.12938951 -0.0073780268 4.0569608e-39
0.05480792 -0.13023172 -0.010389552 6.5462428e-39
0.056547303 -0.13023172 -0.010389552 6.9150254e-39
0.058286685 -0.13023172 -0.010389552 5.0711128e-39
-0.063873634 -0.12494104 0.014592066 2.341805e-38
-0.062178046 -0.12494104 0.014592066 2.3234018e-38
-0.060482472 -0.12494104 0.014592066 2.3509886e-38
-0.058786884 -0.12494104 0.014592066 2.3509886e-38
-0.057091303 -0.12494104 0.014592066 2.3509886e-38
-0.055395722 -0.12494104 0.014592066 2.3509886e-38
-0.053700138 -0.12494104 0.014592066 2.3509886e-38
-0.052004553 -0.12494104 0.014592066 2.3509886e-38
-0.050308973 -0.12494104 0.014592066 2.3509886e-38
-0.048613388 -0.12494104 0.014592066 2.3509886e-38
-0.046917807 -0.12494104 0.014592066 2.3509886e-38
-0.045118082 -0.12408386 0.017638043 2.3509886e-38
-0.04342784 -0.12408386 0.017638043 2.3509883e-38
-0.041831058 -0.12494104 0.014592066 2.3509883e-38
-0.040135473 -0.12494104 0.014592066 2.3509883e-38
-0.038439892 -0.12494104 0.014592066 2.3509886e-38
-0.036744311 -0.12494104 0.014592066 2.3509886e-38
-0.035048727 -0.12494104 0.014592066 2.3509886e-38
-0.033353142 -0.12494104 0.014592066 2.3509886e-38
-0.031657562 -0.12494104 0.014592066 2.3509886e-38
-0.0299059 -0.12408386 0.017638043 2.3509886e-38
-0.028215662 -0.12408386 0.017638043 2.3509886e-38
-0.026525419 -0.12408386 0.017638043 2.3509886e-38
-0.024835177 -0.12408386 0.017638043 2.3509886e-38
-0.023144934 -0.12408386 0.017638043 2.3509886e-38
-0.021484066 -0.12494104 0.014592066 2.3509886e-38
-0.019788481 -0.12494104 0.014592066 2.3509886e-38
-0.018074207 -0.12408386 0.017638043 2.3509886e-38
-0.016383965 -0.12408386 0.017638043 2.3509886e-38
-0.014701734 -0.12494104 0.014592066 2.3509886e-38
-0.013006152 -0.12494104 0.014592066 2.3509886e-38
-0.011310567 -0.12494104 0.014592066 2.3509886e-38
-0.0096229957 -0.12408386 0.017638043 2.3509886e-38
-0.0079327552 -0.12408386 0.017638043 2.3509886e-38
-0.0062425127 -0.12408386 0.017638043 2.3509886e-38
-0.0045522703 -0.12408386 0.017638043 2.3509886e-38
-0.0028620278 -0.12408386 0.017638043 2.3509886e-38
-0.0011717854 -0.12408386 0.017638043 2.3509886e-38
0.00049309712 -0.12354116 0.019566491 2.3509886e-38
0.0021799579 -0.12354116 0.019566491 2.3509886e-38
0.00389894 -0.12408386 0.017638043 2.3509886e-38
0.0055891825 -0.12408386 0.017638043 2.3509886e-38
0.0072794249 -0.12408386 0.017638043 2.3509886e-38
0.0089274021 -0.12354116 0.019566491 2.3509886e-38
0.010614262 -0.12354116 0.019566491 2.3509886e-38
0.012301124 -0.12354116 0.019566491 2.3509886e-38
0.014040393 -0.12408386 0.017638043 2.3509886e-38
0.015730634 -0.12408386 0.017638043 2.3509886e-38
0.017420877 -0.12408386 0.017638043 2.3509886e-38
0.019111119 -0.12408386 0.017638043 2.3509886e-38
0.020905502 -0.12494104 0.014592066 2.3509886e-38
0.022601087 -0.12494104 0.014592066 2.3509886e-38
0.024296667 -0.12494104 0.014592066 2.3509886e-38
0.025992252 -0.12494104 0.014592066 2.3509886e-38
0.027687833 -0.12494104 0.014592066 2.3509886e-38
0.029383417 -0.12494104 0.014592066 2.3509886e-38
0.030942813 -0.12408386 0.017638043 2.3509886e-38
0.032633055 -0.12408386 0.017638043 2.3509886e-38
0.034230314 -0.12354116 0.019566491 2.3509886e-38
0.035917174 -0.12354116 0.019566491 2.3509886e-38
0.037604034 -0.12354116 0.019566491 2.3509886e-38
0.039290898 -0.12354116 0.019566491 2.3509886e-38
0.040811248 -0.12269278 0.022581294 2.3509886e-38
0.042492826 -0.12269278 0.022581294 2.3509883e-38
0.044174399 -0.12269278 0.022581294 2.1850361e-38
0.045855973 -0.12269278 0.022581294 1.6595211e-38
0.049090438 -0.12971358 -0.0023673624 6.4536913e-39
0.051136423 -0.13112362 -0.0073780268 5.3473465e-39
0.05306853 -0.13197111 -0.010389552 4.240999e-39
0.05480792 -0.13197111 -0.010389552 4.4246714e-39
0.056547303 -0.13197111 -0.010389552 4.6090626e-39
0.058286685 -0.13197111 -0.010389552 4.7012583e-39
-0.065569215 -0.12663661 0.014592066 1.0511018e-38
-0.063873634 -0.12663661 0.014592066 2.3509883e-38
-0.062178046 -0.12663661 0.014592066 2.3325494e-38
-0.060482472 -0.12663661 0.014592066 2.3509886e-38
-0.058786884 -0.12663661 0.014592066 2.3509886e-38
-0.057091303 -0.12663661 0.014592066 2.3509886e-38
-0.055395722 -0.12663661 0.014592066 2.3509527e-38
-0.053700138 -0.12663661 0.014592066 2.3509527e-38
-0.052004553 -0.12663661 0.014592066 2.3509527e-38
-0.050308973 -0.12663661 0.014592066 2.3509527e-38
-0.048613388 -0.12663661 0.014592066 2.3509886e-38
-0.046917807 -0.12663661 0.014592066 2.3509886e-38
-0.045222223 -0.12663661 0.014592066 2.3509886e-38
-0.043526642 -0.12663661 0.014592066 2.3509883e-38
-0.041831058 -0.12663661 0.014592066 2.350988e-38
-0.040135473 -0.12663661 0.014592066 2.350988e-38
-0.038439892 -0.12663661 0.014592066 2.3509886e-38
-0.036744311 -0.12663661 0.014592066 2.3509886e-38
-0.035048727 -0.12663661 0.014592066 2.3509886e-38
-0.033353142 -0.12663661 0.014592066 2.3509886e-38
-0.031657562 -0.12663661 0.014592066 2.3509886e-38
-0.0299059 -0.1257741 0.017638043 2.3509886e-38
-0.028215662 -0.1257741 0.017638043 2.3509886e-38
-0.026525419 -0.1257741 0.017638043 2.3509886e-38
-0.024835177 -0.1257741 0.017638043 2.3509886e-38
-0.023144934 -0.1257741 0.017638043 2.3509886e-38
-0.021454692 -0.1257741 0.017638043 2.3509886e-38
-0.019764449 -0.1257741 0.017638043 2.3509886e-38
-0.018074207 -0.1257741 0.017638043 2.3509886e-38
-0.016383965 -0.1257741 0.017638043 2.3509886e-38
-0.014701734 -0.12663661 0.014592066 2.3509886e-38
-0.013003481 -0.1257741 0.017638043 2.3509886e-38
-0.011313238 -0.1257741 0.017638043 2.3509886e-38
-0.0096280677 -0.12522803 0.019566491 2.3509886e-38
-0.0079412078 -0.12522803 0.019566491 2.3509886e-38
-0.0062543461 -0.12522803 0.019566491 2.3509886e-38
-0.0045522703 -0.1257741 0.017638043 2.3509886e-38
-0.0028620278 -0.1257741 0.017638043 2.3509886e-38
-0.0011717854 -0.1257741 0.017638043 2.3509886e-38
0.00049309712 -0.12522803 0.019566491 2.3509886e-38
0.0021799579 -0.12522803 0.019566491 2.3509886e-38
0.0038668187 -0.12522803 0.019566491 2.3509886e-38
0.0055536805 -0.12522803 0.019566491 2.3509886e-38
0.0072405403 -0.12522803 0.019566491 2.3509886e-38
0.0089274021 -0.12522803 0.019566491 2.3509886e-38
0.010614262 -0.12522803 0.019566491 2.3509886e-38
0.012301124 -0.12522803 0.019566491 2.3509886e-38
0.013987984 -0.12522803 0.019566491 2.3509886e-38
0.015674844 -0.12522803 0.019566491 2.3509886e-38
0.017361704 -0.12522803 0.019566491 2.3509886e-38
0.019111119 -0.1257741 0.017638043 2.3509886e-38
0.020801362 -0.1257741 0.017638043 2.3509886e-38
0.022491604 -0.1257741 0.017638043 2.3509886e-38
0.024296667 -0.12663661 0.014592066 2.3509886e-38
0.025992252 -0.12663661 0.014592066 2.3509886e-38
0.027562328 -0.1257741 0.017638043 2.3509886e-38
0.02925257 -0.1257741 0.017638043 2.3509886e-38
0.030942813 -0.1257741 0.017638043 2.3509886e-38
0.032633055 -0.1257741 0.017638043 2.3509886e-38
0.034230314 -0.12522803 0.019566491 2.3509886e-38
0.035917174 -0.12522803 0.019566491 2.3509886e-38
0.037604034 -0.12522803 0.019566491 2.3509886e-38
0.039129674 -0.12437434 0.022581294 2.3509886e-38
0.040811248 -0.12437434 0.022581294 2.3509886e-38
0.042492826 -0.12437434 0.022581294 2.3509883e-38
0.044174399 -0.12437434 0.022581294 2.2034753e-38
0.045855973 -0.12437434 0.022581294 1.6595213e-38
0.04753755 -0.12437434 0.022581294 5.9005203e-39
0.051329147 -0.13371049 -0.010389552 4.4253902e-39
0.05306853 -0.13371049 -0.010389552 3.4112383e-39
0.055012446 -0.13456844 -0.013419434 3.5949135e-39
-0.065569215 -0.12833218 0.014592066 1.0234431e-38
-0.063873634 -0.12833218 0.014592066 2.3509883e-38
-0.062178046 -0.12833218 0.014592066 2.3325494e-38
-0.060482472 -0.12833218 0.014592066 2.3509886e-38
-0.058786884 -0.12833218 0.014592066 2.3417691e-38
-0.057091303 -0.12833218 0.014592066 2.3509886e-38
-0.055395722 -0.12833218 0.014592066 2.3509527e-38
-0.053700138 -0.12833218 0.014592066 2.3509527e-38
-0.052004553 -0.12833218 0.014592066 2.3509527e-38
-0.050308973 -0.12833218 0.014592066 2.3509527e-38
-0.048613388 -0.12833218 0.014592066 2.3509886e-38
-0.046917807 -0.12833218 0.014592066 2.3509886e-38
-0.045222223 -0.12833218 0.014592066 2.3509886e-38
-0.043526642 -0.12833218 0.014592066 2.3509883e-38
-0.041831058 -0.12833218 0.014592066 2.350988e-38
-0.040135473 -0.12833218 0.014592066 2.350988e-38
-0.038439892 -0.12833218 0.014592066 2.3509886e-38
-0.036744311 -0.12833218 0.014592066 2.3509886e-38
-0.035048727 -0.12833218 0.014592066 2.3509886e-38
-0.033353142 -0.12833218 0.014592066 2.3509886e-38
-0.031657562 -0.12833218 0.014592066 2.3509886e-38
-0.0299059 -0.12746434 0.017638043 2.3509886e-38
-0.028215662 -0.12746434 0.017638043 2.3509886e-38
-0.026525419 -0.12746434 0.017638043 2.3509886e-38
-0.024835177 -0.12746434 0.017638043 2.3509886e-38
-0.023144934 -0.12746434 0.017638043 2.3509886e-38
-0.021454692 -0.12746434 0.017638043 2.3509886e-38
-0.019764449 -0.12746434 0.017638043 2.3509886e-38
-0.018074207 -0.12746434 0.017638043 2.3509886e-38
-0.016383965 -0.12746434 0.017638043 2.3509886e-38
-0.014693723 -0.12746434 0.017638043 2.3509886e-38
-0.013003481 -0.12746434 0.017638043 2.3509886e-38
-0.011313238 -0.12746434 0.017638043 2.3509886e-38
-0.0096280677 -0.1269149 0.019566491 2.3509886e-38
-0.0079412078 -0.1269149 0.019566491 2.3509886e-38
-0.0062543461 -0.1269149 0.019566491 2.3509886e-38
-0.0045522703 -0.12746434 0.017638043 2.3509886e-38
-0.0028620278 -0.12746434 0.017638043 2.3509886e-38
-0.0011717854 -0.12746434 0.017638043 2.3509886e-38
0.00049309712 -0.1269149 0.019566491 2.3509886e-38
0.0021799579 -0.1269149 0.019566491 2.3509886e-38
0.0038668187 -0.1269149 0.019566491 2.3509886e-38
0.0055536805 -0.1269149 0.019566491 2.3509886e-38
0.0072405403 -0.1269149 0.019566491 2.3509886e-38
0.0089274021 -0.1269149 0.019566491 2.3509886e-38
0.010614262 -0.1269149 0.019566491 2.3509886e-38
0.012301124 -0.1269149 0.019566491 2.3509886e-38
0.013906051 -0.12605591 0.022581294 2.3509886e-38
0.015587627 -0.12605591 0.022581294 2.3509886e-38
0.017361704 -0.1269149 0.019566491 2.3509886e-38
0.019111119 -0.12746434 0.017638043 2.3509886e-38
0.020801362 -0.12746434 0.017638043 2.3509886e-38
0.022491604 -0.12746434 0.017638043 2.3509886e-38
0.024181847 -0.12746434 0.017638043 2.3509886e-38
0.025992252 -0.12833218 0.014592066 2.3509886e-38
0.027562328 -0.12746434 0.017638043 2.3509886e-38
0.02925257 -0.12746434 0.017638043 2.3509886e-38
0.030942813 -0.12746434 0.017638043 2.3509886e-38
0.032633055 -0.12746434 0.017638043 2.3509886e-38
0.034230314 -0.1269149 0.019566491 2.3509886e-38
0.035917174 -0.1269149 0.019566491 2.3509886e-38
0.037604034 -0.1269149 0.019566491 2.3509886e-38
0.039129674 -0.12605591 0.022581294 2.3509886e-38
0.040811248 -0.12605591 0.022581294 2.3509886e-38
0.042492826 -0.12605591 0.022581294 2.3418047e-38
0.044174399 -0.12605591 0.022581294 2.2312058e-38
0.045855973 -0.12605591 0.022581294 1.6595932e-38
0.04753755 -0.12605591 0.022581294 5.0714785e-39
0.049219124 -0.12605591 0.022581294 3.0431747e-39
-0.067264795 -0.13002776 0.014592066 1.0605009e-38
-0.065569215 -0.13002776 0.014592066 9.7734528e-39
-0.063873634 -0.13002776 0.014592066 2.3417687e-38
-0.062178046 -0.13002776 0.014592066 2.3325494e-38
-0.060482472 -0.13002776 0.014592066 2.3509886e-38
-0.058786884 -0.13002776 0.014592066 2.3325497e-38
-0.057091303 -0.13002776 0.014592066 2.3509886e-38
-0.055259533 -0.12915458 0.017638043 2.3509527e-38
-0.053569291 -0.12915458 0.017638043 2.3509527e-38
-0.051879048 -0.12915458 0.017638043 2.3509527e-38
-0.050188806 -0.12915458 0.017638043 2.3509527e-38
-0.048498567 -0.12915458 0.017638043 2.3509886e-38
-0.046917807 -0.13002776 0.014592066 2.3509886e-38
-0.045118082 -0.12915458 0.017638043 2.3509886e-38
-0.04342784 -0.12915458 0.017638043 2.3509883e-38
-0.041831058 -0.13002776 0.014592066 2.350988e-38
-0.040135473 -0.13002776 0.014592066 2.350988e-38
-0.038439892 -0.13002776 0.014592066 2.3509886e-38
-0.036744311 -0.13002776 0.014592066 2.3509886e-38
-0.035048727 -0.13002776 0.014592066 2.3509886e-38
-0.033353142 -0.13002776 0.014592066 2.3509886e-38
-0.031657562 -0.13002776 0.014592066 2.3509886e-38
-0.0299059 -0.12915458 0.017638043 2.3509886e-38
-0.028215662 -0.12915458 0.017638043 2.3509886e-38
-0.026525419 -0.12915458 0.017638043 2.3509886e-38
-0.024835177 -0.12915458 0.017638043 2.3509886e-38
-0.023144934 -0.12915458 0.017638043 2.3509886e-38
-0.021454692 -0.12915458 0.017638043 2.3509886e-38
-0.019764449 -0.12915458 0.017638043 2.3509886e-38
-0.018074207 -0.12915458 0.017638043 2.3509886e-38
-0.016383965 -0.12915458 0.017638043 2.3509886e-38
-0.014693723 -0.12915458 0.017638043 2.3509886e-38
-0.013003481 -0.12915458 0.017638043 2.3509886e-38
-0.011314929 -0.12860174 0.019566491 2.3509886e-38
-0.0096280677 -0.12860174 0.019566491 2.3509886e-38
-0.0079412078 -0.12860174 0.019566491 2.3509886e-38
-0.0062543461 -0.12860174 0.019566491 2.3509886e-38
-0.0045674853 -0.12860174 0.019566491 2.3509886e-38
-0.0028620278 -0.12915458 0.017638043 2.3509886e-38
-0.0011717854 -0.12915458 0.017638043 2.3509886e-38
0.0005184561 -0.12915458 0.017638043 2.3509886e-38
0.0022086985 -0.12915458 0.017638043 2.3509886e-38
0.00389894 -0.12915458 0.017638043 2.3509886e-38
0.0055891825 -0.12915458 0.017638043 2.3509886e-38
0.0072405403 -0.12860174 0.019566491 2.3509886e-38
0.0089274021 -0.12860174 0.019566491 2.3509886e-38
0.010614262 -0.12860174 0.019566491 2.3509886e-38
0.012224478 -0.12773751 0.022581294 2.3509886e-38
0.013906051 -0.12773751 0.022581294 2.3509886e-38
0.015587627 -0.12773751 0.022581294 2.3509886e-38
0.017269202 -0.12773751 0.022581294 2.3509886e-38
0.019048568 -0.12860174 0.019566491 2.3509886e-38
0.020735428 -0.12860174 0.019566491 2.3509886e-38
0.022491604 -0.12915458 0.017638043 2.3509886e-38
0.024181847 -0.12915458 0.017638043 2.3509886e-38
0.025992252 -0.13002776 0.014592066 2.3509886e-38
0.027687833 -0.13002776 0.014592066 2.3509886e-38
0.02925257 -0.12915458 0.017638043 2.3509886e-38
0.030942813 -0.12915458 0.017638043 2.3509886e-38
0.032633055 -0.12915458 0.017638043 2.3509886e-38
0.034323297 -0.12915458 0.017638043 2.3509886e-38
0.035917174 -0.12860174 0.019566491 2.3509886e-38
0.037604034 -0.12860174 0.019566491 2.3509886e-38
0.039129674 -0.12773751 0.022581294 2.3509886e-38
0.040811248 -0.12773751 0.022581294 2.3509886e-38
0.042492826 -0.12773751 0.022581294 2.332621e-38
0.044174399 -0.12773751 0.022581294 2.2497529e-38
0.045855973 -0.12773751 0.022581294 1.6964715e-38
0.04753755 -0.12773751 0.022581294 4.6105004e-39
-0.067264795 -0.13172336 0.014592066 1.023587e-38
-0.065569215 -0.13172336 0.014592066 9.3124719e-39
-0.063873634 -0.13172336 0.014592066 2.3325847e-38
-0.062178046 -0.13172336 0.014592066 2.3325492e-38
-0.060482472 -0.13172336 0.014592066 2.3509883e-38
-0.058640018 -0.13084482 0.017638043 2.3325494e-38
-0.056949779 -0.13084482 0.017638043 2.3509886e-38
-0.055259533 -0.13084482 0.017638043 2.3509886e-38
-0.053569291 -0.13084482 0.017638043 2.3417691e-38
-0.051879048 -0.13084482 0.017638043 2.3509886e-38
-0.050188806 -0.13084482 0.017638043 2.3509886e-38
-0.048498567 -0.13084482 0.017638043 2.3509886e-38
-0.046808325 -0.13084482 0.017638043 2.3509886e-38
-0.045118082 -0.13084482 0.017638043 2.3509886e-38
-0.04342784 -0.13084482 0.017638043 2.3509883e-38
-0.041737597 -0.13084482 0.017638043 2.350988e-38
-0.040047355 -0.13084482 0.017638043 2.350988e-38
-0.038439892 -0.13172336 0.014592066 2.3509886e-38
-0.036744311 -0.13172336 0.014592066 2.3509886e-38
-0.035048727 -0.13172336 0.014592066 2.3509886e-38
-0.033353142 -0.13172336 0.014592066 2.3509886e-38
-0.031657562 -0.13172336 0.014592066 2.3509886e-38
-0.0299059 -0.13084482 0.017638043 2.3509886e-38
-0.028215662 -0.13084482 0.017638043 2.3509886e-38
-0.026525419 -0.13084482 0.017638043 2.3509886e-38
-0.024835177 -0.13084482 0.017638043 2.3509886e-38
-0.023144934 -0.13084482 0.017638043 2.3509886e-38
-0.021454692 -0.13084482 0.017638043 2.3509886e-38
-0.019764449 -0.13084482 0.017638043 2.3509886e-38
-0.018074207 -0.13084482 0.017638043 2.3509886e-38
-0.016383965 -0.13084482 0.017638043 2.3509886e-38
-0.014693723 -0.13084482 0.017638043 2.3509886e-38
-0.013003481 -0.13084482 0.017638043 2.3509886e-38
-0.011314929 -0.13028862 0.019566491 2.3509886e-38
-0.0096280677 -0.13028862 0.019566491 2.3509886e-38
-0.0079412078 -0.13028862 0.019566491 2.3509886e-38
-0.0062543461 -0.13028862 0.019566491 2.3509886e-38
-0.0045674853 -0.13028862 0.019566491 2.3509886e-38
-0.0028620278 -0.13084482 0.017638043 2.3509886e-38
-0.0011717854 -0.13084482 0.017638043 2.3509886e-38
0.0005184561 -0.13084482 0.017638043 2.3509886e-38
0.0022086985 -0.13084482 0.017638043 2.3509886e-38
0.00389894 -0.13084482 0.017638043 2.3509886e-38
0.0055891825 -0.13084482 0.017638043 2.3509886e-38
0.0072405403 -0.13028862 0.019566491 2.3509886e-38
0.0089274021 -0.13028862 0.019566491 2.3509886e-38
0.010542902 -0.12941907 0.022581294 2.3509886e-38
0.012224478 -0.12941907 0.022581294 2.3509886e-38
0.013906051 -0.12941907 0.022581294 2.3509886e-38
0.015587627 -0.12941907 0.022581294 2.3509886e-38
0.017269202 -0.12941907 0.022581294 2.3509886e-38
0.018950775 -0.12941907 0.022581294 2.3509886e-38
0.020735428 -0.13028862 0.019566491 2.3509886e-38
0.022491604 -0.13084482 0.017638043 2.3509886e-38
0.024181847 -0.13084482 0.017638043 2.3509886e-38
0.025992252 -0.13172336 0.014592066 2.3509886e-38
0.027562328 -0.13084482 0.017638043 2.3509886e-38
0.02925257 -0.13084482 0.017638043 2.3509886e-38
0.030942813 -0.13084482 0.017638043 2.3509886e-38
0.032633055 -0.13084482 0.017638043 2.3509886e-38
0.034323297 -0.13084482 0.017638043 2.3509886e-38
0.035917174 -0.13028862 0.019566491 2.3509886e-38
0.037604034 -0.13028862 0.019566491 2.3509886e-38
0.039290898 -0.13028862 0.019566491 2.3509886e-38
0.040977757 -0.13028862 0.019566491 2.341805e-38
0.042492826 -0.12941907 0.022581294 2.3050347e-38
0.044174399 -0.12941907 0.022581294 2.2682283e-38
0.045855973 -0.12941907 0.022581294 1.7149826e-38
0.04753755 -0.12941907 0.022581294 4.6112206e-39
0.048894469 -0.1279559 0.027654305 1.8453517e-39
-0.067264795 -0.13341893 0.014592066 9.9589231e-39
-0.065569215 -0.13341893 0.014592066 8.9436894e-39
-0.063873634 -0.13341893 0.014592066 2.3141456e-38
-0.062178046 -0.13341893 0.014592066 2.3325492e-38
-0.060330257 -0.13253506 0.017638043 2.3509883e-38
-0.058640018 -0.13253506 0.017638043 2.3233299e-38
-0.056949779 -0.13253506 0.017638043 2.3509886e-38
-0.055259533 -0.13253506 0.017638043 2.3509886e-38
-0.053569291 -0.13253506 0.017638043 2.3417691e-38
